0.556022, 0.558598, 0.558901, 0.744275, 0.760024, 0.78788, 0.584092, 0.583212, 0.581337, 0.580578, 0.580288, 0.579953, 0.753287, 0.751301, 0.801539, 0.674936, 0.594807, 0.595836, 0.59612, 0.596113, 0.595587, 0.595728, 0.596862, 0.596493, 0.596093, 0.595859, 0.595559, 0.595645, 0.597962, 0.597999, 0.600069, 0.600146, 0.60026, 0.603522, 0.602298, 0.601464, 0.600703, 0.596658, 0.596621, 0.596585, 0.596526, 0.594985, 0.593402, 0.593149, 0.85305, 0.600799, 0.602573, 0.604003, 0.607116, 0.735797, 0.805298, 0.784131, 1.03007, 1.03041, 1.03009, 1.03077, 1.02896, 1.10329, 1.10201, 0.652901, 0.654105, 0.667872, 0.658976, 0.658994, 0.671475, 0.679638, 0.675224, 0.665445, 0.664502, 0.717504, 0.718301, 0.810095, 0.809243, 0.861709, 0.901553, 0.976485, 0.946473, 0.945685, 0.998407, 0.995722, 1.12315, 1.11826, 1.14012, 1.07127, 1.16833, 1.15951, 1.08713, 1.08756, 1.11205, 1.11374, 1.10948, 1.10637, 1.15731, 1.13702, 1.15688, 1.26904, 1.26883, 1.3205, 1.3376, 1.3729, 1.3714, 1.37433, 1.37066, 1.394, 1.38563, 1.38782, 1.39847, 1.44168, 1.44687, 1.42899, 1.38982, 1.43795, 1.42608, 1.44922, 1.50413, 1.47043, 1.4673, 1.44182, 1.45718, 1.51251, 1.45457, 1.47126, 1.44115, 1.44016, 1.45722, 1.44868, 1.44751, 1.44493, 1.54361, 1.49887, 1.50908, 1.51535, 1.4571, 1.45772, 1.44767, 1.43892, 1.46632, 1.45727, 1.47086, 1.47128, 1.47448, 1.47848, 1.50467, 1.43826, 1.4479, 1.44701, 1.45599, 1.46708, 1.43029, 1.4296, 1.39257, 1.39337, 1.32264, 1.30726, 1.34277, 1.33939, 1.2644, 1.26537, 1.28555, 1.24583, 1.26781, 1.21585, 1.21381, 1.18792, 1.1873, 1.15071, 1.12905, 1.12888, 1.09018, 1.09528, 1.12361, 1.16316, 1.05675, 1.09217, 1.09422, 1.00821, 0.9998, 0.987152, 0.981803, 0.944783, 0.930495, 0.903969, 0.90405, 0.963781, 0.868745, 0.869544, 0.870218, 0.88093, 0.891848, 0.961519, 0.988517, 0.878176, 1.00181, 0.9621, 0.963243, 0.899321, 0.897958, 0.897739, 0.890642, 1.01244, 1.0117, 0.89778, 0.908527, 0.887461, 0.888715, 0.888966, 0.888495, 0.875965, 0.878612, 0.880834, 0.881262, 0.881451, 0.880429, 0.881451, 0.883132, 0.883844, 0.88175, 0.880967, 0.88143, 0.880053, 0.877429, 0.878908, 0.925046, 0.975428, 0.916921, 1.35016, 0.939885, 0.895625, 0.897907, 0.893575, 0.893813, 0.950854, 1.16482, 0.894622, 0.88607, 0.887152, 0.890789, 0.892306, 0.898116, 0.899643
0.556478, 0.556184, 0.76356, 0.763696, 0.610526, 0.805175, 0.584522, 0.584421, 0.580268, 0.579411, 0.579569, 0.582925, 0.746341, 0.588422, 0.591638, 0.76323, 0.595905, 0.596772, 0.597789, 0.597756, 0.596589, 0.596956, 0.596799, 0.596755, 0.596923, 0.596545, 0.600294, 0.602576, 0.602371, 0.600218, 0.600276, 0.600226, 0.600915, 0.602541, 0.601707, 0.601866, 0.602322, 0.600591, 0.594215, 0.595235, 0.596505, 0.595776, 0.593987, 0.593573, 0.592415, 0.599544, 0.600655, 0.647368, 0.829055, 0.837001, 0.77415, 0.720881, 0.788362, 0.787303, 0.881832, 1.02965, 0.978151, 1.11827, 0.650402, 0.654898, 0.655254, 0.657217, 0.659125, 0.657411, 0.657982, 0.67631, 0.67546, 0.653421, 0.653272, 0.69915, 0.806632, 0.809865, 0.810076, 0.838699, 0.889477, 0.986762, 0.946429, 0.997358, 0.996046, 0.996697, 0.987804, 0.989631, 1.14061, 1.05708, 1.08112, 1.08618, 1.10334, 1.11422, 1.12584, 1.11957, 1.1182, 1.13924, 1.13809, 1.16307, 1.22145, 1.29936, 1.27677, 1.30786, 1.30797, 1.37599, 1.37431, 1.37607, 1.35313, 1.38228, 1.3886, 1.38744, 1.38385, 1.36806, 1.3685, 1.36831, 1.38545, 1.38453, 1.42687, 1.42518, 1.44755, 1.43843, 1.44053, 1.43713, 1.44637, 1.44731, 1.43522, 1.45105, 1.44284, 1.45074, 1.45303, 1.44915, 1.44555, 1.44439, 1.49931, 1.46169, 1.46815, 1.48214, 1.60263, 1.49646, 1.43683, 1.44054, 1.46836, 1.46862, 1.47161, 1.46111, 1.48453, 1.49575, 1.47366, 1.4735, 1.52402, 1.48904, 1.45589, 1.49879, 1.46259, 1.42024, 1.41636, 1.36049, 1.31728, 1.28593, 1.3484, 1.33989, 1.26436, 1.25094, 1.27292, 1.21834, 1.21983, 1.26332, 1.18815, 1.1596, 1.15949, 1.13551, 1.11021, 1.10126, 1.10043, 1.07327, 1.06945, 1.08501, 1.03884, 1.03991, 1.02533, 1.01181, 1.00526, 0.987088, 0.980238, 0.979873, 0.934268, 0.905244, 0.908256, 0.908178, 0.918661, 0.954102, 0.872168, 0.877315, 0.878274, 0.880838, 0.881168, 0.878545, 0.8788, 0.883916, 0.886353, 0.897418, 0.898217, 0.89275, 0.890567, 0.890003, 1.03401, 0.890765, 0.888178, 0.878303, 0.88714, 0.888983, 0.889187, 0.887767, 0.8857, 0.8788, 0.880016, 0.882775, 0.879717, 0.880937, 0.881845, 0.883132, 1.00051, 0.897294, 0.898303, 0.971033, 1.01905, 1.00908, 0.978249, 0.961094, 0.918583, 0.920091, 0.919825, 0.912973, 0.891907, 0.893385, 0.893846, 1.15431, 1.04711, 1.03725, 0.884025, 0.885609, 0.888864, 0.890415, 0.89752, 0.897146
0.556199, 0.556886, 0.596888, 0.749051, 0.587247, 0.58676, 0.58828, 0.588242, 0.580106, 0.579591, 0.583943, 0.589695, 0.590691, 0.593195, 0.592201, 0.735377, 0.597578, 0.598422, 0.598103, 0.598455, 0.599563, 0.599285, 0.596703, 0.595533, 0.592504, 0.59137, 0.603542, 0.604253, 0.603415, 0.601477, 0.600212, 0.600095, 0.600509, 0.601019, 0.60097, 0.601212, 0.601148, 0.600322, 0.594382, 0.594461, 0.59515, 0.596235, 0.595712, 0.594381, 0.594853, 0.597701, 0.596977, 0.595845, 0.853417, 0.783581, 0.786986, 0.721781, 0.95969, 0.717803, 0.986319, 0.711626, 0.992461, 1.11334, 0.771185, 0.74997, 0.746057, 0.710359, 0.658159, 0.658096, 0.657238, 0.675367, 0.673925, 0.653059, 0.653455, 0.721522, 0.823906, 0.809468, 0.810475, 0.897463, 0.939838, 0.962885, 0.996975, 0.996263, 0.948276, 1.00116, 0.991407, 1.07028, 1.04027, 1.0612, 1.07155, 1.10114, 1.09574, 1.1169, 1.16911, 1.15439, 1.13682, 1.14091, 1.15639, 1.20115, 1.25467, 1.26273, 1.2842, 1.30946, 1.27406, 1.27461, 1.29731, 1.34847, 1.36715, 1.37493, 1.36851, 1.36994, 1.37735, 1.36945, 1.36978, 1.36985, 1.39683, 1.44679, 1.39252, 1.45537, 1.414, 1.46578, 1.42984, 1.42323, 1.41344, 1.40983, 1.44296, 1.45103, 1.45179, 1.45105, 1.45059, 1.4529, 1.45359, 1.44349, 1.45093, 1.45168, 1.44445, 1.44397, 1.43008, 1.43615, 1.43643, 1.44423, 1.46786, 1.45906, 1.46256, 1.46213, 1.54599, 1.55348, 1.55309, 1.47775, 1.48203, 1.44928, 1.46169, 1.46502, 1.44633, 1.42749, 1.43061, 1.39911, 1.33294, 1.3326, 1.2818, 1.2683, 1.24575, 1.2718, 1.27447, 1.21821, 1.25978, 1.26749, 1.19583, 1.15033, 1.17869, 1.13685, 1.12013, 1.10784, 1.08507, 1.08116, 1.07079, 1.06057, 1.04679, 1.09481, 1.09031, 1.0023, 0.981278, 0.977779, 0.963466, 0.951194, 0.921903, 0.906065, 0.925428, 0.929732, 0.917881, 0.876488, 0.875565, 0.876674, 0.928403, 0.88041, 0.881477, 0.878038, 0.879942, 0.943911, 0.893763, 0.89376, 0.890316, 0.892098, 0.888121, 0.886405, 0.885377, 0.96833, 0.880635, 0.880013, 0.880762, 0.88795, 0.8872, 0.887617, 0.889147, 0.972126, 0.892576, 1.04532, 0.893206, 0.895429, 0.89632, 0.897168, 1.01554, 0.990855, 0.992143, 0.908447, 0.908364, 0.963469, 0.915624, 0.917366, 0.918886, 0.920434, 0.92125, 0.906016, 0.937219, 0.966922, 0.88727, 1.13696, 0.888548, 0.887859, 0.885517, 0.886677, 0.888254, 0.890451, 0.894827, 0.89258
0.556633, 0.616083, 0.924567, 0.614232, 0.588818, 0.588697, 0.588237, 0.588132, 0.587443, 0.587384, 0.589757, 0.590253, 0.59133, 0.593364, 0.593309, 0.59643, 0.598944, 0.599027, 0.598137, 0.598486, 0.601583, 0.60011, 0.598668, 0.594135, 0.592783, 0.592392, 0.603795, 0.604538, 0.603396, 0.601912, 0.598896, 0.600069, 0.780513, 1.169, 1.16826, 0.590806, 0.599715, 0.59918, 0.593265, 0.593434, 0.594228, 0.596892, 0.59613, 0.593395, 0.594892, 0.596925, 0.596451, 0.59634, 0.596131, 0.785104, 0.815137, 0.921901, 0.802441, 1.26696, 1.26588, 0.926403, 1.18666, 0.794746, 0.795167, 0.631287, 0.747344, 0.747352, 0.70872, 0.707796, 0.67685, 0.628016, 0.680335, 0.650707, 0.704252, 0.726437, 0.819794, 0.819604, 0.842932, 0.859625, 0.935353, 0.997288, 0.992194, 0.958383, 0.963857, 0.980926, 0.984736, 1.03333, 1.05518, 1.05703, 1.07179, 1.09227, 1.11278, 1.11301, 1.2168, 1.15118, 1.20432, 1.18069, 1.20489, 1.22373, 1.26143, 1.34577, 1.29733, 1.27375, 1.27388, 1.27557, 1.30234, 1.32058, 1.36728, 1.36218, 1.36798, 1.37788, 1.36092, 1.36815, 1.38107, 1.40059, 1.39683, 1.36482, 1.39369, 1.38957, 1.3815, 1.4388, 1.44379, 1.4158, 1.4122, 1.41077, 1.41868, 1.44455, 1.51282, 1.51219, 1.52096, 1.46144, 1.56092, 1.43656, 1.43575, 1.45766, 1.47941, 1.4998, 1.48534, 1.48245, 1.44727, 1.44884, 1.4453, 1.46855, 1.49912, 1.55369, 1.54488, 1.55367, 1.55316, 1.58354, 1.45841, 1.46335, 1.46228, 1.45896, 1.44446, 1.43374, 1.38911, 1.35073, 1.34402, 1.39646, 1.39733, 1.27374, 1.26237, 1.24139, 1.27698, 1.25906, 1.25778, 1.20996, 1.16807, 1.15639, 1.18272, 1.13278, 1.12687, 1.08666, 1.07819, 1.07684, 1.09881, 1.05895, 1.04346, 1.04335, 1.01255, 0.980175, 0.980863, 0.982076, 0.985285, 0.943341, 0.962592, 0.963909, 0.885316, 0.891693, 0.894686, 0.877112, 0.8759, 0.908621, 0.928458, 0.897133, 0.899391, 1.07458, 1.09559, 0.891618, 0.894849, 0.893633, 0.889933, 0.886045, 0.885564, 0.88438, 0.881288, 0.879832, 0.876825, 0.879578, 0.880127, 0.878514, 0.877953, 0.884849, 0.889503, 0.969641, 0.893765, 0.895456, 0.897007, 0.897297, 0.897388, 0.898657, 0.90009, 0.964532, 0.905955, 0.907264, 0.980085, 0.911903, 0.915235, 0.91597, 0.918915, 0.921535, 1.00457, 0.905146, 0.94684, 0.884147, 0.88518, 0.94092, 0.92962, 0.882069, 0.88333, 0.884392, 0.900595, 1.3438, 0.892831, 0.892357
0.929269, 0.569738, 0.921518, 0.59523, 0.589041, 0.589172, 0.58863, 0.589532, 0.588631, 0.589019, 0.590137, 0.590534, 0.590491, 0.593412, 0.59345, 0.594891, 0.598152, 0.597909, 0.597064, 0.597478, 0.600597, 0.599945, 0.598233, 0.597173, 0.595324, 0.604179, 0.603707, 0.603167, 0.60276, 0.600654, 1.01861, 1.01734, 0.732576, 0.588817, 0.58943, 0.590537, 0.590578, 0.596618, 0.822009, 0.592736, 0.593498, 0.593687, 0.59347, 0.593275, 0.593156, 0.595137, 1.14865, 0.595332, 0.729778, 0.728885, 0.933113, 0.605027, 0.932007, 1.2668, 1.26632, 1.26609, 0.627034, 0.628521, 0.631431, 0.632225, 0.63374, 0.634624, 0.637559, 0.659431, 0.630187, 0.628003, 0.627499, 0.643492, 0.724798, 0.733351, 0.820391, 0.819758, 0.878256, 0.880097, 0.954783, 0.956388, 0.963878, 0.962502, 0.96154, 0.977075, 1.00441, 1.00429, 1.01314, 1.05887, 1.08297, 1.08126, 1.09557, 1.11327, 1.18368, 1.2048, 1.18244, 1.21387, 1.22333, 1.2297, 1.24065, 1.26804, 1.36112, 1.37553, 1.26744, 1.29957, 1.35453, 1.32636, 1.36481, 1.33981, 1.37274, 1.37846, 1.36835, 1.36127, 1.36085, 1.36446, 1.36964, 1.33642, 1.38468, 1.54063, 1.42547, 1.4298, 1.43146, 1.43415, 1.42991, 1.42418, 1.42317, 1.42239, 1.51192, 1.43934, 1.43992, 1.41271, 1.44, 1.45951, 1.46189, 1.4613, 1.57491, 1.42807, 1.44001, 1.42369, 1.4173, 1.43245, 1.4378, 1.43983, 1.4984, 1.4506, 1.54219, 1.64455, 1.59678, 1.59184, 1.46011, 1.46125, 1.46096, 1.55722, 1.4822, 1.42625, 1.39868, 1.39929, 1.35388, 1.29625, 1.29269, 1.28176, 1.25414, 1.27646, 1.26408, 1.26152, 1.19607, 1.18434, 1.15367, 1.1718, 1.12374, 1.15909, 1.15923, 1.09472, 1.08388, 1.07491, 1.07522, 1.07423, 1.04429, 1.02386, 1.00819, 0.976258, 0.975207, 0.997602, 0.943036, 0.943682, 0.960995, 0.980097, 0.887872, 0.888641, 0.935787, 0.885017, 0.886945, 0.9063, 0.899082, 0.89909, 0.898755, 1.1093, 0.901421, 0.892098, 0.893133, 0.890432, 0.889411, 0.885249, 0.882005, 0.882238, 1.0164, 0.942069, 0.873417, 0.872954, 0.87531, 0.87677, 0.877494, 0.876214, 0.87808, 0.885999, 0.93477, 0.894096, 0.895798, 0.895908, 0.89571, 0.97083, 0.954167, 0.937029, 0.921369, 0.964312, 0.904749, 1.00752, 0.984417, 0.913332, 0.97087, 0.964115, 1.11141, 0.901928, 0.891255, 0.93713, 0.878217, 0.879999, 0.901917, 0.881887, 0.88099, 0.883872, 1.10666, 1.08824, 0.891869, 0.892416
0.62285, 0.570561, 0.926075, 0.901526, 0.587546, 0.588517, 0.588985, 0.588811, 0.588766, 0.590455, 0.59055, 0.589629, 0.589173, 0.59318, 0.593725, 0.594991, 0.596008, 0.596726, 0.59354, 0.597721, 0.59701, 0.597512, 0.598308, 0.597938, 0.598182, 0.60058, 0.601287, 0.60181, 0.598987, 0.916166, 0.987699, 0.586342, 0.771208, 0.588857, 0.58977, 0.591923, 0.591373, 0.590457, 0.59155, 0.591184, 0.590865, 0.58816, 0.593828, 0.593357, 0.593201, 1.05726, 1.13245, 1.00605, 1.00567, 0.955748, 0.603671, 0.604126, 0.933463, 0.971736, 1.26616, 1.26607, 1.18427, 0.627044, 0.631277, 0.633212, 0.633733, 0.634836, 0.635263, 0.630762, 0.631199, 0.628538, 0.684291, 0.643997, 0.73368, 0.733904, 0.820224, 0.821516, 0.822361, 0.855973, 0.956758, 0.95732, 0.962587, 0.961863, 0.961139, 0.985155, 0.993953, 1.05965, 1.03336, 1.04553, 1.05728, 1.08761, 1.10441, 1.10477, 1.1534, 1.21991, 1.20294, 1.2055, 1.25019, 1.22011, 1.26165, 1.30965, 1.26747, 1.26708, 1.30022, 1.35838, 1.35975, 1.37218, 1.34632, 1.41672, 1.41743, 1.4346, 1.47055, 1.38846, 1.36729, 1.36188, 1.34453, 1.36874, 1.37029, 1.38628, 1.38992, 1.43372, 1.41957, 1.5029, 1.46546, 1.42505, 1.42509, 1.46138, 1.42676, 1.40207, 1.53405, 1.41346, 1.41236, 1.40559, 1.40574, 1.45284, 1.46406, 1.42648, 1.43344, 1.41972, 1.40331, 1.47569, 1.43742, 1.49901, 1.49741, 1.45871, 1.54107, 1.54828, 1.69282, 1.45666, 1.45568, 1.46039, 1.54853, 1.55562, 1.40733, 1.43011, 1.38552, 1.37142, 1.37498, 1.33758, 1.297, 1.37182, 1.25447, 1.23414, 1.26425, 1.26086, 1.18047, 1.17245, 1.14291, 1.13236, 1.11537, 1.11174, 1.10828, 1.10618, 1.10985, 1.09884, 1.06329, 1.11665, 1.05691, 1.02801, 1.01959, 0.966267, 0.966626, 0.967647, 0.952369, 0.95261, 0.964728, 0.909274, 0.902109, 0.891758, 0.892614, 0.929357, 0.898824, 0.898799, 0.89895, 0.900127, 0.905508, 0.904751, 0.900773, 0.900729, 0.904478, 0.890082, 0.88524, 0.885561, 0.876906, 0.876416, 0.872415, 0.872778, 0.870124, 0.869922, 1.23357, 0.874415, 0.874743, 0.87405, 1.12515, 1.07837, 1.06376, 0.891023, 0.890602, 0.946643, 0.887518, 0.916503, 0.92492, 0.919137, 0.887924, 0.922067, 0.928496, 0.942521, 0.935621, 0.905735, 0.90371, 0.905546, 0.877495, 0.945703, 0.890636, 1.1151, 0.879395, 0.88019, 0.880336, 0.879949, 0.877543, 0.878386, 0.88577, 0.888178, 0.891406, 0.891141
0.60486, 0.617783, 0.617975, 0.845702, 0.613241, 0.610948, 0.588163, 0.588879, 0.589665, 0.589878, 0.589, 0.588216, 0.866266, 0.667114, 0.59114, 0.589542, 0.587811, 0.593442, 0.593627, 0.597403, 0.59816, 0.597794, 0.597656, 0.597347, 0.760629, 0.740323, 0.710291, 0.600743, 0.91141, 0.913266, 0.931656, 0.583134, 0.586498, 0.587762, 0.590163, 0.592184, 0.591041, 0.591165, 0.589809, 0.586669, 0.589265, 0.588554, 0.588288, 0.592136, 0.592433, 1.08304, 1.14006, 1.1405, 1.00588, 0.774674, 0.724741, 0.605105, 0.604367, 0.933622, 1.26618, 1.2649, 0.621666, 0.62083, 1.09207, 0.632087, 0.636641, 0.635173, 0.634911, 0.630074, 0.629467, 0.724847, 0.672527, 0.707454, 0.732637, 0.733692, 0.821542, 0.821651, 0.829038, 0.857785, 0.961575, 0.990177, 0.961474, 0.961291, 0.999429, 0.987498, 1.02386, 1.03244, 1.05118, 1.07694, 1.09063, 1.08745, 1.10516, 1.12339, 1.15258, 1.16997, 1.18232, 1.23965, 1.25089, 1.22656, 1.24813, 1.28756, 1.25888, 1.26164, 1.34204, 1.36212, 1.36062, 1.36346, 1.35763, 1.4037, 1.41748, 1.46368, 1.46369, 1.49616, 1.38617, 1.49804, 1.35818, 1.35745, 1.46878, 1.38535, 1.38487, 1.40484, 1.41923, 1.47856, 1.4691, 1.54207, 1.4206, 1.41939, 1.41256, 1.41284, 1.38252, 1.50291, 1.50647, 1.49887, 1.4059, 1.36873, 1.46452, 1.40593, 1.41985, 1.4303, 1.38929, 1.47497, 1.48128, 1.49524, 1.49354, 1.48821, 1.49133, 1.45528, 1.46426, 1.4472, 1.45994, 1.42189, 1.42331, 1.39862, 1.39295, 1.39567, 1.40267, 1.3751, 1.37286, 1.31775, 1.3577, 1.27397, 1.27198, 1.23703, 1.26504, 1.25709, 1.16889, 1.17059, 1.15328, 1.14244, 1.10597, 1.10804, 1.12882, 1.13316, 1.1403, 1.14211, 1.06397, 1.04947, 1.04691, 1.04577, 1.02046, 0.964603, 0.96648, 1.06988, 0.959629, 0.952451, 0.990436, 0.905987, 0.89559, 0.877854, 0.879556, 0.884424, 0.912651, 0.89463, 0.900401, 0.908782, 0.909947, 0.905306, 0.899661, 0.900827, 0.899528, 0.899161, 0.887421, 0.885667, 0.875762, 0.874733, 0.867916, 0.86836, 0.866515, 0.865288, 0.865, 0.978141, 0.894149, 1.10871, 1.09302, 0.869955, 1.08264, 0.915735, 0.893456, 0.92808, 0.937325, 0.921903, 0.864285, 0.911005, 0.888615, 0.985171, 0.994707, 0.867401, 0.868696, 1.00845, 1.00888, 1.04957, 0.877574, 0.944513, 0.929866, 0.928613, 0.878645, 0.880037, 0.870246, 0.87057, 0.870387, 0.878348, 0.89114, 0.886584, 0.889105, 0.890347
0.602119, 0.618457, 0.617464, 1.29905, 0.900874, 1.39977, 0.587105, 0.588063, 0.58813, 0.588601, 0.588414, 0.588306, 0.584311, 0.867003, 0.587416, 0.586505, 0.587175, 0.586731, 0.592712, 0.595105, 0.597561, 0.597305, 0.597144, 0.597418, 0.788913, 0.751737, 0.799178, 0.795224, 0.590526, 0.583131, 0.582713, 0.582832, 0.583119, 0.585774, 0.58983, 0.589864, 0.591691, 0.591282, 0.590445, 0.587912, 0.588161, 0.587792, 0.587845, 1.07556, 1.00477, 1.11971, 1.13906, 1.10851, 1.11701, 1.18615, 0.603979, 0.604789, 0.603785, 0.994254, 1.26506, 1.10782, 0.623191, 0.62201, 0.621079, 0.766208, 0.634956, 0.635679, 0.635185, 0.630078, 0.629182, 0.637903, 0.63788, 0.776948, 0.771299, 0.794821, 0.777741, 0.81348, 0.828105, 0.870219, 0.957737, 0.98197, 0.970978, 1.02882, 0.993656, 1.00572, 1.01599, 1.02475, 1.05689, 1.05927, 1.08377, 1.10889, 1.12258, 1.1462, 1.16169, 1.15608, 1.1976, 1.21582, 1.2429, 1.23468, 1.26178, 1.26325, 1.26209, 1.29942, 1.29879, 1.46304, 1.33785, 1.34139, 1.38152, 1.39543, 1.41791, 1.41987, 1.38167, 1.38215, 1.37727, 1.37786, 1.36438, 1.37255, 1.35914, 1.35558, 1.357, 1.3698, 1.36269, 1.47384, 1.41841, 1.45442, 1.40963, 1.48572, 1.41072, 1.38994, 1.38806, 1.39819, 1.3686, 1.41138, 1.38168, 1.36397, 1.3597, 1.37279, 1.3637, 1.41929, 1.41336, 1.40513, 1.40203, 1.42764, 1.49136, 1.49135, 1.49328, 1.44235, 1.43797, 1.42346, 1.39992, 1.40086, 1.40476, 1.3927, 1.38198, 1.37665, 1.3847, 1.39822, 1.47879, 1.39609, 1.35548, 1.27588, 1.21862, 1.21879, 1.22728, 1.17435, 1.16609, 1.16483, 1.1565, 1.12366, 1.10902, 1.10384, 1.11678, 1.08725, 1.12087, 1.07109, 1.05027, 1.05762, 1.05637, 1.04052, 1.04672, 1.05623, 1.00864, 0.95368, 0.951275, 0.952844, 0.931765, 0.906346, 0.923308, 0.884058, 0.877947, 0.880321, 0.887145, 0.914989, 0.902301, 0.90794, 0.907951, 0.904428, 0.901519, 0.901855, 0.901816, 0.899827, 0.887215, 0.884262, 1.13652, 0.872939, 0.866821, 0.863718, 0.862856, 0.862438, 1.1045, 1.21214, 0.874314, 0.859686, 0.863626, 0.864015, 0.866162, 0.867463, 0.869245, 0.868115, 0.867668, 0.863227, 0.864468, 0.864977, 0.866245, 0.909888, 0.867684, 0.866781, 0.868833, 1.01116, 0.966446, 0.873893, 0.876834, 0.880284, 0.933213, 0.92967, 0.936476, 0.99443, 0.87047, 0.871257, 0.869146, 0.890798, 0.89019, 0.883834, 0.883953, 0.885155
0.605925, 0.618076, 0.617074, 1.03946, 1.29069, 0.857022, 0.584094, 0.967597, 0.981905, 0.619091, 0.66963, 0.579282, 0.583073, 0.584377, 0.585347, 0.584548, 0.587522, 0.586762, 0.586053, 0.592402, 0.596955, 0.597314, 0.939947, 0.93965, 0.846221, 0.774152, 0.588346, 0.765963, 0.767156, 0.582748, 0.58226, 0.582047, 0.581893, 0.810532, 0.797629, 0.589901, 0.590946, 0.591209, 0.587189, 0.588338, 0.587398, 0.587669, 0.588977, 1.0043, 1.00346, 0.579297, 0.578325, 0.722429, 1.18851, 1.18611, 0.603664, 0.604091, 0.603793, 1.19159, 1.19112, 0.616681, 0.621071, 0.621012, 0.740102, 0.854589, 0.63495, 0.634878, 0.635018, 0.632746, 0.631959, 0.638644, 0.638002, 0.760115, 0.774215, 0.794141, 0.815011, 0.814376, 0.822476, 0.870776, 0.962696, 0.981449, 1.03555, 1.03413, 0.994694, 1.006, 1.01011, 1.04377, 1.06371, 1.10254, 1.10178, 1.13769, 1.13994, 1.14231, 1.17531, 1.23481, 1.26479, 1.24913, 1.26559, 1.26509, 1.25005, 1.22807, 1.25173, 1.29497, 1.44316, 1.44342, 1.41221, 1.34582, 1.37136, 1.34647, 1.47572, 1.42588, 1.44486, 1.38089, 1.37698, 1.37731, 1.37948, 1.3699, 1.36757, 1.35328, 1.3522, 1.35017, 1.40654, 1.40571, 1.37404, 1.40047, 1.37419, 1.39715, 1.39771, 1.3898, 1.37636, 1.38188, 1.4574, 1.34971, 1.36721, 1.34089, 1.33691, 1.33437, 1.35071, 1.34738, 1.36849, 1.40035, 1.47909, 1.49147, 1.4885, 1.44407, 1.43729, 1.46708, 1.45079, 1.3963, 1.40143, 1.39974, 1.38948, 1.38744, 1.42436, 1.36091, 1.35363, 1.35091, 1.3929, 1.36036, 1.359, 1.32327, 1.28393, 1.25422, 1.2542, 1.18116, 1.15578, 1.14891, 1.14189, 1.14765, 1.11463, 1.10443, 1.08718, 1.08776, 1.24356, 1.14079, 1.05306, 1.07475, 1.10852, 1.05833, 1.00882, 0.995089, 1.00445, 0.991742, 0.944299, 0.943166, 0.942487, 0.932747, 0.891239, 0.884792, 0.883136, 0.878796, 0.894932, 0.885457, 0.929934, 0.906051, 0.908051, 0.903524, 0.900938, 0.901254, 0.900859, 0.898486, 1.09285, 1.31313, 0.875654, 0.874045, 0.862652, 0.862647, 0.860575, 0.859038, 0.85836, 1.21964, 1.21878, 0.860911, 0.861535, 0.864234, 0.864402, 0.866216, 0.867209, 0.865879, 0.867212, 0.864486, 0.863094, 0.863166, 0.863458, 0.86422, 0.898513, 0.884247, 0.880955, 0.861224, 1.02026, 1.01837, 0.922334, 0.874337, 0.875722, 1.07012, 0.929325, 0.929264, 0.869677, 0.870379, 0.868881, 0.891011, 0.892801, 0.890573, 0.933082, 0.953846
0.599956, 1.20995, 1.20881, 0.564238, 1.1091, 0.587161, 0.563143, 0.562744, 0.561662, 0.563288, 0.699926, 0.577783, 0.669696, 0.647041, 0.583836, 0.583461, 0.586213, 0.586665, 0.763017, 0.763045, 0.778948, 0.762788, 0.852747, 0.578141, 0.577629, 0.577973, 0.813003, 1.00472, 0.970643, 0.576137, 0.575938, 0.576583, 0.581384, 0.946921, 0.808033, 0.804062, 0.914207, 0.587884, 0.587137, 0.586556, 0.586841, 0.582017, 0.582009, 0.582471, 0.579652, 0.579597, 0.578624, 0.721771, 0.898508, 0.990608, 0.60312, 0.604201, 0.604247, 0.60454, 0.853863, 0.617456, 0.616662, 0.61403, 0.612925, 0.732637, 0.63304, 0.634832, 0.634564, 0.631994, 0.740065, 0.66914, 0.669071, 0.742574, 0.742214, 0.797127, 0.814697, 0.813627, 0.870395, 0.878259, 0.964456, 1.03838, 1.03818, 1.04718, 1.0473, 1.00835, 1.02287, 1.11984, 1.07118, 1.12361, 1.15518, 1.15496, 1.15601, 1.17097, 1.15392, 1.17218, 1.23941, 1.24747, 1.27178, 1.21063, 1.20826, 1.23329, 1.28728, 1.25956, 1.3535, 1.42942, 1.42542, 1.41746, 1.31421, 1.34176, 1.33491, 1.47764, 1.4811, 1.43755, 1.3779, 1.37728, 1.42775, 1.39044, 1.39164, 1.39756, 1.36759, 1.35757, 1.34015, 1.3856, 1.37098, 1.3832, 1.38205, 1.36488, 1.36453, 1.36794, 1.38566, 1.3875, 1.35793, 1.34898, 1.36847, 1.34361, 1.3383, 1.33753, 1.39657, 1.34652, 1.34672, 1.36192, 1.3755, 1.39976, 1.41385, 1.4921, 1.4208, 1.43633, 1.42349, 1.39789, 1.39804, 1.39919, 1.39867, 1.38432, 1.35121, 1.35317, 1.3614, 1.39327, 1.36671, 1.38103, 1.38821, 1.29339, 1.28548, 1.22933, 1.25746, 1.18225, 1.19495, 1.15219, 1.15155, 1.14709, 1.12645, 1.10833, 1.0846, 1.10568, 1.13018, 1.13063, 1.05814, 1.03679, 1.03409, 1.03509, 1.03294, 0.996964, 0.991518, 0.991731, 0.946889, 0.946267, 0.946168, 0.912304, 0.901803, 0.883471, 0.883825, 0.884681, 0.884286, 0.881247, 0.885833, 0.891023, 0.919372, 0.892807, 0.897582, 0.90081, 0.900203, 0.893835, 0.894002, 0.88706, 0.883944, 0.873298, 0.865867, 0.864335, 0.859167, 0.857409, 0.85603, 0.855938, 0.8565, 0.859879, 0.860833, 0.862269, 0.86291, 0.864374, 0.864775, 0.865044, 0.856054, 0.869961, 0.861075, 0.859612, 0.926576, 0.87263, 1.13305, 1.08053, 0.873853, 0.853535, 0.854532, 0.86514, 0.873967, 0.873359, 0.876655, 0.877551, 0.879475, 1.03273, 1.01412, 0.912436, 0.911076, 0.893878, 1.01548, 0.893661, 0.936671, 0.962784
1.06896, 0.572448, 0.813276, 0.566422, 0.794401, 0.825751, 0.564526, 0.563622, 0.562944, 0.562964, 0.565822, 0.993594, 0.832399, 0.777223, 0.582735, 0.583341, 0.769046, 0.763001, 0.697122, 0.76227, 0.793935, 0.741551, 0.855376, 0.577695, 0.578623, 0.577608, 0.578371, 0.574467, 0.573451, 0.576409, 0.577208, 0.576969, 0.576273, 1.04592, 1.04027, 1.04515, 1.02653, 0.586481, 0.587314, 0.585472, 0.584155, 0.582894, 0.582871, 0.582736, 0.580821, 0.579443, 0.578441, 0.990948, 0.991068, 0.99196, 0.887974, 0.60406, 0.603894, 0.60801, 0.750391, 0.616491, 0.615776, 0.612969, 0.61282, 0.700766, 0.698349, 0.880643, 0.740229, 0.743225, 0.741658, 0.669392, 0.669142, 0.744498, 0.741641, 0.800668, 0.797722, 0.797604, 0.817618, 0.911393, 0.980462, 0.957981, 1.03777, 1.03881, 1.0505, 1.02416, 1.01991, 1.03085, 1.06305, 1.14294, 1.15107, 1.17136, 1.1798, 1.17916, 1.18528, 1.19201, 1.24826, 1.2444, 1.23616, 1.212, 1.20908, 1.21936, 1.24423, 1.25092, 1.33997, 1.3198, 1.32923, 1.32969, 1.34154, 1.33446, 1.34159, 1.35913, 1.3553, 1.38488, 1.36447, 1.36533, 1.39186, 1.38646, 1.38125, 1.38298, 1.37958, 1.37947, 1.34044, 1.33648, 1.39845, 1.36572, 1.38553, 1.36546, 1.35456, 1.34871, 1.34657, 1.34736, 1.33956, 1.34057, 1.33861, 1.34028, 1.33568, 1.33454, 1.39074, 1.37967, 1.3636, 1.36632, 1.38971, 1.43742, 1.44209, 1.40286, 1.42772, 1.40901, 1.42053, 1.45825, 1.45576, 1.45942, 1.38877, 1.39184, 1.35067, 1.35026, 1.35936, 1.42013, 1.41201, 1.40319, 1.40181, 1.2684, 1.27523, 1.22715, 1.22716, 1.19207, 1.18445, 1.14691, 1.1877, 1.16337, 1.15109, 1.13069, 1.10337, 1.15048, 1.13083, 1.1295, 1.07411, 1.07345, 1.02647, 1.02851, 0.984957, 0.969121, 0.957862, 0.947571, 0.948146, 0.946844, 0.920892, 0.937144, 0.888105, 0.926588, 0.875591, 0.914175, 0.890212, 0.89042, 0.922546, 0.910561, 0.914731, 0.912681, 0.894846, 0.894493, 0.892271, 0.891867, 0.885281, 0.887493, 0.871879, 0.87307, 0.859941, 0.860985, 0.860419, 0.859543, 0.85965, 0.855566, 0.855527, 0.856172, 0.857901, 0.856416, 0.856089, 0.863066, 0.859696, 0.855069, 0.85612, 0.855917, 0.85554, 0.858205, 0.854558, 0.88421, 1.12665, 1.21251, 1.05596, 0.852436, 0.853658, 0.862359, 0.85723, 0.874535, 0.8767, 0.877927, 0.881738, 0.882801, 0.888006, 1.00559, 1.00168, 0.977034, 0.934913, 0.894278, 0.936023, 0.947324
0.855131, 0.855378, 0.777737, 0.552221, 0.80867, 0.563287, 0.565632, 0.566661, 0.568381, 0.56874, 0.565144, 0.995032, 0.995193, 1.09723, 0.994468, 0.69211, 0.969742, 0.966086, 0.565172, 0.564096, 0.960266, 0.578189, 0.577806, 0.57912, 0.578612, 0.578263, 0.57585, 0.574024, 0.573705, 0.573908, 0.575929, 0.576208, 0.576386, 0.998523, 0.704738, 1.06068, 0.748644, 0.584687, 0.700988, 0.583219, 0.582594, 0.582555, 0.582525, 0.582025, 0.580595, 0.57936, 0.578525, 0.793323, 0.988417, 0.987923, 0.887671, 0.707431, 0.742403, 0.751719, 0.963768, 0.615244, 0.703843, 0.632043, 0.633398, 0.631654, 0.63282, 0.758629, 0.76024, 0.641198, 0.698158, 0.66887, 0.668315, 0.704577, 0.778823, 0.779404, 0.843813, 0.870325, 0.893705, 0.909758, 0.929127, 0.989635, 0.970407, 1.03474, 1.00337, 1.0126, 1.03216, 1.13956, 1.10846, 1.16759, 1.20714, 1.18122, 1.17637, 1.21975, 1.21923, 1.24695, 1.24673, 1.20505, 1.2219, 1.21561, 1.22188, 1.22193, 1.29878, 1.25159, 1.27243, 1.27122, 1.278, 1.28064, 1.30129, 1.30905, 1.32942, 1.33752, 1.35737, 1.38016, 1.43771, 1.36617, 1.43699, 1.39171, 1.3817, 1.38339, 1.38438, 1.46583, 1.36555, 1.3369, 1.3374, 1.36198, 1.38643, 1.35538, 1.35417, 1.34907, 1.37199, 1.36841, 1.34598, 1.34388, 1.35812, 1.34632, 1.33631, 1.33566, 1.3861, 1.33139, 1.38709, 1.36281, 1.36116, 1.38172, 1.37986, 1.40991, 1.39945, 1.39962, 1.47069, 1.43663, 1.45102, 1.43315, 1.39753, 1.41935, 1.38983, 1.35144, 1.44334, 1.38602, 1.51428, 1.4256, 1.2665, 1.2669, 1.26716, 1.23607, 1.22174, 1.18586, 1.17254, 1.15321, 1.15318, 1.15129, 1.15329, 1.13239, 1.08153, 1.07514, 1.03951, 1.06819, 1.06822, 1.0738, 0.998597, 0.990891, 0.978345, 0.986797, 0.930526, 0.931066, 0.948032, 0.91565, 0.91802, 0.90108, 0.903751, 0.935131, 0.903967, 0.913315, 0.890559, 0.906563, 0.93221, 0.97816, 1.39547, 0.918674, 0.893545, 0.892569, 0.891608, 0.890474, 0.884596, 0.885323, 0.876859, 1.03265, 0.860386, 0.861295, 0.85968, 0.85847, 0.859047, 0.853558, 0.855003, 0.855329, 0.855037, 0.855887, 0.856493, 0.856954, 0.856662, 0.855092, 0.855343, 0.855072, 0.855564, 0.856013, 0.867224, 0.866801, 0.840685, 1.13557, 1.14277, 0.849687, 0.852076, 0.854518, 0.857303, 0.867177, 1.47747, 0.878292, 0.882856, 0.881793, 0.886872, 0.998827, 0.988221, 0.968522, 0.972416, 0.957631, 1.04181, 0.970248
0.814526, 0.863708, 0.552496, 0.552475, 0.552997, 0.563469, 0.562495, 0.569048, 0.568519, 0.568637, 0.564736, 0.563712, 1.00174, 0.988691, 0.749131, 0.880923, 0.967198, 0.963627, 0.565017, 0.563523, 0.563999, 0.666873, 0.664024, 0.576755, 0.577765, 0.576763, 0.573218, 0.573193, 0.572539, 0.572781, 0.57575, 0.575126, 0.963271, 0.963316, 0.573603, 0.573857, 0.573448, 0.574223, 0.784391, 0.789043, 0.581088, 0.581523, 0.582413, 0.581861, 0.580513, 0.579353, 0.581301, 0.581144, 0.583073, 1.02205, 0.792318, 0.722253, 0.750515, 0.748491, 0.615446, 0.61588, 0.960974, 0.633852, 0.634632, 0.632914, 0.632614, 0.759753, 0.760681, 0.639837, 0.639183, 0.637949, 0.722222, 0.755867, 0.745703, 0.814866, 0.814907, 0.863354, 0.908758, 0.908251, 0.933043, 0.940242, 0.990792, 1.04186, 1.03745, 1.01268, 1.12654, 1.06094, 1.13618, 1.25039, 1.17379, 1.17665, 1.17486, 1.17284, 1.17306, 1.23029, 1.262, 1.21046, 1.22331, 1.22455, 1.24246, 1.22114, 1.24384, 1.25085, 1.25566, 1.36122, 1.27817, 1.27836, 1.30004, 1.30791, 1.31939, 1.38636, 1.34376, 1.37153, 1.3547, 1.3813, 1.39656, 1.40147, 1.38103, 1.38068, 1.37887, 1.39899, 1.37341, 1.34415, 1.33881, 1.34972, 1.34978, 1.3726, 1.37062, 1.35641, 1.35437, 1.35397, 1.3484, 1.3434, 1.34141, 1.32551, 1.31678, 1.34175, 1.48476, 1.33247, 1.50454, 1.3678, 1.35865, 1.35877, 1.45352, 1.40899, 1.41645, 1.38962, 1.45422, 1.45147, 1.49524, 1.43502, 1.39632, 1.42324, 1.39347, 1.38219, 1.39112, 1.4445, 1.41464, 1.41671, 1.26828, 1.25401, 1.23425, 1.23564, 1.30237, 1.17149, 1.15756, 1.15511, 1.15296, 1.15785, 1.15026, 1.09539, 1.09479, 1.07115, 1.13584, 1.04381, 1.02072, 1.01711, 1.0187, 0.973749, 0.972866, 0.967807, 0.986365, 0.931838, 0.950116, 0.918003, 0.921591, 0.97856, 0.923245, 0.905373, 0.870387, 0.943291, 0.908379, 0.91001, 0.866449, 0.897992, 0.88458, 0.880472, 0.884876, 0.88507, 0.888002, 0.887226, 0.883592, 0.879063, 0.877924, 1.03091, 1.01318, 0.861061, 0.859295, 0.858526, 0.859232, 0.858691, 0.856138, 0.855341, 0.852949, 0.85407, 0.855448, 0.856239, 0.853839, 0.854075, 0.855059, 0.854784, 0.87076, 0.862558, 0.863225, 0.923471, 0.833799, 0.833329, 0.897082, 0.849385, 0.850219, 0.930788, 0.855529, 0.86605, 1.3711, 1.38075, 1.32695, 1.33712, 1.32683, 0.8487, 0.83938, 0.833828, 0.833974, 0.952961, 0.961599, 0.971173
1.07631, 1.04731, 0.553583, 0.553143, 0.554991, 0.561452, 0.561798, 0.569066, 0.568906, 0.566869, 0.564645, 0.562471, 0.992386, 0.88935, 0.95719, 0.975517, 0.627613, 0.563269, 0.563454, 0.562449, 0.565232, 1.08744, 0.860781, 0.705452, 0.590067, 0.569666, 0.584823, 0.572224, 0.572209, 0.570871, 0.570676, 0.745723, 0.89205, 0.568937, 0.640446, 0.573902, 0.573746, 0.573216, 0.902083, 0.577886, 0.578168, 0.576294, 0.582714, 0.580844, 0.579363, 0.579671, 0.581455, 0.581274, 0.579989, 0.79201, 1.06154, 1.09565, 0.746008, 0.60511, 0.61518, 0.615118, 0.6174, 0.618098, 0.620568, 0.666474, 0.667414, 0.761559, 0.760906, 0.641195, 0.640246, 0.639749, 0.732299, 0.732335, 0.725176, 0.817016, 0.81894, 0.911351, 0.90858, 0.908601, 0.943602, 0.953494, 0.978519, 1.00336, 1.04682, 1.0774, 1.06615, 1.07444, 1.14975, 1.19039, 1.19952, 1.2663, 1.18048, 1.21898, 1.17507, 1.18496, 1.19259, 1.20218, 1.18757, 1.18791, 1.20205, 1.23692, 1.23794, 1.24561, 1.28289, 1.36722, 1.27744, 1.29685, 1.33174, 1.29643, 1.34033, 1.47556, 1.34436, 1.34355, 1.36372, 1.35455, 1.35339, 1.35416, 1.37785, 1.37779, 1.37537, 1.36927, 1.354, 1.34482, 1.35132, 1.35826, 1.37965, 1.37555, 1.40388, 1.35346, 1.35427, 1.3528, 1.35308, 1.48033, 1.33703, 1.32564, 1.31411, 1.31196, 1.30751, 1.31593, 1.34433, 1.4964, 1.50442, 1.35533, 1.41258, 1.37754, 1.4475, 1.46413, 1.46042, 1.45459, 1.45637, 1.50176, 1.43331, 1.43196, 1.42162, 1.38515, 1.38286, 1.33925, 1.33509, 1.27852, 1.26703, 1.32933, 1.25936, 1.29899, 1.26312, 1.2019, 1.18362, 1.13559, 1.14893, 1.17463, 1.14372, 1.09202, 1.09214, 1.07328, 1.13571, 1.03919, 1.02034, 1.00258, 0.987714, 0.984337, 0.973526, 0.9607, 0.926194, 0.926648, 0.924872, 0.925526, 0.91266, 0.907708, 0.887523, 0.888457, 0.922716, 0.922956, 0.875198, 0.882737, 0.863333, 0.874124, 0.876437, 0.872786, 0.88387, 0.882593, 0.88157, 0.881705, 0.880995, 0.880351, 0.878494, 1.00889, 1.01138, 1.0122, 0.859062, 0.858122, 0.85835, 0.858373, 0.854852, 0.855566, 0.848749, 0.85364, 0.85256, 0.85353, 0.85313, 0.852237, 0.853202, 0.854327, 0.853788, 0.868304, 0.859769, 0.901057, 0.835281, 0.833379, 0.835444, 0.93158, 0.931372, 0.852308, 0.854008, 0.855794, 0.86611, 0.854758, 1.33923, 0.853581, 0.8504, 0.842589, 0.842198, 0.834786, 0.835695, 0.856099, 0.857306, 0.929783
0.64676, 0.552179, 0.551935, 0.552799, 0.55825, 1.02233, 0.730064, 0.568185, 0.567699, 0.565318, 0.562149, 0.562154, 0.562588, 0.564169, 0.564713, 0.952181, 0.573462, 0.563012, 0.563501, 0.562285, 0.561292, 0.58161, 0.581031, 0.653468, 0.638725, 0.5671, 0.731508, 0.571998, 0.572195, 0.569783, 0.568927, 0.726186, 0.725512, 0.569627, 0.569568, 0.572645, 0.573068, 0.713628, 0.783892, 1.56689, 0.575917, 0.574241, 0.574378, 0.574642, 0.579032, 1.18122, 0.580712, 0.580844, 0.579882, 1.01942, 0.780506, 0.978995, 0.705115, 0.782371, 0.782047, 0.617116, 0.618714, 0.618367, 0.619038, 0.62144, 0.629149, 0.761258, 0.760787, 0.639076, 0.646124, 0.640598, 0.725812, 0.727152, 0.725629, 0.784674, 0.840543, 0.911701, 0.902757, 0.934599, 0.932562, 0.947973, 0.962103, 0.985335, 0.98762, 1.07422, 1.09575, 1.13435, 1.13204, 1.14573, 1.19744, 1.26058, 1.16439, 1.15819, 1.1937, 1.21173, 1.17796, 1.18357, 1.20218, 1.19173, 1.27963, 1.23012, 1.22865, 1.25738, 1.24861, 1.25665, 1.36049, 1.34264, 1.2972, 1.29623, 1.34707, 1.35889, 1.35883, 1.34435, 1.34519, 1.3576, 1.35898, 1.35956, 1.35886, 1.36394, 1.34311, 1.35879, 1.35106, 1.45443, 1.44796, 1.41175, 1.37462, 1.4107, 1.43529, 1.36644, 1.35517, 1.38143, 1.38449, 1.32481, 1.32446, 1.35707, 1.32377, 1.31277, 1.31041, 1.30897, 1.32027, 1.36554, 1.50622, 1.40845, 1.38205, 1.40226, 1.37867, 1.46064, 1.47847, 1.46335, 1.46086, 1.46008, 1.52008, 1.48294, 1.38924, 1.38835, 1.33759, 1.30969, 1.29369, 1.29863, 1.25722, 1.23671, 1.23638, 1.2393, 1.23036, 1.22558, 1.14286, 1.12919, 1.18787, 1.12833, 1.13299, 1.10847, 1.08556, 1.14339, 1.14945, 1.03113, 1.06095, 1.00261, 0.990807, 0.977859, 1.01835, 0.933203, 0.929563, 0.92395, 0.923284, 0.924461, 0.887371, 0.887742, 0.869675, 0.915182, 0.932334, 0.921072, 0.87815, 0.939219, 0.874421, 0.857052, 0.873997, 0.914801, 0.879897, 0.878106, 0.879393, 0.879, 0.879238, 0.880394, 0.880457, 0.875534, 0.876426, 0.876612, 0.97766, 0.857573, 0.858266, 0.854848, 0.854254, 0.853094, 0.849024, 0.849114, 0.849589, 0.852809, 0.849095, 0.8507, 0.853056, 0.852372, 0.850431, 0.867358, 0.90614, 0.836212, 0.838076, 0.835223, 0.836828, 0.905175, 0.848036, 0.849063, 0.849689, 0.852825, 0.853279, 0.853401, 0.852349, 0.852441, 0.851773, 0.841751, 0.842018, 0.834093, 0.854029, 0.855875, 0.86071, 0.818911
0.548766, 1.18782, 0.549349, 0.55543, 0.5563, 0.558087, 0.611626, 0.565331, 0.565417, 0.563396, 0.56229, 0.561734, 0.563062, 0.564099, 0.555384, 0.555183, 0.554956, 0.555239, 0.562671, 0.562509, 0.918566, 0.581386, 0.580988, 0.866026, 0.637363, 0.564861, 0.565603, 0.564208, 0.569055, 0.567017, 0.568031, 0.572991, 0.725525, 0.724843, 0.890849, 0.570521, 0.573854, 0.932986, 0.933981, 0.948974, 1.06812, 1.06808, 0.572741, 0.895617, 0.57784, 0.693975, 0.792504, 0.579098, 0.769859, 0.942131, 0.939869, 0.978217, 0.858081, 1.15959, 0.615502, 0.615685, 0.618245, 0.618166, 0.61944, 0.61977, 0.631355, 0.629274, 0.760067, 0.655018, 0.646969, 0.649463, 0.659347, 0.743918, 0.742831, 0.762657, 0.840596, 0.90638, 0.904448, 0.92568, 0.926174, 0.958163, 0.976271, 0.985028, 0.987739, 1.07922, 1.0687, 1.13338, 1.11467, 1.14636, 1.17953, 1.1348, 1.13648, 1.13146, 1.15795, 1.25043, 1.1644, 1.1749, 1.21636, 1.19872, 1.20299, 1.30943, 1.20386, 1.23239, 1.23513, 1.25814, 1.26381, 1.34374, 1.2954, 1.29588, 1.30015, 1.35998, 1.3495, 1.3413, 1.36855, 1.35435, 1.35375, 1.36119, 1.36138, 1.32628, 1.45785, 1.34416, 1.36766, 1.44067, 1.38107, 1.37509, 1.37546, 1.3793, 1.40621, 1.37863, 1.41977, 1.37871, 1.35522, 1.31921, 1.37501, 1.31763, 1.32468, 1.3248, 1.31154, 1.31125, 1.31905, 1.31994, 1.3307, 1.47212, 1.3983, 1.39432, 1.38041, 1.4711, 1.46441, 1.4633, 1.45841, 1.45993, 1.46012, 1.47481, 1.36798, 1.33611, 1.32074, 1.31665, 1.29781, 1.25818, 1.25019, 1.23752, 1.28068, 1.3057, 1.22022, 1.17805, 1.14089, 1.12712, 1.1326, 1.12993, 1.10376, 1.07492, 1.07337, 1.14223, 1.14853, 1.06434, 1.0634, 1.00227, 0.987352, 0.972477, 0.970503, 0.932167, 0.946711, 0.924011, 0.922691, 0.91464, 0.921443, 0.920067, 0.87055, 0.870492, 0.871737, 0.883643, 0.878005, 0.878441, 0.863219, 0.857762, 0.850611, 0.886866, 0.877181, 0.876992, 0.87887, 0.878276, 0.876914, 0.87676, 0.877055, 0.876363, 0.876296, 0.875847, 0.874444, 0.914235, 0.946523, 0.949496, 0.860128, 0.854007, 0.849288, 0.850192, 0.848438, 0.844965, 0.845583, 0.84857, 0.849601, 0.849168, 0.84874, 0.847272, 0.900694, 0.835365, 0.835703, 0.836488, 0.837139, 0.871836, 0.847582, 0.848784, 0.849845, 0.850249, 0.850636, 0.853075, 0.85232, 0.852507, 0.842248, 0.841252, 0.840123, 1.14806, 0.828971, 0.835096, 1.1259, 0.818692
0.950336, 0.588688, 0.598253, 1.00429, 0.631386, 0.844062, 0.557464, 0.557283, 0.562283, 0.562434, 0.561689, 0.562092, 0.562221, 0.557116, 0.555666, 0.555787, 0.55526, 0.555058, 0.555199, 0.644934, 0.635817, 0.635836, 0.633904, 0.627849, 0.629233, 0.630068, 0.563699, 0.563133, 0.564838, 0.566838, 0.893394, 0.55582, 0.556126, 0.557817, 0.55775, 0.560847, 0.560169, 0.560916, 0.560846, 0.561976, 0.5615, 1.06906, 0.891034, 0.578182, 0.57943, 0.579661, 0.959253, 0.78678, 0.980244, 0.949741, 0.726117, 0.777326, 0.925152, 0.919637, 0.720706, 0.616598, 0.617597, 0.617808, 0.618345, 0.625457, 0.625682, 0.628826, 0.634428, 0.742813, 0.6657, 0.666597, 0.66619, 0.743191, 0.738926, 0.779963, 0.793781, 0.860514, 0.898397, 0.915123, 0.940703, 0.976601, 0.974633, 1.05858, 1.00702, 1.03623, 1.05129, 1.10939, 1.15169, 1.14781, 1.1803, 1.12248, 1.11812, 1.12926, 1.14286, 1.14345, 1.15089, 1.17693, 1.1866, 1.18757, 1.21371, 1.19879, 1.19759, 1.20611, 1.2172, 1.25732, 1.33592, 1.26383, 1.29412, 1.3787, 1.37804, 1.37773, 1.36824, 1.41232, 1.40515, 1.40428, 1.34927, 1.36396, 1.31241, 1.31188, 1.34502, 1.35128, 1.35029, 1.46442, 1.38187, 1.37674, 1.37519, 1.38494, 1.36755, 1.41654, 1.36827, 1.35796, 1.35023, 1.33688, 1.32012, 1.31957, 1.32084, 1.35096, 1.31764, 1.32344, 1.31931, 1.33109, 1.32974, 1.38413, 1.46899, 1.36569, 1.36728, 1.40251, 1.47198, 1.46077, 1.45793, 1.45415, 1.47324, 1.56649, 1.37443, 1.34044, 1.31207, 1.32827, 1.31151, 1.26103, 1.2418, 1.23668, 1.25309, 1.2263, 1.17936, 1.19504, 1.14686, 1.13011, 1.13035, 1.17851, 1.08354, 1.25553, 1.2549, 1.14271, 1.09051, 1.06563, 1.02158, 1.01236, 0.974418, 0.961171, 0.961936, 0.948804, 0.945482, 0.92773, 0.929849, 0.925881, 0.91857, 0.921847, 0.917711, 0.871392, 0.873954, 0.876054, 0.869856, 0.881643, 0.882564, 0.857388, 0.857302, 0.886964, 0.875809, 0.876337, 0.876214, 0.874808, 0.875101, 0.970081, 0.963769, 0.862992, 0.876488, 0.875868, 0.89038, 1.2848, 0.933009, 0.936042, 0.925653, 0.904761, 0.849023, 0.848926, 0.844387, 0.843811, 0.844203, 0.84414, 0.847202, 0.848932, 0.845598, 0.843282, 0.852605, 0.855474, 0.833853, 0.835569, 0.933467, 0.919755, 1.13356, 0.849458, 0.851335, 0.853065, 0.850885, 0.851407, 0.852334, 0.845387, 0.845646, 0.838435, 0.83809, 0.838486, 0.830744, 0.831299, 0.821456, 0.820972
0.662561, 0.695302, 0.641767, 0.542675, 0.548279, 0.547847, 0.557959, 0.559093, 0.558866, 0.562356, 0.562129, 0.56219, 0.560924, 0.557663, 0.556183, 0.555046, 0.555019, 0.555391, 0.555413, 0.621286, 0.547342, 0.547718, 0.548046, 0.631942, 0.635819, 0.626321, 0.562587, 0.562615, 0.552021, 0.552656, 0.552811, 0.552312, 0.555564, 0.557354, 0.55899, 0.561646, 0.562044, 0.561782, 0.562221, 0.562334, 0.562294, 0.573098, 0.579705, 0.578908, 0.578808, 0.579328, 0.891478, 0.895504, 1.03898, 1.03771, 0.740177, 0.779453, 0.781613, 0.908982, 0.717998, 0.631335, 0.631472, 0.631144, 0.631401, 0.626698, 0.624708, 0.621729, 0.821794, 0.819472, 0.673574, 0.672408, 0.671376, 0.71165, 0.721757, 0.766986, 0.80015, 0.825051, 0.863468, 0.915666, 0.939933, 0.956636, 0.994754, 1.00904, 1.00882, 1.04629, 1.06337, 1.09663, 1.14572, 1.15265, 1.10606, 1.10598, 1.11858, 1.1235, 1.1216, 1.1224, 1.14802, 1.15994, 1.19444, 1.25625, 1.18935, 1.18947, 1.19574, 1.20983, 1.24445, 1.26466, 1.26104, 1.26125, 1.29312, 1.29811, 1.37787, 1.3322, 1.39433, 1.36641, 1.38177, 1.36365, 1.33118, 1.33389, 1.31343, 1.34369, 1.33522, 1.33, 1.3361, 1.46944, 1.46136, 1.3721, 1.3692, 1.38145, 1.37383, 1.34329, 1.34343, 1.35364, 1.35079, 1.33517, 1.33526, 1.31606, 1.31553, 1.31526, 1.31541, 1.39602, 1.36783, 1.32838, 1.37806, 1.33868, 1.40237, 1.45881, 1.36658, 1.36718, 1.48815, 1.4819, 1.4579, 1.45502, 1.45396, 1.37029, 1.37483, 1.31457, 1.31007, 1.32778, 1.27882, 1.25632, 1.25422, 1.2381, 1.21919, 1.20576, 1.202, 1.15226, 1.1471, 1.13042, 1.13137, 1.26136, 1.20961, 1.22247, 1.23007, 1.26084, 1.12948, 1.08259, 1.0046, 0.992951, 0.977948, 0.95975, 0.973629, 0.97184, 0.982244, 0.956054, 0.922354, 0.919161, 0.918664, 0.920776, 0.871222, 0.871315, 0.87706, 0.877009, 0.874667, 0.88251, 0.882719, 0.936382, 0.898266, 0.897298, 0.876952, 0.876407, 0.876665, 0.876724, 0.875394, 0.872208, 0.866347, 0.865798, 0.863832, 0.866216, 0.930299, 1.3061, 0.85939, 0.881218, 0.855757, 0.904725, 0.90554, 0.932915, 0.84219, 0.844302, 0.843334, 0.842132, 0.846031, 0.898321, 0.842427, 0.895686, 0.909788, 0.915297, 0.897937, 0.878808, 0.904659, 1.14707, 1.14647, 0.850376, 0.851725, 0.852701, 0.850639, 0.850148, 0.851541, 0.844156, 0.844845, 0.835707, 0.837434, 0.838782, 0.830614, 0.831635, 0.821482, 0.819624
0.667634, 0.666142, 0.663539, 0.543441, 0.548804, 0.548549, 0.558032, 0.55801, 0.559691, 0.559227, 0.561051, 0.557667, 0.557769, 0.555948, 0.553961, 0.554342, 0.553264, 0.698007, 1.1636, 0.576004, 0.548315, 0.548408, 0.548424, 0.548102, 0.54715, 0.547159, 0.547729, 0.551014, 0.552841, 0.553636, 0.553739, 0.552484, 0.55305, 0.556155, 0.556614, 0.562454, 0.562894, 0.562112, 0.562114, 0.56218, 0.909468, 0.572947, 0.579731, 0.57912, 0.57899, 0.681478, 0.680822, 0.926544, 0.657439, 0.882493, 0.607936, 1.03565, 1.14139, 0.653069, 0.67095, 0.631428, 0.63251, 0.631135, 0.631228, 0.620174, 0.625168, 0.621724, 0.889821, 0.887141, 0.673573, 0.672835, 0.688264, 0.669513, 0.76231, 0.762304, 0.752618, 0.801149, 0.836916, 0.900332, 0.929853, 0.95971, 0.994743, 0.994876, 1.03197, 1.03177, 1.07774, 1.10498, 1.10662, 1.10893, 1.10569, 1.12537, 1.11397, 1.11406, 1.1252, 1.11952, 1.15089, 1.15621, 1.17341, 1.17707, 1.26886, 1.19474, 1.18947, 1.18358, 1.18627, 1.22271, 1.219, 1.2549, 1.29625, 1.31785, 1.29241, 1.33436, 1.33409, 1.31251, 1.43519, 1.51337, 1.34351, 1.32648, 1.31552, 1.30498, 1.30463, 1.33228, 1.36066, 1.46184, 1.39884, 1.38166, 1.36742, 1.37571, 1.37524, 1.37671, 1.33316, 1.34089, 1.34561, 1.31017, 1.30765, 1.31841, 1.31667, 1.31736, 1.31653, 1.32596, 1.35519, 1.33249, 1.33581, 1.33821, 1.33923, 1.38091, 1.37762, 1.38015, 1.3756, 1.5333, 1.46474, 1.45539, 1.35962, 1.34069, 1.38938, 1.38673, 1.30572, 1.29893, 1.29546, 1.26133, 1.23804, 1.25057, 1.22333, 1.19933, 1.17104, 1.15123, 1.1504, 1.14757, 1.14763, 1.09243, 1.09289, 1.21097, 1.22975, 1.18815, 1.13277, 1.09481, 0.989862, 0.990822, 0.980519, 0.9737, 0.969697, 0.986809, 1.00439, 0.94574, 0.916044, 0.910789, 0.921681, 0.880014, 0.877627, 0.880018, 0.880698, 0.897463, 0.87753, 0.881026, 0.871346, 0.902976, 0.903502, 0.897719, 0.999008, 0.881405, 0.880459, 0.875654, 0.87342, 0.874028, 0.864021, 0.863394, 0.865073, 0.865432, 0.925155, 0.852335, 0.849949, 1.29971, 0.850954, 0.852797, 0.891278, 0.839706, 0.841764, 0.842072, 0.840744, 0.838872, 0.839252, 0.835675, 0.836185, 0.855254, 0.909243, 0.953199, 0.849864, 0.873103, 0.895828, 0.898279, 1.02519, 0.867101, 0.850432, 0.849662, 0.848134, 0.847942, 0.848694, 0.856469, 1.01975, 0.837037, 0.837592, 0.838033, 0.829353, 0.825141, 0.821947, 0.816355
0.642649, 0.663034, 0.656622, 0.542845, 0.548293, 0.547533, 0.555744, 0.558847, 0.558659, 0.55826, 0.558573, 0.55748, 0.556918, 0.55595, 0.552586, 0.550426, 0.551376, 0.630991, 0.536186, 0.631104, 0.548343, 0.54859, 0.548363, 0.548259, 0.546493, 0.547889, 0.547466, 0.548281, 0.552816, 0.55282, 0.555606, 0.555881, 0.555752, 0.556333, 0.557606, 0.558204, 0.561687, 0.561834, 0.560576, 0.603914, 0.702211, 0.850859, 0.577046, 0.578072, 0.612975, 0.81609, 0.667293, 0.659036, 1.04005, 1.0353, 0.653313, 0.65246, 0.650784, 0.63936, 0.709737, 0.866361, 0.631272, 0.630672, 0.623648, 0.620612, 0.620541, 0.621701, 0.811643, 0.673325, 0.673372, 0.668217, 0.688019, 0.668517, 0.763898, 0.762379, 0.75325, 0.800609, 0.872952, 0.893763, 0.934838, 0.948452, 0.98377, 1.0205, 1.02503, 1.04077, 1.13346, 1.13367, 1.10339, 1.11149, 1.12678, 1.15905, 1.11493, 1.12752, 1.1193, 1.11827, 1.13631, 1.14978, 1.15707, 1.24788, 1.24606, 1.19272, 1.18675, 1.21458, 1.18421, 1.18397, 1.24499, 1.25029, 1.26069, 1.32984, 1.30538, 1.33326, 1.30766, 1.35701, 1.3533, 1.35927, 1.30891, 1.3085, 1.30646, 1.3059, 1.30594, 1.32117, 1.47257, 1.46504, 1.35535, 1.35458, 1.4016, 1.36319, 1.37433, 1.35886, 1.35645, 1.35545, 1.35654, 1.34038, 1.36999, 1.31857, 1.33122, 1.32045, 1.32255, 1.34291, 1.34996, 1.35796, 1.35172, 1.3831, 1.35058, 1.3476, 1.37062, 1.35854, 1.35035, 1.37491, 1.5417, 1.39313, 1.37149, 1.36505, 1.34969, 1.30591, 1.31853, 1.31544, 1.32184, 1.26147, 1.24367, 1.22948, 1.22631, 1.18256, 1.17164, 1.14405, 1.14332, 1.14655, 1.09791, 1.11218, 1.12178, 1.20977, 1.21801, 1.20194, 1.12639, 1.00939, 1.00088, 0.966898, 0.940382, 0.955591, 0.970583, 0.997542, 0.963892, 1.00397, 0.934562, 0.926141, 0.897077, 0.876624, 0.880329, 0.915556, 0.893802, 0.894738, 0.886488, 0.887127, 0.924927, 0.904289, 0.90462, 0.90525, 0.894214, 0.880511, 0.880355, 0.879784, 0.878901, 0.884828, 0.874401, 0.862558, 0.862642, 0.862888, 0.897206, 0.848689, 0.847985, 1.16122, 1.08737, 0.843883, 0.849602, 0.8532, 0.842421, 0.843071, 0.846872, 0.834043, 0.831902, 0.832062, 1.02852, 0.925528, 0.816004, 0.897702, 0.82867, 0.829737, 1.07116, 0.838714, 1.17096, 1.17025, 0.847257, 0.848125, 0.837631, 0.842468, 0.845385, 0.845108, 0.838562, 0.838536, 0.839063, 0.838458, 0.829364, 0.828155, 0.828093, 0.817307
0.638549, 0.6624, 0.554124, 0.556232, 0.546976, 0.54863, 0.54866, 0.557164, 0.557197, 0.556633, 0.555461, 0.556595, 0.553662, 0.553621, 0.688693, 0.548669, 0.536466, 0.536033, 0.536067, 0.544786, 0.545751, 0.546643, 0.546228, 0.542956, 0.542572, 0.54911, 0.54857, 0.550666, 0.553842, 0.556369, 0.556641, 0.556652, 0.555575, 0.556816, 0.557528, 0.561658, 0.560881, 0.615916, 0.611571, 0.603928, 0.631868, 0.707141, 0.684122, 0.695193, 0.591308, 0.830146, 1.07055, 0.821614, 0.632416, 0.640617, 0.641954, 0.644783, 0.64463, 0.644153, 0.922754, 1.00416, 0.623197, 0.622571, 0.622105, 0.619947, 0.620946, 0.826012, 0.800455, 0.821784, 0.6969, 0.668943, 0.66987, 0.669446, 0.761689, 0.790205, 0.788481, 0.811454, 0.868054, 0.89137, 0.942419, 0.955909, 0.970812, 1.05044, 1.04847, 1.05862, 1.06626, 1.0826, 1.09799, 1.09918, 1.09773, 1.09801, 1.10957, 1.13317, 1.12, 1.11693, 1.14326, 1.1288, 1.15273, 1.17503, 1.18946, 1.18835, 1.18829, 1.19546, 1.16693, 1.24001, 1.24616, 1.24124, 1.25257, 1.2711, 1.28258, 1.29926, 1.30573, 1.32076, 1.31809, 1.32714, 1.31645, 1.30753, 1.30453, 1.30947, 1.30923, 1.32672, 1.46628, 1.34877, 1.35589, 1.35463, 1.40929, 1.40891, 1.37378, 1.37355, 1.39144, 1.35102, 1.34872, 1.35416, 1.34168, 1.35468, 1.33339, 1.3365, 1.32354, 1.32636, 1.34688, 1.34843, 1.36326, 1.35819, 1.3581, 1.34873, 1.36169, 1.3589, 1.35044, 1.3511, 1.35254, 1.36435, 1.33792, 1.33094, 1.31907, 1.29943, 1.29833, 1.28506, 1.28425, 1.27838, 1.25113, 1.21156, 1.19532, 1.18365, 1.15946, 1.15139, 1.1291, 1.13302, 1.09718, 1.08417, 1.09488, 1.06863, 1.1883, 1.05891, 1.06044, 1.00138, 0.963833, 0.953507, 0.946384, 0.947158, 0.932432, 1.04803, 0.963547, 0.93553, 0.902037, 0.901065, 0.908318, 0.876707, 0.874276, 0.914524, 0.890852, 0.846939, 0.886252, 0.848732, 0.847485, 0.912932, 0.930543, 0.88749, 0.88652, 0.887148, 0.878346, 0.879806, 0.880231, 0.864979, 0.865754, 0.862985, 0.862794, 0.862652, 0.851881, 0.845678, 0.844256, 0.837103, 0.837321, 0.842069, 0.842068, 0.846583, 0.839924, 0.840815, 0.898308, 0.830344, 0.829908, 0.82844, 0.822663, 0.816186, 0.815878, 0.952484, 0.904884, 0.900521, 1.01873, 0.870953, 0.86351, 0.843617, 0.845397, 0.849245, 0.841009, 0.840597, 0.841716, 0.842448, 0.838221, 0.839532, 0.839991, 0.839885, 0.836904, 0.827885, 0.828258, 0.829802
0.669839, 1.01174, 0.55516, 0.555668, 0.559433, 0.64916, 0.718048, 0.564971, 0.554874, 0.55427, 0.554582, 0.553963, 0.553469, 0.690991, 0.548104, 0.547932, 0.537893, 0.537512, 0.538288, 0.541759, 0.542305, 0.544883, 0.544815, 0.542216, 0.54523, 0.549526, 0.548396, 0.549752, 0.554974, 0.55601, 0.556011, 0.555659, 0.555226, 0.596816, 0.562221, 0.562568, 0.562488, 0.583435, 0.659701, 0.581054, 0.582014, 0.582928, 0.583093, 0.58312, 0.590714, 0.835073, 1.05411, 0.97509, 0.763644, 0.773619, 0.644238, 0.645344, 0.646059, 0.64504, 0.643988, 0.808972, 0.622862, 0.622153, 0.785212, 0.711329, 0.782005, 0.676167, 0.849914, 0.669618, 0.670721, 0.672173, 0.668553, 0.736185, 0.719841, 0.767283, 0.792046, 0.80453, 1.04694, 0.94206, 0.964085, 1.00345, 1.01928, 1.04744, 1.04823, 1.10951, 1.07588, 1.15716, 1.1298, 1.10236, 1.11286, 1.11662, 1.1268, 1.13304, 1.15406, 1.13008, 1.1255, 1.14662, 1.1429, 1.17111, 1.22689, 1.2275, 1.21145, 1.22946, 1.17957, 1.25107, 1.22802, 1.24188, 1.25432, 1.26184, 1.26171, 1.30146, 1.30173, 1.32227, 1.31173, 1.30913, 1.30749, 1.30628, 1.30423, 1.30687, 1.3083, 1.32239, 1.34747, 1.38353, 1.3828, 1.45381, 1.35899, 1.40909, 1.37272, 1.4146, 1.37203, 1.38666, 1.3691, 1.38156, 1.35469, 1.42988, 1.34568, 1.33242, 1.33219, 1.35187, 1.35011, 1.35297, 1.37467, 1.35084, 1.35106, 1.37525, 1.37282, 1.36594, 1.37154, 1.35152, 1.35324, 1.34967, 1.32989, 1.32055, 1.30248, 1.38425, 1.32923, 1.27642, 1.27606, 1.24984, 1.23719, 1.22348, 1.1921, 1.17624, 1.16397, 1.14568, 1.12834, 1.13028, 1.1575, 1.07991, 1.06756, 1.06314, 1.06386, 1.06482, 1.06063, 0.98976, 0.966812, 0.927656, 0.919797, 0.926989, 0.936121, 0.923515, 0.928465, 0.900378, 0.900792, 0.91367, 0.874704, 0.873546, 0.875435, 0.922026, 0.891537, 0.890681, 0.853549, 0.853554, 0.856117, 0.874669, 0.938601, 0.887666, 0.890429, 0.887777, 0.876889, 0.877906, 0.866785, 0.866159, 0.865421, 0.863333, 0.863096, 0.898838, 0.876993, 0.84609, 0.844286, 0.837405, 0.838332, 0.838835, 0.836414, 0.838026, 0.842224, 0.842921, 0.841926, 0.842921, 1.22381, 0.00452689, 0.843756, 0.813996, 0.916302, 1.07872, 0.932245, 0.947012, 0.833693, 0.836399, 0.839233, 0.843572, 0.84515, 0.845927, 0.84335, 0.840894, 0.84173, 0.841934, 0.838253, 0.83855, 0.83922, 0.839461, 0.839158, 0.829446, 0.828899, 0.841913
1.01888, 1.2232, 1.00868, 1.0509, 0.562254, 0.995132, 1.3059, 1.30437, 0.714997, 0.692702, 0.653754, 0.652441, 0.652186, 0.537194, 0.542112, 0.540868, 0.538156, 0.536874, 0.53764, 0.542067, 0.541562, 0.541263, 0.543097, 0.545727, 0.545383, 0.547693, 0.548474, 0.612501, 0.553354, 0.554348, 0.554288, 0.555185, 0.918065, 0.589669, 0.558881, 0.556867, 0.559011, 0.656544, 0.659597, 0.580534, 0.581259, 0.583629, 0.582701, 0.582992, 0.590487, 0.828707, 0.747502, 0.976373, 0.700793, 0.773045, 0.645018, 0.645022, 0.645131, 0.645052, 0.636527, 0.792034, 0.733171, 0.717672, 1.48531, 0.697639, 0.694328, 0.767682, 0.672224, 0.670318, 0.669469, 0.673142, 0.733125, 0.729577, 0.783754, 0.785229, 0.833457, 0.868321, 0.909993, 0.964978, 0.960863, 0.981245, 1.02847, 1.05359, 1.03981, 1.05651, 1.1672, 1.08145, 1.14414, 1.1423, 1.10309, 1.15816, 1.13309, 1.14102, 1.15492, 1.15485, 1.13694, 1.14768, 1.1901, 1.18959, 1.21724, 1.22593, 1.24527, 1.20911, 1.21476, 1.26048, 1.23324, 1.23293, 1.25023, 1.2583, 1.27143, 1.29389, 1.29888, 1.32902, 1.33784, 1.31169, 1.31884, 1.32931, 1.32925, 1.30466, 1.32499, 1.3447, 1.35048, 1.38434, 1.44898, 1.45443, 1.38117, 1.40986, 1.37878, 1.3918, 1.39667, 1.4337, 1.39128, 1.39499, 1.39388, 1.35665, 1.36774, 1.36624, 1.35848, 1.34513, 1.35418, 1.37074, 1.35729, 1.37591, 1.36307, 1.35871, 1.35923, 1.3661, 1.37137, 1.35192, 1.35403, 1.35307, 1.33607, 1.34036, 1.3413, 1.33091, 1.33206, 1.26828, 1.26271, 1.53084, 1.24404, 1.23235, 1.18512, 1.16786, 1.16985, 1.14786, 1.13131, 1.09111, 1.07167, 1.05775, 1.04101, 1.04148, 1.04328, 0.98075, 0.975101, 0.988749, 0.94238, 0.915322, 0.915547, 0.937162, 0.911852, 0.911723, 0.909688, 0.915216, 0.89927, 0.8757, 0.877306, 0.883646, 0.921265, 0.863144, 0.891706, 0.8254, 0.846946, 0.849576, 0.849526, 0.904706, 0.906515, 0.916335, 0.899096, 0.956572, 0.870219, 0.869884, 0.867015, 0.866514, 0.866405, 0.86332, 0.956364, 0.882735, 0.881108, 0.892528, 0.841869, 0.835825, 0.838157, 0.834873, 0.834914, 0.835225, 0.836701, 0.845362, 0.841051, 0.847471, 0.84626, 0.854345, 1.20312, 1.07407, 1.0653, 1.0598, 1.05756, 1.18959, 1.19132, 0.838325, 0.838926, 0.844011, 0.844647, 0.844496, 0.841973, 0.842024, 0.837527, 0.835627, 0.837311, 0.837293, 0.837112, 0.839057, 0.839853, 1.00538, 1.05698, 0.866597
1.35536, 1.07158, 1.21867, 0.578872, 0.706869, 0.538908, 0.535874, 0.704825, 0.653966, 0.771684, 0.653236, 0.535208, 0.535179, 0.537074, 0.539332, 0.539242, 0.536569, 0.536537, 0.540903, 0.541609, 0.541325, 0.541934, 0.542808, 0.544346, 0.544904, 0.679102, 0.612938, 0.610733, 0.602389, 0.60327, 0.665979, 0.661179, 0.586811, 0.557962, 0.558435, 0.558368, 0.557632, 0.735241, 0.577275, 0.583272, 0.58278, 0.58325, 0.582784, 0.583405, 0.591917, 0.592168, 0.775342, 0.772947, 0.746379, 0.641652, 0.64501, 0.644859, 0.644678, 0.645674, 0.635778, 0.63575, 0.793602, 0.683862, 0.704009, 0.680126, 0.67626, 0.679538, 0.673172, 0.671358, 0.670462, 0.673725, 0.695021, 0.716383, 0.777778, 0.810565, 0.828859, 0.894391, 1.03691, 0.977421, 0.97933, 1.02228, 1.02225, 1.02321, 1.04009, 1.15787, 1.14119, 1.12637, 1.10513, 1.10694, 1.16167, 1.16969, 1.17175, 1.16163, 1.20324, 1.18796, 1.14093, 1.14891, 1.19106, 1.1909, 1.2913, 1.21034, 1.21624, 1.20796, 1.20824, 1.29796, 1.30312, 1.23584, 1.23585, 1.261, 1.30754, 1.28686, 1.28543, 1.3294, 1.3178, 1.32614, 1.37435, 1.34264, 1.3329, 1.36536, 1.39549, 1.33976, 1.32892, 1.38201, 1.42001, 1.37181, 1.42121, 1.38035, 1.42792, 1.3861, 1.38486, 1.38765, 1.38228, 1.41286, 1.36296, 1.36247, 1.42625, 1.34988, 1.34967, 1.38459, 1.45749, 1.34825, 1.38117, 1.36608, 1.3639, 1.36355, 1.44265, 1.44287, 1.36444, 1.36022, 1.35647, 1.34781, 1.32727, 1.33739, 1.30388, 1.30399, 1.25611, 1.26031, 1.2619, 1.37179, 1.25281, 1.23281, 1.17855, 1.16545, 1.15389, 1.15472, 1.13633, 1.10903, 1.08232, 1.06739, 1.04552, 1.04639, 1.02303, 1.00297, 0.947941, 0.947564, 0.92821, 0.918626, 0.905154, 0.894823, 0.894245, 0.891058, 0.886571, 0.885996, 0.891435, 0.890779, 0.87398, 0.885283, 0.881244, 0.88208, 0.849535, 0.874833, 0.826348, 0.852327, 0.852241, 0.9037, 0.905903, 0.899552, 1.06179, 0.974894, 0.869833, 0.869645, 0.869659, 0.87037, 0.869923, 0.925423, 0.869766, 0.87545, 0.877003, 1.0181, 0.840868, 0.830623, 0.832783, 0.833746, 0.833515, 0.834075, 0.837512, 0.844332, 1.25259, 0.845135, 0.845168, 0.928395, 1.21467, 1.30225, 1.05959, 1.13061, 1.0473, 0.90847, 0.884182, 0.842197, 0.837582, 0.925491, 0.91712, 0.908756, 0.842553, 0.838876, 0.83833, 0.836795, 0.836543, 0.836469, 0.8366, 0.839795, 0.857184, 1.00561, 0.855153, 0.854569
0.970486, 0.973814, 0.708043, 1.00454, 0.997973, 0.531497, 0.994582, 0.729109, 0.714221, 0.715011, 0.534951, 0.535876, 0.535594, 0.535023, 0.532842, 0.533612, 0.537481, 0.538663, 0.540363, 0.540912, 0.540515, 0.54345, 0.542997, 0.541637, 0.540217, 0.678462, 0.676309, 0.665776, 0.669099, 0.665739, 0.844215, 0.66138, 0.555278, 0.553691, 0.557527, 0.556578, 0.556028, 0.86706, 0.572506, 0.581112, 0.582761, 0.582733, 0.584973, 0.584709, 0.859567, 0.592603, 0.772659, 0.818697, 0.641303, 0.641331, 0.640674, 0.642685, 0.641629, 0.64183, 1.07321, 0.635766, 0.71861, 0.708923, 0.680852, 0.681117, 0.681009, 0.679802, 0.67332, 0.676735, 0.676335, 0.722014, 0.690654, 0.774456, 0.768442, 0.798514, 0.846604, 0.904672, 1.04253, 0.970257, 0.977377, 1.00479, 1.01764, 1.03099, 1.08903, 1.08038, 1.11894, 1.10511, 1.10909, 1.12229, 1.15963, 1.17537, 1.15609, 1.21081, 1.18084, 1.23013, 1.15335, 1.14348, 1.19496, 1.18958, 1.18921, 1.31304, 1.21516, 1.20845, 1.20824, 1.30193, 1.26084, 1.23344, 1.23418, 1.2603, 1.26423, 1.35088, 1.28983, 1.28997, 1.33969, 1.34346, 1.32995, 1.32688, 1.34771, 1.3864, 1.319, 1.32706, 1.3969, 1.33387, 1.40713, 1.40717, 1.42577, 1.50014, 1.49316, 1.42199, 1.4749, 1.38768, 1.37911, 1.40611, 1.36465, 1.36095, 1.35873, 1.34975, 1.40698, 1.33343, 1.33278, 1.37034, 1.34895, 1.35489, 1.40289, 1.37919, 1.43629, 1.41567, 1.41362, 1.41442, 1.35226, 1.3456, 1.33163, 1.32068, 1.35037, 1.31181, 1.25668, 1.26404, 1.26447, 1.28567, 1.22523, 1.18079, 1.18557, 1.1554, 1.15472, 1.15549, 1.1364, 1.09491, 1.0824, 1.06517, 1.04405, 1.04447, 1.03213, 1.0082, 0.956435, 0.966919, 0.931581, 0.897694, 0.896936, 0.893855, 0.891884, 0.89388, 0.92871, 0.935987, 0.890293, 0.949993, 0.888796, 0.922257, 0.879618, 0.879959, 0.879699, 0.846151, 0.894966, 0.905013, 0.905436, 0.922931, 0.918491, 0.940683, 0.896023, 0.966377, 0.867134, 0.868327, 0.870734, 0.870307, 0.863224, 0.866902, 0.871031, 0.874042, 0.903284, 0.976907, 0.837713, 0.83016, 0.830647, 0.831346, 0.831674, 0.83032, 0.829345, 0.944542, 0.819244, 0.869124, 0.808033, 0.800334, 0.793635, 0.786474, 0.791629, 1.13235, 1.0496, 0.842476, 1.08533, 0.85017, 0.852511, 0.853008, 0.834395, 0.836572, 0.83728, 0.838517, 0.838459, 0.836851, 0.83535, 0.835619, 0.893822, 0.893427, 0.850277, 0.981312, 0.853264, 0.854931
0.742673, 0.545582, 0.985869, 0.530656, 0.531777, 0.530644, 0.53038, 0.920527, 0.705027, 0.970244, 0.534808, 0.53514, 0.534441, 0.534802, 0.534178, 0.532757, 0.537684, 0.540498, 0.540899, 0.540278, 0.54466, 0.545009, 0.544501, 0.540328, 0.539531, 0.539918, 0.676616, 0.863696, 0.860744, 0.544713, 0.664323, 0.950037, 0.550604, 0.556393, 0.558906, 0.558177, 0.560159, 0.808872, 0.571697, 0.581656, 0.582626, 0.581365, 0.583816, 0.696322, 0.590808, 1.02292, 0.728947, 0.847691, 0.641469, 0.641576, 0.640963, 0.641807, 0.640693, 0.63958, 0.63818, 0.721684, 0.705572, 0.708076, 0.681668, 0.682609, 0.682097, 0.679838, 0.67944, 0.677087, 0.67641, 0.818024, 0.71773, 0.749861, 0.764289, 0.856444, 0.853468, 0.899837, 1.04575, 0.952868, 0.951895, 0.987639, 1.04227, 1.03036, 1.07419, 1.06591, 1.11283, 1.0962, 1.16658, 1.11625, 1.16037, 1.19092, 1.16737, 1.16668, 1.17859, 1.17758, 1.15386, 1.1476, 1.19189, 1.19089, 1.18962, 1.22327, 1.25058, 1.21876, 1.24637, 1.2151, 1.22427, 1.23588, 1.23401, 1.24856, 1.26376, 1.29244, 1.31564, 1.3304, 1.3182, 1.33305, 1.33245, 1.40939, 1.33633, 1.32756, 1.32047, 1.3075, 1.30693, 1.32332, 1.32927, 1.3646, 1.38441, 1.41151, 1.37013, 1.39693, 1.42368, 1.38599, 1.51833, 1.42713, 1.42982, 1.36068, 1.36088, 1.3953, 1.34698, 1.3507, 1.33282, 1.32919, 1.4024, 1.42096, 1.35058, 1.43352, 1.33509, 1.33133, 1.413, 1.41377, 1.41591, 1.4086, 1.40853, 1.41057, 1.35145, 1.27161, 1.30748, 1.26449, 1.29412, 1.35783, 1.22307, 1.23236, 1.18409, 1.17128, 1.15192, 1.20325, 1.13935, 1.10686, 1.09049, 1.07195, 1.07241, 1.04518, 1.0491, 1.00956, 0.96675, 0.967371, 0.924201, 0.899864, 0.930824, 0.884948, 0.884165, 0.897613, 0.880668, 0.873339, 0.870638, 0.87009, 0.852343, 0.875068, 0.878443, 0.917445, 0.852534, 0.847139, 0.865348, 0.903018, 0.885733, 0.943272, 0.875752, 0.876677, 0.954557, 0.897677, 0.866692, 0.868552, 0.869373, 0.863909, 0.863403, 0.862221, 0.853018, 0.84944, 0.855989, 0.840522, 0.838598, 0.831822, 0.829218, 0.828905, 0.828837, 0.828756, 0.827724, 0.816811, 0.816164, 0.815307, 0.801222, 0.793612, 0.793643, 0.787615, 0.788465, 0.798065, 0.907677, 1.12694, 0.824816, 0.843915, 0.831055, 0.831407, 0.833257, 0.834307, 0.837479, 0.837339, 0.838564, 0.838427, 0.837438, 0.840174, 0.838549, 0.84227, 0.845263, 0.848193, 0.850084, 0.851019
0.708259, 0.707914, 0.687636, 0.531242, 0.530862, 0.530966, 0.531818, 0.52765, 0.958664, 1.02542, 0.534082, 0.534716, 0.533022, 0.532505, 0.533074, 0.535726, 0.538992, 0.541322, 0.542201, 0.541443, 0.542297, 0.54419, 0.54364, 0.542146, 0.539467, 0.539339, 0.538979, 0.863036, 0.860378, 0.546466, 0.546904, 0.547093, 0.550705, 0.551762, 0.558155, 0.562227, 0.561923, 0.808771, 0.80473, 0.581615, 0.58173, 0.582256, 0.878524, 1.20828, 0.870286, 0.67728, 0.674378, 0.639857, 0.64085, 0.641388, 0.641358, 0.641292, 0.641024, 0.64026, 0.814641, 0.818216, 0.701641, 0.702683, 0.843988, 0.68147, 0.680947, 0.680013, 0.676392, 0.67515, 0.714443, 0.666575, 0.666616, 0.705406, 0.763527, 0.763687, 0.89931, 0.900014, 0.947585, 0.95625, 0.935996, 1.01878, 0.996028, 1.02664, 1.09247, 1.09946, 1.10517, 1.10822, 1.12257, 1.16745, 1.16139, 1.20899, 1.1861, 1.1746, 1.38795, 1.1856, 1.14766, 1.18741, 1.16229, 1.15755, 1.15779, 1.18707, 1.24732, 1.20573, 1.20567, 1.20412, 1.21648, 1.22554, 1.22558, 1.25039, 1.28195, 1.33546, 1.36162, 1.35466, 1.35628, 1.38113, 1.33406, 1.3358, 1.33611, 1.30746, 1.30929, 1.31035, 1.43617, 1.29992, 1.3069, 1.3974, 1.34233, 1.44495, 1.32762, 1.37829, 1.36103, 1.42484, 1.4405, 1.43275, 1.35754, 1.44506, 1.46572, 1.34325, 1.34165, 1.3335, 1.33259, 1.33181, 1.3325, 1.33815, 1.35379, 1.36351, 1.30639, 1.3139, 1.32354, 1.41983, 1.41612, 1.41197, 1.33993, 1.31619, 1.30931, 1.31582, 1.27175, 1.27118, 1.27219, 1.28199, 1.27975, 1.1678, 1.18023, 1.21502, 1.17188, 1.1856, 1.14295, 1.08525, 1.07107, 1.0767, 1.04652, 1.04975, 1.03944, 1.00107, 0.974837, 0.936602, 0.910992, 0.91039, 0.9392, 0.919218, 0.883424, 0.878872, 0.88008, 0.913033, 0.872763, 0.867482, 0.857756, 0.874887, 0.880246, 0.859463, 0.851763, 0.847744, 0.8991, 0.950345, 0.946242, 0.866625, 0.874469, 0.874486, 1.03442, 0.866003, 0.866177, 0.864948, 0.865064, 0.863878, 0.862881, 0.844001, 0.843283, 0.842585, 0.842068, 0.888079, 0.8322, 0.831724, 0.82791, 0.82801, 0.82872, 0.818629, 0.819957, 0.821036, 0.818143, 0.80667, 0.792668, 0.793401, 0.793295, 0.787185, 0.788977, 0.926152, 0.845105, 0.81885, 0.849108, 0.849545, 0.832342, 0.831691, 0.833546, 0.838007, 0.83892, 0.838967, 0.838587, 0.839254, 0.838727, 0.841587, 0.841363, 0.842236, 0.844886, 0.848124, 0.849661, 0.850903
0.724446, 0.738159, 0.56962, 0.521211, 0.529069, 0.530049, 0.738788, 0.526466, 0.958422, 0.943982, 0.985233, 0.984142, 0.532569, 0.531379, 0.53501, 0.535252, 0.541088, 0.541499, 0.541825, 0.541617, 0.542325, 0.543339, 0.545076, 0.541186, 0.540306, 0.538899, 0.540189, 0.54518, 0.545803, 0.547561, 0.547538, 0.549156, 0.551598, 0.552361, 0.560435, 0.562414, 0.561678, 0.560865, 0.599563, 0.898823, 0.580918, 0.582167, 0.58083, 0.604927, 0.729247, 0.691187, 0.686448, 0.00450789, 0.640398, 0.639595, 0.640756, 0.640335, 0.895102, 0.894361, 0.920765, 0.830252, 0.805059, 0.695034, 1.11826, 0.679993, 0.678738, 0.675117, 0.673796, 0.672847, 0.714566, 0.667207, 0.668131, 0.698653, 0.759541, 0.746326, 0.874694, 0.908366, 0.949552, 0.940342, 0.949912, 0.971336, 0.997778, 1.00078, 1.09498, 1.06649, 1.09744, 1.1217, 1.1153, 1.15109, 1.16354, 1.14631, 1.11862, 1.11602, 1.12939, 1.13979, 1.13155, 1.1462, 1.17812, 1.15447, 1.15457, 1.17824, 1.19481, 1.19216, 1.18472, 1.19381, 1.21852, 1.22862, 1.22745, 1.24438, 1.29453, 1.29694, 1.28854, 1.34345, 1.34337, 1.33772, 1.3188, 1.31868, 1.34388, 1.31904, 1.31206, 1.29666, 1.29493, 1.32154, 1.30513, 1.30978, 1.3156, 1.31788, 1.31809, 1.43206, 1.3562, 1.42389, 1.4545, 1.44672, 1.34556, 1.34426, 1.38961, 1.33999, 1.34094, 1.33935, 1.33817, 1.33281, 1.33258, 1.36879, 1.38081, 1.30922, 1.30625, 1.30996, 1.31208, 1.41991, 1.29504, 1.29316, 1.35026, 1.35738, 1.28378, 1.26944, 1.29467, 1.33597, 1.28165, 1.26739, 1.20443, 1.20461, 1.35557, 1.31347, 1.31336, 1.16057, 1.12773, 1.12509, 1.07784, 1.07306, 1.04729, 1.046, 1.08131, 1.01912, 0.96676, 0.941847, 0.918907, 0.910064, 0.92029, 0.893858, 0.881779, 0.884651, 0.915431, 0.868918, 0.866796, 0.866934, 0.900865, 0.845369, 0.907757, 0.838101, 0.834969, 0.850474, 0.903986, 0.949851, 0.866131, 0.866477, 0.872683, 0.866761, 0.865978, 0.863981, 0.863278, 0.863854, 0.865874, 0.867303, 0.992029, 1.16779, 0.843737, 0.843384, 0.841598, 0.83561, 0.833072, 0.830266, 0.830097, 0.827314, 0.828184, 0.820085, 0.821178, 0.821523, 0.817191, 0.813797, 0.791487, 0.790788, 0.968325, 0.803814, 0.817603, 0.820919, 0.993996, 0.838928, 0.842661, 0.84364, 0.839336, 0.833321, 0.835256, 0.837554, 0.838776, 0.837777, 0.838752, 0.839321, 0.839382, 0.839269, 0.840916, 0.841628, 0.843964, 0.846582, 0.848168, 0.849353
1.13921, 1.03046, 0.69328, 0.521039, 0.520563, 0.687583, 0.525359, 0.689355, 0.516829, 0.679061, 1.06342, 1.01567, 0.531186, 0.531569, 0.534143, 0.535588, 0.539813, 0.540716, 0.541303, 0.540921, 0.541657, 0.542876, 0.541953, 0.5415, 0.54049, 0.54121, 0.543559, 0.545546, 0.546345, 0.547226, 0.548255, 0.548481, 0.550425, 0.552851, 0.811058, 0.56187, 0.560536, 0.560205, 0.805294, 0.575072, 0.580383, 0.580731, 0.582405, 0.612491, 0.637907, 0.693366, 0.7648, 0.711465, 0.638345, 0.639412, 0.6416, 0.912484, 0.814571, 0.799129, 0.797125, 0.781332, 0.989068, 0.988475, 0.646413, 0.907945, 0.790099, 0.67251, 0.673399, 0.67321, 0.683793, 0.688238, 0.68881, 0.692218, 0.726469, 0.764865, 0.804989, 0.900116, 0.943129, 0.942281, 0.928765, 0.977767, 1.0057, 1.08891, 1.03578, 1.02352, 1.06834, 1.12835, 1.118, 1.14936, 1.13076, 1.11821, 1.11873, 1.11515, 1.13612, 1.12703, 1.1871, 1.12486, 1.15082, 1.15022, 1.15267, 1.16423, 1.16055, 1.17678, 1.17012, 1.20428, 1.19431, 1.24668, 1.26672, 1.26474, 1.27499, 1.28539, 1.29523, 1.31273, 1.44742, 1.31795, 1.317, 1.3816, 1.30648, 1.30655, 1.29633, 1.30364, 1.29257, 1.29005, 1.29251, 1.29179, 1.30059, 1.31892, 1.32538, 1.39308, 1.32844, 1.32842, 1.35152, 1.33328, 1.41383, 1.35212, 1.35674, 1.33963, 1.34004, 1.33947, 1.47317, 1.35701, 1.32206, 1.32129, 1.30739, 1.30869, 1.30835, 1.35809, 1.30965, 1.42975, 1.30624, 1.27118, 1.26824, 1.29906, 1.25962, 1.28108, 1.29363, 1.29461, 1.28145, 1.26794, 1.20233, 1.29496, 1.29529, 1.28255, 1.26827, 1.15773, 1.1322, 1.15435, 1.14802, 1.07109, 1.03775, 1.16387, 1.17119, 1.00625, 0.949481, 0.934261, 0.90477, 0.939665, 0.89614, 0.888982, 0.886335, 0.873101, 0.871769, 0.901347, 0.867184, 0.881979, 0.939391, 0.934376, 0.837735, 0.839512, 0.835322, 0.837983, 0.837938, 1.0154, 0.929751, 0.984247, 0.867917, 0.857694, 0.859505, 0.862746, 0.863456, 0.863823, 0.924957, 0.873479, 1.0018, 0.884964, 0.844636, 0.842195, 0.838289, 0.836176, 0.833661, 0.83126, 0.830315, 0.828783, 0.828639, 0.819417, 0.820912, 0.821332, 0.817788, 0.806659, 0.807837, 0.804515, 0.986939, 0.808152, 0.81949, 0.815658, 0.816628, 0.818964, 1.23768, 1.12659, 0.83018, 0.832443, 0.833583, 0.83425, 0.835877, 0.836716, 0.838696, 0.837754, 0.838806, 0.838216, 0.839901, 0.840914, 0.842431, 0.844875, 0.880979, 1.09637
1.29193, 0.94875, 0.565575, 0.520405, 0.519845, 1.27453, 0.519258, 0.518017, 0.517413, 0.515821, 1.06141, 0.52059, 0.522435, 0.522268, 0.659287, 0.537038, 0.538756, 0.995253, 1.17142, 0.555945, 0.556175, 0.538038, 0.538939, 0.541013, 0.540476, 0.543082, 0.542696, 0.545774, 0.546933, 0.548491, 0.54901, 0.548632, 0.550809, 0.549985, 0.554307, 0.559659, 0.560156, 0.560549, 0.808408, 0.575856, 0.574493, 0.579778, 0.578465, 0.735999, 0.635368, 0.646024, 0.714048, 0.728458, 0.705226, 0.802798, 0.799795, 0.69003, 0.691683, 0.793571, 0.795276, 0.794516, 0.989187, 0.987813, 0.646526, 0.648339, 0.647128, 0.780533, 0.828447, 0.809328, 0.680746, 0.693732, 0.693313, 0.693832, 0.700637, 0.77647, 0.816878, 0.830041, 0.881325, 0.899758, 0.926761, 0.970575, 1.00441, 0.974129, 1.08014, 1.08711, 1.08778, 1.06792, 1.0607, 1.09156, 1.11173, 1.12495, 1.12346, 1.11234, 1.11272, 1.12191, 1.111, 1.1326, 1.17793, 1.14935, 1.15667, 1.1566, 1.15286, 1.15332, 1.16065, 1.17408, 1.2158, 1.1944, 1.26471, 1.2649, 1.29989, 1.29888, 1.29472, 1.27705, 1.31292, 1.31316, 1.32467, 1.37541, 1.34257, 1.30914, 1.28498, 1.28505, 1.29132, 1.29081, 1.29388, 1.28859, 1.38191, 1.31621, 1.31913, 1.33403, 1.32896, 1.32897, 1.31922, 1.33259, 1.39501, 1.3241, 1.40392, 1.34247, 1.37827, 1.33593, 1.3289, 1.38282, 1.318, 1.36469, 1.30574, 1.30617, 1.3307, 1.42764, 1.34402, 1.42486, 1.32291, 1.2316, 1.23225, 1.30312, 1.29922, 1.29248, 1.28558, 1.24006, 1.23853, 1.20485, 1.20574, 1.18107, 1.45489, 1.52453, 1.26746, 1.16032, 1.14331, 1.13161, 1.18196, 1.05107, 1.0953, 1.04963, 1.02637, 0.957401, 0.936353, 0.922573, 0.925636, 0.923355, 0.873439, 0.876602, 0.878458, 0.843553, 0.839351, 0.839166, 0.863388, 0.885009, 0.883733, 0.849448, 0.831792, 0.833123, 0.832769, 0.83839, 0.824213, 1.02302, 0.863696, 0.866463, 0.865915, 0.863257, 0.860638, 0.862538, 0.864168, 0.883196, 1.05974, 0.874023, 0.874303, 0.893315, 0.844937, 0.839353, 0.838875, 0.8365, 0.830873, 0.829036, 0.829358, 0.829613, 0.829021, 0.826809, 0.822274, 0.822548, 0.815358, 0.814773, 0.806338, 0.850162, 0.843893, 0.842107, 0.817781, 0.815884, 0.817045, 0.818168, 0.822505, 1.22206, 0.832103, 0.831226, 0.831822, 0.831691, 0.834116, 0.833502, 0.83312, 0.832941, 0.836992, 0.838654, 0.838895, 0.840194, 0.840797, 0.839449, 0.840478, 0.858484
1.19503, 0.500351, 0.498916, 0.760644, 0.936169, 1.27423, 0.517419, 0.516644, 0.516925, 0.516399, 0.517307, 0.520947, 0.523035, 0.522313, 0.521307, 0.890124, 0.625052, 0.716142, 0.630282, 0.558097, 1.16721, 0.541676, 0.537251, 0.539612, 0.540645, 0.541274, 0.541768, 0.544951, 0.545269, 0.548373, 0.548704, 0.549232, 0.550411, 0.552149, 0.555706, 0.552592, 0.558697, 0.55862, 0.574377, 0.575433, 0.575216, 0.575997, 0.71779, 0.588941, 0.589663, 0.589675, 0.589603, 0.708049, 0.706719, 0.805107, 0.718488, 0.797939, 0.708115, 0.794055, 0.793844, 0.754304, 0.694017, 0.648211, 0.646096, 0.627824, 0.648822, 0.662799, 0.764613, 0.85359, 0.681213, 0.68132, 0.693811, 0.699151, 0.699399, 0.781449, 0.786763, 0.845699, 0.922513, 0.984901, 0.985881, 0.956658, 1.00869, 0.950631, 0.975619, 0.987635, 1.00382, 1.00381, 1.03865, 1.11598, 1.11671, 1.1189, 1.11274, 1.09901, 1.09821, 1.11218, 1.10442, 1.10782, 1.12933, 1.14395, 1.16407, 1.16476, 1.13914, 1.14271, 1.14607, 1.15413, 1.19596, 1.17779, 1.2529, 1.23215, 1.22669, 1.2353, 1.24114, 1.2681, 1.28169, 1.28902, 1.30705, 1.31904, 1.33995, 1.31577, 1.30599, 1.28214, 1.29427, 1.31263, 1.29501, 1.28608, 1.28498, 1.28443, 1.32226, 1.39394, 1.32425, 1.32325, 1.32177, 1.39988, 1.32148, 1.31933, 1.33036, 1.37717, 1.37619, 1.32823, 1.38556, 1.36516, 1.32835, 1.37226, 1.33289, 1.31005, 1.52975, 1.48978, 1.48329, 1.48237, 1.24993, 1.23257, 1.23215, 1.24683, 1.25598, 1.28074, 1.28074, 1.2488, 1.20552, 1.24735, 1.17938, 1.18538, 1.17854, 1.19779, 1.18054, 1.15689, 1.17924, 1.13009, 1.24623, 1.06802, 1.03378, 1.03192, 0.998411, 0.988283, 0.960773, 0.914388, 0.918231, 0.919332, 0.874403, 0.853265, 0.853252, 0.835852, 0.836945, 0.839077, 0.904311, 0.879329, 0.848592, 0.849031, 0.832289, 0.832148, 0.831946, 0.825237, 0.824997, 0.830011, 0.864406, 0.86042, 0.860562, 0.863001, 0.863756, 0.922376, 0.926028, 0.883719, 0.88393, 0.876336, 0.9809, 0.911327, 0.840272, 0.838718, 0.8384, 0.838764, 0.837417, 0.832872, 0.830175, 0.829993, 0.829151, 0.825662, 0.823874, 0.820326, 0.811817, 0.808638, 0.808699, 0.808638, 0.84505, 0.818809, 0.820314, 0.820125, 0.818501, 0.819659, 0.821482, 0.820804, 0.831704, 0.829111, 0.828963, 0.831451, 0.831748, 0.832155, 0.832417, 0.83498, 0.83433, 0.836671, 0.838861, 0.838908, 0.840795, 0.839366, 0.841054, 0.842038
0.495248, 0.497593, 0.499906, 0.49969, 0.502424, 0.633398, 0.778617, 0.506907, 0.507187, 0.512814, 0.519126, 0.521078, 0.520726, 0.522952, 0.523871, 0.528039, 0.631231, 0.527694, 0.555074, 0.555855, 0.533202, 0.53355, 0.532822, 0.537259, 0.53885, 0.540168, 0.533636, 0.538058, 0.53816, 0.54728, 0.548162, 0.548841, 0.551866, 0.554146, 0.554985, 0.553653, 0.552308, 0.559057, 0.573884, 0.574813, 0.574867, 0.580227, 0.717931, 0.589895, 0.590267, 0.58984, 0.588183, 0.587239, 0.586291, 0.585645, 0.585605, 0.731831, 0.594452, 0.730597, 0.771009, 0.786226, 0.785499, 0.779445, 0.628549, 0.627647, 0.770725, 0.771055, 0.853346, 0.681119, 0.682792, 0.68197, 0.693733, 0.710648, 0.70087, 0.738339, 0.826751, 0.87901, 0.919241, 0.907984, 0.911697, 0.994761, 0.994568, 0.952966, 0.955113, 0.968702, 0.971366, 0.998334, 1.03535, 1.1155, 1.11487, 1.0678, 1.12512, 1.08706, 1.08861, 1.11672, 1.10281, 1.11041, 1.12916, 1.12797, 1.14738, 1.25324, 1.13697, 1.16035, 1.16224, 1.23561, 1.17498, 1.1793, 1.20234, 1.26583, 1.22185, 1.22313, 1.26769, 1.24837, 1.27082, 1.30851, 1.31551, 1.32001, 1.29805, 1.30407, 1.31574, 1.28205, 1.30947, 1.31196, 1.29808, 1.29826, 1.29177, 1.30258, 1.3724, 1.3563, 1.32984, 1.32036, 1.31991, 1.32197, 1.33619, 1.3239, 1.3231, 1.3323, 1.32722, 1.3927, 1.40675, 1.34874, 1.31645, 1.3116, 1.29784, 1.30824, 1.3088, 1.34883, 1.34732, 1.34824, 1.40953, 1.29104, 1.23125, 1.23235, 1.24991, 1.24021, 1.25286, 1.23471, 1.18186, 1.18452, 1.16777, 1.16312, 1.1521, 1.19126, 1.15398, 1.10519, 1.08835, 1.16033, 1.0358, 1.02958, 1.07498, 1.01334, 0.988023, 0.933551, 0.927318, 0.910019, 0.913908, 0.87115, 0.855975, 0.856071, 0.857047, 0.837235, 0.835783, 0.838073, 0.87029, 0.828664, 0.835017, 0.845773, 0.845716, 0.907896, 0.830288, 0.826022, 0.853842, 0.829986, 0.856238, 0.857324, 0.859922, 0.861969, 0.936036, 0.936444, 0.892822, 1.01128, 1.09075, 0.960269, 0.866344, 0.864107, 0.838983, 0.839516, 0.839107, 0.839516, 0.835729, 0.832912, 0.829887, 0.829215, 0.828775, 0.822656, 0.821989, 0.822044, 0.808144, 0.809693, 0.807885, 0.808245, 0.818407, 0.819401, 0.82122, 0.821292, 0.819755, 0.819917, 0.820143, 0.820659, 0.821266, 0.825249, 0.82998, 0.831228, 0.831757, 0.831665, 0.832926, 0.831714, 0.832124, 0.835189, 0.838177, 0.840041, 0.835772, 0.836907, 0.838989, 0.843591
0.496452, 0.495706, 0.499846, 0.503187, 0.503667, 0.64605, 0.505441, 0.507356, 0.507604, 0.507142, 0.521006, 0.521113, 0.524127, 0.523698, 0.52321, 0.846238, 0.527979, 0.527438, 0.528642, 0.556275, 0.533294, 0.534047, 0.532985, 0.531225, 0.531389, 0.532163, 0.535334, 0.538291, 0.538165, 0.545086, 0.545075, 0.54727, 0.552838, 0.554964, 0.554342, 0.553102, 0.552778, 0.684734, 0.75261, 0.59426, 1.14714, 0.588587, 0.589869, 0.5917, 0.590328, 0.590395, 0.588317, 0.588687, 0.586769, 0.58644, 0.586354, 0.807212, 0.594479, 0.741418, 0.940849, 0.989416, 0.81891, 0.860352, 0.627293, 0.804887, 0.77068, 0.769734, 0.883844, 0.763906, 0.773094, 0.762813, 0.77389, 0.758497, 0.704267, 0.739993, 0.788228, 0.880151, 0.936097, 0.897913, 0.911803, 0.995476, 0.936101, 0.936854, 0.977687, 0.971763, 0.97369, 0.974748, 0.998496, 1.01895, 1.05828, 1.05683, 1.07728, 1.09512, 1.08152, 1.08123, 1.0988, 1.11533, 1.11571, 1.15127, 1.1225, 1.12551, 1.13063, 1.17484, 1.2063, 1.17123, 1.17174, 1.18024, 1.18051, 1.26084, 1.26397, 1.21649, 1.21647, 1.2161, 1.28797, 1.26124, 1.29902, 1.32734, 1.32633, 1.28988, 1.30009, 1.28242, 1.28884, 1.31541, 1.29871, 1.29865, 1.29123, 1.34815, 1.33939, 1.32574, 1.3248, 1.3189, 1.31611, 1.32661, 1.32767, 1.42329, 1.34484, 1.33861, 1.33353, 1.39479, 1.32692, 1.3514, 1.32602, 1.32601, 1.39867, 1.32745, 1.35257, 1.35552, 1.45102, 1.48192, 1.3885, 1.28731, 1.275, 1.23265, 1.23612, 1.2397, 1.21769, 1.18871, 1.16216, 1.1566, 1.14508, 1.15082, 1.15035, 1.11669, 1.1168, 1.09121, 1.10967, 1.04934, 1.03003, 1.06067, 1.03566, 0.972613, 1.03276, 0.932073, 0.940727, 0.924381, 0.877303, 0.879909, 0.855888, 0.856497, 0.865638, 0.839614, 0.838084, 0.83838, 0.837508, 0.830243, 0.883694, 0.839324, 0.840297, 0.851594, 0.852553, 0.846211, 0.84661, 0.846958, 0.859091, 0.857968, 0.858562, 0.994887, 0.943218, 0.896794, 0.897553, 0.909419, 0.992145, 0.966664, 0.96942, 0.85552, 0.855546, 0.857662, 0.839008, 0.831969, 0.832113, 0.845905, 0.826372, 0.822357, 0.822589, 0.821248, 0.822221, 0.823475, 0.815949, 0.814814, 0.809156, 0.813209, 0.819038, 0.821123, 0.821734, 0.822606, 0.823832, 0.823409, 0.824801, 0.821097, 0.821209, 0.820263, 0.820206, 0.828908, 0.830872, 0.831276, 0.832078, 0.830353, 0.832153, 0.834374, 0.845136, 0.848584, 0.849601, 0.835169, 0.92266, 0.842432
0.496004, 0.496168, 0.4962, 0.701503, 0.503916, 0.644906, 0.506096, 0.652314, 0.507153, 0.513048, 0.667042, 0.597598, 0.524585, 0.523362, 0.632335, 0.521511, 0.527659, 0.527829, 0.527813, 0.524764, 0.532439, 0.532849, 0.532215, 0.530878, 0.530293, 0.529408, 0.534306, 0.535827, 0.537117, 0.544597, 0.542868, 0.547831, 0.552281, 0.553106, 0.553888, 0.558342, 0.559783, 0.563449, 0.567202, 0.573077, 0.590588, 0.591127, 0.592884, 0.593882, 0.593528, 0.593492, 0.587826, 0.587928, 0.587037, 0.587559, 0.586899, 0.586695, 0.591651, 0.928536, 0.99028, 0.990516, 0.925168, 0.888479, 0.829331, 0.611051, 0.801668, 0.626292, 0.627607, 0.774104, 0.836102, 0.858724, 0.858231, 0.698637, 0.729195, 0.740417, 0.779432, 0.897272, 0.887055, 0.918794, 1.00354, 0.959802, 0.936885, 0.936325, 0.93663, 0.968276, 0.974698, 0.98297, 0.996937, 1.04379, 1.09775, 1.05101, 1.07077, 1.06449, 1.06737, 1.06904, 1.09088, 1.10676, 1.1172, 1.10456, 1.10612, 1.12227, 1.17167, 1.19225, 1.21399, 1.19916, 1.17301, 1.17817, 1.17795, 1.25662, 1.25607, 1.2493, 1.21599, 1.21503, 1.21518, 1.26463, 1.28322, 1.30548, 1.30635, 1.27258, 1.26295, 1.26121, 1.26119, 1.29713, 1.3256, 1.33254, 1.29303, 1.30141, 1.3216, 1.32642, 1.32529, 1.32595, 1.329, 1.32808, 1.32086, 1.35995, 1.3298, 1.34365, 1.32753, 1.39552, 1.32634, 1.33175, 1.36734, 1.36079, 1.35947, 1.32714, 1.35383, 1.34783, 1.34849, 1.34817, 1.32353, 1.29143, 1.29226, 1.23649, 1.23724, 1.2333, 1.21943, 1.17397, 1.21743, 1.14671, 1.18427, 1.12734, 1.10938, 1.0948, 1.06673, 1.08192, 1.02969, 1.02998, 1.03015, 0.998463, 0.983348, 0.971136, 1.033, 0.905768, 0.941837, 0.893889, 0.898663, 0.89853, 0.858711, 0.845574, 0.846723, 0.853109, 0.853806, 0.838861, 0.837891, 0.830097, 0.835573, 0.835267, 0.840464, 0.849884, 0.849178, 0.847062, 0.846599, 0.856929, 0.857803, 0.859159, 0.915777, 0.971765, 0.895251, 0.897263, 0.897377, 0.915664, 0.913633, 0.91233, 0.968477, 0.849221, 0.838181, 0.838807, 0.839379, 0.832559, 0.831769, 0.83224, 0.823213, 0.822826, 0.822397, 0.822116, 0.822282, 0.821059, 0.820924, 0.816485, 0.816318, 0.817744, 0.819657, 0.820201, 0.821764, 0.824659, 0.825761, 0.822825, 0.824995, 0.823365, 0.82135, 0.818915, 0.821308, 0.826346, 0.82054, 0.82101, 0.821763, 0.828999, 1.14618, 0.843075, 0.851336, 0.849273, 0.853941, 0.849183, 0.918882, 0.875268
0.494567, 0.495606, 0.707644, 0.810719, 0.535766, 0.538149, 0.504355, 0.507093, 0.677687, 0.6584, 0.536638, 0.511691, 0.512117, 0.511445, 0.521328, 0.522771, 0.527173, 0.52688, 0.518047, 0.521283, 0.520899, 0.527238, 0.53057, 0.530984, 0.528463, 0.528017, 0.534391, 0.533561, 0.615939, 0.542446, 0.540625, 0.541432, 0.606951, 0.554824, 0.55475, 0.556877, 0.557817, 0.558756, 0.559988, 0.718028, 0.595665, 0.801174, 0.594284, 0.594689, 0.594597, 0.593646, 0.590846, 0.590785, 0.589489, 0.587893, 0.587458, 0.588921, 0.78769, 1.08552, 1.06293, 0.925124, 0.92515, 0.846857, 0.829831, 0.997904, 0.85054, 0.627778, 0.627771, 0.626612, 0.769575, 0.771994, 0.856694, 0.793153, 0.788491, 0.75294, 0.79054, 0.818542, 0.988824, 0.915899, 0.976255, 1.00112, 0.93714, 0.937981, 0.940305, 0.961545, 0.966385, 0.965736, 0.991024, 0.99871, 1.02053, 1.10032, 1.09815, 1.11889, 1.06796, 1.06967, 1.11709, 1.12894, 1.12985, 1.09681, 1.09765, 1.12544, 1.1499, 1.19999, 1.18797, 1.18773, 1.22895, 1.23039, 1.17767, 1.33175, 1.26142, 1.25171, 1.23264, 1.21619, 1.21667, 1.23631, 1.24736, 1.26817, 1.27091, 1.26126, 1.26085, 1.26079, 1.2791, 1.34097, 1.35275, 1.31242, 1.27943, 1.27892, 1.29001, 1.34495, 1.34043, 1.34031, 1.32918, 1.32991, 1.34641, 1.34959, 1.28787, 1.29534, 1.36349, 1.39495, 1.37982, 1.33162, 1.36759, 1.35893, 1.33545, 1.33168, 1.33233, 1.45811, 1.34371, 1.34217, 1.3493, 1.2934, 1.27427, 1.2347, 1.23608, 1.23181, 1.24749, 1.19779, 1.15466, 1.13168, 1.12761, 1.11681, 1.09365, 1.07549, 1.05841, 1.03381, 1.02199, 1.05952, 1.0609, 0.999607, 0.985643, 0.945442, 0.923949, 0.919627, 0.945496, 0.945965, 0.886763, 0.881568, 0.857499, 0.853481, 0.886848, 0.853825, 0.845587, 0.844284, 0.842195, 0.82824, 0.828008, 0.828374, 0.824815, 0.84888, 0.856978, 0.845614, 0.838865, 0.856546, 0.855883, 0.89581, 1.03027, 0.895012, 0.895477, 0.89641, 1.05202, 1.04526, 0.911736, 0.909793, 0.857663, 0.839118, 0.839683, 0.84001, 0.837905, 0.828949, 0.825631, 0.816251, 0.817731, 0.818977, 0.821151, 0.821541, 0.821422, 0.82063, 0.821364, 0.814975, 0.816013, 0.818203, 0.81918, 0.819148, 0.82524, 0.825325, 0.826829, 0.827941, 0.827025, 0.825466, 0.825072, 0.825272, 0.819492, 0.821473, 0.819969, 0.821373, 0.822141, 0.840083, 0.843343, 0.846318, 0.847173, 0.848666, 0.849749, 0.851261, 0.912096, 0.859247
0.508393, 0.816412, 1.46174, 0.494233, 0.497219, 0.897669, 0.503397, 0.689533, 0.693327, 0.688752, 0.511965, 0.512453, 0.512081, 0.512414, 0.514477, 0.522967, 0.521982, 0.519801, 0.517798, 0.521718, 0.520945, 0.527748, 0.529445, 0.52842, 0.528682, 0.532035, 0.534122, 0.534496, 0.532823, 0.538948, 0.542047, 0.541383, 0.605099, 0.587418, 0.862841, 0.55802, 0.557197, 0.556172, 0.567144, 0.931955, 0.686955, 0.907953, 0.594803, 0.594303, 0.593211, 0.593529, 0.589716, 0.590421, 0.590047, 0.588707, 0.589389, 0.589137, 0.588862, 0.58294, 0.908571, 0.926629, 0.88758, 0.924801, 0.925099, 0.842441, 0.779694, 0.620046, 0.619469, 0.627382, 0.83665, 0.802211, 0.860515, 0.790385, 0.790065, 0.788434, 0.787124, 0.810347, 0.805941, 0.984145, 0.971618, 1.00099, 0.959375, 0.968063, 0.968897, 0.978419, 0.964538, 0.965871, 1.04723, 1.02309, 1.0325, 1.03154, 1.09547, 1.03421, 1.03839, 1.07377, 1.08823, 1.09816, 1.09854, 1.09353, 1.10298, 1.1201, 1.14076, 1.19856, 1.19485, 1.20501, 1.2251, 1.22669, 1.49839, 1.43447, 1.36013, 1.2574, 1.25729, 1.2174, 1.21552, 1.23345, 1.23631, 1.27453, 1.25443, 1.27672, 1.26461, 1.26644, 1.27871, 1.28128, 1.28846, 1.33515, 1.31709, 1.27873, 1.2773, 1.29233, 1.33053, 1.35139, 1.37206, 1.37378, 1.30184, 1.30891, 1.28752, 1.35003, 1.30326, 1.32175, 1.32219, 1.34103, 1.34306, 1.3435, 1.35091, 1.31723, 1.3127, 1.40999, 1.34714, 1.34071, 1.26012, 1.26616, 1.22892, 1.22914, 1.23613, 1.25457, 1.21874, 1.17933, 1.21358, 1.13703, 1.11313, 1.11386, 1.07511, 1.05382, 1.04244, 1.03309, 1.04663, 1.05994, 1.05987, 0.991704, 0.953738, 0.94164, 0.916294, 0.969866, 0.968847, 0.956924, 0.869835, 0.869439, 0.871732, 0.870378, 0.84664, 0.8427, 0.841213, 0.844656, 0.843466, 0.8494, 0.841054, 0.842736, 0.821895, 0.824448, 0.81594, 0.86026, 0.853606, 0.85546, 0.855462, 0.945342, 0.936075, 0.895877, 0.897246, 0.878469, 1.01689, 1.11198, 0.867248, 0.856951, 0.856184, 0.839783, 0.841041, 0.842327, 0.828475, 0.829511, 0.827723, 0.817921, 0.818074, 0.817753, 0.815144, 0.821887, 0.819628, 0.842221, 0.835124, 0.813354, 0.814732, 0.815506, 0.818074, 0.81164, 0.825095, 0.824435, 0.826705, 0.827978, 0.825001, 0.825601, 0.825823, 0.826059, 0.824646, 0.82298, 0.822469, 0.82247, 0.821053, 0.822818, 0.823572, 0.846592, 0.848746, 0.850941, 0.851383, 0.851028, 0.853796, 0.85406
0.485906, 0.486271, 0.798712, 0.496961, 0.898948, 0.503151, 0.503386, 0.503421, 0.904324, 0.507326, 0.511668, 0.512963, 0.512299, 0.511532, 0.521034, 0.521586, 0.522003, 0.518286, 0.517733, 0.520951, 0.521869, 0.52595, 0.526428, 0.5309, 0.531617, 0.532804, 0.533277, 0.533521, 0.535491, 0.540999, 0.541504, 0.541486, 0.546318, 0.573804, 0.862664, 0.857398, 0.556849, 0.562028, 0.959644, 0.970905, 1.1232, 0.91757, 0.593311, 0.593224, 0.591444, 0.590832, 0.591312, 0.590615, 0.589705, 0.58925, 0.589603, 0.589, 0.587056, 0.584881, 0.584604, 0.914442, 0.660766, 0.925098, 0.924845, 0.769405, 0.66262, 0.6197, 0.619728, 0.619096, 0.755814, 0.737925, 0.766025, 0.762892, 0.756534, 0.756726, 0.762456, 0.800853, 0.796058, 0.935435, 0.921395, 0.921934, 1.00845, 1.01051, 0.966122, 0.9838, 0.958437, 0.962827, 0.974202, 1.01647, 1.00825, 1.08469, 1.03399, 1.03422, 1.03899, 1.07212, 1.07444, 1.09074, 1.09109, 1.09126, 1.08406, 1.10923, 1.18418, 1.16761, 1.17191, 1.17354, 1.22556, 1.22233, 1.50262, 1.42064, 1.365, 1.32841, 1.32911, 1.21582, 1.25075, 1.231, 1.22403, 1.23244, 1.27697, 1.25014, 1.26046, 1.25672, 1.26063, 1.36763, 1.27683, 1.3434, 1.30973, 1.26697, 1.29703, 1.27038, 1.31234, 1.30864, 1.3302, 1.30114, 1.30063, 1.31079, 1.28631, 1.35051, 1.28381, 1.29755, 1.31573, 1.30673, 1.32181, 1.32969, 1.38412, 1.29515, 1.44032, 1.43975, 1.26089, 1.34328, 1.26005, 1.22538, 1.22941, 1.23616, 1.23622, 1.27584, 1.26823, 1.21628, 1.12767, 1.11441, 1.11272, 1.10831, 1.06364, 1.04607, 1.02065, 1.02295, 1.00424, 1.00532, 1.00298, 0.987589, 0.950511, 0.935227, 0.940288, 0.940253, 0.93901, 0.890389, 0.867666, 0.868845, 0.864675, 0.83502, 0.836139, 0.907252, 0.839666, 0.828922, 0.842852, 0.827271, 0.856, 0.829862, 0.826255, 0.823972, 0.82197, 0.831535, 0.898922, 0.854634, 0.963195, 0.922227, 0.934874, 0.895175, 0.89756, 0.87918, 0.878922, 0.869981, 0.868874, 0.919668, 0.849822, 0.912394, 0.838095, 0.838448, 0.828225, 0.82866, 0.828038, 0.818057, 0.818651, 0.814218, 0.814109, 0.811788, 0.811757, 0.811305, 0.811951, 0.813174, 0.814125, 0.814527, 0.807222, 0.807551, 0.808601, 1.05716, 0.825612, 0.82277, 0.824821, 0.836779, 0.82228, 0.824049, 0.825157, 0.824234, 0.821718, 0.822835, 0.820689, 0.823078, 0.823768, 0.823442, 0.822767, 0.856002, 0.850674, 0.851424, 0.852823, 0.852177
0.4839, 0.483807, 0.483262, 0.715604, 0.707376, 0.504127, 0.5045, 0.503973, 0.506616, 0.50706, 0.508372, 0.511042, 0.511427, 0.718052, 0.54262, 0.824022, 0.534533, 0.8189, 0.825076, 0.811518, 0.536846, 0.538028, 0.538204, 0.538048, 0.538129, 0.531909, 0.532477, 0.774368, 0.541682, 0.539446, 0.589847, 0.589531, 0.540008, 0.540186, 0.541122, 0.856735, 1.36266, 0.545283, 0.708079, 0.70746, 0.999432, 0.922681, 1.21072, 0.590749, 0.590123, 0.589868, 0.590188, 0.590772, 0.589875, 0.588736, 0.587263, 0.587979, 0.585236, 0.584848, 0.584499, 0.656491, 0.680947, 0.682036, 0.771159, 0.769842, 0.769914, 0.618807, 0.619481, 0.619472, 0.772724, 0.784264, 0.759207, 0.75612, 0.756292, 0.745586, 0.759929, 0.768251, 0.810155, 0.930578, 0.928598, 0.928775, 0.987997, 0.94112, 0.940599, 0.965317, 0.983341, 0.957462, 0.95595, 0.967341, 0.980934, 1.07015, 1.07241, 1.03719, 1.03748, 1.08748, 1.09113, 1.08707, 1.09228, 1.0835, 1.07069, 1.10934, 1.13272, 1.17371, 1.17458, 1.15274, 1.21971, 1.2185, 1.41126, 1.5473, 1.55143, 1.32847, 1.32875, 1.22749, 1.21615, 1.18439, 1.21261, 1.2506, 1.21278, 1.26453, 1.24807, 1.25714, 1.25436, 1.25964, 1.26013, 1.27945, 1.28329, 1.2669, 1.35081, 1.30268, 1.30288, 1.30684, 1.39488, 1.31285, 1.33151, 1.27526, 1.28587, 1.29466, 1.29846, 1.28907, 1.29684, 1.32694, 1.30699, 1.30587, 1.30857, 1.28994, 1.29124, 1.27461, 1.26716, 1.24596, 1.23886, 1.2412, 1.23668, 1.23992, 1.22306, 1.21214, 1.20291, 1.18439, 1.14895, 1.11598, 1.10598, 1.09869, 1.10122, 1.03996, 1.01826, 1.01795, 1.03401, 1.01317, 1.00946, 0.998015, 0.950403, 0.947101, 0.929594, 0.939196, 0.895364, 0.880441, 0.871602, 0.872755, 0.862293, 0.830253, 0.835844, 0.908077, 0.880516, 0.82923, 0.828307, 0.824648, 0.901524, 0.826347, 0.828038, 0.831096, 0.897949, 0.832148, 0.833071, 0.850431, 0.960904, 0.947609, 0.94647, 0.935678, 0.935673, 0.962831, 0.963506, 0.920865, 0.912706, 0.850373, 0.848746, 0.908005, 0.82708, 0.828129, 0.825817, 0.825292, 0.822668, 0.821637, 0.813683, 0.80941, 0.809692, 0.811685, 0.810977, 0.811018, 0.809026, 0.812435, 0.812325, 0.807721, 0.807494, 0.808846, 0.814551, 0.818399, 0.82053, 0.822659, 0.824699, 0.822841, 0.82168, 0.824075, 0.825702, 0.825152, 0.823861, 0.824385, 0.824625, 0.8227, 0.823967, 0.823192, 0.821381, 0.849898, 0.847236, 0.839804, 0.856435, 0.850557
0.486887, 0.486066, 0.483114, 0.49282, 0.493327, 0.503768, 0.503959, 0.503512, 0.50109, 0.501191, 0.507201, 0.682588, 0.671609, 0.555742, 0.82571, 0.538863, 0.537831, 0.537821, 0.539839, 0.539862, 0.538331, 0.539076, 0.539859, 0.539411, 0.53918, 0.539071, 0.540181, 0.540181, 0.603238, 0.541911, 0.541639, 0.545218, 0.541017, 0.540195, 0.539174, 0.809583, 0.545941, 0.546923, 0.545724, 0.87824, 1.21225, 0.621498, 0.62083, 0.665747, 0.589277, 0.590892, 0.591722, 0.590213, 0.589571, 0.586476, 0.585642, 0.585729, 0.584258, 0.584581, 0.580649, 0.579364, 0.65607, 0.656465, 0.771385, 0.769535, 0.660564, 0.774759, 0.774715, 0.774338, 0.774267, 0.771571, 0.7403, 0.753145, 0.784145, 0.749501, 0.766298, 0.779534, 0.780245, 0.918925, 0.923554, 0.937049, 1.02433, 1.02694, 0.943535, 1.00629, 0.940635, 0.954015, 0.956528, 0.96072, 0.984697, 0.985297, 1.00866, 1.05409, 1.04998, 1.12886, 1.09773, 1.08946, 1.08468, 1.08105, 1.07409, 1.07388, 1.10562, 1.18219, 1.18238, 1.21877, 1.21874, 1.21584, 1.45772, 1.45191, 1.54865, 1.32449, 1.22654, 1.20502, 1.18745, 1.1873, 1.19089, 1.19091, 1.22556, 1.25145, 1.24266, 1.27788, 1.2424, 1.27779, 1.27455, 1.28125, 1.25739, 1.32169, 1.25354, 1.24344, 1.23761, 1.29024, 1.32833, 1.39189, 1.32536, 1.27504, 1.27601, 1.28963, 1.2823, 1.29287, 1.26911, 1.30593, 1.28128, 1.27459, 1.30528, 1.2703, 1.27107, 1.26977, 1.25691, 1.24334, 1.24198, 1.22657, 1.22898, 1.19917, 1.17183, 1.1447, 1.13727, 1.13443, 1.13205, 1.13704, 1.12287, 1.1263, 1.09271, 1.088, 1.02145, 1.01933, 1.07181, 1.04021, 1.03657, 0.990623, 0.963199, 0.940243, 0.915513, 0.908046, 0.905987, 0.949522, 0.874052, 0.857864, 0.856936, 0.876894, 0.830395, 0.835375, 0.83583, 0.836407, 0.825868, 0.821202, 0.894799, 0.825219, 0.828218, 0.832172, 0.832003, 0.84628, 0.847049, 0.850664, 0.846067, 0.856348, 0.938589, 0.924907, 0.936231, 0.935686, 0.920378, 0.922793, 0.848115, 0.848509, 0.84926, 0.848522, 0.827192, 0.828034, 0.823333, 0.821152, 0.821658, 0.909351, 0.874181, 0.807762, 0.808879, 0.810294, 0.809061, 0.804717, 0.804497, 0.805287, 0.810383, 0.806841, 0.807454, 0.809175, 0.811845, 0.813338, 0.817729, 0.822182, 0.822191, 0.822299, 0.823948, 0.824674, 0.826748, 0.823622, 0.824568, 0.825054, 0.826508, 0.82804, 0.828425, 0.823774, 0.843514, 1.00197, 0.846271, 0.847341, 0.870834, 1.41001
0.486493, 0.483888, 0.493542, 0.494729, 0.493674, 0.493135, 0.491804, 0.493924, 0.502004, 0.500418, 0.683941, 0.849617, 0.555655, 0.520202, 0.548856, 0.53837, 0.537013, 0.536122, 0.540806, 0.541342, 0.540087, 0.539901, 0.540983, 0.540912, 0.540804, 0.541321, 0.541256, 0.541324, 0.542742, 0.542974, 0.542985, 0.543503, 0.539553, 0.539059, 0.538271, 0.863752, 0.895353, 0.546921, 0.545484, 0.840589, 0.843393, 0.566322, 0.621254, 0.897398, 0.884921, 1.10834, 0.889809, 0.587712, 0.586253, 0.585626, 0.584721, 0.57331, 0.572925, 0.573178, 0.5795, 0.579395, 0.655935, 0.656272, 0.596528, 0.59646, 0.594449, 0.594952, 0.774898, 0.774995, 0.772775, 0.770683, 0.781097, 0.834146, 0.721568, 0.736285, 0.747423, 0.753049, 0.802392, 0.922994, 0.928041, 0.929474, 0.967155, 1.04773, 1.08498, 0.933815, 0.934064, 0.993484, 0.949191, 0.949083, 0.967611, 0.988543, 1.01149, 1.01709, 1.02637, 1.08988, 1.0975, 1.0915, 1.09603, 1.13333, 1.0784, 1.08818, 1.09884, 1.19848, 1.23279, 1.23325, 1.21595, 1.16394, 1.16439, 1.43119, 1.34521, 1.20976, 1.21248, 1.19072, 1.19085, 1.18957, 1.19104, 1.18597, 1.25414, 1.25767, 1.23005, 1.22871, 1.28439, 1.24663, 1.24598, 1.24624, 1.25302, 1.27775, 1.23683, 1.23059, 1.28584, 1.25411, 1.31234, 1.31291, 1.32659, 1.32689, 1.31881, 1.31886, 1.26127, 1.26112, 1.26034, 1.28432, 1.27049, 1.27258, 1.24495, 1.21401, 1.21287, 1.22371, 1.23775, 1.24047, 1.23593, 1.20513, 1.20591, 1.31545, 1.14815, 1.16869, 1.13555, 1.13437, 1.15797, 1.13644, 1.13097, 1.12676, 1.09974, 1.07712, 1.01814, 1.01862, 1.02043, 1.06957, 1.05716, 1.04486, 1.01236, 0.943582, 0.970625, 0.909476, 0.890185, 0.890389, 0.862445, 0.857789, 0.864343, 0.904419, 0.888443, 0.86662, 0.836828, 0.826548, 0.849503, 0.81803, 0.839056, 0.817213, 0.828722, 0.822507, 0.832952, 0.847688, 0.848625, 0.847145, 0.84506, 0.845654, 0.912252, 1.14785, 0.933761, 0.917704, 0.890238, 0.864034, 0.848651, 0.849358, 0.848956, 0.906103, 0.846382, 0.819081, 0.821287, 0.822452, 0.820201, 0.819849, 0.992899, 0.825329, 0.817274, 0.810822, 0.805094, 0.805465, 0.804413, 0.805065, 0.80858, 0.805871, 0.807017, 0.809418, 0.813239, 0.814189, 0.816182, 0.817869, 0.817679, 0.821513, 0.814848, 0.82209, 0.820887, 0.822733, 0.822929, 0.824408, 0.8252, 0.827127, 0.828051, 0.820543, 0.845582, 0.809227, 0.808673, 0.808756, 0.952861, 0.839952
0.63847, 0.635249, 0.4963, 0.494686, 0.493577, 0.493046, 0.492056, 0.493048, 0.493896, 0.497774, 0.576278, 0.566619, 0.563341, 0.665757, 0.656229, 0.953872, 0.537503, 0.536636, 0.541646, 0.54186, 0.540519, 0.539984, 0.540763, 0.540751, 0.540797, 0.540675, 0.541064, 0.541323, 0.541777, 0.541643, 0.541678, 0.541599, 0.538144, 0.559154, 1.33795, 1.21312, 0.545556, 0.54543, 0.571035, 1.05654, 0.553288, 0.552226, 0.943413, 0.910474, 0.921485, 0.942503, 0.982773, 0.586249, 0.58565, 0.582198, 0.574126, 0.57472, 0.573444, 0.573869, 0.576301, 0.579156, 1.13675, 0.822311, 0.596643, 0.597245, 0.595754, 0.59403, 0.775106, 0.774804, 0.772655, 0.770539, 0.751446, 0.784168, 0.729015, 0.781229, 0.809401, 0.756968, 0.804144, 0.80805, 0.901663, 0.898762, 0.91166, 1.0474, 0.987034, 0.988338, 0.945634, 0.946957, 0.949039, 0.950522, 0.955739, 0.971833, 0.99116, 0.991039, 1.1043, 1.04903, 1.06712, 1.09323, 1.09397, 1.09127, 1.09198, 1.05801, 1.11921, 1.12096, 1.46155, 1.23422, 1.23302, 1.1816, 1.18107, 1.18488, 1.21192, 1.23637, 1.21919, 1.19526, 1.3404, 1.33974, 1.18474, 1.18664, 1.20208, 1.21498, 1.22114, 1.21916, 1.32968, 1.25808, 1.24598, 1.27012, 1.25108, 1.24975, 1.2153, 1.21517, 1.24278, 1.24367, 1.25519, 1.29881, 1.30274, 1.33977, 1.33753, 1.26718, 1.25469, 1.27756, 1.29619, 1.25591, 1.24434, 1.2836, 1.20024, 1.19949, 1.21672, 1.21211, 1.20401, 1.23294, 1.17696, 1.17572, 1.17564, 1.16905, 1.15845, 1.19339, 1.15972, 1.18197, 1.1309, 1.17559, 1.16761, 1.10947, 1.14017, 1.10436, 1.1049, 1.11306, 1.0334, 1.04932, 1.05408, 1.0156, 0.950426, 0.943468, 0.910179, 0.904933, 0.891162, 0.943906, 0.870553, 0.901995, 0.868189, 0.913319, 0.922261, 0.910633, 0.911784, 0.846199, 0.825618, 0.802402, 0.802604, 0.811139, 0.822642, 0.821857, 0.832715, 0.846342, 0.847225, 0.842776, 0.844069, 1.09194, 1.08877, 0.835655, 0.877647, 0.919113, 0.863127, 0.864225, 0.887896, 0.922965, 0.901358, 0.888412, 0.888265, 0.819639, 0.821604, 0.821506, 0.821564, 1.08569, 1.08583, 1.0922, 1.0723, 1.07032, 0.812753, 0.803225, 0.803839, 0.803512, 0.801671, 0.803713, 0.807022, 0.808122, 0.812978, 0.814754, 0.815526, 0.816055, 0.817071, 0.817838, 0.816187, 0.815816, 0.821521, 0.820623, 0.821419, 0.82364, 0.824894, 0.826841, 0.827968, 0.819293, 0.819139, 0.8111, 0.810971, 0.809287, 0.810883, 0.82251
