0.391392454203191,0.550400088786639,0.399010484888478,0.399353587763402,0.411698601232459,0.412291146587481,0.919918062206383,0.400450752388507,0.40034849052885,0.411722494190323,0.410980856778231,0.408413797385347,0.406575951066465,0.410987546806433,0.427031190152803,0.426192069472628,0.424814879381359,0.423686176051874,0.626640605893329,0.396093632592468,0.404891019677911,0.403272988571376,0.560521145737736,0.568132486394821,0.555513181769488,0.426501722206542,0.83810761876249,0.673412504489148,1.29235097648551,0.445581682638241,0.535521466065707,0.650157010741174,0.656611932237653,0.658086605597005,0.658852135966961,0.733140120557022,0.47601175377355,0.469386714417081,0.469311212670232,0.468029594410419,0.466406784712311,0.469214685120462,0.474425261371395,0.475067504078774,0.475456481432796,0.884811661357976,0.564173901135951,0.794927309592754,0.762905967463718,0.605174216830195,0.920493404631743,0.816351647050047,0.804982421980147,0.844927624655127,0.520770909598924,0.522336376198159,0.522042014957277,0.596683615323723,0.537586773343452,0.536211494688813,0.547312162912325,0.541625638940745,0.54040231949812,0.536951220664275,0.80546601544731,0.551934016681494,0.551306109748834,0.682699219351641,0.65682983601337,0.602925411636056,0.543731086387701,0.543864886951739,0.558762624038962,0.589880812360747,0.591700500031653,0.580193651524457,0.580488968483653,0.590869980816308,0.589705915909185,0.584287948783994,0.592917129446076,0.590972242675965,0.626464753723451,0.61667246387256,0.60600473604554,0.60761320996893,0.607954401407224,0.600468259849345,0.599659722155235,0.637407728425062,0.640388613848147,0.738343051061438,0.603412827976477,0.634062714324133,0.724919031615253,0.838482260341794,0.83861797234246,0.847502329794528,0.836337628443941,0.825570505912208,0.785649196195091,0.761171338722807,0.768245565687115,0.76709583655471,0.767178028329761,0.774915523804367,0.763035945154497,0.731784911986988,0.700734579665536,0.688804347944994,0.688938148509031,0.684082143752797,0.682518588590191,0.71320288079717,0.714320115506881,0.683178989945546,0.702803709816539,0.696380327024441,0.674080551591019,0.652726937289002,0.652791926134392,0.665671186141283,0.663404222299168,0.663571473004214,0.666337321806525,1.12316016326052,0.704172298442976,0.686337638975137,0.689804985020329,0.691221359562494,0.693013331402277,0.699754012674807,0.698993260896424,0.697184086126978,0.696854363308458,0.696908839252388,0.698126424385126,0.70596427028276,0.70678332087833,0.71209615898892,0.712244295327676,0.804387965188496,0.778895134866158,0.755624349625152,0.708581027028001,0.709594088441425,0.708357388942396,0.705877299916136,0.707128335189883,0.7133099212484
0.387603031085995,0.393838137370127,0.399305801847674,0.399016219198365,0.60011655550959,0.410027049900309,0.824147441341841,0.401610038704057,0.400941035883871,0.410043297111657,0.40971644144808,0.407306119858782,0.406488980699841,0.42469732602867,0.426672795784847,0.425911088288149,0.423621187206485,0.399355499200031,0.399755945173828,0.398243043081894,0.397651453445186,0.400670567600854,0.399520838468448,0.554901522048175,0.422956007259557,0.423591559938734,0.53911305549179,0.693261818164061,0.708745410578104,0.596724711211248,0.449593788122727,0.462182509761995,0.641172302866079,1.11546663082838,0.472769001532278,0.655927637924434,0.469980215490418,0.469952499659296,0.469160209176533,0.468571486694769,0.465336380200014,0.463764223572577,0.466108600598171,0.476290823521399,0.47636250239499,0.465096494903061,0.465350715974732,0.781703990992624,0.607360900333888,0.621617350432048,0.919034978483738,0.786716733552445,0.896993246995245,0.775688699920839,0.695719925669086,0.520964920416778,0.521481008306636,0.602391165098222,0.60511018370312,0.606485462357759,0.529362817246739,0.540302924793406,0.540236024511388,0.534914584935967,0.565008243224554,0.553734589986108,0.551573710876908,0.580514772878146,0.737696985480802,0.54410668368532,0.542089162323302,0.545569888424898,0.630408047489289,0.589374281654035,0.590390210222403,0.580705916541056,0.580490879920282,0.590028948699503,0.578563196079833,0.574154467494808,0.643865517076484,0.644574660065881,0.614696994116383,0.640341783650734,0.641179948612595,0.607672464504432,0.608085334816318,0.608066220450027,0.730828237954123,0.817741261479405,0.69941664410977,0.619334139378585,0.632675011331405,0.633269468123055,0.739590263461928,0.80629557894434,0.839943553644743,0.842289842106966,0.73263358985031,0.805669583448309,0.736185039107182,0.849435747944865,0.815263083889774,0.768498831040471,0.775291121101986,0.781392426822081,0.746472391045011,0.743333812100025,0.725882395676321,0.720206384606201,0.686350063313226,0.682000589263704,0.682453599744801,0.756244610811296,0.726592494384032,0.730079910513829,0.708128016546904,0.677041366929498,0.70922135829875,0.655715468458604,0.65338160433447,0.663860099935209,0.673850223477212,0.673681061335536,0.696908839252388,0.692890999458015,0.701039453807878,0.688164016674245,0.690563825362082,0.691674370043591,0.920214334883894,1.18297857256827,0.696914573562275,0.696446271588145,0.697426838578874,0.69661734516645,0.699643149350319,0.708473986576771,0.707724703418163,0.711940376903648,0.712108583327009,0.703347513537519,1.58110215086085,1.57187946912543,0.706692527638448,0.708610654295752,0.708619255760583,0.707495331022671,0.70478204672766,0.711854362255339
0.388534856442683,0.386936895420753,0.395773466957093,0.396135684198308,0.855478754847772,0.853475569260473,0.825822815547249,0.402538041187486,0.402094587889535,0.400379073514915,0.476780151298449,0.405804686386622,0.657955672187912,0.421207998462243,0.425588055497831,0.425231572566504,0.398751485225235,0.397988822010223,0.399290510354642,0.401287005913739,0.398699876436249,0.400001564780668,0.39911370246645,0.422415070693521,0.424218511153079,0.424617045690247,0.42696333415247,0.426848647954724,0.426716758827316,0.766085642296229,0.43687508879268,0.463330327457771,0.640788104103629,0.47688528031305,0.47676772696036,0.469196526472486,0.470521152056454,0.471047752847771,0.470046160054122,0.469406784501687,0.466258648373556,0.465209269664178,0.465764542004933,0.476741922565867,0.476673110847219,0.466514780881855,0.466295921387823,0.465756896258416,0.629806900669437,0.597305787946495,0.924021916649066,0.510915542339273,0.516938479157574,0.578748605432856,0.576741596972298,0.614201932029445,0.551216272227266,0.632096801751101,0.680201927395719,0.676657168167049,0.531034368578889,0.537549500329184,0.539522102930418,0.914575596828042,0.849463463775987,0.856606502458942,0.846324884831001,0.719937827759812,0.542718024974277,0.543600152978608,0.543106046609985,0.549183459372216,0.551267881016252,0.573503623322599,0.573196837743628,0.569498207866315,0.581870937166494,0.581364406459782,0.580474632708935,0.578022259513797,0.615248443583879,0.61456414927066,0.61441505721359,0.641738088108293,0.641689346474251,0.612779823177393,0.610224232404283,0.785455185377238,0.71429048823913,0.864346865088492,0.771302908575364,0.770131197921724,0.806258305930073,0.705914572930403,0.874759416125527,0.867084998059681,0.84173839263947,0.727358980472302,0.795506474891372,0.803354833690466,0.779503927432528,0.846459641113352,0.845159864205563,0.766813899651917,0.778076084270588,0.783616383340041,0.763823457045687,0.741451047020359,0.739227090502398,0.720120369957892,0.7225182672091,0.680850860131299,0.680891956018825,0.769224221241215,0.732957578358943,0.689505845187874,0.715984021092514,0.673731714406208,0.67438733716999,0.712896095218199,0.697246207817424,0.677038499774555,0.676779500111311,0.676598869349861,0.698023206807154,0.690006641584699,0.747773123671115,0.741646969274842,0.689698900287414,0.690307692853783,0.679691573815749,1.12457462636605,0.695388291413937,0.696174847586812,0.698194280385459,0.699606832054365,0.700485137185438,0.706216579917801,0.708166245279486,0.71046665926261,1.58168513903273,1.56237962907879,1.58435159313032,1.56540925613592,0.705479721097283,0.706011100480173,0.706063664987473,0.706168794002074,0.703382875115157,0.705787462394568
0.388691594246269,0.387717717283742,0.842285063515393,0.396022909437191,0.392291785137183,0.399627878919678,0.794419823167727,0.401916824283028,0.401408382139687,0.400331287599188,0.391029281243661,0.624178675515045,0.594364086974307,0.421820613901871,0.423899301236019,0.527707513125937,0.39711051687915,0.39863297615423,0.400273944500315,0.398707522182765,0.400114339541785,0.40112548951858,0.401812650986742,0.423435777853462,0.424940078480566,0.426532305192608,0.425975121415224,0.425688405920859,0.42226980150971,0.427232846717174,0.757361845521006,0.743044229450716,0.719656846575334,0.479260240324709,1.0509174158636,0.482014620507246,0.470310894027253,0.470144599040521,0.471055398594288,0.470247816618492,0.468442464722305,0.467614812661904,0.468255143932653,0.470484834760501,0.473788752973904,0.467924465395818,0.467843229339081,0.474802770105643,0.650882400941919,0.484292097250821,0.531581995173127,0.513696682634617,0.663618303201627,0.653449460334803,0.578545993150171,0.588350707339151,0.518392126714006,0.51500983959881,0.51572376117978,0.817127690321463,0.530860427845641,0.531052527226866,0.875871872243664,0.600505532863613,0.844442119751335,0.845479074122623,0.579815187071895,0.580458385497588,0.543824746782527,0.543691901936805,0.547143956488964,0.550667689914714,0.55085596642268,0.55700027946693,0.573396582871369,0.573819010366401,0.573466350308331,0.574550134877032,0.584265011544445,0.781920939050027,0.599130254208973,0.60258804307102,0.606799893683247,0.640934329005756,1.10406491133579,1.10346280879762,0.723250347438047,0.826648556171022,0.822515074460588,0.742334130743004,0.717421421437599,0.765843845562648,0.855840972088987,0.869090095083609,0.907418222370369,0.87273998332688,0.820131512984097,0.760492778719476,0.808747952139478,0.822648875024625,0.784827278444578,0.807347824808661,0.808353240475569,0.7603236165778,0.779612879320386,0.759397525531,0.749345280298551,0.760944833482259,0.739332219516999,0.720302912155971,0.720348786635069,0.742025433727404,0.678939423502197,0.750896411123068,0.689715147498761,0.689949298485826,0.690234102543562,0.675686158359465,0.674756244439406,0.673432574573753,0.674659716889637,0.676156371770224,0.677168477465333,0.677450414368126,0.680133115677071,0.683105399635325,0.745771849520445,0.74840007488546,0.700858823046428,0.67948609437812,0.681581984641931,1.23151950576433,0.680070993986625,0.695555542118983,0.699760702703008,0.700273923437922,0.701265959048426,0.703936236019282,0.706759427920466,0.703158281311238,0.716758152927301,1.55259307353779,1.26078360055588,0.689049967551833,0.694990712595083,0.703495649876274,0.699558090420324,0.700734579665536,0.700610336284644,0.702412821025888
0.388823483373677,0.388673435598293,0.389023228501419,0.391368561245327,0.391845464684288,0.399992007597522,0.729976692935858,0.40092192151758,0.398928293113427,0.392982769478604,0.390972893863103,0.391845464684288,0.749458055059668,0.404555562549504,0.402779837921068,0.392174231784494,0.398811695479051,0.398938806014887,0.398178054236504,0.406399143178273,0.406622781263878,0.556783331409526,0.435488341518267,0.425493439384691,0.425094904847523,0.427010164349883,0.426918415391686,0.424701148901928,0.422895797005741,0.42241889356678,0.740145535802682,0.744696666416575,0.746387332115016,0.70711304369685,1.04530734935718,0.484462215110811,0.469281585402481,0.471236029355738,0.471233162200794,0.470404554422079,0.469367600050791,0.468551416610164,0.471245586538883,0.472023541246928,0.471314398257531,0.468179642185803,0.468384165905117,0.472661005362734,0.4847307719572,0.483979577361963,0.544550136983272,0.543940388698588,0.505051254761187,0.521665461941344,0.590660678505421,0.63066226856096,0.514652400949168,0.516354535267383,0.516504583042768,0.524672151758922,0.526041696103674,0.527164665123272,0.577370459623273,0.712314062764638,0.671092976139732,0.533997095353998,0.66581549960678,0.803264996168898,0.53781519002063,0.539331914985822,0.541623727504116,0.54487316977359,0.550430671772705,0.558511270122235,0.666026713354296,0.575661635276855,0.575033728344195,0.574165936114583,0.58171037648965,0.786370763522578,0.59921340170234,0.604436402291362,0.609631687049262,0.718970640825487,0.625641880254623,0.620086289692137,0.62007864394562,0.72314808557839,0.72327615183254,0.830757189205277,0.68610922229796,0.681661309262039,1.05849626209799,0.931826312405691,0.901184071804552,0.837955659550476,0.847649510414969,0.770121640738579,0.825374583657725,0.800320428041766,0.842924439067828,0.779187584670411,0.822564771812945,0.789738714863056,0.780292395042032,0.783015236520189,0.776814536095381,0.762793192702601,0.76151635303436,0.754099978913443,0.753827599193796,0.74044754279008,0.678776951388723,0.764825049839336,0.780760697016162,0.700705908116099,0.674294632493478,0.674964591031979,0.67571674134553,0.674321392606286,0.676444998701218,0.678038181131575,0.678930822037366,0.679456467110369,0.680089152634602,0.967492764186425,0.722138847038224,0.729224542622306,0.674341462690891,0.676743182815358,0.681851497206634,0.679223271841619,0.680982749258707,0.683576568764399,0.698831744501265,0.699079275544733,0.700500428678471,0.701383512401116,0.69159217826854,0.692971279796437,1.59119453626251,1.59326844500508,0.681866788699667,0.764385419414643,0.726325848974272,0.697575930635944,0.698242066301187,0.699508393067967,0.699748278364919,0.699106991375855
0.388613225344476,0.384354544534836,0.386540272320215,0.390867764848502,0.390009529802035,0.380038520626323,0.728496285266618,0.40041156793761,0.399734919370908,0.395415072589137,0.391631383781829,0.392386401250324,0.729478763693976,0.405351675905525,0.40395632716628,0.39238353409538,0.399831446920678,0.39935741063666,0.3990907652269,0.408743520203867,0.407719945888983,0.556916176255249,0.429975758279936,0.426854382264611,0.427050304519094,0.426226475331951,0.427103824744709,0.425613859892324,0.425055720396626,0.423666105967269,0.69312515044508,0.691883672354478,0.715905652190721,0.74770909054404,0.504786520788056,0.780395612620004,0.766288254578914,0.469922872391545,0.469918093799972,0.469638068333808,0.468976711260139,0.468654634188135,0.468821884893182,0.472358998375336,0.471251320848771,0.469531027882579,0.469488020558424,0.468808504836778,0.540394673751603,0.477000922229111,0.477362183752011,0.479052849450452,0.983959790746142,0.501764539477445,0.495452020009835,0.905907231715063,0.513648896718889,0.516732999719946,0.516185373125708,0.596781098591807,0.525238892719451,0.527171355151474,0.642670869183295,0.712816770598092,0.759098385698546,0.782465698489322,0.581160838458783,0.803811667044822,0.540090755327576,0.539766766818943,0.543048703511112,0.543438636583449,0.542182822718128,0.683416008087554,0.675884947768891,0.574312161016709,0.574481323158385,0.574329363946371,0.638494380148707,0.613341785546349,0.603659403301631,0.605999001735653,0.607660040166343,0.714780771734494,0.623882402837534,0.620619580511656,0.620842262878947,0.724272966034616,0.725651111844199,0.726973825991538,0.686862328329826,0.687634548727983,0.95165173312274,0.855698570060119,0.951182475430295,0.871142978023265,0.8550668402542,0.756350695544211,0.67522741356848,0.769065572001,0.776373949952373,0.804703352232298,0.78800504184046,0.795299084017114,0.784509024245832,0.782934956181766,0.799358019699013,0.768739672055738,0.76584002268939,0.679459334265313,0.739749868420458,0.740451365663338,0.763212753042689,0.672738723077389,0.672949936824905,0.700056975380519,0.750073537654239,0.672672778513685,0.673460290404875,0.669673734442623,0.67622900636213,0.67700600535186,0.678518907443794,0.672713874401211,0.67429080962022,0.670994537153333,0.667962042941262,0.668505846662242,0.674274562408873,0.677191414704883,0.680356753762676,0.679402946884754,0.681607789036424,0.683826966962811,0.686259270073344,0.697243340662481,0.699579116223244,1.08039176868435,0.692713235851508,0.693662264137857,0.697116230126645,0.680999952188369,0.68289227445118,0.683050923691396,0.68737554906474,0.695547896372467,0.698319479484665,0.699781728505928,0.699733942590201,0.700070355436923
0.386315678516295,0.385704018794982,0.383636800080608,0.389009848445015,0.388829217683565,0.379862668456446,0.561080240951748,0.398774422464784,0.398287006124363,0.39647209704503,0.394322686555605,0.397735556656867,0.423740651995804,0.404368241759852,0.404068146209083,0.393072607000172,0.391846420402603,0.400564482867938,0.50886743799119,0.423853426756921,0.423738740559175,0.423906946982536,0.4203316047678,0.420260881612523,0.427380983055929,0.426713891672372,0.427558746662436,0.425156070819654,0.424599842760585,0.424068463377695,0.425202901017067,0.63839211828905,0.430351355577554,0.747113678034074,0.469523382136062,0.00438055400911151,0.591198747916514,0.580476544145564,0.468171996439287,0.468267568270742,0.468088848945921,0.467817424944589,0.46833637998939,0.471308663947644,0.460327460513451,0.468319177059728,0.468390855933319,0.468102229002325,0.469854060672897,0.477766452599066,0.47781137135985,0.477770275472324,0.954669891560092,0.488331918566429,0.492369828445408,0.849677544678446,0.87436948305319,0.516216911830088,0.506366323162009,0.507321085758246,0.824453271202498,0.818919662161246,0.811632310012794,0.515792572898427,0.515894834758084,0.521424620926077,0.521139816868341,0.792188220903251,0.536265970632742,0.540599197470917,0.541122931107291,0.54098626338831,0.540697636457316,0.682684883576923,0.686759110751854,0.640128658466589,0.574316939608282,0.635633915233255,0.654150001859369,0.634456470269728,0.645835252522774,0.605544079817926,1.1119018015151,0.746450409523776,0.621704320798672,0.62096268338658,0.62109074964073,0.721962039150032,0.724567327275498,0.68420256426043,0.827989428966337,0.692982748416212,0.938225802239925,0.898163046212255,0.874750814660696,0.872246832676572,0.843682323691267,0.844028293721134,0.670655257151667,0.807152858272493,0.76982154518781,0.809218165550238,0.796628488192655,0.813870602305473,0.783514121480384,0.782977007787606,0.793890355221466,0.768630720167879,0.689184723834185,0.670795747743907,0.773161780697166,0.747791282319091,0.670195556642368,0.671440857606229,0.673001545613891,0.737133111675217,0.686889088442633,0.665091065124351,0.669154779397822,0.670535792362349,0.672764527471882,0.67341728308072,0.669448184920389,0.674594728044247,0.674946432384002,0.67204391586271,0.66978650920374,0.669399443286347,0.672991988430745,0.674762934467608,0.679521455955759,0.677990395215848,0.679564463279913,0.685396256435305,0.685795746690787,0.68672661632916,0.688211802589972,0.686393070637381,0.688403901971197,0.690337320121534,0.690486412178604,0.681965227686066,0.682695396478383,0.736251939389201,0.688293038646709,0.691050285984189,0.697379052663147,0.69937459250393,0.699964270704008,0.700572107552062
0.386683630067397,0.382404879173152,0.383338615966468,0.380254512965412,0.38178079511375,0.380898667109419,0.380934028687058,0.713397847333339,0.400040749231564,0.400210867091554,0.399946133118424,0.398348172096494,0.398644444774005,0.389711345687895,0.390364101296734,0.394667700867158,0.392471460180319,0.401143648166556,0.419865214230299,0.425490572229747,0.425110196340556,0.424527208168679,0.422943582921468,0.42097002460192,0.427823480635566,0.428114974721504,0.427795764804444,0.424305481519704,0.424649540112942,0.424805322198214,0.426564799615302,0.426269482656106,0.431688405499611,0.433292100831428,0.436532941636071,0.596618626478333,0.451660051118787,0.601727896587924,0.601345609262103,1.01743860330487,0.461097769474979,0.459982446201898,0.462097450832,0.462050620634587,0.462030550549981,0.46134147764519,0.459447243945749,0.465177730959798,0.469928606701432,0.476938800538665,0.477799902740075,0.478446924039026,0.478126758403652,0.88789958723229,0.491033734241665,0.884433196905413,0.867399429385168,0.867857218457838,0.507719620295414,0.507393720350152,0.808664804646112,0.81891201641473,0.509986584137529,0.517083748341386,0.513207354857567,0.519139498435986,0.520455522555123,0.524190469728388,0.538264377628469,0.540718662260236,0.54083717133124,0.539668327832544,0.540463485470251,0.546307702963731,0.542799261031014,0.677627222256318,0.578254499064233,0.598511904459459,0.634425887283662,0.629976062811112,0.628476540775581,0.68333955062239,1.11288619137909,0.706785232314959,0.619815821409119,0.620013655100231,0.621681383559123,0.998161764900372,0.746258310142551,0.811210838236077,0.944602354834611,0.825093602473247,0.8989935654276,0.866164641322768,0.865215613036419,0.904300669228303,0.756495009009709,0.824348142187897,0.670949618392549,0.847112396722191,0.852504559452888,0.799196503303854,0.798344002567275,0.814263402532753,0.807287614554844,0.815668308455143,0.795326799848237,0.674912026524678,0.692981792697897,0.796593126615017,0.77178076773264,0.658470804359455,0.665883355607114,0.74889131409914,0.66678555369605,0.669697627400487,0.659896736084765,0.665874754142283,0.665509669746124,0.669252262665906,0.669293358553432,0.660058252479924,0.673502342010715,0.671261182563093,0.674006005562484,0.672075454567091,0.669531332413755,0.669228369708043,0.672673734231999,0.676219449178984,0.675862010529342,0.677907247722482,0.675984342473605,0.676847356111644,0.684450095303899,1.05733984293738,0.687210209796323,0.688466979379957,0.688979244396557,0.689448502089001,0.683370133608456,0.681983386334042,0.682935281775335,0.709737446188608,0.688031171828522,0.693297179741699,0.696523684771624,0.699675643773013,0.700747004003625,0.701222951724272
0.38278047647077,0.382317908806528,0.38179130801521,0.380706567728194,0.381324917477709,0.382850243907733,0.412685858251391,0.39607929681775,0.398664514858611,0.401429407942607,0.400790988108487,0.398781112492986,0.398191434292908,0.389983725407542,0.389995194027317,0.391946770825631,0.391779520120584,0.00431599523696358,0.420505545501048,0.426029597359154,0.425774420569169,0.42511115205887,0.425404557581437,0.423765500671982,0.423352630360096,0.427657185648834,0.425681715892657,0.423541862586377,0.424081843434098,0.424623735718449,0.426982448518761,0.427190795111333,0.489072600260206,0.491632013906574,0.99009550232556,0.611213400859844,0.458907263098028,0.449301338318474,0.695580390795162,1.0196080838789,0.459253233127896,0.453007613942304,0.885245557472782,0.573822833239659,0.461216278545984,0.456384166747613,0.454810098683547,0.467589008267411,0.462200668409971,0.475187924586407,0.477607803358851,0.478133448431854,0.475492798728749,0.887967443232624,0.488587095356414,0.862577830488258,0.861755912737744,0.842108255627201,0.507531343787447,0.507892605310348,0.504813280900864,0.504825705238953,0.508944851174668,0.516687125240847,0.512853739081183,0.520574987344441,0.520579765936014,0.520958230388576,0.669196831003662,0.538447875544863,0.52661417137409,0.538225193177572,0.594455835932504,0.545556508368494,0.54394707872679,0.543624045936472,0.87154724687032,0.768056333460834,0.689488642258212,0.630690940110396,0.821311825102568,0.706511896876998,1.113077335042,1.11237010348923,0.617994222301584,0.906106976842805,0.981818981721547,0.865496594220897,0.726302911734723,0.81958197495323,0.640757521117564,0.939489261851762,0.901505193158241,0.896315642710228,0.86209328130278,0.857368209955639,0.849333486085208,0.821356743863352,0.764907241614388,0.804303861976816,0.871195542530565,0.815985606935574,0.815373947214262,0.831617335688373,0.844691562231433,0.772954389822909,0.826851168453706,0.774906922339537,0.761468567118633,0.715117184581216,0.713921580969713,0.659770581267244,0.661097118287841,0.765589624490977,0.668920628410757,0.668341463112139,0.657791288637809,0.658644745092703,0.660127064198572,0.666505528229886,0.665912982874865,0.660649842116631,0.661487051360178,0.671260226844778,0.671839392143396,0.672533243639761,0.668567012634373,0.667277748628044,0.671225820985454,0.673611293898574,0.675396575710156,0.673746050180926,0.671627222677566,0.676230917798759,0.674977971088382,0.67642015002504,0.685674370464839,0.688228049801319,0.689308011496762,0.689122602143739,0.68310635535364,0.682334134955483,0.682458378336374,0.684643150403438,0.697651432382794,0.693032445768568,0.69694706798497,0.698062391258051,0.702775993985417,0.702508392857343
0.3832487784449,0.382660055963137,0.382269167172485,0.380622464516514,0.382985955908399,0.38369605461611,0.386943585448955,0.397540590120698,0.399607808835073,0.401751485014611,0.400799589573318,0.398396913730536,0.386793537673571,0.391858844740692,0.39184164181103,0.391050307046582,0.390881144904906,0.419284137495052,0.420082162287702,0.423497899543908,0.426292419895655,0.426313445698575,0.425560339666709,0.423978625856127,0.424177415265554,0.423047756217754,0.413341481015173,0.41205986275536,0.422917778526975,0.670276792699105,0.500772503866941,0.540510315667664,0.477084069722477,0.499318856310509,0.49446189583596,1.03250072394219,1.02849626420423,0.444524658182348,0.772511892243271,0.902073845555399,0.9208517989997,0.455000286628143,0.453412838507673,0.573530383435406,0.460050302202231,0.456662280777147,0.44786202653676,0.451300701032515,0.460971614657459,0.538121975599601,0.471388944286066,0.477557150288179,0.474899297655413,0.476159890112306,0.487689675859051,0.866523991409039,0.828407077869796,0.841703031061831,0.506104456343822,0.507518919449358,0.504484513800658,0.505279671438365,0.79194451273304,0.513727265620682,0.51416976320032,0.520747016641061,0.520703053598591,0.520985946219698,0.667013970373228,0.52496364584486,0.525848641004135,0.527009838756314,0.595006329681685,0.544488015292826,0.543856285486907,0.884392101017888,0.874360881588359,0.768999627437296,0.769618932905125,0.629946435543361,0.818865186217317,0.819727244137042,0.799194591867225,0.79488239083197,0.709358981736046,0.982669571021498,0.712996445641227,0.729143306565569,0.853269134104529,0.844880794457714,0.841757507005761,0.644470486769595,0.920930167901493,0.868429693728254,0.859531956219783,0.661097118287841,0.816040082879504,0.869734249227617,0.848025107712587,0.841912333372718,0.873934631220069,0.857770567366065,0.826106663886671,0.797035624194654,0.771803704972189,0.826050276506112,0.827665440457704,0.815874743611086,0.811714501787845,0.779051872669745,0.847728835035076,0.710998038645501,0.6578104030041,0.834602043984716,0.665472396731857,0.659675965154104,0.659342419462325,0.659149364362786,0.662190460039688,0.663870612836669,0.666801800907397,0.660148090001492,0.660988166399982,0.671080551801643,0.672287624032921,0.672444361836507,0.668193326773384,0.668077684857323,0.66962881568184,0.672534199358075,0.674375868550215,0.671436079014656,0.67048991788325,0.670198423797312,0.673245253784101,0.676096161516407,0.677373956902962,0.687311515937665,0.690134707838849,0.682973510507917,0.679802437140237,0.680480997143568,0.681250350386782,0.683706546455178,0.698994216614738,0.695367265611017,0.695219129272261,0.694874114960708,0.700705908116099,0.701934006150298
0.482383527776663,0.382220425538443,0.378872544282571,0.378211187208901,0.379881782822737,0.385996468599235,0.387176780717706,0.398397869448851,0.399224565790938,0.401676938986076,0.400042660668193,0.387034378688838,0.386665471419421,0.386636799869984,0.392021316854166,0.391082801469276,0.00418492802730603,0.420627877445311,0.420916504376305,0.420515102684194,0.427281588351216,0.426477829248678,0.426587736854852,0.425608125582437,0.423832400954001,0.421724086352101,0.413997103778955,0.412018766867834,0.538466034192839,0.538072278247244,0.530877630775303,0.520847367064089,0.478065592431521,0.491695091315335,0.627121332205548,1.02601139658639,1.02161509233946,0.603231241496713,1.01987568500697,0.443238261330962,0.892192673901254,0.454380981160314,0.454021631074043,0.920424592913095,0.954321054375281,0.448719305864913,0.448356132905383,0.447300064167804,1.01282248384559,0.833558399585226,0.472711658433405,0.89414042782631,0.47449980739993,0.476227746112639,0.485739054779052,0.487274894110535,0.841339858102302,0.818942599400796,0.818272640862295,0.796093285936507,0.503872854079345,0.50462978298447,0.575314709528673,0.513159568941839,0.514185054693352,0.513366004097782,0.520295917596592,0.73384735210979,0.653778227435009,0.525739689116276,0.527962689915922,0.658054111174311,0.530955999677096,0.540979573360108,0.541790978209162,0.878353872706554,0.864896403119359,0.542665460466977,0.634810086046112,0.692777268978583,0.821889078964557,0.818758145766087,0.793614152628561,0.786810393947271,0.753010460034855,0.874336988630495,0.732917438189732,0.627475903700246,0.629949302698305,0.845281240431511,0.95702764864209,0.795061110156791,0.868284424544443,0.902873781784678,0.80217547729031,0.832445943467089,0.816373628571282,0.815954068231194,0.799042632655211,0.887623384639385,0.846045815083152,0.747801795220551,0.65858740199383,0.809227722733383,0.762012370839612,0.806915840130484,0.646575934216551,0.646933372866193,0.816032437132987,0.763833014228832,0.839979870940696,0.881407392721544,0.647826013771984,0.650237291079597,0.807802746726387,0.656965548014037,0.656271696517673,0.656176124686218,0.661009192202903,0.660780775525725,0.656196194770823,0.656309925250255,0.988403880908805,0.669193963848719,0.670755607574695,0.668491510887524,0.667816773757451,0.666003776114747,0.664477493966409,0.666872524062674,0.670758474729639,0.671634868424082,0.670680105827846,0.67017070796619,0.674117824605286,0.675998678248323,0.681570516022156,0.682497562787271,0.68161543478294,0.682970643352974,0.680774402666135,0.680259270494592,0.680995173596796,0.686057613508974,0.687604921460232,0.690971917082396,0.693744455912909,0.695534516316063,0.699600142026164,0.702715783731601
0.381324917477709,0.38033192614889,0.377995194869813,0.378744478028421,0.380038520626323,0.387268529675903,0.386253556825849,0.39801558212303,0.398167541335044,0.400387674979746,0.388895162247269,0.388353269962918,0.387458717620498,0.391424948625886,0.392023228290795,0.39040328574763,0.431981811022178,0.421797676662321,0.421366647702459,0.420884965671925,0.419550782904812,0.427245271055263,0.42680372919394,0.425650177188277,0.423812330869395,0.528258006875118,0.404036607504703,0.412198441910969,0.398489618407048,0.400456486698394,0.403348490318226,0.481436410926943,0.522877312764195,0.511914267977979,0.428214369426218,0.521785882448978,0.988031150766129,0.596413147040705,0.558672786517394,0.441425263688258,0.538706875208106,0.451517649089919,0.45216467038887,0.446705607376153,0.449062408739837,0.45091745798838,0.448807231949852,0.44713950349096,0.924270403410849,0.832197456705306,0.893240141174002,0.875682640017383,0.468810416273407,0.47600124087209,0.548785880553362,0.547719298914323,0.548209582409688,0.816127053246128,0.80139847830058,0.597748285526133,0.492019079823967,0.497874765937222,0.496152561534401,0.501675657674192,0.511916179414608,0.511401047243065,0.507276166997462,0.50737651742049,0.703185041424045,0.52580563367998,0.526220415428495,0.65428666957835,0.52802959019794,0.616704958295255,0.609819963557228,0.530299421194999,0.531631692525484,0.618478771487062,0.577803400019764,0.626782052203882,0.568296869944924,0.568606522678839,0.812616699876782,0.798030526960102,0.974737109010723,0.741886854571794,0.704691253487778,0.750025751738512,0.917347179940241,0.759039131163044,0.95085370833009,0.901077031353322,0.809646327355157,0.907746989470574,0.864820901372509,0.832823452201337,0.895941001130924,0.862789999954088,0.800597586352986,0.862707808179037,0.860139793067838,0.659746688309381,0.659330950842551,0.759335403840555,0.761937824811077,0.808203192700184,0.755525910638754,0.646806262330358,0.774621162563486,0.676177397573144,0.822209244599931,0.645849588297492,0.647218176923929,0.650449460545427,1.01130289172545,0.656494378884963,0.655704955557144,0.656221043447001,0.657389886945697,0.658904700474261,0.656334773926433,0.656050925587011,0.664113365288565,0.669171982327484,0.669150956524564,0.669502660864319,0.667084693528504,0.664174531260696,0.665629134535443,0.665395939266692,0.669084056242545,0.671202883745905,0.673927636660691,0.673134390459613,0.674087241619221,0.677671185298787,0.680382558157169,0.682833019915678,0.6844042208248,0.683989439076285,0.681389885260706,0.680282207734141,0.682368540814806,0.687870611151677,0.689300365750246,0.69008023189492,0.692684564302072,0.694310241155123,0.70012005278928,0.701196191611464
0.818597585089243,0.378957603212566,0.378261840279572,0.366294335544763,0.366122306248144,0.38690248956143,0.449837496292938,0.436178370141373,0.396094588310783,0.390914595045915,0.390064961464279,0.388720265795706,0.387698602917451,0.386812652039862,0.392199080460672,0.418912363070691,0.414992962262717,0.413821251609077,0.421272031589318,0.420155752597922,0.724075132343504,0.425434184849188,0.425206723890325,0.424996465861124,0.421658141788397,0.822341133727339,0.405142373594638,0.403874135391229,0.400556837121422,0.402827623836795,0.405059226101272,0.522199708479178,0.412176460389735,0.411544730583817,0.600310566327444,0.98711366118416,0.989531628519975,0.603187278454243,0.469630422587292,0.441413795068484,0.437312807780745,0.752798290569025,0.445697324554302,0.4449681114803,0.442469863806063,0.447908856734173,0.447240809632302,0.447054444560965,0.833397838908382,0.831884936816447,0.890706531922127,0.669055384693109,0.650604286912384,0.471861069133454,0.762262769038025,0.488548866623832,0.547704963139605,0.748121005137611,0.490621819648094,0.704315656190159,0.492239850754629,0.489238895246938,0.496127712858223,0.502329369001345,0.503260238639718,0.702753056745868,0.507035325982195,0.507747336126536,0.600935606105161,0.591279028254936,0.656243024968236,0.656605242209451,0.527936885521429,0.613300689658824,0.639208301729676,0.531473043285268,0.530977981198331,0.867470152540445,0.579685209381116,0.845744763814068,0.568540578115135,0.569187599414086,0.792818994990854,0.796059835795497,0.791529730984525,0.7404160040857,0.79545773325733,0.804224537356708,0.841595034892287,0.904836827202766,0.904118127030224,0.855004718563754,0.892881746806046,0.860827910254314,0.659388293941424,0.660732033891683,0.818929219344392,0.834451996209332,0.811280605673039,0.880403888491266,0.878799237441134,0.871329343094603,0.729286664312752,0.780300996506863,0.828586752912931,0.796619886727824,0.634306422494343,0.634247167958841,0.786227405775395,0.765947063140619,0.637040732592274,0.645889728466703,0.646927638556306,0.653850862026915,0.824998986360106,0.993211144030997,0.654125153183191,0.656015564009373,0.655975423840162,0.656739042773488,0.657922222046902,0.657679469595006,0.659156054390988,0.659808809999826,0.667293995839391,0.668940698495363,0.663471122581186,0.664148726866203,0.664748917967741,0.666457742314159,0.66764665589746,0.672079277440349,0.674181857732361,0.672333498512019,0.676803393069175,0.678512217415592,0.680850860131299,0.682995492029152,0.685105718067681,0.684355479190758,0.681474944190701,0.682430662505252,0.682563507350975,0.685013969109484,0.689235376904856,0.688223271209747,0.691748916072126,0.69362499112359,0.696616389448135,0.701582301810543
0.756430020164319,0.814664804224865,0.378936577409646,0.369573405081988,0.374032786737684,0.374630110684278,0.515589960615743,0.41296492799924,0.392337659616282,0.391725999894969,0.38887031357109,0.387734920213404,0.387286688323879,0.386252601107535,0.449330009867911,0.410890063538349,0.413785890031439,0.414327782315789,0.418056039460854,0.409640939701231,0.677683609636877,0.658172620245315,0.423627877234687,0.422796402301027,0.413282226479671,0.408539952202868,0.405338295849121,0.403659098770455,0.401617684450574,0.40260589718782,0.404384488971199,0.801457732836082,0.412579773518475,0.412287323714223,0.600344972186768,1.01035673059404,0.987926021751529,0.604136306740592,0.623492469765197,0.437358682259843,0.438050622319578,0.865335077825738,0.444781746408962,0.444759764887727,0.442688723300095,0.446105416274615,0.446569895375487,0.441482606787132,0.441733004985544,0.897709080012844,0.452102548698424,0.455544090349123,0.458388308053227,0.459479738368444,0.832769931975722,0.832412493326079,0.684462519641988,0.655333181132783,0.483056353470107,0.478596016096096,0.478657182068228,0.491362501341871,0.490840679142126,0.50263902173526,0.504240805630447,0.497923507571264,0.5072063995605,0.507342111561166,0.601634236193098,0.961395281339589,0.522624047410839,0.942799870093367,0.521828889773132,0.607972560055201,0.608173260901257,0.5307658117325,0.530826977704632,0.868406756488705,0.610379058771241,0.846864865678722,0.563589001527445,0.563947395895402,0.819425237149644,0.793818676347875,0.801409946920355,0.75489513655115,0.790041677568769,0.841597902047231,0.845043266571188,0.938499137677887,0.759295263671343,0.945797958446114,0.808449768025338,0.906883975832535,0.659335729434124,0.661186000091095,0.660631683468655,0.860808795888024,0.856558716543214,0.813301949908315,0.782537377362913,0.873919339727036,0.728709410450763,0.746447542368832,0.819205421937297,0.818714182723618,0.634148728972442,0.635366314105181,0.766275830240825,0.936255111075321,0.626407410624578,0.988212737245894,0.638329040880289,0.975262754083726,0.842582291911218,0.992972214452359,0.655933372234321,0.6532325122774,0.650337641502624,0.653411231602221,0.656964592295722,0.657880170441062,0.659398806842884,0.658660036585736,0.660534200200571,0.660519864425852,0.661402948148498,0.662820278408977,0.663705273568251,0.666309605975403,0.668284120013266,0.671934008256537,0.674365355648755,0.673491829109255,0.677440857184981,0.679541526040364,0.682602691801871,0.684292401781998,0.685208935645652,0.683375867918343,0.681993899235502,0.680420786889751,0.684301958965143,0.685241430068347,0.981235993549671,0.693703360025383,0.691934325425149,0.693803710448411,0.695522091977974,0.708815178015066
0.535785244320523,0.367654322706369,0.370288282381272,0.369346899841439,0.376023547986894,0.374614819191245,0.377940718925883,0.392411249926502,0.393392772635546,0.386829854969524,0.388774741739635,0.388197487877646,0.387392773056794,0.402239857073346,0.40915352336081,0.410192389168727,0.414661328007568,0.412925743548343,0.404007935955266,0.410944539482278,0.679725023956758,0.651397533113462,0.523588367190221,0.696922219308791,0.410755307255997,0.409259608093725,0.408968114007787,0.403523386769789,0.403481335163948,0.402829535273425,0.402703380455904,0.578464757093434,0.777334446858497,0.415186017362256,0.768225495602509,0.989455171054811,0.988050265132421,0.614638695299195,0.763921896032086,0.883626570647932,0.438973846211435,0.795317242665091,0.444020994630579,0.444567665506503,0.442128672367768,0.90436087948212,0.445024498860858,0.441597292984878,0.441395636420507,0.446638707094135,0.447705288733174,0.454299745103577,0.457092354018695,0.456518923029965,0.766134383930271,0.800593763479728,0.585505533916732,0.581030860768004,0.490804361846173,0.659306102166372,0.47822710882668,0.475145872980567,0.492709108447073,0.500276486061689,0.498965240534125,0.497907260359917,0.504719620506038,0.501508406969146,0.75129590137855,1.03711684340148,0.528303881354217,0.940460271659346,0.857804017507075,0.603484506850069,0.921207326212713,0.529583588177401,0.892284422859451,0.876299078330269,0.861493090201242,0.848421730813126,0.565063674886798,0.565550135508904,0.825116539712796,0.807034349201488,0.844319787807072,0.815010774254732,0.650161789332747,0.838397201411799,0.807018101990141,0.962092955709211,0.941387318424461,0.905953106194162,0.7735908982204,0.660087879747675,0.659946433437122,0.661194601555925,0.660260864762609,0.858306725340529,0.838600769412798,0.914000254402683,0.796053145767295,0.80300695222397,0.749283158608106,0.814603638252733,0.83330513423187,0.832265312705639,0.681018110836346,0.622520504239298,0.769994530202744,0.625315980309361,0.625790972311693,0.627402313390026,0.638046148259182,0.996020955875777,0.654609702368668,0.652958221121124,0.635093934385534,0.648063987632307,0.647716106165811,0.651303872718636,0.654429071607218,0.656216264855429,0.657311518043904,0.658005369540268,0.658144904414193,0.660037226677004,0.66134464933131,0.662448503984617,0.665118780955473,0.667687751784986,0.669367904581967,0.67327870392511,0.673729802969579,0.674255448042582,0.678174848850556,0.680067171113367,0.682784278281636,0.684081188034482,0.684194918513914,0.682622761886477,0.681847674333376,0.685943883029542,0.686884309851061,0.684064940823135,0.698431298527468,0.698907246248114,0.693105080360474,0.692779180415212,0.693448183235398,0.702611610435314
0.351190163301597,0.619946754818212,0.370973532412805,0.369312493982116,0.376998380667736,0.376398189566198,0.376869358695271,0.429694777095458,0.393254193479936,0.38660239401066,0.388447886076059,0.387904082355079,0.394186018836624,0.393915550553606,0.411915549289862,0.4115896493446,0.40477728919848,0.403734600517304,0.403118162204419,0.4039773529692,0.541427805249633,0.83931086812051,0.530675974210932,0.411802774528745,0.411673752556281,0.411187291934174,0.409902806519418,0.409179327755302,0.404067190490768,0.402748299216688,0.395519245885423,0.660414735411252,0.774722468704828,0.826426829522046,0.667606515728249,1.00742267536837,0.80850042109601,0.872489585128468,0.451792895964509,0.884128322763072,0.795063977311735,0.439392450833208,0.442449793721457,0.443383530514774,0.442314081720791,0.435353585235915,0.434736191204715,0.441207359912541,0.441585824365103,0.44368936037543,0.446843230813449,0.455838451590004,0.4587017836604,0.455466677165644,0.459974800455382,0.457833035712473,0.457239534639136,0.609961409867782,0.768766432168545,0.657318208072106,0.4752662934882,0.474788434330925,0.474733958386995,0.690230279670304,0.68915222941149,0.500916817332439,0.501049662178161,0.501665144772732,0.501671834800934,0.938198086408803,0.942443387162039,0.940733607097308,0.518481964235574,0.535378108318524,0.927192990016747,0.828697616237419,0.626837483866126,0.880777574352255,0.871969674365352,0.849396563493968,0.824370123709132,0.56449502248964,0.819759738559737,0.835333168495348,0.846359290690324,0.765171975587518,0.646866472584175,0.924700476652397,0.732538018018855,0.86198815228818,0.861746355554598,0.792709087384681,0.895049315943448,0.666393709187084,0.667289217247818,0.659648249322982,0.659660673661071,0.858343042636482,0.83956700062881,0.811769933450089,0.797238236477339,0.80381548991808,0.805166875614855,0.888005671965206,0.818446581595544,0.679527190265646,0.629942612670103,0.621701453643728,0.626493425272888,0.62688240262691,0.625971603073143,0.62862945570591,0.632491513415011,0.81204518032468,1.14783681014223,0.649603649837049,0.636405179913098,0.647335730276619,0.647799253659177,0.64882473941069,0.652771856049786,0.653941655266797,0.657684248186579,0.657793200074438,0.658120055738015,0.659294633546598,0.661244298908282,0.662751466690329,0.664936238757393,0.742256717559525,0.679564463279913,1.01525956554769,0.672859143585022,0.677132160169381,0.679778544182373,0.679757518379453,0.682614160421646,0.693183449262267,0.700437351269711,0.702336363560724,0.729693800314751,0.682157327067291,0.683672140595854,0.990410889369362,0.706376184876331,0.688243341294352,0.690091700514694,0.689384468961926,0.689838435161338,0.689613841357419
0.353645403651678,0.359446613821004,0.583880812781995,0.369213099277402,0.378264707434516,0.377038520836947,0.375928931873753,0.507861066605967,0.376656233511127,0.376637119144836,0.377581368839612,0.38660239401066,0.395758175464061,0.395487707181043,0.393344031001504,0.407211503745642,0.405508413709111,0.405088853369024,0.403682991728319,0.40211465797414,0.58691617414901,0.406092357599302,0.405035333143409,0.405518926610571,0.412680123941503,0.411840047543013,0.410488661846238,0.408807553330942,0.404813606494433,0.402078340678187,0.395549828871488,0.393237946268589,0.775725017216792,0.773778219010052,0.768380321969467,0.999786486035109,0.964940996286574,0.745583573012478,0.819570506333456,0.409509050573823,0.671960768369344,0.43887827437998,0.478217551643534,0.442193661213157,0.436209908845753,0.435474005743548,0.435398503996699,0.436040746704077,0.443102549330296,0.443879548320026,0.446819337855585,0.448839726372546,0.450775055959512,0.45067374981817,0.449079611669499,0.459065912338244,0.457800541289778,0.765901188661521,0.749804980807851,0.750255124134004,0.474527523231052,0.476016532365123,0.475624687856157,0.692380645878044,0.685143946800263,0.512501079023113,0.50065877338751,0.501258964489048,0.515391171206316,0.938240138014644,0.936786490458211,0.936867726514948,0.524185691136816,0.601123882613127,0.719736171195442,0.920053774207049,0.620422702538859,0.534458707299926,0.874959161253268,0.847688694865865,0.826497552677323,0.78997477728675,0.784919027402774,0.877761327351532,0.767329987541775,0.766063660774995,0.805884620069083,0.89098846882492,0.891576235588369,0.937941953900504,0.799288252262051,0.797779173043375,0.802464104221305,0.667442132178146,0.66849915663404,0.736490868967838,0.873306724287409,0.867538964259093,0.845321380600722,0.756666082588013,0.811229952602368,0.80499771347318,0.881478115876821,0.888761645152016,0.61402225698631,0.670106674839115,0.966565717421311,0.975186296618562,0.961232809226115,0.62585978403034,0.624955674504775,0.629913941120666,0.628025441731113,1.21035990228016,0.660666089327979,1.20413817605244,1.25397888615628,0.645436717985606,0.647158922388427,0.647462840812455,0.647738087687045,0.653012697065053,0.655986892459936,0.656211486263856,0.657069721310323,0.659783005605333,0.660208300255309,0.662043279419247,0.663690937793533,0.660394665326646,0.661609383304441,1.00760426184814,0.673986891196193,0.675150956103316,0.678710051106705,0.678043915441462,0.682475581266036,0.675497881851498,0.673588356659025,0.663669911990613,0.664755607995943,0.683885265779999,0.684999633334766,0.676907566365461,0.676958219436132,0.678171025977298,0.688880805410158,0.689977970035263,0.690847673701504,0.690700493081063
0.355668659323583,0.673849267758897,0.576708146831289,0.373019725324259,0.376879871596732,0.376602713285512,0.421963971649053,0.696548533447802,0.377827944164766,0.376218514523062,0.37981105966746,0.740891951806346,0.396775059750743,0.397809146967087,0.397859800037759,0.406542500925456,0.406280634107269,0.405196849538568,0.403294970092611,0.401841322536179,0.400156391147625,0.40571389314674,0.406391497431757,0.405306757144741,0.412167858924904,0.411460627372136,0.4103548612822,0.407605259691237,0.956435103287068,0.798365028370195,0.395049032474664,0.949903724325426,0.389236353685563,0.388810103317274,0.765800838238493,0.748941967169811,0.7319301811708,0.39831376623717,0.398011759249772,0.716178031910368,0.712091380397347,0.688803392226679,0.464605255689382,0.475566389038969,0.436047436732279,0.434711342528536,0.435074515488066,0.659873798845216,0.44160207157645,0.440539312810669,0.44509426629782,0.445893246808785,0.449346257079258,0.449997101251468,0.452272666558414,0.457948677628533,0.458129308389983,0.459068779493187,0.757225177802026,0.755677869850767,0.475177411684947,0.472579769305997,0.477989134966356,0.530708468633627,0.548218183874519,0.508837810723439,0.659857551633868,0.658814862952693,0.53480181017485,0.940093275826558,0.939699519880963,0.934163043684768,0.932373938999928,0.930159539665114,0.908123542486508,0.59038734306746,0.590422704645098,0.535210857613478,0.607986895829919,0.856806247586683,0.558906937504459,0.559981164890014,0.560396902356844,0.732235055313142,0.732545663765371,0.80117579593329,0.947409299524447,0.947828859864535,0.956817390612889,0.905380630923746,0.799140115923296,0.804509341414444,0.804958529022283,0.66768010603847,0.668366311788317,0.659352932363785,0.902539280374585,0.838345592622813,0.898268175226856,0.756756875827896,0.918156673352665,0.95664536131627,0.955094230491753,0.603849591246227,0.614159880423605,0.794885257986914,0.598889413193707,0.605027036209754,0.611585175284204,0.623305148975545,0.624053476415839,0.626549812653446,0.628673418748379,1.21122004876326,1.21053193157678,1.20374633154347,0.646230919904998,0.643079916621923,0.645184408350565,0.646636144470368,1.46045227083191,0.651341145732903,1.56423372260902,0.686191414073011,0.656103490094312,0.658997405150772,0.659231556137837,0.660336366509459,0.661234741725137,0.661584534628262,0.661903744545322,0.667513811051738,0.669980520021594,0.674031809956977,0.674523049170656,0.677261182141845,0.679682016632603,0.672708140091323,0.673936238125522,0.673915212322601,0.6663487904263,0.680646336411985,0.671900558115528,0.671754333213401,0.678344966710546,0.68281868414096,0.685096160884535,0.689373956060466,0.684130885386839,0.691425883281808
0.353742886919763,0.572823151882638,0.372490257377998,0.373477514396929,0.376030238015096,0.375093634066835,0.371345306837166,0.37238990695497,0.378658463380111,0.377453302585462,0.376770919708873,0.38231217449664,0.392611950772558,0.398510644209968,0.39792096600989,0.406474644925123,0.405262794102272,0.405017174495432,0.402155753861666,0.402708159047476,0.400335110472446,0.407560340930453,0.405763590499097,0.406016855852453,0.4115896493446,0.410391178578153,0.409566393672696,0.744846714191959,0.534467308764757,0.83211430921194,0.393820934440465,0.395790669886755,0.390309625352804,0.390144286084387,0.389483884729032,0.749652065877522,0.396885923075231,0.398316633392114,0.398962698972751,0.882739664052029,0.88120478043886,0.670286349882251,0.647215309768986,0.666142355270357,0.434653043711349,0.432676618236857,0.43333032956401,0.49495122361301,0.441846735464975,0.441279038786132,0.444523702464033,0.445395317566904,0.45056670936694,0.450988181143657,0.449500127727901,0.457776648331914,0.458303249123232,0.460937208798135,0.462303885987943,0.468431951820845,0.465920324090204,0.47246699454488,0.527384480335618,0.68229781765953,0.515445647150245,0.51441347137053,0.653234423714029,0.660927000427851,0.660746369666401,0.940602673688214,0.949637078915666,0.94484797444145,0.591719614397944,0.594086928663087,0.597975746484996,0.590388298785774,0.720416642635403,0.869141703872595,0.812766747652166,0.822225491811279,0.560975111937148,0.560700820780872,0.561011429233101,0.787195548428035,0.780280926422258,0.796972546785894,0.851949287112134,0.957314364136456,0.72601046193047,0.816681369868568,0.872870916735974,0.804672769246232,0.786300996085615,0.832638998566628,0.659854684478925,0.887972221824196,0.902165594513596,0.884660657864277,0.943371389645469,0.758643463780819,0.746561272848264,0.606651757344491,0.607041690416828,0.605382563422767,0.604978294575712,0.590664501378679,0.599896740297244,0.603697632034214,0.605281257281425,1.0200285999373,0.617395942636675,0.614164659015178,0.626377783356827,1.21178392256885,0.650181859417353,0.618561918980428,0.618296229288982,0.644365357754994,0.642962363269233,0.643602694539982,0.669005687340752,0.650179947980724,1.00106714857661,0.930311498877127,0.643369499271232,0.645966185931867,0.656435124349461,0.656382559842161,0.661769943981285,0.662599507478316,0.663332543425576,0.668796385029865,0.669673734442623,0.669753059062731,0.673053154402876,0.671899602397213,0.671330950000055,0.673412504489148,0.674900557904904,0.675880169177319,0.666693804737853,0.667087560683448,0.672985298402543,0.672946113951647,0.679615116350584,0.683662583412709,0.683208617213297,0.682305463406046,0.682725023746134,0.791070030475226
0.643449779609654,0.34695537544982,0.346904722379149,0.482037557746795,0.373672480933098,0.370210869197794,0.372574360589679,0.376507141454057,0.378834315549989,0.378215965800474,0.377063369513125,0.383502043798256,0.398671204886812,0.39864540049232,0.397606534684402,0.405399461821253,0.403911408405496,0.397401055246774,0.396933708990958,0.395915868985961,0.400573084332769,0.40753453653596,0.40562787849843,0.405321092919459,0.404294651449631,0.40869382285151,0.838763241526272,0.835437341791634,0.554761031455936,0.541445008179295,0.375932754747011,0.38276996356931,0.390294333859772,0.390932753693892,0.390296245296401,0.392962699393998,0.393372702550941,0.39172408845834,0.39114874603298,0.887212425764128,0.678155734484265,0.673488006235997,0.658752741262247,0.425224882538302,0.422920645681919,0.689364398877321,0.429633611123326,0.433474643029507,0.440925423009748,0.439979261878343,0.439211820071758,0.445216598242083,0.448822523442884,0.449807869025187,0.446251641176742,0.445397229003533,0.456719623876021,0.461727587844269,0.461793532407973,0.465032461775986,0.465262789889793,0.464759126338025,0.682066533827408,0.464006976024473,0.471600158033582,0.491772504498813,0.509865207911581,0.646996450274954,0.485087254888528,0.941717996961295,0.940200316277788,0.941529720453329,0.937875053618485,0.590905342393946,0.583560647146621,0.663475901172759,0.508766131849847,0.510269476758636,0.841500418779146,0.597479728679744,0.898595030890433,0.561292410417579,0.561771225293169,0.774928903860771,0.794559358041652,0.78778235947317,0.782716096687734,0.848493409686717,0.837751135831162,0.730894182517827,0.886646640521914,0.886894171565383,0.833622432712301,0.688608425690511,0.65735261393143,0.814412494589823,0.907145842650722,0.907862631386635,0.943511880237708,0.936493084935644,0.977365334375739,0.60059728182181,0.601434491065356,0.606588679935731,0.587845132350754,0.589531975175936,0.611055707337943,0.604481321052145,0.605707507649715,0.610557778096062,0.614029902732826,1.2618157763356,1.2604299847795,0.689822187949991,1.30740353993969,0.618469214303916,0.619932419043494,0.635929232192451,0.637413462734949,0.68943990062417,0.676941972224785,0.64210699537771,0.796249068021778,1.11287663419595,0.644835571165754,0.643473672567518,0.646783325090809,0.905741892446646,0.658429708471929,0.6607922441455,0.663302916157825,0.668751466269082,0.669228369708043,0.668460927901458,0.667127700852659,0.670668637208071,0.673201290741632,0.675682335486206,0.676222316333928,0.675945158022708,0.669084056242545,0.668929229875588,0.673221360826237,0.674540252100318,0.680997085033425,0.683869974286966,0.685851178353031,0.683654937666192,0.678046782596406,0.678642195106371
0.643952487443108,0.349271080925978,0.429883053603424,0.402661328850064,0.430606532367539,0.370252920803634,0.367923835271073,0.370206090606221,0.378695736394379,0.377917781686334,0.377315679148167,0.383665471630045,0.391961106600349,0.393526573199584,0.41505030536159,0.403146833753856,0.634234743620752,0.397493759923285,0.397062730963423,0.396772192595799,0.396876365892085,0.407478149155401,0.401573721408104,0.402610675779392,0.403984042997402,0.842522081657402,1.06691614044918,0.379553015722531,0.38479417495953,0.573892600676621,0.375811378521063,0.377664516332978,0.390607809466944,0.390930842257263,0.389163719093658,0.394946770615007,0.393489300185316,0.392923514943102,0.392052855558546,0.391772830092382,0.40239181628536,0.40373364479899,0.60763423577185,1.20811396424097,0.859894173460998,0.688127699378292,0.431361549836035,0.436186015887889,0.43633319650833,0.439926697371042,0.444950908550638,0.444726314746718,0.769154453804253,0.769001538873925,0.445420166243082,0.441972890282496,0.729345918848254,0.722447544053824,0.45485692888096,0.460500445528385,0.46084163696668,0.462738737821064,0.673431618855439,0.464839406676447,0.471022904171593,0.642920311663393,0.552777915953242,0.482108280902072,0.534699548315193,0.945352593711533,0.620935923273773,0.940154441798689,0.490800538972915,0.650877622350346,0.650450416263741,0.585982437355693,0.511324589777901,0.511625641046984,0.842609052024026,0.796639001094115,0.547790977787915,0.560486739878412,0.74424843452705,0.736469843164918,0.799941963589204,0.792118453466288,0.784986883403108,0.904358012327176,0.757274875154382,0.838478437468536,0.891504556714777,0.865693472193695,0.7107877806163,0.758055697017371,0.804669902091289,0.798521766173781,0.782116861304511,0.688870292508698,0.608777274876053,0.61003882305126,0.97748957775663,0.601117192584925,0.602985621889873,0.606104130750253,0.587309930094605,0.585454880846061,0.58553229402954,0.589317894273477,0.599954083396117,0.599406456801879,0.646478450948467,1.27961125135254,0.611428437480618,0.660517952989223,0.613359944194326,0.617227736213314,0.624231240022345,1.04059565806644,0.637801484370657,0.63724143343833,1.68283836544482,0.638279343527933,1.69334170972174,0.637650480876958,0.644115915274896,0.643390525074152,0.642504574196563,0.858840971878363,0.656203840517339,0.78195916778261,0.692922538162395,0.678478767274583,0.666387974877197,0.667771854996667,0.668282208576637,0.668294632914726,0.667654301643977,0.675575295034977,0.67642015002504,0.675433848724423,0.668674053085603,0.669145222214677,0.672333498512019,0.673892275083052,0.683087240987349,0.682548215857942,0.682054109489319,0.681160512865214,0.67909329415084,0.67970017528058
0.582726305058018,0.349760408703028,0.348473056133328,0.392349128236057,0.525731087651445,0.370917145032247,0.368861394937647,0.37242335709598,0.378475921182032,0.377065280949754,0.98954118570312,0.392456168687286,0.392991370943435,0.392439921475939,0.390479743212794,0.00423056357682585,0.490020672828241,0.392121667277193,0.39648260994649,0.395367286673409,0.395732371069568,0.401022271940608,0.401631064506977,0.40094485875713,0.402156709579981,0.842920616194569,0.843276143407583,0.380955054489978,0.385462222061401,0.37580851136612,0.369118483164262,0.369774105928044,0.378897392958749,0.378066873743404,0.379891340005882,0.39530229782802,0.393432912804758,0.392193346150785,0.392420807109648,0.3926606924066,0.403947725701449,0.403881781137745,0.606793203655045,0.873881110994454,0.872111120675905,0.687626902981467,0.540687123555856,0.431981811022178,0.438038197981489,0.438955687563458,0.442271074396636,0.440403600810003,0.747852448291222,0.433015898238523,0.441616407351169,0.441511278336568,0.717181536140647,0.723022886479183,0.455993277956962,0.46130993894081,0.461836539732127,0.462796080919937,0.462310576016145,0.465561929722248,0.532045518555684,0.488415066059795,0.63931820933585,0.535728856939965,0.472725994208123,0.838656201075042,0.948215925781928,0.960697606969967,0.614492470397069,0.650349110122399,0.486085980527234,0.651448186184133,0.593438951645821,0.511369508538685,0.870525583992065,0.793166876457351,0.736206064910102,0.588301965705109,0.713663537024784,0.753398481670563,0.804948971839138,0.653038501459546,0.802514757291976,0.933523668132333,0.911341446051601,0.827957890261957,0.864218798834342,0.769048369071338,0.828831416801456,0.882667985178437,0.873972859952651,0.792584844003789,0.795599179567884,0.692461881934781,0.951123220894793,0.611035637253337,0.60163901478467,0.60058485748372,0.603620218850735,0.603863927020945,0.578446598445457,0.586456473639711,0.586420156343758,0.589394351738641,0.586671510260485,0.582287630351639,0.642582943098356,0.606634554414829,0.764190452878474,0.660482591411585,0.652973512614156,0.623942613091351,0.62836281029615,0.628542485339285,0.632048060117059,0.632157012004918,0.997234718135257,0.862913287616665,0.832446899185403,0.637013972479467,0.637153507353391,0.640829199991155,0.64392763876693,0.646443089370829,0.648774086340019,0.649938151247142,0.651755927481418,0.69120797950609,0.666207344115746,0.667991670209013,0.668349108858656,0.66697669735896,0.669138532186475,0.675160513286462,0.674844170524345,0.688435440675577,0.665588994366232,0.668537385366622,0.662481954125626,0.66288813440931,0.672506483526953,0.675029579877368,0.682438308251769,0.681988164925615,0.679892274661804,0.680948343399383
0.484448835054408,0.465650811525501,0.349029284192396,0.441461580984211,0.352309309447936,0.369085988741567,0.363764549166146,0.372983408028306,0.371031831229993,0.365944542641637,0.368276495329142,0.412915230646883,0.393221699057242,0.392729504125248,0.386637755588299,0.387053493055129,0.387836226354746,0.386638711306613,0.395143648587804,0.394596021993566,0.396191115860552,0.401786846592249,0.401718034873602,0.40103947487027,0.400213734246498,0.843827592875078,0.375451072716478,0.380971301701325,0.379985000400708,0.369287645305937,0.370001566886907,0.3697186742658,0.378104146757672,0.38001271623183,0.380940718715259,0.39715447992162,0.396141418508196,0.394730778275918,0.391889427726757,0.399257060213632,0.404710388916461,0.405036288861723,0.403858843898196,0.875323289931112,0.487117200588635,0.957084991740963,0.538392443882619,0.433694458241854,0.796655248305463,0.774997715579419,0.435301020728615,0.755357704215393,0.751777583409084,0.434119752891829,0.749091059226881,0.441438643744662,0.442194616931472,0.716105397318462,0.455545046067437,0.4612239242925,0.46061704316276,0.461190474151491,0.664016837738795,0.455364415305987,0.549884000896782,0.482639660284962,0.48679703495326,0.882020008161172,0.536240166238249,0.819770251461197,0.963870591774276,0.94746855405995,0.613789061717559,0.484658137365294,0.485811689370958,0.745710683548313,0.594968100949103,0.595833981742087,0.600966189091226,0.536371099647343,0.546019076032737,0.726506479735722,0.693239836642826,0.909563809986536,0.808683919012404,0.649974468543095,0.649691575921988,0.862330299444789,0.887356739229625,0.698801161515199,0.785522085659256,0.784997396304568,0.781187903102767,0.817644733929635,0.801706219597865,0.801607780611467,0.792231228227405,0.687427157853726,1.01117864834456,0.610429711841912,1.06332263958647,0.599507762943221,0.601790018278369,0.60360875023096,0.578968420645202,0.584737136391833,0.569726624543493,0.589169757934721,0.583509038357635,0.582143316886141,0.583553001400104,0.782721830997621,0.593512541956042,0.594340194016443,0.653451371771432,0.624752106503776,0.62431629895234,0.627752106293152,0.633206390714295,0.630470169179735,0.62943799340002,0.627880172547301,0.622588360239632,0.622318847674928,0.628598872719844,0.636287626560408,0.639893551761209,0.646681063231152,0.64945264634335,0.650633914180135,0.651662267086592,0.90674444095861,0.666822826710317,0.666282845862596,0.666917442823458,0.660572428933153,0.666791288005937,0.669665132977793,0.664723113573248,0.665188548392435,0.663105082466713,0.666315340285291,0.663974786132955,0.664239520106086,0.673274881051852,0.675421424386334,0.681921264643596,0.682005367855277,0.681009509371515,0.682012057883479
0.472560654939706,0.348995834051387,0.382410613483039,0.346930526773642,0.349593157997982,0.355407748223711,0.364253876943196,0.362541229723521,0.560863292894345,0.367506186367614,0.366734921687771,0.412785252956104,0.391309306709825,0.39189420631833,0.388006344214736,0.386459991981792,0.386025140148672,0.388483247653697,0.393378436860828,0.393018131056242,0.878650145384064,0.401484839604851,0.400778563770398,0.401168496842735,0.733167836388144,0.376971620554928,0.37657499745439,0.375570537505796,0.727338910387696,0.368405517301606,0.369175826263135,0.370303573874305,0.37732045773974,0.37946031104602,0.390867764848502,0.390580093635822,0.4008903828132,0.401121666645322,0.402139506650319,0.402557155553777,0.401056677799932,0.396072606789548,0.395999972197642,0.38074766361572,0.379487071158827,0.516179638815821,0.620497248567394,0.435845780167909,0.797376815632949,0.775351331355803,0.438702422210102,0.42815607060903,0.74269443654759,0.424868399606974,0.42831567556756,0.431605258006245,0.722373953743603,0.716728525659549,0.450225517928645,0.458374927996823,0.458468588391649,0.459305797635196,0.454617999302322,0.455782064209446,0.456082159760215,0.456273303423125,0.932192352520164,0.924092639804343,0.850393377696045,0.842630077826946,0.834214022349009,0.814290162645561,0.814938139662826,0.485330007340424,0.486118474949929,0.48695663991179,0.888016184866666,0.515843225969099,0.522499804029947,0.548154150747444,0.545337648874462,0.991729780643442,0.913288244258342,0.832783312032125,0.871178339600903,0.649616074175138,0.844082769665064,0.894740618927848,0.79275305042715,0.803618611945282,0.682388610899412,0.785508705602852,0.831101247798515,0.819456775854024,0.803221988844744,0.713035630092124,0.7094019890602,0.702814222717999,1.01668358583637,0.593935925169388,0.591055390169331,0.589548222387284,0.593637741055248,0.598481321473393,0.580097123974687,0.572259278077053,0.569398813161602,0.58460429154611,0.583896104275028,0.583999321853,0.585891644115811,0.586888458317888,0.594187279086115,0.595409642810426,1.48052235543749,0.620928277527256,0.624470169600983,0.627177719586106,0.628941019876453,0.700574018988691,0.650343375812512,0.660948026230771,0.623034680692527,0.62307099798848,0.634326492578949,0.632087244567956,0.639026715249912,0.646468893765321,0.649380011751444,0.650437991925652,0.650401674629699,0.646941974331024,0.777145214632215,0.647490556643576,0.749935914216944,0.661286350514123,0.666373639102478,0.663411868045684,0.665115913800529,0.665971281692052,0.663212122917943,0.663775996723528,0.66380371255465,0.662575614520452,0.673273925333538,0.675893549233722,0.678187273188645,0.679747005477993,0.680030853817414,0.680713236694004
0.481487063997614,0.44889515803479,0.454494711639745,0.349398191461813,0.349556840702029,0.34975658582977,0.362728550513173,0.362858528203952,0.357000930654068,0.36750331921267,0.366325874249143,0.690296224234008,0.392104464347531,0.389049032895911,0.388319819821909,0.38634817293899,0.385806280654639,0.386577545334482,0.382826350949869,0.38497480572098,0.387103190407485,0.399167222692065,0.398990414803872,0.398662603421982,1.05968135280803,0.838750817188183,0.376108606916889,1.06310282437412,0.728381599068872,0.369501726208397,0.369226479333806,0.370832086102252,0.610521460800109,0.389949319548219,0.391944859389001,0.391614180852167,0.40229528873559,0.4026374358922,0.40395632716628,0.40440360333749,0.402101277917737,0.399258015931947,0.396197805888754,0.38211051793227,0.381297201646587,0.512325226853236,0.674694122748961,0.804337312117825,0.436186015887889,0.436105735549467,0.762175798671401,0.756964266702153,0.422333834636784,0.42234339181993,0.431506819019847,0.432203537671154,0.433318860944235,0.446654954305482,0.452825071744225,0.453135680196454,0.455431315588006,0.455266932037903,0.455367282460931,0.456044886745947,0.457928607543928,0.456215960324252,0.457942943318646,0.458053806643134,0.453597292142382,0.45253644481323,0.46880468196352,0.469987861236934,0.795914566611685,0.483726312008607,0.485982762949262,0.487833989324548,0.784818676979747,0.517386711047099,0.518425576855016,0.536944530636074,0.548224873902721,0.77602702420419,0.927800826864801,0.733266275374543,0.818545976300257,0.835284426861306,0.834281878349342,0.894422364729102,0.88381293571927,0.837729154309928,0.604567335700455,0.916707804387806,0.887792546781061,0.854323291405479,0.806421733761861,0.670329357206406,0.701019383723272,0.592926686629222,0.596243984899029,0.593593778012779,0.588326814381287,0.589902793881982,0.590151280643765,0.587142679389558,0.596011745348593,0.573795117408537,0.57076549035141,0.582409006577587,0.583466986751795,0.583605565907405,0.585614485804591,0.587295594319887,0.593387342856836,0.59699804664921,0.597620219271983,0.617484824439928,1.27644782373138,0.627194922515768,0.598226144683408,0.705780772366366,0.607063671938063,0.676366629799425,0.623200019960944,0.623846085541581,0.892612234241342,0.632744778768367,0.642516042816338,0.64067055075094,0.8758479792858,0.648925089833718,0.631657171326408,0.633231239390473,0.643829199780531,0.645199699843597,0.994893208264607,0.658317889429127,0.701718013811209,0.663626904666458,0.665870931269024,0.66592254005801,0.66293018601515,0.662895780155827,0.652056978750502,0.652763254584955,0.730159235133937,0.734633908282665,0.675656531091714,0.678781729980296,0.678075454145843,0.678819958712878
0.474101272862762,0.561623088954413,0.448705925808509,0.350960790906104,0.350898669215658,0.350958879469475,0.409532943531686,0.357009532118899,0.355987869240643,0.366266619713641,0.461455208124621,0.379696373469714,0.389546006419478,0.388442151766171,0.37859729740798,0.386725681673238,0.385899941049465,0.385743203245879,0.380679807615387,0.385055086059402,0.388318864103594,0.397401055246774,0.398458079702668,0.689389247553499,0.614140766057314,0.370188887676559,0.369244637981782,0.369814246097255,0.374113067076106,0.369840050491748,0.368930206656295,0.378411888054957,0.38509235907367,0.389511600560154,0.392114021530677,0.391826350317997,0.401995193184821,0.403003476006673,0.40498945866431,0.404690318831856,0.40291459420342,0.397402010965089,0.395959832028431,0.38218601967912,0.381765503620717,0.818757190047773,0.808559675631512,0.801640275034161,0.791351011659704,0.779272643600406,0.761807847120298,0.753775034686496,0.423409017740655,0.423433866416833,0.424257695603976,0.427006341476625,0.434357726752153,0.436572126086968,0.451857884809899,0.453279037943636,0.449722810095191,0.451488021822168,0.456564797509063,0.45781774421944,0.45701971942679,0.457889423093031,0.458257374644133,0.458128352671669,0.454406785554807,0.453531347578678,0.46949566630494,0.470851830593288,0.475639023630875,0.538764218306979,0.594318212495209,0.488484833496757,0.921395602720679,0.516003786645943,0.5240270418966,0.981608723692346,0.795821861935174,0.958222296535279,0.00423624054361429,0.887764830949939,0.84203657675361,0.901306403748814,0.83296489851189,0.653315659770766,0.681375549485988,0.836018418526881,0.855399430227664,0.871509018137738,0.916539597964445,0.73576261161215,0.944710351004155,0.634456470269728,0.581948350349973,0.583681067654254,0.589392440302012,0.591089796028655,0.588603016974192,0.587847999505697,0.590824106337209,0.596350069631944,0.586665775950597,0.574322673918169,0.571554913679229,0.574476544566812,0.577615123511798,0.618242709063368,0.63724143343833,0.587656855842787,0.586716429021269,0.59750840022918,0.597681385244114,0.596589954928897,0.593754338689623,1.07621527964976,0.624474948192556,0.659218176081434,0.657244617761886,0.640703045173634,0.620439905468521,0.622976381875339,0.901588340651607,0.897060147277263,0.637898967638741,0.642878260057553,0.637204160424062,0.630045830248074,0.632729487275334,0.633053475783967,0.640749875371047,0.641450416895613,0.857520169167653,0.655736494261524,0.697758472834024,0.663393709397708,0.665668318986339,0.666059207776991,0.662086286743402,0.662509669956748,0.652344649963182,0.653717061462877,0.660477812820012,0.723331583494783,0.784894178726596,0.676898009182316,0.67819874180842,0.678692848177043
0.459958553244034,0.458045205178303,0.432899300604147,0.350535496256129,0.348149067624695,0.352527213223654,0.39549344149093,0.358209914321975,0.357196852908551,0.371519247570414,0.441663237548582,0.377147472724806,0.383167542388164,0.38264380875179,0.379264388791537,0.379620871722864,0.381267574378836,0.381078342152555,0.381798953761726,0.385440240540166,0.70606079783253,0.397140144146901,0.396863941553996,0.697244296380795,0.376624694806746,0.37115511889257,0.369572449363673,0.369637438209063,0.375409021110637,0.378244637349911,0.377783025403982,0.378404242308441,0.386211505220009,0.386428453277412,0.391826350317997,0.391309306709825,0.401735237803263,0.403434504966535,0.404425584858725,0.40531918148283,0.404676938775452,0.401586145746194,0.397772829671134,0.38202641472059,0.388967796839175,0.390587739382339,0.392783980069177,0.801492138695406,0.791827915098665,0.79247780355256,0.759696665363455,0.421935300099617,0.423191113964937,0.423457759374697,0.73211081193225,0.427191750829648,0.436741288228643,0.694644742565216,0.452077700022246,0.449780153194065,0.45099295973523,0.450064957251801,0.455543134630808,0.457001560778813,0.457098088328583,0.458117839770209,0.458093946812345,0.458086301065829,0.4539203249327,0.454738419809956,0.46928349683911,0.469683942812907,0.525675655989201,0.478576901729805,0.833282196992321,0.593903430746693,0.588223596803316,0.586263418540171,1.04277469582362,0.937191715023581,0.909259891562509,0.942107930033632,0.892410577676972,0.887869004246225,0.570132804827177,0.882338262359917,0.620286034819878,0.647953124307819,0.618022893851021,0.746578475777926,0.841576876244311,0.67742174281869,0.676715466984236,0.940841603266852,0.945245553260303,0.94448671291855,0.581788745391443,0.58302926776373,0.591939429610291,0.592355167077121,0.59004519591085,0.588006648745913,0.826760375213824,0.577643795061234,0.579331593604732,0.571523374974849,0.571201297902845,0.567686165941926,0.577601743455394,0.600245577482055,0.60454535417922,0.58753356818021,0.587685527392223,0.597288585016833,0.597727259723213,0.594943252272925,0.593872847760628,0.593781098802431,0.623069086551851,0.660472078510125,0.658839711628872,0.602414102337771,0.603645067526913,0.910050270608643,0.903850525902149,0.641241114584727,0.645761662212553,0.642301006195564,0.627984345843588,0.630993902816109,0.632735221585221,0.634840669032178,0.638938789164973,0.640162108607598,0.641337642134496,0.651317252775039,0.673383832939711,0.664207981401705,0.665202884167153,0.664876984221891,0.665396894985007,0.660465388481923,0.653624356786366,0.654126108901505,0.660134709945088,0.660552358848547,1.34259308828146,0.685848311198087,0.673028305726698,0.676308330982238
0.310315046706558,0.403381940459235,0.54211592243611,0.350471463129054,0.351155757442273,0.349770921604488,0.361671526057279,0.359557477145492,0.35892288018463,0.370507141875304,0.376723133793145,0.378845784169763,0.383094907796258,0.383236354106811,0.381956647283627,0.381317271731193,0.381668976070947,0.382213735510242,0.383131225092211,0.385307395694444,0.565501393874862,0.397530077219238,0.397097136822747,0.604164022571715,0.377164675654468,0.370560662100919,0.368702745697432,0.367592201015923,0.375045848151108,0.378318227660131,0.378110836785873,0.378751168056623,0.381987230269693,0.387936576777774,0.389730460054186,0.395632976364854,0.882173878809814,0.402236034200088,0.403965884349426,0.405976715683242,0.405995830049532,0.405600162667308,0.396042023803482,0.395204814559935,0.391563527781496,0.392265025024376,0.393387994043974,0.393185381761289,0.42666515003833,0.79291265538568,0.752977009893846,0.416896753145303,0.419823162624459,0.4142627934704,0.735052512904439,0.423954732898263,0.432736828490674,0.683866151413708,0.683730439413042,0.449254508121061,0.451277763792966,0.450563842211997,0.44908821313433,0.454781427134111,0.455521153109573,0.457682987937088,0.457578814640802,0.452543134841432,0.452905352082647,0.454861707472533,0.528766449018459,0.509143640584095,0.501559060039817,0.731362484491957,1.00769983367959,0.833863273727568,0.587870936745246,0.667983068744182,0.00438780791111895,0.943549153251975,0.853158270780041,0.897139471897371,0.666516041131346,0.840606822155041,0.565852142496302,0.725892908577781,0.620692215103562,0.608275522760914,0.720813265735941,0.758728522710815,0.756225496445005,0.678190140343589,1.01679827203412,0.575210536232387,0.577995499400989,0.580040736594129,0.582292408943211,0.583504259766062,0.590390210222403,0.59100473709866,0.58995057979771,0.587014613135409,1.04033761412151,1.25612925236402,0.576965235057903,0.568580718284346,0.568142043577967,0.56669795320468,0.588109866323884,0.575401679895298,0.601006329260438,0.578624362051964,0.586465075104542,0.594593459369799,0.596768674253718,0.593459977448742,0.593362494180657,0.592941978122255,0.592350388485548,0.59535803402144,0.643399126538983,0.604176446909804,0.604137262458907,0.610765168970319,0.615102218681753,0.616341785335725,0.858326795425134,0.637135348705415,0.628086607703244,0.629358668779912,0.634739362890835,0.636279025095577,0.639417604040563,0.642544714365774,0.656514448969569,0.660455831298777,0.82443702399115,0.657454875791087,0.659925407634202,0.657229326268853,0.658315977992498,0.654282846705092,0.655648568176585,0.655940062262523,0.648497883747113,1.02377501573034,0.677894823384393,0.677905336285853,0.67017070796619,0.66932872013107
0.310051268451742,0.590718977322609,0.426692865869452,0.349977356760431,0.349902810731896,0.349001568361274,0.359108289537653,0.359152252580122,0.358282548913881,0.455628193560803,0.446112106302817,0.379314086143893,0.38323826554344,0.383512556699717,0.382496628131349,0.382118163678786,0.381722496296562,0.381639348803196,0.384423356253484,0.383723770447232,0.396144285663139,0.395878595971694,0.395134091404659,0.71389577657522,0.37749057559973,0.365830812162206,0.367453621860314,0.366435781855317,0.373973532202182,0.37872536366213,0.378784618197632,0.37932173189041,0.381268530097151,0.389618641011384,0.389072925853775,0.395420806899024,0.400171682640658,0.40292510710488,0.402234122763459,0.405173912299019,0.407670248536626,0.406666744306347,0.398320456265372,0.395857570168774,0.393754034158447,0.392061457023377,0.39518474447533,0.394857888811753,0.428642531231137,0.432444378686421,0.417798951234239,0.418519562843411,0.418118161151299,0.415515740180777,0.41439085972455,0.424858842423829,0.425263111270884,0.683787782511915,0.682596957491984,0.678336365245715,0.449892927955182,0.449438006037455,0.44839531735628,0.449660688404746,0.511542493553618,0.641744778136495,0.638317572260515,0.451411564357003,0.630741593181068,0.755573696554481,0.521653037603255,0.509131216246006,0.509350075740038,0.504798945126145,1.00815857847058,0.986941631887541,0.984896394694402,0.667805305137676,0.936162406398809,0.766179302691055,0.551254500959848,0.898258618043711,0.897617331054647,0.791089144841517,0.566719934725915,0.56695408571298,0.792250342593696,0.688921901297684,0.719902466182174,0.704896732925406,0.755315652609552,0.796132470387403,0.764856588543717,0.576905024804086,0.578000277992562,0.579199704477324,0.582042966463113,0.582536117113422,0.587511586658975,0.577895148977961,1.09557813270257,1.08867784647151,0.574272020847498,0.574263419382667,0.575094894316327,0.562803401072884,0.565640928748787,0.564612575842329,0.564454882320429,0.554149371734624,0.576338283843558,0.579906936030092,0.57926182616777,1.56498874007752,0.591985304089389,0.59493178365315,0.59386711345074,0.592893236488213,0.592777594572152,0.593718977111985,0.6565756149417,0.60264060757832,0.603409005103219,0.913501369442487,0.616030221165182,0.616411552772688,0.752663534286673,0.628154463703578,0.628796706410956,0.629541210977991,0.632459974710631,0.637027352535871,0.638041369667609,0.640710690920151,0.649692531640302,0.662843215648526,0.657704318271185,0.657853410328255,0.659323305096034,0.65931183647626,0.659390205378053,0.654903107891235,0.656203840517339,0.656150320291725,0.649572111132669,0.650665452884515,0.65105060736528,0.66099390070987,0.670046464585298,0.669523686667239
0.500977027586255,0.350259293663224,0.430530074902375,0.349992648253464,0.347442791790241,0.347192393591829,0.358820618324973,0.359637757483914,0.358973533255301,0.357370793641799,0.604816778180553,0.379006344846608,0.382275857200687,0.381834315339365,0.382282547228889,0.38166324176106,0.383802139349026,0.388802457570757,0.385296882792984,0.384120393547771,0.395996149324384,0.39547241568801,0.651627861227268,0.491955046696892,0.808653336026338,0.3652459125537,0.364284459929262,0.368762955951249,0.370601757988445,0.377071970977956,0.378789396789205,0.378912684451782,0.380557475671124,0.3840171759698,0.431628195245794,0.396618321947157,0.401717079155287,0.40178493515562,0.402036289072347,0.403155435218687,0.407530713662702,0.407177097886318,0.399479742580923,0.396193983015496,0.393663240918564,0.391569262091383,0.39269414254761,0.42864539838608,0.673437353165326,0.411370789850568,0.411583915034713,0.418532942899815,0.418210865827811,0.416502997199708,0.425353904510766,0.425784933470629,0.425767730540967,0.683250668819137,0.535551093333458,0.680889088863881,0.491776327372071,0.434173273117444,0.440235394386642,0.4423475318618,0.646683930386095,0.441759765098351,0.44531886010174,0.865638996249765,0.864140429932549,0.757044547040575,0.46087317567106,0.49931694487388,0.643081828058552,0.515918727715948,0.517967787782346,1.03901872284743,0.499479416987354,0.50394740010788,0.936867726514948,0.53864475351766,0.571327452720366,0.834757826069988,0.786896408595581,0.883116217067962,0.56581391376372,0.798595356484001,0.636965230845425,0.828790320913931,0.719430341334786,0.718447862907427,0.631391481634962,0.566848000980065,0.560753385288172,0.561608753179695,0.725106352404905,0.607205118248616,1.20129969265822,0.861015231043966,0.578308975008162,0.579822832818411,0.583748923654587,1.09553034678684,0.57656765623905,0.574450740172319,0.576810408690946,0.564889734153549,0.566882406839388,0.56504742767545,0.556799578620874,0.554459980186853,0.61016688930541,0.577810090047966,0.580298780539058,0.583323629004612,0.593648253956708,0.594680429736423,0.59504933700584,0.593627228153788,0.592439270288801,0.591883997948047,0.59064156413913,0.647283165769319,0.597307699383124,0.76864983453417,0.616054114123045,0.617094891367592,0.6142449393536,0.627503619531368,0.628716426072534,0.629526875203273,0.632735221585221,0.635866154783691,0.678797021473329,0.63794484211784,0.641244937457985,0.659682655182306,0.656094888629481,0.658279660696545,0.658714512529665,0.659046146784815,0.659237290447725,0.655991671051509,0.656463795898897,0.656821234548539,0.651433850409415,0.652555863710698,0.652075137398478,0.66066417789135,0.669717697485093,0.669840029429355
0.411337339709559,0.5450643134365,0.349282549545752,0.342738746246021,0.343266302755653,0.354124218527269,0.366190162248477,0.359885288527383,0.359673119061553,0.358547282887011,0.356949321865082,0.377026096498858,0.382093315002608,0.383381623290623,0.380648268911007,0.381841005367567,0.388361871427749,0.387794174748906,0.385423037610504,0.384436736309888,0.398359640716269,0.393737786947099,0.572746694417475,0.570821877731968,0.471664191160657,0.364760407649908,0.36357436122155,0.863183755899683,0.372236992024642,0.371045211286397,0.378308670476986,0.37629783914317,0.381570537084549,0.382401056299894,0.656692212576075,0.977155076346537,0.401631064506977,0.40293562000634,0.402472096623782,0.40260398575119,0.407737148818645,0.407677894283142,0.400585508670858,0.397624693332379,0.395934027633938,0.392486751673352,0.393362189649481,0.778643780949432,0.46583335372358,0.412228069178721,0.409945813843572,0.416354860860952,0.418132496926018,0.41869159214003,0.423020996104947,0.425700830258948,0.428222015172734,0.431699874119386,0.423742563432433,0.423693821798391,0.494661640963701,0.4356087620259,0.441661326111952,0.442399140650786,0.44274224352571,0.443275534345229,0.442204174114618,0.440476235401909,0.436072285408457,0.687020021851727,1.05311556798706,0.489209267979187,0.489993912715433,1.0100317863671,1.07323343850837,0.499384800874213,0.500785883923345,0.501216912883208,0.937984005506344,0.571747013060454,0.910305447398628,0.669820915063064,0.787876019867996,0.786660346171887,0.5810174807116,0.631323625634629,0.629931144050328,0.829822496693646,0.775003449889306,0.83430672702552,0.629523052330015,0.567460616419692,0.561742553743732,0.561344019206565,0.656686478266188,0.583843539767728,1.24577882301743,0.57099868562016,0.571430670298337,0.579379379520459,0.578573708981293,0.584192376952539,0.953891936852048,0.58394484590907,0.587464756461562,0.565042649083878,0.565414423508238,0.563630097414971,0.558343063698874,0.560541215822342,0.568650485721308,0.574923820738022,0.577054116861156,0.578762941207574,0.579190147294178,0.585203526929334,0.593221047870104,0.59280244324833,0.592173580597356,0.593342424096052,0.591975746906244,0.590125476249273,0.871679135997728,0.601613210390178,0.615389889894432,0.616454560096842,0.616004416770689,0.616722161224917,0.626983708768252,0.626593775695916,0.624770265151752,0.63289864941701,0.802021606641667,0.639669913675604,0.641125472668666,0.648033404646242,0.654264688057115,0.65524429932953,0.65338160433447,0.65416911622566,0.655651435331529,0.65213630337061,0.654787465975175,0.656039456967237,0.652194602187797,0.652400081625426,0.672920309557154,0.662969370466047,0.666980520232218,0.672402310230667
0.380022273414976,0.54108279093808,0.334915236123105,0.342354547483571,0.343224251149813,0.348262798104126,0.352383855476471,0.358802459676996,0.361072290674055,0.359536451342572,0.365860439429957,0.615711966966436,0.37659602325731,0.382634251568644,0.381912684241158,0.38215256953811,0.389311855432413,0.38848802624527,0.384942311298285,0.383702744644312,0.884218160284639,0.51149661907452,0.48468872035136,0.561911715885408,0.662927318860207,0.363283822853927,0.362588059920934,0.469806274757169,0.575440864346194,0.370003478323536,0.377642534811743,0.377589970304443,0.377440878247373,0.385391498906124,0.75314999490878,0.745235691545981,0.732164332157865,0.402364100454238,0.40203055476246,0.706553948482838,0.753241743866977,0.408371745779507,0.402841003893199,0.398764865281638,0.398682673506587,0.400583597234229,0.395607171970361,0.90763899330103,0.406942946899253,0.408973848317674,0.409293058234734,0.409380984319673,0.416533580185774,0.417251324640001,0.421899938521978,0.422313764552179,0.41600793511277,0.508087571846516,0.424699237465299,0.424682034535637,0.707395936317958,0.435901211830153,0.442217554171021,0.442813922399301,0.442281587298096,0.443906308432833,0.428482926272607,0.42864539838608,0.695616708091115,0.745619890308431,1.05567689307006,0.858337308326594,0.492253230811032,1.07410314217461,1.03294991155003,0.501130898234898,0.501874447083619,0.501062086516251,0.500545998626393,0.49987126149632,0.910803376640509,0.892795732157736,0.787120046681186,0.685946750184486,0.792554261017724,0.798412814285922,0.694354204197592,0.823879840213767,0.777322022520407,0.77019331961217,0.669992944359683,0.694264366676025,0.559257686125899,0.560965554754002,0.676386699884031,0.584952173012607,0.583862654134019,0.572155104780767,0.572321399767499,0.573819966084715,0.573737774309664,0.584166572558046,0.584695084785993,0.76716942686493,0.914414080432883,0.567370778898124,0.56330228603308,0.554058578494741,0.55715797298883,0.561978616167427,0.567599195575302,0.569482916373282,0.576478774435797,0.579419519689671,0.579834301438186,0.584430350812862,0.589504259344814,0.587556505419759,0.593655899703225,0.592349432767233,0.591740640200864,0.589984985657034,0.585144272393832,0.585741596340426,0.613876032084183,0.604828246800328,0.616110501503604,0.809301313043603,0.612458701823704,0.61800377948473,0.626546945498502,0.630549493799843,0.636114641545474,1.00950614129409,0.644594730150487,0.649388613216275,0.649423974793913,0.648263732760048,0.649887498176471,0.654994856849432,0.655951530882298,0.652685841401477,0.656006006826227,0.655300686710089,0.652214672272403,0.651330632831443,1.09941056314392,0.665609064450837,0.670491829319879,0.672585808147061
0.390051581407876,0.333890706089906,0.334298797810219,0.335951234776078,0.343701154588774,0.502657180383236,0.352208003306594,0.787225175695786,0.360042026330969,0.365819343542431,0.365567989625704,0.363748301954799,0.37755365300849,0.381006663278963,0.381798953761726,0.383080572021539,0.388655276950316,0.388648586922115,0.384873499579637,0.885776936855672,0.884245876115761,0.60162850188321,0.573089797292398,0.680694122327713,0.574045515606949,0.661575933163432,0.481435455208628,0.477737781049629,0.369298158207397,0.550626594027188,0.376871270131901,0.37750108850119,0.376443108326982,0.498414746784944,0.383800227912396,0.748287300124343,0.392607172180985,0.400320774697728,0.400773785178825,0.696239836432202,0.822698572376982,0.407028961547562,0.404824119395893,0.40017646123223,0.400108605231897,0.401304208843401,0.397416346739807,0.73867946390816,0.408948043923181,0.408980538345876,0.410006024097389,0.410122621731764,0.886203187223962,0.519081199618798,0.707130246626512,1.00754691874926,0.415021633812154,0.416107329817484,0.424553968281487,0.423988183039273,0.706934324372029,0.435006659487733,0.441672794731727,0.442163078227092,0.436382893860687,0.429144283346276,0.429117523233469,0.429599205264002,0.600996772077292,0.907922841640452,1.05776991617893,1.17267592913741,1.08126147235059,1.15949657357975,1.07096838610288,0.500561290119426,0.501469222518249,0.501096492375574,0.500703692148294,0.498899295970421,0.49981678555239,0.834648874182129,0.889825359636111,0.610434490433485,0.788346233278755,0.753465381952581,0.797137886054311,0.775106667467278,0.778403895652479,0.548915858244141,0.703191731452247,0.693512216362473,0.657856277483198,0.559707829452053,1.12470842693009,0.617655898018233,0.583832071147953,0.572006012723697,0.572688395600287,0.564603974377499,0.565510951058008,0.584027993402436,0.95266192738122,0.573467306026646,0.573630733858434,0.571100947479817,0.551882407892508,0.555495023121511,0.555459661543873,0.561867752842939,0.566930192755116,0.57045679333581,0.57694994356487,0.579063992476658,0.576703368239716,0.57794102345706,0.587386387559769,0.587691261702111,0.590518276476553,0.590904386675632,0.583574982921339,0.580200341552659,0.580731720935549,0.586996454487432,0.602309929041485,0.605639651649381,0.605842263932066,0.610186959390016,0.612121333258667,0.614365359861234,0.617307060833422,1.51795784181845,0.631560643776638,1.52201008747215,0.644191417021746,0.645511264014141,0.64762149005267,0.646172621087811,0.647771537828055,0.656301323785424,0.656645382378662,0.65711750722605,0.654392754311265,0.649530059526829,0.649519546625369,0.651600145396147,0.874347501531955,0.657994856638808,0.665283164505575,0.669115594946926
0.475040743965966,0.334609406262449,0.335571814605202,0.334962066320518,0.339984366063484,0.34213377655291,0.488600475412818,0.787891311361029,0.351632660881234,0.365351041568301,0.363675667362893,0.362365377553643,0.376943904723806,0.380253557247097,0.381233168519512,0.378043936503855,0.388496627710101,0.387603031085995,0.385725044597903,0.614441817326398,0.597600149187377,0.597684252399058,0.342980542979602,0.615317255302526,0.575160838880031,0.568766127637369,0.810624027190942,0.588374600297015,0.698506800274317,0.363113704993937,0.55147336045388,0.375334475082102,0.379212780002551,0.52598626444143,0.386131224881587,0.392590924969638,0.392712301195586,0.391975442375067,0.0040153071408395,0.69598752679716,0.647765803518167,0.405081207622507,0.401207681293631,0.399323960495651,0.399275218861609,0.401989458874934,0.398923514521854,0.39870847790108,0.405402328976196,0.408278085384681,0.409135364712833,0.409503316263935,0.702470164124761,0.700962040624399,0.887866137091281,0.751112403462156,0.416021315169174,0.415440238433927,0.407203857999125,0.641525918642463,0.702263728968818,0.696000906853564,0.435720581068702,0.437054763835816,0.43704520665267,0.435397548278384,0.430026411350607,0.429885920758368,0.603614484540848,0.786356427747859,0.448100956115398,0.894726283153129,0.574540577693887,0.484731727675515,0.495327776628944,0.498805635575595,0.501022902065354,0.500865208543453,0.493523380451071,0.497986584980025,0.500107323920014,0.625268194393633,0.670680105827846,0.873931764065125,0.611795433313405,0.611151279169398,0.693856274955711,0.552141407555751,0.538593144728674,0.540469219780138,0.540649850541588,0.540373647948683,0.540599197470917,1.20739717550506,0.671202883745905,0.557969377837884,1.25927356561889,0.564252270037744,0.563986580346298,0.56634720458324,0.566239208413695,0.565178361084544,0.554832710329527,0.550865523605826,0.548904389624367,0.573036277066783,0.553546313478142,0.555649849488469,0.555883044757219,0.594424297228124,0.564477819559978,0.570301966968852,0.577645706497864,0.580223278792208,0.578223916078167,0.577731721146173,0.586471765132744,0.58698976445923,0.608120696393956,0.5815823102355,0.583368547765396,0.581601424601791,0.581222960149229,0.62832075869031,0.603357396314233,0.605060486350763,0.606187278243619,0.610904703844244,0.613434490222861,0.616664818126044,0.617440861397459,0.632087244567956,0.634688709820164,0.637386702622142,0.643711646427841,0.64642875359611,0.646069403509839,0.646672461766321,0.648216902562635,0.653567013687493,0.656493423166648,0.659700813830282,0.660657487863148,0.649787147753443,0.650893869561693,0.651191097957519,0.656440858659348,0.658553951852821,0.664874117066948,0.670040730275411
0.348865856360608,0.334577867558068,0.334839734376255,0.538081835430389,0.340755630743327,0.341572769902268,0.341380670521043,0.348585830894445,0.352622785055109,0.577230924749348,0.363240815529772,0.360672800418573,0.38241921494787,0.379616093131291,0.379249097298504,0.624926047237024,0.387845783537892,0.386974168435021,0.601234745937615,0.598411554036431,0.607716427546901,0.598420155501262,0.344830813636573,0.34331600010801,0.58624430417388,0.584311841741858,0.812148397902651,0.567080240530501,0.548487696439222,0.363447250685715,0.528368870199606,0.3731669059447,0.370796724524613,0.524999007422499,0.385508096540499,0.388646675485485,0.393142374437134,0.3922468663764,0.797740944310793,0.576971925086105,0.662861374296503,0.617213400438596,0.39737716228891,0.398591880266705,0.399052536494318,0.401952185860667,0.400030236330104,0.399305801847674,0.401880506987075,0.407956964030991,0.407396913098664,0.704140759738596,0.887379676469175,0.885692833643992,0.885222620233233,0.701076726822145,0.415644762153241,0.506310891499765,0.403374294712719,0.403258652796658,0.701134069921018,0.696593452208586,0.430906627918308,0.436897070313915,0.438303887672934,1.10269823414598,0.429362187121994,0.69296554548655,0.442899937047611,0.441984358902271,0.449149379106461,0.449572762319807,0.538209901684539,0.537996776500394,0.491941666640489,0.493687764001174,0.497735231063298,0.494499168850228,0.493530070479273,0.498588687518192,0.796419185881768,0.511395312933178,0.671442769042858,0.666783642259421,0.666387019158882,0.569632964148667,0.669353568807249,0.544433539348896,0.54009362248252,0.541053163670329,0.54153006710929,0.541449786770868,0.542318534718795,0.544881771238421,0.54572567051017,0.546214042568905,0.561370779319372,0.562889415721194,0.563937838712256,0.564847682547709,1.38567686990143,0.562614168846603,0.550744147379878,0.550574029519888,0.549657495656233,0.549740643149599,0.551881452174194,0.550764217464483,0.549528473683769,0.552097444513282,0.563623407386769,0.564007606149219,0.569845133614497,0.580092345383114,0.578340513712542,0.577845451625605,0.600568610272373,0.616360899702016,0.602650164761466,0.663302916157825,0.601595051742201,0.581490561277303,0.581932103138626,0.637572111975165,0.64796172577265,0.604051247810597,0.60557848567725,0.618261823429659,0.61413789890237,0.61546921451454,0.627775043532701,0.629759114753709,0.636852456084308,0.638386383979162,0.696218810629282,0.708542798295419,0.646169753932867,0.646054112016806,0.651608746860977,0.655358985527276,0.656652072406864,0.661130568428851,0.661434486852878,0.650514449390816,0.650851817955853,0.653075774473814,0.656508714659681,0.65846984864114,0.664079915147556,0.669111772073667
