2.01301239829149,2.02227249798703,2.03477948062089,2.06122478200831,2.06165008128118,2.06183866871583,2.06291471173324,2.06433479123693,2.02879852194309,1.96973926796757,1.9686192570689,1.96813173543445,1.96691448226612,1.96623410383675,1.96460149282967,1.96327145639873,1.96251384802164,1.96296107047704,1.96333955580284,1.96363387160064,1.96242834797856,1.99222519985141,2.04956544037897,2.06047771046145,2.05555033334352,2.05305558812847,2.05124149308258,2.0510473578772,2.0500862854539,2.04980314377522,2.04835009527941,2.04787575882213,2.04624820731973,2.04504606302346,2.04437295672433,2.04311762113422,2.04280880777152,2.04207402961499,2.04640102218602,2.04617200968307,2.04373588188606,2.04350055636745,2.04242607586131,2.04209545550476,2.04281836841906,2.04092971360372,2.03920279969958,2.0391198465759,2.03901004641863,2.03843740171272,2.03824836502051,2.0382917293497,2.03741405278142,2.03253324277298,2.03539812129204,2.03551529216486,2.02885086606746,2.02918587470241,2.02899667068268,2.02682933857367,2.02866636541041,2.02690826648632,2.02286705629699,2.02034307998307,2.01930363645851,2.01808215997433,2.01834270364633,2.02294477682775,1.92874777419754,1.92990218953001,1.93049810880065,1.9304980492624,1.92943643905003,1.92808395116368,1.92710441388808,1.95956997551335,1.93733267932032,1.90786084121641,1.88507839378201,1.86432422300646,1.8631931367201,1.89278648743906,1.90029527630687,1.90206873966002,1.89535488918846,1.88659975432061,1.87510031063561,1.85162338396113,1.85070397123251,1.84993689364641,1.84868147482678,1.84793066653262,1.84699042952703,1.84699522014865,1.84675304453621,1.84665888339225,1.84861064701827,1.84848511906169,1.8480804944826,1.88140442268681,1.88691901544002,1.91210598742437,1.95199699539197,1.9510705973898,1.83816128880963,1.83972305656336,1.83970258796466,1.83966693731587,1.83935511085397,1.83978718448932,1.84010423837646,1.84092622981612,1.84751935724655,1.84734718124124,1.84688093283443,1.84593576412602,1.83760872671489,1.83777351396844,1.8374658215676,1.83772097815214,1.83762286842879,1.83749704772464,1.83660190098752,1.85127985052893,1.85487051487781,1.86648774810802,1.8662742095815,1.86702427372538,1.82991016498813,1.81952334114757,1.69017190838537,1.69136873674566,1.69076023304885,1.689817977966,1.68855988161865,1.68761903690306,1.68576595472157,1.68444206902625,1.68273627730247,1.68170652888528,1.68104560189679,1.68039802139411,1.67911972766307,1.77782714912388,1.77754906905551,1.77731661117348,1.72854180951367,1.67834273240799,1.67679263883929,1.67529955815868,1.67275444703201,1.67330491042315,1.67452023101376,1.6765693554145,1.67776868838516,1.67813535402568,1.68010576008547,1.70886405340005,1.68410002498426,1.681065700908,1.68056033870483,1.67975563684562,1.67913472743796,1.67935367819155,1.67942635167721,1.68006411737702,1.6783686634171,1.7225976479749,1.74153253654761,1.75994603248006,1.73312588610555,1.68367668015357,1.68394056738823,1.68469868859877,1.68537155921415,1.68654075705842
2.01032275998212,1.97867168498349,2.0337945216551,2.06088244485377,2.06057207064184,2.06071480582105,2.06032075339587,2.04792036208703,2.02831475149807,1.96973817349602,1.968049265578,1.96821764457958,1.96667951938049,1.96677865407002,1.96471337390508,2.05396927540879,1.96301295345565,1.96510287875387,1.96468252341112,1.96550021066206,1.96376766578826,1.96493562417598,2.05039358160863,2.0670916678994,2.05435170009184,2.05061317174215,2.05041934026352,2.05110425122372,2.04720283736631,2.04702117588248,2.04794543459159,2.0510193660295,2.0465337924442,1.96228666638651,2.02209813299882,2.0517068387572,2.02431976416873,1.96064130106773,2.0490903904969,2.0487847839636,2.04568140971734,2.04632216207509,2.0461539261547,2.05389356572244,2.05020556720871,2.05303676757716,2.04137935363505,2.04113945563179,2.04133456153239,2.04251813372335,2.037989101898,2.02686907304811,2.03214615190008,2.02744916039003,2.03489945768915,2.0418637702081,1.9823313366392,1.94563656746542,2.0309338251472,2.0312260514843,2.03178841984272,1.93942729415076,2.02285557175981,2.02022248095755,2.01976443638598,2.01779099615198,2.01697140676692,2.0258034551216,1.92869508051598,1.93026490505174,1.93040217207783,1.93066950242214,1.92940511935773,1.92861416809041,1.92755783315889,2.02968970632101,1.93529149685541,1.86826654923986,1.86770190926462,1.86661573722637,1.86526623278227,1.86154023042729,1.89409140522092,1.90850695368543,1.9165040890562,1.95961293485925,1.881341239562,1.85280249781724,1.85096724223993,1.85063378623797,1.84889835237171,2.03752498476805,1.84541677511664,1.84719947303935,1.8470779855094,1.84701583137738,1.84711247256259,1.8468131077028,1.84834821407818,1.94506869909293,1.88836640734733,1.89371909184233,1.95247911369213,1.95643964711819,1.83866160797075,1.84049193562749,1.84069027448191,1.84150205452711,1.8408918210854,1.8419057674092,1.84139719017953,1.84304631504317,1.84766873815438,1.8412707724566,1.84733049532453,1.94906469110092,1.83833148812278,1.83948907493154,1.83776509318026,1.88764590795827,1.83762301236805,1.83799529165379,1.83662877714334,1.87085881815293,1.85648188658966,1.86663746459177,1.86654010997471,1.86918237197629,1.84005458506096,1.86800873600026,1.68959587113711,1.69113627837136,1.68987454338875,1.68864442773188,1.68750258273977,1.68690072693915,1.68509508348963,1.68399041874982,1.68256717625905,1.68160222418423,1.68033470800391,1.67922854263429,1.67764204834921,1.85835175488027,1.79536623816805,1.85632437658209,1.71810825242862,1.67803502339954,1.67614562508733,1.72653299060746,1.67298707109466,1.67561058931262,1.67373766391482,1.85126082788569,1.6779997742459,1.67861189548949,1.68021124917535,1.72909909935736,1.68479675566462,1.67664774571857,1.67618742940879,1.6768942083047,1.67737476648389,1.67817654065231,1.67748693687131,1.67729003851796,1.67613035316499,1.6749630766048,1.72347773203415,1.84004658560836,1.72273740797739,1.682094467533,1.68289372696124,1.68357340552344,1.68373750000557,1.83444436151872
2.02090953320067,2.02677135912533,2.03195337352002,2.03591233929505,2.05782631013861,2.06086727007641,2.05900577688282,2.05244059887203,2.0286545234593,1.99188846697084,1.96610942303577,1.96631770990879,1.96554899061096,1.96525520400347,1.9640854465609,1.96360234959484,1.96351665601354,1.96480700008818,1.96536995913996,1.96571436830034,1.98846905912937,1.99403672646495,2.05052101469431,2.05747664117578,2.05594427999097,2.04985712044346,2.03694989239478,2.03719427115523,2.03787047560862,2.03900957687673,2.04091695407428,2.0484533666667,2.04772183081573,2.02197430899377,2.02214969475183,2.02274324764633,2.02402747982947,2.02446270470986,2.0486764440762,2.04742469846111,2.04576357477396,2.04731930508206,2.04950631676413,2.0529988512401,2.05064576441678,2.04486823851061,2.04333576384593,2.04258011071052,2.04188743591396,2.04081234166859,2.03816120557575,2.0364826088929,2.03614014544222,2.03776020222582,2.03889060258481,1.98200371734311,1.97616944841453,1.96734499955546,2.03184460579726,2.03373050738013,2.03225264769332,2.02867857713262,2.02530904477476,2.02280265137697,2.02219848640126,2.01638252509564,2.00867641757498,1.95977448976049,1.92881390569961,1.92967795449672,1.92976619911941,1.92943268027537,1.92859216616942,1.92791112628078,1.92751549265216,1.92781400161181,1.92754403976037,1.86814142958862,1.86775599110254,1.86628563779719,1.86514416720207,1.86318252294324,1.88929295489376,1.91762654030318,1.92452187401627,1.93236015249237,1.88496474345701,1.87978570371026,1.85004407576161,1.84974261739751,1.84859285659167,1.89481307274276,1.8452390260216,1.8466923144894,1.84718551016299,1.84724430182952,1.84733330188714,1.84728551735293,1.84839193058461,1.87599644286087,1.88727159485485,1.91274488789205,1.9526024227042,1.95260154550362,1.83950984767681,1.84100351007787,1.84176132356196,1.84222687470945,1.8418341424578,1.84188924362922,1.84156364047279,1.84837244233638,1.84798673232818,1.84777862894839,1.84736563445333,1.84691786473238,1.83867829250251,1.83864764745127,1.83737317106665,1.87113859766467,1.83744908185602,1.83722227273383,1.8066426580075,1.80800491031014,1.80872444184851,1.80825104467597,1.80762186736192,1.80737819864866,1.80751594174697,1.80772481201881,1.6892490668555,1.68946666805353,1.68849147697257,1.68761701984364,1.68636891808766,1.68523606630919,1.68410032524581,1.68279970804231,1.68180169332449,1.68072500636792,1.67962533694191,1.67824150377936,1.67666608447998,1.67583899111902,1.6759710137587,1.67590338488162,1.67546686804574,1.67660828303418,1.67378906474366,1.67301161535713,1.67240644324341,1.6739496414654,1.67378847061426,1.67398383859148,1.67392788743439,1.67452200611659,1.67330918768424,1.67291399833489,1.6729829155972,1.67473684026421,1.67468966130055,1.67543391280538,1.67515110003972,1.67544972443672,1.67518976310727,1.67608918824223,1.67595572096028,1.67584488524346,1.68771730703266,1.68671801492205,1.68605949428861,1.68507688228603,1.68173957084173,1.68213144595517,1.68250663866037,1.68311242257466
2.02145243754304,2.09018785003025,2.03274926593094,1.97542022032492,2.0579877941228,2.06455701995683,2.05692424825207,2.05582179477288,2.02914030120453,2.04576182123551,1.96533587436261,1.96638484265465,1.9652627548703,1.9656336942437,1.96429688740215,1.96458038729645,1.96406983052407,1.96557870520375,1.96580398176473,1.96572140667395,1.99371207180848,2.05450573627476,2.05108723083612,2.06007643376842,2.05771363517559,2.04930295038815,2.03663306755263,1.96508792612877,1.98209700172462,1.96277597383615,2.0419430283432,2.0500908125775,2.04817755968316,2.05027690044062,1.99189903289722,1.95926007572173,2.02477500673383,2.05107637371742,2.0478831588327,2.04693593366549,2.04652068931761,2.04865802712872,1.98973563742713,1.95553831795986,2.03771356395191,2.03742906736528,2.04193591609028,1.95222817944156,2.04191302957623,2.04011418918537,2.03835884009168,2.03874348863061,2.03479297376939,2.05189216729688,2.04151955394512,1.94668451735268,1.96708014846301,1.94314887953809,2.03211761390075,2.04303906197516,2.03096593571592,2.02659577297539,2.02657673557721,2.02922404172333,2.0250912649713,2.00686532150363,2.00834784499189,1.93166931919688,1.92946924686558,1.92960118276598,1.92932947840241,1.92833354555482,1.9278756590409,1.92686792617397,1.92719599112326,1.92785188026679,1.9271721262426,1.86785156504659,1.86814278769528,1.86489111104014,1.86439879037567,1.86216797861733,1.88487245219304,1.95611644198006,1.93279179390388,1.95326635988541,1.89007922964127,1.9018859043597,1.85014873041576,1.85064461994958,1.84889852828311,1.95525456107409,1.84550191777288,1.84688125301295,1.84719365650086,1.84711504669459,1.84742366409327,1.84746150895635,1.84663280873558,1.84579076568952,1.87617987704061,2.04645720219768,1.9526930042854,1.95460815099514,1.84096851990588,1.84309316183391,1.84299471148631,1.84280530351525,1.84260420311549,1.84221508921972,1.84195819225643,1.89099557310909,1.8723331339078,1.94595016791822,1.84753727811647,1.84109991141804,1.83980750988205,1.84002576886172,1.83722847831689,1.93893759370812,1.83737827401689,1.83630957554098,1.78734008159292,1.70243026109397,1.70012192075246,1.69901269287503,1.69723092453801,1.69659098212167,1.73231823592077,1.90889909496176,1.68927573218658,1.68848535793548,1.68752157945054,1.80329912969172,1.72394794397861,1.73312351508771,1.70856533003074,1.68237616624389,1.6810217593947,1.6792752983789,1.67881402966986,1.6783331793934,1.6767339386643,1.67629155600416,1.67505043881368,1.67491857825084,1.67404297532078,1.85213250261292,1.67262157963191,1.67378660701976,1.67365370476725,1.67448209392934,1.67388333769583,1.67463570808669,1.67376367673793,1.67410251639602,1.67291694127743,1.67314306679851,1.67197774686044,1.67182109193816,1.67250256925839,1.67232984451624,1.67296257099004,1.67368247276726,1.67268175878605,1.84635398475823,1.67555572184405,1.67640780472261,1.68815281129435,1.67821862468355,1.68665537978375,1.83746094372083,1.68051948319609,1.68086016198438,1.68168828806878,1.68326607925
2.0188403931215,2.02523468200504,2.03441825801722,2.03527349745578,2.05712581723009,2.05508675159429,2.05580272985134,2.05697852931977,2.00388440616277,1.98919561776065,1.96505568056935,1.96525465397601,1.96454273118574,1.96448527469165,1.9640209689654,1.96438732927506,1.96366035970798,1.98306230506686,1.98895834919941,1.99699384836573,2.00550863931102,2.04985456232773,2.05039911535522,2.05449719681111,2.05622370636661,2.03588918663882,2.03605393389948,1.99605558908651,1.9867542721161,1.98174278696533,2.04255179432327,2.04419891614429,2.04400997186243,1.99104108190277,1.98182155243606,1.9772329338512,2.02603901153252,2.04362209664151,2.04458275816182,2.04702216087328,2.0490544639593,1.99017064949001,1.9844653991489,1.97550857274422,2.03801611786197,2.04098839881162,2.0428787182996,2.04291241154337,2.04197545657147,2.03979938680833,2.03717383874401,2.0355069120634,2.0340832522759,2.03588031835639,2.03848937989944,2.03144141259021,2.0316026598935,2.03179340462808,2.0318400488852,2.03132259282895,2.03065235574614,2.02935328414149,2.02887580691393,2.02869034978344,2.02798496443073,2.00813544020075,2.00840296128641,1.9552496200848,1.92866944472796,1.92954982149251,1.92913934099133,1.92838310351374,1.92749216190418,1.92704102211629,1.92660163346106,1.92662091743012,1.92626129220848,1.89792825603682,1.88493812213091,1.86462842588295,1.86428048342025,1.86316788877431,1.88020392527875,1.88728935334815,1.89086018047005,1.89668247732606,1.88649872388602,1.87890647872938,1.85047079365401,1.85014002171793,1.84915100933658,1.84766729741634,1.84604542861683,1.84630948584227,1.84681067212933,1.84771607907186,1.84744931242279,1.84692802244267,1.84631974171074,1.84543040362157,1.84433084439002,1.84366114210035,1.84272588579401,1.84247621601307,1.84210146567731,1.84326372091606,1.84338050465255,1.84356847481755,1.84298121372379,1.8427873258465,1.84237657151327,1.85325616486923,1.85242288236307,1.85005474315968,1.84842931460314,1.84861567626916,1.84938272038496,1.85004295414321,1.83627338991098,1.83721849004646,1.83737893911272,1.83754121608883,1.77752499216546,1.70179817350649,1.6982212669016,1.69743237727249,1.69593266404014,1.69402273563009,1.69096421242308,1.68854275520629,1.68681924894299,1.68668674473416,1.68639151326691,1.71221697121027,1.71968686702787,1.72405774838373,1.71782457061878,1.68120749540946,1.68050517045193,1.67810438076612,1.67745257293725,1.67688951847707,1.6758359025135,1.67513872241006,1.67400331462743,1.67349103599792,1.67210746247202,1.67170741944956,1.67173053408917,1.67256306563342,1.67277235062875,1.67315791920506,1.67300698233403,1.67338143804132,1.67265019195065,1.67238881805487,1.67155815031209,1.6714938825233,1.67052672534344,1.67101574792915,1.6712246136202,1.67143491925366,1.67134138878709,1.67158794665287,1.67134860932516,1.67271729413024,1.67424541669512,1.67492902806523,1.68837227282047,1.68761957944451,1.68670428770466,1.68582288231074,1.67927486738816,1.6796906428654,1.68037766531009,1.68142962059645
2.00729069148956,1.97710457847434,2.0348804472605,2.07751428714215,2.05416830950633,2.04999505956809,2.05509658898968,2.06329937376052,1.99484500116053,1.96773648275817,1.96615797821936,1.96619406029245,1.96464916486202,1.96480720548958,1.9644136786645,1.96651909244429,1.96415343956178,2.05082536993191,2.00462480774786,2.06136381944318,2.03420287922934,2.03593881619088,2.04689441050767,2.05394566566972,2.0551338010059,1.9625217654592,2.03570221481725,2.0404030075068,1.9956260968367,1.96204157399754,2.04274168399409,2.04402255174421,2.04374533113381,1.95948538711738,1.97709923171295,1.95846659933285,2.02713385966808,2.03848445003532,2.04082096681593,2.05299935408126,2.04848272610962,1.95300171407664,1.97497914012273,1.95282531486726,2.03838299985973,2.03947883327096,2.04255950118141,2.04063177606157,2.04133830814273,2.03969530140522,2.03650479981999,2.03474464849215,2.0340594519452,2.03578628478237,2.03705079573726,2.03876173757711,2.03666740232855,2.0383106414848,2.03491537827716,2.03672558198756,2.02712998236814,1.93653799889299,2.02672235378948,2.04415558915386,2.02976959275931,1.93460859796246,2.00823717247103,2.01798665106145,1.92811345288475,1.93002496932496,1.92918222946231,1.92825374526344,1.92748565165316,1.92715413255316,1.92650183612439,1.92623479890956,1.92614989859331,1.92676684153422,1.89324909286166,1.86368086123507,1.86366541235677,1.86206837100326,1.87391529111754,1.86000686693111,1.89078114799674,1.90466922106322,1.88240957882152,1.85293616798322,1.85178437107605,1.85105719909823,1.85020579443245,1.84988164039411,1.87522736672355,1.89862496176207,1.87271758890405,1.84830803924336,1.84738967157529,1.84612129987886,1.84597022234245,1.84516435552032,1.84441318925541,1.8449192798609,1.84361090703173,1.84417382498551,1.84355402653349,1.84487768628836,1.84428254676079,1.84444945704299,1.84367887993964,1.84338095215464,1.84293420211196,1.84231609124576,1.85327344157985,1.84370953823672,1.87212464306429,1.89049586992921,1.8829118964622,2.02814223882772,1.8372573793797,1.83957040997187,1.83845864470154,1.83898665696423,1.76987261578902,1.70108179287524,1.69658798763561,1.69620247732251,1.69454840600252,1.69333194657003,1.69073349885866,1.68834810035031,1.686426888118,1.68447869133716,1.68344053850101,1.6841659478635,1.71189830664221,1.86430656650002,1.72874391893083,1.68074865774892,1.68063225996247,1.6760075889602,1.67600018202043,1.67588626014849,1.67491501971915,1.67463211766812,1.67281846431609,1.67318960643871,1.67164207971479,1.67168118087489,1.67130005736752,1.67190433445491,1.67166837133508,1.67230354752854,1.67208082743618,1.67346087752721,1.67168274263178,1.67155556270037,1.67018261355191,1.73331050500368,1.66892409402377,1.67117898298009,1.67049735644014,1.67133822967403,1.67088777716659,1.84245593373082,1.69457361491804,1.67425128009498,1.67416282238239,1.67419278388504,1.71013711060842,1.84176055276865,1.71393184045848,1.67736495461658,1.67820070370714,1.67813866225063,1.67945054828688,1.680331273582
2.00846203958567,2.01983059237388,2.03597781223168,2.03688383387275,2.05360869376922,2.05323846921586,2.05449393210678,1.99608932662306,1.98960622122863,1.96759798327007,1.96634778473697,1.96545256943804,1.96408087781925,1.96369731621042,1.96336751629674,1.96407653698526,1.96358496261299,1.98561117848316,1.99856843689607,2.03463547189606,2.03405001039,2.03482121308391,2.04526380606137,2.04730821115087,2.05054183117402,2.04699673826317,2.04556742819446,2.04197726437255,2.04325313274066,2.04404643589025,2.04532075954675,2.04592176859563,2.04352752678219,2.03670884491777,2.03695853528605,2.03741923801389,2.03782640182982,2.03980830414121,2.03988551925335,2.04068174931891,2.04396608874733,2.03666787686994,2.03700371662101,2.03771454774276,2.03813520713796,2.04189950381344,2.0445361932559,2.04364594423601,2.04158825042509,2.03732190623781,2.03472617862285,2.03377621701956,2.0331958366119,2.03448292510471,2.03485905101705,2.03541995802417,2.03481270924103,2.03438456263333,2.03330597093088,2.03349413922716,2.02705154499483,1.96209883530011,2.02584362074455,2.03158134904243,2.02961244349022,2.02639671283011,2.02182412191372,2.01873817935519,1.92724525965528,1.92880100130162,1.92864501032086,1.92803372766488,1.92694805358312,1.9264076718543,1.92601855628421,1.92595014127228,1.92590981649715,1.92307370340491,1.90221550679685,1.90112160068462,1.89958784980085,1.89768058690576,1.89449249822996,1.89291568868195,1.89175450391744,1.87931891265343,1.87366861957972,1.85313518507576,1.85253270645885,1.85175481940827,1.85108013359839,1.85058281896869,1.88251817646058,1.88965138098229,1.88282468227682,1.87766291516237,1.87210193596702,1.8673170712996,1.86148925401437,1.84428949413513,1.8436119222735,1.8437407120963,1.84336580028686,1.84372363209736,1.84360853668842,1.84424739900311,1.84378365223611,1.84388426040399,1.84336216568557,1.84336175979011,1.84335720261008,1.84337534523687,1.85263780969203,1.87055874896283,1.87786821442241,1.88230568371056,1.88032366825032,1.86610468505948,1.83795772866576,1.83845740792025,1.83841535167427,1.83849006165609,1.76195212454237,1.72776116853607,1.69450275591276,1.69449310408865,1.69281533628661,1.69126293923576,1.68905928549036,1.68716601746481,1.68508801867625,1.68357714564877,1.68204642533766,1.68258791527829,1.70677706496129,1.76145165073921,1.74368827528907,1.72104533364717,1.68419331400211,1.67516668197137,1.67496232382082,1.67455177116214,1.67388131767143,1.67357876103909,1.6701753662802,1.67063626081556,1.67013932867997,1.6704169624137,1.67032110766997,1.67025856878802,1.6698023649587,1.67018939698317,1.66982276145905,1.67066389822149,1.66948390227697,1.66944879332094,1.66829036898243,1.66744187230695,1.66724090741006,1.6683462668065,1.66909244117369,1.67006904181014,1.67033585804039,1.69501157218212,1.70201346016325,1.70740779417485,1.71254860457136,1.71415822410366,1.71562735558691,1.72520086847822,1.71795715327237,1.70898276658602,1.69865053329384,1.67837165680938,1.67885985579436,1.67937069239958
2.00923724506653,2.07150071093405,2.03627874138919,1.9747347306802,2.05305414964261,2.06674077927747,2.05468524053116,1.97037882898119,1.97766183938474,1.96881249390006,1.96670926473787,1.96584585708432,1.963949190868,1.96358180538335,1.9627300245365,1.9625876519732,1.96352466024885,1.96463450120956,1.98853454547767,2.03579792193352,2.03443790197296,2.03444567888547,2.0433305660012,2.04537398790792,2.04632989552119,2.0444969629203,2.04504743419144,2.03791640562128,2.04099877925866,2.04093959794115,2.04207053289053,2.04351515005678,2.04131343447545,2.05684454307686,2.04234341924867,2.04403047486916,2.04164971851913,2.04318983173558,2.041389467545,2.03950821901668,2.03991880820342,2.03353421839199,2.03397542999617,2.03495069737896,2.03511721077884,2.03934713935894,2.04201663596697,1.95013224247827,2.03738185174829,2.03435349987837,2.03345663474658,2.02890503838993,2.03347834244678,2.03486000932117,2.03407722779828,2.01657467921644,2.0341099740419,2.0333882550655,2.0313191720072,2.02423228411121,2.02607173803462,1.93604830808905,2.02502721556132,2.0295670907321,2.02665037554559,2.02547778973365,2.0183323554331,2.0154997897048,1.9268755659013,1.92862774265847,1.92833496022475,1.92790976377878,1.92669668613839,1.92536809930098,1.92587902594601,1.92556811757158,1.92610569794015,1.91482424150371,1.90410754550069,1.91288689058165,1.90000660092695,1.90919311640561,1.895373134048,2.04092353679446,1.89147868631339,1.85336646613191,1.8650031162586,1.8533415074519,1.85279235415123,1.85180390039084,1.85130702071609,1.8503886784092,1.88777886026365,1.89758255390563,1.89759492146218,1.91905557576496,1.90116087305692,1.90403113140393,1.87203400323165,1.84440948215295,1.84282393613075,2.0371332208457,1.84336580590111,1.84403007713185,1.84397342743393,1.84439528412076,1.8438133822056,1.84330069222153,1.84322621811101,1.84287000847657,1.84357133174857,1.84400508242663,1.85223892391675,1.89189392958663,1.89223834128375,1.92443253448303,1.87562362302044,1.83880690858413,1.8386144901762,1.8386855297308,1.83841412055576,1.83800996568818,1.76289500902897,1.7461897438413,1.69254605801828,1.69137279752343,1.69083734828054,1.69010668846484,1.68788702546781,1.68679248774099,1.68436723735317,1.86764635393807,1.67951101656949,1.68043514606801,1.70508415797015,1.86313127473296,1.7614516271281,1.85974251680462,1.68368142989171,1.67493058784365,1.70282576670669,1.72197952913113,1.71036737667993,1.71927537840943,1.66872718566485,1.67010542071095,1.66900961983459,1.77172295755013,1.68948440978256,1.66813678349256,1.6679493329723,1.66796374992283,1.66740016853375,1.85379749928292,1.66705401633798,1.66801223125345,1.66746133076385,1.66870435246863,1.67022247364966,1.84320028518329,1.71639598217026,1.67013715802972,1.67021921459621,1.67024557960929,1.70524501371836,1.84042855543265,1.71850004486409,1.72242675350305,1.72200394638093,1.74319269025374,1.72359351051939,1.72338375996645,1.70866517560999,1.67796012509662,1.67840048750922,1.67829297050347
2.00923846157343,2.04794261105447,2.04815071763359,2.04889231272096,2.05198838144844,2.0532147341609,2.05403438130664,1.99521106899161,1.9853586478243,1.9672556125574,1.96603858320244,1.96490889976623,1.96335546218931,1.96281963990563,1.96221568292223,1.96268946969355,1.96330463628973,1.96367266621002,1.98073092160085,1.98790480016764,1.99296167808805,1.99777715792546,2.02016515152193,2.043322646126,2.04384198674472,2.0440269638327,2.04336051228691,2.04055212980129,2.04053738014045,2.04045920896855,2.0403593321679,2.04060350619517,2.04212220732318,2.04352593049902,2.04228332295461,2.04157193147085,2.04084801375964,2.0428081418259,2.04371969437442,2.04232698815889,2.04014753949255,2.0351119152052,2.03298993393528,2.03280259946211,2.03294776044763,2.03645125388101,2.03912421714095,2.03428895175297,2.03607442180552,2.03556678085623,2.03466174164103,2.03404818383524,2.03322195586499,2.03384786352004,2.03358525456958,2.03448745897916,2.03508113111282,2.03401213749207,2.0289593132537,2.02312442955719,2.02482012499173,2.02520154482008,2.02487943228731,2.02441838225625,2.02174832717644,2.0187135009672,2.01698892179952,2.01543491714923,1.92680555896362,1.92763387128648,1.92748815710574,1.92711979000848,1.92637428716223,1.92605969498546,1.92614746653958,1.92624011221983,1.9264639333301,1.92085647237527,1.90031696032485,1.9000981456355,1.89941191488435,1.89740134039035,1.89337814447761,1.88993131879779,1.89060812651466,1.89033613081276,1.89013353985515,1.89050887948335,1.89170028337978,1.8933411918169,1.89498985626145,1.89633270784135,1.89719111564464,1.89757899870186,1.89748771207493,1.89713185306869,1.8965983929213,1.89632042837249,1.8796096192609,1.8740692325117,1.84199339740974,1.8428805902733,1.84332404114462,1.84393753999983,1.84377451993944,1.84393143274629,1.84339324256541,1.84338545690805,1.84304907786909,1.85346903149762,1.8531218593059,1.85257514041108,1.85199543379781,1.87700349440494,1.89218345823591,1.89164952398183,1.87009775189568,1.83997136866536,1.8394808868609,1.8390448311769,1.83871035740443,1.83853444067105,1.76373278229553,1.72411717835082,1.69110937172329,1.69020142074476,1.689151270189,1.68799141406975,1.686213145151,1.68480348620828,1.68245079470921,1.73352551659459,1.67745466132521,1.67794211617163,1.67974965013238,1.68030084696408,1.68075972320179,1.68159847140896,1.68294169712076,1.70154033348835,1.70789262614607,1.71442613375473,1.70205478974255,1.69510912958376,1.66762169387183,1.66813364964705,1.66788490365045,1.70245071587741,1.69574438248449,1.68892004391702,1.66602725925756,1.66611595324009,1.66522895228918,1.66428468336298,1.66459255894062,1.6658714464484,1.66579406198037,1.66698324710866,1.67086700298056,1.75962112533243,1.74325285198231,1.73533424984669,1.72757867393949,1.72044992644408,1.70648540852877,1.71194139865446,1.71661449676215,1.72154528326983,1.72161898525642,1.72828553636901,1.72334485841244,1.72311963905386,1.71705673606967,1.71049574189622,1.70364253578619,1.69728850981846
2.00784449717521,2.0499243129105,2.04756314583681,2.04752583371638,2.05027041662282,2.05539395766101,2.05293103832739,2.05275303709162,1.99273859706473,1.96694340698374,1.96563373300238,1.96502016348711,1.96327920133242,1.96331565251305,1.96198600811437,1.96290386871887,1.96304126340914,1.96262410736205,1.9665883239237,1.96312974801436,1.96587637455137,1.96175799609821,2.02149854261681,2.05761188271024,2.04419579485481,2.04602432478652,2.04621968766189,2.04942920757568,2.04353043951838,2.04246449922647,2.04177046426058,2.04035935925796,2.04352358734526,2.04734656093732,2.0429968140226,2.04124791717996,2.04140680162158,2.04567841810886,2.03344747282196,1.95298216350776,1.99890205157126,2.03342113174214,2.03265280035341,2.03336746754116,2.03158762300757,2.04922634008085,2.03535399356858,2.02799808048506,2.03223198807322,1.94648883828724,2.03503220589421,2.03542844275684,2.03373398729132,2.03360426463383,2.03338443138178,2.04111318076463,2.03865855963064,2.04189483211199,2.02794143569047,2.02285548267985,2.0225861100127,2.02313246075487,2.0244751782212,1.93538233175112,2.01944265184871,2.01658645548918,2.01579923740664,2.01440313984001,1.9274613614902,1.92636375911527,1.92687791777526,1.9264575371187,1.92606166357195,1.926022117809,1.92626617551446,1.92624752347546,1.94316718975472,2.00746689782558,1.89637528646692,1.86191866124476,1.8611650762286,1.85973013068158,1.8593620839138,1.85782095374307,1.87701449447303,2.0499243129105,1.90369916904301,1.90523988711312,1.91666895741668,1.95628294182414,1.91314652200285,1.89925948506838,1.89873707253363,1.89781163245079,1.89744611739577,1.89691091187967,1.89652104210006,1.89568937544187,1.88619785338999,2.03801468967099,1.84278847031465,1.84498783286738,1.84432965569646,1.84483985847159,1.84402103163794,1.84406544752927,1.84342240845477,1.8436906391778,1.84309637557203,2.03582081170582,1.88845942837629,1.95683141086155,1.85132189446066,1.84282810652033,1.89191914700888,1.89038852896761,1.86498982904996,1.84132060177386,1.84009904062769,1.83942519232803,1.83893820290123,1.83917049424743,1.76500230702904,1.69203774187481,1.69051804235426,1.68900382093707,1.68771817300879,1.68679217825955,1.68481318641623,1.68099052491347,1.67981360918241,1.77946029501659,1.67725756123849,1.67833820111867,1.67898589465388,1.6752829643001,1.67488193472494,1.67447581626636,1.68362792289491,1.90685212846747,1.72215769412744,1.74240922487291,1.69571544027792,1.6688132160615,1.66744286400929,1.66790694831955,1.66756158962716,1.71578895543201,1.70296978418379,1.85177991508281,1.664700426653,1.66583217414334,1.66421507064482,1.66420590878717,1.66239203435177,1.77977370615447,1.6636397586287,1.66701645907043,1.67176502648246,1.84560963330576,1.75467341215493,1.78367439361824,1.78755769352076,1.84040896723653,1.70334515969503,1.67045196856321,1.70725049413175,1.72079247401981,1.72122176110561,1.83688309193536,1.72292196567477,1.72241497501645,1.72201177116134,1.72512116093279,1.74008337410299,1.78431816898445
2.00613387096463,2.01435661478457,2.01915758187876,2.02182937028026,2.05089852880433,2.05498997127269,2.05284364003855,2.05277919748047,1.99713636218337,1.96566421279484,1.96461299423033,1.96382887462179,1.96248305100042,1.96188650965341,1.96077659552368,1.96533128771943,1.9651999730604,1.96531273498092,1.9658885558189,1.9657536052047,1.96561256449612,1.96523419633227,2.02362980411448,2.04955043273175,2.0488027136761,2.04885730576908,2.04923690013786,2.04937818941668,2.04720688407135,2.04554548159455,2.04326119569428,2.04279018883458,2.04288545446098,2.04418017281398,2.04202706312686,2.04088241002001,2.04007509342854,2.04082624925179,2.03364678321778,1.97836572897189,1.99942940898995,2.01593902924882,2.01534780230331,2.0149592703032,2.01552886615424,2.0169186859612,2.01810534313534,2.02742388910042,2.02912313540629,2.02717863254204,2.03455155804553,2.03412886370314,2.03297572934698,2.03310463239548,2.03389821887817,2.03811153921709,2.03732613099757,2.03514262343215,2.02793277599301,2.02148297844503,2.02169832691102,2.0221587680895,2.02146782548253,2.02092275803376,2.01869813969601,2.01721922552476,1.9767676393656,1.95630521560842,1.92815023683722,1.92773025798319,1.92705428892555,1.92642997226684,1.92555537432637,1.93808875594781,1.94414379247433,1.95172350215954,1.95994087194792,1.96680059210607,1.89244601837214,1.86166095303779,1.86129195658677,1.86056236451123,1.860046882979,1.85949267895435,1.87287400934239,1.90213582003276,1.90244556172059,1.9138767222451,1.92410112868525,1.93352108249062,1.92596122937474,1.91828887982512,1.9112585467983,1.90475621448393,1.8893891000766,1.88546019777999,1.8804444136084,1.87435003081427,1.86780901486099,1.86209976380174,1.84379953348489,1.84471760274159,1.84461332673234,1.84451008017592,1.84355392715216,1.84325840251495,1.84281817074807,1.84301636706385,1.84279714817018,1.85285268605485,1.85261100281999,1.85194653809162,1.85100142850834,1.87692030754703,1.89239350303731,1.89181915137444,1.86087766002544,1.84062435960826,1.83999589969217,1.83922248864134,1.83881851109621,1.83871402156617,1.76615682285217,1.69110392996319,1.68939227670852,1.68740011174478,1.68593453625279,1.68480676339992,1.68218621402078,1.67988795132911,1.6780371873114,1.67772403046781,1.67739690131976,1.67760181440452,1.67815033889301,1.67470134371941,1.67433349300146,1.67462764777981,1.6840962815033,1.7019124808297,1.71161047243823,1.72110199283469,1.68917880617203,1.6674959062431,1.6664065681299,1.6654873924056,1.66347412097126,1.66255718994733,1.66197802570201,1.66243335604055,1.66310887079902,1.66358245118289,1.66252276323763,1.66147267304866,1.66008971106373,1.6595708699146,1.6595491271084,1.67368216982866,1.67254167379515,1.71423723562441,1.727170275279,1.74210483820075,1.79103179883236,1.79407119131214,1.70166499818245,1.68540121373343,1.69749708495312,1.70682819213113,1.71373762612453,1.74642940944395,1.72274454071843,1.72235993103668,1.72199051059347,1.74136865612555,1.75071423631584,1.7624119591829
2.00553628587111,1.97286482640436,1.98675823879026,1.97177718742197,2.05087701775347,2.05983211158683,2.05318349929687,2.0545810281141,1.99806562846175,1.96532563550443,1.96357538280702,1.96358528961437,1.96232026600645,1.96228111844686,1.96055802736719,2.04761290576862,2.03537391781665,2.04876406690278,2.04736846004383,2.06043584453503,1.99166771505838,1.96045487779621,2.02606868809118,2.05357751148643,2.03346987816991,1.96019077296192,2.04934455981125,2.04771683916593,2.01897078632332,1.95794768689299,1.99609062599389,2.04365367856769,2.04314896813935,2.04451302606798,2.04140733878039,2.04059317025966,2.03972941451361,2.03712380996587,2.03401641584761,1.95157183799636,2.00049606546004,2.03932709881087,1.97651198784156,1.94850722825072,1.95530713947871,1.9475173087666,1.99198814462629,2.02372440692494,2.02780978011142,2.02449194278668,2.03376824061887,2.03328730491125,2.03252069172209,2.03190021601992,2.03201074339689,2.04306253168899,2.03692522896343,2.03033388039531,2.0288933836129,2.01073812720526,2.02223436500573,2.02333128034715,2.02134532091983,2.02286344772308,2.01696668272246,2.01623504457475,1.97195486063652,1.92969338835117,1.92925630847416,1.92964146272151,1.92747977027421,1.92690762988557,1.92504619066493,2.00253067240394,1.96103968311039,2.01690840835427,1.96695060900548,2.02270651440508,1.88791614520691,1.86128593435978,1.86113467156786,1.86067238080729,1.86020744014019,1.86021984593048,1.87008232629503,1.90248404764133,1.90213438179576,1.95091577618237,1.93360104411772,1.95174827527386,1.93400653760651,2.04615358515786,1.92905902806825,2.04170706463916,1.87904109613712,1.84843682624045,1.84815799190535,1.84763963340411,1.84704621699698,1.84675248903011,1.84546879399831,1.84627780701981,1.84532860769446,1.8452737994614,1.84337981865253,1.89364969222763,1.84250479563872,1.84317802069753,1.84273008806551,1.84303451324382,1.84128767572475,1.8396449758189,1.85008853433125,2.02243227965943,1.90261822452246,2.03077685120553,1.85569738414669,1.84028590884127,1.83957690215102,1.83872888951909,1.86466143058373,1.93187604900772,1.7666130683659,1.69158101055425,1.68837850178296,1.68600011775046,1.6839621271031,1.68125657756479,1.68056464332611,1.86709788444678,1.67727816358614,1.67920367568105,1.67792498309029,1.7788824434072,1.71536448128425,1.67391662857832,1.67261834696849,1.6717517203397,1.66985606664099,1.66945779603346,1.69808456039352,1.85414029271498,1.68332705732217,1.66436751718665,1.66460894473994,1.66501225948056,1.66372570532879,1.66390319118862,1.66272973028118,1.66365956322835,1.66288174670434,1.66379244638392,1.66185721640761,1.75941177629021,1.65945316253535,1.66186443532799,1.65872348694097,1.84368999008623,1.67192508687592,1.66507979312143,1.66464834836594,1.66562965005513,1.79296262555472,1.84200540522012,1.69813644720459,1.6654522843409,1.66733186194242,1.66798458890124,1.7062294288682,1.78279028844427,1.71659035674023,1.67168603758619,1.71345593167443,1.83274998255455,1.77234724116155,1.82845037350673
2.00524272214552,1.98674066509111,1.99081508614584,2.00221854644311,2.04883752855373,2.04370573994248,2.04166594641749,2.04182341876218,2.00445544867048,1.98841522811305,1.96126490857307,1.96185031207287,1.96144056548844,1.96111803627697,1.96021515763431,1.98667407314686,2.03510832805024,2.04800825113578,2.04732731211492,2.04979183819733,2.02913251095408,2.02886773017061,2.02839015429874,2.02906409653043,2.03374406722421,2.03342145230119,2.04798979411155,2.04896697386732,2.01797626326615,1.98102073880981,1.99023483608495,2.04369198906055,2.04338685551997,2.04339908099981,2.04121136573313,2.04034174256941,2.03923875280507,2.03831175155128,2.03434350266952,2.00351391428758,2.00184985906358,1.97454640321485,1.96897777300933,1.95602277232847,1.9581530761697,1.97309890324276,1.9919357173526,1.99233420100491,2.0323063965813,2.03322678883695,2.03269133303616,2.03314005135599,2.0319665773732,2.03168204723146,2.03251888701342,2.03489507847314,2.03479209168311,2.03256584068052,2.0294111419396,2.02499096573516,2.02232392358308,2.02139143863958,2.01826053461842,2.01673239981709,2.01589330597402,2.01571912284078,1.97137073342566,1.92903536429713,1.92862642448705,1.92799276996782,1.92643771314986,1.92513206246441,1.92356246265299,1.92197138978655,1.92071491758092,1.91998905608158,1.91880490220146,1.90227860050799,1.88185760470405,1.86128952173743,1.8608869881841,1.86029307280917,1.85967242153578,1.85992546252393,1.86802766701806,1.87952083893382,1.88943221662577,1.89860901051412,1.9100750607581,1.9247581671325,1.91154170318272,1.89899491386738,1.8889846069214,1.87970887780021,1.87009666849756,1.84863936881841,1.8482444579169,1.84758963960423,1.84678289934881,1.84617686412157,1.84539637980573,1.84547638946077,1.84468428316879,1.84410223979134,1.84258523462049,1.87384713868147,1.84233833960287,1.84266165560161,1.84226260783244,1.84180835360789,1.84078348558107,1.83945184014991,1.83748783678042,1.83571841418226,1.8336588912593,1.83349709783101,1.8346630834443,1.83779823661987,1.83874117162573,1.86742094080186,1.87970750699296,1.89557028661151,1.76622651276121,1.68859659535248,1.68727721406716,1.68635366756636,1.68066305420201,1.67932271228388,1.67726755868872,1.67598415128954,1.67616375170121,1.67731354743294,1.67829243193047,1.74451995789842,1.72859686678811,1.71036637441638,1.6701469788637,1.66964075658002,1.66853189363592,1.6675805145189,1.6654741857162,1.66463730641968,1.6639184928093,1.6637634881111,1.6637860228757,1.6638865516312,1.66324525276307,1.66299584561708,1.6622963339845,1.66208607123232,1.66172456389052,1.66169763336955,1.66046546781516,1.65948692215648,1.65887073959105,1.65958114650932,1.65918259411985,1.65992296801979,1.66101802429243,1.66290988739362,1.66314422049416,1.71161571638906,1.7940935518245,1.79446188508096,1.69395575345381,1.66629510194119,1.6671658466429,1.66741589623183,1.69015439340827,1.6975914047446,1.70668764614299,1.70400827389464,1.70192359614411,1.69616910006981,1.69303156865041,1.69076205408872
2.00516745533173,1.97253133225776,2.0013182841967,2.06514434129388,2.0478289416545,2.0429386909151,2.04089719579368,2.04030150455424,2.03896312053022,2.04068841073027,1.9597969049471,1.96192806371951,1.96101167709814,1.96096577289577,1.96020562300668,1.96159593713153,2.03495493275939,2.03576887591573,2.04541296920284,2.05300481960229,2.04867271625694,2.04682791392238,2.02889000884679,1.95975968989165,2.03394220050959,2.04255817161936,2.04371799200377,2.0481230224309,2.0167932411711,1.95564593009864,1.98536148656726,2.04961022795893,2.04629493600985,2.05042088365075,2.04110835928065,2.03461569364909,2.04024335301103,2.04880158276789,2.03757942251506,2.03860778459415,2.00114120828092,1.94901635178138,1.95481750149291,1.94609693437324,1.96381482832406,2.03133511479489,1.99143185661966,1.94543107476895,2.0337604607851,2.03297646558711,2.03113020415266,2.03876974980628,2.03046652517573,2.01763716209635,2.03269675645969,2.03549440539987,1.98318124452575,1.93827142883516,1.97101640251905,2.02295676290314,2.0220713060051,2.035850194,2.01635850015748,2.01425325443697,2.01465076263058,2.01521459024551,1.97026985580808,1.92844885040776,1.92782241628289,1.92719535579593,1.92557851093093,1.9241127390176,1.923132077769,1.92263829570408,1.92139067536274,1.9217083393577,1.91933373983621,1.8619362758818,1.87563101610382,1.86139989481054,1.86046698023405,1.85983227264954,1.85818755106136,1.85638018076603,1.85482146824846,1.85374301761534,1.85238950875782,1.85104314135915,1.89115945133231,1.95582261881635,1.89531560661502,1.84742885482559,1.84791439056044,1.84949647065274,1.84884730785866,1.84903201577556,1.84838192517874,2.03142326167742,1.84614195665281,1.84541871147823,1.84440842549796,1.84483793077894,1.84369440239965,1.84422640665495,1.84162613731856,1.93526480693606,1.84252076324883,1.84336395709782,1.84205779893229,1.8414581311623,1.84062213244657,1.84030223499894,1.83833459993202,1.83807127676819,1.83490411261071,1.83553197484893,1.83533145160032,1.83866845306148,1.83827476082286,1.9321894601456,1.89559180766865,1.93091622739795,1.76538667781114,1.68723885517757,1.68651186231998,1.86580506350302,1.67894594195808,1.67921742551966,1.67656352647231,1.67532196021425,1.67451357193683,1.67462444399468,1.67851790225268,1.85439493926451,1.74414542027265,1.77804015099585,1.6681053461939,1.66820818069705,1.66720327458353,1.66382050093315,1.66425419037565,1.66433511285617,1.66350584890791,1.66268656672017,1.66304871698823,1.66342913706638,1.66288691065838,1.66284009160434,1.66194266374426,1.6610872471239,1.66083155596516,1.75400543416175,1.66017742239724,1.66075346649909,1.65933515829289,1.66023316896848,1.65957461932589,1.66076571711066,1.66098926669542,1.66262174080731,1.66211341405559,1.84014452658895,1.79446188430942,1.83672638636642,1.68894205977618,1.66534840073407,1.6664589802228,1.66602777631155,1.68185643282699,1.66483996129143,1.70991965501349,1.7180317344599,1.70084874151757,1.67049100622998,1.68024928286872,1.67243344826873
2.00902304675348,2.01339103624966,2.01686078243087,2.01784316820868,2.0306345471327,2.04062291549306,2.03941058505143,2.03893868587328,2.03716884762059,2.03823185725089,1.95847857172309,1.9596377143132,1.95975197251773,1.95970882733996,1.95882314133754,1.986242756088,2.03514391082072,2.04299528990401,2.043619678614,2.04377644868885,2.04726607671924,2.03314380050657,2.03344183482367,2.03381984078516,2.0340911613984,2.04190478939236,2.04158668327083,2.0417696452078,2.01627236777167,1.97281767353609,1.97763426514976,1.98615738653448,1.99346484164775,2.0410015419864,2.04144188863535,2.04232047747489,2.04185924517737,2.04398334407703,2.03784948658308,2.03811434334551,2.00067635408115,1.95331117686513,1.9584152628766,1.96419412343063,1.9682600568726,1.97650743239378,1.99119363669217,1.99149211615065,2.0333050057137,2.03109641388856,2.0288158536383,2.02766071873738,2.02902305515224,2.03124992975521,2.03196160799661,2.03316642934653,1.98002716753352,1.95456935014527,1.95838506310113,1.96677337298458,1.97334507255984,1.9760329452284,1.98231189630429,2.01339769669481,2.01341903531058,2.01397598108219,1.96826626941803,1.92724639049502,1.9268648714517,1.92608336774145,1.92488387030892,1.92389020656418,1.92288998147612,1.92227507931851,1.92130007875493,1.92030733707628,1.91901113615155,1.9041589147833,1.88979479561956,1.86018900734595,1.85954152654995,1.85839330553832,1.85708378104412,1.85577493978315,1.85448957549936,1.85343368109444,1.85204616958996,1.85040771307856,1.84808915340751,1.84620045751439,1.84445812408846,1.84548135822657,1.84686852143873,1.84801252921789,1.84791103946997,1.84806604286639,1.84769046766907,1.84689079210592,1.84593861396571,1.84469030009026,1.84358345350712,1.84262504860578,1.84191070287623,1.84132090948353,1.84005266475216,1.84066803105309,1.84219282440317,1.84315784478834,1.84161260717099,1.84076245650827,1.84030410218806,1.83979249898284,1.83837255062149,1.83659798998438,1.83441937215624,1.83389463947929,1.83446358492863,1.83620522344877,1.83668213145724,1.83600486615381,1.8353187116456,1.83523017430351,1.76449467258458,1.68432881405272,1.68188915843255,1.67924240586247,1.6778439669712,1.67737882122265,1.67443508591173,1.6744453682833,1.67356603291841,1.67237290236543,1.66905448867302,1.66726198488786,1.66561173547982,1.66574786977205,1.66632049177909,1.66649832376867,1.66542887593732,1.66402160232376,1.66348315421996,1.66358379526564,1.66273567054862,1.66239057598852,1.66197439973398,1.66212357208747,1.66190294511574,1.66216257529238,1.66163627669236,1.66083187170976,1.66001156177677,1.65873456036033,1.65818401250464,1.65884753510119,1.65852022083991,1.65876797361099,1.65898653299285,1.65975032006279,1.65994957122129,1.66055008662782,1.65940056466648,1.65840354476423,1.6570925255323,1.65739368793,1.65831015002185,1.66100345763001,1.67924872067436,1.68648541347234,1.69257909353103,1.6980427491615,1.71305640645414,1.71409102892895,1.70057412436748,1.68168947207537,1.68712321504049,1.68885361470745
2.01196278295979,2.03778942541564,2.01900698146732,1.96927934294712,2.02952613062288,2.0402197694712,2.03929725240797,2.05510359631881,2.03666180438423,2.03820746331328,1.95841693369729,1.96042844645736,1.95955887575327,1.95979811150774,1.95808352735518,2.05961067589066,2.0354314717732,2.04677642828645,2.04429601932485,2.04446589874641,2.04615775684307,1.95980880481101,2.03309887420221,2.05229758504872,2.04505780671528,2.0447742141623,2.04207636252209,2.04202898942541,2.01652600009268,1.95831120644093,1.97313726047002,1.95479434944942,1.98205104420197,2.03456573779361,2.04212546382708,2.04517841682932,2.04335834414686,2.04557977824937,2.03925229826456,2.03986063939464,2.0003855370287,1.94812465007334,1.96531135151595,2.04056115516628,1.97406046663945,1.94497064886161,1.99073970058418,2.03168691593976,2.03187044242832,2.02685774970944,2.02700737171903,2.02593123996078,2.02674558843993,2.03404502347714,2.03274532107061,2.03345587119251,1.97684136736416,1.93901571686656,1.95510151738574,1.93488254948293,1.94956925614129,1.93319797823958,1.96525082464731,2.02352721815086,2.01304117751599,2.01422744076094,1.96442878532938,1.92638671230801,1.92616369328108,1.92560615802358,1.92446221456109,1.92423229147132,1.9229487350313,1.92280895110917,1.92193999460792,1.99968058986883,1.98674971765098,1.99907335578918,1.89975695408751,1.85937285031087,1.85864069253187,1.85710627489876,1.85625674170765,1.8554861972475,1.85415732182254,1.8533579248357,1.85215990049562,1.8514828469657,1.84907606751254,1.8492395654253,1.84608013269949,1.9502106005738,1.84673424809151,1.84779109671998,1.84685621857272,1.84765278262898,1.84739904230915,1.84691846183822,1.8460942199229,1.84521298238501,1.85376780775525,1.94225779295005,1.9068563126138,1.93629318743136,1.83977787191834,1.842253927982,1.84281812047803,1.84565229444329,1.84038216394143,1.84012733030808,1.84007116027133,1.84060834068467,1.83922387691602,2.02063995971467,1.9003527143395,2.0275741811403,1.86090022868816,1.83642441828085,1.8361650994071,1.83622930664338,1.83553585465535,1.83608936695076,1.7634242000366,1.68378722377745,1.68053815414571,1.67870726941228,1.677539933641,1.86110389643479,1.67356525172219,1.6751335481103,1.67316828111594,1.67039649508819,1.66861097950529,1.66886902323353,1.66615698470933,1.66689096411526,1.66609065944916,1.66656050687853,1.66475645613723,1.76477894202644,1.66279504217882,1.66349149695328,1.66236339559055,1.66176073956919,1.6612284129029,1.66086144701335,1.66071011163947,1.84711792440682,1.70346534393849,1.66071698862679,1.66005308976279,1.65837841536851,1.65745973613747,1.65819371504817,1.65764597943799,1.6574135655442,1.65829254196728,1.65942049915116,1.65894839574985,1.65873485258573,1.65896021440839,1.65996712769008,1.65808777909075,1.65944026653192,1.65881271239004,1.66051331020465,1.6797647879968,1.71352738487197,1.71500645202326,1.81244681727864,1.7150236674134,1.7145592622419,1.70114238532299,1.66500646158646,1.69211732025543,1.71684454293088
2.01039958333906,2.0144344800242,2.0200081989763,2.0240800849768,2.02790021272814,2.02804028959128,2.02861176508208,2.02918430463265,1.99807540175128,1.98405785252997,1.95875300108129,1.95939723815736,1.95876073041078,1.95836141454658,1.95748871076366,1.97785716670537,1.98510439142459,1.99367268189109,2.04586353461399,2.04575621677947,2.04386359862433,2.0444474527204,2.04668591993793,2.04896586754349,2.04595905531007,2.04393052653271,2.04174374952803,2.04094710692436,2.01695692836909,1.98567418481646,1.98063896537581,1.96780771200153,1.97130544831873,1.98035116236051,1.9865933789457,1.98783338912598,1.99385245672748,2.03510928299025,2.03642935283195,2.03813791117993,1.99951158664118,1.9814900881374,1.98280507060345,1.98396555226545,1.98450656580076,1.98322437390325,1.99036912367221,1.98983110325369,2.03295714404908,2.02973557231783,2.02699752422201,2.02598173932163,2.02526306420406,2.02507160676108,2.01615091617329,1.97723020508045,1.97094696040212,1.96640043297108,1.96110387827458,1.95490055569332,1.95052980199501,1.94214793427251,1.94342873993025,1.94662315922917,1.94997845372469,1.95457487979217,1.95944095170207,1.944805932324,1.92488207230485,1.92428224670105,1.92357200915536,1.92290627840008,1.92240952412146,1.92225565035253,1.92192199211796,1.9443448081428,1.98658953697125,1.98673317830056,1.91434751978061,1.89472951629913,1.85631843860087,1.85661623722565,1.85566198273299,1.85470058170804,1.85365977049586,1.85287534329556,1.85185189169555,1.85083986853094,1.8494247700623,1.84889125842919,1.84741686913868,1.846986279365,1.84601763097985,1.8457693281232,1.84479171751272,1.8560214717713,1.85507049537438,1.8539575088027,1.853475540681,1.85376385770924,1.85446308930377,1.88757711873853,1.89578570926768,1.90539229220264,1.83927622724361,1.84052738269463,1.84125613541861,1.84059771395624,1.84001700304861,1.83984635925244,1.8396470841845,1.83962616850449,1.83894502126878,1.86875136005486,1.8826786737809,1.8919889791023,1.86648019874703,1.86064562417363,1.83521449145365,1.83546866825306,1.8351280802839,1.8352648568702,1.76237646274342,1.72581289419061,1.67754791155055,1.67665194249333,1.67439525747425,1.6731795963667,1.67231125348981,1.6725152759756,1.67117820591429,1.66821874319368,1.6672158456157,1.66639409713396,1.6649245181993,1.66547991538106,1.66524045880438,1.6647430420165,1.66292183234751,1.66163711440628,1.66139761223331,1.66167087829966,1.66099040482752,1.660861049648,1.65996784783339,1.6597007375968,1.65931478400896,1.74381419256392,1.72547770991884,1.71301851305181,1.70117221465028,1.68975457533723,1.65553881558266,1.65625476721609,1.65641659834663,1.65699788248771,1.65726833831301,1.65781880674724,1.65769040233179,1.65764924522984,1.65778467760876,1.65802228160603,1.65755097763139,1.65807275653301,1.65851603475277,1.65967170248416,1.68031588831935,1.7136901624603,1.71565724205966,1.71687918098593,1.71608396776387,1.7148923129108,1.70178873760512,1.68327830106211,1.69813177734914,1.71701863641683
2.00445649858238,1.96969083352187,2.02432560700316,2.06106999650142,2.02981393156477,1.96549905954416,2.02720465928879,2.03939565749728,1.98614611889906,1.96215990110548,1.96021963419821,1.96100047594021,1.95897186705652,1.95857907798213,1.95809684108441,1.95919340415075,1.97504439112162,1.95880997235349,2.04453946727401,2.05057072338238,2.03992930081893,2.04122956551381,2.04505537081663,2.05073665898166,2.04702221747633,2.03034500551561,2.03844319480025,2.03949321859085,2.03729310390762,2.03699878749217,1.9863406862279,1.95349172607161,1.96906333278582,1.95195439803734,1.96031645942409,1.94966244476825,1.9773464962941,2.03014332413643,2.03678451968096,2.04043718474538,1.99882293286404,2.03684919200199,1.98302089431051,1.94361910757179,1.98550676115823,2.02423439370225,1.99116784964456,1.94206190569465,2.03361679494577,2.03291109022782,2.02693836672972,2.02628735151255,2.02524934155244,2.02629718869314,2.01584033681126,1.93755643831035,1.96446082730797,2.01769193619897,1.98230133812425,2.01629138017656,1.96643025037939,1.93122936713679,1.94232783081538,1.93098457737882,1.94908842484485,1.92808570778623,1.96520182494725,2.00017029477177,1.92417929916018,1.92391600345906,1.92284700164403,1.92198224313873,1.92171960345392,1.92219182797188,1.92144327249789,1.92123657395327,1.98640582350693,1.99494024640837,1.93250066956937,2.02395036485855,1.85617101542838,1.85724135220188,1.85791188658689,2.03724095592435,1.85778092805331,1.85305334570621,1.88690863396315,1.94591099170676,1.87943576953023,1.849790740859,1.84838451558108,1.84818823172704,1.84561694281923,1.84565620703685,1.84352512925103,1.89500400330406,1.89426218892852,1.89447983667923,1.89451268267001,1.94314905597142,1.85592379650636,1.84496076348578,1.87937892177443,1.93805612491655,1.839066776298,1.84056317019599,1.84052009904669,1.8393788350363,1.83965330605125,1.84002310816876,1.83926603113845,1.83964976999742,1.83812273948926,1.83748742705558,1.87031925641999,1.91769419548759,1.8738170789454,1.88461930895157,1.83425864434852,1.83592248923633,1.83502802477803,1.8813091208433,1.78359178072835,1.78173982708129,1.67633643981013,1.67687814850261,1.67463215552728,1.67399302196426,1.67136082823187,1.85725481589768,1.66871334158552,1.66779146843646,1.69004751493209,1.85113350461093,1.66368461737245,1.66602185396987,1.6654219114635,1.71302692870776,1.66140737734842,1.66083264950527,1.66043514182499,1.66048960004533,1.66017332884836,1.6598301738028,1.65916817803516,1.65848269085912,1.65828950219292,1.84682410146505,1.73950628199636,1.75548434145119,1.76873296566492,1.84226005176965,1.6539380695859,1.65527938825137,1.65506286259934,1.84073217247247,1.65629913384263,1.65677401425246,1.65657858101922,1.65616298524995,1.65676323834058,1.65700583124821,1.66029923890839,1.83431703824396,1.70770423769194,1.66030631580443,1.68142947848775,1.711214520697,1.69969038053027,1.6621367914463,1.69895425964789,1.71321273089589,1.70163851411738,1.66445799197929,1.70365758577533,1.71629841341864
2.01818039920306,2.02269475590541,2.02648200468523,2.02958403528743,2.03058701662432,2.02734003299123,2.02700833306269,1.98644532534162,1.98062342342312,1.96074356649178,1.95981903467374,1.95950751479322,1.95833237682365,1.95810421153018,1.95817969700705,1.95879892437798,1.98301940194578,1.98809645553635,2.04014148550394,2.03613515822013,2.03337164201709,2.03108635423679,2.02961010619894,2.02925555715855,2.02906190129099,2.02919724471885,2.02923644091014,2.0380980458109,2.03716729598981,2.03349770611903,1.99525306265169,1.98759659944472,1.97990884351141,1.97467846516963,1.9673970115619,1.95597562591204,1.95685147550321,1.95933671444509,1.96296515818333,1.96773934697841,1.97285873908628,1.97731258203725,1.98335037983569,1.98456187305769,1.98667923295819,1.98964693816123,1.99208276861641,1.99321814757971,2.03262564178681,2.03121476993421,2.02709312890857,2.02513726838165,2.02461503766553,2.02529231666469,2.01568182414886,1.95171089845211,1.95808842311157,1.96728806241127,1.97573077384544,1.98904825514505,1.98969110027982,1.99196897443941,1.9928869569788,1.99311639898328,1.99302857037231,1.99233240343263,1.99108594229598,1.99008324755988,1.92346391120692,1.92305423770687,1.92228271077842,1.92136092396539,1.92090243769838,1.92063179562086,1.92043134683544,1.94210796039711,1.98671866682424,1.98691613487777,1.91569126134182,1.90057034449335,1.8569106966004,1.85768473768072,1.85817483483351,1.85862746530985,1.85868835586021,1.89690005804089,1.90481786691893,1.91625193119188,1.88487964092979,1.88114021679599,1.8774661557148,1.86957392621269,1.8437083072695,1.8437690234021,1.84228249054679,1.89419345450971,1.89393616238347,1.8941489002212,1.89438571204114,1.90784995707081,1.85668719699733,1.8430212493807,1.84157580847788,1.84090142884107,1.83988199759117,1.83981731575084,1.84014053887242,1.83977694888309,1.83926450849567,1.83863757568989,1.83813000941721,1.83792690645591,1.83672493349494,1.83471077914237,1.83129813925871,1.83056030583149,1.83023246898456,1.83097832949666,1.8321164946081,1.83153541691523,1.8299957512724,1.82939200246646,1.78479033864402,1.72172644292544,1.6755078439077,1.67505102608807,1.67387542360488,1.67202682166459,1.66911956056696,1.66763607140143,1.66728466972634,1.69249074538061,1.70151561253471,1.70400979449292,1.66164142018618,1.66242253573644,1.66113899001122,1.66055170318515,1.65978341974662,1.65940622668312,1.65863177333401,1.65858822234228,1.65785892185769,1.65757523504603,1.65748743155707,1.65781079542756,1.65740539139821,1.69771688063124,1.71692953858414,1.76873296566514,1.78461310345515,1.80145413940086,1.65245239462491,1.65355529270519,1.65386966539925,1.65432723343077,1.65492432048539,1.65538427575967,1.65541552363385,1.6556033318402,1.65573098545206,1.65603015994165,1.65895625429162,1.74906100256704,1.73101679036118,1.71404401091327,1.68305454213496,1.68518739350637,1.68809342379898,1.69168328337566,1.69543285192777,1.69847545970361,1.70035094040367,1.70026292931206,1.70869667734753,1.70966492246561
2.06151714221094,2.05727657672138,2.05904136821853,2.0575136313983,2.05703653128031,2.05812866907238,2.02643332849631,1.96179172132988,1.95934191987949,1.9605702607006,1.9595392020195,1.95952582938094,1.95817067077116,1.95809618991263,1.95842312091841,1.95932445278591,1.98786376626233,2.05425330425249,2.03908460093251,2.03414797978914,2.03226395475983,2.03123711394911,1.98393699251647,1.95702275915208,1.9577002770307,1.95640070305491,2.02892878975173,2.04422677183426,2.03743026172032,2.03112196893068,2.02085162677049,2.03786777820011,1.98910861469794,2.03020879351812,1.97289430322926,1.94976078223333,1.95576481625868,1.94775373341364,1.94551127727735,1.9452689852383,1.9444667834874,1.9448628221051,1.98289707657639,2.02687880017813,1.98759796519965,1.94185613342916,1.99311805072029,2.02366067718961,2.03148225329349,2.03209755352367,2.02602305199493,2.02399025881224,2.02488109981682,2.02654742549784,2.01594848117994,1.93850698073952,1.94461840073797,1.93618546682992,1.96501373801836,2.01659499721638,1.98913946319352,2.01642150037285,2.01569645054983,2.01719699439336,2.00860904615459,2.00948518089179,2.00945042426993,1.99863888723972,1.92310612197832,1.92302085962453,1.92166427793886,1.92092559954644,1.91981264589151,1.91909907121394,1.91905103506414,2.01701614343291,1.98691964850291,2.00848548402369,1.89839300266025,1.85967239710865,1.85767890900084,2.04698608349286,1.85824007751802,1.85355360010771,1.85980263008258,1.95780102656938,1.92257315608782,1.95676285217514,1.90040482800845,1.89805957182481,1.89796591805227,1.89722237735864,1.84339138292475,1.8451562038246,1.84217085197815,1.89435981267151,1.89391840489227,1.89407431495057,1.89434947836066,1.94102373679179,1.85683733212818,1.84250695682861,1.84112217704754,1.84185969517248,1.83958687618733,1.83856802749358,1.83940521938154,1.83970200828034,1.83896670522454,1.83713857313941,1.83707770442666,1.83765087984083,1.83687439023693,1.88446282105147,1.83124744129292,1.83227622036266,1.83131754550539,1.83245894350863,1.83085669544941,1.83013874901894,1.8294207920793,1.829907290598,1.78523634756353,1.67775826369954,1.67584250195108,1.67416823212161,1.67413319821293,1.85676511099474,1.66712623983681,1.66761302864708,1.66646085651549,1.7176889909801,1.7069971355328,1.71476016166424,1.66008522620366,1.66157250007961,1.66065031125285,1.66042350339097,1.6591971341228,1.65796570856881,1.65786641497381,1.65751312554289,1.65721202615732,1.65636822324342,1.65688324317356,1.65708353795692,1.65575326471261,1.65526956621326,1.69669219861722,1.83940996923454,1.80145413886043,1.84450290022511,1.65191881812339,1.65356560196202,1.6532030327676,1.65433362049635,1.65405920342573,1.65414968699374,1.65437974517277,1.65466706261509,1.65454224106335,1.65387512466487,1.65706271602549,1.83322904397958,1.82928305175895,1.83129459656136,1.68301863615817,1.65836606282119,1.68837605747231,1.70870786410196,1.68811835445095,1.65939434363481,1.68471214728546,1.80593374206954,1.71238424949349,1.726190398127
2.06229564217565,2.06084599429497,2.05920285493963,2.0577784613078,2.05662948139525,2.05701621735879,2.02616291593401,1.98595151370385,1.95742837907247,1.95843890217339,1.95862834108066,1.95845490429943,1.9576466063906,1.9573700922131,1.97173900344022,1.98126400261543,1.9956017282676,2.03839619845067,2.0400465254162,1.99390781582024,1.98798959604293,1.98283749014984,1.97571642110591,1.95757990731785,1.95801392118111,1.95731943750477,2.02868521315415,2.04250964828389,2.04063605912387,2.03893139752609,2.02125348722051,1.99135747463498,1.98790920682366,1.98414820524642,1.97750154999945,1.97335236610774,1.96580369305072,1.94541841188582,1.94463969310339,1.94432569837927,1.94428238212113,1.94413174325367,1.98434629445281,1.98818440421405,1.9878330351801,1.96664613620383,1.99432616680887,2.02915709036476,2.02970019448317,2.02936373662889,2.02704433143862,2.02485417642223,2.02550464896905,2.02610305293374,2.01632584414665,1.9658092241376,1.9474640525813,1.94596570010128,1.96004500984252,1.9662602311007,1.9892147771122,2.0145532871009,2.01320021051002,2.01093238947991,2.0089027893019,2.00899290831603,2.00941576715014,2.00993313192247,1.92321348749625,1.92149712982098,1.92076351423913,1.91972324782257,1.91912120196076,1.91848912657051,1.91796835399479,1.9172405422139,1.9165046420815,1.8976014433598,1.88501304270927,1.85650090338646,1.85387468160929,1.85163669916563,1.85099978546036,1.85180808011047,1.86088054528404,1.89896836311902,1.89921676266624,1.89961503952566,1.9004109294109,1.89934793601387,1.89839602434472,1.89760419683528,1.84288666684616,1.84327426950616,1.84162416528646,1.840463005183,1.83971229581586,1.83994890519436,1.84006067183317,1.84079256492082,1.8412991412274,1.84025479572146,1.83935446610201,1.83885367156467,1.83763415908575,1.83733542802427,1.83809724253609,1.83890255486486,1.83995355395622,1.8405823481833,1.835591245768,1.83555777093634,1.83384979016671,1.83273304511054,1.83146111638984,1.83145147514623,1.83117538474733,1.83104001007365,1.83005026438515,1.82918484424837,1.82840561776812,1.82798489578614,1.78530477055441,1.67637828604817,1.67556079061294,1.67241903178622,1.66995661836061,1.66812178388823,1.66618036602859,1.66494289188854,1.66190334112028,1.65993398706206,1.65878076400681,1.65839775112198,1.65844849181603,1.65926879936701,1.65940893117993,1.65929191921053,1.65811438449767,1.65759666347476,1.65644801675128,1.65613552472686,1.65563231217907,1.65579754071958,1.6549024403756,1.65417482385285,1.65374700644772,1.65327203347316,1.65152221808767,1.65040895016869,1.64916595919065,1.64874921188101,1.64902028334996,1.65082373401478,1.65155701806694,1.65274533394081,1.65269667946807,1.65303343629295,1.65294268065329,1.65317004459042,1.65330493504191,1.65307718573055,1.65574348084,1.82716181199263,1.82699184253011,1.82563358015328,1.68306446923294,1.67524931071884,1.68200141790991,1.68952610094101,1.68160493126105,1.67144669361857,1.67909598870588,1.68390933379002,1.68956609023505,1.68923245087821
2.05964181394585,1.96593990405539,2.05521396108543,2.05807712615304,2.05697540210834,2.05746847726398,2.02609366508081,2.0485923155745,1.95711316916069,1.95894108150935,1.95863639613116,1.95846626123072,1.95766669379009,1.95714109443547,1.9796076811152,2.03049777725774,2.03069485260869,2.03316545856351,2.03645484304101,1.95629249995427,1.97891144145598,1.95409864654198,1.97070463402508,1.9560476078681,1.95720014446617,1.95593296707639,2.02894246994819,2.04531950869643,2.04519516729725,2.04475131310941,2.02220377399979,1.95152283219771,1.97534288476998,1.95023982498804,1.98264897874167,2.03688836839423,1.97666294709234,1.94524476439596,1.97522611756087,2.04007145026334,1.97528888445243,1.94227721598416,1.98486875266306,2.03424396191835,1.9875299309854,1.94101386656579,1.99536536190739,2.03666109751891,2.03285709680002,2.04130469110016,2.02954929031304,2.02102749827023,2.02695228190143,2.0297844595834,2.0277370568655,2.03082575389444,1.95218438215407,1.93181461484358,1.93021901464812,1.93131037322794,1.98922791671732,2.021384963151,2.01182321823238,2.00565872088638,2.00807265883512,2.02307869222152,2.01461779172769,2.01768726851978,1.92369851760638,1.92064842385127,1.91976585170795,1.91893949971568,1.91830988548032,1.91886527826959,1.91750987611918,1.91756628840398,1.91746345442814,1.85925514022755,1.85804608939447,1.85703335888883,1.8549292667641,1.85209151950314,1.85130290103275,1.85231549912478,1.86185887151439,1.89853104013318,1.89862410250244,1.89800966090184,1.87704635782849,1.84670310977377,1.87048885287937,1.96835906427677,1.84340688559257,1.84487000917172,1.8424173871206,1.84233357253477,1.84145555646279,1.84214318137299,1.84161777420955,1.84212106262522,1.84023625650362,1.83942160197235,1.83820446919954,1.88954599617899,1.87065165673129,2.01536094086097,1.88768120800486,1.93541171840695,1.88468075617517,1.93156263786984,1.83456013641326,1.83541750523928,1.833606281998,1.83298880042358,1.83149668272941,1.83101053224265,1.83053289421466,1.83017839471017,1.82917070605401,1.82828383860699,1.82742711407523,1.82675789647568,1.78523848111391,1.67579754796224,1.67583796696849,1.67131178086963,1.66922576458243,1.66885031877889,1.66626881646938,1.66513170401508,1.66250164628508,1.66135146559807,1.65979863043289,1.65981182206822,1.65819784942456,1.84304357961435,1.65851612365216,1.65860814851069,1.65762846589815,1.65701208815508,1.6557786756113,1.65450267779078,1.65486305005981,1.65490317365421,1.65405665464964,1.65270612479063,1.6527743630954,1.65250767995076,1.65150410233864,1.65172115418414,1.65023301031761,1.65030608462934,1.64952821978831,1.6504192005298,1.65031313934217,1.83568821197219,1.65138724453109,1.65218916030133,1.65144788447755,1.65144174459536,1.65220107254484,1.65160663126453,1.65577039886791,1.82848787787681,1.82669938903544,1.82553514727147,1.67998973561497,1.65279785634742,1.67591550821308,1.82656990667944,1.67443397891372,1.65768860783988,1.65744823334523,1.65731324963871,1.68108208265015,1.66092232232641
2.05454928425357,2.04882122140908,2.0475215084629,2.04270463795074,2.04089980600955,2.03938935488135,2.02609967706947,1.98638009843979,1.95731097626242,1.95818045202926,1.95848535832796,1.95815638646267,1.95764262808382,1.95710880230937,1.98378851992282,2.02943810946613,2.02997849161119,2.032254910662,2.03326693057897,2.00647185868757,2.00695739413798,2.00769116066065,2.00838936927042,2.00888214935031,2.00916466289983,2.00929280181559,2.02939789861142,2.04566643688468,2.04673051719482,2.02434446360498,2.02356791892037,2.02303774579729,2.02304755764286,2.02366793147159,2.02422398828474,2.02315889910153,2.02339557284418,2.02410329269371,2.02499234346319,2.02677014613006,2.02761289829889,2.02810388886746,2.02837081749325,2.02927813153341,2.02942684744991,2.02963930741172,2.02981144155793,2.03216872467279,2.03144842428486,2.03108057536442,2.03010844039815,2.02716447975339,2.02706661066903,2.02729151109605,2.02508682486372,2.02436009180307,1.95839419850423,1.92981654379798,1.92881798548389,1.9578682302282,1.98942782817638,1.99023114887824,2.01094844961559,2.00854755771694,2.00816265284441,2.00765883647254,2.00773281130472,2.00779877896324,1.92450197711224,1.91944530712248,1.91903213163961,1.91812166861533,1.91760995337146,1.91711861752137,1.91705601694889,1.9174689427845,1.91791652724191,1.85830529688975,1.85760873432358,1.85658508271037,1.85479563495814,1.85281579961614,1.85147756345252,1.8517558800899,1.86290488615014,1.8870489718634,1.88179248862243,1.87489244076916,1.86715632826971,1.84397580883117,1.84203740996167,1.8411924587677,1.84122078405309,1.84233305741212,1.84207864925529,1.84183517561807,1.84162297345136,1.84166140790552,1.8406169416727,1.84067422606867,1.83936451971733,1.83830181326802,1.83735304228559,1.83709665642757,1.8371304256266,1.83717744281479,1.83720711663009,1.83720382761185,1.83717525502444,1.83714612430458,1.83307395891678,1.83313922557041,1.83235189918442,1.83190021847309,1.83060936866872,1.82976390918323,1.82930398891961,1.82910764191955,1.8280621318988,1.82724469328096,1.82660643910628,1.82638606739741,1.78509918664304,1.73536639047576,1.71676951089775,1.70188515720407,1.66693970360904,1.66649846899364,1.66538772889967,1.66438465086658,1.6624939117547,1.6613526784086,1.65968126448351,1.65887079304786,1.65789662757622,1.65743094843397,1.65724248078542,1.65720462132687,1.65605165390281,1.65541164253813,1.65377559630145,1.65271353131445,1.65289583834911,1.65334041217881,1.65245542963721,1.65216068256742,1.65145752299459,1.65146963883766,1.65046024671522,1.65061279310605,1.65033828271922,1.65024428986982,1.64970541901308,1.64981592788511,1.64960266785262,1.64956577468596,1.64967454961682,1.65019992906756,1.64936403557646,1.66049602051546,1.65974152460862,1.65845731394248,1.65705263758161,1.65708038648599,1.65792578164324,1.65940654561282,1.6608595131129,1.65107202619289,1.64997657198515,1.65049814701801,1.65234531696265,1.65568419204572,1.65686787667221,1.65690054424966,1.68828808725863,1.68792073522751
2.05010805469761,2.04290232109321,2.04358550395993,2.04005946246038,2.04124652490759,2.03556390292477,2.02641046933901,1.96069354288726,1.95844766513776,1.95865752265734,1.95845476532784,1.95751347640684,1.95729760714133,1.95625149258702,1.98999584821455,2.03029544084409,2.03027676347839,2.03609032251839,2.03368211142698,2.03022902136371,2.04282638216244,2.0434280167331,2.04276530313269,2.05071261200918,2.04583787359073,2.04779735373991,2.04054987867396,2.04231994575542,2.04520281077208,1.94969150813077,2.02449136771021,2.04239710552255,2.03365953433337,2.03490404657159,2.03948591660973,2.0449782933908,2.03478063234778,2.04725052414045,2.02533044955322,2.0256614172747,2.02755052350984,2.03938586339923,2.03687410953877,2.03616767061064,2.03022726550178,2.03357893790878,2.02991502440707,2.03229225865693,2.03125046505344,2.03246078825691,1.97048543823048,1.93809509766079,2.00370881117751,2.0403996284594,2.02290394295655,2.02307388742664,1.96443864403068,1.93004359023754,1.9283902282368,2.02653600674607,1.98899491068964,1.92860481607275,2.01376934231523,2.01643595625915,2.00895619548532,2.00329592964247,2.00334438370125,1.99332422964912,1.92551042736738,1.91856446100761,1.91830754641903,1.91783248125354,1.91684036415416,1.91665061425861,1.91646053366869,1.91742724844631,1.91802045948689,1.85773521976555,1.85714190896948,1.85673006506741,1.85493650655994,1.90260149038074,1.8503308980164,1.84984632728073,1.86395569261054,1.94822239866786,1.87255502632356,1.8463419990037,1.84460877412057,1.84385467039583,1.84207216054129,1.84165933289842,1.84117986243062,1.84197001359842,1.84142127611629,1.84106196137552,1.8406422523258,1.93781127243135,1.83801626179217,1.83679588344282,1.83725734698413,1.83801777555369,1.83575789150352,1.83478152305662,1.83390098482859,1.83396663502121,1.83371844185942,1.8350790408976,1.83477633574538,1.83363475304959,1.83201684743306,1.83207456589948,1.83131256253931,1.83211982035503,1.82973357190094,1.82813958179942,1.8282230814397,1.82882248943993,1.82720591257596,1.82615682644555,1.82599161760422,2.01688882015815,1.78455929171399,1.76899256951197,1.73276374646597,1.76497482423816,1.66517598781924,1.66525299124653,1.66421168330742,1.66339388027899,1.66169785695451,1.66043376430444,1.65863582134346,1.65690906679523,1.6569879698216,1.65670602736323,1.65645689553137,1.65628464186715,1.6551134288964,1.65397394401885,1.65269211579196,1.65129909314759,1.6519584562597,1.65241495605902,1.6514954908092,1.65162969482389,1.65011417735797,1.84051670231518,1.64905563116433,1.65002563820256,1.64976801597325,1.65067498447737,1.64965504421089,1.64985734079593,1.64920005923115,1.64998637697751,1.6483353082416,1.64765181040136,1.64731138016151,1.82812716827079,1.70118780405456,1.83373918645849,1.65737037025173,1.65229115265251,1.65028760175167,1.65074658003666,1.66172698058408,1.65194988903417,1.6504450946433,1.65079681219383,1.65156280113955,1.65224574282861,1.65678320208666,1.65601112623164,1.71066430477026,1.7677759378207
2.05064289869888,2.04644068900723,2.04413123664181,2.04316215917946,2.04300486901433,2.02747174002319,2.02713522467919,2.00617830377508,2.00664866388025,2.00705555305631,2.00690170301222,2.00617519906091,2.00516227154624,2.00387062825094,2.00258432573379,2.02685691896014,2.03021802111844,2.03580416287267,2.03781390373284,2.04011546689481,2.04150346024152,2.04193674160098,2.04205702855495,2.04214493651599,2.04362129966556,2.04461269546901,2.03900867001063,2.04109755192598,2.04163635355013,2.04036175391139,2.03852860314478,2.03719221064258,2.0345075093671,2.036175401708,2.03988818703552,2.03291177434634,2.0321650685381,2.02728317907935,2.0242305558383,2.02396391037073,2.02365596175972,2.02348643130802,2.03326374865209,2.02973251172107,2.02722074389472,2.02460679184991,2.01658770856596,1.97765193594928,1.97191716337373,1.96704795465375,1.96001089368215,1.95423838829848,2.00309459803658,2.01944209096834,2.01970030190301,2.01941329363364,1.96919156819865,1.92883948291997,1.92795026281424,1.95778934078552,1.98936664162525,1.99004693467527,2.0149243297182,2.01586767159175,2.00973404315086,2.00341492214575,2.00318812492322,1.95154861308506,1.92650204359076,1.91851301245808,1.91816930476737,1.91735612742495,1.91673701472909,1.91625100076009,1.9162421737025,1.91665033925115,1.91750888666283,1.85699370834303,1.85625355944491,1.85504745009045,1.85340299442341,1.85147564681373,1.84979873934931,1.84862962011849,1.84691660776278,1.84606347707779,1.84520666258666,1.84493735561652,1.8437590568737,1.84270239577513,1.841514596162,1.84104968067581,1.84075250140541,1.84076289753336,1.84057765922856,1.84008028462226,1.8392002090381,1.83744609156423,1.83674707418617,1.83621851313698,1.83601632992807,1.83573582292722,1.83461681749488,1.83379066614772,1.83302728486301,1.83327157033153,1.83363286094347,1.83440674624605,1.83480086228738,1.83495500614536,1.8296649156983,1.83017212182281,1.82942026138267,1.82931249084117,1.82863180081207,1.82763863998207,1.82682601334529,1.82664354251573,1.82577556401579,1.82529997750378,1.82537238983624,1.86427415959468,1.78415604820776,1.73431943363914,1.71570025381742,1.69974941049625,1.66355444556297,1.66328942053577,1.66198050738197,1.66090700690374,1.65972711045979,1.65899634205454,1.65716492006825,1.65639883090274,1.65572881275248,1.65567269322453,1.65469685373749,1.6542252093052,1.6530403943765,1.65217298397165,1.65085958617683,1.65055963204819,1.65004506036038,1.6503175531066,1.64940959219828,1.64914043689922,1.64811361762376,1.64735770711353,1.64718342980776,1.64744919096782,1.6475881853143,1.64892553229362,1.6483774385978,1.64811328390308,1.64770377724707,1.64788177387627,1.64671332796595,1.6463586849081,1.64600386657359,1.64933189068135,1.6486713196416,1.64767997676772,1.6471535607969,1.64878820968336,1.64840431704339,1.64917584959979,1.67501787558476,1.68200764579396,1.68867725810863,1.6958381876583,1.7029658727681,1.70961976757124,1.71720736416917,1.72511779287691,1.73426833236769,1.74427971295656
2.0535956813572,2.05287259846975,2.04502658556983,2.04592615485908,2.04424115779784,1.96144441702048,2.02746769287512,2.0335748208354,2.03303025541674,2.03348510050876,2.03162930909891,2.03231854014191,2.02740202553018,2.02687888499648,2.02495965911535,2.02598022526359,2.03101282275001,2.05441980391949,2.03927702516909,2.04203356346397,2.04136385871271,2.0556518253035,2.04294527431759,2.04229228949351,2.04444620457435,2.04651609257322,2.03772973139211,2.03548940508974,2.03841284085441,2.03961304450585,2.03716086126188,2.0349496610543,2.03301832678855,2.04438748896279,2.03988527535661,1.94310987461313,2.00581568434516,2.02128875236491,1.97201427694856,1.94197354688198,1.96068652121649,1.9413173932511,2.03121902688617,2.0290978229084,2.02631592591122,2.02162481235069,2.01637117213362,1.9370959807999,1.95069546306071,1.93594030392979,1.95479367353818,1.93447128563066,2.00268049271027,2.02233560820502,2.02204804796564,2.01956714500456,1.97198445675113,1.9299753013618,1.92829976031435,1.92809536201403,1.98926380217668,2.015994407955,2.01450959666704,2.02064330774121,2.00934497718858,2.00398335070459,2.00317661266249,1.91870314102231,1.927100924847,1.9186872080968,1.91791599253281,1.91776726059965,1.91643057169462,1.91713307022589,1.91567928799755,1.91588005626191,1.91689537612596,1.85678167051483,1.8557408659019,1.85378541172896,1.85265493600043,1.85181189532876,1.84941483009179,1.84833872793012,1.84654094327289,1.84638645333589,1.84488335759032,1.84459020679499,1.84293335537676,1.84207515053674,1.84085837351965,1.89066218760424,1.86745817935034,1.84010732370007,1.84011225552925,1.83977658283008,1.83898606976163,1.83689829131029,1.83573332980263,1.83536404078649,1.83488715984071,1.83478693470747,1.83345211468181,1.83287339082959,1.83183192388226,2.01925899188838,1.89155765011955,1.92160204039264,1.88414289974076,2.02647724215772,1.8275732199608,1.82732252032046,1.82763163207569,1.82891806417633,1.82835638399545,2.01100256722481,1.82581049702638,1.82582640632789,1.82435269100889,1.82379669329859,1.8247396303673,1.91824266450986,1.78388694080042,1.67036498477578,1.66898460636369,1.66536018194302,1.66284540049063,1.66271556351916,1.66073708913203,1.65940783368732,1.65872981697865,1.65786285657854,1.65620909728177,1.65506570439659,1.65481805697926,1.65494753484014,1.65361492391342,1.65295516069518,1.65212147135616,1.65075756412767,1.64980085404269,1.6491747566484,1.64857023948812,1.64818119974806,1.64739539841365,1.88495252520798,1.64730116055016,1.64836974538882,1.67993608224651,1.69846265804745,1.67457433312179,1.64787758465186,1.64681333244324,1.64640290399278,1.64627711772943,1.83086951572726,1.64521118953787,1.64598903055692,1.64487509153112,1.64495538280928,1.64512653855566,1.64607797890336,1.64631210635881,1.82102644717816,1.64648979366576,1.64722550065943,1.69057172917942,1.82013021256845,1.81836032819802,1.82024883179745,1.81464051712954,1.81719042315152,1.81654471919137,1.81385564772262,1.79118875512884,1.80749100366089
2.05282043285211,2.04930137547674,2.04578269074246,2.0447637401573,2.04267236671189,2.03614211384585,2.03467139390715,2.03327227170288,2.03277563498099,2.03247944171713,2.03064420952849,2.02945420322854,2.02704558785809,2.02575850620955,2.02411046486855,2.02461825620566,2.03201320492897,2.03279582991608,2.03328366896502,2.0364572825811,2.0409415408118,2.04503714167079,2.04608510747165,2.04550171679711,2.04386301736744,2.04164963979845,2.03767252717434,2.03598906498583,2.0361455538772,2.03675657195968,2.03501437905345,2.03321755688176,2.0318775216198,2.03279830076465,2.03466682474172,2.00593638164562,2.00572792964271,1.97217116445913,1.96626961596036,1.9584251069062,1.97012296750689,1.97545820850131,2.02893181697228,2.02813752587496,2.02556887632738,2.02319977002753,2.01638341096089,1.95041215969846,1.95229521401075,1.96068626175153,1.96817689893998,1.97131852945158,2.00292473446343,2.0029879601975,2.02582485323695,2.02443678372491,1.97326762793115,1.95035310232975,1.95928945641801,1.96643365904298,1.9893152532824,2.01432837513674,2.01260786454152,2.01040370020793,2.00831465579855,2.00490944361979,2.00256948289182,1.95131279744363,1.93111213509665,1.91801184967259,1.9174112860421,1.91644427137322,1.91576604408775,1.91527996603031,1.91511199007375,1.91553949552101,1.91649373622365,1.85672790146159,1.85581867234849,1.8535566641508,1.85170964364561,1.85021128238855,1.84827127982611,1.84766777135085,1.84476460509207,1.84467775622045,1.8436459181952,1.84289692105016,1.84163773601394,1.84068343061023,1.83973138180556,1.88106406865448,1.87461358212782,1.86936851512025,1.86345353413797,1.85728544194287,1.8379621258927,1.83535152854181,1.83410191917409,1.83386452275286,1.83328538181733,1.83281057363715,1.83174553485409,1.83123770056398,1.83044339166175,1.89667139330197,1.88148426252878,1.87291013968447,1.86153892628437,1.85182922110071,1.82592916628713,1.82594519297721,1.82540393664233,1.82371561986092,1.82238326748912,1.82181213889427,1.82222672444184,1.82290648803377,1.82247687076744,1.821772880398,1.81771488321927,1.81691476586805,1.78466501865466,1.66827404314986,1.6677823938164,1.66645738573641,1.66031069197534,1.66021288069869,1.65896975596593,1.65812898340756,1.65687617417642,1.65589739361784,1.65447291093022,1.65383206244178,1.65285119552957,1.65283256944028,1.65144392604474,1.65196077152385,1.65153485201717,1.65104931184783,1.64782079405943,1.64779780733315,1.64689324513826,1.64657865386498,1.6456818234141,1.64610374915873,1.64636485218467,1.67933606253746,1.6815785691531,1.69043514069643,1.68073138656296,1.67424469385435,1.64475440361318,1.64536674517923,1.64529500872148,1.69546604536538,1.64374484752369,1.64400108055433,1.64375763435191,1.6440189224311,1.6441753388827,1.64411182927571,1.64423528817194,1.64399688826012,1.64467188294507,1.64534997910006,1.70368240118745,1.81650076106874,1.81613251673257,1.81411920789756,1.81364583697042,1.81383756019843,1.81593496644436,1.79118714285689,1.79105815397135,1.79063027651819
2.05347262330564,2.07030583097087,2.04581065870063,2.03642954758659,2.03881957120593,2.0377211735547,2.03477834957822,2.03187748567934,2.03312367693199,2.03399566186806,2.03059227355345,2.02919916941112,2.0270029383096,2.02669465394946,2.02440617219118,2.02563795747424,2.0331240173709,2.03363128227364,2.03266294297593,2.02473396074503,2.02720832104481,2.0262827324438,2.03010496739847,1.94973068450804,2.04558886268891,2.0414817759597,2.03740716015024,2.03522062764941,2.03547821448497,2.03640809353364,2.03454332640779,2.03049097552858,2.03109591866624,2.03208547230807,2.03189497156717,2.03147940019542,2.00562960923453,1.9416698667071,1.95851325217322,1.94001458538359,1.97606922744549,2.02596213978924,2.02705264310723,2.02889495716326,2.02503790304825,2.02618735150235,2.01688669826504,1.93597961947172,1.9667180243056,2.0235704374895,2.02576560900733,2.02700346676213,2.00325299642982,1.93216986775786,2.02762701162573,2.03394034487853,1.9769417363685,1.92961348891129,1.96603395208482,2.01411851646257,2.01456756226231,2.01497388417896,2.0110857905867,2.00891417761201,2.00712519501105,2.00677210747721,2.00151987468068,1.99367618773335,1.93667073048505,1.9177734469119,1.91672771295952,1.91578660355386,1.9149011450573,1.91498138767595,1.91418227024585,1.91498102335432,1.91622063209237,1.85732471428281,1.85676767533919,1.85293344471161,1.85072110498018,1.84944557501582,1.84711273898719,2.01428359007451,1.84368401400126,1.84415529898083,1.84264641578355,1.84213024798182,1.84053745166709,1.83996264051045,1.8386108860169,1.95617520629161,1.8958718637382,1.94187582312576,1.88598271364486,1.93274772373495,1.83754421984685,1.83232394152286,1.83203513978878,1.83263949270814,1.8320346401656,1.83157177778088,1.83043500776209,1.83068997426228,1.82977982982814,1.9286929671422,1.86475296724539,1.82886651538247,1.82607020962876,1.82523802562058,1.82464254189687,1.82546968846863,1.82453837983695,1.82342793232236,1.82147326121261,1.82138731476493,1.82000280757457,1.82001833618796,1.82121327405875,1.92193503947803,1.81703710341713,1.81700423452331,1.78547732702956,1.66588182264716,1.68169444023673,1.84392504843964,1.65821299433339,1.6574012987645,1.65736563369128,1.65688469434302,1.65586451891976,1.6545160324073,1.65363678036227,1.6523653535394,1.6509278604915,1.6498081412398,1.64838280043749,1.73237027154985,1.6780370438431,1.69892344784717,1.64616441502729,1.64704937595029,1.64587263338127,1.83540418312848,1.64483323041083,1.64560203061786,1.64620250209928,1.70675884089569,1.69127397975181,1.90222931418371,1.6955398919626,1.69609353496782,1.64290896597626,1.64557644072792,1.64501042299946,1.82762766926979,1.64290832828243,1.6426955271057,1.64264870343992,1.64325285191585,1.64315615294023,1.82063468325581,1.64568794649663,1.64363574036552,1.64401907400668,1.64490110773133,1.71819090379447,1.81747673682896,1.81691960695139,1.81476682963051,1.81408322391065,1.81245554000603,1.81466703067163,1.65076377299163,1.65062118038383,1.65247759328964
1.99166469496381,1.99369387953815,2.04665413058071,2.04143401005659,2.03823384116084,2.03646636286422,2.03387712063371,2.03311418358557,2.03388398379741,2.03259234139689,2.03008670723233,2.02788384527471,2.02596143976399,2.02483984581625,2.02312645444222,2.0229304482902,2.03366870180254,2.03311571701599,2.03263392008341,2.03224973897185,2.03110531108858,2.03009363863055,2.03178650447983,2.03301187498301,2.04589418418816,2.04232352472785,2.03802998254768,2.03563477088215,2.03557194674397,2.03601987574761,2.03453440994218,2.03253771130042,2.03125186178966,2.03133245180441,2.03061577011925,2.03023718127454,2.00622171816436,1.96039754341089,1.96977727647184,1.97565087968381,1.98324159941077,2.02562307844692,2.02531822863661,2.02485596698671,2.02294281559659,2.02188322622263,2.01765578055248,2.01829615323931,2.01863337994982,2.01853955242111,2.0249593704263,2.02294042045481,2.02200247115715,2.02178908870688,2.0243799592312,2.02492215939953,2.02522887112091,2.02450464791535,2.02158552901718,2.01725964858584,2.01456279430883,2.01263570042061,2.01038015918837,2.00545232624552,2.00414592544604,2.00290694219966,1.99995917224626,1.9927974987741,1.94295470857817,1.91653990418774,1.91615735259964,1.91529040490467,1.91442130407434,1.91363569345623,1.9135101997216,1.9145722789935,1.9157797184643,1.89185117692892,1.87417709403488,1.85060039966357,1.84881415168647,1.84779896320302,1.84460587969943,1.84333258782939,1.84249965783685,1.84211921652827,1.84101138348755,1.84011506427898,1.83894993733877,1.83839354787145,1.83698213273294,1.8344714203588,1.8336263485485,1.83379100090082,1.83453095932626,1.83563769839896,1.83722873021408,1.83760822119336,1.82955771908659,1.8306081648423,1.8304757980927,1.83000820517596,1.82837797463538,1.82703423274513,1.8235280633918,1.8218130438216,1.8216826909193,1.82476323885686,1.82405651388564,1.82364696686221,1.82316490531528,1.82399835622107,1.82399264332965,1.82367936649277,1.81922112999337,1.81933336050248,1.8183810701993,1.81752115903763,1.81564003695162,1.81460050429398,1.81357781495333,1.81339994169554,1.78882817182014,1.72070092299778,1.68261571668808,1.68104921704497,1.65719086070061,1.65683883988636,1.65607129520976,1.65554794228445,1.65466863093934,1.65402936708575,1.6529609672605,1.65099956407409,1.64863422806467,1.64742953009404,1.64495873943106,1.64313542010976,1.64223511818322,1.64300333477321,1.64394027762593,1.64474359989702,1.64374218806124,1.64264725661107,1.64216027763265,1.64314478407392,1.64623477639055,1.67197951090677,1.67948398324007,1.69417258165562,1.69510846230897,1.69639472297486,1.63999769135968,1.64090221560845,1.63935138077453,1.63933666830915,1.63946058967184,1.64069689046129,1.64126981707813,1.64211819667188,1.64209559434212,1.64710764012056,1.64732562864325,1.68651444451173,1.69989344105037,1.71627036920732,1.73441020689516,1.81738400753417,1.81761221247318,1.81655348593449,1.81488429356435,1.81270016760008,1.81340780178036,1.70613467075346,1.6492798526365,1.650207041605
1.97993352470169,1.95925134307532,2.05073741630975,2.05279904311859,2.0407618201914,2.03055294048683,2.03247847173689,2.03276745260933,2.03554153581382,1.95357976471411,2.01023602050537,2.02689965740559,2.02569284375541,2.02510586801265,2.02317082362006,2.02334056157807,2.03491213437236,2.05116816336397,2.03320494441496,2.03291115476999,2.03351095749086,1.9502105917728,2.02932283687825,2.05033566502897,2.0462565500116,2.04223002919974,2.03973378182638,2.03623314557692,2.03796839808832,2.03807482034456,2.03692971818127,2.03452549300086,2.03375976244444,2.03416147345219,2.03281553920167,2.03159503402403,2.00696699404193,1.94104315579095,1.97518568483536,2.02807776104455,2.02087237249651,2.02767464244177,2.02565607699384,2.02637234335867,2.02187305241545,2.01674816881432,2.01945439342142,2.03321587654575,2.01889183981894,1.93219925009189,2.02302311729122,2.0193233279516,2.01934551075334,2.01691286049339,2.02034474193159,2.02291996520838,2.02356001030572,2.02416645844438,2.02047783239523,2.01780006275187,2.01332838633615,2.01100084855803,2.00939238641162,1.92136697855192,1.99787307196757,1.99609385991983,1.99761341631454,1.99315144382669,1.94847967452195,1.91545155433893,1.91549439382985,1.91546068551536,1.91376833756347,1.91315844459095,1.91253835627283,2.00056205869412,1.95561678912679,2.02711385853154,1.88199587200869,1.84994592472293,1.84681999534112,1.89940861464372,1.84295349146349,1.84361494981069,1.8423992897746,1.84022414216267,1.83971025659819,1.8386891324549,1.83742859031637,1.83637136829452,1.83515469189431,1.83561720672086,1.83368744628711,1.83288487462217,1.83228850292057,1.83214202609825,1.84846299136985,1.95553858991779,1.82707237383114,1.82848502943179,1.82945514976528,1.93113169755525,1.82721482985857,1.82672780351219,1.82352151086414,1.82242323012033,1.82088720524384,1.87412025358777,1.82304320268287,1.82325776098402,1.82179042985425,2.01615426280374,1.86721060289133,1.9254609147792,1.81730867161375,1.8185408539936,1.8166675531603,1.81631264552002,1.81486331693318,1.81506675860674,1.81262222380743,1.8117908444433,1.81016031466875,1.84526684026647,1.68478818454776,1.65809924278609,1.656898479555,1.65678431813932,1.65505127830117,1.65427748152093,1.65359247487162,1.82970401805826,1.6931296476998,1.64835535099613,1.64603962121956,1.83598203491395,1.64332543262742,1.64489108403344,1.64317764080375,1.64463481423352,1.64371190234863,1.64475534393955,1.64326817484795,1.6429612553597,1.64181851855491,1.64172943863188,1.64177488537822,1.64342626810664,1.66872498330608,1.69319736194191,1.69427487590669,1.69801011987536,1.63877276547435,1.64018347169379,1.63926826717272,1.64037005446422,1.63936769190422,1.63988300126581,1.64040092775284,1.64246763318569,1.64141952570849,1.64181366900888,1.64906646206582,1.81439584279235,1.71751021272649,1.81614898634487,1.75149540401711,1.81484277073771,1.71634830766175,1.64622138301179,1.71875132215453,1.808795928308,1.81098205110791,1.80968379856322,1.64809701173015,1.64956989071491
1.98580343068562,1.98936621568198,2.04773209719781,2.04406941743909,2.04157520102375,2.04072312367255,2.04153479487172,2.04012584633261,2.0380842692815,2.01006723704301,2.0095809214692,2.00839505685358,2.00821894590578,2.00907777437855,2.00998735584733,2.02213465584022,2.03561328930985,2.03559687249822,2.03524754026336,2.03653854290424,2.03529068774909,2.03062919501471,2.02976902662362,2.02849659338967,2.02812552308289,2.02823932140137,2.04176934915136,2.04000946827187,2.0408050917478,2.04057969621652,2.0392570158221,2.0378338213097,2.03635470823083,2.03627157927799,2.03545727225878,2.03509904121734,2.02824741613648,2.02933694939553,2.02935868825087,2.03072374936412,2.02025516375919,2.01904053199262,2.01862676755667,2.01898087930726,2.0195273075217,2.02000405161444,2.02195238328417,2.02448983677885,2.02575699760549,2.02598738567142,2.02293579141297,2.01966769004749,2.01832688482866,2.01738993800687,2.0183749113824,2.01950397355569,2.0210455038144,2.02260445532683,2.02054385516237,2.0170677214994,2.0135166013202,2.01000370179702,2.00826862818751,1.99868857361032,1.99832394126905,1.9967902495714,1.99699026263211,1.99558279044011,1.95316337962398,1.91511049777266,1.91485215044488,1.91384232057174,1.91279497797694,1.91211995838286,1.91183976495449,1.93347367506562,1.94757364951123,1.955548626635,1.8849587891158,1.8831094521489,1.84261381947884,1.84179660115889,1.84192659566285,1.84186325358502,1.84147292916955,1.83971127770987,1.83871102290817,1.83746535490665,1.83593469912079,1.83558493976696,1.83358391484271,1.83377665463179,1.83257567590017,1.83198405941414,1.83153487525802,1.83178974881809,1.85419915583867,1.87863658692601,1.82511137802351,1.82628081127361,1.82584320130092,1.82511014705914,1.82433569910689,1.82433527743609,1.8227022624126,1.82095921861372,1.81850808406958,1.81695412886179,1.81649891878635,1.81734971595856,1.81570227460041,1.81472902156759,1.81364905138693,1.81390464982263,1.81503031641302,1.81633526729263,1.81409208302745,1.8141561187587,1.81311904807468,1.81369187299194,1.81051946947062,1.81024328806722,1.80928760474536,1.82530224989768,1.68746233789846,1.65634654706132,1.65566687667011,1.65510127221087,1.65328180258645,1.65280752056431,1.65173005150045,1.73133833971075,1.71302523881417,1.69646095684776,1.64234827093866,1.64190349227693,1.64241714628757,1.6430919077035,1.64277239440551,1.64325856884434,1.64236486136153,1.64257366614736,1.64187768504708,1.64187176055607,1.64096568280502,1.64075439643857,1.64050091542184,1.63992749104609,1.63743681781828,1.6357376748478,1.63466177428188,1.63486514970226,1.63570721271071,1.63767223607831,1.63821840712104,1.63882154531811,1.63825788673008,1.63838552306091,1.63861916635419,1.63898646677162,1.63971280840082,1.64065556911445,1.65010068964373,1.66245910535277,1.66945273404831,1.67556145160847,1.67483605175113,1.67428193640148,1.67437778420961,1.67432579582931,1.67398462183049,1.67418769769504,1.67445103573836,1.67466004097607,1.64653560401422,1.64691251136057
1.99073408975393,2.04830892424308,2.04553945681906,2.04349486944121,2.04292784082689,2.04604104573008,2.04588325956406,2.04717463952761,2.03676266034653,2.03054904003217,1.97739421342421,1.95117353812169,1.95027660164401,1.9491734125993,1.98309517351927,2.02437519822702,2.03664603924781,2.03656716794261,2.03648679445605,2.03837887816905,2.03576280358635,2.03579169576276,2.03028450380554,1.94771297766281,1.97342504040317,1.94542122666463,2.04224800490603,2.0379716389581,2.04115697096241,1.94222840602201,2.03893051878194,2.03766329728758,1.99508592807103,1.94148396204643,2.0002386492721,2.0368287005162,2.02546264176494,2.02733362693187,2.02598224836758,2.04439064750727,2.02098455574729,1.93605789798668,1.95525212253069,1.93555850093996,2.01974189264445,2.02952482804687,2.02521344524891,2.02558865917163,2.02616287312182,2.02940361174811,2.02163534719248,2.01740275422866,2.01700205527313,2.01577634255642,2.01658794313631,2.0173275232796,2.01838846980486,2.02666360544114,2.01892333945864,1.92732178972008,2.01010900337833,2.0078343784933,2.00769142114261,2.00082839727545,2.00087989502456,2.00284038145906,1.99767612008044,1.99679089066676,1.9590547298027,1.91462262065677,1.91455137196302,1.91219608043615,1.91119189949334,1.91104195122533,1.91073909485461,1.91018296926112,1.94140450829094,2.02192298656037,1.88932284798407,1.8987091644303,1.84156687727694,1.84348138703864,1.84142648830983,1.84110357757541,1.84129735325523,1.83795729882186,1.83777516011993,1.83652292069831,1.8337557300974,1.92441294628691,1.83147014430179,1.83095648755026,1.8307516260091,1.8306951005936,1.82993836646759,1.82884768253502,1.86084814756419,2.02731953459078,1.82419825491225,1.82491829993786,1.82447361775455,1.82525070629847,1.82373867861007,1.82371144979419,1.822286721338,1.82051928785834,1.81756371265593,1.81721741927545,1.81642724011525,1.81729063278695,1.81582738042927,1.81597479694255,1.81403949442167,1.81475128283623,1.81404321430174,1.93115128575137,1.81164558185007,1.81109146022974,1.81060693955342,2.01122783148016,1.80914453487009,1.80851789019604,1.80846620919317,1.83703000479185,1.69017135328798,1.65533917759945,1.6543461543836,1.65109642485321,1.65093482942954,1.65020439879704,1.64955210251995,1.83067363376608,1.73133834059352,1.83368042187013,1.64149464251691,1.64318321227011,1.64228343273027,1.64353376476756,1.6420915460421,1.71503471798577,1.64058967357828,1.64123738458562,1.64050179057082,1.81993930229363,1.63954931093276,1.63985467336172,1.639551740909,1.64021633040232,1.63749209558657,1.63699450781238,1.63547538553162,1.63622631868614,1.6360132445527,1.63752560148016,1.63780583873586,1.81646239748275,1.63695446153232,1.63705752150633,1.63728227449093,1.63717199880506,1.63802591465571,1.63798750448153,1.63761406594506,1.6379485587255,1.63773743194697,1.63791614173943,1.63810088122706,1.63850012501308,1.67455369556513,1.8062765355016,1.67349260839829,1.64353518348021,1.64417670773024,1.64646393622789,1.64597128746086,1.64716072802292
