1.89834611515193,1.9001924553049,1.9005442235576,1.82922919248146,1.97186800457447,1.96612454265568,1.9668308781594,1.95525980017067,1.96015364578605,1.97468580563309,1.95969888790687,1.96080468160112,1.96009650247225,1.96252964388391,1.96130815486091,1.9597083740948,1.9598458325112,1.95837512785629,1.95914219156258,1.95997520478689,1.9593316385042,1.9605191483612,1.95999156334403,1.887635485589,1.96048794633601,1.95785201960644,1.97432154155832,1.9745245305842,1.97671388288645,1.9816230659724,1.97343067023436,1.97539510254155,1.97565190184505,1.97626814230257,1.97557161389945,1.97557496802996,1.97578633127703,1.89702048407731,1.98502407617383,1.98800853437001,1.98791776677251,1.99530195783403,1.9900406395469,1.97907484113008,1.98495935919591,1.99215645318729,1.98684838635375,1.90236809324149,1.98784603953286,1.99246437880661,1.98867751442268,2.00757621270069,1.98595781307658,1.98081885725469,1.97862111317817,1.97996443623786,1.98061963136635,1.99781592801553,1.99265864826102,2.00549623046383,1.98202022224582,1.98244446365968,1.98099463489178,1.98394942849538,1.98340996036554,1.98447878754979,1.98415470797734,2.01171730857831,1.98289839445696,1.98349298715077,1.98697300059436,1.98943483155428,1.9877975665848,1.98602567292927,1.98728844084983,1.99098475393733,1.98962787579676,1.99066844867457,1.98952491104053,1.98984204013722,1.94613872892168,1.91481995952034,1.98950691344498,1.99203209699959,1.99198058339699,1.99810143722483,1.92029947876544,1.85297336621042,1.87798519135506,2.03459261313098,1.89242466038345,1.85086711714139,1.85083601911467,2.03369974419053,1.89761538981702,2.02636418035747,1.87683106804073,1.84971085562009,1.85061014241423,1.85074304554477,1.85155665527961,1.95200081199321,1.8533319487846,1.85367515410748,1.88152357753741,1.96819890154385,1.92662971127206,1.9377049329516,1.88778409084014,1.85405874789657,1.85414103125642,2.02898298474079,1.88310323690525,1.85485806367609,1.85518996682764,2.02892475314265,1.88039858250575,1.90230012560921,1.85466084146385,1.85216116305424,1.85264534676216,1.85389157659781,1.8951007937318,2.04807375137493,1.8902308182667,1.85280676106441,1.85160146770819,1.85047526954139,1.84958355741548,1.84846430715196,1.84811965479116,1.90185899175343,1.90124803914281,1.90061671611347,1.88398893355852,1.85103252942524,1.85279121655486,1.85247341985514,1.85365596539792,1.8524386895423,1.85393695047565,1.77896126015981,1.77884937064838,1.77799899833645,1.77639106248492,1.77546544147438,1.77292579651369,1.77277935472808,1.77195180617214,1.77223790600655,1.77004489689536,1.76876802490039,1.84013770899374,1.88724750661645,1.8677804977744,1.81449065285974,1.81458542559246,1.81177781181092,1.81375353616658,1.76255401328971,1.81238306603153,1.8108018755332,1.7617295794896,1.76099654472502,1.76011423135626,1.75976724148207,1.75842400755341,1.75775274605762,1.75677703452008,1.75590746945133,1.75537697017116,1.75465701884898,1.75411394368921,1.75446875959264,1.75415796779658,1.7550318783847
1.89706504879927,1.89568959654204,1.90068684959695,1.90400442201368,1.9748429303517,1.99796495057298,1.9675690652428,1.95836527110993,1.9573406076074,1.95630328356843,1.95526457200262,1.88101650930308,1.95838420504486,1.95901073042374,1.96121928649793,1.96384153440207,1.96163528660913,1.96133255111996,1.96011921248558,1.96025495181926,1.95932415966198,1.96038783306331,1.95920148618869,1.9821460537092,1.96157069426665,1.96460546747864,1.97449537683523,1.97724557218441,1.97680246826135,1.9681778240429,1.97100357336952,1.97014849142154,1.9748282888845,1.97518253643883,1.975164857036,1.99127604045202,1.97795215420028,1.98061873440677,1.9822317354764,1.9901803794668,1.98725359081419,1.89919447572006,1.97867230176838,1.98379623191154,1.98394794052613,1.98386751055373,1.98374230805146,1.97405097514318,1.97979466272238,1.90417328672963,1.98292027267277,1.98553726413936,1.986434187548,2.00458478626697,1.97627142790028,1.97782380845445,1.97865416213653,1.98072725077406,1.97992790001376,1.98028251797288,1.98095712553803,1.90822038566315,1.9834362902305,2.00443182522158,1.98413889152249,1.98389581510156,1.983433879802,1.98242223706358,1.98201891683999,1.98310645672314,1.99472084192537,2.00890575502472,2.00532793834621,2.01142096224538,1.98554925950833,1.98558246625026,1.98767436549347,1.98765683193325,1.98842242490489,1.98788384572446,1.98772290891709,1.98845575721175,1.98805112035405,1.98791161060812,1.97040878201883,1.91697518660716,1.9201421641499,1.85326778457935,1.88994979181148,2.02318895626743,1.9103369066175,2.02858506882013,1.85028697607921,1.85032577883988,1.88283821619789,2.02737999823622,1.89804281803151,2.03589313438732,1.85051572160447,1.85090529578673,1.85141610106299,1.85175036234842,1.85293083760407,1.85367574411427,1.85403566841136,1.85437018846618,1.85425632247103,1.85406694333517,1.87861751341192,2.02846860562384,1.85428245580641,1.85397381080751,1.85423128820211,1.85458971137193,1.85477233065997,1.85487836702564,1.85641119962933,1.85845765673002,1.85443787276992,1.85118758037033,1.85233036570185,2.03606782918176,1.90334228121435,2.03082699011899,1.8780666810482,1.85213940897291,1.85157357919249,1.85144223697122,1.84992852606451,1.84856486644621,1.84950255717278,1.85035593316284,1.88809198576137,2.02363538297782,1.87724854884663,1.85257546876649,1.85289343033219,1.85454649565236,1.85321387510691,1.85197476095162,1.85354212844349,1.78228227664692,1.78102652994116,1.77618489138027,1.79519375440188,1.82408039072433,1.79355277019655,1.77149242919389,1.77131497542939,1.77035586845388,1.76966364540277,1.76857891927441,1.84034845102464,1.88752290421302,1.86889754586642,1.76282576014088,1.81409504918629,1.81397569105809,1.8170956580415,1.8202022290273,1.81654346161101,1.8104202003901,1.76191218982686,1.76168882373363,1.7599859052579,1.75842539926436,1.75805405555654,1.88947948611829,1.7560400426894,1.75613831261261,1.75511902215309,1.75443876663285,1.7548499222892,1.75515188912117,1.75492846451657,1.75370162206178
1.89857233975404,1.89957776614641,1.9006947608806,1.91813005447601,1.97803123257325,1.97931129881676,1.96779581555598,1.95889895443425,1.9577218475941,1.95594345245092,1.95492000783993,1.91162031287238,1.95767532379925,1.95896704646091,1.96112631024688,1.96247867452369,1.96187489884991,1.96098680558575,1.95999569404381,1.95946578685617,1.95850177595094,1.95844477542787,1.95857425450043,1.96068280107817,1.96061301857241,1.97063840917738,1.97297549884408,1.9751073891865,1.9756420529786,1.97412649669033,1.97204581313243,1.97064327088966,1.97407368499891,1.97416798120176,1.97496432879716,1.9761878775322,1.97773182269013,1.97891672162569,1.98188756481833,1.98251133598024,1.98350880099833,1.97330544297843,1.9763462233139,1.97861649026991,1.9797362495848,1.98129348963225,1.98147113319485,1.98106995949971,1.98016448728936,1.98009253482138,1.98049981475787,1.98816821823673,1.98899741500738,1.99134388711564,1.97504253539225,1.97715678353697,1.97834496802699,1.97946862202905,1.97983501296863,1.98037401273053,1.98108030262861,1.9833363221881,1.98535579954289,1.98649122382299,1.98535150565872,1.98419915542255,1.98333012850641,1.98235339183521,1.98180267638903,1.98010860930819,1.99981996576077,2.00386773884871,2.00033077014115,1.99601458134924,1.98569177272499,1.98685914269981,1.98763788780296,1.98830012644893,1.98843048488532,1.9882688311605,1.98803998532596,1.98841752384135,1.96909469285876,1.96947824752334,1.97004472544049,1.93182830774489,1.93035926266132,1.91686388779943,1.91359384482719,1.90909054575164,1.90622357726103,1.88197604194537,1.84954532274366,1.84942727671755,1.84878346165562,1.84881711775192,1.84891337497329,1.84959952576418,1.85053309677787,1.85118800830667,1.85174384258741,1.85197890070513,1.85280637988491,1.85351374136518,1.85385289638459,1.85423713968166,1.85434666093513,1.85456225188351,1.85510991151424,1.85534114395666,1.85491735362749,1.85444953059098,1.85467432154122,1.85473074831443,1.85497051368362,1.85514672100883,1.8557207576794,1.85642369256137,1.85498504836161,1.85236648020836,1.85262138277953,1.85319618308333,1.85325104864224,1.85340778064453,1.85279943751474,1.85223348799734,1.85154972988381,1.85097230337184,1.85009801378273,1.84942777646079,1.84981186875123,1.85028418375773,1.87915061742532,1.89594896352949,1.87003647546227,1.85286052094556,1.85296331788916,1.85311890649336,1.85340170870196,1.85325691833657,1.85358239605404,1.83363054361487,1.83157305261663,1.82939328770533,1.82789744622223,1.82637547232484,1.80181242179996,1.78171043639523,1.79064495127239,1.79935617205344,1.80853834248707,1.81609803489868,1.84054395680113,1.86917370583715,1.86916912773345,1.8250648348357,1.8232186054568,1.82265580536115,1.82105019583346,1.81996952854998,1.81850131144974,1.79159457634427,1.76148246221658,1.76093969022054,1.75969766986919,1.75856116385334,1.75750524775448,1.7564179320789,1.75588017088287,1.75550504982851,1.7550551825416,1.75487707060166,1.75512387364693,1.75532409167353,1.75479809776017,1.75464317142082
1.89987973225972,1.90158867349922,1.9008259049486,1.9806115786083,1.97905970964612,1.97790315061441,1.96854109689142,1.9602931082886,1.95882958709294,1.95583668160457,1.95565296760607,1.88178322596557,1.95793027309409,1.95904157780626,1.96175857387563,1.96296015658549,1.9620392103911,1.96073345777272,1.96024382882004,1.96028584042961,1.958527821576,1.8868105495128,1.96003204184351,1.96323209837058,1.96181921916709,1.98770065209568,1.98124248885819,1.99843079958253,1.97585041094649,1.97453016921888,1.97303106156246,1.89264179788759,1.97420289456858,1.98783647319207,1.97512239792529,1.97074086011501,1.97106303407208,1.96677850237308,1.9818203730409,1.98345244286245,1.98171273056963,1.9716190984542,1.97655809027614,1.97629923066067,1.97875124253866,1.98017999487541,1.98058265435463,1.98226783272765,1.98109040792329,1.98189289812361,1.98018844547173,2.0012224354355,1.99112601531343,1.99429641546772,1.97517953235579,1.97818691098554,1.97847537906103,1.98027826348807,1.98067337027874,1.98124552741612,1.98129260641656,1.98719798888142,1.98780618600466,1.99044969046272,1.98666601793658,1.98471393395492,1.98380425789518,1.98395650595921,1.98531133824678,1.91104462461401,2.0011847859676,2.00525592427747,1.99679234712604,1.98744608029686,1.98722034867286,1.98951146792409,1.98858932316434,1.98879415515454,1.98898539581407,1.98960797084066,1.98885268003769,1.99001622434886,1.93574496049075,1.91377490177707,1.97014736599163,1.99109055003665,1.98877441055371,2.02137104195763,1.91584550637103,1.89948235243514,1.89851698627717,1.84896995424534,1.84910841154947,1.84950816847609,1.84904031038769,1.84998186570518,1.84936851160253,1.85022427254225,1.85084954998375,1.85243863077006,1.85174378167294,1.85185836405306,1.85259408510974,1.85275614705696,1.85369554297439,1.90277569902127,1.88067010684505,1.85478549379704,1.85544935635687,1.85630670056345,1.85539110674828,1.85514944788679,1.85493967335379,1.85566831099949,1.85518339019233,1.85551605585934,1.85547377851761,2.03961025140224,1.8544506849196,1.85304783994946,1.85306218367142,1.85276226633163,1.85349949906185,1.85271437417161,1.853028709472,1.85226606033054,1.85151750473437,1.85122966474556,1.87501132770705,2.02605346781117,1.88044435561498,1.8507245181668,1.86949382293725,2.03921233548158,1.86380296682934,1.85269238565252,1.852614162615,1.85247390515052,1.85271741264975,1.8528742956129,1.85279002371322,1.88331664130494,1.83028881972795,1.82791031338343,1.82771523642862,1.8270791107316,1.81111063268005,1.77289015284247,1.7949893003226,1.88467537927133,1.82096495965328,1.88818868569274,1.84218974214471,1.89039178115589,1.86917570202919,1.88757725391222,1.82364020590672,1.82356495549214,1.82580285734458,1.82644385870823,1.82339072376183,1.76135700528641,1.76122171489626,1.7605449063474,1.75971086787895,1.75842131256826,1.75741415487667,1.75600647664289,1.78985243925909,1.80494073894723,1.78235996020521,1.75483581047058,1.75541893722449,1.88518975838828,1.75471719141389,1.75422760047572
1.90048238863391,1.90261593209518,1.90127888870966,1.98141006790982,1.9826050119648,1.98472388748557,1.96932150296605,1.96895255628954,1.96857202879738,1.96939991598132,1.95819526347119,1.95854101601954,1.95840929268855,1.9653385792604,1.96354091385779,1.96374130487256,1.96218680856029,1.96105537100253,1.96041371574555,1.88688818243022,1.95852856176738,1.95929364966734,1.95980164436398,1.96578165448409,1.96326668806561,1.96288662882503,1.97421617378801,1.97268516455153,1.97744163088982,1.97850999778289,1.97458485308665,1.89325646457093,1.97486286099021,1.97681173932062,1.97617195463613,1.971489152051,1.9731066915812,1.99131650304306,1.98784246147268,1.99450976632003,1.9799673714334,1.98120424942339,1.97795140459254,1.99523775956674,1.97779692163605,1.97939160334369,1.97881372165946,1.9954348739609,1.99115461884298,1.998656855068,1.97973496616662,1.97899969655817,1.97997124537229,1.97877683564648,1.97626139871698,1.90460029839812,1.98219746771032,2.00181606728299,1.98207897853169,1.98198173099244,1.98298404264637,1.98515029771021,1.9892342225233,1.99086968742884,1.98610473905928,1.90831779247339,1.90952012691459,1.91054997075055,1.98730007140676,1.98520705936188,2.00199193322559,2.01156322779061,1.9942886525876,1.98615799286008,1.98731191881277,1.98880094457074,1.98812844090063,1.98835378117243,1.98921922346254,1.99044144445021,1.94743091409409,1.91562516841862,1.9153322665354,1.91514382572193,1.97019852253258,1.98864256169489,1.98844358437293,2.02206338048511,1.91645322821427,1.89839921960494,1.89869540423575,1.89969998655452,1.84894261733605,1.84897240217954,1.84889242178987,1.95202992779228,1.88846215452557,1.95131173808183,1.85103478933702,1.8515561429496,1.85171654869994,1.8512015326413,1.85227758711408,1.85412867312998,1.85351842132967,1.92908667525994,1.88741494692894,1.90371708755618,1.85581600568227,1.8565293468623,1.85615760672165,1.85640018075939,1.85546952674757,1.85475649071918,1.87738837169644,1.90509524447747,1.85550277456703,1.85613236437212,1.85503199479468,1.94084946094846,1.85295721926855,1.85279594492583,1.85313764919854,1.85387855111845,1.85288790032389,2.04200745219254,1.85104249321742,1.85072448956101,1.88937725585572,2.02466783861132,1.895196203476,1.85025457606316,1.85010084149468,1.84981681956987,1.85081117761353,1.85378019556818,1.85155326679496,1.85097558674354,1.85161207608314,1.85240325649005,1.85165239168088,1.78133825982365,1.78158253020609,1.77755674120076,1.80041559034453,1.82694831992667,1.82013456821326,1.88717932687323,1.80099591086514,1.77046833340079,1.76990808954037,1.76951496426118,1.76894236039589,1.76869277150424,1.76744855044576,1.76653777880119,1.7653945405487,1.76409939284165,1.83212765893622,1.88481125279273,1.8358433174972,1.88857689634704,1.76120783964215,1.76139765513575,1.75989840481983,1.75939341266397,1.77874902849535,1.80624869578921,1.80487446463293,1.80466779368048,1.80426023116624,1.80386679648072,1.7556269653146,1.75608041645283,1.75430027871062,1.75289855193101
1.89882272847319,1.895324179721,1.90049937083798,1.99842108996311,1.98335925264604,1.98339490796559,1.97054568236414,1.97163041300278,1.9668821182902,1.96872384131847,1.95995364985593,1.96046488697705,1.95883145603207,1.95667156900121,1.96281404710205,1.96255275337386,1.9619530477955,1.96096343916232,1.96034761373335,1.95915431628737,1.95910362706191,1.96049723360954,1.96083220768769,1.96257242122913,1.96333040421467,1.96405110840483,1.97550418530233,1.97998901001888,1.97858234787609,1.97835106308188,1.97394246366518,1.97151941605418,1.97444852955533,1.98769972491315,1.97742167657303,1.97987429054266,1.97617277859045,1.97734370949544,1.97647413051067,1.97616793152869,1.97740841583183,1.98106220921741,1.97475677113211,1.97378726156476,1.97565786375542,1.98079474346033,1.97836997307107,2.00628234912989,1.98814815722253,1.98023653477,1.9802045556276,1.98130948134189,1.98061704433234,1.97910702896417,1.97746092635231,1.99170222766886,1.99000050614857,1.99147574883063,1.98346136044073,1.90641518493852,1.98396290237171,1.99378570595478,1.99010840121398,2.00517812080087,1.98293265988919,1.90915431261035,1.9094307069647,1.90972297457121,1.98742838893642,2.00442619595405,2.00392100073598,2.004478544368,1.99300364596944,1.98789084688957,1.98759329543928,1.98855010026908,1.98779284719174,1.99782855681129,1.98972838387978,1.99149515406572,1.9393028774448,1.91477720710594,1.91523891159968,1.91626861253479,1.9702264515922,1.99206392626539,1.9894629944346,2.01558277515803,1.92291443312036,1.93476424114635,1.87333106510264,1.849632593257,1.84880998112743,1.84949419819561,1.84881666809021,1.84902915216217,1.8493728411165,1.84923355311118,1.85027329383269,2.04567604287567,1.8514073789053,1.85160538070488,1.85200716396157,1.85144455821203,1.85373642755234,1.85595097380806,1.85453949284109,1.85521233597006,1.85531517540764,1.90541551479685,1.8893593410309,1.90421852571332,1.90427900609472,2.01243550560128,1.88580484065407,1.85557786306636,1.85508749160286,1.90362974879392,1.85433815371732,1.85317691941181,1.85324564619848,1.85437833623477,1.85285908472054,1.85366556677114,1.8522675880385,1.85182671172825,1.85108227624428,2.04246359971134,1.90696593883269,2.02949457663327,2.03470891706465,2.02952134226834,1.85006666860722,1.84952723095731,1.85060989656893,1.84941417505864,1.85124460812176,1.85023725562711,1.85120444701228,1.85027458996219,1.85101013962588,1.83203402469212,1.78152914214992,1.78190293482141,1.78014014151561,1.77644971841586,1.81425109569873,1.86664301621155,1.80600568970378,1.77010608365493,1.76985568002639,1.77018851977952,1.76863702614499,1.76750884166899,1.76711808522805,1.87563977629251,1.76521364624834,1.76467828771919,1.83489513820462,1.88442289248141,1.81969966690182,1.76320774698236,1.76147634719706,1.76028511803605,1.7601895491021,1.75570741155397,1.79002897444401,1.80652611428941,1.80392739844956,1.8035303069359,1.80399592476456,1.80410348302799,1.754570193828,1.75259362139346,1.75376088050024,1.85499667475014
1.90090653577645,1.90106784222083,1.90017412428291,1.89872494633924,1.97057891629336,1.9716397608481,1.97149903342365,1.97246627918494,1.96412234653148,1.95913398076056,1.96035971559361,1.95976072584058,1.96004093623346,1.8836078140422,1.9616169836482,1.96155980802687,1.96198901098367,1.96200917746916,1.9609226821679,1.9601644650547,1.95939836051246,1.95993971458605,1.96062242804727,1.96370236478213,1.96390912803406,1.98135491795101,1.97728691173817,1.96095833166195,1.97146943495425,1.97530110886597,1.97443286325131,1.89274047174009,1.97448997711522,1.97575382313495,1.9761268719407,1.97549456397173,1.97510833809125,1.89709813579898,1.9759093301863,1.99158798266322,1.97424500421341,1.97189240547671,1.97316501463656,1.97387506495075,1.97423161100488,1.9745046395355,1.97238734600065,1.90336774543326,1.97433675744631,1.97802046787552,1.98075837422336,1.9820781281398,1.98084715596973,1.97904774770478,1.97788636133195,1.99069471222277,1.98849638800817,1.98739703894457,1.98499171895654,1.98294042147966,1.98602487624393,1.99953330800564,1.98733197353928,1.98105646475202,1.98254684157891,2.00506920843594,1.93414066642388,1.90825638510559,1.98632681942589,1.98449192690277,1.9980325416294,2.01551962005875,1.99254748144413,1.98484024864714,1.98655788484402,1.98898811148591,1.94304629358443,1.91401066556171,1.9420629387479,1.99276831956351,1.93252414490862,1.91497475625222,1.91456081703334,1.99779964138346,1.99776648805792,2.000721882436,1.94406332235449,1.90010675667897,1.88426792977066,1.84853072227359,1.84791220181666,1.8469952115665,1.8482400494504,1.84827027028189,1.84921288512464,1.84974770115336,1.84970447423909,1.84963755232417,1.85028383854477,1.85065883489819,1.85107147161224,1.85098361420795,1.85164345488317,1.8524224670396,1.85226551376632,1.85125222281488,1.85297917297364,2.0382709246449,1.85477498531729,1.8541910733446,1.87968866045386,1.90471351000289,1.90444352788942,1.9349098379153,1.90568470867576,1.904411430678,1.85463060923054,1.85539674498675,1.85440446497293,1.8539483904251,1.85327255654093,1.85203059830538,1.85261804864927,1.85060965719769,1.851939374038,1.85195926781944,1.85026034315742,1.84841112567224,1.89483099438633,2.05095570083333,2.04151355745775,2.04291003193374,1.84961681187084,1.84968964727738,1.84938027451923,1.85077335848861,1.84998087399743,1.85096757418029,1.85095209575639,1.85239518710386,1.85110832377238,1.78232846952587,1.78112520841778,1.78019396824882,1.77933974522525,1.77533597588287,1.80835763515953,1.88760635895244,1.81051966298403,1.77075956015734,1.76977218645391,1.76866401859429,1.76842882183095,1.76625276797178,1.76639497605318,1.76567276754339,1.76579795450665,1.76584887819507,1.83643478221081,1.88717948801903,1.8064635964348,1.76027490954543,1.76087155248836,1.76182129355411,1.76046901344062,1.75969993024507,1.79845057280029,1.89012973896424,1.79133943504157,1.75802744759832,1.75748124189591,1.75457417256671,1.75470218698234,1.7542808143322,1.75407873483534,1.75366914676657
1.90206689389766,1.90293010675792,1.91440219466958,1.92433752396669,1.97060147249322,1.97108625160968,1.971783941247,1.96904747710807,1.9625731166689,1.95983844552597,1.9607244337444,1.96069210034405,1.96034551780571,1.96012172424521,1.9606025962127,1.9612740991581,1.96213298154479,1.96238925659999,1.96143478896256,1.96046506866709,1.9594961280395,1.95920145353806,1.95982740863124,1.96119594150354,1.96437075405729,1.98093452864946,1.97934256583199,1.9668641959208,1.96822266975,1.97236186902019,1.97427198719711,1.97544145686783,1.97652331642378,1.97669148125513,1.97704300767774,1.97820727918811,1.98000853506091,1.98114331137836,1.97749135817308,1.97384133354647,1.97288863449375,1.97296124543138,1.97361082427348,1.97394389979058,1.973370543397,1.97243732577397,1.97185557878934,1.97252887560898,1.97408965656812,1.97631171011942,1.98186079405546,1.98190230505072,1.98046363324051,1.97906941549527,1.97924905880574,1.98339452940606,1.98588207612007,1.98651772588498,1.98598257513108,1.98707656215543,1.98823965581554,1.98938772557295,1.98676286841734,1.98170507436008,1.98203943032251,1.98135840802081,1.98044260713675,1.98055520998471,1.9831311864933,1.98342268968725,1.98281981608418,1.98282525748248,1.98326991805605,1.9847449014106,1.98546740632752,1.94249475388471,1.93552946843694,1.91183181872255,1.91125415589153,1.91205174825888,1.91260760389051,1.91367179948458,1.9139453091685,1.99497235852625,1.99700739206334,1.99863086580463,1.9436920796857,1.8834956926071,1.87178076591374,1.84868571500885,1.8482473040248,1.84764427660043,1.84822469368999,1.84869239924083,1.84899568554073,1.84921676178635,1.85720896009909,1.85719108855349,1.85704620234162,1.85668879486744,1.85613187490199,1.85550038982224,1.85502736136968,1.85497540504272,1.85541024268152,1.85592843614354,1.85304665633826,1.85381805040813,1.85466931164281,1.85512802898142,1.87291332108319,1.8834373048965,1.89346571116541,1.9070522278338,1.90678815111992,1.8832898969052,1.85406648706695,1.85430206349274,1.85420055048829,1.85380634593743,1.85316064668887,1.85277978855237,1.85220159616909,1.85171092373784,1.85156952390879,1.85088781941878,1.85008087321845,1.84887224593742,1.88818723801301,1.90519395667033,1.89476960396727,1.8776140738182,1.84885356853925,1.84897839844269,1.84912171764513,1.84912598043831,1.85006747241233,1.85018577159746,1.85072538574361,1.8508841292318,1.85084888681446,1.7816173154721,1.78078440927782,1.77961490438197,1.77824181679213,1.77630535609405,1.80324226780434,1.83413129449161,1.81383526805882,1.81267890975617,1.80789187327014,1.80141071607168,1.79400475897195,1.78723134251391,1.78158192722199,1.76578545434223,1.76604393875667,1.80375715869223,1.83833122628601,1.83906879243026,1.795891505808,1.76039390946581,1.76047423332585,1.76048719609924,1.77035639393717,1.79435010606058,1.81084939595361,1.82484241778853,1.78396245208747,1.75691020758075,1.75642506907016,1.75529422557939,1.7553177531583,1.75514780143464,1.75478154806426,1.75426306974443
1.90334229692244,1.90499291813302,1.92444885824024,1.97778875185041,1.976219902477,1.99035410122095,1.97387286762369,1.95689519308584,1.95604367935598,1.9564126505635,1.92104455185111,1.88305623084536,1.96038390410764,1.9595414903505,1.96055712190857,1.88553915939872,1.96318814847588,1.96395146362365,1.96227402673176,1.96166619380504,1.96048532144968,1.97231337509917,1.95971564849042,1.88809164010146,1.96604218150415,1.98101160465582,1.97969432359264,1.96520178787836,1.96589478526722,1.96495099740663,1.97986091841002,1.98766981457004,1.98432715481687,1.96785498684682,1.98049211264904,1.98670062242076,1.98642459304209,1.98754621992813,1.98185286589191,1.97154858041865,1.9723758274802,1.97316560340726,1.97455880011914,1.97452631762425,1.97444684937034,2.0041666148851,1.97304380049056,1.97527754648522,1.97507876623044,1.9780852278587,1.98237440854491,1.98774060909099,1.98952298008137,1.99223745056789,1.97780077872616,1.97919129188844,1.98471344572445,1.98642661511021,1.98590213008037,1.99417783395466,1.99071711524,1.99293973370204,1.98502344240919,1.98212998924977,1.98211276040732,1.98219347448832,1.98081117553825,1.98043578501395,1.98364697237945,1.98453723579299,1.98348732302834,1.98573458081271,1.98511013005329,1.98693117729002,1.98588181498716,1.91139174218839,1.91041696694427,1.91028221165348,1.91138052901474,1.91315297019047,1.91307132537287,1.91423193605675,1.91395754376596,1.99123839432107,1.99892848354026,2.00008651875371,1.94314863369398,1.84725316399952,1.84800761188386,1.84969194063636,1.84799332205579,1.84759509507231,1.84795852700912,1.84839948543597,1.84871061289508,1.84846419648931,1.87581820909959,1.89697472824935,1.89695072304674,1.95161788188636,1.88217027096123,1.898978141412,1.89157265693171,1.90250249318213,1.90400891870032,1.90344197293601,1.85351585214373,1.85421696149533,1.85513207007377,1.85653578706787,1.85618713861359,1.85562211153301,1.88634546012418,1.90713781646401,1.90726775491685,1.85411242843576,1.85406737972072,1.85391586590576,1.85432030163277,2.04917964403072,1.85310959314539,1.85206767727998,1.85206663928272,1.85236630779743,1.85092953876755,1.85095406755578,1.84964888966683,1.8482280734893,1.88186058624002,2.04580220144544,1.88727540640244,1.84748533193732,1.84778736073723,1.84502897126298,1.84802472555355,1.84916120820918,1.84927708851273,1.85006211979735,1.85011959890452,1.85022416831628,1.85052789158614,1.78160507407183,1.78095812714986,1.77893606425,1.77811207846952,1.77511406279351,1.79680303920056,1.88687847473448,1.820627752544,1.81997891460753,1.81013807901804,1.87807579814824,1.82031829710518,1.87993824951092,1.80637657218581,1.764742443784,1.7653720935616,1.88714051692613,1.83906880934665,1.88860601214611,1.7854153159238,1.76050132477278,1.75987664631763,1.75935608249301,1.77606356821063,1.89071204191403,1.82730272669656,1.85678243438436,1.77664097046287,1.75610686491372,1.75581396245363,1.7546573791316,1.75549995193562,1.7560909576198,1.75526335957092,1.75471993541939
1.89973156057452,1.81971803145116,1.93160122366062,1.97778856017841,1.97752216610952,1.98742487822009,1.97684704879541,1.97577422435213,1.95718347113101,1.88287991875675,1.90614198614476,1.88434379606288,1.96076051330932,1.96050983698508,1.96141516464122,1.9617256428749,1.96289959097793,1.96269647996559,1.96217177820817,1.96113302357286,1.96115754819846,1.96071971178171,1.96140652526632,1.97359782499317,1.96987758743552,1.98608785790572,1.98391745041247,1.96556380953458,1.96626420725333,1.96578565655752,1.98182811272126,1.99517553299916,1.98540732551627,1.98821903548683,1.98195537326638,1.98501082439653,1.9856197134351,1.98771033875691,1.98591599297021,1.98892260622671,1.98206912551803,1.97573990953153,1.97565244911774,1.97679671964851,1.97558962202268,1.97542358319141,1.97497175230498,1.97630437122778,1.97480608295931,1.90446442534044,1.98142576444667,1.99521599895069,1.99580193398988,1.99892398754995,1.9774881135231,1.97854606887178,1.98166134323936,1.98769693042499,1.98691226720098,1.98717485271036,1.98690570353795,1.90900649633621,1.97925569744149,1.98247840718462,1.98200661783394,1.98201266603624,1.9816921113831,1.99522586647256,1.99120368271705,1.9951510811001,1.98312508996771,1.98465159593474,1.98600270221285,2.00122911826174,1.98654608655037,1.98759335491731,1.91044104183156,1.91139843912139,1.91141867274247,1.91249009741417,1.9130028832436,1.91401986831737,1.91417968738925,1.91425639563302,2.00028288599748,2.00253449961902,1.94263162117616,1.84833097612347,1.84785156070939,1.84775645354831,1.8476208911662,1.84751361263846,1.84806240211864,1.84973182508823,1.87129385216315,1.89715238169834,1.89752771894658,1.89745585826535,1.89714444573075,1.95394628996124,1.87402175852319,1.85004840317976,1.88681953646959,1.92206006291716,1.90556299833661,1.85392579922652,1.85390589462428,1.85428078987429,1.85513386281139,1.85602243198998,1.85636945467094,1.85688697853178,1.87843187716474,2.0451681339251,1.90892803045129,2.02668283661407,1.85465282342966,1.85511890166116,1.85468468628983,1.90275629040059,1.85332817729031,1.85324590304801,1.85290607284084,1.85032991019214,1.85166764944315,1.85057510371171,1.8501790471438,1.84953763939541,1.87410738019933,2.02447976968813,1.87944498018539,1.84712350390123,1.84749107488817,2.02806098443683,1.8485056626408,1.84834260758092,1.84881499449588,1.84950074861545,1.8496020319532,1.85047534996027,1.86481317369237,1.88038566264448,1.78060936695321,1.77981486094349,1.77819943060078,1.7754432637306,1.79163802253349,1.77382183819817,1.82084938459791,1.8207028576447,1.80044896740423,1.76811304978792,1.8002290083022,1.88326907540507,1.82324597029965,1.87393164941359,1.76414377324232,1.76200410614655,1.7614920085543,1.76030535247505,1.76018557718999,1.7589382028784,1.75929013549227,1.75865352860648,1.78201425848435,1.87522730842225,1.81304246434672,1.75673646559119,1.75623135686003,1.75634260326629,1.7557532393778,1.88682994840269,1.80946373897003,1.88637841040635,1.88622734511079,1.88525153904684
1.90886022573796,1.98557799882089,1.93282635460474,1.90554172474869,1.98028254476114,1.98494806678186,1.97947803211109,1.97175618405888,1.96038841069686,1.96444559609581,1.9601578303638,1.96188800061614,1.96084031388826,1.96102177984867,1.96205184280409,1.96354114433877,1.96350935403668,1.96360103890941,1.96239157793751,1.96143872911188,1.96234549029649,1.96448414057224,1.96332738469983,1.96283624710374,1.96934388814994,1.98553702306959,1.98535226275386,1.98604595071964,1.98741680371627,1.98522708581226,1.98393916954976,1.98822244800756,1.98503959395362,1.96932479902613,1.96944847163173,1.96951305326108,1.98246317400189,1.98826972424558,1.98131449913385,1.97412344364046,1.98245771161832,1.99417408897246,1.97982468226377,1.97755975917836,1.97619508723888,1.97592387486974,1.976537257986,2.00106092246941,1.98140310673978,1.98067508538371,1.98219072267142,1.99494788019792,1.9953072903439,1.9985737286111,1.97878275588742,1.9797266015258,1.98022240481918,1.98813507084912,1.98772029215673,2.00741101537854,1.98487628249575,1.90776422221693,1.9787673299586,1.98030254564065,1.98094477194591,1.98239748477218,1.98202743438476,1.99300615771136,1.98675720519206,1.98389845046096,1.98277545446307,1.99536788613514,1.98609341553317,1.98687627762816,1.98686411275955,1.98983176760185,1.91027748895737,1.91134143843013,1.91148907432402,1.91071993167934,1.91339417228887,1.91452750385125,1.93079636755547,1.9946438208815,2.00066068131784,2.00752735150409,1.94206319017438,1.91395221019905,1.84677000938477,1.84708200602035,1.84616113817634,1.8456457739887,1.84646353824131,1.89612111237795,1.87998662096231,1.9135485255414,1.89784231730243,1.89810326801852,1.88632108847951,1.84814042004788,1.84939769441775,1.85020387449879,1.88122570774316,1.94793268783384,1.90608595992164,1.85464406162784,1.85439126433721,2.04198804165982,1.85554074006192,1.85579953167214,1.85671030707935,1.85737539164486,1.86946346297807,2.04519401463539,1.88458045874305,1.85541753640477,1.85537848734301,1.8561086813616,1.85455122973728,1.85282210877466,1.85339686736126,1.85432477776952,1.85287243020517,1.85245497240388,1.85202134556389,1.85069201702599,1.85093775233649,1.8491912333902,1.86636925341372,2.0399402117693,1.87134556678962,1.84774453347655,1.84783646403391,1.84851035698012,1.84882763395725,1.84903902255986,1.84913845238789,1.84713755117687,1.84947408783326,1.90042055244865,1.87953876246204,1.8811835505803,1.78080860697243,1.77955754399253,1.77899950472213,1.87076773029374,1.83715111207417,1.88187055728283,1.83005105634357,1.77121112770697,1.79020987020091,1.76766304512695,1.76713333470889,1.76552636636395,1.76543751180744,1.76475563321882,1.76422804723757,1.76377906469067,1.76251933892076,1.88823721202453,1.76048764954108,1.75985452178029,1.75956802066774,1.75972904581461,1.78894692486049,1.87493615151857,1.81146288089861,1.7544465134339,1.75597218027041,1.75594533332183,1.75535922244489,1.75385272562909,1.79109055309441,1.88698454052375,1.88639305489375,1.88530852894462
1.91736548139122,1.97924695336305,1.9817960496487,1.98184451952631,1.98105256403785,2.00749551699644,1.98141899798888,1.95526285089725,1.96053088432399,1.96331708811116,1.9596573763258,1.9585479037069,1.95985642553708,1.95978405944123,1.92584776422098,1.88391224288249,1.88435221386114,1.88433099133516,1.91749142655361,1.96127703389155,1.96240839839366,1.96408111287792,1.96380143957551,1.9632590431317,1.96211798654787,1.96141772571861,1.9855694901774,1.99126414296868,1.99087284711742,1.89058590888015,1.91561268515094,1.89309958455163,1.91818943311233,1.89618585220016,1.97008862922753,1.97311915035357,1.97152705600628,1.97189226355872,1.97056089508005,1.97185969473579,1.98363796504305,1.99478914324217,1.98249420594679,1.98493296212184,1.9801220445678,1.9791142543637,1.9794942077242,1.98125730755007,1.98192690730734,1.99947353126358,1.9829399156617,1.98457042979271,1.98351896868953,1.98003544836737,1.97995937471067,1.98055663951389,1.98012470433588,1.97665805719142,1.98827561037442,1.98942894061249,1.98646361756047,2.00065281715851,1.97855498648209,1.97879458877965,1.98000848790681,1.98259469236512,1.98253583797134,1.98505170864502,1.98481711760399,1.9832947501509,1.98279524006778,1.98246988388759,1.98451687000624,1.99632350172954,1.98462090982884,1.9857794640947,1.91003644347456,1.9104000874319,1.91147195925869,1.91308335578567,1.91327013409585,1.91421581704761,1.93912415023436,2.00444726218404,2.0020593883994,2.01076193315124,1.94129744824965,1.84723127303593,1.84598246564591,2.02861418461921,1.84507126749181,1.84482168353128,1.8457750253079,1.8975704289058,1.8722044262544,1.8470572786352,1.87514739842489,1.89808867532701,1.88097733962881,1.84750079559256,1.85016770545371,1.85086772437792,1.87573122591426,1.94955670240433,1.9055461190753,1.90429908404746,1.85483383876128,1.85550623572685,1.85573403754501,1.85657333580171,1.85676201239115,1.85779384830803,1.85727580671221,1.85712136327491,1.85678606413875,1.85594955452254,1.85567188887372,1.85460620252684,1.85456759003093,1.85357992734866,1.85386820507122,1.85344302861319,1.85376423467099,2.03140930133016,1.85285771885163,1.85462377689754,1.85170395881977,1.8507393989736,1.85940841442025,1.84971768276545,1.8639986705488,1.84871031108777,1.87647363763894,2.0301670272364,1.84925116280323,1.85044156562745,1.8491224996706,1.85056573832602,1.84932535283868,1.8992300398096,1.87809711140199,1.87715888780133,1.78088948302026,1.78045105471429,1.77939911836284,1.77432369228575,1.82447029511113,1.88346222096546,1.84895202632443,1.88563620064072,1.80044803693773,1.76868445928361,1.76752138213659,1.76662966792395,1.76566131178317,1.76385162614347,1.7639917322166,1.76349438127663,1.76276147559373,1.75861091789773,1.7603684071277,1.80903160752324,1.77957451387904,1.76017180392163,1.79559921688811,1.80698009457316,1.80812465573274,1.75615599978028,1.7565493064032,1.86589568886959,1.77309368973025,1.75366606043199,1.76303249075774,1.75397767010599,1.75408089024525,1.75422385910482
1.92473291078963,1.98220494088632,1.98280958048616,1.98277335989352,1.98245410600834,1.99568480784999,1.98237915384285,1.95933028086401,1.95947304058092,1.95949545177984,1.95892126328862,1.95895396311522,1.95968654216177,1.95950783482299,1.91856867542117,1.88394485964798,1.88434145259513,1.88466034205074,1.90754780750402,1.9162089189428,1.96250512549138,1.96400028428391,1.96387215783999,1.96316925492458,1.96246751161408,1.98252068042979,1.98642267909598,1.99264693542508,1.9931190214625,1.97263266246713,1.97240305145624,1.97220072520722,1.9721236374625,1.97129386920139,1.96955314134848,1.97036488589611,1.97036340411971,1.97014268886958,1.96940717235966,1.98545630645675,1.98661548891265,1.991620549237,1.98287628218837,1.98431729010354,1.98298740021156,1.98217721030272,1.98152401025628,1.98307370217278,1.98364488222965,1.98136508157049,1.9819029197168,1.982642828159,1.98270464776304,1.98202318507444,1.98131753166332,1.98227255163657,1.98500571752944,1.98617230670393,1.98879373652221,1.98939465495217,1.98811425198834,1.984583581179,1.97906132213673,1.97927492077673,1.97887037723301,1.98001943090601,1.98145990293284,1.98342337387413,1.98460274153532,1.98461143632334,1.98328305490034,1.98249687217208,1.9827304627845,1.98235331174958,1.98275348783462,1.93668328844073,1.91017789296914,1.91087150097958,1.91174707983344,1.91253855523377,1.91309784854008,1.93381820748236,1.94802853648487,1.99056803834811,1.99006937061966,1.9899311719051,1.94072097079371,1.8873503300627,1.84452301357184,1.84417883997033,1.84438987054584,1.84477320385701,1.84561828480913,1.84653771826045,1.84690944594639,1.84704654733352,1.85821663450573,1.8580490828791,1.85814277864736,1.85812948150874,1.85769602170898,1.85717291621305,1.85749203163833,1.85569852417593,1.85546475695117,1.85343761293,1.85459838331813,1.85525736309006,1.85561519349337,1.85610626334816,1.85651364588945,1.85672037376204,1.85690458598106,1.85689713532951,1.85674503994875,1.85663350310142,1.85595875365201,1.85540407116503,1.85507773631105,1.85451522875866,1.85450974200856,1.8543471918631,1.85411412665449,1.85378903602951,1.85343595328804,1.8529596087893,1.85269425182425,1.86349807745109,1.8695733476084,1.87715334477829,1.88378666813671,1.88937557118761,1.89402120256079,1.90167721070886,1.84894910703149,1.84928382957831,1.84916174645206,1.8493298835922,1.84970005414262,1.83226201113894,1.82187088696675,1.81101918510977,1.78087807864353,1.77977606166663,1.78077080957793,1.80627822737501,1.81545470589511,1.8252578586239,1.83314849176255,1.84725274123588,1.81161402613176,1.76757696037145,1.76754683089009,1.76697794396775,1.76610086785811,1.76489425359359,1.76412994339881,1.7632201165162,1.76237777281619,1.76181847129547,1.7613726182479,1.80908203891498,1.8088205265002,1.80847475135103,1.80833310505606,1.80796196524367,1.8084062921326,1.75650482972957,1.75679848435759,1.78961522347308,1.78438159968247,1.77749681718149,1.7709514253927,1.753721820254,1.75378662754181,1.7539480765427
1.93219928203909,1.98242682202393,1.92676801825525,1.90865712307082,1.98272538875559,2.0023420210039,1.98233443771274,1.95995886224691,1.95917863463767,1.95894257859235,1.9578871311313,1.97433764254584,1.96080068153831,1.96443013619247,1.91175669019141,1.88288857376277,1.88447299696884,1.8842875118598,1.88761008042144,1.88685630282914,1.96274582995967,1.96606492096572,1.96412274363815,1.96304347157929,1.9629818613983,1.98512269762258,1.98630979559403,1.99830024565894,1.9973395448622,1.99905026967448,1.97997169287208,1.98421901817367,1.98084915928015,1.99384266025254,1.96883031902155,1.9705354766893,1.97019792255201,1.97129183937192,1.96928815069855,1.99869729857311,1.99161592303365,1.99724516682703,1.98350271409399,1.98623760874377,1.98532473866236,1.98695648764471,1.98681602961585,1.98630486798737,1.98838209677845,1.90428142579793,1.9395378604875,1.9817727922197,1.98254540117238,1.98403935406698,1.98204814719838,1.99458652374026,1.99249070292668,1.99469769428653,1.99201103951514,1.99436085705481,1.99035191008937,1.9799907808735,1.98001433746285,1.98084483507311,1.99073969566901,2.00406231134296,1.98151966019409,1.98268593952987,1.98456792791474,1.98676135515246,1.98420269694304,1.90955971258465,1.98265346736411,1.98340129683729,1.98300425885711,1.91038113600835,1.91054661600501,1.91176821569164,1.91201064235622,1.91281615206196,1.91285753846509,1.99340881506457,1.99069689771766,1.99282991483182,1.99121680986894,1.99141011505174,1.95444109567495,1.94251004180615,1.84429467699322,1.84451164958525,1.84435579220956,1.84416180723543,1.84556826592635,1.84673500895325,1.84654927194905,1.84683005143771,1.8460086991262,1.845154656333,1.85817835735338,1.95717371893938,1.88311578663382,1.9003881789585,1.86005057503154,1.85259234840437,1.85318240279373,1.85352523794497,1.85402142570558,1.90553198644447,1.85550441371713,1.85596884771391,1.85611708341372,1.85581889099137,1.85651425842902,1.85609311815622,1.85690248537521,1.85676016691573,1.85640351793009,1.85514248975165,1.85568478184939,1.9471869998799,1.85501332726349,1.85489419940716,1.85426399951098,1.85360592151546,1.85335537221454,1.85244521105664,1.85249170118669,2.03984317779482,1.88103840114859,1.89731119836001,1.90377185793424,2.02932265910128,1.91601491244744,1.91445340745607,1.84858429329715,1.84580671793484,1.84907324958684,1.85000029892831,1.84996103469947,1.78712046607621,1.78628148923358,1.78223679407866,1.78175441428346,1.77683179689856,1.78080826861376,1.97145987103997,1.80370499895033,1.77602445522737,1.82227911849084,1.89057617917801,1.82462926354823,1.76621949530451,1.78779407277939,1.93680236487739,1.76624143859538,1.76508877178058,1.76428662300612,1.88830514888903,1.76185414406137,1.76301943293553,1.76145409053176,1.80930185741904,1.80873382693499,1.80797275298975,1.80804219188358,1.80745850263935,1.80819817913737,1.7557627266088,1.75632634494081,1.80381105690847,1.79313330126287,1.80430603745837,1.7807543472397,1.75307727436482,1.7530788483931,1.75206369614856
1.89773285622439,1.89664679967289,1.89785796777827,1.89822304006919,1.98283375970496,1.98015064661405,1.98152306836262,1.98477252865814,1.95882608354771,1.95820208390869,1.95719032423245,1.97413060232552,1.95829778954729,1.95873695223382,1.90346896218245,1.88446534917123,1.88458422629813,1.8856282265423,1.88812202638074,1.88839928097436,1.96210867359124,1.96221354716708,1.96335642670355,1.96342269244298,1.96384689787108,1.96281478811504,1.96435633153698,1.88742844214657,1.96408061396189,1.96535258184616,1.9776186188835,1.99057929143113,1.97834294685029,1.97683092850455,1.97057239634215,1.99421224353772,1.97049975357203,1.97126395396375,1.97006421010648,1.9806717325728,1.9819763464774,1.98479073675877,1.98091411480468,1.90276600310868,1.98435559568235,1.98482308498117,1.98569588726246,2.00202123260337,1.99247674545569,1.90281177049451,1.93086376509402,1.98184274432192,1.98218059291615,1.90531849248421,1.98247534328131,1.99522350149138,1.99069739422635,1.9058134590183,1.99158311640355,1.9940139779259,1.9929617479732,1.90714308545261,1.9807770049992,2.00046126745833,1.99549667139671,2.00941343496437,1.98319480495434,1.98340341238482,1.98367092734257,1.98304912614902,1.98301207338475,1.9945689373258,1.9829177122301,1.98401846784132,1.98407374536026,1.98589174288595,1.93945780423788,1.91211232608549,1.91197733568344,1.91173593882495,1.91251729186033,1.91284404993186,1.98750050997032,1.98628553441342,1.99058513034804,2.00791283691194,1.96221250130313,1.84639413057432,1.84508065700609,1.84510138529317,1.84498359294771,2.02576999529063,1.87412609787016,1.8447630556175,1.84568954391181,1.84566514211636,1.84620089351024,1.8469967392251,1.85805705692692,2.04366705273967,1.87540664244067,1.84922690184579,1.85330472918163,1.85355650373586,1.85351042768001,1.85390484038388,1.85385000653416,1.85304365392999,1.85518637383972,2.03224395423691,1.88786830088063,2.02840066875934,1.85662025102124,1.85736635506019,1.85683464662015,1.85679475640546,1.85668084805417,1.85705627843902,1.85634402548609,1.85588632194724,1.85559149616281,1.85507732008698,1.86332316333715,1.904250901492,1.85340831338036,1.85295036290059,1.85168995570139,1.8508062990892,1.85092453280345,1.85046994552797,1.90761378536235,2.01067400479736,1.91719842020157,1.8999329226795,1.85054564906071,1.85086762265591,1.85025171422321,1.85047685990052,1.85023218197124,1.85000413746176,1.78538234476683,1.78239989819339,1.78223232697931,1.87824963832955,1.78095545806531,1.77728014966188,1.78780280307275,1.77052251853228,1.82142779191302,1.8634596656854,1.84005544499883,1.89170549595038,1.79539500610835,1.76765477393135,1.76705492505341,1.88829544362267,1.76335072549503,1.76307196471044,1.76163955002716,1.76001759087234,1.76090437709413,1.76063672254254,1.78476394350371,1.82376137085449,1.81399576671336,1.80770006460664,1.808142720595,1.7549232384182,1.75568111757267,1.7561796805747,1.75520963461356,1.75525665866542,1.78771795892887,1.88339428411214,1.7884327310925,1.75242436470883
1.89908927021048,1.81927158919872,1.89820489560923,1.89792204037566,1.98359164038058,1.98145913983373,1.98252750965864,1.95783771790749,1.95874629543489,1.95938693221548,1.95714269149512,1.95742841887503,1.95651351513179,1.88531995965449,1.89682712251282,1.88423566133654,1.8853731391511,1.88521447075575,1.90076226106811,1.96673187329363,1.96327647169347,1.96285741145944,1.96322662650045,1.96776827311833,1.96634667157678,1.96744048826326,1.96635898698012,1.88927891298277,1.96452710876829,1.96667896739955,1.97338099544707,1.96658164242883,1.96852372534258,1.96838227487694,1.96885047668394,1.99430282788376,1.97044250110098,1.97227400065308,1.97139383404179,1.9726573042823,1.97705408294952,1.97889781599163,1.97878689122381,1.99243821567113,1.98665908317474,1.99506599007151,1.98621962140547,1.98894689863669,1.99108237947388,1.90366029115507,1.92033069017671,1.90715281057584,1.98295996721399,1.98549717409997,1.98464701149273,1.98801662579257,1.98707209592357,1.98528378375413,1.99045533391611,2.02433415970989,1.9934712004203,1.98116842072737,1.98177030994372,1.90802626494812,1.99393998760692,2.00009903437097,1.98736619683029,1.9925510882385,1.99140243090436,1.99338301626061,1.98303249466477,1.98394465358138,1.98336087958218,1.98467423715771,1.98443349067424,1.98551303842561,1.98635402935373,1.98740532293781,1.98669667468884,1.98550344214324,1.93962135459388,1.91430879498605,1.98827358837854,1.99035376111502,1.98980107677945,1.98962653617803,1.9668115817403,2.0321760173724,1.84507944453962,1.84506045547136,1.84539507110773,2.02792454798321,1.89987329591514,1.90158130147486,1.8991510949641,2.02470990150612,1.87559778478976,1.8483204853781,1.85464824576732,1.84731760671196,1.86739639099847,1.85293722534549,1.85343437092166,1.85348528412327,1.85380889339329,2.02979822711482,1.85458944513405,1.85517439659584,1.85527839514719,1.85497106053947,1.85606028428671,1.85639488179677,1.85624206216358,1.85539364458291,1.87221401480181,1.90495937961165,1.85693067497669,1.85639162098048,1.85684148495932,1.85712909224207,1.85615003955864,1.85583558356139,1.86710668841971,2.02175256130446,1.85443716718908,1.84908438018279,1.85112712128965,1.85111433224886,1.85152298086274,1.91411072877604,1.90956408091769,2.01185804713031,1.91780961325277,1.91792524884843,1.85185190963382,1.85193093251984,1.85138303032322,1.85059841916077,1.85060417672419,1.78406554535539,1.78434133504035,1.78302812771611,1.78333942061141,1.88493827605373,1.78124785171085,1.77574025212937,1.7921779760883,1.82147413497433,1.81989091238198,1.76925065204429,1.82380841623491,1.88906836107266,1.80388371784658,1.7667161351681,1.76703713850756,1.76333773545283,1.76280704119966,1.76114086440932,1.76125940400316,1.76042529139336,1.76067163459344,1.76034875578508,1.76002364113109,1.75789378419037,1.82530727359754,1.89126440977184,1.80822753139231,1.75656887774907,1.75545903897359,1.7533436235657,1.75481322850653,1.754826299075,1.79409526065874,1.81239539467473,1.80939836069536,1.88238493641096
1.90104163575191,1.99588802646176,1.93053638645171,1.97993162431856,1.9831155838909,1.99645091765511,1.98155251548381,1.95704346828941,1.95882326794185,1.97074701457929,1.96868919784273,1.9693217095289,1.96869761551441,1.96896566311075,1.90244715241951,1.88429777753769,1.88556425355387,1.88735883394776,1.90898051123964,1.96491967897155,1.96365078276756,1.88757726456503,1.96352130243277,1.96351612082106,1.96594922324358,1.96656337626055,1.96704028657893,1.97138701884892,1.97098410818404,1.98855284587904,1.97571915082208,1.98144616732071,1.96954379113645,1.9722194819551,1.96972905932507,1.98336497766521,1.97042984805377,1.97193000328182,1.97225795762556,1.97398460961489,1.97541542863152,1.90102877561826,1.97652833081358,1.9761857815603,1.97687111288315,1.97532675310994,1.98257203188259,1.98302541770631,1.98847375742931,1.98793669770939,1.98636086196365,1.98755625481081,1.98194999792201,1.97998691176795,1.98019835582975,1.97795722185513,1.98599582409111,1.99349196635492,1.9911728001002,1.90782247204465,1.99162369884291,1.98905944451063,1.98797177056066,1.98614047332205,1.99050607806388,1.98886345717494,1.98716504495213,1.98556198348786,1.98815282973061,1.9084047844013,1.98338672784218,1.98404895724555,1.98278320793327,1.91045259851503,1.98425204018556,1.98638027972549,1.98632788252093,1.98754280844549,1.98682313179658,1.98740238171466,1.98709812227049,1.98798267823214,1.98838345765655,1.98976893922209,1.9888201157297,1.91476807386713,1.92817235150401,1.84744131823227,1.84596517500975,1.8462099105979,1.84598952179616,2.02634426125725,1.89984438200422,1.84578638969363,1.89934710468453,2.02852960323699,1.89460997982452,2.03032231149812,1.86034051201337,1.85033069004935,1.87824898332351,2.02944883752595,1.85374090206301,1.85431593412404,1.85400331793451,1.92601010866549,1.8541637741323,1.85401998913109,1.85472110611643,1.85561083962371,1.85614908004979,1.85695816315669,1.87323374878591,1.90602498402925,1.88211571128472,1.85726142046907,1.85736291111883,1.85704901056786,1.85733024487078,1.90440344957239,1.90393483824973,1.90383518487184,1.87305140861657,1.85599976771054,1.85537322698523,1.85122370823579,1.85178625158734,1.85162841486094,1.85210400889859,1.9000388163548,1.88035945833212,1.85250039932121,1.85253112380533,1.85239030334955,1.85195494724946,1.85136634886712,1.85157294091282,1.85179942532963,1.8511254205328,1.78473577735612,1.78450470212279,1.78480824897694,1.78433852492856,1.77516118136556,1.78162233201507,1.87353373349294,1.79688871646227,1.77395771713821,1.81754425985422,1.8882663278236,1.81039668915415,1.76730960422789,1.81150033971323,1.88496653726205,1.80284442524396,1.81374397892797,1.76237046392845,1.76180831191473,1.76127663428798,1.76188070183903,1.76076403858157,1.76052508810917,1.76026785604772,1.8850927057247,1.84108224884132,1.88434624554902,1.80800667552096,1.75750858890719,1.75584190883292,1.75413597171709,1.77875978521865,1.88471420033676,1.79993780375369,1.81359304205531,1.80584307582703,1.79994000176269
1.90319221943106,1.91556010918068,1.92492635770933,1.93127590621632,1.94280948457891,1.98568870169634,1.97888409380592,1.95766994306003,1.95817698358628,1.96088669939597,1.96495431221743,1.96654311130271,1.96626542721788,1.96707502704022,1.91040682047933,1.88469195806539,1.88580635460391,1.88659765955312,1.91683282798097,1.96491883965972,1.96375840502683,1.96301416015393,1.9638202823127,1.9649535374897,1.96723583757555,1.96702224749058,1.9674389471627,1.96914607483186,1.97053669212768,1.97147326705045,1.96965268393129,1.96789916990715,1.96859490204896,1.96948909823963,1.96890341206794,1.96941031133532,1.97004034318961,1.97094467197454,1.97140863271314,1.97394474584642,1.97590164622424,1.97891170184383,1.9788967830555,1.98015467403137,1.97949464063654,1.98031050270569,1.98185533586683,1.98490242570543,1.98901030098039,1.98914467718325,1.98544894442454,1.98582666039992,1.98313916362381,1.98085641332926,1.98033528696517,1.97904128889679,1.98721028602772,1.99125283549559,1.99099720608382,1.99174550050204,1.99145081930509,1.99047608824239,1.9902150358427,1.989719696785,1.992368893465,1.98908459768098,1.98662398260223,1.98544009329112,1.98731549500548,1.98534323252115,1.98356320246941,1.98267768549411,1.98191923644429,1.98223834938802,1.98343650790165,1.98524633036205,1.98568039818359,1.98636867155412,1.98634447141146,1.98623867521611,1.986780312261,1.98862775131315,1.98905048325404,1.98953213571604,1.9888246174628,1.93677210260005,1.93535525500854,1.88446715332849,1.84569774620598,1.84576456217042,1.84611123412933,1.8707718533226,1.89960922066801,1.90004975234919,1.89960732203828,1.8823109688467,1.87534522914624,1.86878704454261,1.86344813100846,1.88329729641167,1.89206884731242,1.90208729400395,1.85356059632897,1.8536865593446,1.85383535206608,1.85389582514153,1.85429082671067,1.8542755915915,1.85536688257598,1.85578847412162,1.85676574230965,1.85726153984636,1.88281860034151,1.89459927741136,1.88559141162408,1.88123903996336,1.85780839796963,1.85772818495504,1.85774225842663,1.90436575282376,1.90391016672908,1.9035995628104,1.88009535028969,1.85591468254084,1.85549626294178,1.8548566302143,1.85355070848901,1.85282849107343,1.85284605220413,1.85290147497894,1.85290093809764,1.85266152023676,1.85259982168274,1.85243858373154,1.85224820347989,1.85201621371621,1.85216360390208,1.85179254847343,1.8518144539553,1.78458716318737,1.78454380975523,1.78449731397312,1.78455280660242,1.78283697392745,1.78227980039175,1.79514194688609,1.80143517481511,1.80800156548529,1.81327608037409,1.80003545596637,1.79130949297501,1.78794504423421,1.81723646879769,1.82849541553057,1.79499006995307,1.79274252969211,1.76258077093121,1.76179987052673,1.7611085950378,1.76061302822906,1.76044708482006,1.76018917160052,1.76016345285058,1.79558343368384,1.80577574717111,1.80625757020006,1.80707265534527,1.79964412498036,1.79648990102437,1.79389301071821,1.79161758599031,1.78681554671096,1.78187926860556,1.77680595760972,1.7718800217148,1.76815534414547
1.90459870095137,1.90643256232694,1.90626702464096,1.90725017046826,1.93961534408658,1.99879960777836,1.97593674715858,1.88331665369243,1.95751277444459,1.95930304681006,1.963447024264,1.88383103474141,1.96352836483984,1.98403788977399,1.91812928637193,1.88382632552041,1.88564945287275,1.88661680304561,1.92520358509179,1.96683289852357,1.96451188970466,1.96235233339148,1.96404225666784,1.999195045189,1.97017486071526,1.89171171260974,1.92880346524201,1.98271486856584,1.97137872249986,1.97414520569697,1.97033256823613,1.96811796416034,1.96828506883487,1.96897915901587,1.9695374246083,1.97077793194511,1.97051803410607,1.97051767133258,1.96922937234461,1.98093791827,1.98185333215948,1.98331691854975,1.9808065186347,1.9838402977841,1.98078398195455,1.9877261337928,1.98024669847996,1.90310571626691,1.92539265925757,1.90347451686877,1.98145457890681,1.98815408124232,1.985533692769,1.99933528253908,1.98227388502442,1.97956905735973,1.98694371335245,1.99149732005254,1.99115017317269,1.99306875977154,1.99251815167793,1.90827861961005,1.99230121417304,2.0081651751054,1.99824597468471,1.90778687820858,1.98582056023879,1.9829549566309,1.98984438774517,1.99980344820716,1.99810371329686,1.98210058345893,1.98154206029403,1.9835372765703,1.9834144130518,1.98696890765207,1.98573384911727,1.98653022277587,1.98629525906565,1.9855302174989,1.98592209630121,1.99087930355659,1.99028106566493,1.99165782305322,1.98950178443842,1.99817393869278,1.93922495950272,2.05523573023779,1.84570453868361,1.84509415130628,1.84634922746704,1.84693331151403,1.89836610455517,1.94052918715866,1.89879306959211,1.8460069256786,1.84706011539642,1.84775968396798,1.86125405094667,2.05254737145677,1.90318621420268,2.04457934777727,1.85288490094165,1.85264562030909,1.8531815679479,1.85346746030386,1.85374924403697,1.85461435770493,1.85515912961268,1.85679908942298,1.85690380052855,1.85812734389515,1.89106170955843,1.93476424429131,1.9165546537231,2.04841292798848,1.85777425600274,1.85765850295518,1.85773693367183,1.90511899267259,1.90426079734521,1.94726464201076,1.88740834774953,1.85634518230044,1.85590344522077,1.85621120488861,1.85444611063641,1.85319028252313,1.85286109017943,1.85277996306286,1.85260152631415,1.85246186220233,1.88419806937807,2.02700311039268,1.85237172625871,1.85222980538519,1.85230201137048,1.85194821521794,1.85229718070198,1.7844621661892,1.78420969939147,1.78398689839841,1.78400885143059,1.82691931275282,1.78259466418567,1.77926650306467,1.80908190382873,1.82179493411215,1.81445043403669,1.77025999981485,1.78796292148636,1.76675641066028,1.82337436077972,1.8897528511095,1.78995866151373,1.76300330123591,1.7627209469378,1.8907314654784,1.76017256106206,1.75933438612408,1.75975119954627,1.75957037537368,1.75923424586359,1.75754779171757,1.80561946190654,1.80516650022959,1.80625069278835,1.85563032573242,1.85469242277293,1.85316586936669,1.80005437730369,1.75464796502262,1.75334986101233,1.75306626252577,1.75291880160178,1.75358874514239
1.90353045313133,1.90397560875615,1.90545464145586,1.90385965093123,1.94139588423696,2.02610051920089,1.97025826696336,1.95679153669228,1.95640690037835,1.88527064575125,1.96509911869034,1.96099968174721,1.96155135515187,1.95965569738058,1.9233014041144,1.88474076194333,1.88579897265307,1.95859068241073,1.93207750961389,1.96750913092086,1.96579630094792,1.96744004959585,1.96509951553257,1.99095052273133,1.97107701097895,1.89085764898429,1.91813004748797,1.9616741835409,1.96414467160582,1.9688363494603,1.96942111272043,1.96765202185473,1.96769333571228,1.96865248643516,1.96976648779154,1.97141292467922,1.97063176123029,1.96952256372427,1.96811285554806,1.99870760695546,1.98442675036166,1.90061143525292,1.97861786410868,1.97837963083691,1.97968267260725,1.97082540415933,1.97967885804255,1.98831791870292,1.94266178039172,1.97729451828945,1.97878268584215,1.97676839228041,1.9857982351857,1.9863994468481,1.98670502350917,1.98892610509567,1.98818552936254,1.9793735807578,1.98846494944534,1.99424868851122,1.99195978909724,1.98965394931802,1.99239785280395,1.99546944986631,1.99696647372789,1.90892562921694,1.98976365603825,1.99311684147237,1.99125657567913,1.9833934491844,2.00065880687304,2.0022701655588,1.98066850237995,1.98203260715916,1.98279539252315,1.9100546645269,1.98415798674808,1.98611547523646,1.98766635737381,1.98875388041715,1.98718206007198,1.91247127785544,1.98918264655285,1.98793635822787,1.98874632152103,1.98824479479409,1.93889129557403,1.89475916158337,1.84637103075659,1.84693628529571,1.8469473051883,1.89501387715453,1.89655491189283,1.89592945374499,1.89733268851483,1.8476236757431,1.84764722003551,1.84712604430323,1.85009297472244,1.85013099874531,1.8814203460861,1.8499858149776,1.85194670815392,1.85276903863558,1.85266126384548,1.85269833010749,1.85363313673005,1.85339645164894,1.85547104312609,1.85624788327381,1.85676755752892,2.04572456920745,1.89911576869956,1.91123992117514,1.90975574936628,1.907668382279,1.85735474240311,1.85788237198122,1.85732363341958,1.85668493914166,1.85583279658429,1.85456384017138,1.89373533392716,1.90505966496441,1.85575291580692,1.85545012533725,1.85489584531506,1.90152371867206,1.85286503939606,1.85186905328673,1.85255215391189,2.02504264659965,1.89899564191471,2.02529498351376,1.85266738009938,1.85265637611565,1.85291074964397,1.85209949402744,1.85307375247688,1.78469255319462,1.78390350991711,1.78272422624657,1.7829692983893,1.78186277892702,1.78262918749603,1.82337242899357,1.81501499494805,1.87316493337135,1.81472796123265,1.76855187272977,1.81221092106435,1.85629177936618,1.83151867985539,1.89030281620309,1.78503677906827,1.76434316673839,1.76259728784798,1.76054935643792,1.76027085253033,1.75998041968942,1.75982328157709,1.88822750675817,1.80023385747959,1.88822750675817,1.80549215666495,1.8057714286855,1.80568266827878,1.86028948826586,1.85572146421892,1.85652399728942,1.81319537765612,1.75296433419212,1.75283275251472,1.75163573978881,1.75233601597066,1.75260340982251
1.90125804676273,1.89757352525665,1.90620383659011,1.90696995941579,1.94298318353886,1.99423813115862,1.96539386036732,1.95776656476995,1.9573851039059,1.88559415456454,1.96746579397711,1.96909048315858,1.96202353643723,1.96161635865527,1.93194736138821,1.95960973651809,1.88676612048581,1.88710703642164,1.92513969674794,1.96218870875548,1.96427637832026,1.96608378659757,1.9646469170693,1.96378703078656,1.96644897365819,1.89066354630024,1.90722673251985,1.89182818770911,1.9256771795473,1.89331307825735,1.98107344740931,1.99285073508129,1.96695812722141,1.96838415815143,1.97014367046624,1.97118878197184,1.97114165709654,1.96943473950858,1.96867896166901,1.99864575188399,1.98551099088317,1.98894086871256,1.98875332619668,1.99101348903856,1.98048780558101,1.98119255491527,1.9793597167817,1.90381518885044,1.92970784482965,1.97885658654108,1.97912313409044,1.97848403824644,1.98643081204256,1.98720702977827,1.98847931357033,1.99020318717578,1.98954206958931,1.98024192378755,1.98572073641534,1.98262857142413,1.99186394516609,1.99051096283606,1.99215752665689,1.9091714892953,1.99349455419144,1.9935024273282,1.99213138245846,1.99335044755681,1.99018331476509,2.00322325225724,2.00560191245308,2.01775219255663,1.98052316233213,1.9831387871415,1.98296741145438,1.98195320993329,1.98212083298179,1.9922369237088,1.98930565114874,1.98932097809946,1.98705207767136,1.98559465197326,1.98820964021275,1.98833186953491,1.99456907930822,1.99863885060047,1.93835522482417,1.84547994523477,1.84696904051597,1.84708959024411,1.84770289812767,1.89595419407516,1.89648967083606,1.89666351118518,1.89700241075803,1.89784771121452,1.84843405905603,1.84876246396752,1.84950470379572,1.92473871164615,1.89654942017106,1.93450221675066,1.85215931017039,1.85186154945627,1.85208080673138,1.85189536227877,1.87798420182219,1.90366857362821,1.89088743000712,1.94544975720191,1.85664402618865,1.85710602262751,1.85685084989942,1.85743298977384,1.85585993092065,1.85616564528009,1.85652900954332,1.85699660997371,1.85714733318787,1.85686950992343,1.85649285337574,1.90625987737543,1.89771176233321,1.9054608159515,1.85583816750302,1.85498930404542,1.8546127119576,1.85302639029726,1.85315898586946,1.85335834717654,1.85258296393042,1.851320750657,1.85238733092264,1.85209064735386,1.85297923801388,1.85294627299045,1.85350105769671,1.85362205477627,1.85373022269438,1.78559517863839,1.81967986043313,1.8837954351104,1.84726606298462,1.88381161056551,1.78214192880412,1.77440223688775,1.80251869860112,1.82321527457798,1.81640081278344,1.8675650062998,1.83320454114664,1.86066994098753,1.8036697202241,1.76653148630049,1.76578649289831,1.76076346506398,1.76153403961596,1.88176379936408,1.78466847756646,1.75976917396752,1.75982531285956,1.7568283666582,1.75729881160552,1.75873389771266,1.7881948901107,1.80631429971081,1.80572336758828,1.80507805332731,1.82261223321652,1.85526564708904,1.8294884534702,1.88463083900265,1.88451799995824,1.88354058467488,1.77802693479548,1.75329232590336
1.89972691038884,1.90761280250661,1.90637653132543,1.90752028851363,1.94414784398841,1.9601831238868,1.96039231684889,1.95879161543306,1.95903313292425,1.96166218529085,1.96485990679492,1.88592737388767,1.96280782602693,1.96274883197725,1.92646823808853,1.88712560848233,1.88715565583559,1.88706145668912,1.91726065757802,1.96238571840865,1.96247583740921,1.96032531400065,1.96388818435458,1.96421452276282,1.96568852444448,1.96539089560288,1.96602883376425,1.96736473457512,1.96785355805528,1.98956961343037,1.98360504082612,2.00198185011809,1.9660675656002,1.96907801207269,1.9701223434524,1.97194490054371,1.97244886646749,1.97159778315954,1.96993937097537,1.99525882686246,1.93197298758739,1.90044648059816,1.93894635682364,1.97602979002176,1.97781856709758,1.97789612318742,1.97841969248697,1.90447222743455,1.90458051440577,1.90487201423481,1.93691055795369,1.99869161107922,1.98673844567475,1.98157638987065,1.98944672680575,1.99018363008862,1.99035833344662,1.99313897325279,1.99161662095307,1.99319558120401,1.99172771444317,1.99341349819289,1.99240681377013,1.99409348841573,1.98976455280945,1.98563238332637,1.98539067851032,1.98177393720863,1.98651845285422,2.00902750230911,2.00709226811126,2.01152711789156,1.98057443607763,1.98305438583357,1.98430823497401,1.9867736329294,1.94538269554186,1.91085532915735,1.91098001527669,1.91107389759869,1.94175975696545,1.98515615075985,1.98905005116509,2.0016112409093,2.00026657900502,2.00457281207283,1.93735504336043,1.8486673921357,1.84780193321353,1.84784625512834,1.84810502102445,1.89703982767625,1.87177203316922,1.84860152053464,1.84909348459533,1.84955704060368,1.84935469542793,1.84921850159781,1.84977928593735,1.84871725639967,1.89174468192809,1.89934972080452,1.85216318086796,1.85229468041961,1.85195301575097,1.94470245169238,1.89727623521963,1.9439454409165,1.88027978576106,1.85572944708647,1.85623791418865,1.85606482417453,1.8561404322997,2.04453082144548,1.85472821638749,1.85532770700492,1.85607732398896,1.85750410389326,1.85730397737672,1.85736831309854,1.85661806488557,1.85575766093895,1.85653260207929,1.85704317713307,1.8565077912215,1.85638170752402,1.85525872224052,1.85403635730364,1.85395404329033,1.85346860173124,1.85345748855091,1.85370508122171,1.85316141452326,1.85339130607987,1.85349450753301,1.85460030441157,1.85374243545284,1.85363992330224,1.85379775636526,1.93039688908145,1.85260591129619,1.88400248079269,1.83474262219314,1.77985852296515,1.78166563959095,1.77521825547744,1.7746789086846,1.77374393879024,1.81270467664201,1.88135616653798,1.82347928875533,1.76837477123722,1.76738378071271,1.76597019679928,1.76529507376524,1.76234657139394,1.76203155779114,1.76250913699353,1.79267567367415,1.88947948611829,1.77773600762291,1.75817652874821,1.75710952138884,1.75695379604322,1.75642853700377,1.75658895071804,1.75656104590956,1.75687333134674,1.78704184803906,1.75606119563896,1.81609207172901,1.88636215620379,1.8846607369219,1.88424572946606,1.79268610435364,1.75170095557112
1.89910039571676,1.90132294157788,1.90315935976434,1.90716304860988,1.94495728243668,1.95938906972241,1.9592184028186,1.95851500173622,1.95951353369169,1.96091540019621,1.96283948288671,1.96284687278293,1.96368774186809,1.96286414422971,1.92198172106484,1.88720092206259,1.88725747838284,1.88724115116142,1.90925341935915,1.96279845085783,1.9630515324323,1.96263881071582,1.96389759727207,1.96454867213143,1.96555520226589,1.96558922556984,1.96575011375239,1.96699320065937,1.96805295338539,1.97699024011788,1.97915818898721,1.9830165548938,1.96541625568863,1.96774969207372,1.96996599677292,1.97224267609481,1.97469852427231,1.94121173361015,1.93632618035042,1.92968374590008,1.92117515967359,1.91435655651051,1.93153460980259,1.97798892538947,1.97857839399643,1.97888951311713,1.97909339115842,1.93191584640116,1.90443700616915,1.90436270375025,1.93262423412756,1.93856788834266,1.98747067160968,1.9872976542543,1.98908087574962,1.99095191477016,1.99127655444969,1.99176243081448,1.98960999229577,1.98985375607027,1.98945116667595,1.99104841448568,1.9905173699535,1.99012070333223,1.9878282439144,1.98620426055584,1.98533109778691,1.98648699600046,1.98455875864311,1.98067876215748,1.97924405775232,1.9794345886101,1.98107274846096,1.98294275611592,1.98429362163556,1.98521305571916,1.94093339766493,1.91069506735319,1.91069350365345,1.91108141389569,1.93514068049034,1.98867179404459,1.98979490268827,1.99784544528812,1.99731379011609,1.99650957526677,1.93636364290062,1.84889954453449,1.84893888942697,1.84881444732186,1.84898770533394,1.8488099180705,1.8487615641332,1.84859693561581,1.84892707096794,1.84907692694495,1.84931495579169,1.84955123974674,1.85057146308894,1.85121500571255,1.88663591834534,1.88893542723744,1.85230675451567,1.85219362952249,1.85245147960389,1.85377048490108,1.85452473948761,1.85518789063334,1.85562075615389,1.85592621383853,1.85608908344951,1.85618969305203,1.85546016859203,1.8546957243942,1.85430452858954,1.85456229991753,1.85543024014606,1.8566732980813,1.85724103235451,1.85742354014181,1.85697520664926,1.85639095430103,1.85647959711278,1.85644838569608,1.85651800469409,1.85640114847302,1.85583652280986,1.85519012603703,1.85459639136523,1.85404599336734,1.85399634442411,1.85387899390268,1.85405426580519,1.85393965826559,1.8543593346611,1.854308267801,1.85414004609625,1.85349386747991,1.85374755837373,1.84098085399782,1.83641137298124,1.83130568192487,1.82429524063283,1.81833818682509,1.80978168951618,1.80304642665602,1.77468074632234,1.77428796366214,1.80836833536897,1.83035081905838,1.81746902139479,1.76782153801465,1.76695030226812,1.76542180546515,1.76470345506061,1.78406510951523,1.78705636424699,1.79138324835845,1.79554315677015,1.80083554352828,1.78661037888406,1.75743015936149,1.75691566126997,1.75654202531613,1.75636362030135,1.75639697212835,1.75646894807586,1.78751611817577,1.79306948559318,1.80217457217984,1.81033172872432,1.8172479077163,1.82198209310576,1.8343984907917,1.80799326971912,1.78958551199441
1.89904503442139,1.89748829757461,1.9012237953893,1.90618060923791,1.945027780425,1.99540114941919,1.9685393300925,1.96832135454978,1.95991756157822,1.96019049770772,1.96240054300515,1.974482652528,1.96669735529399,1.97059186730355,1.91493828569793,1.88664811970782,1.88728485043219,1.88661425372449,1.90138251690915,1.96230919336403,1.96337718634031,1.9623173554045,1.9641735675253,1.96397060915672,1.96515338543947,1.96540848584651,1.964782039302,1.89086088086821,1.96573541268501,1.96580858194091,1.9778987013273,1.98491470841687,1.96593953522828,1.96845554720084,1.98521154339497,1.99397238091644,1.98149494022625,1.89863319289678,1.91917051698571,1.89940803114489,1.91479466590344,1.90165801837129,1.92360019987008,1.97814707371703,1.97832117857662,1.99888694302627,1.98567210920194,1.98877887807418,1.90429885861292,1.90373281553219,1.92314654490096,1.90700726346587,1.98901960122094,2.00096706872341,1.99297655963944,1.99335877532958,1.99269147050443,1.99372683769519,1.98736973355457,1.90746337197994,1.98719468634603,1.99300583743598,1.99001012262773,1.99037553350269,1.98510040474014,1.98443181660696,1.98356422688987,1.9898702022268,1.98663951873525,1.9833703400763,1.98237243225535,1.98341735026932,1.98248591798512,1.98382905673606,1.98405308270055,1.98376229370956,1.93337083806927,1.91012089616124,1.90968618208288,1.90777261805004,1.92567660186182,1.98974842413984,1.96918288401642,1.91267511377873,1.99473147419313,1.99569840955473,1.93585245411807,1.84975034427528,1.8496082263037,1.8509574710606,1.84919253826865,1.84850109865526,1.84839274607651,1.84823235468547,1.8484912041404,1.84828732081123,1.84900032148668,1.84846232858426,1.85187679750807,1.85292134403349,1.87845946866827,1.95091382214998,1.85242617727256,1.85269526849263,1.85283435787342,1.85459747739236,1.85441222742983,1.85511251513328,1.85555581347911,1.85586835350826,1.85642883221961,1.85612249585474,1.85572822199018,1.8550918879748,1.85452052746974,2.01217346340962,1.90149800829127,2.05221739240061,1.85772951031917,1.85806917933858,1.85722835496723,1.85610068150038,1.85610227278449,1.85542180993255,1.85614114633151,1.90473615745896,1.85605259524397,1.85598571772827,1.8549985499317,1.85365286675735,1.85409699981268,1.8544937135687,1.85435116598321,1.85459584898081,1.85468553858222,1.85537086007007,1.85403896271536,1.85319489415624,1.85350575946553,1.83401389667918,1.82860088205321,1.78645809230811,1.81430328181737,1.88188996782673,1.82997437966953,1.88558767430893,1.77444668743111,1.77390621525277,1.80425346460342,1.8830934086491,1.81179599967516,1.76838580576965,1.76773028622217,1.76323678056016,1.76406509181811,1.8856288422414,1.83336357540168,1.88717933799156,1.80857599154106,1.80737694886281,1.79710634559245,1.75746728470523,1.7900116280764,1.8073535056404,1.79089796031294,1.75660764789827,1.75642446294979,1.88345251571029,1.8274639335783,1.88006929581641,1.80349351154416,1.75225418315141,1.80007838609808,1.88368382454729,1.82430450334621,2.051033349905
1.89824629392755,1.90080764546186,1.89876760358127,1.8262884967751,1.94423563182323,1.98788304290281,1.96886044822045,1.96090008376362,1.96063277886903,1.88667466420225,1.96221107926628,1.97275553961693,1.96578095259585,1.96247340935521,1.90728960597475,1.88770514529742,1.88727529657849,1.88779966215308,1.88961390547096,1.89093476050038,1.96498717029127,1.96685408130278,1.96615178849814,1.96732578277901,1.96537266520378,1.96496146857335,1.96436282911283,1.89145613696045,1.96644181390281,1.96585774743508,1.96827961691078,1.96776867653923,1.96665443772525,1.99210312985056,1.98798959473326,1.99169537211052,1.98633996318292,1.89867848505262,1.92746578893231,1.99160070349487,1.92613256347435,1.90106923757441,1.91466024842674,1.90182136826021,1.97788907317835,1.97917527701021,1.98270652244777,1.90413192679094,1.90478028353273,1.90613329572506,1.93246393621738,1.99049652668067,1.9899507553443,1.99673334680393,1.99319875681504,1.98588670655774,1.98715364731069,1.98367317137862,1.98570293689391,1.98271362995249,1.98335795279209,1.98273124462559,1.98236792514548,1.98181897060168,1.98305614852852,1.98228310069579,1.98297154620601,1.99487718089713,1.98555891581544,1.90880268590781,1.98339912323757,1.98385353496304,1.98236211782481,1.98275293925478,1.9833782822878,1.98422548668039,1.92520579798385,1.90975812196569,1.90954998760923,1.90956903229499,1.91121173503105,1.9116295323469,1.9682813725253,1.98915506276444,1.99116126369114,1.99078189865364,1.93566018253109,2.04599631666546,1.84994784474983,1.84991014684641,1.84956354449744,1.84791420772354,1.84880055617987,1.84811813519153,1.84884237294529,1.84945247175302,1.84988652224917,1.94829340024465,1.8518137849775,1.85200713653703,1.87112842602556,1.95200081198202,1.85266384442474,1.85205018486069,1.8531264494412,1.85332299119264,1.85429145245338,1.85488904476582,1.85543496463126,1.90511466504287,1.85634554377663,1.85724597938986,1.85578125159056,1.85625008742262,1.85542783573772,1.90749245576764,1.88500161970269,1.85766862872435,1.85766390903007,1.8579778475767,1.85741745560876,2.03649486090148,1.85626758089016,1.85603348560841,1.85614258218367,1.85601573117571,1.85606010210315,1.85590094178715,1.85553782434766,1.9055708153632,1.85464608544443,1.85456971214196,1.85485914763042,2.02214077195876,1.85506507353877,1.85425433397649,1.85451285606689,1.85376842893317,1.85384716737136,1.78944731356194,1.81482853283335,1.90180517439229,1.80639806333386,1.7802861171992,1.79376059247627,1.7737131403405,1.7739792711949,1.77332393562533,1.79757380624958,1.86377996370971,1.80402801109576,1.76872491465105,1.76766726457097,1.76691869115874,1.76525473597183,1.89041855006555,1.81764577701345,1.76268988642721,1.80916684500856,1.81036926345657,1.80851980738233,1.80835574352221,1.80778901400077,1.85466669569398,1.80977010549626,1.84802829320913,1.7561702880907,1.75514915023612,1.81476329546662,1.88740834629688,1.79801355038663,1.75256875546414,1.78203823291037,1.88266800666854,1.79153118669421,1.75293315740896
1.8986367780425,1.898102567474,1.89812719329968,1.90580209364282,1.94300836873987,1.98534966932042,1.97022844983036,1.96837405011997,1.96496456430436,1.96643601110842,1.96296472378062,1.96326500729143,1.96518975722185,1.96792838473161,1.90026176870892,1.88709307159039,1.88782827683015,1.88694266738059,1.8883419628793,1.88740345287552,1.96539849189848,1.96451924192832,1.96543237112063,1.89081881658603,1.96415713570707,1.96488831177965,1.96501371221824,1.96642057281711,1.96698406738344,1.96701061026878,1.96861653523224,1.96790083566507,1.96750062244218,1.89644786870899,1.98590215251032,1.99139669551276,1.98795006374579,1.98655193421249,1.93858319319001,1.98787877693134,1.93979653072782,1.98396025410841,1.92271513245393,1.90091555274709,1.97752609616294,1.99137984327586,1.98407673471571,1.90388250742986,1.93382905223322,1.9872758349646,1.98616222803812,1.98920743927855,1.98917083626354,1.99544799829326,1.99368754183655,2.00572781926046,1.98919302448116,1.99056699871115,1.98728249522986,1.99246838886057,1.98232293117714,1.98220273112979,1.98377261028597,2.00193615065987,1.98868978640721,1.99092334941237,1.98448364364634,1.90839506436702,1.98154267858693,2.00217776936327,1.98247953857039,1.98216628858264,1.98152056337739,1.98129065928879,1.98289979068217,1.98347400403511,1.91929049374736,1.90817500723554,1.90964399873084,1.91038244939602,1.91095614783886,1.91169146510315,1.96685786369861,1.99555632268863,1.99002853374652,1.98648796328567,1.93526907320667,1.89810748103909,1.84985472840479,1.84936105022166,1.84958732441991,1.84986521506316,1.84933224246807,1.90729835101798,1.87344820145945,1.89870918061797,1.85084080641033,1.85090168927666,1.85155639658506,1.9007278797843,1.86511514060846,1.85320524434973,1.85305381309393,1.85380878618525,1.85327710839414,1.85417498796361,1.85401937601569,1.85629712314791,1.85568510919352,1.85582817216174,1.85636649133735,1.85647100046425,1.85581349696278,2.04126983796464,1.85663673531801,1.85838487233911,1.85786911023418,1.8575753783681,1.85768145629535,1.85744610014719,1.85727826393707,1.85695362158386,1.85655176888346,1.90441587441178,1.8815145976464,2.03516523941051,1.85622283907226,1.85631528608268,1.85559115063247,1.85504603959386,1.85488938550901,2.03129283813387,1.85540352221228,1.85624648937037,1.85549597546947,1.85596453389603,1.85489709179211,1.92058515362871,1.86435842037435,1.88924655158925,1.80717437694367,1.78191526018455,1.78124437183455,1.77986957970262,1.80699424182775,1.82419710811259,1.79690911793539,1.77343386780929,1.79172638142103,1.8845589053302,1.79539372039635,1.76810371257741,1.76729924780091,1.87760024009672,1.76522264637224,1.76527054266148,1.80561045786202,1.887354032786,1.80960957738799,1.80827026808807,1.80884148227712,1.80714062077654,1.80778423551089,1.75627969735825,1.75758912662422,1.75886743139792,1.75689923376663,1.75643150758949,1.81321233212815,1.80353606923652,1.79086005975862,1.75435016001223,1.75411304470188,1.75416352086069,1.75346356787936,1.7531071956244
1.89744193099834,1.89810212325729,1.89660755966993,1.90746302859227,1.94193645301452,1.9860384734662,1.97198175809352,1.96564662179264,1.96377093472599,1.95959215524814,1.96060434051839,1.95969585372897,1.96146306869669,1.88777759062726,1.88799392013519,1.88788417344011,1.88772208538118,1.88824755256138,1.88795918328083,1.88824116535396,1.96561994926044,1.96439048279248,1.96486759459474,1.96435021212843,1.96342166111427,1.89050826039285,1.96544395420066,1.96733589516413,1.9676581032254,1.9683595238298,1.96946138623615,1.98959900429825,1.97285163005884,1.97195558289501,1.98177580571102,2.00331253558804,1.98793992891085,1.89895187241698,1.91482578129805,1.90092204680638,1.92088408054263,1.90070851927008,1.93454420593173,1.981161479037,1.98024311115123,1.98170047694392,1.98445676661772,1.98855841664413,1.98641065321725,1.99556766372674,1.98314560968266,1.90686164720405,1.98779997212368,1.99836551632121,1.991644441253,1.978051667684,1.97958700706396,1.98192974121149,1.9828385617859,1.98317698983508,1.9828907789195,1.99008246485,1.98689840666596,1.9896379548206,1.98784712024167,1.98408973190809,1.98466088901107,1.97924778471923,1.980980742412,1.98181873780947,1.98135383111771,1.98129178402742,1.97994065830235,1.90851037457056,1.90878988954716,1.90896080039659,1.90942879232706,1.90998120977535,1.9097419533154,1.90976453213177,1.91031282488252,1.99714000582188,1.96533303085848,1.91110287142779,1.99265039949233,2.01361954357093,1.9348366378342,1.84955168354785,1.84996879953363,1.84992437422834,1.85021657778058,1.84995486860709,1.85007810884585,1.84959372181027,1.8507438536273,1.85129238723998,1.85132237506112,1.85160241549859,1.85170767224766,1.8515339742818,1.86016180483659,1.85254214694726,1.85313629590839,1.8537579513075,1.87839761158197,1.94587678892164,1.85324427990138,1.85443635665551,1.85528248123001,1.90454203451618,1.87425111194316,1.85701735673762,1.85582605024021,2.02890535657228,1.85714757497623,1.85890412637209,1.85792140094228,1.93573478557806,1.85754091851084,1.85736917428979,1.85684257948874,1.8557225561752,1.85634600419093,1.8561572282679,1.85643870841556,1.8564470193534,1.85611241712055,1.85561231521528,1.85552157411593,1.85485500365881,1.85513046188345,1.85485362274722,1.85474859039198,1.85375494543363,1.85457226299833,1.85471410617611,1.8546258684743,1.91504286884685,1.86317822703115,1.78569981453429,1.7854819095031,1.78104013153057,1.78160256811005,1.82987941980418,1.81510193414932,1.82600880060255,1.80386058992524,1.77264319794397,1.77180129884332,1.77152787809124,1.7877025028291,1.88494712672934,1.76673053166812,1.76620613444124,1.76559744014682,1.89010062316516,1.79556451529952,1.76037444443725,1.80274791272279,1.80966828466104,1.80835136914067,1.80797461012232,1.80758959393157,1.887489906515,1.7572799423034,1.75718534334582,1.75641733650013,1.75599939492884,1.81801869507023,1.88561679010801,1.78289998578117,1.75341854175171,1.75399061177319,1.75347432934211,1.75331461504669,1.75086881025204
1.89681498833171,1.89670723603065,1.89645708383227,1.92237124793326,1.94135762404919,1.98170442000874,1.97374051501402,1.96374907699633,1.96220643327594,1.9598850120594,1.9607471713414,1.96031571603274,1.96131224795567,1.91517214712151,1.888200581725,1.88802665686949,1.88805158471579,1.88777887519292,1.89924398281381,1.91242187182247,1.96610905756629,1.9660729815766,1.96715384520488,1.96705245507896,1.96603781760943,1.96578307388672,1.96673226958826,1.96748588346238,1.96815792805165,1.96897817770459,1.96976200099919,1.97370198460572,1.97339633677329,1.97287296830436,1.97775921395387,1.97949063296227,1.98283290641695,1.91583258370244,1.9227362930245,1.9299995331567,1.9362911409044,1.94337573526916,1.94731651282645,1.98190656579274,1.98154495597125,1.98240698852396,1.98340676361809,1.98765984726307,1.98566061142896,1.98303029302644,1.98112111764466,1.97989508516856,1.97917884919579,1.97932136926164,1.97913541402222,1.97927699736111,1.97936109058034,1.98012748792145,1.98249868144594,1.98348988023475,1.98418607360626,1.98573937741023,1.98509799054508,1.98581148149984,1.98646357251997,1.98642045511099,1.98523923719053,1.98431256597057,1.98267303165641,1.9820049187144,1.98125682154379,1.97993382050295,1.97924148252757,1.93624303412142,1.90903789658485,1.90935827512511,1.90941254457221,1.90973947340519,1.90982852771091,1.91024532909484,1.91026996737223,1.96413211910715,1.9639063390318,1.93412372604057,1.99312946972401,1.99280824543403,1.93459989630843,1.85016643795005,1.85027689988624,1.85043513804128,1.8504548171859,1.8505370484075,1.85048417729352,1.85052949401837,1.85097926841651,1.85131503050392,1.85157413327533,1.85182861002767,1.852188770843,1.85226876571838,1.86675872842712,1.87521944108454,1.88286200369137,1.88961901831304,1.89488957203191,1.9051659209922,1.85282758149268,1.8542316399696,1.85509294025959,1.89517411877147,1.88868407167322,1.88085787954211,1.85620353571381,1.85694807081076,1.8570921813082,1.85751044102198,1.85752069013389,1.85729070820673,1.8574693719464,1.85752388129653,1.85690101534251,1.85637719130321,1.85662066905127,1.85659346740412,1.85650769501647,1.85634431419608,1.85600040323032,1.8555230569609,1.85532859332741,1.85540308243565,1.85520092164523,1.85537904292978,1.85516784579395,1.85458709757742,1.85471765849423,1.85445710436081,1.85443088111004,1.85400141948049,1.85342296677174,1.78608049094658,1.78504613089745,1.78148971051975,1.78175080863135,1.8008465054425,1.80732976931725,1.8139240173798,1.80757318424305,1.80267371069424,1.77097093109747,1.77058510024534,1.76973869175309,1.76868481028547,1.76714803477034,1.76580803151036,1.76443622454566,1.76317842868985,1.76195390491382,1.76110150323161,1.79735762752801,1.80930029652904,1.80877988267738,1.79463747197076,1.78606860937337,1.7784618870569,1.7570368520456,1.75644866091531,1.75599894520763,1.79302071878637,1.82091502986171,1.82215967066673,1.77523925734588,1.75444107379887,1.75421581282414,1.7539834778043,1.75375592926566,1.77266007450824
1.89638239429745,1.8970014636931,1.8966945543745,1.99526018471558,1.99435948325663,2.00165293935718,1.97600688786891,1.96112298860778,1.92538636268573,1.88772284594794,1.96240338050328,1.98174743827407,1.96235154779051,1.96165211671516,1.88807722121019,1.88807494435275,1.88796648573007,1.88748456519212,1.90686061298502,1.96339599246173,1.96549972408138,1.97165138413103,1.96940386539375,1.9806299269531,1.97781175088272,1.98581215409238,1.96717246214369,1.96761002111785,1.96802826136762,1.89391481668052,1.91936049752103,1.89539002362246,1.9731301778354,1.97220551573872,1.97700919787501,1.97633677713613,1.97997517300712,1.90011649982052,1.93333436199034,1.99169699158896,1.98520407103361,1.98496898450935,1.9831374109867,1.9828183539527,1.98169423373173,1.9826677399649,1.98134260262637,1.99077236104362,1.9862643243254,1.97839150023668,1.97962922031297,1.97948171500792,1.98027810494881,1.98109353781538,1.98040484906297,1.98101153668756,1.98090040994109,1.99831354512106,1.98445848780104,1.98406915118751,1.98390178793317,1.9840216840004,1.98350775233193,1.99988572966829,1.9870677479748,1.99025544910572,1.98596357316029,1.98498214794394,1.98442586024511,1.98290598019584,1.9822044211259,2.0000733979396,1.98394462877763,1.98336172186333,1.90960219039464,1.9091211305146,1.90980201730436,1.90940396165902,1.91023186748038,1.91024788886878,1.91065773159171,1.98866064643152,1.96239084169828,1.91192781968407,1.99092296433077,1.98949935778629,1.93465661030475,1.85035815917933,1.85050146876611,1.85042440913026,1.85058640470306,1.85034715188229,1.87974827284539,2.02789599490875,1.8508929177176,1.85108065453129,1.85133394119138,1.85190705033064,1.85239583362829,1.85279625795862,1.88142037162469,1.93468661285821,1.90194308423737,1.90176365736161,1.90219750133865,1.94839045290823,1.85311621362882,1.85515174280608,1.85527874543984,1.90684218076235,1.89378075006113,1.90447410916034,1.85698847962105,1.85895485515679,1.8573522997848,1.85763299138174,1.85727329285694,1.85668889174702,1.85745081303426,1.85742891789601,1.85693483325629,1.85572232417134,1.85670995666737,1.90520039592462,1.85628532199164,1.85627561689228,1.85577569530535,1.85467799047911,1.85512513485099,1.85461667458783,1.85531142810097,1.85560755367131,1.85539803797881,1.85489600619132,1.85432639356088,1.8552897948047,1.85399912294941,1.85551667317189,1.85362375011633,1.78710382644403,1.7836176151939,1.78041529019908,1.78130297719802,1.77614073882708,1.79756972936652,1.87046686932397,1.83302326691944,1.87022423766503,1.77016712896369,1.76961407990993,1.7694267867404,1.76883177555087,1.7675623355264,1.76547565765774,1.76440222668879,1.76337912395058,1.76160413418431,1.76094706206371,1.78826252262741,1.81092660794681,1.80847261649234,1.75912197537362,1.75916687490366,1.75902806288345,1.75750432245346,1.75583832489817,1.75569802248715,1.88538386370424,1.82179030826622,1.8458251819562,1.76958635786414,1.75512218673838,1.75455024997071,1.75331827846826,1.75364234058161,1.87027276399682
1.89659485733079,1.89829201361782,1.89730196067226,1.83366449920691,1.98979094674381,1.98579673825947,1.97864378569281,1.88702406789278,1.91005892162509,1.88954743603148,1.96624569177475,1.96677070138759,1.96430297381878,1.88763324387807,1.88776484781115,1.8873407729646,1.88824638753911,1.88943082575708,1.91345402755651,1.96469508459939,1.96508920740857,1.96528340182227,1.96680063682038,1.98253218145178,1.97507201620567,1.96600274914174,1.96690908907374,1.967407962731,1.98081510470761,1.99862288772876,1.98332625843928,1.98129615312207,1.97752883363485,1.89744751948947,1.97838213036328,1.98815118415141,1.99049490831714,1.98694561356074,1.94464662093249,1.98168013040493,1.98648316469391,1.99513986977738,1.98181307000783,1.97822401989947,1.97831137511372,1.97746394327659,1.977806905421,1.98832536828129,1.9874179112097,1.99809240831277,1.98036657937123,1.98087114440304,1.98168221936502,1.98283594323543,1.98122961910067,1.90870562987986,1.9839132629356,1.98786759010107,1.98710765513726,1.98489530848429,1.98368799880943,1.98370647917622,1.98336697585086,1.98420718606374,1.98688229998112,1.98843918339985,1.98991124596562,1.99166192070954,1.98794086282976,1.90953219898929,1.98266128067261,1.98382076208642,1.98764478928842,2.0055350562398,1.90981776642703,1.9112359549982,1.90962951462616,1.90964530182016,1.90990219690567,1.91151986200712,1.91063350834525,1.98586914815238,1.96147083020257,1.98824646845231,1.98852043888466,1.98794397671498,1.93485829264454,1.85061054707913,1.87335675312048,1.90027172632221,1.88237200506973,2.03299125974643,1.89568102355311,1.9417132296319,1.85035598631062,1.84951903922636,1.8505726495267,2.02541144672124,1.90030617178458,1.90055748938838,1.90117516759306,1.9014716839098,1.90219283964102,1.90252125279966,1.90263540515401,1.90534843967447,1.85308170956429,1.85410623848171,1.85528607741266,1.85643105929918,1.88092236000786,1.90540581171168,1.85712515260974,1.85748816463864,1.85736716323294,1.85761950918076,1.85773414595545,1.85863370100288,1.85728016301918,1.85697749360509,1.85661481882345,1.85667477032614,1.85595587177959,1.90519392568869,1.85596591686002,1.85636905692674,1.85593101553699,2.02186902450075,1.85456652727676,1.85487307036827,1.85451382244635,1.85500751192762,1.86829587407177,1.90197015750456,1.85374141039849,1.85148359111188,1.85341064938844,1.85253436953798,1.85363545123149,1.93135771045084,1.78270864999224,1.78247908052493,1.78010945990124,1.7788745608064,1.77658717430188,1.77435566554333,1.77334436852361,1.76979792042519,1.76978831091389,1.77007437736741,1.76920191356222,1.7689639741836,1.76797666188194,1.88665525360826,1.81147843278649,1.8904111916886,1.76068779901334,1.76051653578433,1.77933261780017,1.88732491698692,1.80809401099588,1.80745056427038,1.75876783649364,1.75766975182293,1.75750948327951,1.75728755143862,1.75567785422193,1.88379220002161,1.80264288031377,1.75446763019244,1.75491854639359,1.75583018936351,1.7547669819779,1.75127658382105,1.75317219485907,1.75319005037779
1.90538746512814,1.90997377381471,1.90943179362836,1.98728106889775,1.98942176664731,1.99911663971826,1.9813424504642,1.96223838221998,1.96451491630781,1.98347822586814,1.96943874187281,1.96288019852154,1.96349379372816,1.96298375707399,1.90658229004019,1.88786353660917,1.9151067288315,1.9638032142529,1.92047080358482,1.88908158307168,1.96438290613287,1.96428181790124,1.96542145444165,1.98137477254908,1.97307870399733,1.96643592741576,1.96810239999319,1.99235943060178,1.9829611851529,1.98621200430671,1.98480567342242,1.98232598009346,1.97980131920076,1.97842493926661,1.97921259423973,2.00582620068701,1.99431564121002,1.89838978908151,1.93165070431808,1.99010522260528,1.98765832900827,1.98904620046176,1.97949278166394,1.90397916151742,1.97596139110334,1.97692775481128,1.97561131610331,1.90533789977954,1.98057256588745,1.9815159773367,1.98126142598119,1.98163347755988,1.98319679947443,1.98481292268384,1.98478816091205,1.99338836249623,1.99442317299633,1.99428118883442,1.99113804739989,1.99165545758986,1.99382748104989,2.02011236476925,1.99505391594067,1.99191064608313,1.99279874334262,1.99806208785752,1.9976659443321,1.99930429535034,1.99153363681094,1.90821875292722,1.99107754901625,1.99459372768951,1.99137175016384,1.90932094611207,1.90994816548284,1.90944068582724,1.90996299118381,1.90999676372693,1.9100461817191,1.91005114952661,1.91095402017988,1.91176894369319,1.92766871336547,1.91184045354581,1.98730596181864,1.98738912711964,1.93501566127392,1.94514889394483,1.88354657413321,1.9002329052602,1.8720679899626,1.85017895014739,1.85048862873044,1.85039191635198,1.85064877678882,1.85077116566623,1.85077683650948,1.94835163182042,1.90047368854025,1.90106377566388,1.90142152948937,1.90197940839065,1.90268286253798,1.90386453347149,1.88846376466917,1.85397516229224,1.85337841648195,2.03801858771961,1.85553477398639,1.85616771093017,1.8568113745492,1.85806877470057,1.85701140510605,1.85731857185829,1.8568000607469,1.91767328488678,1.85714487639093,1.85556938933163,1.85709150056254,1.85787402955923,1.87893123124298,1.90408299098301,1.85464460844141,1.85441954048508,1.85502438835996,1.85476597889957,1.85535696413519,1.85518833263236,1.85461739576952,1.85390968799853,1.85417824762601,2.04481227416985,1.87581884871181,1.8542788699544,1.8532733580267,1.85300377218092,1.85259496612306,1.85308428437744,1.85476192667731,1.78828675414804,1.78221473734096,1.78036919341025,1.78008845267817,1.77716979095461,1.77599931961343,1.77482081661764,1.77321329906875,1.88605351010951,1.76913234394293,1.76913563718965,1.76835869722735,1.88095826225641,1.76741371403305,1.7667024045508,1.79329066382852,1.7614744064535,1.76052942626431,1.76003131364159,1.7733743901661,1.76136027787725,1.80816515583608,1.80806634020854,1.75864706107945,1.75755930731176,1.77447687111618,1.8040504822462,1.75463639371074,1.75636725770804,1.78544366765594,1.87644531340018,1.7551554821204,1.75492551666585,1.75513459628427,1.88092914645734,1.81057754789443,1.88177350463044
1.90825208364926,1.90979639378317,1.9091500947374,1.90427454592312,1.96548312330997,1.99852138014191,1.98295407383422,1.97157663785553,1.97472192709739,1.98240417639124,1.97043374903331,1.97118615473479,1.96418632109985,1.88971243684127,1.91534777242059,1.96348889287059,1.96347413675711,1.96397856252103,1.92947869214416,1.88912040423558,1.96415409000386,1.9649085390575,1.9653750138747,1.97233258735152,1.97254744626324,1.97418723977281,1.97267176959485,1.97779623977577,1.97985293946493,1.98814996980644,1.98734674197431,1.98832877495603,1.98043648430952,1.89871892096759,1.9806691264043,1.99264192721444,1.99446788597058,1.90123174066024,1.92357099787736,1.90170815982885,1.98443418053062,1.99129671049402,1.97829319328275,1.97371604205018,1.9755999151962,1.97685462175795,1.97614690478717,1.97758515111476,1.97962393543144,1.98084231138027,1.98154844231729,1.98684089159555,1.98468377031552,1.98611141740283,1.98460956300245,1.99486681957687,1.99408153755088,1.99464144737219,1.99411691667663,1.91057876997867,1.99300010750705,1.99888136113573,1.99756183380617,2.00783321983917,1.99342403594073,1.99571653904829,1.99600835872103,1.99571772589067,1.99206815871555,1.99130771622334,1.99087513024307,2.00699074231649,1.99587169868324,2.00121152409118,1.92092607804927,1.91002575332675,1.90940844428387,1.90874557071121,1.90944544269428,1.90977374863882,1.9105899767711,1.91205542684928,1.93794459861455,1.99912119677578,1.99468516513725,2.01790927381186,1.90561410970234,1.85158504893139,1.85236081665964,1.85243091860645,1.85221846479548,1.85031703936323,1.85078851248872,1.851079862349,1.85098939675674,1.85091692626012,1.85089112078932,1.85037192869485,1.84948153993948,1.85071490693465,1.85078364486592,1.85269941979085,1.85360586057593,1.85424160029273,1.87658145643876,2.03598048178454,1.85426377626617,1.85488536401579,1.85566438602654,1.85725643736614,1.85632425387459,2.03514582887779,1.85635531755733,1.85654494970525,1.85672844062108,1.85736150159365,1.8574430041153,2.04193951532803,1.88902751107581,1.90495176600442,1.90664829972547,1.90521398213763,1.85343429495957,1.85406013070578,1.85484774205862,1.85506599028325,1.85535549500772,1.93737497559248,1.8544384370482,1.85489286105722,1.85387982086866,1.90334487744086,1.88537826863664,1.85370645186958,1.85343041787864,1.85300322906264,1.85300739088058,1.85316285345156,1.85522805183868,1.78331114079651,1.78205496668802,1.7820843506511,1.77978989225929,1.77775730563832,1.77607807755356,1.77518362098632,1.7728183900768,1.87551362479207,1.76863515549601,1.76921520206435,1.76728307070769,1.76762058385935,1.76712073845277,1.76655841228219,1.80684350549969,1.88417069267492,1.88206183458747,1.88849923717645,1.87624919107285,1.88385042147841,1.81288914656035,1.75913817318375,1.75904744106387,1.75572304314006,1.78378392415418,1.80496924747325,1.75280575482429,1.75318205262653,1.7532671424912,1.7528002966739,1.75462141630154,1.75632966362782,1.75483638146394,1.75400601101537,1.79313126451511,1.84469938712247
