1.79998, 1.79558, 1.79552, 1.89407, 1.79699, 1.79467, 1.79631, 1.79264, 1.96984, 1.7921, 1.79276, 1.79509, 1.79072, 1.78929, 1.79064, 1.79037, 1.79153, 1.79185, 1.79284, 1.79056, 2.0666, 1.79079, 1.79083, 1.79235, 1.97083, 1.84295, 1.84063, 1.84056, 1.7906, 1.83906, 1.9119, 1.88227, 1.8821, 1.78837, 1.78544, 1.78596, 1.78257, 1.97873, 1.83406, 1.7819, 1.83411, 1.78222, 1.89991, 1.78326, 1.78467, 1.78801, 1.78643, 1.86543, 1.86409, 1.86814, 1.86659, 2.02777, 1.86505, 1.94082, 2.03901, 1.94209, 1.86756, 1.94297, 1.94778, 2.02127, 1.86448, 1.86469, 1.94482, 1.94761, 2.02356, 1.93936, 1.95042, 1.9381, 1.94817, 1.93786, 2.02845, 1.86147, 1.9373, 2.03973, 2.04501, 1.93836, 1.93747, 1.93837, 1.94256, 1.95733, 1.95813, 1.95927, 1.94973, 1.8687, 1.9503, 2.04561, 1.96405, 2.04175, 2.03846, 2.04532, 2.03074, 2.0141, 2.02399, 1.93901, 2.01976, 2.02008, 2.02351, 1.94065, 2.02157, 2.02299, 2.02493, 2.02081, 2.02143, 2.02197, 2.04554, 2.04579, 1.94865, 2.04406, 2.03277, 2.04685, 2.04137, 2.02837, 2.02895, 2.02962, 2.05019, 2.04989, 2.033, 2.05414, 2.05516, 2.04503, 2.03588, 2.04964, 2.06217, 2.03919, 2.05578, 2.03887, 2.06183, 2.05841, 2.03944, 2.06394, 2.04794, 2.06069, 2.06885, 1.96393, 2.04873, 2.04175, 1.96555, 2.04318, 2.05233, 2.0443, 1.96715, 2.07188, 2.04709, 2.05597, 2.05039, 1.96885, 1.96965, 1.96745, 1.97001, 1.97293, 2.05494, 2.05374, 1.97264, 1.90233, 1.97102, 1.90349, 1.90077, 1.90235, 1.9527, 1.97515, 1.95683, 1.90415, 1.95662, 1.90384, 2.09305, 1.90663, 2.00675, 1.91159, 1.95975, 1.90833, 1.91209, 1.9107, 1.91315, 2.08754, 2.10686, 2.09308, 1.9117, 2.08745, 1.91268, 1.90941, 1.90513, 2.10432, 1.90834, 1.90826, 1.90717, 1.90516, 1.9039, 1.90327, 2.08919, 2.09706, 1.90424, 1.90438, 1.90562, 1.906, 1.90362, 1.95795, 1.8408, 1.939, 1.94134, 1.83365, 1.92779, 1.93861, 1.93415, 1.82464, 1.82439, 1.81979, 1.81865, 1.82002, 1.81771, 1.8182, 1.81753, 1.91154, 1.81489, 1.86251, 1.86242, 1.93215, 1.97945, 1.86146, 1.80755, 1.8104, 1.94563, 1.80795, 1.9445, 1.94344, 1.90124, 1.80625, 1.80411, 1.93882, 1.7987, 1.80048, 1.80009, 1.79932, 1.79663, 1.79526, 1.79553, 1.7924, 1.78985, 1.78923, 1.94187, 1.93795
1.79929, 1.79681, 1.79563, 1.79671, 1.79807, 1.79632, 1.79454, 2.06573, 1.7941, 1.79029, 1.79372, 1.7917, 1.89463, 1.79625, 1.79382, 1.79005, 1.78993, 1.79186, 1.7927, 1.79212, 1.79182, 1.79049, 1.79369, 1.79296, 1.84147, 1.79076, 1.79341, 1.79202, 1.79098, 1.91728, 1.78917, 1.78794, 1.89324, 1.90162, 1.91704, 1.78241, 1.78325, 1.78259, 1.78228, 1.78479, 1.77979, 1.78337, 1.78291, 1.78349, 2.07309, 1.7847, 1.85174, 1.86844, 1.86573, 1.86898, 1.86788, 2.02355, 2.01914, 2.0416, 1.86586, 2.02117, 1.86597, 1.8655, 1.94136, 1.93972, 1.9454, 1.86533, 1.86612, 1.86508, 2.06483, 1.86208, 1.94834, 2.03151, 1.93969, 1.93669, 1.95311, 1.93746, 1.93588, 1.93704, 1.95538, 1.93498, 1.94114, 1.93824, 1.94359, 1.9589, 2.04167, 1.9428, 1.94751, 1.94777, 1.94791, 2.06559, 1.87853, 2.0407, 2.04577, 2.01644, 2.01449, 2.02425, 2.02795, 1.94167, 2.01725, 1.93955, 1.94002, 1.94127, 1.94147, 2.02132, 2.02196, 2.02404, 2.02341, 2.02362, 2.02144, 2.05092, 2.04535, 2.04382, 1.95018, 2.04813, 1.95222, 1.95447, 2.03131, 2.04898, 2.03256, 2.05911, 2.04795, 2.05543, 2.04489, 2.04797, 2.05294, 2.03832, 2.04167, 2.04124, 2.05894, 1.96256, 2.03946, 2.04048, 2.04107, 1.96216, 2.0357, 2.05083, 2.06284, 2.05928, 2.05747, 2.03861, 2.04369, 2.04478, 2.05154, 2.04302, 2.04128, 2.04611, 2.04839, 2.04848, 2.04406, 1.96687, 1.96818, 1.96975, 1.96541, 1.97176, 1.97143, 2.06574, 2.07194, 2.05806, 1.90258, 2.0909, 1.90244, 1.90052, 1.90109, 1.9532, 1.9032, 1.90381, 1.95506, 1.90385, 2.00829, 1.95806, 1.91119, 1.91411, 1.96188, 1.9601, 1.91205, 1.91294, 2.10707, 1.91405, 1.91377, 1.9125, 1.91301, 1.91322, 1.9095, 1.91256, 1.9094, 1.90888, 2.09404, 1.9042, 1.90969, 1.90475, 1.90691, 1.90518, 1.90306, 1.90437, 1.90488, 2.09023, 1.90737, 1.90663, 1.90756, 1.95661, 1.93081, 1.93416, 1.83552, 1.82948, 1.94408, 1.94158, 1.94093, 1.94259, 1.94304, 1.88228, 1.87905, 1.81986, 1.94971, 1.81687, 1.81682, 1.94608, 1.81921, 1.86407, 1.81364, 1.86163, 1.86179, 1.86002, 1.8103, 1.92229, 1.80809, 1.91991, 1.80682, 1.80709, 1.80728, 1.92694, 1.80259, 1.94069, 1.94213, 1.80314, 1.7995, 1.80002, 1.91677, 1.84679, 1.79402, 1.79222, 1.9338, 1.78998, 1.78951, 1.79182
1.79772, 1.7988, 1.79881, 1.88267, 1.79874, 1.79771, 1.79705, 2.06973, 1.79336, 1.79918, 2.05071, 1.79384, 1.79283, 1.79299, 1.79585, 1.89421, 1.79141, 1.79102, 1.79281, 1.79304, 1.79299, 1.79267, 1.79201, 1.79212, 1.79178, 1.79276, 1.78876, 1.78796, 1.79145, 1.88307, 1.83806, 1.83869, 1.86466, 1.78495, 1.88911, 1.89369, 1.78602, 1.77943, 1.78084, 1.7769, 2.0779, 1.78188, 1.77914, 1.78266, 1.78483, 1.78411, 1.78562, 1.86802, 2.02061, 1.86828, 1.86666, 1.86836, 2.02131, 2.02066, 2.02181, 2.02403, 2.02225, 1.86537, 1.86518, 2.02572, 2.02589, 1.86536, 1.86611, 1.86337, 1.93634, 1.86461, 1.94864, 1.86181, 1.94927, 1.95036, 1.93752, 2.04252, 1.93888, 1.8584, 1.86168, 1.93628, 1.93774, 1.93817, 1.93901, 1.9603, 2.03435, 1.94405, 1.94731, 1.86901, 2.03834, 2.042, 1.96686, 2.06576, 2.06198, 1.93859, 2.01824, 2.01957, 2.02508, 2.02078, 2.02772, 2.01736, 1.9392, 1.94339, 1.94276, 1.94265, 2.0277, 2.02823, 2.02378, 2.0243, 2.0219, 2.02197, 1.94929, 2.04222, 2.04548, 2.04438, 2.06618, 2.04157, 2.0303, 2.0319, 2.03076, 1.95583, 2.04564, 2.03859, 2.05666, 2.0473, 2.04903, 2.04937, 2.0447, 1.96142, 2.04145, 2.05579, 2.0478, 2.04445, 2.05719, 2.05563, 2.04128, 1.96589, 2.0462, 2.04504, 2.04128, 2.04891, 2.06039, 2.04084, 2.05256, 2.04908, 2.04887, 2.05824, 2.04407, 2.04549, 2.04493, 1.96691, 1.96931, 1.97062, 1.97223, 2.05628, 2.05421, 2.06459, 2.0501, 1.90305, 1.90074, 1.90195, 1.89896, 2.09679, 1.90386, 1.96138, 1.90331, 1.9018, 2.1031, 2.01455, 2.08684, 1.9046, 1.90808, 1.90872, 1.90988, 1.96358, 1.91097, 1.9114, 1.91156, 1.91136, 1.91319, 1.91014, 1.91286, 2.11942, 2.10856, 2.00623, 1.90927, 1.91122, 1.91, 1.90974, 1.9078, 2.08905, 1.90456, 1.90638, 1.90487, 2.07447, 1.97248, 1.95495, 1.90618, 1.90693, 1.9051, 1.90699, 1.83775, 1.83459, 1.82962, 1.93863, 1.8307, 1.83029, 1.993, 1.82304, 1.94691, 1.81829, 1.81934, 1.99483, 1.81632, 1.94568, 1.81442, 1.94788, 1.8652, 1.86321, 1.81059, 1.93046, 1.86259, 1.80993, 1.80771, 1.8096, 1.85838, 1.9239, 1.80581, 1.88621, 1.92844, 1.85619, 1.9094, 1.93772, 1.80124, 1.80076, 1.80242, 1.79951, 1.7982, 1.7963, 1.93462, 1.94125, 1.79529, 1.84348, 1.91174, 1.84318
1.80035, 1.80244, 1.79748, 1.79652, 1.79928, 1.79999, 1.79508, 2.06614, 2.07649, 1.79547, 1.79653, 1.79352, 1.89587, 1.79426, 1.79206, 1.84419, 1.79119, 1.79478, 1.78973, 1.7924, 1.79087, 1.79186, 1.79334, 1.78904, 1.78942, 1.78877, 1.79031, 1.79196, 1.79001, 1.78854, 1.83913, 1.78901, 1.89522, 1.89577, 1.78761, 1.78157, 1.78341, 1.78205, 1.77981, 1.78191, 1.78241, 1.78053, 1.78074, 1.78369, 1.78607, 1.78667, 1.78549, 2.0236, 2.02359, 1.86754, 1.86755, 2.02078, 2.0223, 1.94401, 2.04477, 1.86901, 2.05245, 1.86539, 2.02387, 1.94811, 1.94639, 2.02703, 1.94687, 1.94353, 1.86468, 1.93772, 1.95002, 1.9516, 1.93986, 1.94082, 1.95273, 2.0314, 2.03251, 1.9558, 1.95602, 1.9388, 1.95827, 1.93912, 1.95887, 1.94045, 1.94161, 1.96, 1.961, 1.96022, 1.96065, 1.95291, 1.95501, 2.05133, 1.89691, 2.01707, 2.0247, 2.02378, 2.02455, 2.03754, 2.0184, 1.94227, 1.94127, 1.94134, 1.94271, 1.94393, 2.02155, 2.02243, 2.02225, 2.02037, 2.02158, 2.04839, 2.0275, 2.02445, 2.02518, 2.04296, 2.0585, 2.03795, 2.03175, 2.03107, 2.03199, 1.95582, 2.03924, 2.04647, 2.04543, 1.95989, 2.04555, 1.95966, 2.06313, 1.96001, 2.04493, 2.03958, 2.04465, 1.96278, 2.06895, 1.96461, 2.05587, 2.05601, 1.96481, 1.96542, 2.05161, 2.06225, 2.06668, 2.04469, 1.96604, 2.04242, 2.07132, 1.96832, 2.04437, 2.05292, 2.04628, 2.04576, 1.96945, 1.9684, 1.96907, 2.05569, 2.04547, 1.97048, 2.05926, 1.90244, 1.90229, 1.90232, 1.90047, 2.10018, 1.89981, 1.9005, 1.89942, 2.08935, 1.90287, 2.10457, 1.90584, 1.90427, 1.90869, 1.90974, 1.90968, 2.10413, 2.00083, 2.00578, 2.09037, 2.08967, 1.91661, 2.10475, 1.91329, 1.91015, 1.9133, 1.91179, 1.91148, 1.91092, 1.96175, 1.90771, 1.9084, 1.90684, 1.90596, 1.90644, 2.07938, 1.90481, 1.95786, 1.90463, 1.90597, 1.90693, 1.90643, 1.90538, 1.83751, 1.83487, 1.94206, 1.83129, 1.83033, 1.94482, 1.92207, 1.94507, 1.82044, 1.94933, 1.94629, 1.82119, 1.94643, 1.81604, 1.94789, 1.81349, 1.81127, 1.81489, 1.87912, 1.86193, 1.9458, 1.859, 1.80641, 1.81052, 1.80947, 1.8069, 1.94018, 1.8067, 1.86184, 1.80494, 1.94108, 1.94006, 1.80269, 1.80347, 1.80352, 1.80173, 1.79968, 1.79448, 1.79645, 1.79556, 1.9131, 1.9179, 1.91443, 1.79558
1.8007, 1.80327, 1.79906, 1.80265, 1.88622, 1.79843, 1.7978, 1.79464, 1.79594, 1.79355, 1.79406, 1.89682, 1.89433, 1.79637, 1.79418, 1.84749, 1.88731, 1.79569, 1.79299, 1.79556, 1.79488, 1.79374, 1.79256, 1.85043, 1.79338, 1.79186, 1.79081, 1.79089, 1.78939, 1.84165, 1.7892, 1.78946, 1.79128, 1.89688, 1.7838, 1.7857, 1.78123, 1.78205, 2.07704, 1.78162, 1.78075, 2.0649, 1.78014, 1.78468, 1.78644, 1.83516, 1.78714, 2.02412, 1.86887, 1.86718, 1.86671, 2.02766, 2.02792, 1.94512, 1.94506, 1.86701, 2.0238, 2.02425, 1.94653, 1.94759, 1.94118, 1.94805, 1.86388, 1.9419, 2.02676, 1.93815, 1.93868, 1.94059, 2.03053, 1.86083, 1.93978, 1.93911, 1.93796, 1.94043, 1.93628, 1.95785, 1.86147, 1.96147, 1.86401, 1.94199, 2.03892, 1.94219, 1.94411, 1.96464, 1.87367, 1.96219, 1.95553, 1.88565, 2.04129, 2.03113, 2.01733, 2.0279, 2.01893, 2.03748, 2.01809, 1.9427, 1.94198, 1.94399, 1.94228, 1.94369, 2.02531, 2.02145, 2.04228, 1.94543, 2.03939, 1.94605, 2.02416, 1.94749, 1.94981, 2.02531, 2.02834, 2.04241, 2.05516, 2.03148, 2.04157, 2.03424, 2.0305, 2.03966, 2.03404, 1.95983, 2.0483, 2.06948, 2.04896, 1.96125, 2.04433, 2.05191, 2.07287, 2.0435, 2.04862, 2.0497, 2.05903, 2.08462, 2.04193, 2.04056, 1.96653, 2.05998, 2.05993, 1.96645, 2.0545, 2.04909, 2.05327, 2.04434, 2.06276, 2.04586, 2.04394, 2.04625, 2.04783, 2.04523, 2.04423, 1.97231, 2.05142, 2.05155, 1.97205, 2.05066, 2.09398, 1.90187, 1.89912, 2.09026, 1.95943, 1.95848, 2.08601, 2.10726, 1.90363, 1.90304, 2.09411, 2.08854, 1.90783, 1.91, 2.09136, 1.96154, 1.91252, 1.96275, 1.91135, 1.91235, 1.91133, 1.96215, 1.96288, 1.91119, 1.91281, 1.91331, 1.91305, 1.91173, 1.96151, 2.11762, 1.90436, 1.90931, 1.9068, 1.97181, 2.07235, 1.95675, 1.97615, 1.90604, 1.90565, 1.90939, 1.90739, 1.83798, 1.83842, 1.8354, 1.94232, 1.88961, 1.82939, 1.87648, 1.87539, 1.92743, 1.94731, 1.81981, 1.81984, 1.91322, 1.86599, 1.94827, 1.81477, 1.81318, 1.81372, 1.94485, 1.8113, 1.81228, 1.94888, 1.948, 1.9459, 1.80941, 1.80732, 1.80849, 1.80689, 1.80485, 1.93822, 1.80412, 1.94098, 1.80576, 1.8031, 1.90638, 1.80216, 1.80026, 1.7995, 1.94064, 1.93771, 1.79674, 1.79752, 1.79467, 1.91789, 1.79569
1.80321, 1.80226, 1.88368, 1.88823, 1.88766, 1.89261, 1.80005, 1.79686, 1.79951, 1.79801, 1.79822, 1.7943, 1.79649, 1.79345, 1.79545, 1.79216, 1.79391, 1.79329, 1.89713, 1.79527, 1.79677, 2.05379, 1.84395, 1.84376, 1.79529, 1.79053, 1.79153, 1.90059, 1.78952, 1.79063, 1.79039, 1.89721, 1.89405, 1.78765, 1.78676, 1.78635, 1.78195, 2.06144, 1.78445, 1.78209, 1.7805, 1.78232, 1.77972, 1.78449, 1.83488, 1.78656, 1.83718, 1.86893, 1.87112, 1.94744, 1.86934, 1.86958, 2.02271, 2.0234, 1.87, 2.02426, 2.04931, 1.94865, 1.94612, 1.86854, 1.86509, 1.94173, 1.94846, 1.93921, 2.05964, 1.93808, 1.93903, 1.94159, 1.95457, 1.93845, 1.95544, 2.0416, 1.93696, 1.93847, 1.94125, 1.95885, 1.96144, 1.8635, 1.94174, 1.94171, 1.96176, 1.86779, 1.9469, 1.9457, 2.04441, 1.96235, 2.03825, 2.05906, 2.05827, 2.04801, 2.01627, 2.03072, 2.0308, 2.02519, 2.02894, 2.035, 1.94037, 1.94343, 1.94454, 2.02157, 2.02504, 1.945, 2.02189, 2.03124, 2.03355, 2.03118, 2.02507, 1.94936, 2.02123, 2.04189, 2.034, 1.95123, 2.02981, 2.0433, 2.03211, 2.03304, 1.95832, 1.95819, 2.03497, 2.04748, 2.0479, 1.95925, 2.04171, 2.077, 2.04809, 2.04848, 2.03971, 2.05985, 2.03868, 2.03715, 2.05535, 1.96641, 2.07956, 2.04953, 2.05494, 2.05072, 2.04775, 2.04919, 2.06434, 1.96631, 1.96698, 2.05217, 1.96852, 1.96885, 2.04807, 2.0463, 2.04923, 2.04906, 2.04632, 2.04821, 2.04941, 2.04537, 2.05513, 1.90309, 1.90319, 1.90189, 2.08755, 2.08701, 1.90192, 1.95469, 2.09004, 2.09053, 1.90406, 1.90642, 1.90413, 2.09075, 2.10578, 1.91034, 1.9845, 1.90957, 1.9083, 1.91151, 1.96484, 1.96267, 1.91324, 1.9642, 1.91261, 1.91359, 1.91389, 1.91478, 1.96161, 1.96111, 1.91272, 1.90842, 1.90783, 1.9079, 1.95906, 1.95773, 1.95736, 1.90731, 2.08782, 1.90742, 1.90653, 1.90959, 1.90769, 1.84098, 1.9353, 1.83658, 1.83032, 1.88467, 1.93069, 1.87874, 1.82725, 1.8238, 1.94557, 1.94602, 1.94197, 1.81646, 1.86966, 1.93405, 1.81371, 1.93114, 1.81522, 1.81119, 1.81026, 1.94205, 1.9423, 1.81087, 1.80944, 1.80975, 1.94812, 1.941, 1.80704, 1.8682, 1.85448, 1.80285, 1.80526, 1.8015, 1.94013, 1.80279, 1.80234, 1.84939, 1.80121, 1.90224, 1.93993, 1.8004, 1.92604, 1.92438, 1.79708, 1.79641
1.80393, 1.85138, 1.85399, 1.80141, 1.79984, 1.80276, 2.07922, 1.79915, 2.06874, 1.79707, 1.79781, 1.79878, 1.79902, 1.80002, 1.79663, 1.7971, 2.06777, 1.79723, 1.79627, 1.79662, 1.79551, 1.84436, 1.84513, 1.79589, 1.79581, 1.84385, 1.79573, 1.78982, 1.79252, 1.78946, 1.79211, 1.79332, 1.90115, 1.78658, 1.78617, 1.78649, 1.78267, 1.78417, 1.78479, 1.7827, 1.78262, 1.78465, 1.78389, 1.78429, 1.78677, 1.78613, 1.78833, 2.02414, 1.86902, 1.86902, 2.02682, 2.02545, 2.02327, 2.0262, 1.87178, 1.9417, 2.02713, 1.94251, 1.94736, 1.94717, 1.86178, 1.95158, 1.94766, 1.9415, 1.93758, 1.94834, 1.9383, 1.9398, 1.93965, 1.93881, 1.86248, 1.93792, 1.93723, 1.95566, 1.95643, 1.95518, 1.86312, 1.93869, 1.93788, 1.96239, 1.96161, 2.04072, 1.95187, 2.04585, 1.9654, 2.04149, 2.04102, 1.96529, 2.05876, 2.019, 1.94079, 2.02007, 2.03078, 2.0176, 2.01887, 2.03482, 1.93956, 1.94114, 1.94421, 2.02707, 2.02437, 2.02123, 2.03893, 2.04449, 2.02885, 2.03535, 2.0419, 2.03543, 2.02589, 2.02811, 2.02876, 2.04841, 2.03898, 2.03179, 2.03105, 2.04149, 2.05512, 2.04534, 2.03734, 2.05183, 2.04733, 2.04436, 1.96119, 1.9611, 2.05186, 2.04824, 2.06804, 2.05997, 2.04094, 2.05209, 2.05333, 2.05747, 2.05599, 2.05189, 2.0596, 2.05515, 1.96545, 2.04163, 2.0787, 2.05939, 2.04159, 2.04128, 2.04225, 2.04702, 2.04858, 2.04798, 2.04753, 2.04602, 2.04448, 2.05245, 2.0582, 2.05251, 2.0591, 1.90349, 1.89986, 1.89972, 1.90253, 1.90292, 1.99957, 1.90102, 1.90676, 1.9063, 2.10652, 1.90382, 1.9062, 2.00327, 1.90831, 1.90799, 2.10446, 2.10009, 1.91022, 1.91319, 2.10519, 1.9154, 1.99353, 1.91341, 2.08824, 1.91351, 1.91391, 1.96443, 1.96242, 2.00479, 1.91282, 1.91212, 1.91094, 2.09984, 1.90858, 1.9093, 1.9594, 1.90861, 1.90689, 2.08647, 1.90861, 1.90788, 1.90824, 1.90365, 1.83882, 1.83489, 1.88344, 1.88049, 1.83357, 1.82751, 1.87612, 1.82569, 1.82294, 1.81991, 1.94244, 1.81645, 1.81642, 1.94806, 1.81668, 1.81408, 1.81141, 1.81276, 1.91024, 1.9153, 1.85961, 1.80971, 1.91165, 1.90933, 1.80944, 1.80378, 1.80644, 1.92031, 1.80941, 1.80438, 1.80292, 1.80457, 1.80328, 1.80287, 1.80092, 1.85278, 1.7987, 1.79928, 1.79932, 1.79938, 1.7965, 1.79661, 1.8523, 1.92879
1.88667, 1.80307, 1.80496, 1.80191, 1.79949, 1.80019, 1.97673, 1.80108, 1.7985, 2.0702, 1.80017, 1.88923, 1.90473, 1.79982, 1.79728, 2.07662, 1.79554, 1.79544, 1.90253, 1.89575, 1.79341, 1.7961, 1.84603, 1.84802, 1.84421, 1.79358, 1.79277, 2.05682, 1.79274, 1.79234, 1.79087, 1.79073, 1.78902, 1.78976, 1.78716, 1.7859, 1.78604, 1.90483, 1.78321, 2.06974, 2.06964, 1.78561, 1.78697, 1.7887, 1.78506, 1.78846, 1.79183, 2.02686, 2.01943, 1.87156, 1.8701, 1.86904, 2.0229, 1.86849, 1.86815, 1.86724, 1.94793, 1.94771, 1.94786, 1.94526, 1.86628, 1.94162, 1.94233, 1.94615, 1.95115, 1.95195, 1.95118, 1.9537, 1.93921, 1.94029, 1.94975, 1.93777, 1.9555, 2.03333, 2.0386, 1.95745, 1.93961, 1.93997, 1.96171, 1.96265, 1.9627, 1.86681, 2.05823, 2.04039, 1.95134, 1.9558, 1.95997, 2.04591, 2.08758, 2.01469, 2.01584, 1.94238, 2.02025, 2.01794, 2.0307, 2.0208, 1.94174, 2.01775, 2.01751, 2.02195, 2.02859, 2.02084, 2.05005, 2.05256, 2.04636, 2.04175, 2.02107, 2.02754, 2.02854, 2.03747, 2.02767, 2.02815, 2.03126, 2.032, 1.95521, 1.95895, 1.95671, 2.05875, 2.05799, 2.03061, 2.04894, 2.04878, 2.06345, 2.03997, 2.03577, 2.04209, 2.05938, 2.04171, 2.0499, 2.04821, 2.03839, 2.05621, 2.05548, 2.06294, 2.04216, 2.06842, 1.96689, 2.04336, 2.05476, 2.0434, 2.04445, 2.06274, 2.04218, 2.04852, 2.04491, 2.05192, 2.04585, 2.04945, 1.96873, 1.97018, 2.04892, 2.04659, 2.06631, 1.952, 1.90309, 1.90213, 1.95147, 1.95219, 1.95287, 1.90683, 2.06954, 1.90483, 1.90251, 1.90581, 1.90581, 1.90473, 1.9102, 1.90754, 2.10067, 1.90792, 1.90966, 2.09024, 2.10613, 2.11008, 1.96935, 1.91194, 1.96468, 1.91448, 1.91358, 1.91272, 1.91184, 1.96187, 1.96261, 1.9088, 1.96125, 1.99714, 1.90982, 1.90779, 1.91277, 1.90719, 2.08658, 2.08569, 1.90981, 1.90802, 1.90763, 1.90754, 1.83777, 1.83535, 1.83546, 1.88184, 1.82987, 1.82709, 1.9303, 1.82115, 1.82065, 1.91215, 1.94798, 1.82047, 1.81874, 1.81398, 1.81335, 1.81307, 1.94691, 1.9442, 1.94546, 1.94461, 1.81289, 1.90506, 1.91516, 1.91225, 1.94452, 1.94212, 1.93814, 1.80727, 1.80447, 1.80573, 1.80568, 1.86298, 1.85321, 1.80266, 1.92109, 1.79999, 1.80097, 1.79822, 1.79785, 1.80007, 1.79912, 1.7979, 1.79429, 1.79914
1.8044, 1.85518, 1.80409, 1.80317, 1.80445, 1.80112, 1.8011, 1.80021, 1.80241, 1.79902, 1.79904, 1.79919, 1.79427, 1.7963, 1.79817, 1.79688, 2.08393, 1.79602, 1.79575, 1.79661, 1.79734, 1.79323, 1.79498, 1.84597, 1.8453, 1.84475, 2.05595, 1.79558, 1.79308, 1.90138, 1.79111, 1.79035, 1.78853, 1.7878, 1.78829, 1.78704, 1.78739, 1.90077, 1.78539, 1.78655, 1.78763, 1.83583, 1.88571, 1.78733, 1.83803, 1.78876, 1.79073, 2.02871, 1.87075, 1.94319, 1.87025, 2.02744, 1.87033, 2.02496, 2.0242, 2.0424, 1.94224, 1.94936, 1.9464, 1.94127, 1.94144, 1.94099, 1.94272, 1.94087, 1.94091, 1.94503, 1.94028, 1.86174, 1.94136, 2.03405, 2.03406, 2.04934, 1.95805, 1.95702, 1.95789, 1.85992, 2.03835, 1.94057, 1.94019, 1.94009, 1.94159, 2.04166, 1.94783, 2.04098, 1.95379, 1.96411, 1.96365, 1.88028, 2.05342, 2.04552, 2.01939, 2.01816, 2.03453, 2.02849, 2.0209, 1.94184, 2.01976, 1.94494, 2.02085, 2.02132, 2.02177, 2.02574, 2.02219, 2.02333, 1.94785, 2.06587, 1.94892, 2.02358, 2.05309, 2.02817, 2.02812, 1.95252, 2.03088, 2.031, 2.02801, 2.05906, 2.05702, 2.04912, 1.9596, 2.03378, 2.06277, 2.03868, 2.05317, 2.04777, 1.96276, 2.03894, 2.04273, 2.04973, 2.04194, 2.05617, 2.03958, 2.04275, 2.04989, 2.04231, 2.05553, 1.96512, 2.05346, 2.05366, 2.04737, 2.06299, 2.05812, 2.05956, 2.06933, 2.04319, 2.04208, 1.96919, 2.05248, 2.05039, 2.0486, 2.06987, 2.04646, 2.0499, 2.05837, 2.05009, 1.902, 2.00832, 1.90348, 1.95317, 1.95456, 1.9029, 1.9035, 1.95489, 1.90376, 1.98331, 1.99401, 1.99248, 1.908, 1.95649, 1.90748, 1.90802, 1.96144, 2.00429, 1.91475, 1.91175, 1.91355, 1.91341, 1.91358, 1.91311, 2.1056, 1.91309, 1.96274, 1.96403, 1.96384, 1.91258, 1.91043, 1.91237, 1.90876, 1.90965, 1.90831, 1.90865, 1.91107, 1.90832, 1.90981, 1.91101, 1.90943, 1.84002, 1.84063, 1.93995, 1.94073, 1.83413, 1.94303, 1.87845, 1.87706, 1.9247, 1.92142, 1.82113, 1.94399, 1.82007, 1.9134, 1.81453, 1.93887, 1.81333, 1.81064, 1.94863, 1.81318, 1.80934, 1.86168, 1.8602, 1.85952, 1.80904, 1.85664, 1.80784, 1.94091, 1.91009, 1.8074, 1.93675, 1.80251, 1.85453, 1.8031, 1.85308, 1.79942, 1.80313, 1.80108, 1.80263, 1.84837, 1.79895, 1.79895, 1.92466, 1.92316, 1.79627
1.80261, 2.0939, 1.80498, 1.80688, 1.85384, 1.80616, 1.80238, 1.80007, 1.80143, 1.80009, 1.89072, 1.80016, 1.79814, 1.79666, 1.79727, 1.79911, 2.07613, 1.79606, 2.06031, 1.79592, 1.90314, 1.79619, 1.79893, 1.79524, 1.79543, 1.79562, 1.7973, 1.79576, 1.91342, 1.79211, 1.79343, 1.79207, 2.06578, 1.78917, 1.78945, 1.79059, 1.78951, 1.90435, 1.78842, 1.78773, 1.78875, 1.83967, 1.78994, 1.88688, 1.79246, 1.79144, 1.79415, 1.86869, 1.86919, 1.86994, 1.86943, 1.94719, 2.02774, 1.86853, 1.94434, 2.0308, 2.03824, 1.94717, 1.95274, 1.94181, 1.95028, 1.94623, 1.95322, 1.94266, 1.95066, 1.86324, 2.0318, 1.93617, 1.93771, 1.93926, 2.0355, 1.95699, 2.03516, 1.86032, 1.95959, 1.95969, 1.96088, 1.96169, 2.04478, 1.96494, 1.86792, 1.94459, 1.94755, 1.95064, 1.94979, 1.96461, 1.96635, 2.07249, 2.01888, 2.01841, 2.02497, 2.01881, 2.01769, 2.01769, 2.02286, 2.02745, 1.94316, 1.94471, 1.94479, 2.02405, 2.01932, 2.02017, 2.02143, 2.02379, 2.02452, 2.02711, 2.04855, 2.02685, 2.03025, 2.03058, 2.02835, 2.06187, 2.03185, 2.03221, 1.95564, 2.05625, 1.9557, 1.95899, 1.95964, 2.03416, 2.04102, 1.96073, 2.05769, 1.96165, 2.04814, 1.96477, 2.04126, 2.05935, 2.04173, 2.04827, 2.04218, 2.05507, 2.04445, 2.05409, 2.05375, 2.04477, 2.04729, 2.0487, 1.9661, 1.96584, 2.07013, 2.05259, 2.04445, 2.04322, 2.0483, 2.04682, 1.96833, 1.96867, 1.96882, 2.04397, 2.06256, 2.06003, 2.06689, 1.90624, 1.90381, 1.90336, 1.95533, 1.95458, 1.90577, 1.90341, 1.95454, 1.9014, 1.90504, 1.90513, 1.95666, 1.95867, 1.91021, 1.90706, 1.90991, 2.00364, 1.95987, 1.91082, 1.91291, 1.914, 1.9138, 2.08903, 1.91203, 1.91572, 2.08429, 1.91367, 1.91012, 1.91137, 1.91412, 1.9135, 1.91311, 1.91031, 2.00087, 2.00101, 1.9104, 2.09723, 1.9092, 1.91028, 1.90846, 1.91004, 1.99009, 1.83875, 1.94223, 1.9399, 1.83432, 1.83208, 1.82953, 1.82772, 1.82752, 1.93745, 1.82173, 1.82244, 1.9452, 1.82027, 1.816, 1.81652, 1.81553, 1.94792, 1.94577, 1.81238, 1.81084, 1.80904, 1.80911, 1.94042, 1.80988, 1.81044, 1.93098, 1.94448, 1.94142, 1.93988, 1.80586, 1.80507, 1.80466, 1.92571, 1.80438, 1.80314, 1.85552, 1.85515, 1.80295, 1.85156, 1.80064, 1.84965, 1.92248, 1.9285, 1.7992, 1.79542
1.80658, 1.80625, 1.80728, 1.80353, 1.90362, 1.88763, 1.80271, 1.80369, 1.80305, 1.80326, 1.80232, 1.80157, 1.80122, 1.79989, 1.90087, 1.79866, 1.79936, 1.79958, 1.84908, 1.79723, 1.90442, 2.07709, 1.79852, 1.79404, 1.79822, 1.79652, 1.79892, 1.79298, 1.9153, 1.89594, 1.84682, 1.79269, 1.9036, 1.79296, 1.79261, 1.79075, 1.79046, 1.90192, 1.7892, 1.79181, 1.85944, 1.85059, 1.84171, 1.79019, 1.79125, 1.7948, 1.79382, 2.02519, 2.02428, 1.94343, 1.87055, 1.94535, 1.87129, 1.94543, 1.94952, 2.04574, 1.94212, 1.95045, 1.94289, 1.94344, 1.94161, 1.95057, 1.95236, 1.94939, 1.86236, 1.93921, 1.95627, 1.9399, 1.9405, 1.94125, 1.93725, 1.86172, 1.86278, 1.93494, 1.95722, 1.94085, 1.94174, 2.03905, 1.9425, 1.94205, 1.94316, 2.04061, 1.96817, 1.9514, 1.95217, 1.95549, 1.96175, 2.04234, 1.89943, 2.01715, 2.03809, 2.01942, 2.01895, 2.03415, 2.02513, 1.9425, 1.94392, 1.94322, 1.94432, 2.02754, 2.02215, 2.02144, 2.02171, 2.02568, 2.02509, 2.04241, 1.94771, 2.02533, 2.02474, 2.04441, 2.04286, 2.04943, 2.05537, 1.95562, 1.95557, 1.95587, 2.04269, 1.95954, 2.04146, 2.05635, 2.03998, 2.05558, 2.04934, 1.96107, 2.04413, 1.96494, 2.05561, 2.0557, 2.05451, 2.05663, 2.0532, 2.04356, 2.06279, 2.05272, 2.06714, 1.9657, 1.96659, 2.04441, 2.05124, 2.04541, 2.04398, 2.04495, 2.04471, 2.04297, 1.96689, 2.04847, 1.96902, 1.97266, 1.96408, 2.04887, 2.04544, 1.97071, 2.05674, 1.90615, 2.09372, 1.90752, 1.90428, 1.90308, 1.90328, 1.90381, 1.90332, 1.90475, 1.90357, 1.90755, 1.90432, 2.00992, 1.90745, 1.90956, 1.91163, 1.91163, 1.9109, 1.9109, 1.91414, 1.91492, 2.08603, 1.91082, 1.96338, 1.91177, 2.11418, 2.11473, 1.91364, 1.91245, 2.09011, 1.91149, 1.9618, 1.91101, 1.91118, 1.90925, 1.9131, 1.90923, 1.91043, 2.08352, 1.9116, 1.96115, 1.91008, 1.89024, 1.88922, 1.93946, 1.83384, 1.9403, 1.94292, 1.82878, 1.94143, 1.94063, 1.82313, 1.94165, 1.93894, 1.81646, 1.9418, 1.94477, 1.81513, 1.86156, 1.81482, 1.80984, 1.80915, 1.85977, 1.81126, 1.94042, 1.8076, 1.80663, 1.91189, 1.80583, 1.94113, 2.11267, 2.11344, 1.80714, 1.80496, 1.80636, 1.80377, 1.92621, 1.92777, 1.85743, 1.80242, 1.80297, 1.90693, 1.801, 1.80127, 2.11409, 1.80001, 1.79848
1.80724, 1.8065, 1.80435, 1.80676, 1.80446, 1.80152, 1.80651, 1.8045, 1.80043, 1.80541, 1.80353, 1.86162, 1.8626, 1.80107, 1.80164, 1.79911, 1.79996, 1.79844, 1.79674, 1.79754, 1.79722, 1.79716, 1.89614, 1.79799, 1.97892, 1.79561, 1.8474, 1.79608, 1.89713, 1.79609, 1.79629, 1.79516, 1.89997, 1.7901, 1.90865, 1.79261, 1.79341, 1.79277, 1.79235, 1.9064, 1.7916, 1.89346, 1.88871, 1.79095, 1.79355, 1.79582, 1.79656, 1.87239, 2.0278, 2.0285, 1.87187, 1.87304, 1.86975, 1.86915, 1.94743, 1.94567, 1.94431, 1.95096, 1.95066, 2.02654, 1.94462, 1.94403, 1.94194, 1.95307, 1.95628, 1.94094, 1.94121, 1.94102, 1.9412, 1.95831, 1.95858, 1.93811, 1.93603, 1.93419, 1.93497, 1.93787, 1.94135, 1.94431, 1.94182, 2.04532, 2.04968, 1.86967, 1.96535, 1.95022, 1.95162, 1.95551, 2.05598, 1.88192, 1.89967, 2.01993, 2.02034, 1.94337, 2.03711, 2.02103, 2.02168, 1.94412, 1.94318, 1.94475, 1.94299, 1.94766, 2.02646, 2.0283, 2.0426, 2.02359, 2.02462, 2.04301, 1.94859, 2.02602, 2.02682, 2.02741, 2.05213, 2.03073, 2.0509, 1.95549, 1.95584, 2.04795, 2.03806, 1.95829, 2.045, 2.03794, 2.04111, 2.04177, 1.96162, 2.05575, 2.05187, 2.05494, 2.05741, 2.03753, 2.04637, 2.04436, 2.05562, 2.04229, 2.05905, 2.04908, 2.04205, 2.06487, 2.04112, 2.04203, 1.965, 1.96659, 2.06595, 2.04536, 2.04288, 2.04707, 2.04453, 1.96818, 1.96774, 1.96681, 1.96907, 1.96964, 2.0481, 2.0492, 2.04795, 2.06562, 2.10867, 1.90524, 1.9064, 1.97995, 1.90486, 1.90391, 1.95443, 2.00714, 1.9063, 1.90786, 1.90659, 2.01155, 2.09659, 1.90991, 1.90964, 1.91024, 1.91179, 1.91136, 1.96287, 1.91349, 1.96354, 2.09365, 1.91712, 1.91319, 1.91402, 1.914, 2.09864, 2.09807, 1.91125, 2.09733, 1.91171, 1.9115, 1.91267, 1.96383, 1.96164, 1.90824, 1.90929, 1.91159, 1.91156, 1.91023, 1.91049, 1.84367, 1.83691, 1.95909, 1.83458, 1.93402, 1.82744, 1.828, 1.82505, 1.92088, 1.82289, 1.82277, 1.82189, 1.81993, 1.81515, 1.94769, 1.8635, 1.86388, 1.8648, 1.9274, 1.80768, 1.90999, 1.90416, 1.81037, 1.80672, 1.94465, 1.80764, 1.94757, 1.8046, 1.80665, 1.93985, 1.80742, 1.93809, 1.80234, 1.80645, 1.80681, 1.9787, 2.01511, 2.01364, 1.9342, 1.79968, 1.92034, 1.91717, 1.93019, 1.79845, 1.79815
1.80749, 1.97763, 1.80951, 1.8067, 1.80599, 1.80498, 1.8045, 1.80413, 1.80644, 1.80326, 1.80446, 1.80485, 1.80073, 1.80532, 1.80627, 1.7999, 1.80076, 1.98104, 1.79963, 1.90272, 1.79974, 1.80004, 1.79906, 1.89751, 1.79959, 1.79908, 1.79682, 1.79632, 1.796, 1.79713, 1.90223, 1.84535, 1.84512, 1.91012, 1.91127, 1.91699, 1.91184, 1.91406, 1.89155, 1.89188, 1.90153, 1.79328, 1.79331, 2.06225, 1.79422, 1.79527, 1.79905, 1.87295, 1.86993, 1.87239, 1.87238, 1.95124, 1.94493, 1.9441, 2.02786, 1.86967, 2.02696, 1.95192, 1.9452, 1.94385, 1.86857, 1.94332, 1.93974, 2.03053, 1.94116, 2.0319, 1.95615, 1.93947, 1.93929, 1.93969, 1.9586, 1.93755, 1.96115, 1.86137, 1.93742, 1.9606, 1.93849, 1.94089, 1.963, 1.96481, 1.94534, 1.96521, 1.96602, 1.9485, 1.95192, 1.96485, 1.96368, 1.96855, 2.04877, 2.02858, 2.02833, 2.02044, 2.02821, 2.02505, 2.02546, 1.94433, 1.94286, 1.94445, 1.94648, 1.94517, 1.94486, 2.02192, 1.94776, 2.02525, 2.02522, 2.02671, 2.0262, 1.9509, 2.02724, 2.02807, 2.02863, 2.02716, 2.02718, 2.0495, 1.95778, 2.04763, 2.03904, 2.04796, 1.95828, 2.03823, 2.05185, 1.96049, 2.04707, 2.04862, 1.96152, 2.05279, 2.04896, 1.96426, 2.0682, 2.0507, 2.05244, 2.05237, 2.0418, 2.04206, 2.06247, 2.05121, 2.05235, 1.96569, 1.96573, 2.06172, 2.06334, 2.04128, 2.04229, 2.04125, 1.96795, 1.96529, 1.96648, 1.96894, 1.96857, 1.97015, 2.04704, 2.05441, 2.04565, 1.9559, 1.90965, 1.90617, 1.90469, 1.90599, 1.96484, 1.9036, 1.95691, 1.90521, 1.90651, 1.95805, 1.90368, 2.09361, 1.90791, 1.91021, 1.90964, 1.91143, 1.91291, 1.91223, 1.91077, 1.91516, 1.91702, 2.10396, 1.91543, 1.91436, 1.9134, 1.99974, 1.91378, 1.91284, 1.96266, 1.9131, 1.91114, 1.91416, 1.91297, 1.91105, 1.90812, 1.90781, 1.91276, 1.91433, 1.91034, 1.97753, 1.97624, 1.83889, 1.9453, 1.83583, 1.8338, 1.93548, 1.87928, 1.87656, 2.11714, 1.82377, 1.94162, 1.82147, 1.81771, 1.94173, 1.81776, 1.81726, 1.86584, 1.86471, 1.92905, 1.86219, 1.81067, 1.80849, 1.94757, 1.81087, 1.85949, 1.85801, 1.85829, 1.80803, 1.80747, 1.80676, 1.80473, 1.80463, 1.80368, 1.93574, 1.80356, 1.80421, 1.80261, 1.80187, 1.80334, 1.80386, 1.92868, 1.80309, 1.79936, 1.80218, 1.92664, 1.92553
1.90456, 1.80901, 1.80738, 2.06587, 1.80427, 1.80722, 2.06178, 1.80621, 1.80372, 1.90676, 1.8033, 1.80389, 1.80472, 1.80078, 1.8014, 1.80064, 1.80315, 1.80332, 2.06791, 2.05935, 1.90634, 1.80122, 1.80246, 1.80094, 1.8008, 1.79881, 1.80044, 1.79798, 1.79838, 1.79618, 1.79814, 1.91415, 1.79649, 1.90959, 1.8546, 1.84509, 1.79676, 1.797, 1.79615, 1.79565, 1.79349, 1.79569, 1.79692, 1.79679, 1.79433, 1.79625, 1.79965, 1.8755, 2.02813, 1.87389, 1.86998, 1.87153, 1.86955, 2.02626, 1.94817, 1.94389, 1.95001, 1.94508, 1.94553, 1.94219, 1.94282, 1.94465, 1.94037, 2.0316, 1.94284, 1.94092, 2.04783, 1.86302, 1.93931, 1.95966, 1.95823, 1.93923, 1.8618, 1.93808, 2.05854, 1.93701, 1.93918, 1.94132, 1.9624, 1.96515, 1.96819, 1.9476, 1.94978, 1.96617, 2.04933, 1.95561, 1.96523, 2.05122, 2.0855, 2.01742, 1.94425, 2.02048, 2.01753, 2.03117, 2.01778, 1.94443, 1.94721, 1.94705, 1.94558, 2.02362, 1.94678, 2.02285, 2.0448, 2.02405, 1.94772, 1.94899, 2.02751, 2.02727, 2.02855, 2.03108, 2.02938, 2.03055, 2.02872, 1.95501, 1.95738, 1.95804, 2.05823, 2.04812, 2.03877, 2.04967, 2.04293, 2.03948, 2.03679, 2.05819, 2.05282, 2.04819, 2.05968, 2.03756, 2.06332, 2.04175, 2.05936, 2.05327, 1.96714, 2.04553, 2.05258, 2.05338, 2.05873, 2.03863, 1.96698, 2.04757, 2.04155, 2.0412, 2.04148, 1.96574, 1.96719, 1.96827, 1.9674, 1.96775, 1.9682, 2.05779, 2.05601, 1.96722, 2.07178, 1.90553, 1.9049, 1.90493, 1.90605, 1.90661, 1.90763, 1.95611, 1.90749, 1.90661, 1.90775, 1.97235, 1.95731, 1.90909, 1.91046, 2.00672, 2.00394, 2.09026, 1.91139, 1.96216, 1.96178, 1.91384, 2.0901, 1.91312, 1.91622, 1.99423, 1.96278, 1.91624, 1.91342, 1.91142, 1.91423, 1.91051, 1.91228, 1.91094, 1.91188, 1.91239, 1.91104, 1.91103, 1.90955, 1.91166, 1.90864, 1.99579, 1.91061, 1.83837, 1.83917, 1.88588, 1.88546, 1.83124, 1.92425, 1.82685, 1.94242, 1.94054, 1.82313, 1.94137, 1.86831, 1.82058, 1.81584, 1.81419, 1.86602, 1.86364, 1.81455, 1.86177, 1.94186, 1.94428, 1.8109, 1.80829, 1.94371, 1.94159, 1.80663, 1.80618, 1.80722, 1.8938, 1.90206, 1.85586, 1.80755, 1.93725, 1.80498, 1.93242, 1.80239, 1.80464, 1.8023, 1.80305, 1.92791, 1.80037, 1.79952, 1.80456, 1.92774, 1.79753
1.80947, 1.81017, 1.80994, 1.80797, 2.05884, 1.90481, 1.80674, 1.90926, 1.90372, 1.88912, 1.85749, 1.85611, 1.87727, 1.80471, 1.80207, 1.80248, 1.80303, 1.80223, 1.80378, 1.7998, 1.80094, 1.89648, 1.80132, 1.80143, 1.79974, 1.86101, 1.80026, 1.80007, 1.79971, 1.80039, 1.79994, 1.80021, 1.89943, 1.91244, 1.9129, 1.8995, 1.79943, 1.79595, 1.79594, 1.92307, 1.90264, 1.79661, 1.90699, 1.80027, 2.07098, 1.80021, 1.80029, 1.87388, 1.87217, 1.87534, 1.87274, 1.94811, 1.95113, 1.95163, 1.86925, 1.95094, 1.95432, 1.87008, 1.95264, 1.95481, 1.94532, 1.95638, 1.95513, 1.94148, 2.0527, 1.86309, 1.9441, 1.94108, 1.93957, 1.86239, 1.8622, 1.93663, 1.96037, 1.96186, 1.96321, 1.96344, 1.94079, 1.86478, 1.86461, 1.94428, 1.94444, 1.87032, 1.8714, 1.87338, 1.87771, 1.95452, 1.95687, 2.06384, 2.05979, 2.02096, 2.02099, 1.94453, 2.04207, 1.9447, 2.03237, 1.9484, 1.94506, 1.94573, 1.9439, 2.01891, 2.02389, 2.02453, 1.9478, 2.04793, 2.0444, 2.02798, 2.02715, 1.95206, 2.02825, 2.03117, 2.03102, 2.03175, 2.03416, 2.03432, 2.04817, 2.04532, 2.0678, 2.03591, 2.04441, 2.03734, 2.04378, 2.045, 2.05158, 2.03754, 1.96264, 2.03939, 2.04134, 2.05961, 2.041, 1.96528, 2.04905, 2.05245, 2.0437, 2.0437, 2.06014, 2.06665, 2.04919, 2.0428, 2.04466, 2.04303, 2.04244, 2.05999, 2.06693, 2.04235, 1.96666, 1.96694, 1.968, 1.9697, 1.96866, 2.04862, 2.0482, 1.97018, 2.04902, 1.90789, 1.90639, 1.907, 1.90592, 1.95503, 1.90404, 2.08262, 1.90714, 1.90733, 1.90787, 1.90924, 1.90791, 1.9937, 1.91127, 1.97537, 2.00631, 1.9117, 1.91226, 1.96408, 1.96238, 1.96256, 1.96175, 1.91389, 1.9662, 1.91231, 1.91188, 1.91543, 1.96216, 1.91378, 1.96268, 2.01278, 1.9121, 1.9104, 2.08056, 1.91201, 1.91121, 1.91208, 1.98555, 1.91002, 1.9074, 1.91113, 1.911, 1.84125, 1.84003, 1.93987, 1.82908, 1.83444, 1.93862, 1.92719, 1.82413, 1.82349, 1.94159, 1.82238, 1.81792, 1.82029, 1.81735, 1.81424, 1.81332, 1.86588, 1.87612, 1.81162, 1.81314, 1.81112, 1.80951, 1.94189, 1.9429, 1.90142, 1.80635, 1.80782, 1.80665, 1.80623, 1.92748, 1.85604, 1.85586, 1.94183, 1.80576, 1.90126, 1.93511, 1.80318, 1.80475, 1.85521, 1.79992, 1.80251, 1.80256, 1.79942, 1.90012, 1.80156
1.81108, 1.81102, 1.81218, 1.80925, 1.81137, 1.81044, 1.80581, 2.0836, 1.80838, 1.81075, 1.80699, 1.85533, 1.85617, 1.80363, 1.80492, 1.80326, 1.80306, 1.80444, 1.80374, 2.0795, 1.80247, 1.80256, 1.80255, 1.80239, 1.80269, 1.80223, 1.80099, 1.80216, 1.80078, 1.85166, 1.8007, 1.90087, 1.90301, 1.79996, 1.80064, 1.90449, 1.90372, 1.90418, 1.90319, 1.79863, 1.79916, 1.79805, 1.90806, 1.80026, 1.80062, 1.80265, 1.87113, 1.87136, 1.94761, 1.9474, 1.9486, 1.95151, 2.03126, 1.94857, 1.95464, 1.87197, 1.94686, 1.94557, 1.9446, 1.94598, 1.94544, 1.95836, 1.94318, 1.94302, 1.95615, 1.94173, 1.95759, 1.94116, 1.94018, 2.05224, 1.93783, 1.86182, 2.04428, 1.93713, 1.93666, 1.93976, 1.96565, 1.94074, 1.94233, 1.94295, 1.86768, 1.96788, 1.87323, 2.04393, 1.9543, 1.95662, 1.96901, 2.0461, 1.90249, 1.94399, 1.94454, 1.94729, 1.94503, 2.02751, 2.0204, 1.94482, 1.94409, 1.94593, 2.02397, 2.02456, 2.02374, 2.02885, 1.94873, 2.04298, 2.02463, 2.0272, 2.02713, 2.05971, 2.02785, 2.03969, 1.95479, 2.05558, 2.047, 1.95859, 2.04634, 2.04255, 2.03832, 2.0454, 2.03928, 2.05055, 1.96476, 2.04951, 2.04897, 2.05932, 2.03989, 2.04138, 2.05517, 1.9659, 1.96675, 2.04619, 2.0489, 1.96611, 2.04251, 2.04454, 2.0442, 2.04472, 1.96567, 2.05479, 2.05254, 1.96707, 1.96657, 2.0429, 1.96616, 2.0487, 1.96903, 1.96935, 1.96706, 1.96896, 2.05002, 2.04497, 1.96938, 2.0668, 2.04749, 1.97184, 1.90541, 2.07959, 1.9578, 1.90715, 1.90539, 2.0002, 1.90359, 1.90804, 2.08639, 1.95848, 1.9584, 1.90992, 1.96015, 1.96103, 1.96418, 1.91169, 1.91419, 1.9128, 1.96131, 1.96479, 1.91504, 1.91394, 1.99433, 1.91516, 2.01396, 1.91344, 1.91283, 1.9124, 1.96487, 1.91267, 1.91261, 2.10653, 1.91136, 2.08066, 1.91364, 1.91058, 1.90885, 1.9594, 1.90748, 1.90737, 1.90755, 1.99031, 1.83764, 1.83631, 1.83378, 1.83, 1.82706, 1.82959, 1.82331, 1.91802, 1.82293, 1.82289, 1.91915, 1.94415, 1.92072, 1.94158, 1.81359, 1.94417, 1.8154, 1.86163, 1.94151, 1.81106, 1.81065, 1.80802, 1.80985, 1.8072, 1.80982, 1.80631, 1.94523, 1.8027, 1.80703, 1.80387, 1.8058, 1.80484, 1.85386, 1.80607, 1.80589, 1.80394, 1.80368, 1.80587, 1.85571, 1.80205, 1.92905, 1.92741, 1.85079, 1.92096
2.06504, 1.80708, 1.80866, 1.80964, 1.81362, 1.8095, 1.80912, 1.8093, 1.8104, 1.80853, 1.89318, 1.80738, 1.8564, 1.85673, 1.80667, 1.80631, 1.80498, 2.08077, 1.80561, 1.8041, 1.8028, 1.85526, 1.80294, 1.80381, 1.80216, 1.853, 1.8522, 1.80081, 1.80007, 1.80329, 1.80327, 1.80093, 1.80347, 1.79991, 1.79954, 1.79976, 1.90945, 1.90682, 1.80038, 1.79958, 1.79945, 1.80224, 1.80231, 1.80229, 1.9043, 1.8054, 1.80471, 1.87315, 1.95508, 1.95098, 2.02981, 1.9525, 1.87547, 1.87463, 1.87138, 1.87137, 1.94878, 2.02628, 1.95036, 1.95751, 1.86782, 1.95473, 2.03468, 1.94235, 1.9598, 1.94133, 2.04897, 2.03871, 2.05615, 1.86241, 1.8619, 1.93886, 1.94038, 2.04099, 1.96258, 1.86225, 1.96687, 1.94446, 1.94219, 2.0424, 2.04477, 2.0525, 1.96912, 1.9519, 1.95286, 1.96804, 1.88411, 2.04938, 2.06461, 2.02102, 2.02589, 1.94625, 2.02142, 2.02195, 2.02902, 2.02169, 2.02708, 1.94427, 1.94629, 1.94611, 1.94646, 2.02386, 1.94571, 2.04277, 2.02577, 2.02524, 2.05416, 2.04669, 2.04267, 2.0413, 2.04185, 2.05142, 2.06615, 2.04206, 2.0509, 2.04705, 1.95932, 2.05011, 2.04734, 2.04607, 2.03746, 1.96165, 2.03667, 2.04183, 2.04215, 2.04169, 2.04159, 2.04703, 2.05803, 2.05292, 2.06421, 2.04489, 1.96667, 2.0616, 2.0454, 2.0538, 2.05887, 2.05133, 2.0616, 1.96549, 2.05854, 2.05553, 2.04291, 2.04728, 1.96765, 1.96766, 1.96748, 1.96694, 1.96868, 1.96986, 2.04883, 2.04962, 2.04749, 2.00467, 2.00332, 1.95806, 1.9576, 1.90575, 2.08989, 1.90754, 2.01121, 2.00876, 1.90533, 1.90991, 1.95923, 1.97183, 1.96142, 1.96113, 1.91039, 1.90963, 2.09969, 1.96243, 1.91223, 1.91469, 1.91375, 1.91211, 1.9142, 2.09659, 1.91106, 1.91479, 1.91365, 1.96022, 1.91277, 1.91015, 1.9098, 1.9105, 1.91062, 1.91119, 1.90988, 1.9117, 1.91033, 1.91094, 2.07814, 1.90886, 1.90809, 1.84429, 1.83612, 1.83468, 1.93917, 1.83043, 1.82792, 1.82834, 1.94375, 1.82305, 1.99019, 1.9381, 1.87187, 1.82017, 1.81634, 1.81371, 1.81627, 1.81406, 1.81379, 1.86342, 1.81251, 1.85999, 1.85915, 1.80593, 1.94182, 1.8063, 1.93236, 1.80812, 1.80518, 1.93681, 1.93981, 1.80269, 1.80628, 1.80601, 1.93537, 1.80593, 1.80369, 1.80614, 1.80294, 1.91134, 1.90676, 1.80341, 1.80332, 1.80095, 1.80239, 1.92165
1.81402, 1.81522, 1.81154, 1.81386, 1.81391, 1.81263, 1.81091, 1.80957, 1.80675, 1.81015, 1.81291, 1.80645, 1.85867, 1.80861, 1.80718, 1.89622, 1.80497, 1.80356, 1.80444, 1.80396, 1.80561, 1.80362, 1.80474, 1.80424, 1.90805, 1.85414, 1.89971, 1.8018, 1.80346, 1.80366, 1.80047, 1.80139, 1.80005, 1.80257, 1.9105, 1.90801, 1.80075, 1.79776, 1.79778, 1.80076, 1.80287, 1.80156, 1.804, 1.8029, 1.80294, 1.80481, 1.9072, 1.95262, 1.87283, 1.87351, 1.95111, 1.95794, 1.94886, 1.94967, 1.95435, 1.94888, 1.9486, 1.95191, 1.94783, 1.94537, 1.94555, 1.94478, 1.95825, 2.03564, 1.93983, 1.94172, 1.96152, 1.95836, 2.04935, 1.94086, 1.96087, 2.03953, 1.96305, 1.93845, 2.0421, 1.86188, 1.94028, 2.05634, 1.86558, 2.04416, 1.94525, 1.9663, 1.94954, 2.04758, 1.96851, 1.88168, 1.96138, 2.05985, 2.05913, 2.03006, 2.03054, 2.03194, 1.94433, 2.03156, 1.94619, 1.94705, 1.94617, 2.02327, 2.02423, 1.94589, 1.94772, 2.0239, 2.0316, 2.0275, 2.0359, 1.95135, 2.03858, 2.04423, 2.04894, 2.05211, 1.9565, 2.05383, 2.0523, 2.02661, 2.04428, 1.96141, 2.05239, 2.0525, 2.03405, 2.03673, 2.03773, 2.03754, 1.96285, 1.96519, 2.04242, 2.05444, 2.04761, 1.96535, 2.05617, 2.05243, 2.05484, 2.05172, 2.06021, 1.96877, 1.96662, 2.07063, 2.05768, 2.05203, 2.05499, 2.05801, 2.0447, 2.04815, 2.06205, 2.06204, 1.97216, 1.96733, 1.96974, 1.96781, 1.97078, 2.04944, 1.96957, 2.06018, 2.08061, 1.90788, 1.90672, 1.90842, 1.90803, 1.90647, 1.90803, 1.90729, 1.95611, 1.90577, 1.90733, 1.95967, 1.90811, 1.9095, 1.91125, 1.91047, 1.90837, 1.91054, 1.91353, 2.09355, 1.91364, 2.10388, 2.08357, 1.91283, 1.91472, 2.10486, 1.9139, 1.91358, 1.91293, 1.96209, 1.96119, 2.09143, 1.914, 2.11145, 1.99603, 1.91274, 1.91124, 1.96026, 1.90975, 1.90932, 1.91085, 1.90984, 1.9101, 1.83828, 1.83784, 1.83604, 1.83437, 1.83055, 1.83046, 1.82585, 1.94304, 1.94119, 1.82175, 1.82341, 1.8206, 1.81596, 1.94168, 1.94805, 1.9454, 1.94337, 1.93914, 1.81185, 1.80992, 1.80851, 1.8593, 1.80642, 1.80732, 1.80724, 1.80539, 1.81032, 1.81048, 1.80639, 1.807, 1.80296, 1.8061, 1.80659, 1.93436, 1.93938, 1.93544, 1.9308, 1.9316, 1.92088, 1.80228, 1.80471, 1.80259, 1.92867, 1.80312, 1.80241
1.81693, 1.81515, 1.81243, 1.81369, 1.81339, 1.81348, 2.06621, 2.06683, 1.80964, 1.81086, 1.81138, 1.98424, 1.8096, 1.80966, 1.90607, 1.89241, 1.80746, 1.80676, 1.80621, 1.8079, 1.80625, 2.06277, 1.90925, 1.9099, 1.91058, 1.80506, 1.8033, 1.80352, 1.80194, 1.80241, 1.80063, 1.90942, 1.80281, 1.91307, 1.80148, 1.89987, 1.90704, 1.91068, 1.80174, 1.79995, 1.79998, 1.8014, 1.80379, 1.98384, 1.80592, 1.8051, 1.80925, 1.95491, 1.9492, 1.94958, 1.87345, 1.95388, 1.87428, 1.95189, 1.95521, 1.95104, 1.95802, 1.94789, 1.94844, 1.87166, 1.94327, 1.95987, 1.86869, 1.95936, 1.94165, 1.94241, 1.94161, 1.94239, 1.94129, 1.93951, 1.93954, 1.96604, 1.96549, 1.96473, 2.04178, 1.94129, 1.94075, 1.94062, 1.94207, 1.86792, 1.86857, 1.94771, 2.05496, 1.87612, 1.96838, 1.95856, 1.96601, 2.07678, 2.06151, 1.9458, 1.9468, 1.94534, 2.02427, 2.03917, 2.0232, 2.0444, 2.0242, 1.94582, 2.02315, 2.02514, 2.02663, 2.02451, 2.03394, 2.02726, 2.03086, 2.02813, 1.94989, 2.04432, 1.9533, 2.04066, 2.04283, 2.05238, 2.05548, 2.03245, 2.05416, 2.08719, 2.03646, 2.03574, 2.04627, 2.04499, 2.06666, 2.0395, 2.0384, 2.04598, 1.9651, 2.05968, 2.05648, 1.96629, 2.0472, 2.05617, 2.04894, 2.05462, 2.04621, 2.05626, 2.06651, 2.07413, 2.06343, 2.04893, 2.0511, 1.96579, 1.96864, 1.96655, 2.05925, 2.0537, 1.96646, 1.96578, 1.96679, 1.96889, 1.96628, 2.05617, 2.05409, 2.05218, 2.04587, 2.07945, 1.90954, 1.90994, 1.90817, 1.90974, 1.90863, 1.95835, 1.90639, 2.00993, 1.90708, 2.08916, 1.90786, 2.08434, 2.08376, 1.91078, 2.09332, 1.9131, 1.9147, 1.91246, 1.91271, 2.08801, 1.91285, 1.91344, 1.9137, 1.91212, 2.10085, 1.91144, 2.10022, 2.07729, 1.91091, 1.91011, 1.91009, 1.91077, 1.91078, 2.08242, 2.07723, 1.90853, 2.08038, 2.07942, 2.08592, 1.91075, 1.90689, 1.83791, 1.8357, 1.9428, 1.98928, 1.93842, 1.93808, 1.82755, 1.82453, 1.99443, 1.93714, 1.81679, 1.82012, 1.94285, 1.91986, 1.81648, 1.94823, 1.91356, 1.81149, 1.90762, 1.8133, 1.94567, 1.80765, 1.80931, 1.80506, 1.93791, 1.80686, 1.80612, 1.80802, 1.80661, 1.80457, 1.80284, 1.80434, 1.80413, 1.93477, 1.80403, 1.80663, 1.89578, 1.93331, 1.92831, 1.80108, 1.80058, 1.80062, 1.91379, 1.92387, 1.80005
1.81696, 1.81344, 1.81452, 2.09722, 1.817, 1.81417, 1.81336, 2.08978, 1.80993, 1.81361, 1.8131, 1.99317, 1.81247, 1.80971, 1.80985, 1.80924, 1.80924, 2.08761, 1.80977, 1.89682, 2.06611, 1.80687, 1.8053, 1.80676, 1.80685, 1.80508, 1.904, 1.8051, 1.90032, 1.80412, 1.80416, 1.80352, 1.90077, 1.90254, 1.80606, 1.90598, 1.80199, 1.80277, 1.89971, 1.80282, 1.80314, 1.80497, 1.80477, 2.08315, 1.80675, 2.06303, 1.8762, 1.87515, 1.87524, 1.94898, 1.87462, 1.87374, 2.03713, 1.95944, 1.95931, 1.94852, 1.95454, 1.95414, 1.94586, 1.94492, 1.9451, 1.95868, 1.94598, 1.94576, 1.94377, 1.94226, 1.93928, 1.94058, 1.96248, 2.04142, 2.04221, 1.94476, 1.94046, 1.94223, 1.93851, 1.94128, 1.86495, 1.9442, 1.94376, 1.94489, 1.9704, 1.87179, 1.94719, 1.9545, 1.97085, 2.04607, 1.88648, 2.05012, 2.04523, 2.02704, 2.02932, 2.02813, 2.03079, 2.02176, 2.0207, 1.94782, 2.0284, 2.02678, 2.02414, 2.02682, 2.02275, 2.0259, 2.0266, 2.04453, 2.03166, 2.03798, 2.05206, 1.95119, 2.052, 2.01865, 2.04288, 2.0291, 2.03616, 2.04617, 2.04447, 1.95627, 2.0458, 2.03658, 2.03766, 1.96212, 2.03866, 2.03902, 2.04149, 2.04867, 2.05622, 1.96568, 2.0566, 2.04079, 2.04102, 2.05208, 2.05156, 1.96683, 2.04197, 1.9681, 1.96858, 1.96744, 2.06503, 2.0513, 2.05333, 1.97185, 1.9673, 2.05354, 2.05382, 2.04086, 1.96813, 1.96845, 1.96699, 1.96806, 2.04989, 2.05009, 2.04847, 2.04714, 2.06994, 1.9116, 1.90925, 2.09375, 1.90953, 1.90811, 1.95852, 2.0092, 2.08367, 1.90741, 1.90964, 1.90769, 1.90657, 2.08704, 2.00728, 1.91019, 1.91176, 1.91231, 1.91338, 2.10194, 1.90904, 1.91269, 2.00203, 1.91341, 2.09089, 2.09039, 2.08383, 2.08238, 1.91362, 2.08261, 2.08148, 2.08445, 1.9105, 2.09481, 2.08589, 1.90819, 1.91018, 1.90756, 1.91083, 1.90673, 2.08022, 1.90844, 1.90894, 1.83604, 1.94241, 1.93799, 1.83073, 1.94115, 1.82577, 1.82552, 1.94131, 1.9392, 1.8201, 1.92695, 1.92673, 1.81681, 1.81461, 1.86516, 1.92724, 1.86455, 1.80973, 1.8137, 1.81041, 1.94809, 1.94469, 1.80726, 2.01941, 1.93952, 1.90696, 1.94275, 1.94116, 1.80559, 1.8045, 1.80211, 1.80474, 1.93806, 1.80282, 1.80399, 1.85439, 1.80443, 1.80551, 1.80445, 1.92934, 1.92545, 1.80157, 1.79956, 1.92766, 1.85273
1.81971, 1.91035, 1.81427, 1.81741, 1.81705, 1.81775, 1.81377, 1.81571, 2.08774, 2.0704, 1.81236, 1.8085, 1.81114, 1.81019, 1.81239, 1.90982, 1.80985, 1.91156, 1.81022, 1.80824, 1.80829, 1.80658, 1.81052, 1.8093, 1.90983, 1.91037, 1.8056, 1.90886, 1.90727, 1.80781, 1.80573, 1.85457, 1.85675, 1.89451, 1.8059, 1.85549, 1.85427, 1.80445, 2.07449, 1.80379, 1.80369, 1.80597, 1.80594, 2.06726, 1.80783, 1.8088, 1.80945, 1.87659, 1.95455, 1.95493, 1.94966, 1.9562, 1.94926, 1.95502, 1.94916, 2.03545, 2.03474, 2.0332, 1.94675, 1.95796, 1.94616, 1.94532, 1.86859, 1.86626, 1.96291, 1.94097, 1.94084, 1.96294, 1.94106, 1.96595, 1.9653, 1.94011, 1.93957, 1.93863, 1.96767, 2.0468, 1.94093, 1.9431, 1.94476, 1.86782, 1.86967, 1.97025, 2.04796, 2.04568, 1.95589, 1.9584, 1.96528, 2.04864, 2.06581, 2.03256, 2.02392, 2.04783, 2.02384, 2.02348, 1.94749, 1.94808, 1.94835, 2.02922, 2.02752, 2.02745, 2.02821, 2.02723, 2.02659, 2.02671, 2.02565, 2.0397, 2.05153, 1.95286, 1.95218, 2.03906, 1.9551, 2.04086, 2.04516, 2.05553, 2.0514, 1.96151, 1.96091, 2.04567, 2.03808, 2.0411, 2.04141, 2.03951, 2.04039, 2.06928, 2.0397, 2.04266, 2.04214, 2.05155, 2.05303, 2.05883, 1.96826, 1.96822, 2.04043, 2.04794, 2.05363, 2.04446, 2.04206, 1.96826, 1.96871, 2.0699, 2.05519, 2.04344, 2.04352, 1.96682, 1.96858, 1.96933, 2.04163, 1.97181, 1.97091, 2.07621, 2.06228, 2.04883, 1.97234, 1.91012, 1.91098, 1.91144, 1.91023, 1.90905, 2.01458, 2.01292, 1.90714, 1.90624, 1.90875, 1.90693, 1.90791, 1.9116, 1.91146, 1.91326, 1.91065, 1.91437, 1.91264, 1.91451, 2.00122, 1.96241, 1.96167, 1.91606, 1.91422, 1.91357, 2.10334, 1.91422, 1.91291, 1.90979, 1.91113, 1.91043, 2.10309, 1.90728, 1.90816, 1.90833, 1.90985, 2.0103, 1.90815, 1.90685, 1.90811, 1.90739, 1.90625, 1.83735, 1.8341, 1.83757, 1.83211, 1.93839, 1.93913, 1.82659, 1.82534, 1.82349, 1.8168, 1.87045, 1.87028, 1.81792, 1.81612, 1.94316, 1.91842, 1.81265, 1.94851, 1.93305, 1.81283, 1.8093, 1.94669, 1.81024, 1.80507, 1.81033, 1.80668, 1.94074, 1.80739, 1.94293, 1.80604, 1.8549, 1.80606, 1.80547, 1.80499, 1.80299, 1.8057, 1.80515, 1.93053, 1.93041, 1.93204, 1.8031, 1.80238, 1.80016, 1.80308, 1.80245
1.92295, 1.81982, 1.86899, 1.81725, 1.86603, 1.86827, 1.81544, 1.81782, 1.81392, 1.81389, 1.91255, 1.81444, 1.91353, 1.81382, 1.91108, 1.81229, 1.81301, 1.81223, 1.81173, 1.81146, 1.80972, 1.86011, 1.85824, 1.91357, 1.91167, 1.80761, 1.89901, 1.80973, 1.80561, 1.91368, 1.80484, 1.86445, 1.80775, 1.85606, 1.80685, 1.8557, 1.89505, 1.80613, 1.80518, 1.98678, 1.80601, 1.80967, 1.80749, 1.80817, 1.80864, 1.80986, 1.81116, 2.0341, 1.87801, 1.87615, 1.95133, 1.95286, 1.95494, 1.94988, 1.95014, 1.95179, 1.94865, 1.94787, 1.94758, 1.86976, 1.94641, 1.95982, 2.05269, 1.94291, 1.96289, 1.94392, 2.0531, 1.94223, 1.94084, 1.9651, 1.94442, 1.94242, 1.86297, 1.86509, 1.93997, 1.94104, 1.94228, 1.86493, 1.944, 1.94539, 1.94584, 1.94774, 1.97238, 2.06565, 1.95552, 1.95699, 1.97197, 2.05082, 2.06798, 2.02622, 2.02563, 2.03072, 2.02447, 2.02548, 2.03042, 1.94936, 1.94768, 1.94728, 1.94768, 2.02776, 1.94891, 1.94867, 2.02583, 2.02674, 2.04997, 1.94884, 1.95194, 1.95216, 2.02885, 2.04175, 2.04028, 1.95488, 2.04905, 2.03411, 2.03443, 2.03979, 2.0528, 2.05258, 2.03949, 2.03818, 1.96542, 2.0564, 2.04113, 2.04018, 1.9652, 2.04132, 2.04175, 2.04828, 2.04286, 2.05698, 2.05899, 2.07021, 2.0631, 2.05928, 1.96909, 2.04526, 1.96579, 2.04498, 2.06581, 2.04324, 1.96813, 2.05257, 2.06268, 2.04369, 1.96887, 1.96904, 1.96938, 1.96935, 1.96919, 2.04675, 2.07045, 2.04866, 2.04821, 1.91129, 1.90958, 1.96106, 1.96118, 1.95955, 1.95856, 2.00954, 2.08668, 1.90946, 1.90827, 2.08912, 1.90834, 1.90868, 2.11067, 1.90881, 1.90952, 1.91034, 1.9141, 1.91297, 1.91612, 1.91297, 1.91276, 2.12053, 2.10259, 1.96388, 1.96208, 1.98676, 1.91192, 1.91113, 2.12151, 1.911, 2.08242, 1.90921, 1.9103, 1.90976, 1.91022, 1.90628, 1.90696, 1.90688, 1.95696, 1.90666, 1.90415, 1.88962, 1.83367, 1.83392, 1.8335, 1.82732, 1.94552, 1.82489, 1.82388, 1.94112, 1.81836, 1.81788, 2.01671, 1.81679, 1.81704, 1.94389, 1.81274, 1.81348, 1.8633, 1.81159, 1.91601, 1.80766, 1.90604, 1.94204, 1.80701, 1.92103, 1.80585, 1.9427, 1.80332, 1.80462, 1.85401, 1.92431, 1.85499, 1.80602, 1.80503, 1.93771, 1.93205, 1.80063, 1.80455, 1.85926, 1.85823, 1.92121, 1.85469, 1.80035, 1.854, 1.80231
1.82382, 1.81861, 1.81777, 1.81819, 1.82065, 1.90954, 1.81755, 1.81696, 1.90713, 1.90797, 1.81616, 1.81446, 1.8159, 1.8132, 1.91558, 1.81445, 1.81524, 1.81458, 1.91457, 1.81154, 1.81351, 1.80976, 1.81316, 1.81091, 1.8104, 1.91312, 1.80923, 1.90463, 1.80612, 2.07, 1.80732, 1.85872, 1.80729, 1.80757, 1.80664, 1.89653, 1.80731, 1.89532, 1.80894, 1.99239, 1.9897, 1.80753, 1.80977, 1.81115, 1.81072, 1.81201, 1.81368, 1.87764, 2.03664, 1.87553, 1.87556, 1.87633, 1.95193, 1.95802, 1.87569, 1.94827, 2.03517, 1.94495, 1.94671, 1.94908, 1.87073, 2.03519, 1.86899, 1.8674, 1.9426, 1.94105, 1.94077, 1.94213, 1.93974, 1.86508, 1.94142, 1.96887, 1.94187, 1.94433, 1.86451, 1.94157, 1.9418, 1.94428, 1.94338, 1.9476, 1.94784, 1.97057, 1.87516, 1.8772, 1.87988, 1.97006, 1.96539, 2.05796, 2.06634, 2.02735, 2.03839, 2.02477, 2.02755, 2.02439, 1.9483, 2.0317, 2.02542, 1.94753, 1.94907, 2.02809, 2.03015, 2.02874, 2.02813, 2.0245, 2.04169, 2.04848, 2.04534, 2.03063, 2.03377, 2.03414, 2.02174, 2.05897, 2.05521, 2.03829, 2.04291, 1.96001, 2.05815, 1.96031, 1.96322, 2.06881, 2.03975, 2.06155, 2.04798, 2.04872, 2.04518, 2.04277, 2.04063, 2.04161, 1.96728, 2.05209, 1.96746, 2.0595, 1.96991, 2.04507, 2.04542, 2.04524, 2.05682, 2.05862, 2.04519, 2.04585, 2.05152, 2.05672, 2.06726, 2.04528, 1.9684, 1.96811, 1.97048, 1.97011, 2.05118, 2.08453, 2.07706, 2.0487, 2.06923, 1.91003, 1.90936, 1.90839, 1.91021, 1.91026, 1.90942, 1.9089, 1.9073, 1.9091, 1.9085, 1.91315, 1.91038, 1.90931, 2.00805, 1.90844, 2.0077, 1.91258, 1.91317, 2.09224, 2.08658, 2.09881, 2.10038, 1.9113, 1.90992, 1.96495, 2.09011, 1.98935, 1.98782, 2.1003, 1.90748, 1.95786, 1.90984, 1.90921, 2.07973, 2.09738, 1.90831, 1.90956, 1.90713, 1.90676, 1.95694, 1.95631, 1.90359, 1.921, 1.92433, 1.83204, 1.83078, 1.82836, 1.82445, 1.82341, 1.94864, 1.94568, 1.82218, 1.82017, 1.93662, 1.93758, 1.8148, 1.81337, 1.86472, 1.86218, 1.86423, 1.86275, 1.86155, 1.80874, 1.80744, 1.80854, 1.8034, 1.94132, 1.93717, 1.80819, 1.94273, 1.80328, 1.8555, 1.80485, 1.80639, 1.80412, 1.8538, 1.80597, 1.80308, 1.80372, 1.80233, 1.86326, 1.86153, 1.80374, 1.8051, 1.80202, 1.90061, 1.80171
1.82336, 1.82293, 1.994, 1.81906, 1.81842, 1.81972, 2.08108, 1.81749, 1.81731, 1.81869, 1.81665, 1.9202, 1.81754, 1.81547, 1.81515, 1.81247, 1.91625, 1.8138, 1.81297, 1.81179, 1.91662, 1.81304, 1.92866, 1.81195, 1.81137, 1.8125, 1.81118, 1.90662, 1.80771, 1.80727, 1.80874, 1.85851, 1.85827, 1.85857, 1.85827, 1.80795, 1.85763, 1.85906, 1.90404, 1.80813, 2.07677, 1.80945, 1.80998, 1.81038, 1.81285, 2.06966, 2.04564, 2.03335, 2.03636, 1.95872, 1.95895, 1.87628, 1.87589, 1.87495, 2.03821, 1.87333, 1.95262, 1.94785, 1.94974, 1.945, 1.94434, 1.94501, 1.94712, 1.96893, 1.96663, 1.9657, 1.96947, 1.94191, 1.9426, 1.94419, 1.96637, 2.04851, 1.86505, 1.97018, 1.94422, 1.94264, 1.94301, 1.94461, 1.94523, 1.94476, 1.9474, 1.87382, 1.95179, 1.95207, 1.95577, 1.97458, 1.97259, 2.06384, 2.08258, 2.04223, 1.94897, 2.03058, 2.02401, 2.02599, 2.02872, 2.03178, 1.94833, 1.94953, 1.94872, 2.02663, 2.03134, 2.03059, 2.04382, 2.03924, 2.02671, 2.03551, 2.02721, 2.02708, 2.03238, 2.03052, 2.03029, 2.03528, 1.95858, 2.03912, 2.04161, 2.0494, 2.05537, 1.96175, 2.04838, 2.03888, 2.04441, 1.9653, 1.96529, 2.0485, 2.04614, 2.05207, 2.05129, 2.0448, 2.04181, 2.04931, 2.03822, 2.05951, 2.05253, 2.04534, 2.04557, 2.04599, 2.04665, 2.05976, 2.05136, 2.05863, 2.0435, 2.0546, 2.06163, 2.04301, 2.04637, 2.0448, 1.97001, 1.9694, 1.96973, 1.96932, 1.96859, 2.07099, 1.97216, 1.91355, 1.91167, 2.07988, 2.08681, 1.9108, 1.90991, 2.07982, 2.07922, 2.00759, 1.90654, 1.90838, 1.90825, 1.90991, 1.91241, 1.90954, 1.91073, 1.91186, 1.91233, 1.91126, 1.91177, 1.91057, 1.90874, 1.91108, 1.91092, 1.91149, 1.91033, 2.08338, 2.0879, 2.0873, 1.90939, 1.96067, 1.96122, 1.95858, 2.08063, 2.07913, 2.08699, 1.90997, 1.95835, 1.95554, 1.90694, 1.90592, 1.95595, 1.97331, 1.83394, 1.9248, 1.88918, 1.82432, 1.82233, 1.82428, 1.87294, 1.87136, 1.8701, 1.81862, 1.81655, 1.81592, 1.86939, 1.81458, 1.81333, 1.8111, 1.92537, 1.86379, 1.86272, 1.80963, 1.80814, 1.80749, 1.80645, 1.9451, 1.93766, 1.80406, 1.80365, 1.80279, 1.85475, 1.8547, 1.85484, 1.85403, 1.80372, 1.93593, 1.80273, 1.8035, 1.80517, 1.86183, 1.80222, 1.93095, 1.92932, 1.8007, 1.85204, 1.92028
1.9067, 1.82356, 1.82258, 1.82132, 2.09291, 1.8197, 2.0722, 1.81922, 1.81925, 1.81834, 1.81783, 1.81619, 1.81604, 1.91899, 1.86561, 1.90026, 1.86537, 1.866, 1.8144, 1.81447, 1.81347, 1.86287, 1.90378, 1.81211, 1.81323, 1.81205, 1.99042, 1.81171, 1.8091, 1.80924, 1.81063, 1.80955, 1.80728, 1.85875, 1.8614, 1.80917, 1.85919, 1.85967, 1.80953, 1.81005, 1.8105, 1.81073, 1.8121, 1.81257, 1.81024, 1.96853, 1.89748, 2.04017, 2.03957, 1.9574, 1.95275, 1.95303, 1.87614, 1.87532, 1.95269, 2.05831, 1.94892, 2.03754, 2.03839, 1.9494, 1.96205, 2.0534, 1.94686, 1.94487, 2.05535, 1.96659, 1.94521, 1.96863, 1.96937, 1.94185, 1.94164, 1.94239, 1.9413, 1.94108, 2.04663, 1.93801, 1.86581, 2.05989, 1.86774, 1.86861, 1.94743, 1.874, 2.05956, 1.95501, 1.97424, 1.88672, 1.9732, 2.05381, 2.05167, 1.94942, 2.02386, 2.02397, 2.03139, 2.03433, 2.03444, 2.02849, 2.02744, 1.94972, 1.94955, 2.02617, 2.03784, 2.02762, 2.03067, 1.95148, 2.02838, 2.0305, 2.03694, 2.03267, 2.03254, 2.04273, 2.03084, 2.03957, 2.03198, 2.04506, 1.9599, 2.05263, 2.03469, 2.0568, 1.96173, 1.96206, 2.04603, 2.04293, 1.96645, 2.04858, 2.05889, 2.04496, 2.05843, 2.04594, 2.04422, 2.04187, 2.04591, 2.04256, 2.04963, 2.06198, 2.04665, 2.05665, 2.05603, 2.04877, 1.96909, 2.04568, 2.04642, 2.04693, 2.04503, 2.04875, 2.04522, 1.9699, 1.97012, 2.04811, 2.05236, 2.0554, 2.0478, 2.04942, 2.05036, 1.99561, 1.9128, 2.08323, 1.91022, 1.90813, 1.90992, 1.90968, 2.09016, 1.90848, 1.9085, 1.90652, 2.00521, 2.00581, 1.9666, 1.96488, 1.96282, 1.91213, 1.91277, 1.96253, 2.10531, 2.10027, 1.91343, 2.09922, 1.91373, 1.91063, 1.96234, 1.96184, 1.9101, 2.08811, 1.95957, 1.95973, 1.9595, 1.90725, 1.90606, 1.90664, 2.08672, 1.90614, 1.90799, 1.95576, 1.95484, 1.90405, 1.95423, 1.8353, 1.82991, 1.83014, 1.88062, 1.87608, 1.931, 1.82288, 1.82139, 1.92842, 1.87093, 1.86985, 1.81744, 1.86582, 1.81476, 1.81312, 1.86347, 1.86172, 1.81038, 1.92591, 1.94222, 1.81007, 1.80757, 1.8066, 1.80493, 1.80244, 1.80537, 1.80399, 1.94747, 1.80356, 1.80355, 1.85583, 1.86482, 1.80364, 1.94147, 1.80566, 1.93245, 1.80391, 1.80254, 1.92171, 1.92724, 1.93211, 1.90595, 1.80078, 1.80169, 1.80061
1.90893, 1.88334, 1.82655, 1.82339, 2.071, 1.82077, 1.82015, 1.82093, 1.82305, 1.91926, 1.82277, 1.81838, 1.8184, 1.81971, 1.81578, 1.81841, 1.91406, 1.81722, 1.81737, 1.81681, 1.81547, 1.81548, 1.81679, 1.81613, 1.81178, 1.81369, 1.92119, 2.09982, 1.81154, 1.8116, 1.81168, 1.81049, 1.99656, 1.91503, 1.91756, 1.81047, 1.90083, 1.80984, 1.81146, 1.92343, 1.9142, 1.91366, 1.89256, 1.81112, 1.81331, 1.81466, 1.87939, 2.03816, 1.87954, 1.95886, 1.87626, 1.95843, 2.03808, 1.95611, 1.95515, 1.95002, 1.95157, 2.04148, 2.04829, 2.05148, 1.87184, 1.96541, 1.96626, 1.94412, 1.94664, 1.9479, 1.9423, 1.96886, 1.94328, 1.94462, 1.94102, 2.04698, 1.94163, 1.94179, 1.97187, 1.97164, 1.86811, 2.05605, 1.86843, 1.94775, 1.94896, 1.95182, 1.95203, 2.05886, 1.87935, 2.0579, 1.9759, 2.06225, 2.05046, 2.04471, 1.95041, 2.03729, 2.04153, 2.03534, 2.0279, 2.02691, 2.02622, 1.95005, 2.0246, 2.02759, 2.02934, 2.03455, 2.0286, 2.02869, 2.04171, 2.02863, 2.02884, 2.03155, 2.03072, 2.06951, 2.03454, 2.03456, 2.03398, 2.05924, 2.04112, 2.0655, 2.04639, 2.04418, 2.04266, 2.0591, 2.04934, 2.04696, 1.9649, 2.05576, 2.04536, 2.0723, 1.96889, 2.05283, 2.05955, 2.0462, 2.05971, 2.04584, 2.04419, 2.06174, 2.05305, 2.05562, 2.04625, 2.06245, 2.05222, 1.96894, 2.0462, 2.04697, 2.06623, 2.04634, 2.04842, 2.04669, 2.04926, 2.05009, 2.05155, 2.05897, 2.0482, 2.06995, 2.05563, 1.91419, 1.91317, 1.91299, 1.91118, 1.90701, 1.96145, 1.90988, 1.90765, 1.91035, 1.90961, 2.10757, 1.90701, 1.90831, 1.90855, 1.96041, 1.96109, 1.91184, 1.96321, 1.99505, 1.99441, 1.91125, 1.9102, 1.91362, 1.91116, 1.91327, 1.90768, 1.91046, 1.91027, 2.09422, 1.961, 1.95823, 1.9597, 1.95713, 1.95831, 1.90738, 1.90483, 1.90543, 1.90454, 2.07627, 1.95481, 1.90366, 1.90135, 1.83281, 1.83212, 1.83012, 1.82901, 1.8268, 1.82375, 1.8216, 1.82226, 1.82171, 1.81852, 1.86563, 1.86789, 1.8667, 1.81417, 1.94082, 1.93837, 1.81215, 1.86311, 1.86196, 1.93919, 1.80863, 1.81018, 1.85877, 1.80665, 1.94209, 1.80957, 1.80372, 1.80498, 1.80333, 1.93534, 1.938, 1.80363, 1.8047, 1.80295, 1.80659, 1.80289, 1.80174, 1.80247, 1.92182, 1.91917, 1.80063, 1.92946, 1.92729, 1.92665, 1.9234
1.82327, 1.87638, 1.82479, 1.82637, 1.82673, 1.87514, 1.87245, 1.8213, 1.81882, 1.82143, 1.91972, 1.81733, 1.82072, 1.81926, 2.0949, 1.9137, 1.81957, 1.91333, 1.81735, 1.81765, 1.8185, 1.82023, 1.81552, 1.81611, 1.81535, 1.81547, 1.81395, 1.8138, 1.91454, 1.81406, 1.91558, 2.08467, 1.81222, 1.8124, 1.81274, 1.81338, 1.81317, 1.91399, 1.81119, 1.81088, 1.91451, 1.91085, 1.81417, 1.81438, 1.81557, 1.81647, 1.87997, 1.95575, 1.87967, 1.95498, 1.95289, 2.04119, 1.95925, 1.95308, 1.95301, 2.04841, 1.9505, 1.94791, 1.96135, 1.94629, 1.96443, 1.96477, 1.86923, 1.86899, 1.86799, 1.94728, 1.9433, 1.94241, 1.969, 1.94091, 1.8647, 2.06256, 1.94067, 1.97173, 1.94107, 1.97416, 1.94173, 1.94484, 1.97273, 1.97277, 1.9492, 1.94893, 1.97574, 1.97436, 1.97622, 1.96213, 1.97477, 1.97181, 1.90981, 2.02615, 2.02596, 2.02708, 2.02612, 2.0378, 2.0285, 2.03747, 1.94944, 1.95129, 2.03045, 2.03057, 2.02973, 2.02879, 2.02837, 2.04147, 2.04891, 2.03078, 2.03395, 2.04194, 2.04719, 1.95543, 1.95611, 2.03569, 2.04591, 1.9603, 1.96026, 2.03614, 2.04471, 2.03815, 2.03716, 1.96506, 2.05121, 2.05667, 2.04792, 2.05109, 2.049, 2.04415, 2.04273, 2.06247, 2.06223, 1.96837, 2.06926, 2.06331, 2.04897, 2.05873, 2.05741, 2.05631, 2.05624, 2.05785, 2.06039, 2.05961, 2.04991, 2.04976, 2.04861, 2.04649, 2.04914, 2.04771, 2.04839, 2.05103, 2.04817, 2.04996, 2.06853, 2.04879, 2.05024, 2.08035, 1.91473, 1.91083, 1.90735, 1.90638, 1.96223, 1.96235, 1.90759, 1.90951, 1.90989, 2.0855, 1.90953, 2.08944, 1.91148, 1.91147, 1.91042, 1.90943, 1.99469, 1.96364, 1.962, 1.90868, 2.09334, 2.09292, 2.0932, 1.91415, 2.09618, 1.9127, 1.91021, 1.91105, 1.91006, 1.90772, 1.96033, 2.09929, 1.90702, 1.90481, 1.90633, 1.90174, 1.9033, 1.90529, 2.07728, 1.90383, 1.90203, 1.83301, 1.83102, 1.82992, 1.82707, 1.82518, 1.82437, 1.82382, 1.82104, 2.12814, 1.93041, 1.92994, 1.81467, 1.81395, 1.81623, 1.81309, 1.81405, 1.81251, 1.88909, 1.88611, 1.81098, 1.81002, 1.8599, 1.85932, 1.9383, 1.80549, 1.8055, 1.80686, 1.8042, 1.93609, 1.80281, 1.80264, 1.80505, 1.80391, 1.80294, 1.80622, 1.80548, 1.80628, 1.80658, 1.85327, 1.92352, 1.8042, 1.92443, 1.80283, 1.80341, 1.79914
1.82692, 1.82599, 1.82445, 1.87528, 1.88211, 1.82555, 1.87371, 1.87617, 1.82156, 1.82379, 1.82071, 1.82046, 1.81754, 1.9213, 1.81881, 1.81969, 2.09591, 1.81609, 2.07322, 1.81874, 1.81979, 1.82027, 1.81782, 1.91437, 1.81653, 1.81617, 1.8128, 1.81598, 1.81565, 1.91661, 1.91955, 1.81169, 1.91516, 1.81374, 1.81457, 1.81068, 1.8123, 1.91463, 1.91223, 1.81371, 1.81281, 1.81393, 1.81493, 1.81675, 1.81766, 1.81744, 1.96138, 1.95926, 1.95906, 2.03934, 1.88006, 1.95389, 2.04493, 1.95629, 1.95196, 1.95216, 1.95234, 1.96524, 1.94723, 1.96541, 1.94762, 1.86978, 1.86904, 1.86935, 1.86858, 1.94329, 1.94198, 1.94755, 1.97139, 1.86609, 1.94449, 1.94234, 1.94148, 1.94462, 1.94207, 1.97209, 1.9716, 1.86807, 1.86965, 1.94738, 1.94811, 1.94991, 1.87644, 1.95471, 1.96185, 1.96245, 1.97795, 1.97722, 2.04802, 2.02767, 2.05071, 2.0463, 2.02857, 2.04164, 2.04223, 1.95232, 1.95138, 1.95239, 1.95084, 1.95099, 2.02584, 2.02655, 2.02693, 2.04267, 2.02897, 2.03186, 2.03071, 2.03079, 1.95438, 2.04679, 2.0547, 2.06182, 2.05311, 2.04427, 2.0458, 2.04662, 1.96231, 2.0383, 2.03794, 1.96529, 1.96528, 2.0436, 2.04327, 2.04312, 2.05362, 2.06021, 2.04575, 2.04664, 2.04526, 2.04451, 1.9694, 2.07229, 1.97003, 2.04516, 2.06372, 2.04569, 2.05459, 2.0478, 2.07042, 2.048, 2.05913, 2.05275, 2.05566, 1.96948, 2.04689, 2.04811, 2.0513, 2.05189, 2.05127, 2.05004, 2.06417, 2.04965, 2.04971, 1.91265, 1.91036, 1.91063, 1.90982, 1.90884, 1.99851, 1.96352, 1.96469, 1.96573, 1.90748, 1.90725, 2.00055, 1.90767, 2.00374, 1.96753, 2.00806, 2.00499, 1.91108, 1.91256, 1.91441, 2.11124, 2.10941, 1.91023, 2.08336, 1.91132, 1.91061, 1.91328, 1.90747, 1.91026, 2.08169, 1.9095, 1.90767, 1.90688, 1.90683, 1.9065, 1.90441, 1.90171, 1.90292, 1.90284, 1.90208, 1.90207, 1.83028, 1.83264, 1.83023, 1.82768, 1.82591, 1.82453, 1.82354, 1.82381, 1.86917, 1.82005, 1.81787, 1.9307, 1.8154, 1.81596, 1.81367, 1.91158, 1.93564, 1.81422, 1.81047, 1.80978, 1.81024, 1.80983, 1.80946, 1.80927, 1.80797, 1.85604, 1.8561, 1.80744, 1.8038, 1.8061, 1.8057, 1.80418, 1.93527, 1.80585, 1.80468, 1.8027, 1.93214, 1.80335, 1.85582, 1.85516, 1.80557, 1.92848, 1.92581, 1.92726, 1.80142, 1.91152
1.82978, 1.8314, 1.82791, 1.87657, 1.82886, 1.82946, 1.90783, 1.87642, 1.82409, 1.82369, 1.82167, 1.82209, 1.82296, 1.82132, 1.81957, 1.82108, 1.87002, 1.82072, 1.81867, 1.82051, 1.82104, 1.81865, 1.81971, 1.81763, 1.8139, 1.81498, 2.0832, 1.91734, 1.9168, 1.81332, 1.81632, 1.91468, 1.81452, 1.81435, 1.91318, 1.91838, 1.92622, 1.81154, 1.86516, 1.81603, 1.81526, 1.81464, 1.81622, 1.81518, 1.81786, 1.81796, 2.0383, 1.95872, 2.04364, 1.9625, 1.9614, 1.96146, 2.03963, 2.04156, 2.05228, 1.95236, 1.96581, 1.86988, 1.94847, 1.95013, 1.9482, 1.94763, 1.94689, 1.96823, 1.94775, 1.86839, 1.86893, 1.86808, 1.86859, 1.94408, 1.94468, 1.9423, 1.94352, 1.97568, 1.94574, 1.94289, 2.05169, 2.05127, 1.97492, 2.06696, 1.97646, 1.9514, 2.05562, 1.95856, 1.88303, 1.96115, 2.052, 1.96986, 2.08469, 2.03938, 2.02855, 2.03123, 2.02694, 2.03503, 2.03093, 2.03126, 1.95442, 2.03081, 1.95169, 1.94906, 1.94954, 2.02869, 2.02838, 2.03789, 2.02989, 2.03426, 2.05008, 2.05226, 2.04053, 2.04534, 2.05301, 2.05915, 1.95797, 2.04784, 2.04906, 2.0387, 2.04835, 2.04475, 2.05991, 2.05739, 1.96592, 1.96545, 2.06578, 2.05708, 1.966, 2.05582, 1.97087, 2.05951, 2.05481, 2.04779, 2.0458, 2.04622, 2.05478, 2.05643, 2.05797, 2.06201, 2.05173, 1.97029, 1.96918, 2.05883, 2.04561, 2.05123, 2.06939, 2.05904, 2.05064, 2.04627, 1.97153, 2.05203, 2.04662, 1.97215, 2.04899, 1.97317, 2.06472, 1.91375, 1.99994, 2.07696, 1.91058, 2.09175, 1.90848, 1.90665, 1.90981, 1.90763, 1.90659, 1.90764, 2.0907, 2.0015, 1.91066, 1.96829, 1.96828, 1.9671, 1.91098, 2.09771, 2.0052, 1.91116, 1.91026, 1.9106, 1.91076, 2.1041, 1.9107, 1.96021, 2.09054, 1.91038, 1.91041, 1.90744, 2.08508, 2.09107, 1.99263, 1.90794, 1.90547, 1.9033, 1.90383, 1.90272, 1.90302, 1.90256, 1.8331, 1.83313, 1.82727, 1.94247, 1.82576, 1.93381, 1.82466, 1.87074, 1.82199, 1.9355, 1.8188, 1.93233, 1.8162, 1.81647, 1.9378, 1.93406, 1.93236, 1.81166, 1.94505, 1.91606, 1.80831, 1.80924, 1.80933, 1.93861, 1.93728, 1.80515, 1.80339, 1.806, 1.94302, 1.80641, 1.93546, 1.80275, 1.93761, 1.935, 1.80147, 1.80137, 1.80113, 1.80288, 1.91488, 1.91733, 1.91519, 1.93171, 1.92779, 1.80151, 1.92707, 1.92711
1.83109, 1.83057, 1.83069, 1.82967, 1.89772, 1.82966, 1.88577, 1.8763, 1.87724, 1.82409, 1.82405, 1.82335, 1.82009, 1.82365, 1.82198, 1.82241, 1.87181, 1.87217, 1.81998, 1.82165, 1.81942, 1.92052, 1.88522, 1.81751, 1.81766, 1.8176, 1.91585, 1.91176, 1.91281, 1.92201, 1.8139, 1.81664, 1.81778, 1.8163, 1.92, 1.86616, 1.91722, 1.86543, 1.8167, 1.81676, 1.81504, 1.81437, 1.81581, 1.81746, 2.09385, 1.81756, 2.04139, 2.04484, 1.9623, 1.95822, 1.96497, 1.95676, 1.96534, 1.95593, 1.95631, 1.95111, 1.95441, 1.95368, 1.96771, 1.94931, 1.95077, 2.06291, 1.94818, 1.94791, 1.97044, 1.86841, 1.97086, 1.97298, 1.94404, 1.96939, 1.86836, 1.97265, 1.94271, 1.97424, 1.9476, 1.946, 2.05138, 1.97554, 1.94615, 1.94839, 1.95132, 1.95238, 1.87962, 2.05536, 1.96032, 1.97905, 1.88983, 1.97962, 2.03461, 2.03124, 2.03051, 1.95236, 1.95213, 2.02849, 2.02735, 1.95219, 1.9521, 2.03107, 2.02862, 1.95088, 1.94799, 2.03911, 2.0414, 2.02791, 2.04497, 1.9554, 1.95554, 1.95585, 2.05226, 1.95688, 1.95793, 2.04421, 2.04405, 2.04656, 2.03266, 2.0382, 1.96295, 2.04259, 2.04065, 2.03929, 2.05209, 2.05364, 1.9658, 1.96434, 2.0598, 2.05704, 1.9696, 2.05995, 2.0535, 2.06863, 2.0458, 2.04605, 1.96905, 2.0657, 2.06954, 2.04769, 2.05559, 2.0495, 1.97026, 2.04889, 2.07075, 2.04681, 2.07559, 2.0484, 2.05171, 2.052, 2.04978, 1.97201, 2.05234, 2.05322, 2.05894, 2.04903, 1.97251, 1.91486, 2.09772, 1.91357, 1.90834, 1.91068, 1.91026, 1.90821, 1.95826, 1.90777, 1.90754, 1.90736, 1.90864, 1.9096, 1.90756, 1.96814, 1.96844, 1.96787, 1.91171, 1.91219, 1.91149, 1.96505, 1.91162, 1.90816, 1.91123, 1.91182, 2.09295, 2.00894, 1.91111, 1.95948, 1.90938, 1.9102, 1.9077, 1.9035, 1.90296, 1.90282, 1.99666, 1.90147, 2.08027, 2.08702, 1.90133, 1.90083, 1.83413, 1.83182, 1.83003, 1.82606, 1.82606, 1.82356, 1.87309, 1.82231, 1.92407, 1.92827, 1.86667, 1.93092, 1.81651, 1.92669, 1.81146, 1.81466, 1.93331, 1.93345, 1.81116, 1.92998, 1.92819, 1.81066, 1.90475, 1.90234, 1.93745, 1.80632, 1.93984, 1.93472, 1.93176, 1.9886, 1.80354, 1.80097, 1.80308, 1.80263, 1.80257, 1.94132, 1.80442, 1.85241, 1.80426, 1.80322, 1.8058, 1.80423, 1.91121, 1.80412, 1.92433, 1.80277
1.83127, 1.83122, 1.83285, 1.83244, 1.82741, 1.8284, 1.87971, 1.87975, 1.82655, 2.0792, 1.82672, 1.82426, 1.82578, 1.82731, 1.82326, 1.82182, 1.82157, 1.92452, 1.82013, 1.82191, 1.87021, 1.82203, 1.81851, 1.81765, 1.81722, 1.81794, 1.81801, 1.8178, 1.92161, 1.81959, 1.87554, 1.87633, 1.81832, 1.8176, 1.91554, 1.81404, 1.86801, 1.86653, 1.8182, 1.81799, 1.81728, 1.8171, 1.86806, 1.81766, 1.81829, 1.82086, 1.96649, 2.05133, 1.96359, 1.96502, 2.04796, 2.04856, 1.95806, 1.96344, 1.96491, 1.87854, 1.96622, 1.9514, 1.95102, 1.9496, 1.97158, 1.94913, 1.94821, 1.97264, 2.05583, 1.87055, 2.0546, 1.94512, 1.94549, 1.94333, 1.97665, 1.97568, 1.86694, 1.8656, 1.94548, 1.94508, 1.94528, 1.94594, 1.94778, 1.95165, 1.95232, 1.97869, 1.8786, 1.95917, 1.883, 1.97674, 1.9689, 1.9751, 2.07107, 2.02889, 2.03253, 2.04455, 2.05102, 2.03123, 2.0347, 2.03486, 2.03356, 1.95293, 1.95216, 1.95249, 1.95496, 2.04889, 2.03209, 2.03093, 2.03277, 1.9547, 2.04213, 2.04431, 2.03449, 2.0482, 2.04095, 2.054, 1.95941, 2.03532, 2.03742, 2.0376, 1.96425, 2.04202, 2.04209, 2.04283, 2.0593, 2.05799, 2.06191, 1.96516, 2.04695, 2.04584, 2.05912, 2.05212, 2.06568, 2.05502, 1.97109, 1.96994, 1.96989, 2.04964, 2.06932, 2.04875, 2.05019, 2.04692, 2.04775, 2.05022, 1.97337, 2.04934, 2.05005, 2.05226, 2.05241, 2.05439, 2.05504, 2.05241, 2.05107, 2.04903, 2.05936, 2.04982, 2.0498, 2.08231, 1.91334, 1.91268, 1.91102, 2.00963, 1.90702, 1.90854, 1.90669, 1.90634, 1.90854, 1.90792, 1.90756, 2.00469, 1.9072, 1.90919, 1.90948, 1.90987, 1.91043, 1.91373, 1.91148, 2.00306, 1.90926, 1.91235, 1.91136, 2.09668, 1.91102, 1.91002, 1.91074, 1.90965, 1.91013, 1.90701, 1.95794, 1.90626, 1.95742, 1.90352, 1.90578, 1.90408, 2.0877, 2.08686, 1.90172, 1.90126, 1.83509, 1.83082, 1.82883, 1.82789, 1.82461, 1.8273, 1.87149, 1.87162, 1.91371, 1.89511, 1.86878, 1.81687, 1.93392, 1.86501, 1.81284, 1.81328, 1.81297, 1.81316, 1.93579, 1.93345, 1.80483, 1.934, 1.90681, 1.90622, 1.93295, 1.941, 1.80577, 1.80397, 1.80631, 1.80517, 1.80416, 1.802, 1.93741, 1.93429, 1.91984, 1.80445, 1.80447, 1.8546, 1.80748, 1.80433, 1.85151, 1.91378, 1.80387, 1.80119, 1.92807, 1.80258
1.83123, 1.83099, 1.83271, 1.83426, 1.82964, 1.82885, 1.82967, 1.82971, 1.829, 1.82836, 1.82618, 1.82383, 2.08976, 1.92636, 1.82528, 1.82646, 2.08275, 1.82045, 1.82186, 1.82368, 1.92007, 1.87267, 1.82131, 1.82232, 1.82197, 1.82084, 1.81904, 1.81871, 1.92188, 1.92229, 1.91754, 1.81749, 1.81755, 1.92197, 1.81725, 2.08408, 1.81803, 1.81668, 1.91592, 1.81892, 1.81883, 1.91633, 1.99522, 1.99945, 1.97994, 1.98625, 1.96625, 1.96416, 2.04136, 2.04551, 2.048, 1.9582, 1.96638, 1.95786, 1.95472, 1.9684, 1.95345, 1.95156, 1.87444, 1.9513, 1.95067, 1.9708, 1.95144, 1.9517, 1.9732, 1.97614, 1.97506, 1.97489, 1.94459, 1.86934, 1.94487, 1.94873, 1.94463, 1.86806, 1.94405, 1.94425, 1.94548, 1.94665, 1.87261, 1.97905, 1.875, 1.95562, 1.95642, 1.97933, 1.88408, 1.88937, 1.96816, 1.97964, 2.06188, 2.02716, 2.04876, 2.033, 2.03205, 2.03201, 2.03489, 2.03291, 1.95551, 1.95211, 1.95287, 1.95209, 1.95428, 2.04365, 2.04533, 1.95484, 2.04788, 2.04512, 1.95621, 2.05176, 2.05513, 2.04443, 1.95789, 2.04717, 2.05923, 2.03744, 2.04848, 2.04031, 2.03865, 2.053, 2.04899, 2.04861, 2.04809, 2.04101, 2.05802, 2.06157, 2.06292, 2.04542, 2.04584, 1.96858, 1.96991, 2.05587, 2.06477, 2.05552, 1.97028, 2.05912, 2.07245, 2.06335, 2.05601, 2.06061, 2.04935, 2.05061, 2.06534, 2.04518, 2.04943, 2.04893, 2.05301, 2.04958, 2.05493, 2.05339, 2.05363, 2.05261, 2.05959, 2.06975, 2.07322, 1.91323, 2.08373, 1.90977, 1.90974, 1.90969, 1.91003, 2.08074, 2.08228, 1.9089, 1.90809, 2.10254, 2.0067, 1.90774, 1.91043, 1.9076, 2.08449, 2.08246, 1.90951, 1.9096, 1.91333, 1.91079, 2.00145, 1.96189, 2.08297, 2.09105, 2.10306, 1.91112, 1.9127, 1.90988, 1.91077, 1.90858, 1.99636, 1.90388, 2.09109, 1.90613, 1.95427, 1.90309, 2.08186, 1.90285, 1.90322, 1.9029, 1.88267, 1.88196, 1.87892, 1.82609, 1.82154, 1.92357, 1.87288, 1.93254, 1.8202, 1.86834, 1.915, 1.86817, 1.86754, 1.87241, 1.86518, 1.81342, 1.81403, 1.81136, 1.81034, 1.80997, 1.90081, 1.80476, 1.80812, 1.90206, 1.93413, 1.93538, 1.85879, 1.80333, 1.92039, 1.80406, 1.85782, 1.80055, 1.80101, 1.80211, 1.8035, 1.85512, 1.91847, 1.85566, 1.85462, 1.85457, 1.91453, 1.85397, 1.80361, 1.92923, 1.80317, 1.80608
1.83333, 1.83447, 1.83405, 1.83323, 1.83341, 1.83352, 1.8318, 1.82911, 1.82825, 1.82733, 1.82546, 1.82567, 1.82639, 1.82711, 1.92438, 1.93027, 1.92644, 2.10292, 1.82497, 1.82401, 1.82463, 1.82354, 1.87517, 1.82293, 1.87205, 1.82025, 1.82163, 1.82117, 1.82202, 2.08985, 1.81875, 1.81834, 1.90946, 1.82059, 1.93807, 1.93842, 1.91735, 1.82086, 1.8708, 1.82065, 1.81977, 1.82048, 1.90346, 1.90431, 1.97974, 1.87281, 1.96057, 1.95997, 1.95995, 1.96032, 2.05008, 1.95821, 1.95938, 1.96622, 1.95373, 1.87834, 1.8788, 1.97149, 1.95184, 1.95272, 1.94799, 1.87183, 1.94904, 1.94875, 2.05135, 1.94877, 1.94731, 2.05167, 2.05587, 2.05409, 1.94538, 1.86808, 1.97699, 1.94535, 1.94639, 1.86913, 1.8688, 1.94939, 1.94956, 1.98041, 1.87513, 1.98015, 1.87935, 1.96051, 1.98177, 1.96582, 1.8941, 2.08866, 2.06049, 2.04498, 1.95482, 2.03143, 1.95248, 2.05959, 2.04835, 2.03265, 1.9537, 1.95415, 1.95311, 1.95487, 1.95422, 1.95473, 2.05142, 2.04818, 2.03251, 2.03315, 2.03667, 2.04161, 1.95808, 1.95858, 2.05542, 2.05809, 2.0589, 2.04191, 2.04854, 2.06324, 1.96345, 1.96245, 2.05824, 2.04386, 2.04263, 2.04223, 2.0447, 2.0601, 2.05933, 2.04502, 2.05933, 2.06184, 2.04829, 2.06297, 2.06666, 2.0626, 2.04777, 2.0635, 2.05187, 1.97196, 2.04855, 2.04956, 2.04777, 2.06565, 2.04861, 2.0464, 2.04901, 2.05307, 2.05029, 2.05005, 2.05525, 2.05497, 2.05262, 2.06117, 1.97276, 2.04933, 2.07377, 2.08228, 1.91356, 2.08299, 1.90986, 1.90735, 1.90977, 1.90829, 1.90452, 2.00632, 2.00866, 1.90734, 2.08221, 1.90965, 1.90934, 1.90846, 1.90736, 2.00713, 1.91004, 1.91195, 1.91295, 1.91144, 1.91353, 1.9123, 1.91121, 1.91359, 1.96171, 1.9601, 1.91244, 1.90981, 1.91034, 1.91021, 1.9083, 2.09052, 1.90395, 2.09636, 1.90304, 1.90166, 2.09608, 1.90138, 1.89947, 1.90151, 1.88267, 1.83167, 1.91819, 1.82674, 1.82422, 1.92928, 1.87237, 1.8215, 1.94106, 1.91721, 1.91528, 1.91344, 1.86683, 1.90626, 1.91171, 1.81361, 1.81163, 1.92744, 1.81021, 1.80967, 1.87518, 1.89543, 1.86601, 1.85566, 1.80645, 1.80625, 1.93822, 1.80334, 1.80245, 1.93495, 1.80448, 1.80633, 2.0416, 1.80619, 1.93314, 1.93152, 1.93168, 1.93178, 1.89734, 1.80617, 1.80432, 1.80248, 1.8043, 1.80249, 1.80135, 1.80184
1.83636, 2.11117, 1.8371, 1.83612, 1.82955, 1.83179, 2.08345, 1.8808, 1.83049, 1.83339, 1.83084, 1.83041, 1.82828, 1.82633, 1.82587, 1.82404, 1.82472, 1.82629, 1.93026, 1.82514, 1.82485, 1.82528, 1.82551, 1.92093, 1.82453, 1.92353, 1.8233, 1.8723, 1.87293, 1.82359, 1.92223, 1.87143, 1.82122, 1.82201, 1.87095, 1.92098, 1.82038, 1.82107, 1.82026, 2.00023, 2.00154, 1.82303, 1.82045, 1.87147, 1.87368, 1.82146, 1.96175, 1.96405, 1.96238, 1.96605, 1.96705, 1.88208, 1.95875, 1.95944, 1.8785, 1.95575, 1.87865, 1.95236, 1.95186, 1.95138, 1.87521, 1.95129, 1.87332, 1.9501, 1.97515, 1.95136, 1.97624, 2.053, 1.86954, 1.97533, 1.86916, 1.97677, 1.94515, 1.94604, 1.94844, 1.97903, 1.98053, 1.94843, 1.98005, 1.95202, 2.06119, 1.9527, 1.95922, 1.98529, 1.88655, 1.89013, 1.98245, 1.98302, 2.07526, 2.04472, 2.04933, 2.03182, 2.05887, 2.04928, 2.03882, 1.95507, 1.95487, 1.95264, 1.95371, 2.02937, 2.03046, 2.03084, 2.03, 2.04237, 2.03832, 2.03614, 1.95732, 1.95927, 2.05909, 2.05056, 2.02905, 2.03551, 1.96106, 2.05412, 1.96404, 2.0411, 2.0657, 2.04168, 2.04419, 2.04384, 2.0427, 1.96683, 2.04333, 2.06332, 2.05607, 2.04732, 2.06416, 2.04578, 2.0509, 2.04897, 2.06275, 2.06536, 1.97228, 2.06505, 1.97248, 2.06001, 1.97131, 1.97195, 1.97211, 2.05101, 2.05167, 2.04842, 2.05283, 2.05192, 2.05723, 2.05489, 2.05551, 2.0555, 2.05592, 2.05142, 2.04897, 2.05127, 2.07612, 1.96415, 1.91374, 1.91349, 1.91073, 1.96037, 1.95812, 1.95723, 1.90677, 1.90601, 2.01025, 1.90611, 1.90501, 1.9047, 2.10446, 1.9071, 1.90648, 1.91016, 1.96372, 1.962, 1.96165, 1.91208, 1.91267, 1.91269, 1.91317, 1.91197, 1.96273, 1.96176, 1.91036, 1.91141, 1.90761, 1.99685, 1.90724, 1.90742, 1.90451, 1.90447, 1.90585, 1.90352, 1.90187, 1.90001, 1.9, 1.90136, 1.88376, 1.83151, 1.9647, 1.82651, 1.82466, 1.82102, 1.82202, 1.82082, 1.91748, 1.81876, 1.91491, 1.81657, 1.81134, 1.81661, 1.86598, 1.8142, 1.8134, 1.81187, 1.81124, 1.81198, 1.85922, 1.85825, 1.85684, 1.91666, 1.85575, 1.80676, 1.80353, 1.80201, 1.93371, 1.93785, 1.92701, 1.92242, 1.92056, 1.80229, 1.91008, 1.80377, 1.80344, 1.80355, 1.80095, 1.80595, 1.93018, 1.80347, 1.97937, 1.92499, 1.92296, 1.91839
1.83804, 2.08607, 1.83841, 1.83719, 1.83572, 1.83376, 1.83591, 1.83085, 1.82923, 2.08686, 2.11131, 1.83052, 2.0872, 1.82878, 1.8303, 1.82648, 1.82682, 1.82634, 1.8281, 2.00569, 1.827, 1.82496, 1.82314, 1.82369, 1.82668, 1.82048, 1.82454, 1.822, 1.98967, 1.87343, 1.91624, 1.91724, 1.82246, 1.87175, 1.87241, 1.92182, 1.82303, 1.82083, 1.82235, 1.82126, 1.92082, 1.82322, 1.87233, 1.82462, 1.99622, 1.9996, 1.96192, 1.96943, 1.96846, 1.96227, 1.96939, 1.95948, 1.95988, 1.95857, 1.95889, 1.95561, 1.87902, 2.04883, 1.97265, 1.95611, 1.95163, 1.95094, 1.94942, 1.94964, 1.94836, 1.94741, 1.94589, 1.94896, 1.97877, 1.94618, 1.94622, 1.94618, 1.94519, 1.98031, 2.061, 1.97899, 1.98009, 1.94919, 1.98104, 1.98226, 1.95306, 1.95489, 1.98285, 1.98243, 1.98229, 1.98243, 1.89555, 1.98437, 2.05926, 2.03385, 2.03434, 2.05914, 2.05263, 2.03384, 2.0324, 2.03773, 2.03531, 1.95469, 1.95328, 2.03339, 2.03327, 2.03352, 2.03967, 2.04145, 2.04764, 1.95789, 2.05364, 2.05114, 2.05584, 2.04987, 2.03114, 2.06193, 1.96213, 2.05576, 2.04105, 2.04064, 2.04243, 2.0427, 2.06905, 2.07316, 2.04435, 2.06283, 2.04643, 2.06785, 2.06312, 2.07348, 2.06965, 2.05428, 2.05526, 2.04817, 2.06334, 2.04614, 2.04581, 2.06307, 1.97456, 2.06328, 2.06271, 2.06096, 2.04912, 2.05486, 2.05171, 2.05029, 2.05226, 2.05492, 2.04894, 2.0474, 2.05816, 2.05798, 2.05853, 1.97555, 2.05287, 2.06913, 1.97654, 1.91285, 1.91002, 1.96052, 1.95905, 1.90768, 1.95866, 1.95753, 2.0243, 1.95612, 1.90474, 1.90304, 1.90421, 2.0891, 1.90617, 1.90666, 1.90799, 2.10467, 1.91116, 1.9096, 1.91276, 2.08182, 1.91074, 1.91297, 2.00645, 2.00471, 1.97929, 1.96295, 2.09688, 2.09278, 2.08239, 1.9089, 1.90823, 1.95755, 1.95642, 1.95526, 1.95512, 1.904, 1.9012, 1.89959, 1.94928, 1.89601, 1.83284, 1.88209, 1.82859, 1.82704, 1.92211, 1.82405, 1.82044, 1.8201, 1.9233, 1.81824, 1.91825, 1.91944, 1.91725, 1.8156, 1.81269, 1.91076, 1.81328, 1.80984, 1.81298, 1.81115, 1.80834, 1.8084, 1.80799, 1.807, 1.80637, 1.85565, 1.93746, 1.80394, 1.8032, 1.80453, 1.93085, 1.92617, 1.90265, 1.85505, 1.8011, 1.80051, 1.80587, 1.80284, 1.80058, 1.8042, 1.80241, 1.80443, 1.80552, 1.97589, 1.80095, 1.8527
1.89231, 1.83768, 1.88861, 1.8346, 1.83235, 1.92748, 1.83508, 1.8335, 1.83448, 1.83179, 1.88226, 1.88118, 1.8305, 1.83162, 1.83167, 1.82837, 1.83, 1.93232, 1.82807, 1.8284, 1.82726, 1.82824, 2.08323, 1.82511, 1.823, 1.8271, 1.82591, 1.82489, 1.82492, 1.87517, 1.92009, 1.92108, 1.92689, 1.82539, 1.91708, 1.92333, 1.91791, 1.82102, 1.82575, 1.824, 1.82496, 1.82359, 1.82689, 1.8256, 1.99578, 1.82555, 1.9623, 1.96963, 1.96336, 1.88553, 1.96083, 1.95987, 1.97228, 1.95918, 1.95682, 1.95729, 1.95501, 1.95588, 1.95572, 1.95569, 1.8755, 1.95423, 1.95216, 1.97973, 2.05966, 1.87241, 1.97783, 1.97844, 1.94787, 1.86965, 1.94794, 1.9477, 1.86861, 1.98194, 1.87122, 1.94683, 1.98201, 2.06298, 1.95223, 1.95245, 1.95183, 1.98128, 1.95656, 1.96177, 1.9623, 1.96628, 1.97338, 2.08665, 2.08076, 2.03779, 2.0731, 2.05424, 2.03376, 2.03303, 1.95751, 2.03927, 2.03753, 2.03578, 1.95616, 2.03554, 2.03468, 2.03627, 2.0348, 1.95789, 2.03532, 2.03929, 2.04956, 1.96084, 1.9599, 2.05594, 2.05921, 2.05618, 1.96259, 1.9641, 2.04494, 2.04472, 2.04328, 2.04848, 2.04791, 2.04579, 2.04504, 2.04671, 1.97003, 2.06616, 2.0636, 2.04729, 2.06599, 2.04977, 2.04809, 2.06128, 2.04946, 2.05568, 2.06994, 2.06527, 2.05924, 2.05488, 1.96813, 2.06362, 2.05132, 2.05274, 2.04921, 2.05958, 2.05847, 1.97479, 2.06004, 2.0492, 2.05606, 2.05597, 2.05461, 2.05197, 2.05311, 2.05182, 2.07281, 2.00674, 1.96137, 1.91018, 1.95867, 1.99414, 1.99974, 2.02867, 2.028, 1.90799, 1.90591, 1.90521, 1.90615, 1.90695, 1.90743, 1.91069, 2.10256, 1.91011, 2.09756, 1.91054, 2.09788, 1.9103, 1.91123, 2.10279, 1.96385, 1.96504, 1.91412, 1.91308, 2.09391, 2.08689, 1.90955, 2.10046, 2.07893, 1.90702, 1.90604, 1.95562, 1.9538, 1.9528, 1.89959, 1.8997, 1.95118, 1.89931, 1.83391, 1.83041, 1.82792, 1.82799, 1.82535, 1.82288, 1.82184, 1.8209, 1.81995, 1.8194, 1.82057, 1.81993, 1.81556, 1.9005, 1.92081, 1.81337, 1.81182, 1.81199, 1.9232, 1.80954, 1.89096, 1.87132, 1.85663, 1.91063, 1.85812, 1.80299, 1.80258, 1.80599, 1.80274, 1.85564, 1.8039, 1.90279, 1.93292, 1.80387, 1.85519, 1.91038, 1.90737, 1.93128, 1.90914, 1.92726, 1.80531, 1.92556, 1.79941, 1.92701, 1.80239, 1.79853
1.83907, 1.84043, 1.89254, 1.83619, 1.83604, 1.83671, 1.93034, 1.83296, 1.83441, 1.83154, 1.94246, 1.83328, 1.88408, 2.09082, 1.82966, 1.92843, 1.83025, 2.11128, 2.0907, 1.87845, 1.93422, 1.82839, 1.93142, 1.82946, 1.93108, 1.82672, 1.82679, 1.92629, 1.82665, 1.82494, 1.92397, 1.82345, 1.82335, 1.92515, 1.82331, 1.82162, 1.82255, 1.92894, 1.82494, 1.82457, 1.82559, 1.82619, 1.99911, 1.99621, 1.99611, 2.00364, 2.04802, 1.96517, 1.97477, 1.96344, 1.9619, 1.9661, 1.96021, 1.97421, 1.97459, 1.97533, 1.97551, 1.95537, 1.97477, 1.95349, 1.97747, 1.95286, 1.95201, 1.95105, 1.94894, 1.94837, 1.98166, 1.98101, 1.98259, 1.94733, 1.98116, 1.9487, 1.98238, 1.87264, 1.94624, 1.94841, 1.9496, 1.98523, 2.07657, 1.95412, 1.95477, 1.95533, 1.96127, 1.98591, 2.08399, 1.98332, 1.98653, 2.0657, 2.06274, 2.05595, 2.0379, 2.05243, 2.05557, 2.03498, 2.03501, 2.03262, 1.95763, 1.95573, 1.95656, 1.95691, 1.95776, 2.03353, 2.04545, 2.03516, 1.95812, 2.03498, 2.0564, 2.02798, 2.05017, 1.96184, 1.96182, 1.96216, 2.04287, 2.04899, 2.06501, 2.05232, 2.04679, 1.96595, 2.0639, 2.06044, 2.04615, 2.0469, 2.04893, 2.06472, 2.06485, 2.04843, 2.04909, 2.07874, 2.07334, 2.07202, 2.04908, 2.04781, 2.05236, 2.04978, 2.06619, 2.07241, 2.06248, 2.06018, 2.0563, 2.05177, 2.06496, 2.05154, 2.05191, 2.04998, 2.05405, 2.05223, 2.05476, 2.05795, 2.0572, 2.05363, 2.06656, 2.05554, 2.05342, 2.00435, 1.96204, 1.96186, 1.96, 1.95967, 2.00019, 2.03028, 1.98026, 1.95535, 2.0039, 1.9066, 1.90686, 1.90775, 1.90639, 1.90679, 1.90681, 1.908, 1.90925, 1.9114, 1.91075, 1.91222, 1.9135, 1.91095, 1.9649, 1.91497, 1.91479, 1.96369, 1.91354, 1.98989, 1.91324, 1.99882, 1.90907, 1.90488, 1.90612, 1.90602, 1.95419, 1.90365, 2.09661, 1.90351, 1.90008, 1.89879, 1.89098, 1.90358, 1.83044, 1.82408, 1.82283, 1.8729, 1.82404, 1.82116, 1.82047, 1.86871, 1.81948, 1.81768, 1.90034, 1.89992, 1.81349, 1.81721, 1.92452, 1.81367, 1.92426, 1.88974, 1.85844, 1.8608, 1.92451, 1.85867, 1.80276, 1.93103, 1.93471, 1.9326, 1.9281, 1.93465, 1.80351, 1.80401, 1.80238, 1.80069, 1.85408, 1.80262, 1.93182, 1.93009, 1.80215, 1.92682, 1.80224, 1.80412, 1.80253, 1.85187, 1.80063, 1.90659
1.92422, 1.83816, 1.84044, 1.84067, 1.83835, 1.83787, 1.838, 1.83653, 1.83568, 1.83363, 1.83436, 1.83413, 1.83491, 1.93794, 1.83281, 1.83217, 1.94935, 1.95053, 1.88029, 1.83028, 1.82939, 1.83099, 2.10497, 1.82745, 1.82924, 1.9309, 1.93222, 1.82732, 1.82707, 1.9168, 1.92781, 1.92713, 1.82474, 1.82588, 2.0831, 1.82671, 1.82692, 1.82636, 1.82709, 1.8762, 1.87569, 1.8272, 1.91936, 1.82665, 1.87845, 1.87759, 1.97167, 1.96962, 1.96392, 1.97334, 1.96292, 1.96882, 1.88454, 1.97531, 1.96232, 1.88075, 1.97602, 2.05674, 1.97563, 1.97724, 1.87529, 1.95849, 1.97912, 1.95221, 1.95319, 1.98543, 1.98319, 1.87262, 1.94753, 1.94794, 1.87262, 1.94918, 1.94794, 1.9473, 1.94596, 1.94724, 1.9838, 1.94913, 1.98324, 1.95417, 1.95351, 1.98504, 1.95886, 2.06403, 1.98547, 1.97286, 1.9856, 2.06442, 2.08419, 1.95888, 2.03601, 2.03484, 2.05473, 2.0375, 2.06304, 1.95611, 1.95824, 1.95772, 1.95807, 1.95626, 2.03982, 2.0413, 2.0621, 2.036, 2.06933, 2.03663, 2.04266, 2.05587, 2.05374, 1.96362, 2.05246, 1.96558, 2.0464, 2.04948, 2.05443, 1.96633, 2.05281, 2.05381, 2.05528, 2.05542, 1.96828, 2.04679, 1.97132, 2.04838, 2.04778, 2.06243, 2.07621, 2.04999, 2.0498, 2.06796, 2.04793, 2.06479, 2.06632, 2.05615, 2.05015, 2.04946, 1.973, 1.97507, 2.04893, 2.05266, 2.06307, 2.06947, 2.0655, 2.06473, 2.05762, 2.05372, 2.05667, 2.05637, 2.05864, 2.05343, 2.05349, 2.05789, 2.05807, 1.91257, 1.91253, 1.91113, 1.96009, 1.99771, 1.95883, 1.95863, 1.90913, 2.00992, 1.90676, 1.9076, 1.90596, 1.90468, 1.99889, 2.00139, 1.9068, 1.90708, 1.95885, 1.91182, 1.90978, 2.0875, 1.913, 1.9133, 2.08298, 1.91345, 1.91309, 1.97199, 1.96608, 1.91022, 1.9113, 1.90977, 1.90671, 2.08745, 2.10657, 2.07253, 1.95519, 2.09085, 1.90261, 1.903, 1.8993, 1.89782, 1.91666, 1.93112, 1.83002, 1.82683, 1.87557, 1.8742, 1.82215, 1.91367, 1.82033, 1.86847, 1.90017, 1.81964, 1.86842, 1.81651, 1.81594, 1.91084, 1.9081, 1.80889, 1.91774, 1.86169, 1.85909, 1.80904, 1.9284, 1.93106, 1.80598, 1.80696, 1.80353, 1.80254, 1.93052, 1.93751, 1.93372, 1.80396, 1.80314, 1.85362, 1.91731, 1.91487, 1.91252, 1.93036, 1.80569, 1.85287, 1.80208, 1.92246, 1.91768, 1.80097, 1.92504, 1.91668
1.84167, 1.8936, 1.8385, 1.93754, 1.83987, 1.84235, 1.84031, 1.84086, 1.83723, 1.93573, 1.83731, 1.83707, 1.83584, 2.09712, 1.83414, 1.83469, 1.90008, 1.88206, 1.83337, 1.88181, 1.83352, 1.83052, 1.83032, 1.83077, 1.82918, 1.92417, 1.82806, 1.82888, 1.82827, 1.82656, 1.82501, 1.82635, 1.82661, 1.82508, 1.92106, 1.82836, 1.87563, 1.87654, 1.87676, 1.87731, 1.87728, 2.00272, 2.00034, 2.00005, 1.8792, 1.87952, 1.9655, 1.96881, 1.96611, 1.97337, 1.96462, 1.96635, 1.9762, 1.9768, 1.97658, 1.88195, 1.88166, 1.97723, 2.05616, 1.95505, 1.95263, 1.95254, 1.8764, 1.87614, 1.95191, 1.95215, 1.94837, 1.94769, 1.94849, 1.98572, 1.98597, 1.87176, 1.98191, 1.95129, 1.8719, 1.94958, 1.87408, 1.94979, 1.8761, 2.06357, 2.06461, 1.98629, 2.06886, 1.88586, 1.96708, 1.96652, 1.98603, 1.89985, 2.06989, 1.96006, 2.0381, 2.03436, 2.0359, 2.03755, 2.05743, 1.95824, 1.95839, 1.95817, 1.95859, 1.96155, 1.95964, 2.04067, 2.05315, 2.03739, 2.03844, 2.03767, 1.96172, 1.96186, 2.06569, 2.04879, 2.05478, 2.04521, 2.03084, 1.96491, 1.96607, 2.05814, 2.05296, 2.05771, 2.05145, 1.96858, 1.96905, 1.96992, 2.05879, 2.05727, 2.0487, 2.06624, 2.06567, 2.0739, 1.97334, 1.97378, 2.05248, 2.05742, 1.97377, 2.04967, 2.06682, 2.05693, 2.05489, 2.05792, 2.05138, 2.05942, 1.97444, 2.05616, 2.05545, 1.97378, 2.05311, 2.05307, 2.05586, 2.05871, 2.05865, 2.05339, 2.05862, 2.05478, 2.05329, 1.91461, 1.91291, 1.91055, 1.96132, 2.01186, 2.00968, 1.95534, 1.90669, 1.90594, 1.90718, 1.90573, 2.08429, 2.01052, 1.90542, 1.90488, 1.90663, 1.95873, 1.90843, 1.95978, 1.96128, 1.91025, 2.10387, 1.91196, 2.08274, 2.10352, 1.96383, 1.91288, 1.91295, 1.90969, 1.91208, 1.91048, 1.90715, 1.90603, 1.90397, 2.07975, 1.90275, 2.09032, 1.9002, 1.90128, 1.89782, 1.89598, 1.83502, 1.93521, 1.90983, 1.82446, 1.82762, 1.82651, 1.82385, 1.82243, 1.90305, 1.81743, 1.81529, 1.90184, 1.81681, 1.81628, 1.8166, 1.81122, 1.9067, 1.86277, 1.81031, 1.91666, 1.91081, 1.80705, 1.9264, 1.80382, 1.92945, 1.80295, 1.80623, 1.80345, 1.80607, 1.79951, 1.80317, 1.85455, 1.80261, 1.85597, 1.804, 1.92135, 1.79934, 1.80282, 1.85242, 1.87086, 1.92411, 1.80253, 1.80226, 1.79988, 1.80287, 1.92088
2.0965, 1.84362, 1.84411, 1.84538, 1.89246, 1.89321, 1.8905, 1.89002, 1.84069, 1.83869, 1.83761, 1.83765, 1.83738, 1.93839, 1.83678, 1.83688, 1.9031, 1.88401, 1.88373, 1.8325, 1.83374, 2.10003, 1.83424, 1.82937, 1.8301, 1.92328, 1.9238, 1.83097, 1.83038, 1.82777, 1.93579, 1.82693, 1.82756, 1.92846, 1.9236, 1.82693, 1.82645, 1.82565, 1.82667, 1.87846, 1.87934, 1.91428, 2.0097, 1.83124, 2.00178, 2.00467, 2.05318, 2.05493, 1.96808, 1.96614, 1.96873, 1.887, 1.97698, 1.96243, 1.95975, 2.07779, 1.95824, 1.97936, 1.95856, 1.87993, 1.95322, 1.95495, 1.87601, 1.98363, 1.95267, 1.95201, 1.95128, 2.07457, 1.87279, 1.95235, 1.95445, 1.94923, 1.94819, 1.94903, 1.95079, 1.95376, 2.06576, 1.95223, 2.06195, 2.07345, 2.07157, 1.98923, 1.95852, 1.98558, 1.89095, 1.89472, 1.97286, 1.98614, 2.06926, 2.04777, 2.0383, 2.0378, 2.03871, 2.03866, 2.03465, 1.96173, 1.95949, 1.96153, 1.95971, 2.0377, 1.95976, 2.03806, 2.04807, 2.03715, 2.0583, 2.03621, 2.04888, 2.04086, 2.0405, 2.02958, 2.03043, 2.03439, 2.05231, 1.96578, 2.06643, 2.05374, 1.96807, 2.05592, 2.06333, 1.97133, 1.97058, 2.08214, 2.0731, 1.9737, 2.05531, 2.06387, 2.0506, 2.0663, 2.06613, 2.06156, 2.05325, 2.05871, 2.05899, 2.05232, 2.05193, 2.05315, 2.05144, 2.0541, 2.05224, 2.05198, 2.04933, 2.05388, 2.05263, 2.05579, 2.05308, 2.0555, 2.05798, 2.05761, 2.05557, 2.05266, 2.05179, 2.07164, 2.09058, 2.00438, 1.91122, 2.1105, 1.90887, 2.08316, 2.00385, 1.90932, 1.9555, 1.90428, 1.90391, 1.90386, 1.9064, 1.90502, 1.90517, 1.95684, 1.99604, 1.99562, 1.95705, 1.90984, 1.96013, 1.91281, 1.9098, 1.9104, 2.08262, 2.08379, 2.09381, 2.09673, 2.08449, 2.00015, 1.90722, 1.90873, 1.90672, 1.90289, 1.90243, 2.08097, 1.90272, 2.08215, 2.07603, 1.90057, 1.89863, 1.89907, 1.83239, 1.83032, 1.82792, 1.82513, 1.82491, 1.82663, 1.82216, 1.82144, 1.82069, 1.81873, 1.81695, 1.81646, 1.81735, 1.81521, 1.81659, 1.8128, 1.86349, 1.86928, 1.9098, 1.81096, 1.85873, 1.8589, 1.8563, 1.80654, 1.80349, 1.80359, 1.80268, 1.93116, 1.80388, 1.92639, 1.80116, 1.80345, 1.80077, 1.93143, 1.92911, 1.9, 1.79707, 1.80415, 1.8018, 1.80016, 1.91914, 1.92198, 1.80373, 1.8059, 1.91766, 1.80323
1.84503, 1.84785, 1.93547, 1.89502, 1.8447, 1.84444, 1.84291, 1.84342, 1.84204, 1.84131, 1.84141, 1.83946, 1.93355, 1.83697, 1.83673, 1.83686, 1.83744, 1.83629, 1.88556, 1.83502, 1.83428, 1.8321, 1.8319, 1.83081, 1.83209, 1.88159, 1.88095, 1.87948, 1.83103, 1.92808, 1.82684, 1.94111, 1.82709, 1.82999, 1.92069, 1.82739, 1.92726, 1.92791, 1.82894, 1.83011, 1.87985, 1.91674, 1.83033, 1.83114, 1.83145, 1.83035, 1.96724, 1.96713, 1.97027, 1.96848, 1.96885, 1.96526, 1.88711, 1.96175, 1.97888, 2.05886, 1.96166, 1.96055, 1.88092, 1.98014, 1.95145, 1.95488, 1.9826, 2.07548, 1.95099, 1.87696, 1.95128, 1.87501, 1.94981, 1.95004, 1.87295, 1.9491, 2.06921, 1.94806, 1.95277, 1.95229, 1.95256, 1.95377, 1.95499, 1.95577, 2.06622, 2.07321, 1.98798, 1.96379, 1.9662, 2.07298, 1.89805, 2.08455, 2.07042, 2.03827, 2.03859, 2.03859, 2.05766, 2.03867, 1.96148, 1.96261, 1.9621, 1.96018, 1.9599, 2.03711, 2.03947, 2.03918, 2.03827, 1.96164, 2.03881, 1.96306, 1.96251, 2.04127, 2.0409, 2.05532, 1.96579, 2.04203, 2.06071, 2.06237, 1.96762, 2.06183, 2.06463, 1.96833, 1.9724, 1.97146, 2.06227, 2.05143, 2.0688, 2.0731, 2.05014, 2.05889, 2.06951, 2.05766, 2.06939, 2.05186, 2.05084, 2.06062, 2.0626, 2.05539, 2.07207, 2.05779, 2.04992, 2.05353, 2.05905, 2.06497, 2.05319, 2.05262, 2.05532, 2.05294, 2.05172, 2.05746, 2.05694, 2.05838, 2.05872, 2.05854, 2.0521, 2.05211, 1.97623, 1.96328, 1.90909, 2.00889, 1.91065, 1.90754, 2.00692, 1.90722, 1.90629, 2.03495, 1.90361, 1.90421, 1.90638, 1.90712, 1.90558, 1.90696, 1.90709, 1.90883, 1.95701, 1.91004, 1.91014, 1.91, 2.08314, 1.91361, 1.91348, 2.10812, 2.09332, 2.07965, 1.91104, 2.11404, 1.91041, 1.90645, 1.9066, 2.11444, 1.90392, 1.90319, 2.08044, 1.90328, 2.08289, 1.89769, 1.89953, 1.89633, 1.83432, 1.83258, 1.82948, 1.87901, 1.87497, 1.90327, 1.82148, 1.82017, 1.81808, 1.81726, 1.8198, 1.81695, 1.81759, 1.81428, 1.81061, 1.81053, 1.863, 1.86185, 1.80943, 1.86009, 1.86025, 1.85795, 1.80753, 1.80491, 1.80585, 1.80719, 1.85495, 1.85346, 1.91337, 1.85348, 1.80291, 1.80253, 1.80336, 1.80135, 1.92789, 1.8027, 1.80324, 1.80443, 1.80121, 1.80344, 1.92138, 1.91782, 1.92128, 1.80191, 1.80052, 1.80256
1.8483, 1.849, 2.10327, 1.94093, 1.94319, 1.89603, 1.84458, 1.89435, 1.84232, 1.84427, 1.84161, 1.84051, 1.84011, 1.89031, 1.84116, 1.83734, 1.83645, 1.8378, 1.93017, 1.93181, 1.93606, 1.9295, 1.83468, 1.93919, 1.88113, 1.83084, 1.83155, 1.83411, 1.87864, 1.87978, 1.82913, 1.93407, 1.82817, 1.82857, 1.93139, 1.9221, 1.93523, 1.83194, 1.83128, 1.8792, 1.87993, 1.88182, 1.83038, 1.88229, 1.83199, 1.8331, 1.96939, 1.96789, 1.96766, 1.97767, 1.96985, 1.9795, 1.8892, 1.96381, 1.98067, 1.98233, 1.88276, 1.96142, 1.95687, 2.0618, 1.95552, 2.07967, 1.98574, 1.9555, 1.95241, 1.95272, 1.98607, 1.98936, 1.95249, 1.95091, 1.95187, 1.95106, 1.98854, 1.95168, 1.9904, 1.9509, 1.95217, 1.95416, 1.95554, 1.95757, 1.99118, 2.06919, 1.99338, 1.99381, 1.97065, 1.99063, 1.98795, 1.98983, 2.08281, 2.03998, 1.96339, 2.05495, 2.05989, 2.05645, 2.03926, 1.96326, 1.9621, 1.96216, 2.04076, 2.03493, 2.03823, 2.03865, 2.03932, 2.04017, 1.96308, 2.04122, 2.04075, 2.05766, 2.06327, 2.03871, 2.03802, 2.05855, 2.04382, 2.04291, 2.06664, 2.04806, 1.96983, 1.96934, 2.06329, 1.97177, 2.06225, 2.06303, 2.05074, 2.05162, 2.05335, 2.053, 2.05138, 2.05181, 2.06882, 2.06229, 2.05124, 2.06575, 1.97564, 2.05868, 2.05902, 2.05827, 2.07289, 2.06284, 2.05904, 2.05371, 2.05442, 1.97487, 1.976, 2.05329, 2.0551, 2.05677, 2.05779, 2.05859, 2.0549, 2.05212, 2.05097, 2.07268, 2.05215, 1.91338, 1.91031, 1.90808, 1.90921, 1.9114, 1.90712, 2.01175, 1.90494, 1.90378, 1.90373, 1.90337, 1.90675, 1.90561, 1.90604, 2.09292, 2.09306, 2.10401, 1.90815, 1.91021, 1.91159, 1.9096, 1.91279, 1.91096, 1.91083, 1.9097, 1.91165, 1.91052, 1.90903, 1.90801, 1.90807, 1.90776, 1.9072, 1.9558, 1.9555, 2.09329, 1.90207, 1.90293, 1.90254, 1.90084, 1.89769, 1.89637, 1.83456, 1.83155, 1.83012, 1.82586, 1.87558, 1.87406, 1.82075, 1.8237, 1.81955, 1.81706, 1.86777, 1.81751, 1.81769, 1.81642, 1.8978, 1.81313, 1.90763, 1.90832, 1.81091, 1.91618, 1.9167, 1.85977, 1.85933, 1.80675, 1.92231, 1.80475, 1.80437, 1.89231, 1.80041, 1.85434, 1.85389, 1.80389, 1.80289, 1.80294, 1.80321, 1.80156, 1.87928, 1.80265, 1.80341, 1.80245, 1.91879, 1.80134, 1.79991, 1.80247, 1.92004, 1.90668
1.85194, 2.10339, 1.84736, 1.84856, 1.84806, 1.84733, 1.896, 1.89654, 1.84394, 1.84489, 2.02086, 2.10065, 2.10033, 1.84092, 1.84069, 1.84194, 1.84005, 1.83837, 1.83891, 1.83854, 1.83713, 1.83665, 1.83375, 1.88239, 1.92365, 1.8334, 1.83186, 1.88354, 1.82844, 1.82848, 1.9353, 1.83108, 1.83113, 1.83336, 1.83116, 1.83199, 1.83278, 1.92486, 1.83047, 1.83058, 1.83097, 1.83222, 1.83192, 1.8294, 1.83043, 1.83548, 1.98316, 2.05804, 1.89305, 1.8914, 1.96645, 1.96514, 1.9853, 1.96544, 1.98204, 1.98286, 1.95881, 2.06031, 1.88296, 1.98431, 1.95911, 1.9559, 1.87923, 1.958, 1.95447, 1.95857, 1.95172, 1.87557, 1.87535, 1.98952, 1.95031, 1.87411, 1.95069, 1.99013, 1.99195, 1.95204, 1.95281, 1.99246, 1.99217, 1.95665, 1.95764, 1.99065, 1.95976, 1.99064, 1.89487, 2.06617, 1.97757, 2.08634, 2.08652, 1.96503, 2.04959, 2.04925, 2.07136, 1.96311, 2.04513, 1.96263, 1.96295, 1.96143, 2.04103, 2.0441, 2.03771, 2.05897, 1.96236, 2.03866, 2.03886, 2.05924, 2.04274, 2.06037, 1.96565, 2.06477, 2.0701, 2.04784, 2.04457, 2.04854, 2.05184, 2.05958, 2.06015, 2.06141, 2.05981, 1.97217, 2.06705, 2.07377, 1.97329, 2.05089, 2.06006, 2.05082, 2.05292, 2.07249, 2.05883, 2.07174, 1.97544, 2.06161, 2.05229, 2.0766, 2.06041, 2.0646, 1.97763, 2.05977, 1.9745, 2.05464, 2.06648, 2.06564, 2.05199, 1.97584, 2.05344, 2.05644, 2.05593, 2.05992, 2.05252, 1.97587, 2.07491, 2.05476, 2.0629, 1.9103, 2.08624, 1.90969, 1.90986, 1.90578, 1.90515, 2.11242, 1.90621, 1.90653, 1.90453, 1.9034, 1.9064, 1.90466, 1.90445, 2.08919, 1.90675, 1.90654, 1.90819, 1.90797, 1.90644, 1.90634, 2.08547, 1.91065, 1.91176, 1.96151, 1.91024, 2.10627, 1.90873, 1.90932, 1.90725, 1.90953, 1.95823, 1.90518, 1.90261, 1.90148, 1.89998, 1.90207, 1.89935, 1.89926, 1.89681, 1.89542, 1.83293, 1.8318, 1.83047, 1.8272, 1.82412, 1.82114, 1.82132, 1.89618, 1.8205, 1.81826, 1.89429, 1.90423, 1.81461, 1.81365, 1.81385, 1.81178, 1.81059, 1.91845, 1.9167, 1.91739, 1.92421, 1.92413, 1.80705, 1.80709, 1.80702, 1.8063, 2.14191, 1.80638, 1.80376, 1.92814, 1.80328, 1.92578, 1.92144, 1.8024, 1.92307, 1.79994, 1.92684, 1.85426, 1.80339, 1.80266, 1.92399, 1.92379, 1.80015, 1.80224, 1.85932, 1.79996
1.90234, 1.85078, 1.8499, 1.85066, 1.8506, 1.84905, 1.84893, 1.84813, 1.84565, 1.84676, 1.84628, 1.84399, 1.84392, 1.93068, 1.89225, 1.83738, 1.89159, 2.1191, 1.94187, 1.83707, 1.83781, 1.83561, 1.8369, 1.91645, 1.83551, 1.83217, 1.92446, 1.83555, 1.8827, 1.9311, 1.93108, 1.83302, 1.83182, 1.83059, 1.83286, 1.83224, 1.83061, 1.83145, 1.93146, 1.83151, 1.83393, 1.83078, 1.83071, 1.83155, 1.83414, 2.0039, 2.05824, 1.97953, 2.06004, 1.98196, 1.9656, 1.96585, 1.96849, 2.05965, 1.96323, 1.98562, 1.96242, 1.96248, 2.08956, 1.98629, 1.88053, 1.9587, 1.95613, 1.95482, 1.95497, 1.95464, 1.95373, 1.95238, 1.94834, 1.87575, 1.95295, 1.95223, 2.06899, 1.95293, 1.87805, 1.95489, 1.955, 1.9547, 1.95712, 1.87972, 1.95893, 1.96134, 1.99139, 1.89206, 1.97161, 1.99019, 2.07023, 2.06995, 1.92338, 2.04076, 1.96597, 2.04997, 2.05585, 2.04257, 2.04123, 1.96436, 1.96349, 1.96291, 2.04348, 2.04488, 2.04525, 2.04011, 2.03946, 2.04138, 2.04184, 2.06398, 2.04168, 2.06167, 2.0571, 2.04476, 2.05514, 2.05656, 2.04503, 2.04595, 2.06148, 2.04076, 1.97022, 1.97081, 1.9727, 2.06712, 2.06645, 1.97365, 2.07481, 2.05693, 1.97519, 1.9761, 1.97663, 2.06497, 2.06238, 2.05551, 1.97649, 1.97917, 2.06978, 2.06725, 2.06256, 2.0522, 2.05111, 2.06729, 1.97533, 1.9759, 2.05486, 2.06588, 2.05254, 2.05606, 2.05243, 2.05937, 2.06017, 2.06044, 2.05828, 2.05489, 2.05882, 2.05472, 2.06378, 1.9112, 1.90994, 1.91008, 2.10025, 1.90632, 1.90554, 1.90519, 2.00719, 2.0104, 2.11546, 1.90619, 1.9063, 2.08626, 1.90633, 1.9072, 1.90516, 1.90679, 1.90772, 2.01063, 2.10798, 1.91044, 1.90867, 1.90762, 2.00104, 1.91307, 1.9116, 1.91052, 1.91243, 1.96063, 1.90911, 1.90592, 1.90743, 1.90542, 2.10415, 1.90213, 1.90296, 1.90202, 1.89998, 1.89958, 1.89906, 1.89615, 1.92657, 1.92017, 1.92176, 1.82525, 1.82434, 1.82181, 1.82075, 1.81989, 1.89679, 1.89748, 1.86747, 1.81669, 1.90725, 1.81448, 1.90756, 1.86282, 1.86004, 1.81056, 1.91469, 1.81034, 1.91726, 1.80895, 1.80694, 1.80691, 1.80654, 1.80028, 1.85418, 1.80388, 1.80155, 1.9271, 1.79995, 1.80275, 1.80208, 1.80228, 1.80093, 1.80082, 1.80129, 1.92479, 1.80215, 1.80075, 1.80346, 1.80248, 1.80083, 1.92137, 1.80239, 1.85125
