1.75767506603144,1.75397445273531,1.84481385293911,1.85621600437772,1.7557181972204,1.75651256970805,1.75445882620339,1.8563225665407,1.75597975889316,1.8030802349293,1.86795721724399,1.75528226109912,1.75446851367275,1.75489476232466,1.75414882718382,1.84650916007739,1.84864040333694,1.75025446450045,1.75081633772342,1.79990274497869,1.79980587028507,1.79978649534635,1.80019336905954,1.79958305848976,1.75095196229448,1.7524632075149,1.80037743097741,1.84414541755315,1.7500897775213,1.75343195445106,1.75234695788256,1.75316070530893,1.75294758098298,1.75342226698169,1.75592163407699,2.00228366741204,1.81953924537467,1.96838721211578,1.81999455643467,1.89082933240674,1.89746524891944,1.89468494521266,1.81720456525852,1.81706894068746,1.8895021491042,1.89804649708114,1.97184563867787,1.88986058547058,1.81325207775899,1.88671215792806,1.88922121249272,1.81210895637432,1.88330216871277,1.88389310434383,1.88276935789789,1.88429997805702,1.90650365783383,1.90481803816491,1.9746646922621,1.90745302983126,1.88067686451578,1.88136467484045,1.88238185912342,1.90421741506449,1.87759624925879,1.8061317877782,1.80535679022928,1.87764468660559,1.88237217165406,1.88095780112726,1.88110311316769,1.80780771997776,1.88385435446639,1.88338935593703,1.88418372842468,1.88589841050168,1.81603238146577,1.89059683314206,1.91037864557847,1.82100205324827,1.91079520676102,1.82756047000608,1.99810836811719,1.99967773815377,1.99218932433725,1.97801655666122,1.88715778151869,1.96743784011834,1.96036598748437,1.96200316980648,1.96402785090305,1.96546159636857,1.88703184441699,1.88691559478465,1.88859152698421,1.88781652943528,1.96205160715329,1.96742815264898,1.88783590437401,1.97814249376292,1.98156217044756,1.97799718172249,1.97241719937021,1.97784218221271,1.96291379192647,1.89111026901823,1.96850346174812,1.96718596591494,1.96639159342729,1.8944233835399,1.9616447334401,1.89705837520626,1.97512969079146,1.98125217142799,1.98459434835775,1.99065870417811,1.899141181119,1.89966430446453,1.9980308683623,1.97474219201699,1.98039967412417,1.90311304355726,1.90337460523003,1.98393560044116,1.98153310803948,1.97792936943696,1.98715184026921,1.98088404759225,1.97883999155695,1.97806499400802,1.98569871986497,1.99781774403634,1.9951536899619,1.98802371251176,1.98283122893394,1.99773055681209,1.98886652234622,1.98744246435006,1.98160092032501,1.98675465402539,1.98503997194838,1.99494056563594,1.97906280335227,1.98295716603564,1.98193998175267,1.97916936551525,1.97874311686334,1.98069029820502,1.90816021509466,1.90780177872828,1.90737553007637,1.90762740427977,1.90747240476999,1.90676521950659,2.00793146204986,1.91017520872187,1.901311174256,1.85374569969051,1.85099445839181,2.01474175301107,2.02115485772846,1.85076195912713,1.85002571145565,2.02203641744036,2.0140539426864,1.8508200839433,2.0250298454731,1.8474391571361,1.84819477974631,1.84798165542035,1.84995789917012,1.90472116347129,1.85046164757692,1.85121727018713,1.85170164365521,1.85155633161478
1.80643209932841,1.80765272046798,1.84058042882808,1.80694553520458,1.75578600950593,1.7575588163991,1.75732631713442,1.75642538248379,1.80409741921227,1.80461085508843,1.75637694513699,1.7565997569323,1.75505944930381,1.75476882522296,1.75400351514339,1.75424570187743,1.75209508367915,1.75163977261916,1.75379039081744,1.80035805603869,1.75089383747831,1.74997352788896,1.80136555285229,1.75070008809108,1.75201758392426,1.80037743097741,1.83759668826471,1.75194008416937,1.75259883208596,1.75342226698169,1.75389695298041,1.75350945420595,1.75465257559062,1.75473007534551,1.75322851759446,1.75531132350721,1.83743200128556,1.97505219103656,1.9750425035672,1.97498437875103,1.89607025333137,1.8911683938344,1.89125558105865,1.89754274867434,1.81621644338364,1.97314375957233,1.97513937826082,1.89784306022455,1.88711903164125,1.81357176424792,1.97432563083444,1.88757434270124,1.90029398997303,1.98850808597984,1.8858693480936,1.90432397722746,1.88396091662936,1.99079432874918,1.9057286602849,1.88373810483405,1.90679428191467,1.90750146717807,1.8811999878613,1.99163713858364,1.87978561733451,1.88036686549621,1.88007624141536,1.98413903729775,1.98164935767182,1.87689875146475,1.80697459761266,1.88084155149493,1.99789524379124,1.80948365217732,1.88634403409232,1.81362020159473,1.81531550873301,1.89097464444717,1.98365466382967,1.91219020234909,1.91093083133208,1.83011796191755,1.91121176794357,1.98878902259132,1.98567934492625,1.96185785776605,1.95862224299928,1.96007536340352,1.96830002489152,1.97055720525278,1.96786408877025,1.96305910396689,1.95888380467204,1.96365972706731,1.8899574601642,1.88739996825273,1.96196441992903,1.96197410739839,1.96205160715329,1.96210973196946,1.89022870930632,1.96399878849497,1.96451222437113,1.9659847197141,1.97213626275872,1.96821283766727,1.96854221162556,1.97846218025185,1.9763309369923,1.97694124756208,1.96723440326175,1.97777436992718,1.98127154636672,1.89792055997944,1.9880624623892,1.96928814676641,1.99204401229682,1.98813027467473,1.8983855585088,1.97714468441867,1.9827634166484,1.97858811735355,1.90461460130831,1.98471059799009,1.99389431894489,1.9775418706625,1.90513772465384,1.90443053939044,1.97982811343184,1.9793824898412,1.98444903631732,1.98066123579693,1.97760968294803,1.9844296613786,2.01224238591578,1.98706465304496,1.98953495773217,1.99192776266448,1.9913174520947,1.9850593468871,1.90676521950659,1.99705243395678,1.98138779599906,1.98259872966926,1.98131029624416,1.98013811245141,1.98171716995735,1.98089373506161,1.90883833794997,1.90878990060316,1.98361591395223,1.98759746385985,1.98846933610239,1.9835965390135,1.98423591199137,1.98498184713221,1.91035927063974,1.93211732682592,1.85189539304244,2.01725080757573,1.85016133602671,1.84807853011397,1.84972539990544,1.94364541536623,1.84836915419482,2.01850049112338,1.84784603084929,1.84798165542035,1.84632509815952,1.94219229496199,1.94058417504796,1.9368157494663,1.90340366763811,1.90051680176835,1.85138195716628,1.85161445643095
1.75906037415015,1.80857303005733,1.85620631690836,1.84406791779826,1.85411382352625,1.75939943557781,1.7596028724344,1.75797537758165,1.75870193778377,1.75787850288803,1.75951568521015,1.75366445371574,1.75645444489188,1.75621225815784,1.86073036510023,2.02843014721902,1.75397445273531,1.75487538738594,1.75443945126466,1.85703943927345,1.93384169637228,1.85411382352625,1.85506319552369,1.85706850168154,1.75331570481872,1.84069667846042,1.84104542735744,1.75414882718382,1.86277442113553,1.8635881685619,1.85340663826285,1.75490444979402,1.83534919537281,1.75383882816424,1.75618319574975,1.75721006750208,1.92555891006811,1.81966518247637,1.9743353183038,1.82033361786232,1.89797868479561,1.81735956476831,1.89769774818412,1.97404469422296,1.89419088427522,1.90077836344111,1.88754528029316,1.89005433485781,1.88878527637144,1.97788093209015,1.98758777639048,1.98581496949731,1.98532090855987,1.90371366665768,1.90438210204363,1.90424647747257,1.88489091368808,1.88570466111445,1.8864990336021,1.88172311120683,1.90703646864871,1.88161654904385,1.8828662325915,1.87875874558218,1.88206217263449,1.98246310509819,1.87966936770217,1.9839259129718,1.90928396154061,1.9087802131338,1.80869896715903,1.99095901572832,1.80928990279009,1.88661528323444,1.88751621788507,1.88725465621231,1.89027714665313,1.89108120661015,1.99403963098532,1.82014955594445,1.89880211969135,1.82629141151971,1.99722680840528,1.99087182850407,1.98447809872541,1.96253598062137,1.96601378212218,1.97202001312638,1.97266907357361,1.9628556671103,1.97828780580334,1.96333035310902,1.96427003763709,1.88739996825273,1.88886277612634,1.95965880222097,1.96401816343369,1.96553909612346,1.97063470500767,1.89043214616292,1.9644444120856,1.96548097130729,1.97776468245781,1.96438628726943,1.98689027859645,1.97096407896596,1.98158154538629,1.96810627550429,1.97061533006895,1.97134189027107,1.96985970745874,1.98744246435006,1.99371025702702,1.97660218613442,1.97055720525278,1.98168810754927,1.97844280531313,1.97271751092042,1.97751280825441,1.99511494008445,1.98385810068627,1.98490434737732,1.90277398212961,1.99150151401257,1.98089373506161,2.00776677507071,1.97523625295443,1.9944465046985,1.98742308941134,1.98098092228587,1.99528931453296,1.98090342253097,2.00129554553716,1.97997342547226,1.99296432188618,1.99142401425768,1.98907964667217,1.90800521558487,1.98148467069267,1.99810836811719,1.98563090757944,1.9068620942002,1.98123279648927,1.98171716995735,1.9950277528602,1.98270529183223,1.98192060681394,1.98445872378669,1.98198841909947,1.90726896791339,1.98461372329647,1.98673527908666,1.98209498126245,1.98317029036159,1.90940989864231,1.98499153460157,1.99145307666577,1.8546563218105,2.0180645550021,1.8521085173684,1.85090727116756,1.84613134877228,1.84659634730164,1.89889899438496,1.89856962042667,1.84934758860034,1.85009352374118,1.8488535276629,2.04119823183762,1.84724540774887,1.84696447113738,1.84850477876588,1.84970602496672,1.89840493344752,1.85172101859393,1.85057789720926
1.85764974984324,1.85447225989263,1.85060695961735,1.7583919387642,1.85383288691476,1.75974818447482,1.76031974516716,1.76118192994034,1.76238317614118,1.76049411961567,1.75824662672378,1.7579366277042,1.7580141274591,1.75760725374591,1.75688069354379,1.7570550679923,1.85439476013774,1.75661913187103,1.85621600437772,1.85696193951856,1.75385820310297,1.7557666345672,1.85606100486793,1.75529194856849,1.7563478827289,1.7558925716689,1.85377476209859,1.75415851465318,1.75422632693871,1.75362570383829,1.85456913458624,1.84964790015055,1.75662881934039,1.75752006652165,1.75821756431569,1.7592250611293,1.75797537758165,1.82071142916742,1.8971746248386,1.82108924047253,1.89135245575227,1.89183682922035,1.97666031095059,1.89760087349051,1.89771712312285,1.89049995844845,1.9003521147892,1.89014152208207,1.89897649413986,1.8867024704587,1.89966430446453,1.88529778740127,1.90249304551812,1.8864505962553,1.81088833523475,1.81005521286966,1.98740371447261,1.88704153188635,1.88235279671534,1.88204279769576,1.88113217557577,1.98895370957047,1.88009561635408,1.80597678826842,1.99769180693464,1.99818586787208,1.88026030333323,1.80688741038841,1.88007624141536,1.91192864067633,1.88029905321068,1.88225592202172,1.88409654120043,1.91042708292528,1.88668309551997,1.88730309355912,1.890461208571,1.91356582299844,1.91231613945079,1.91379832226312,1.90044898948282,1.91294582495929,1.90889646276614,2.00995614314644,1.84974477484416,1.96199348233712,1.96217754425499,1.96307847890562,1.96237129364222,1.97179720133106,1.97380250748892,1.97164220182128,1.88894996335059,1.88750653041571,1.88982183559314,1.96706002881324,1.96714721603749,1.96582003273495,1.96833877476897,1.98791715034878,1.97813280629356,1.98441997390924,1.97815218123228,1.96620753150942,1.96824190007535,1.97795843184505,1.9817559198348,1.89376463562331,1.89435557125437,1.97130314039362,1.97182626373915,1.90006149070836,1.89752337373561,1.89815305924412,1.98429403680754,1.99575431306232,1.98209498126245,1.9729984475319,1.98451684860285,2.00041398582525,1.98466216064328,1.99247026094874,1.98244373015947,1.98657059210752,1.9844296613786,1.97953748935099,1.97929530261695,1.97869467951653,1.98610559357816,2.00717583943966,1.90578678510107,2.00533522026095,1.99839899219804,1.98429403680754,1.9816784200799,1.99251869829554,1.99231526143895,1.99188901278704,1.99185995037895,1.98919589630451,1.99008714348578,1.995531501267,1.98527247121306,1.90790834089126,1.98403247513477,1.98299591591308,1.9818818569365,1.90837333942062,1.98385810068627,1.90926458660188,1.98642528006709,1.98353841419733,1.985136846642,2.00324272687884,2.00228366741204,1.9848849724386,1.98457497341902,2.01460612844001,1.85431726038284,1.85101383333053,1.85409444858753,1.84586978709952,1.84941540088587,1.90025524009559,1.8479429055429,1.84768134387014,1.85051977239309,1.84828196697056,2.02022486066974,1.84891165247907,2.02402234865949,1.85126570753394,1.85091695863692,1.85065539696415,1.84976414978289,1.85330007609987
1.76086224345141,1.76179224051012,1.76334223560798,1.76329379826117,1.75819818937697,2.00827052347752,1.76129817957268,1.76255755058969,1.76155005377608,2.04085917040997,1.76078474369652,1.85724287613005,1.75929287341483,1.7548850748553,1.8576594373126,1.7582660016625,1.75819818937697,1.76016474565737,1.75486569991657,1.857911311516,1.85414288593433,1.75642538248379,1.7565997569323,1.75767506603144,1.75368382865446,1.75535007338465,1.8538231994454,1.85686506482495,1.75669663162592,1.75628007044337,1.75535976085402,1.75783975301059,1.75861475055952,2.00501553377202,1.76006787096376,1.75997099627014,1.8979302474488,1.89515963121138,1.8993446179756,1.97642781168591,1.89479150737564,1.82216454957167,1.89181745428163,1.98082592277608,1.895256505905,1.89107151914078,1.89075183265185,1.89038370881611,1.893086512768,1.90363616690279,1.90372335412704,1.88783590437401,1.88646028372466,1.90506991236831,1.81058802368454,1.81021021237944,1.8103458369505,1.80972583891136,1.88187811071662,1.8814034247179,1.8863730965004,1.99811805558655,1.9076467792185,1.88398029156809,1.99209244964363,1.88063811463833,1.88196529794087,1.8834474807532,1.88105467582088,1.91002989668145,1.88460028960723,1.80950302711604,1.81017146250199,1.88616965964381,1.88662497070381,1.88793277906762,1.88881433877953,1.89344494913438,1.89339651178757,1.91718893653968,1.90137898654153,1.91560987903374,1.91537737976906,2.0086289598439,1.98766527614538,1.98125217142799,1.98575684468114,1.89044183363228,1.96470597375837,1.97742562103016,1.96485128579879,1.97830718074206,1.8905871456727,1.89041277122419,1.89054839579526,1.89025777171441,1.88901777563612,1.88878527637144,1.96229379388733,1.96331097817029,1.97843311784377,1.9843037242769,1.96666284256941,1.96823221260599,1.96654659293707,1.96715690350685,2.00049148558015,1.98245341762883,1.99219901180661,1.99114307764619,1.99096870319769,1.98753933904368,1.98183341958969,1.98163967020246,1.98267622942415,1.90050711429899,1.98349966431989,1.97467437973146,1.97222344998297,1.98450716113349,1.90546709861213,1.9794599895961,1.97910155322972,1.97866561710844,1.98951558279344,1.99468869143254,1.99844742954485,1.98146529575395,1.98129092130544,2.00468615981372,1.98033186183864,1.90725928044403,2.00688521535881,1.90819896497211,1.90759834187169,1.90844115170615,1.98111654685693,1.98145560828459,1.98473966039817,2.00599396817754,1.99558962608317,1.98290872868883,1.99243151107129,1.98850808597984,1.98459434835775,2.00760208809157,1.90734646766828,1.98336403974882,1.98206591885437,1.98509809676455,1.98531122109051,1.98709371545304,1.98527247121306,1.99883492831931,1.99929023937931,1.98578590708923,1.91104708096442,1.85141101957436,1.85010321121054,1.85329038863051,1.8493572760697,1.84863071586758,1.93548856616376,1.90157273592877,1.90298710645556,1.90388804110619,1.84829165443992,1.84659634730164,1.84666415958717,2.03554074973044,1.84734228244248,1.84792353060418,1.90467272612448,1.85003539892501,1.94423635099729,1.85008383627182
1.76194724001991,1.93750355979097,1.7629837992416,1.81171177013049,1.76374910932117,1.76124974222587,1.76344879777096,1.76295473683352,1.76069755647226,1.76274161250756,1.76217005181523,1.85738818817047,1.75711319280847,1.7580141274591,2.01769643116636,1.85739787563983,1.75766537856208,1.84492041510208,1.75653194464677,1.85635162894878,1.75671600656464,1.75742319182804,1.75806256480591,1.85307726430456,1.85807599849515,1.86484753957891,1.75399382767403,1.80654834896075,1.75976755941355,1.75813037709144,1.75921537365994,1.75724881737953,1.75832412647867,1.75829506407058,1.75992255892333,1.76072661888035,1.97413188144721,1.97544937728039,1.89663212655435,1.97948905200418,1.89571181696499,1.90026492756495,1.89993555360665,1.97548812715784,1.90119492462366,1.98883745993813,1.89086808228419,1.90269648237471,1.97830718074206,1.81110145956071,1.88864965180038,1.8886690267391,1.90498272514405,1.88646028372466,1.90624209616106,1.88581122327743,1.88697371960082,1.81056864874582,1.98788808794069,1.88349591810001,1.8094642772386,1.81019083744072,1.88331185618214,1.80747834601947,1.8835734178549,1.88205248516513,1.91237426426696,1.91272301316398,1.88414497854723,1.88170373626811,1.98723902749347,1.98711309039177,1.91265520087845,1.88553028666594,1.88713840657997,1.9140792588746,1.89028683412249,1.91408894634396,1.89711650002243,1.89680650100286,1.91336238614184,1.98660934198496,1.90831521460445,2.01919798891741,1.97678624805229,1.96535503420559,1.96454128677922,1.96726346566983,1.96281691723285,1.97046033055916,1.96448316196305,1.96775752660727,1.96615909416261,1.96521940963453,1.89070339530504,1.89082933240674,1.88767121739486,1.88844621494379,1.96493847302304,1.96445409955496,1.97375407014211,1.9742093812021,1.97016970647831,1.96842596199322,1.98383872574754,1.89247620219822,1.97638906180847,1.98118435914246,1.98829496165388,1.99407838086276,1.99516337743126,1.98127154636672,1.90001305336155,1.8970971250837,1.97515875319954,1.98451684860285,1.98006061269652,1.97445156793614,1.97457750503784,1.90382022882066,1.90405272808534,2.00156679467928,1.99088151597343,1.97773562004973,1.90413022784023,1.99318713368149,1.99136588944151,1.99557993861381,1.99574462559296,1.98435216162371,1.98202716897692,1.98212404367054,1.98134904612161,1.98949620785472,1.99169526339981,1.9950277528602,1.99435931747425,1.98083561024544,1.90914833696954,2.00272929100268,1.90714303081169,1.99404931845468,1.98158154538629,1.98169779501863,2.00469584728308,1.99435931747425,1.98461372329647,1.9823856053433,1.98189154440586,1.90909989962274,1.98720027761602,1.98247279256756,1.90996208439592,1.98409059995094,2.004666784875,1.99871867868697,1.99943555141973,1.85330007609987,1.93671887477268,2.01127363897962,1.85066508443352,2.02537859437012,1.85090727116756,1.90449835167597,1.90573834775426,1.85000633651693,1.84608291142548,1.84675134681143,1.84834977925609,1.94442041291516,1.93806543301394,1.85032602300586,1.9045177266147,1.90645522048702,1.90543803620405,1.90435303963555
1.76435941989095,1.76628722629391,1.76333254813862,1.76208286459097,1.81350395196239,1.76197630242799,1.76470816878797,1.76184067785693,1.80980333866625,1.82508047784951,1.82686297221205,1.76002912108631,1.75955443508759,1.86372379313296,1.85530538225773,1.85111070802415,1.85219570459265,1.85923849481854,1.75645444489188,1.75915724884377,1.85618694196963,1.76110443018545,1.75840162623356,1.85959693118492,1.80723615928543,1.85712662649771,1.80649991161395,1.75968037218929,1.7598547466378,1.75785912794931,1.75690006848251,1.75752975399102,1.75875037513058,1.75981599676036,2.02781983664924,1.7599322463927,1.97729968392846,1.82203861246996,1.82308485916102,1.98091311000034,1.90397522833045,1.98357716407478,1.89488838206926,1.90349085486237,1.89491744447734,1.89445244594798,1.81792143799128,1.89081964493738,1.89219526558673,1.89173026705737,1.9053992863266,1.88811684098549,1.8897055859608,1.90663928240489,1.88684778249912,1.88661528323444,1.88593716037913,1.90845083917551,1.88402872891489,1.90869302590955,1.91075645688357,1.9086542760321,1.90717209321978,1.80918334062711,1.80964833915647,1.91111489324995,1.91112458071931,1.99763368211847,1.88679934515231,1.88460997707659,1.98698715329006,1.98763621373729,1.88627622180679,1.88680903262168,1.88987996040931,1.81053958633774,1.8907905825293,1.82083736626913,1.89787212263263,1.89815305924412,1.82560360119504,1.83018577420308,1.91271332569462,2.01760924394211,1.97028595611065,1.96701159146643,1.96608159440771,1.89064527048887,1.89063558301951,1.89097464444717,1.96364035212859,1.97719312176548,1.89088745722291,1.96742815264898,1.96594596983665,1.96463816147284,1.88928902477825,1.88659590829572,1.97605000038081,1.96597503224474,1.97737718368335,1.96438628726943,1.96546159636857,1.89365807346033,1.89415213439777,1.89409400958161,1.98750058916623,1.89488838206926,1.89590556635223,1.98041904906289,1.98726808990155,1.97838468049696,1.98143623334586,1.98090342253097,1.97407375663104,1.90116586221558,1.98767496361474,1.97701874731697,1.97536219005614,1.98023498714502,1.98754902651304,1.99017433071003,2.00557740699499,1.99908680252271,1.99503744032956,1.99091057838152,1.90692021901637,1.99523118971679,1.9888955847543,2.0016636693729,2.00248710426864,1.98163967020246,1.98156217044756,1.90708490599552,1.90751115464743,2.00460866005883,1.98313154048414,1.98332528987138,1.90793740329934,2.00845458539539,1.90774365391211,1.9845555984803,2.00519959568989,1.9818818569365,2.01002395543197,1.99476619118744,1.986851528719,1.98789777541006,1.98545653313093,1.98646402994454,1.90985552223294,1.98774277590027,1.991191514993,1.99374900690447,1.99060057936194,1.98490434737732,1.99963898827633,1.85414288593433,2.03126857574198,1.85347445054838,1.84805915517524,1.94368416524368,1.85045196010756,1.84980289966033,1.89750399879689,1.8955083801084,1.84691603379057,1.85014196108799,1.84735196991185,1.84881477778545,1.8488535276629,1.84709040823908,1.90637772073212,1.90499241261341,1.90622272122234,1.85146914439053
1.76521191719477,1.76459191915563,1.76613222678412,1.76361348475011,1.86414035431551,1.7634391103016,1.76438848229904,1.81119833425433,1.76450473193137,1.76248973830416,1.7609397432063,1.75996130880078,1.76048443214631,1.76033912010588,1.76091068079822,1.76054255696248,1.76032943263652,1.76157911618417,1.81632300554662,1.81699144093257,1.85738818817047,1.76022287047354,1.76102693043056,1.8550341331156,1.7569775682374,1.75846943851909,1.80771084528415,1.76037786998333,1.76105599283864,1.76046505720758,1.85604162992921,1.76022287047354,1.8095902143403,2.00619740503413,1.76102693043056,1.76305161152713,1.76467910637988,1.82380173189378,1.98572778227306,1.90298710645556,1.97755155813186,1.98285060387266,1.98418747464456,1.89700025039009,1.90289023176195,1.90186336000961,1.99494056563594,1.81949080802786,1.97895624118929,1.8910424567327,1.98141685840714,1.88802965376124,1.88805871616932,1.88801027882252,1.88686715743785,1.91275207557206,1.90989427211039,1.81137270870283,1.99141432678832,1.91075645688357,1.88405779132298,1.88429997805702,1.88395122916,1.91421488344567,1.91343988589674,1.88313748173363,1.80753647083564,1.88359279279362,1.88448403997489,1.91157989177931,1.88372841736468,1.88470685177021,1.88504591319786,1.88761309257869,1.890461208571,1.89224370293354,1.99135620197215,1.81947143308914,1.89762993589859,1.82358860756782,1.90526366175554,1.90510866224575,1.91252926377675,2.00559678193371,1.97470344213955,1.96577159538814,1.89038370881611,1.98149435816203,1.9855146579471,1.96548097130729,1.97087689174171,1.97010189419278,1.96773815166855,1.9664884681209,1.89126526852802,1.89064527048887,1.89144933044589,1.89349338648119,1.98489465990796,1.96759283962813,1.99176307568534,1.98171716995735,1.96768971432174,1.89317369999225,1.97716405935739,1.98007030016588,1.96966595807151,1.97419000626338,1.9735796956936,1.9881399621441,1.97856874241483,1.89778493540838,1.97143876496468,1.97186501361659,1.97335688389828,1.90256085780365,1.97765812029484,1.97795843184505,1.97782280727398,1.99483400347297,1.9912690147479,1.99303213417171,1.99774024428145,1.90208617180493,1.98244373015947,1.98187216946714,1.99433025506616,1.98107779697948,1.99064901670875,1.99016464324067,1.90745302983126,1.99234432384703,1.97902405347482,1.90758865440233,1.98568903239561,1.9845555984803,1.98411966235903,1.98595059406837,2.00510272099627,1.98221123089479,1.90864458856274,1.98604746876199,1.91086301904655,1.98364497636031,1.9850593468871,1.98800433757303,1.98756840145176,1.98795590022623,1.99045526732152,1.98991276903727,1.98741340194198,1.98650277982198,1.98447809872541,1.99442712975978,1.98621215574114,1.99847649195293,1.984681535582,2.01727018251445,1.85285445250924,1.85295132720286,1.85059727214799,1.94673571809258,1.84768134387014,1.8501903984348,1.8463541605676,1.84618947358845,1.84698384607611,1.84810759252205,1.84806884264461,1.84710009570844,1.84666415958717,1.84793321807354,1.84846602888843,1.8489019650097,1.85010321121054,1.85009352374118
1.76798253343219,1.76769190935134,2.01798705524721,1.76613222678412,1.76346817270968,1.76446598205393,1.76654878796667,1.86005224224491,1.81369770134962,1.76400098352457,1.76472754372669,1.86253223440149,1.76627753882455,1.76342942283224,1.76172442822459,1.76161786606162,1.86153442505724,1.8616216122815,1.76314848622075,1.85897693314578,1.76022287047354,1.76077505622716,1.86157317493469,1.76069755647226,2.01881049014295,1.76066849406418,1.75885693729356,1.8554119444207,1.76136599185821,1.76155005377608,1.76220880169267,1.85671975278452,1.93324107327186,1.93737762268927,1.91772174735457,1.92375704076685,1.90034242731984,1.90407210302406,1.9014371113577,1.98380966333946,1.97826843086462,1.98410028742031,1.89631244006541,1.90449835167597,1.89669025137052,1.89415213439777,2.00177991900524,1.98215310607862,1.89067433289696,1.8168558163615,1.81542207089599,1.89011245967398,1.88985089800122,1.88834934025017,1.88990902281739,1.80944490229987,1.91149270455505,1.91283926279632,1.91368207263078,1.99427213024999,1.91259707606228,1.88336029352894,1.81024896225689,1.88392216675192,1.81325207775899,1.88199436034896,1.88336029352894,1.80842771801691,1.88302123210129,1.88312779426427,1.88398029156809,1.91481550654608,1.88550122425786,1.81324239028962,1.81605175640449,1.8918755790978,1.89430713390756,1.89485931966117,1.91710174931542,1.82467360413632,1.91660768837798,1.90729803032148,1.9177895596401,1.99854430423846,1.97373469520338,1.97171001410681,1.98559215770199,1.96889096052258,1.97411250650849,1.96749596493451,1.98158154538629,1.96567472069453,1.9688618981145,1.89242776485141,1.89125558105865,1.89230182774971,1.890916519631,1.89303807542119,1.97024720623321,1.9799637380029,1.96863908631918,1.98355778913606,1.96670159244686,1.97437406818125,1.89471400762075,1.96554878359283,1.98967058230323,1.97147751484213,1.89623494031052,1.98208529379309,1.99205369976619,1.98108748444885,1.97333750895956,1.98250185497564,1.97560437679018,1.97455813009912,1.97806499400802,1.98418747464456,1.9774159335608,1.98557278276327,1.97888842890376,1.98554372035518,1.99402025604659,1.99729462069082,1.98438122403179,1.99370056955766,1.98148467069267,1.9069395939551,1.98937027075302,1.98443934884796,1.98920558377387,1.99964867574569,1.99097839066705,1.90805365293168,1.99449494204531,2.00573240650478,1.99500837792148,2.00084992194653,1.99165651352236,1.99360369486404,1.98431341174626,1.98562122011008,2.00123742072099,1.98017686232885,1.98243404269011,1.98470091052073,1.9101945836606,1.98734558965644,1.99107526536066,1.98784933806325,1.98873089777515,1.98858558573473,1.91184145345207,1.9949018157585,1.98749090169687,1.98464278570456,2.00010398680568,2.01675674663829,2.01754143165658,1.84939602594715,1.84978352472161,2.06244285214763,1.85007414880246,2.02904045778881,2.01580737464085,1.84976414978289,1.84798165542035,2.02957326860369,2.03663543376831,1.94384885222282,1.84791384313482,1.84780728097184,1.84832071684801,2.01897517712209,2.01825830438934,1.84940571341651
1.77052065040493,1.76468879384924,1.86070130269214,1.86635878479932,2.03757511829638,1.76762409706581,1.76670378747646,1.85068445937224,1.76676191229263,1.81558675787513,1.76612253931476,1.76279004985437,1.81356207677856,1.76332286066926,1.76312911128203,1.88147123700343,1.76514410490924,1.76466941891052,1.76150161642928,1.76159849112289,1.76191817761182,1.8503163355365,1.76358442234202,1.87707312591326,1.87754781191198,1.85726225106877,1.76371035944372,1.81120802172369,1.76352629752585,1.76277067491565,1.76313879875139,1.934316382371,1.84373854383997,1.84466854089868,1.91718893653968,1.81381395098196,1.8987633698139,1.89869555752837,1.89799805973433,1.89783337275519,1.89924774328198,1.90477928828746,1.89693243810456,1.90475991334874,1.90656178264999,1.8917980793429,1.89335776191012,1.89194339138333,1.89028683412249,1.90962302296826,1.89018995942888,1.81696237852448,1.88675090780551,1.81228333082283,1.88769059233358,1.88769059233358,1.88699309453955,1.88770027980294,1.88696403213146,1.81004552540029,1.98713246533049,1.991191514993,1.98925402112068,2.00143117010822,1.88556903654339,1.88441622768936,1.98920558377387,1.88443560262808,1.81066552343944,1.81031677454242,1.81006490033902,1.8109270851122,1.88823309061783,1.89364838599097,1.81414332494025,1.91706299943798,1.81790206305256,1.82088580361593,1.89883118209943,1.91998861518518,1.90391710351428,1.99174370074661,2.02188141793058,1.99423338037255,1.98127154636672,1.98056436110332,1.97781311980462,1.98708402798368,1.89094558203908,1.96890064799194,1.967776901546,1.98428434933818,1.89163339236376,1.89191432897524,1.89218557811737,1.89186589162844,1.89373557321523,1.89213714077056,1.89265057664673,1.98512715917264,1.98503997194838,1.98437153656243,1.96807721309621,1.97243657430893,1.97339563377573,1.97815218123228,1.89573119190372,1.99365213221085,2.00011367427504,1.89837587103944,1.99238307372448,1.99871867868697,1.98454591101094,1.99183088797087,1.99836992978995,1.98500122207094,1.90070086368622,1.99771118187336,1.97997342547226,1.97962467657524,1.97801655666122,1.97845249278249,1.90471147600193,1.99544431404275,1.99198588748065,1.9797118637995,1.90829583966572,1.99589962510274,1.98416809970584,1.98370310117648,1.98886652234622,1.9923540113164,1.99780805656698,1.98354810166669,1.99739149538443,1.98643496753645,1.91031083329294,1.90830552713508,1.98391622550243,1.98482684762243,1.98292810362755,2.00072398484483,1.98459434835775,1.98212404367054,1.98395497537988,1.99747868260869,1.98631871790411,1.98907964667217,1.98432309921562,1.91149270455505,1.98996120638408,1.98820777442963,1.9967424349372,1.9109502062708,1.98481716015306,2.00887114657794,2.00892927139411,2.01696987096424,1.85256382842839,2.0174348694936,1.85001602398629,1.84841759154162,1.84896977729523,1.84883415272417,1.84626697334335,1.84461041608251,1.94258948120581,1.94474978687345,1.84699353354547,2.01699893337233,1.84637353550632,1.84944446329395,1.84782665591057,1.84822384215439,2.02160048131909,1.9435776030807
1.86531253810827,1.76723659829135,1.76716878600582,1.76728503563816,1.86776346785675,1.76711066118965,1.768030970779,1.76729472310752,1.76786628379985,1.76875753098112,1.76713972359773,1.8603331788564,1.86370441819424,1.87365344922861,1.76601597715179,1.81333926498324,1.81571269497683,1.76633566364072,1.76987158995771,1.81149864580454,1.76374910932117,1.76448535699265,1.81175052000794,1.81145020845773,1.8604591159581,1.76268348769139,1.76380723413734,1.7628578621399,1.76510535503179,1.93829793227862,1.76403973340202,1.7652797294803,1.76360379728075,1.81287426645388,1.81432738685812,1.76409785821819,1.90718178068914,1.90158242339813,1.90165023568366,1.90063305140069,1.90421741506449,1.82323017120144,1.82218392451039,1.89748462385817,1.89706806267562,1.81891924733553,1.89536306806798,1.81947143308914,2.00181866888269,1.81658456721938,1.89036433387739,1.89030620906122,1.81535425861045,1.88914371273782,1.98613465598624,1.81406582518536,1.91262613847036,1.8908390198761,1.88497810091233,1.91678206282649,1.98895370957047,1.81046208658284,1.91308144953036,1.88477466405574,1.91477675666864,1.91553237927884,1.88399966650681,1.88668309551997,2.00748583845923,1.88416435348596,1.9179154967418,1.88621809699062,1.91799299649669,1.91781862204818,1.89059683314206,1.89148808032333,1.89106183167142,1.92353422897153,1.92272048154516,1.82674672257971,1.83017608673372,1.90517647453128,1.92119954885538,2.0104695790226,1.99276088502958,1.89358057370544,1.98351903925861,1.89375494815395,1.96740877771025,1.96896846027747,1.97478094189444,1.98206591885437,1.89484963219181,1.89142995550716,1.89176901693482,1.89190464150588,1.96529690938942,1.96697284158898,1.96538409661368,1.96759283962813,1.97116751582256,1.97656343625697,1.97349250846934,1.97246563671701,1.9909396407896,2.00165398190354,1.9946499415551,1.9976530570572,1.8983855585088,1.97156470206638,1.97099314137405,1.89993555360665,1.98590215672156,1.90165023568366,1.99254776070363,1.97796811931441,2.00723396425583,1.97982811343184,1.97904342841355,1.97868499204717,1.99788555632187,1.90423679000321,1.97851061759866,1.9984086796674,1.99084276609598,2.00480240944606,1.90817959003338,1.9962386865304,1.98320904023904,1.98471059799009,1.9848074726837,1.9979533686074,2.00022023643802,2.00225460500396,1.91052395761889,2.00144085757758,1.90970052272316,1.99474681624871,2.00037523594781,1.90950677333592,2.00616834262605,1.98686121618836,1.98565996998752,1.98452653607222,2.0010339838644,1.98709371545304,1.98628965549603,1.99360369486404,1.99042620491344,1.99140463931896,1.99065870417811,1.99185026290959,1.98676434149475,1.98531122109051,1.98720996508538,1.9858924692522,1.85371663728242,1.90186336000961,1.85163383136968,1.85301913948839,1.85028727312841,1.89764931083732,1.8968452508803,1.89558587986329,1.84682884656632,1.84600541167058,1.84617978611909,1.94691009254109,1.84632509815952,1.84453291632762,1.84703228342291,1.844891352694,1.846606034771,1.84561791289612,1.84997727410884,1.84968665002799
1.77271970595002,2.02892420815647,1.76872846857304,1.76961002828494,1.7685347191858,1.77025908873217,1.94220198243135,1.76977471526409,1.76647128821178,1.76499879286882,1.76641316339561,1.76762409706581,1.76951315359133,1.76473723119605,1.76722691082199,1.76549285380626,1.92778702802128,1.81429832445004,1.81432738685812,1.85640975376495,1.76353598499521,1.76630660123263,1.81325207775899,1.81337801486069,1.86107911399724,1.7656091034386,1.76645191327306,1.76465973144116,1.93524637942972,1.76345848524032,1.76592878992753,1.76489223070584,1.81342645220749,1.76689753686369,1.93157482854167,1.9370676236697,1.82612672454056,1.9074433423619,1.9066102199968,1.98077748542927,1.89899586907858,1.90724959297467,1.89764931083732,1.89816274671348,1.98565028251816,1.8970486877369,1.89732962434838,1.89349338648119,1.81971361982318,1.98438122403179,1.89190464150588,1.89433619631565,1.91163801659548,1.88880465131017,1.88770027980294,1.88806840363868,1.91509644315757,1.88641184637785,1.88539466209488,1.80990021335987,1.88718684392678,1.88688653237657,1.88488122621872,1.88412560360851,1.88596622278722,1.8838252920583,1.88399966650681,1.8850362257285,1.99600618726572,1.91709206184606,1.91780893457882,1.88754528029316,1.91826424563882,1.89061620808079,1.92000799012391,1.91828362057754,1.89408432211224,1.92025017685795,1.92010486481752,1.90158242339813,1.9940686933934,1.83507794623069,1.92159673509921,2.03000920472497,1.96985001998938,1.96989845733619,2.01197113677365,1.99482431600361,1.98782027565516,1.96875533595152,1.96860033644173,1.96535503420559,1.97394781952934,1.97026658117193,1.8933383869714,1.89223401546418,1.96806752562684,1.96894908533875,1.97069282982384,1.97551718956592,1.97481969177188,1.97225251239106,1.97928561514759,1.89673868871732,1.98825621177644,1.8982596214071,1.98926370859004,1.99390400641425,1.98862433561218,1.99493087816658,2.02542703171693,1.89987742879049,1.99154026389002,1.99442712975978,1.97672812323612,1.97841374290504,1.97819093110972,1.99841836713676,2.00805739915156,2.00396928708096,1.98060311098077,1.9071914681585,1.98166873261054,2.00361085071458,1.99798243101549,2.00816396131454,2.00411459912139,2.00029773619291,1.99001933120025,1.98253091738372,1.99279963490703,1.99894149048229,1.98182373212033,1.98344153950372,1.99762399464911,1.91149270455505,1.99306119657979,1.99753680742486,1.98502059700966,1.98690965353517,1.98426497439945,1.99132713956407,1.98636715525092,1.98592153166029,1.9880140250424,1.98778152577772,1.9845555984803,1.98353841419733,1.99428181771936,1.99127870221726,1.99096870319769,1.99391369388361,2.01051801636941,1.98809152479729,1.98812058720537,1.91386613454865,1.85301913948839,1.85122695765649,1.85002571145565,1.89835649610071,1.89735868675647,1.84723572027951,1.84672228440334,1.8957602543118,1.96114098503329,1.89464619533522,1.8939196351331,1.84401948045145,2.00733083894944,2.03419419148918,2.02471984645353,1.84650916007739,1.84695478366802,1.94497259866877,1.84779759350248,2.03717793205256
1.77415345141554,1.7711600233828,1.77158627203471,1.77207064550279,1.87135751898991,1.77052065040493,1.7705787752211,1.7698231526109,1.94195979569731,2.0175608065953,1.8586184967794,2.01999236140506,1.76621941400838,1.76995877718196,1.76804065824836,1.76741097273986,1.76713003612837,1.81631331807725,1.81656519228066,1.86004255477555,1.8653803503938,1.76692659927178,1.76718816094454,1.85622569184708,1.86263879656446,1.85067477190288,1.76408817074883,1.86407254202998,1.76795347102411,1.76657785037476,1.76724628576071,1.76550254127562,1.7674497226173,1.76804065824836,1.93355107229143,1.9341904452693,1.90061367646197,1.9071914681585,1.90785021607509,1.82664016041673,1.90121429956239,1.89867618258965,1.89795930985689,1.8976783732454,1.89834680863135,1.89574087937308,1.89473338255947,1.89521775602755,1.98729715230964,1.89318338746161,1.89419088427522,1.89205964101567,1.816681441913,1.89372588574586,1.89075183265185,1.91709206184606,1.89110058154887,1.81313582812665,1.88764215498677,1.91515456797374,1.81166333278368,1.88646997119402,1.88587903556296,1.88678965768295,1.88642153384721,1.88640215890849,1.81008427527774,1.91923299257498,1.8847843515251,1.88540434956424,1.88747746800763,1.88845590241315,1.89059683314206,1.89074214518249,1.89055808326462,1.81846393627553,1.91940736702349,1.89562462974074,1.90025524009559,1.90045867695218,1.90226054625344,1.91056270749634,1.91840955767924,2.02448734718885,2.00604240552435,1.97381219495828,2.00767958784646,1.89532431819053,1.9696175207247,2.00465709740564,1.96939470892938,1.89493681941606,1.97400594434551,1.97162282688255,1.89446213341735,1.89421994668331,1.97161313941319,1.89476244496756,1.97092532908852,1.97018908141704,1.9699953320298,1.97358938316296,1.9709543914966,1.97554625197401,1.98675465402539,1.98125217142799,1.89803680961178,1.9891474589577,1.89770743565349,1.99275119756022,1.90094305042026,2.00458928512011,2.00164429443418,1.98053529869523,1.98018654979822,1.97889811637312,1.97848155519057,1.98343185203435,1.98280216652585,1.98091311000034,1.98044811147098,1.98266654195479,1.90741427995382,2.00104367133376,1.99854430423846,1.98259872966926,2.01008208024814,1.98362560142159,1.98502059700966,1.98340278962627,1.99606431208189,1.98469122305136,1.99065870417811,2.00426959863117,2.00091773423206,1.9924799484181,1.99704274648741,1.99428181771936,1.90494397526661,1.99789524379124,1.9862218432105,1.98810121226665,1.98475903533689,1.99159838870619,1.99398150616915,1.91330426132567,1.99722680840528,1.99467900396318,1.99114307764619,1.99070714152492,1.99198588748065,1.99047464226024,1.98720996508538,1.98754902651304,1.98779121324708,1.98610559357816,1.94409103895686,1.85282539010116,1.89922836834326,1.84950258811012,1.89701962532881,1.94025480108967,1.93682543693566,1.96498691036985,1.96458972412603,1.84749728195227,1.84779759350248,1.84532728881527,1.84497853991825,1.84652853501611,1.846606034771,1.84709040823908,1.94462384977175,1.84741009472802,1.84983196206842,1.84940571341651
1.77172189660577,1.86715315728697,1.86924565066908,1.77252595656279,1.76937752902026,2.02493297077948,1.8196070576602,1.77227408235938,1.77096627399557,1.77159595950407,1.76836034473729,2.04523790656141,1.8711831445414,1.76965846563175,1.86768596810186,1.86562253712784,1.76910627987814,1.76735284792369,1.767575659719,1.86397566733637,1.86366566831679,1.76525066707222,1.76530879188839,1.76613222678412,1.76380723413734,1.76475660613478,1.86757940593888,1.76696534914922,1.76795347102411,1.76852503171644,1.76624847641646,1.76945502877516,1.93506231751185,1.93358013469952,1.93256295041655,1.9409038615369,1.9837224761152,1.90330679294449,1.98779121324708,1.91007833402826,1.90104961258324,1.89922836834326,1.90436272710491,1.89819180912157,1.9117833286359,1.91325582397887,1.91346894830482,1.98805277491984,1.89459775798841,1.89194339138333,1.91461206968949,1.89197245379141,1.91521269278991,1.89233089015779,1.89103276926334,1.89018027195952,1.89053870832589,1.88697371960082,1.91940736702349,1.91901986824902,1.91851611984222,1.92027923926603,1.88627622180679,1.88471653923957,1.88705121935572,2.00186710622949,1.92026955179667,1.81345551461558,1.88451310238297,1.88684778249912,1.99583181281721,1.92245891987239,1.92186798424134,1.89228245281098,1.81695269105512,1.89328026215523,1.90010992805516,1.90018742781006,1.92365047860387,2.01855861593955,2.0047927219767,1.92424141423493,2.00181866888269,2.02583390543011,1.99774024428145,1.99130776462534,1.97413188144721,1.98784933806325,1.99074589140237,1.98450716113349,2.00151835733248,1.96930752170513,1.89661275161562,1.89398744741863,1.89385182284756,1.89435557125437,1.89581837912797,1.8957602543118,1.96902658509364,1.98112623432629,1.97061533006895,1.97194251337149,1.97102220378213,1.97037314333491,1.99142401425768,1.96391160127071,1.98533059602923,1.8999743034841,1.99712024624231,1.90020680274878,1.90072023862495,1.98649309235262,1.98290872868883,2.00035586100908,1.98775246336963,1.98196904416075,1.90412054037087,1.99970680056186,1.99591900004147,1.98166873261054,2.00158616961801,1.98286997881138,1.98461372329647,2.00838677310986,1.9992418020325,1.98371278864584,1.98471059799009,1.98478809774498,2.01123488910217,2.00784427482561,2.00751490086731,1.98500122207094,1.99456275433084,1.91171551635037,1.98549528300838,1.99179213809342,1.91135707998399,1.99751743248613,2.01529393876468,1.99359400739468,2.0017896064746,1.98723902749347,2.00042367329462,1.98686121618836,1.9876846510841,1.98549528300838,1.98643496753645,1.9888955847543,1.98830464912324,1.99309994645724,1.99281900984575,1.99268338527469,1.98867277295898,2.00161523202609,1.99159838870619,1.98904089679473,1.99045526732152,1.85172101859393,1.90059430152324,1.90005180323899,1.89821118406029,1.8982596214071,1.93105170519614,1.96695346665026,1.89681618847222,1.89431682137692,1.89350307395055,2.03513387601726,1.84679009668887,1.84672228440334,1.84819477974631,1.84677072175015,1.84720665787142,1.84576322493654,1.84785571831865,1.84858227852077
1.77460876247553,1.77462813741425,1.77396938949767,1.88838809012762,1.88945371175739,1.82086642867721,1.77288439292917,1.77155720962662,1.772826268113,1.77357220325384,1.76877690591984,1.77052065040493,1.77234189464492,1.87063095878779,1.76956159093813,1.77014283909983,1.76985221501898,1.85643881617303,1.76428192013606,1.86687222067549,1.86619409782017,1.76762409706581,1.7686122189407,2.01785143067615,1.86523503835337,1.76927096685729,1.81665237950491,1.76901909265388,1.81651675493385,1.81753393921682,1.81669112938236,1.76942596636707,1.85879287122791,1.76910627987814,1.8194811205585,1.81816362472532,1.7709081491794,1.90185367254025,1.91007833402826,1.90382991629002,1.82701797172183,1.90051680176835,1.82789953143374,1.8252839147061,1.9133236362644,1.90027461503431,1.9009333629509,1.9134495733661,1.91405988393588,1.99188901278704,1.91396300924226,1.91515456797374,1.89107151914078,1.89658368920754,1.9170823743767,1.89115870636504,1.89100370685525,1.8922533904029,1.92077330020347,1.88838809012762,2.00340741385799,1.88681872009104,1.88678965768295,1.81388176326749,1.81368801388026,1.88793277906762,1.88619872205189,1.88556903654339,1.88451310238297,1.88563684882892,1.92118017391666,1.88764215498677,1.88738059331401,1.8916721422412,1.89232120268843,1.89455900811096,1.89624462777988,1.99917398974697,1.99929023937931,1.92298204321792,1.92400891497025,1.91065958218995,2.00021054896866,2.0187717402655,1.99581243787849,1.89711650002243,1.97176813892298,1.97074126717065,1.97273688585914,1.97303719740935,1.99816649293336,1.98852746091856,1.97462594238465,1.89668056390115,1.89669025137052,1.89638025235094,1.89475275749819,1.97581750111613,1.97707687213314,1.97891749131185,1.97186501361659,1.99186963784832,1.97263032369616,1.98569871986497,1.97798749425313,1.99083307862662,1.98916683389643,1.90196992217259,1.90097211282835,1.90437241457427,1.99163713858364,1.98341247709563,1.98844996116367,1.98951558279344,1.90458553890023,1.98832402406197,2.00420178634564,1.97982811343184,1.99095901572832,2.01192269942684,2.02420641057736,1.98230810558841,1.99146276413513,1.98379028840073,1.98310247807606,2.00788302470305,2.00243866692183,2.01112832693919,1.98525309627434,2.00858052249709,1.98446841125605,1.98323810264712,1.9985346167691,1.99509556514573,1.99097839066705,1.98522403386625,1.98574715721178,1.98475903533689,2.01150613824429,1.91338176108057,1.98441997390924,1.98833371153133,1.99810836811719,2.00471522222181,1.98592153166029,2.00063679762057,1.99473712877935,1.98931214593685,1.99127870221726,1.99171463833853,1.99124963980917,1.99446587963723,1.98943808303855,1.99011620589386,1.98774277590027,1.99216026192916,1.99462087914701,1.85265101565265,1.85086852129011,1.85100414586117,1.89828868381518,1.93484919318589,1.93336701037356,1.89700993785945,1.84725509521823,1.8451432268974,1.9467066556845,1.84677072175015,1.84745853207482,1.8457729124059,1.84431979200166,1.93682543693566,1.93556606591865,1.84666415958717,1.84654790995483,1.84651884754675
1.8767340644856,1.77676906814317,1.87644344040476,1.84077417821531,1.82320110879336,1.77596500818616,1.82266829797847,1.77612000769594,1.77321376688746,1.77309751725512,1.77296189268406,1.77264220619513,1.77179939636067,1.87149314356097,1.77056908775174,1.77123752313769,1.77278751823555,2.02366391229311,1.76934846661218,1.76739159780113,1.86320066978744,1.768030970779,1.76760472212709,1.86072067763087,1.77074346220025,1.81639081783215,1.81716581538108,1.81793112546064,1.81734018982958,1.81846393627553,1.81803768762362,1.93895668019521,1.93791043350416,1.93698043644544,1.9227592314226,1.82045955496402,1.82022705569934,1.98624121814922,1.9055252234283,1.9043142897581,1.91093083133208,1.90319054331216,1.90659084505808,1.91671425054096,1.90046836442154,1.91434082054737,1.89388088525565,1.8962155653718,1.91469925691375,1.89390994766373,1.99703305901805,1.89336744937948,1.89102308179398,1.99079432874918,1.89068402036632,1.81703019081001,1.89026745918377,1.89077120759057,1.88871746408591,1.88675090780551,1.81387207579813,1.81374613869643,1.88807809110805,1.92375704076685,1.81280645416835,1.92056986334688,1.88590809797105,1.81070427331688,1.92095736212134,1.88819434074039,1.81479238538748,1.88825246555656,1.81651675493385,1.81773737607341,1.99888336566612,1.9237957906443,1.89705837520626,2.00462803499755,1.8261170370712,1.90609678412064,1.90421741506449,2.02349922531397,1.92333079211494,2.00449241042649,1.99711055877295,1.89842430838624,1.97426750601827,1.97030533104938,1.89635118994286,1.98500122207094,1.99278025996831,1.89658368920754,1.89669025137052,1.89573119190372,1.89733931181774,1.89569244202627,1.89834680863135,1.89787212263263,1.97263032369616,1.97543000234167,1.97282407308339,1.97290157283829,1.97402531928423,1.97374438267275,1.97577875123868,1.90012930299389,2.00106304627248,2.00156679467928,1.99065870417811,1.9806709232663,1.96841627452386,1.96711815362941,1.99804055583166,1.90540897379596,1.99299338429426,1.9883918363475,1.9945240044534,1.98820777442963,1.99418494302574,1.90705584358744,1.99040682997471,1.9944465046985,2.00158616961801,1.99239276119384,1.98419716211392,2.00932645763793,1.99864117893208,1.98750058916623,2.00624584238094,1.91056270749634,1.91101801855633,1.98887620981558,1.99196651254193,1.91189957826824,1.9844296613786,2.00785396229497,1.99351650763979,1.99051339213769,1.99008714348578,1.99385556906744,1.98649309235262,1.99474681624871,1.91177364116654,1.91228707704271,1.99071682899428,1.99550243885892,1.9941946304951,1.98742308941134,1.98906027173345,1.99167588846108,1.99409775580149,1.99264463539724,1.98803339998112,1.99405900592404,1.98969964471131,1.98852746091856,1.9880624623892,1.85389101173093,1.8511978952484,1.85045196010756,1.89910243124156,1.84627666081271,1.94773352743683,1.9452438478109,1.89431682137692,1.84650916007739,1.84562760036548,1.84521103918293,1.84507541461187,2.01855861593955,1.94722009156066,1.84717759546334,1.84448447898081,1.89399713488799,1.89738774916455,1.93079983099274
1.77786375218103,1.87508719469413,1.77947187209506,1.77789281458912,1.82518704001249,1.8263689112746,1.82349173287421,1.77596500818616,1.77659469369466,1.87358563694308,1.77095658652621,1.77144095999429,1.7729522052147,1.86297785799212,1.77111158603599,1.77352376590703,1.77108252362791,1.76985221501898,1.87497094506179,1.76779847151432,1.76996846465132,1.86725003198059,1.76782753392241,1.86306504521637,1.76948409118324,1.76918377963303,1.76722691082199,1.76833128232921,1.81954893284403,1.81957799525212,1.85308695177392,1.85422038568923,1.864876601987,1.77340751627469,1.7727487683581,1.94152385957604,1.99048432972961,1.98899245944792,1.99089120344279,1.90185367254025,1.90470178853257,1.90676521950659,1.82702765919119,1.91441832030226,1.9154936294014,1.89847274573305,1.91808987119031,1.89705837520626,1.91457331981204,1.8951305688033,1.89643837716711,1.82054674218828,1.89147839285397,1.81670081685172,1.92055048840816,1.92029861420476,2.01855861593955,1.890916519631,1.88864965180038,1.81396895049174,2.00885177163921,1.81353301437047,2.01771580610509,1.89157526754759,1.88996714763356,1.88703184441699,1.88680903262168,1.88730309355912,1.89006402232718,1.89144933044589,1.89159464248631,1.9244254761528,1.99717837105848,2.00853208515028,1.89647712704456,1.8922533904029,1.92619828304597,1.89675806365605,1.8303310862435,1.8307863973035,1.83448701059963,1.91042708292528,1.92510359900811,2.01613674859914,1.97535250258677,1.98177529477352,1.97241719937021,1.97360875810168,1.97419969373274,1.97476156695572,1.97109970353703,1.9001002405858,1.8987633698139,1.89737806169519,1.89854055801858,1.89770743565349,1.97294032271573,1.89765899830668,1.97396719446806,1.97394781952934,1.97208782541191,1.99407838086276,1.97170032663745,1.97673781070548,1.99427213024999,1.97617593748251,1.9756237517289,1.98893433463175,1.96559722093963,1.99226682409214,1.97042158068172,1.99095901572832,1.90414960277895,1.99923211456314,1.98823683683771,1.98096154734714,1.90682334432276,1.99743024526188,1.90878990060316,1.90793740329934,1.90835396448189,2.01552643802936,2.00848364780347,1.91110520578059,1.98967058230323,1.99902867770654,1.98507872182583,1.98578590708923,2.00151835733248,2.00088867182397,1.9940686933934,1.99121088993173,1.99377806931255,1.99380713172064,1.98771371349219,1.99506650273765,1.98795590022623,1.98775246336963,1.98612496851688,1.99760461971039,1.98717121520794,1.99476619118744,1.98474934786753,1.98581496949731,1.98870183536707,1.98599903141518,1.98944777050791,1.9886437105509,1.9913174520947,1.99280932237639,1.99276088502958,1.99112370270747,1.98817871202154,1.98679340390283,2.00566459421925,2.00585834360648,2.02345078796716,1.85212789230712,1.85024852325097,2.04377509868781,1.84832071684801,2.01774486851317,1.95403038252187,1.93746480991352,1.89383244790884,1.84625728587398,1.9376488718314,1.84400979298209,1.84387416841103,1.84602478660931,1.84965758761991,1.84467822836804,1.8951305688033,1.89503369410968,1.93289232437485,1.93194295237741
1.77935562246272,1.77995624556314,1.7791328106674,1.78037280674569,1.77752469075338,1.82600078743886,1.77697250499976,1.77647844406232,1.8746900084503,2.0368388706249,1.77395001455894,1.77375626517171,1.77388220227341,1.82138955202274,1.82150580165508,1.82037236773977,1.82065330435125,1.77309751725512,1.76953252853005,1.76960034081558,1.87606562909965,1.77084033689387,1.86993346099375,1.76846690690027,1.76991033983515,1.86674628357379,1.86691097055293,1.77133439783131,1.77195439587045,1.82067267928998,1.85581881813389,1.85701037686537,1.77347532856022,1.77351407843767,1.77360126566192,1.77330095411171,1.91343988589674,1.90459522636959,1.90785990354445,1.99377806931255,1.90610647159,1.90735615513765,1.82822890539203,1.82744422037374,1.89981930397432,1.89852118307986,1.82501266556398,1.90034242731984,1.90013899046325,1.91737299845755,1.82144767683891,1.91783799698691,1.89024808424505,1.89351276141991,1.9207151753873,2.0084255229873,1.8907130827744,1.92070548791794,1.81762112644107,1.89010277220462,1.81521863403939,1.88827184049528,1.88781652943528,1.92366985354259,1.81375582616579,1.8875355928238,2.01748330684041,2.00086929688525,1.89137183069099,1.89052902085653,1.8905871456727,1.89153651767014,1.89271838893226,1.89328026215523,2.00052054798823,1.92632422014768,1.89808524695859,1.92533609827279,1.90158242339813,1.90441116445172,2.00822208613071,1.83793574969236,2.02063173438293,2.01558456284553,1.973831569897,1.98186248199777,1.97409313156976,1.90054586417644,1.97405438169232,1.99410744327085,1.98869214789771,1.90005180323899,1.90084617572665,1.90005180323899,1.89770743565349,1.89848243320241,1.97243657430893,1.97498437875103,1.98479778521434,1.97374438267275,1.99174370074661,1.99580275040913,1.99561868849126,1.90112711233813,1.97595312568719,1.97704780972506,1.99826336762698,1.99038745503599,1.97412219397785,1.97704780972506,1.99138526438023,1.99530868947169,1.99776930668953,1.90504084996022,1.99580275040913,1.98917652136579,1.90599022195766,1.98590215672156,1.90935177382614,1.90886740035806,1.99876711603378,1.98624121814922,1.99952273864399,2.0077958374788,1.99070714152492,1.98815933708282,2.0035817883065,1.99266401033597,2.011176764286,1.98803339998112,2.01541987586638,1.98575684468114,1.99588993763338,1.98487528496923,1.99133682703343,2.007292089072,1.99413650567893,1.98519497145817,1.98764590120665,1.98954464520153,1.98808183732793,2.00004586198951,1.98841121128622,1.98763621373729,1.9954830639202,1.98945745797727,1.98642528006709,1.99368119461894,1.99326463343639,1.99154995135938,1.99439806735169,1.99266401033597,1.9850109095403,1.98808183732793,1.98733590218708,2.00748583845923,1.90039086466665,1.90332616788322,1.84826259203184,1.94534072250451,1.85015164855735,1.84758446917652,1.84710009570844,2.03189826125048,1.84584072469144,2.02048642234251,1.84423260477741,1.84351573204465,1.84516260183612,1.84587947456888,1.84669322199526,1.84586978709952,1.8464800976693,1.8478944681961,1.89415213439777,1.84832071684801
1.77819312613933,1.77829000083294,1.77917156054485,1.87964030529409,1.78032436939888,1.86964283691291,1.87125095682693,1.87535844383625,1.87506781975541,1.87035970964567,1.87771249889113,1.77518032316787,1.82189330042954,1.77379501504916,1.77405657672192,1.77701125487721,1.77408563913,1.82048861737211,1.77170252166705,1.87194845462097,1.87404094800308,1.77054971281302,1.77060783762919,1.87035970964567,1.86139880048618,1.8743121971452,1.77340751627469,1.77437626321085,1.76827315751304,1.81986861933296,1.82185455055209,1.8222323618572,1.77296189268406,1.82327860854825,1.77364001553937,1.77501563618872,1.77637188189934,1.90682334432276,1.90563178559128,1.90590303473341,1.91481550654608,1.90862521362402,1.91704362449925,1.82991452506095,1.91715018666223,1.91761518519159,1.91990142796093,1.99642274844827,1.82348204540484,1.90028430250367,1.89522744349691,1.99698462167124,1.89420057174458,1.92285610611622,1.99486306588105,1.89326088721651,1.89102308179398,1.81735956476831,1.92298204321792,1.8148117603262,1.92692484324809,1.89101339432461,1.89001558498037,1.81459863600025,1.88941496187995,2.00775708760135,1.92603359606683,1.89005433485781,1.92727359214511,1.8888724635957,1.89068402036632,1.890916519631,1.89337713684885,1.89481088231436,1.92834890124425,2.00457959765074,2.00250647920736,1.82489641593164,1.93079014352338,1.90851865146104,2.006836778012,1.84000886813575,1.92693453071746,2.01402488027831,2.01873299038805,1.97589500087102,1.99743024526188,1.98986433169046,1.99464025408574,1.99182120050151,1.97487781658805,1.99821493028017,1.90036180225857,1.90181492266281,1.89942211773049,1.97619531242123,1.97059595513022,1.9750425035672,1.97432563083444,1.9751684406689,1.97580781364677,1.97571093895315,1.90072023862495,1.97660218613442,1.9762534372374,1.99207307470491,1.99829243003506,1.97438375565061,1.98756840145176,1.99280932237639,1.97946967706546,1.9791306156378,1.97782280727398,2.00222554259587,1.99149182654321,1.90740459248445,1.90788896595254,1.99612243689806,1.99476619118744,1.90924521166316,1.99833117991251,1.99818586787208,1.98598934394582,1.98816902455218,1.98856621079601,1.98846933610239,1.98711309039177,1.99575431306232,1.91192864067633,2.00173148165843,1.987306839779,1.98680309137219,2.00034617353972,1.99632587375465,1.99411713074021,1.91418582103758,1.99248963588746,1.98556309529391,2.01918830144805,1.99752711995549,1.99453369192276,1.98817871202154,1.98938964569174,1.91335269867248,2.00811552396773,1.98861464814282,1.98819808696027,1.9909396407896,1.99296432188618,1.98877933512196,1.99371025702702,1.99169526339981,1.98701621569815,1.98528215868242,1.98693871594326,1.98812058720537,1.853116014182,1.85326132622243,1.94154323451476,1.84838852913354,1.84937665100842,1.85037446035267,1.84725509521823,1.94812102621129,1.94755915298832,1.84493010257144,1.84482354040847,1.84362229420763,1.84298292122976,1.84671259693398,1.84507541461187,1.84644134779186,2.02762608726201,2.02695765187606,2.03851480282446,1.94405228907942
1.78269779939247,1.78389904559331,1.78179686474184,1.77995624556314,1.78007249519548,1.78245561265843,1.78037280674569,1.77962687160484,1.77849343768954,1.77585844602318,1.7769628175304,1.82333673336442,1.86357848109254,1.77584875855382,1.77369814035554,1.8244023549942,1.77138283517812,1.77093721158748,1.87402157306435,1.77332032905044,1.77349470349895,1.77207064550279,1.77495751137255,1.77344626615214,1.77426001357851,1.77507376100489,1.86214473562702,1.87285907674096,1.94528259768834,1.77275845582746,1.77447313790447,1.95085289257127,1.94803383898704,1.77178002142194,1.86113723881341,1.77711781704019,1.83491325925154,1.92107361175368,1.99257682311171,1.90732709272956,1.83192951868817,1.90454678902278,1.9033552302913,1.99256713564235,1.92106392428432,1.91906830559583,1.90044898948282,1.89761056095987,1.89668056390115,1.99533775187977,1.89744587398072,1.92178079701708,1.89756212361306,1.99838930472868,1.89522744349691,1.89623494031052,1.89297026313566,1.92721546732894,1.89721337471604,1.89021902183696,1.89313495011481,1.81637144289342,1.92710890516597,1.88814590339358,1.81460832346961,1.8897540233076,1.88879496384081,1.92775796561319,1.92937577299658,1.89053870832589,1.89145901791525,1.9291432737319,1.9292207734868,1.89447182088671,1.89558587986329,1.92718640492086,1.9281357769183,1.89817243418284,1.92785484030681,1.8351263835775,1.83697669022556,1.83981511874852,2.03120076345644,2.02089329605569,1.98744246435006,1.98483653509179,1.98543715819221,1.99402025604659,2.00176054406652,1.90094305042026,1.99838930472868,1.90096242535899,1.90072992609431,1.89994524107602,1.97536219005614,1.97813280629356,1.97914030310716,1.97389938218253,1.98091311000034,1.90084617572665,1.99483400347297,1.97513937826082,1.97776468245781,1.90226054625344,2.01427675448171,1.99569618824615,1.90382991629002,1.99792430619932,2.00448272295713,1.98157185791693,1.98052561122587,1.98028342449183,1.98478809774498,1.995531501267,1.99541525163466,1.99554118873636,1.91025270847677,1.99495994057467,1.99887367819676,1.91100833108697,2.002496791738,2.00825114853879,2.007292089072,1.98603778129263,1.99537650175722,1.98651246729135,1.98765558867602,1.9945240044534,1.98846933610239,2.00554834458691,1.91228707704271,2.01191301195748,1.9966164978355,2.00677865319583,2.01159332546855,1.99580275040913,2.00891958392475,2.00091773423206,2.00849333527283,1.99542493910403,1.91197707802313,1.98904089679473,2.00174116912779,1.98798496263431,1.91346894830482,1.91375957238567,1.98799465010367,1.99103651548322,1.99173401327725,1.99117214005428,1.99482431600361,1.99480494106488,1.9138273846712,2.00471522222181,1.99051339213769,1.98858558573473,1.85060695961735,1.84994821170076,2.01930455108039,1.84913446427438,1.85093633357564,1.84569541265101,1.84547260085569,2.04424978468653,1.84586978709952,1.9476657151513,1.84566635024293,1.8445619787357,1.84331229518806,1.84538541363144,1.94488541144452,1.84486229028591,1.8436029192689,1.84688697138249,1.84498822738761,1.84686759644377
1.83247201697242,1.78275592420864,1.7827171743312,1.83208451819795,2.05168976115624,1.88110311316769,1.77935562246272,1.7802178072359,1.95489256729506,1.77885187405592,1.87127033176566,1.77841593793464,1.86463441525296,1.82617516188737,1.86380129288786,1.77788312711976,1.82360798250654,1.87078595829758,1.86995283593248,1.77497688631127,1.77519969810659,1.77339782880533,1.77255501897087,1.77423095117043,1.77401782684447,1.77290376786789,1.77360126566192,1.87004002315673,1.94932227241213,1.77353345337639,1.77665281851083,1.77303939243895,1.77326220423427,1.77375626517171,1.77591657083935,1.94050667529307,1.99376838184319,1.90714303081169,1.8339154499073,1.91843862008733,1.83101889656818,1.83170670689285,1.9038105413513,1.90570928534617,1.90404304061598,1.99478556612616,1.89870524499773,1.92322422995196,1.90057492658452,2.01495487733703,2.02230766658249,1.9237182908894,1.82092455349338,1.89620587790244,1.89460744545777,1.89431682137692,1.89388088525565,1.89160432995567,1.89317369999225,1.89135245575227,1.89087776975355,1.88715778151869,1.89068402036632,1.8905871456727,1.89140089309908,1.89089714469227,1.92769015332766,1.89193370391397,1.81825081194958,1.89337713684885,1.89325119974715,1.92692484324809,1.89421994668331,1.8212733023904,1.89727149953221,1.92916264867063,1.90023586515686,1.92893983687531,1.83203608085114,1.90887708782742,1.92819390173447,2.0045408477733,2.00505428364946,2.01776424345189,1.86265817150319,1.90379116641257,1.90415929024832,1.97808436894675,1.99221838674533,1.97756124560122,1.97719312176548,1.90241554576323,1.90365554184151,1.9010593000526,1.97811343135483,1.98017686232885,1.97461625491529,1.98126185889735,1.97603062544209,1.97609843772762,1.97566250160634,1.97723187164293,1.97735780874463,1.9046921010632,1.97740624609143,1.99696524673252,1.99395244376106,1.98101967216331,1.97864624216972,1.99187932531768,1.98160092032501,1.98069029820502,1.98132967118289,1.99775961922017,1.90889646276614,1.97821999351781,1.90819896497211,1.91012677137507,1.91039802051719,2.00198335586183,1.91097926867889,2.00449241042649,2.00982051857538,1.91424394585375,1.91246145149121,1.91367238516142,1.91404050899716,1.91397269671162,1.91341082348865,1.99675212240657,1.91461206968949,1.91463144462821,1.91668518813288,2.00490897160904,2.00406616177458,1.9992418020325,2.00725333919455,1.98687090365773,1.91444738271034,2.0062070925035,1.91262613847036,1.91412769622141,1.98997089385344,1.9140792588746,1.98772340096155,1.98918620883515,1.99405900592404,1.99536681428786,1.99684899710018,1.99526993959424,1.99513431502318,1.99429150518872,1.99055214201514,1.99123995233981,2.00173148165843,1.99992961235717,1.9893508958143,1.85012258614927,1.84932821366161,1.84978352472161,1.84557916301867,1.84679009668887,1.84505603967315,1.84494947751017,1.93457794404377,2.0183939289604,1.94613509499216,2.03907667604743,1.84567603771229,1.84607322395611,2.02118392013654,1.84629603575143,1.84690634632121,2.02045735993442,1.84469760330677,1.84739071978929
1.83578513149409,1.83343107643922,1.83460326023197,1.83579481896345,1.78277529914737,1.88721590633486,1.87665656473071,1.87223907870182,1.77833843817975,1.7805471811942,1.89603150345393,1.82723109604779,1.77666250598019,1.8370929398579,1.82639797368269,1.82671766017162,1.77590688336999,1.95714006018695,1.77257439390959,1.77487032414829,1.77488969908702,1.77551938459552,1.77252595656279,1.95067851812276,1.94498228613813,1.77218689513513,1.77454095019,1.7744150130883,1.77448282537383,1.7740372017832,1.86397566733637,1.77627500720573,1.77638156936871,1.77882281164783,1.77541282243254,1.77644938165424,1.83480669708856,1.91833205792435,1.90876083819508,1.90754990452488,2.00040429835589,2.00040429835589,1.99986180007164,1.99760461971039,1.99597712485764,1.82954640122521,1.90141773641898,1.90398491579981,1.92316610513579,2.00038492341717,1.89861805777348,1.92729296708384,1.92754484128724,1.89632212753478,1.89594431622967,2.01435425423661,1.8939196351331,1.81865768566276,1.9303057700553,1.89347401154246,1.89249557713694,1.92804858969404,1.89095526950844,1.8916721422412,1.81628425566917,1.92775796561319,1.92787421524553,1.81710769056491,1.89234057762715,1.89095526950844,1.89101339432461,1.81978143210871,1.8944233835399,1.89700025039009,1.89695181304328,1.93071264376848,2.00555803205627,2.01823892945061,2.01438331664469,2.00590678095329,1.91363363528397,1.84090011531702,1.92807765210213,2.02105798303484,1.86309410762446,1.97798749425313,1.97926624020886,1.98587309431348,1.98572778227306,1.9886437105509,1.98765558867602,1.90518616200065,1.98024467461439,1.98101967216331,1.97729968392846,1.98459434835775,1.98520465892753,1.98163967020246,1.98365466382967,1.9767087482974,1.97894655371993,1.97813280629356,1.99806961823974,1.9788787414344,1.97940186477993,1.97871405445525,2.01047926649196,2.00969458147367,1.98181404465097,1.98070967314374,1.98053529869523,1.98529184615178,1.99712993371167,1.98373216358456,1.99821493028017,2.00435678585543,1.98258904219989,1.99415588061765,2.00157648214865,1.90909021215337,2.00208023055545,1.9127423881027,2.00119867084354,2.00122773325163,1.91121176794357,1.91218051487973,2.0010824212112,1.98849839851048,2.00267116618651,2.00430834850862,1.99688774697763,1.9903099552811,1.98859527320409,1.98798496263431,1.99519243983935,1.9982827425657,1.99278994743767,1.98731652724836,1.98843058622494,2.01937236336592,1.91404050899716,2.00514147087372,2.00827052347752,1.99876711603378,1.98265685448543,1.99135620197215,1.99127870221726,1.99448525457595,1.99186963784832,1.99062964177003,1.99057151695386,1.99411713074021,1.99118182752364,2.00104367133376,1.98849839851048,2.00368835046948,1.85263164071392,2.03090045190623,2.03523075071087,2.04261260236442,1.84825290456248,1.84621853599654,2.04237041563038,1.84674165934206,1.94510822323983,1.84475572812294,1.94998102032872,1.84646072273058,1.93593418975439,1.84643166032249,1.84631541069015,1.84684822150504,1.84674165934206,1.9479175893547,1.8469354087293,2.02233672899057
1.94455603748622,1.78470310555033,1.78340498465587,1.78384092077714,1.83310170248092,1.88275967042852,1.78395717040948,1.78194217678227,1.78143842837547,1.781506240661,1.78111874188653,1.77977218364527,1.77940405980953,1.77962687160484,1.77932656005463,1.88246904634768,1.77717594185636,1.86974939907588,1.77652688140913,1.8789040576226,1.95567725231335,1.77519969810659,1.77286501799044,1.95002945767553,1.86182504913809,1.82182548814401,1.82270704785592,1.8233173584257,1.77356251578448,1.77477344945468,1.95089164244871,1.95405944492996,1.77552907206488,1.82563266360312,1.77813500132316,1.82480922870738,1.77986905833888,1.83687012806259,1.91033020823166,1.92124798620219,1.90880927554189,1.92119954885538,1.9055252234283,1.90529272416362,1.92363110366515,1.92412516460259,1.92362141619579,1.90353929220917,1.90097211282835,1.89837587103944,1.92398954003153,2.00170241925035,1.92687640590129,1.896971187982,1.82253267340741,1.89579900418925,1.89510150639521,2.00174116912779,1.89395838501054,1.81927768370191,1.89326088721651,1.89586681647478,1.89474307002883,1.81769862619596,1.81703019081001,1.81747581440065,1.89121683118121,1.89430713390756,1.89388088525565,2.01848111618465,1.89471400762075,1.89553744251648,1.93233045115187,1.82227111173464,2.02711265138585,1.90129179931728,1.90193117229515,1.93167170323528,1.9076467792185,2.01738643214679,2.01747361937105,1.91448613258779,1.84612166130292,2.02150360662547,2.02072860907655,1.99084276609598,1.99386525653681,1.98396466284924,1.99448525457595,1.99125932727853,1.98559215770199,1.98832402406197,1.98221123089479,1.98295716603564,1.97990561318673,1.90315179343471,1.97836530555823,1.98126185889735,1.98299591591308,1.99978430031675,1.97921780286206,1.9787528043327,1.90478897575682,2.00849333527283,1.97939217731056,1.98252122991436,1.98990308156791,1.9898546442211,1.9823856053433,1.9836740387684,1.98365466382967,1.99099776560577,1.99421400543382,1.99167588846108,1.9105723949657,1.91119239300484,1.91108583084187,1.99067807911684,2.00053992292695,1.98777183830835,1.98752965157431,1.91132801757591,1.99551212632828,1.9924024486632,1.9935649449866,2.00344616373544,2.00033648607036,2.00811552396773,1.98886652234622,1.98722934002411,1.99688774697763,1.99066839164748,1.99136588944151,1.99551212632828,1.9962386865304,1.99044557985216,1.99237338625512,1.99173401327725,1.98790746287942,2.00549021977074,1.98853714838792,1.98695809088198,1.99798243101549,2.00767958784646,1.98704527810623,1.98836277393941,1.99022276805684,1.98891495969302,1.98933152087557,1.99417525555638,1.99291588453937,1.991646826053,1.99564775089934,1.99054245454577,1.98959308254834,1.99466931649382,1.85139164463564,1.85194383038925,2.03063889023347,1.84752634436036,1.84956071292629,1.84583103722207,1.84842727901099,1.84497853991825,1.84670290946462,1.84710978317781,1.84702259595355,2.01859736581699,1.84748759448291,1.84633478562888,1.94443010038452,1.94179510871816,1.8469354087293,2.03495950156875,1.84423260477741,1.844436041634
1.79002152622985,1.78822934439795,1.87326595045415,1.83415763664134,1.83468075998686,1.78466435567288,1.78449966869373,1.78379248343034,1.78453841857118,1.87743156227964,2.03695512025724,1.88243998393959,1.88367998001788,1.88087061390301,1.78038249421505,1.77986905833888,1.77677875561253,1.77819312613933,1.78040186915377,1.77854187503634,1.95465038056102,1.88321498148852,1.77733094136614,1.77731156642742,1.86422754153977,1.8353782577809,1.82346267046612,1.77539344749382,1.95785693291971,1.95351694664571,1.77556782194233,1.77435688827213,1.77701125487721,1.9463772817262,1.7780478140989,1.77829000083294,1.91192864067633,1.8372963767145,2.00137304529205,1.92574297198598,1.91014614631379,1.9100686465589,1.9071914681585,1.9057770976317,1.90770490403466,1.90730771779084,1.92363110366515,1.90439178951299,1.90089461307345,1.90309366861854,1.90112711233813,1.92549109778258,1.89628337765733,1.92877514989616,1.897426499042,1.89573119190372,1.89692275063519,1.82016893088317,2.00376585022437,1.93014108307615,1.93057701919742,1.89328994962459,1.89478181990628,1.89279588868715,1.93092576809444,1.89430713390756,1.81579988220109,2.00462803499755,1.89438463366245,1.89630275259605,1.89496588182415,1.93281482461995,1.89666118896243,1.82408266850526,1.90013899046325,1.90266741996663,1.93382232143356,1.90475022587937,1.90725928044403,1.83601763075877,1.91343019842737,1.8430991708621,1.93133264180763,2.01797736777785,1.90773396644275,1.99905774011463,1.98248248003692,2.00675927825711,1.90809240280913,1.99340025800745,1.98720996508538,1.90472116347129,1.98153310803948,1.9820077940382,1.97685406033782,1.98531122109051,1.98326716505521,1.97940186477993,1.97783249474335,1.97821999351781,1.99947430129718,1.98102935963268,2.00105335880312,1.99453369192276,1.98025436208375,1.98168810754927,1.99251869829554,1.98203685644628,1.98726808990155,1.90785990354445,1.98598934394582,1.98629934296539,1.98237591787394,1.91040770798655,1.91096958120953,1.99411713074021,2.01139957608132,2.00578084385158,1.91166707900356,2.0149355023983,1.98627996802667,1.98335435227946,2.00200273080056,2.00091773423206,1.91438925789417,2.00121804578227,2.00232241728949,2.00910364584262,1.99036808009727,1.98977714446621,1.99422369290319,2.00133429541461,1.98813027467473,2.00058836027376,1.99850555436102,1.99462087914701,2.01149645077493,1.98938964569174,1.98862433561218,1.98795590022623,2.00756333821412,1.98796558769559,1.98937995822238,2.01181613726387,1.91533862989161,1.98797527516495,1.98968026977259,1.98847902357175,1.99403963098532,1.99058120442322,1.99066839164748,1.99032933021982,1.98797527516495,1.91430207066992,2.00377553769373,1.98878902259132,1.85322257634498,1.85141101957436,1.8501903984348,1.84750696942163,1.84713884558589,1.84675134681143,2.05166069874816,1.84532728881527,2.0287885835854,2.03895073894573,1.84461041608251,1.84679009668887,1.84681915909696,1.84626697334335,1.84423260477741,1.84621853599654,1.84871790309183,1.94179510871816,1.89399713488799,1.89372588574586
1.83810043667151,1.78786122056221,1.8365891914511,1.83679262830769,1.83650200422685,1.78766747117498,1.90096242535899,1.78354060922693,1.78451904363246,1.87979530480387,1.78351154681885,1.9580119324295,1.8323751422788,1.88467778936212,1.88618903458253,1.78173873992568,1.95863193046864,1.77795093940529,1.88185873577789,1.82723109604779,1.77799937675209,1.87486438289881,1.77489938655638,1.8265723481312,1.82673703511034,1.77638156936871,1.8250320405027,1.86450847815125,1.77606188287977,1.95161820265083,1.95366225868613,1.9507947677551,1.77635250696062,1.95624881300568,1.77678844308189,1.77993687062442,1.91162832912612,1.91126989275974,1.91298457483674,1.91397269671162,1.91737299845755,1.92540391055832,1.90691053154701,1.90997177186528,1.9046921010632,2.01391831811533,1.90485678804235,1.90274491972152,1.90242523323259,1.90174711037728,1.90009055311644,1.92781609042936,1.92855233810084,1.89721337471604,1.92923046095616,1.9294726476902,1.93092576809444,1.89447182088671,1.89491744447734,1.82035299280104,1.81867706060149,1.89450088329479,1.89551806757776,1.89035464640802,1.89336744937948,1.89338682431821,1.93111951748167,1.93242732584549,1.93217545164209,1.93380294649484,1.89528556831308,1.822736110264,1.82325923360953,1.82410204344399,2.01413144244129,2.009006771149,1.93404513322888,1.90608709665128,1.83324701452135,1.91303301218355,1.93387075878037,1.91514488050438,1.9339385710659,1.93337669784293,2.01365675644257,1.98140717093778,1.98105842204076,1.98183341958969,1.99070714152492,1.99552181379764,1.9811746716731,1.90751115464743,1.98192060681394,1.90566084799937,1.9795859266978,1.98434247415435,1.98407122501222,1.98618309333305,1.97944061465737,1.98052561122587,2.00075304725291,1.98107779697948,1.90541866126532,1.99870899121761,1.98093248493906,1.98343185203435,1.90708490599552,1.99493087816658,1.98413903729775,1.99549275138956,1.90785990354445,1.99510525261509,1.99057151695386,1.98836277393941,1.98133935865225,1.99125932727853,1.91075645688357,1.9946983789019,1.91253895124611,1.98858558573473,1.99783711897507,1.98824652430707,1.99778868162826,1.99935805166484,1.99558962608317,2.00105335880312,1.91517394291246,1.91452488246524,1.99127870221726,1.99809868064783,2.01355019427959,1.91410832128269,1.99075557887173,1.98957370760961,1.91397269671162,2.01185488714131,1.99775961922017,1.99710087130358,2.00679802813455,1.98908933414153,1.99916430227761,1.9891474589577,2.00790239964178,1.98925402112068,1.98956402014025,1.98822714936835,1.98955433267089,1.99086214103471,1.99042620491344,1.99141432678832,1.99425275531127,1.99458212926957,1.99596743738828,1.98901183438664,1.99797274354613,1.98898277197856,1.85356163777264,1.8526122657752,1.85063602202543,1.84990946182331,1.84645103526122,1.84511416448932,1.84715822052461,1.84625728587398,1.84695478366802,1.84620884852718,1.84452322885826,1.84981258712969,1.94759790286577,1.94532134756579,1.84722603281015,1.84722603281015,1.89399713488799,1.89452994570288,1.89567306708755,1.8950046317016
1.79098058569665,1.79022496308644,1.79089339847239,2.04469540827716,1.89019964689824,1.89057745820334,1.88974433583824,1.78386029571587,1.83446763566091,1.78712497289073,1.78475154289714,1.78541029081372,1.78215530110822,1.78377310849161,1.78433498171459,1.77851281262826,1.8307863973035,1.82958515110266,1.78036311927633,1.78025655711335,1.87922374411154,1.87342094996393,1.77490907402574,1.8705534590329,1.82664016041673,1.9407004246803,1.86590347373933,1.94017730133477,1.77534501014701,1.95878692997842,1.77940405980953,1.89125558105865,1.7782512509555,1.94988414563511,1.94789821441598,1.77974312123718,1.91502863087204,2.00613928021796,1.91336238614184,1.91377894732439,1.92620797051534,1.92832952630553,1.90847990158359,1.90928396154061,1.9286395253251,1.92893014940595,1.83048608575329,1.90379116641257,1.90414960277895,1.90358772955598,2.0204379849957,1.9047696008181,1.90351991727045,1.89768806071476,1.89812399683603,1.89850180814114,2.00807677409029,1.82306548422229,1.93132295433827,1.89493681941606,1.8957602543118,1.8919240164446,1.89368713586842,1.89278620121779,1.89337713684885,1.89493681941606,1.93637981334502,2.00881302176177,1.82084705373849,1.89648681451392,1.89458807051905,2.01770611863572,1.89991617866793,1.89998399095346,1.93621512636588,1.82792859384182,1.9043142897581,1.90717209321978,1.91062083231251,1.91111489324995,1.93713543595523,1.93557575338801,1.93480075583908,2.03270232120749,2.02821702289307,2.00863864731326,2.0245745344131,1.98438122403179,1.98356747660542,1.98170748248799,1.90657147011936,1.98158154538629,1.97759999547867,1.90611615905936,1.90569959787681,1.90776302885083,1.90627115856915,1.90500210008278,1.98115529673438,1.98124248395863,1.90631959591595,1.98124248395863,1.9850593468871,1.90588365979468,1.90655209518063,1.99474681624871,1.99904805264527,1.99445619216786,1.98631871790411,1.99583181281721,1.90879958807253,1.9987380536257,1.99169526339981,1.91209332765547,2.01066332840983,1.98286029134202,2.00930708269921,2.00755365074476,1.99833117991251,1.99811805558655,2.0038336625099,1.98712277786113,2.00061742268185,1.99962930080696,2.00892927139411,1.99941617648101,2.02210422972589,2.01308519575024,1.99114307764619,2.00578084385158,2.0005786728044,2.00492834654776,1.98835308647005,1.99991023741845,1.99585118775594,2.00060773521249,2.00088867182397,2.00773771266263,1.91416644609886,2.00495740895585,1.98959308254834,1.98907964667217,1.98986433169046,2.00101460892567,2.01003364290133,1.99258651058107,1.99112370270747,1.99293525947809,1.99145307666577,1.99114307764619,1.99211182458236,1.99572525065424,1.99198588748065,1.91498019352523,1.99813743052528,1.99858305411591,1.9978274315057,2.01766736875828,1.8489019650097,1.84868884068375,1.84777821856376,1.84499791485698,1.84475572812294,1.84500760232634,1.84710978317781,1.84634447309824,1.89727149953221,1.89568275455691,2.0192754886723,1.84780728097184,1.84758446917652,1.84722603281015,1.895256505905,1.84780728097184,1.92866858773318,1.84665447211781
1.79189120781664,1.79125183483877,1.79037027512687,1.79162964614388,1.89123620611993,1.89037402134675,1.7882680942754,1.89145901791525,1.83649231675748,1.8821590473281,1.88618903458253,1.78619497583201,1.78426716942905,1.78355998416566,1.78292061118779,1.88852371469868,2.05844192730129,1.77989812074697,1.78331779743162,1.78115749176398,1.78036311927633,1.77912312319804,1.77798000181337,1.86816065410058,1.82742484543502,1.8286164041665,1.77802843916018,1.82813203069842,1.95348788423762,1.77782500230359,1.77847406275081,1.77858062491379,1.77846437528145,1.77957843425804,1.95315851027933,1.78063436841845,2.00230304235077,1.91145395467761,1.91347863577418,1.91403082152779,1.91222895222654,1.91354644805971,1.91155082937122,1.91020427112996,1.9115314544325,1.92828108895872,1.9073174052602,1.90453710155342,1.90485678804235,1.90513772465384,1.90652303277255,1.90122398703175,1.8264464110295,1.82702765919119,1.92861046291701,1.89766868577604,1.82424735548441,1.82373391960825,2.02738390052797,1.89331901203268,1.82076955398359,1.93463606885993,1.89792055997944,1.89765899830668,1.89411338452033,1.82049830484147,1.89631244006541,1.82083736626913,1.89527588084372,1.82118611516614,1.89464619533522,1.93723231064885,2.02521390739097,1.93679637452757,1.90405272808534,1.90438210204363,1.93656387526289,1.90733678019892,1.93842386938032,1.83638575459451,1.84020261752298,1.84714853305525,1.84792353060418,2.0249039083714,1.86733721920484,1.98491403484668,1.98342216456499,1.98419716211392,1.90883833794997,1.98393560044116,1.98436184909307,1.90748209223935,1.98091311000034,1.97892717878121,1.90703646864871,1.90755959199424,1.90817959003338,1.90823771484955,1.9818043571816,1.98393560044116,1.98243404269011,1.98182373212033,1.99500837792148,1.90824740231891,1.98416809970584,1.99450462951467,1.99245088601001,1.90906114974529,1.99292557200873,1.9105723949657,1.99895117795165,2.00049148558015,1.99532806441041,2.00459897258947,1.99550243885892,1.99846680448357,2.002496791738,1.99192776266448,1.99716868358911,1.91475738172992,1.9876846510841,1.98887620981558,2.00085960941589,2.00140210770014,2.002041480678,1.91505769328012,2.00697240258306,2.00917145812815,2.0086773971907,2.00814458637582,2.0074664635205,1.91679175029585,1.98954464520153,1.99030026781173,1.98890527222366,1.91473800679119,2.00437616079415,1.9173342485801,1.91481550654608,2.01416050484938,1.99150151401257,1.98899245944792,1.99474681624871,1.99448525457595,1.99079432874918,1.98897308450919,1.99132713956407,1.99278025996831,1.98837246140877,1.99751743248613,1.99150151401257,1.99138526438023,1.99418494302574,1.91538706723842,1.99893180301293,2.01802580512466,1.85256382842839,1.85120758271777,1.85026789818969,1.84865977827566,1.84767165640078,1.94728790384619,1.84640259791441,1.84547260085569,1.9472104040913,2.02725796342627,2.03482387699769,1.84404854285954,1.84761353158461,2.04088823281805,1.84730353256504,1.84766196893142,1.84647041019994,1.89628337765733,1.89528556831308,1.8473132200344
1.88984121053186,1.90070086368622,1.79328620340471,1.79054464957538,1.79192027022473,1.79120339749197,1.89121683118121,1.78829715668348,1.78813246970434,1.83680231577706,1.90082680078792,1.78788059550093,1.83599825582004,1.78605935126095,1.78387967065459,1.89032558399994,1.8917496419961,1.78338560971715,1.78386029571587,1.88779715449656,1.7804212440925,1.9627297300086,1.77966562148229,1.88688653237657,1.78124467898823,1.78060530601037,1.78119624164142,1.78012093254229,1.77987874580825,1.87773187382985,1.78016936988909,1.78070218070398,1.78221342592439,1.77965593401293,1.78047936890867,1.78194217678227,1.91746987315117,1.84196573694679,2.01124457657153,2.00500584630266,2.0110508271843,1.91148301708569,1.91147332961633,1.91099864361761,1.9305576442587,1.90854771386912,1.83290795309369,1.9374454349748,1.83038921105967,1.90670709469042,1.9086542760321,1.82710515894609,1.90157273592877,1.93398700841271,1.90050711429899,1.90347147992364,1.90195054723387,1.82358860756782,1.93765855930076,1.8956343172101,1.89680650100286,1.89681618847222,1.93407419563696,1.82091486602402,1.89576994178116,1.82204829993933,1.89656431426882,2.01166113775408,1.89763962336795,1.93714512342459,1.93677699958885,1.9374454349748,1.82475110389121,1.89865680765092,1.9023477334777,1.9048955379198,2.01203894905918,2.01152551318302,2.01177738738642,1.93682543693566,1.93688356175183,1.9211704864473,1.93755199713778,2.03267325879941,1.91086301904655,1.98808183732793,1.98527247121306,2.00082085953844,2.01382144342172,1.98604746876199,2.00560646940308,1.9913949518496,1.98439091150115,1.98381935080882,1.90846052664487,1.98658027957688,1.9857665321505,1.9881883994909,1.98077748542927,2.01352113187151,1.98454591101094,1.98434247415435,1.98270529183223,1.98404216260414,2.00144085757758,1.98323810264712,1.91083395663846,1.98868246042835,1.99528931453296,1.9848849724386,2.00156679467928,2.0004527357027,1.99055214201514,2.00890989645538,2.00200273080056,1.99826336762698,2.00530615785287,2.00432772344734,2.01516800166298,1.98978683193557,2.00126648312908,1.91666581319415,2.01229082326258,1.91679175029585,2.00930708269921,1.9957833754704,1.91572612866608,2.00087898435461,2.00874520947624,1.9162492520116,1.9172083114784,1.91681112523458,2.0083770856405,1.91511581809629,1.91713081172351,1.91550331687076,2.00086929688525,2.01440269158342,1.91442800777162,1.91379832226312,1.99392338135298,2.00493803401712,2.00476365956862,1.99141432678832,1.99085245356535,1.99127870221726,1.98978683193557,1.99190838772576,1.99779836909762,1.99354557004787,1.99362306980277,1.98942839556919,1.91391457189546,1.98920558377387,1.99041651744407,1.99194713760321,1.85088789622883,1.85023883578161,1.84917321415183,1.84763290652333,1.84719697040206,1.8478944681961,1.85049070998501,1.84684822150504,1.84732290750376,1.84509478955059,1.94740415347853,1.89435557125437,1.92313704272771,1.92151923534432,1.94454635001686,1.84632509815952,1.84398073057401,1.84416479249188,1.84495916497953,1.84745853207482
1.79442932478938,1.89800774720369,1.89792055997944,1.79309245401748,1.7916490210826,1.79026371296389,1.88148092447279,1.78860715570306,1.79032183778006,1.89408432211224,1.9004296145441,1.89664181402371,1.78663091195329,1.88483278887191,1.89093589456972,1.89491744447734,1.78637903774989,1.78492591734564,1.78497435469245,1.96742815264898,1.78089593009122,1.77976249617591,1.78283342396354,1.96064692409585,1.7802953069908,1.88177154855364,1.88202342275704,1.9656553457558,1.77949124703378,1.88014405370089,1.95156976530403,1.77843531287337,1.77994655809378,1.78001437037931,1.8304570233452,1.83270451623709,1.92118986138602,1.84490104016336,2.01201957412046,2.0074180261737,1.93144889143997,2.00864833478262,2.01135113873451,1.92720577985958,1.93027670764721,1.90819896497211,1.90889646276614,1.93196232731613,1.90533147404107,2.02418703563864,1.90543803620405,1.9055252234283,1.9333573229042,1.90040055213601,1.90027461503431,1.90014867793261,1.82463485425888,1.89802712214242,1.89785274769391,1.89992586613729,1.90069117621686,1.89724243712413,1.89771712312285,1.89440400860118,1.9374454349748,1.89687431328839,1.89481088231436,1.82229048667337,1.93581794012205,2.03067764011092,1.89833712116199,1.93868543105309,1.90147586123515,2.02165860613526,1.90413991530959,2.02400297372077,1.83286920321624,1.91009770896698,1.9129942623061,1.8398441811566,1.84407760526762,1.92164517244602,2.02854639685136,2.02856577179009,2.01233926060939,2.00798958686603,2.00648802911498,1.98474934786753,1.98394528791052,1.91000083427337,1.98486559749987,1.98429403680754,1.9901840181794,1.91003958415081,1.90752084211679,1.98778152577772,1.98744246435006,1.98919589630451,1.98228873064969,1.98233716799649,1.98677402896411,1.9836740387684,1.98410028742031,1.98429403680754,1.99151120148194,1.99148213907385,1.99850555436102,2.00172179418907,1.99976492537803,1.98693871594326,1.91188020332952,1.99414619314829,1.99205369976619,1.99191807519512,1.99541525163466,2.00492834654776,1.91487363136225,2.0030005401448,2.00130523300652,1.99125932727853,1.98923464618196,2.00394022467288,1.99481462853424,1.91825455816946,2.01741549455488,2.00522865809797,2.00449241042649,2.00727271413327,1.91534831736097,1.91771205988521,2.00499615883329,2.01537143851958,2.00891958392475,1.99947430129718,2.00756333821412,1.91704362449925,2.0128430090162,1.91699518715245,1.99801149342357,2.02159079384973,2.00391116226479,1.91711143678479,1.99070714152492,1.9903099552811,1.99076526634109,1.98975776952748,1.98928308352877,1.98958339507898,1.99325494596703,1.99787586885251,1.99294494694745,1.99209244964363,1.91731487364138,1.91602644021629,2.01399581787023,1.91508675568821,1.85193414291989,1.84985133700714,1.84898915223396,2.02116454519782,1.84959946280374,1.84820446721567,1.84741978219738,1.94465291217984,1.94454635001686,1.84636384803696,1.84712915811653,1.84624759840462,1.8462282234659,1.84419385489996,1.94669696821514,1.90592240967213,1.84425197971613,2.0279070238735,1.84639291044505,1.84490104016336
1.84640259791441,1.79595025747915,1.794070888423,1.79506869776725,1.84028011727787,1.84117136445914,1.79289870463025,1.79082558618686,1.79011840092347,1.78976965202645,1.79037996259623,1.88498778838169,1.78767715864434,1.83572700667792,1.83686044059322,1.7848096677133,1.96791252611706,1.78517779154905,1.78349217188013,1.78438341906139,1.78441248146948,1.78474185542777,1.96201285727584,1.88086092643365,1.87328532539287,1.87461250869541,1.83004046216265,1.82947858893968,1.78139967849802,1.78241686278099,1.8300792120401,1.78199061412908,1.78197123919035,1.88026999080259,1.87936905615196,1.78466435567288,1.91883580633115,2.00840614804858,2.01131238885706,2.00929739522985,1.91472831932183,2.01390863064597,1.91362394781461,2.0149355023983,2.00836739817113,1.93457794404377,1.83465169757878,1.90838302688998,1.93402575829015,1.90664896987425,1.90780177872828,1.93591481481567,1.90311304355726,1.90403335314661,1.90092367548154,1.93685449934374,1.90242523323259,1.82508047784951,1.82639797368269,1.93763918436203,1.89845337079433,1.89516931868074,1.82236798642826,1.94139792247434,1.9400707391718,1.89758149855178,1.89681618847222,1.82322048373208,1.89814337177476,1.94146573475987,1.93859824382883,1.82603953731631,1.94173698390199,2.02889514574838,1.9388598055016,1.9396154281118,1.93903417995011,1.91126020529037,1.91326551144823,1.91492206870906,1.91513519303502,1.84801071782844,1.92347610415536,2.02170704348207,2.0103436419209,2.00011367427504,2.00417272393756,1.91139582986144,1.98756840145176,1.98626059308794,1.98549528300838,1.98667715427049,1.99054245454577,1.98563090757944,1.98544684566157,1.9089836499904,1.98849839851048,1.98669652920922,1.98575684468114,1.98568903239561,1.98579559455859,1.98550497047774,1.98456528594966,1.98465247317392,1.91079520676102,2.00397897455033,2.00081117206908,2.01518737660171,2.00724365172519,1.91235488932824,1.99288682213128,2.00442459814096,1.99440775482106,1.99149182654321,2.00097585904823,1.99411713074021,2.0001233617444,1.91552269180948,1.91610393997118,1.91689831245883,2.02378984939481,2.00688521535881,2.00118898337418,1.91679175029585,1.99826336762698,1.99780805656698,1.91826424563882,2.00193491851503,1.99863149146272,1.99854430423846,2.00186710622949,1.99865086640144,1.91677237535713,1.99237338625512,1.99230557396959,2.00828021094688,2.00773771266263,1.99686837203891,1.9946499415551,1.99976492537803,1.99210213711299,1.99849586689166,1.99037776756663,2.01849080365401,1.99276088502958,1.99249932335682,1.99532806441041,1.99208276217427,1.99112370270747,1.99431088012744,1.99446587963723,1.99160807617555,1.99063932923939,1.91497050605587,1.91495113111715,1.98964151989515,1.85035508541394,1.85047133504628,2.04484072031759,1.84954133798757,2.02290828968291,1.84448447898081,1.84482354040847,1.94131073525008,1.95636506263802,1.84507541461187,1.84739071978929,1.84690634632121,1.84758446917652,1.90038117719729,1.90021649021814,1.84634447309824,1.90571897281553,1.90245429564067,1.84667384705653,1.84535635122336
1.89102308179398,1.90037148972793,1.90748209223935,1.9094873983972,1.91441832030226,1.79362526483237,1.79205589479579,1.79363495230173,1.78899465447752,1.7906899616158,1.78913996651794,1.78974058961836,1.79283089234472,1.8383038735281,1.8376741880196,1.8392144956481,1.78383123330778,1.96928814676641,1.88712871911061,1.78572997730266,1.97029564358001,1.78427685689842,1.88737090584465,1.78565247754776,1.88641184637785,1.83049577322265,1.78386998318523,1.78279467408609,1.78304654828949,1.83048608575329,1.83092202187456,1.95703349802397,1.87633687824178,1.88086092643365,1.78460623085671,1.95472788031591,1.92386360292983,2.01431550435916,1.9153676922997,2.01519706407107,1.91798330902733,1.91987236555284,2.01760924394211,1.91148301708569,1.91251957630738,1.9123645767976,1.91271332569462,1.90917739937763,2.03784636743851,1.93437450718717,2.0330026327577,1.90382991629002,1.9034327300462,1.90397522833045,1.93768762170884,1.90113679980749,1.82651422331503,1.9003521147892,2.02157141891101,1.94073917455775,1.89792055997944,1.89761056095987,1.89811430936667,1.89882149463007,1.89787212263263,1.89555681745521,1.89731024940966,1.94112667333221,1.89765899830668,1.89814337177476,1.89907336883347,1.90062336393133,1.82779296927076,1.90347147992364,1.90410116543215,1.9403226133752,1.83570763173919,1.91018489619124,1.9137014475695,1.91666581319415,1.84341885735103,1.94104917357732,1.93795887085097,1.94149479716795,2.00763115049965,1.99968742562313,2.00834802323241,2.00181866888269,1.9870549655756,1.98536934590668,1.98877933512196,1.99466931649382,1.99222807421469,1.91154114190186,1.91064020725123,1.98646402994454,1.9906877665862,1.98938964569174,1.98692902847389,1.91023333353804,1.98565028251816,1.98616371839433,1.98780090071644,2.00936520751538,1.98723902749347,1.91373050997758,1.98686121618836,2.00865802225198,1.98882777246877,1.98869214789771,1.99192776266448,1.99468869143254,2.01166113775408,2.00452147283458,1.91507706821885,1.91560019156438,2.00716615197029,1.91602644021629,1.99916430227761,2.01173863750897,1.9181673709452,1.99700399660997,1.99779836909762,1.91819643335329,2.00024929884611,2.00202210573928,2.00163460696482,1.91911674294264,2.01057614118558,2.00344616373544,1.91780893457882,2.00830927335496,1.99140463931896,1.99359400739468,1.99352619510915,2.01507112696937,1.99084276609598,2.01543925080511,1.99123995233981,1.99124963980917,1.99210213711299,1.99124963980917,1.91471863185247,1.99156932629811,1.91517394291246,1.989476832916,1.99769180693464,1.9975755573023,1.9936133823334,1.99454337939212,1.99250901082618,1.99374900690447,1.9913949518496,1.91554206674821,2.00509303352691,2.00414366152947,1.90011961552453,1.89790118504072,1.89756212361306,1.8486500908063,1.84698384607611,2.02872077129987,1.84461041608251,1.84568572518165,1.84445541657273,1.84562760036548,1.84414541755315,1.84453291632762,1.95055258102106,1.89777524793902,1.89669993883988,1.8466835345259,1.94394572691644,1.84452322885826,1.8441841674306,1.84594728685441
1.79835274988083,1.79816868796296,1.79859493661487,1.895256505905,1.89791087251008,1.8981821216522,1.79383838915832,1.9768346853991,1.790186213209,1.79353807760811,1.79085464859495,1.8907905825293,1.79285026728344,1.78955652770049,1.8750193824086,1.87705375097454,1.83846856050725,1.78720247264562,1.84200448682424,1.84348666963656,1.78690216109541,1.83513607104686,1.78599153897542,1.7848096677133,1.78546841562989,1.7856427900784,1.83303389019539,1.83290795309369,1.78348248441076,1.83089295946647,1.78473216795841,1.78478060530522,1.78423810702097,1.7845577935099,1.78474185542777,1.78479998024394,1.9356048157961,1.9210445493456,1.93692231162927,1.91843862008733,1.91806080878222,1.91722768641713,1.91515456797374,1.9131976991627,1.91343988589674,2.01355019427959,1.91112458071931,1.91080489423038,1.90799552811551,1.83446763566091,2.01632081051701,1.90823771484955,1.90543803620405,1.90538959885724,1.93856918142075,1.90320023078152,1.90363616690279,1.90115617474622,1.90133054919473,1.90244460817131,1.90012930299389,1.89869555752837,1.89930586809815,1.89856962042667,1.89787212263263,1.93927636668415,1.94077792443519,1.89865680765092,1.8262429741729,1.90054586417644,1.82679515992651,1.94206635786029,1.90328741800577,1.90671678215978,1.90457585143087,1.90767584162658,1.91026239594613,1.91177364116654,1.91560019156438,1.91856455718903,1.92047298865326,1.92451266337705,1.94256041879773,1.9430738546739,2.02243360368419,1.91519331785119,2.0027486659414,2.00176054406652,2.0103436419209,1.91417613356822,1.98777183830835,1.91400175911971,1.9137014475695,1.91353676059035,1.91186082839079,1.98779121324708,1.99033901768918,1.98888589728494,1.99125932727853,1.99860242905463,1.99172432580789,2.00534490773031,1.91421488344567,2.00974301882048,1.99488244081978,1.9878105881858,1.91220957728781,1.98723902749347,1.91345926083546,1.98731652724836,2.00410491165203,2.0074664635205,1.99814711799464,1.99697493420188,1.91513519303502,2.01114770187792,2.01481925276596,1.91555175421757,1.91538706723842,1.91729549870266,2.00518990822053,2.00496709642521,2.00264210377842,2.0061295927486,1.99960023839888,1.99908680252271,2.00156679467928,1.92024048938859,2.00259366643162,1.91772174735457,2.00662365368604,1.99563806342998,1.99474681624871,2.01160301293791,2.00521897062861,1.99275119756022,2.00957833184133,2.01121551416345,1.99191807519512,1.91674331294904,1.91734393604946,1.99355525751724,2.01182582473323,1.99262526045852,2.01002395543197,1.99092026585088,1.99585118775594,1.99413650567893,1.99461119167765,1.99303213417171,1.99221838674533,1.9971977459972,1.99499869045211,1.98856621079601,1.9905618294845,2.00577115638222,1.9237957906443,1.92240079505622,1.89962555458708,1.84884384019353,2.0426416647725,1.84699353354547,2.04700102598523,2.03816605392744,1.84376760624805,2.03162701210835,1.94992289551255,1.84423260477741,1.84412604261443,2.02343141302843,1.84522072665229,1.84547260085569,1.84314760820891,1.94709415445896,1.84617978611909,1.8469354087293
