1.81335781252562,1.76567193194302,1.7654245878673,1.76555888840502,1.76645670438167,1.75644111185031,1.71966758632906,1.72008517633926,1.72042701622713,1.7216923318271,1.88974382058572,1.72187276260466,1.72113610839364,1.72104593565553,1.72046239345783,1.72143359965818,1.72202839405719,1.72184784731818,1.81609721258817,1.73563736069449,1.72028806950049,1.71993368985942,1.71962549111809,1.71643509722143,1.8074849232687,1.71995857038622,1.72124871149872,1.71919873284999,1.71956381568415,1.71977246816508,1.72013264740568,1.75272770143026,1.76810831384796,1.76820865061082,1.80120804198642,1.76836542334938,1.76916894534243,1.76923306282142,1.76963335071684,1.72438543435338,1.72305360741282,1.75439684389753,1.93907601761074,1.83683523892368,1.79040351493336,1.79087088536404,1.79156300813686,1.79141503253179,1.79131827753764,1.79113765027506,1.79044952597335,1.93350065326039,1.93958504247895,1.91578613168191,1.79245426299949,1.87458181126688,1.86337594405196,1.88305586334054,1.95954565656565,1.89425074908401,1.94045456998965,1.93993835281301,1.94360889138999,1.88279638587851,1.86077412209512,1.86474504347385,1.87233733006995,1.86598793370797,1.86790237971719,1.8630900877965,1.79260580315177,1.86304221825799,1.86195746544602,1.86377620783984,1.86210609539948,1.86676969574518,1.87847538974645,1.86586719602429,1.86432328850983,1.86684543601358,1.86606544720814,1.86741712127605,1.86814626297864,1.86966404857525,1.95565258035072,1.88357501115445,1.882548874771,1.88016559569022,1.87720680417408,1.88175334952229,1.88302335000608,1.92321449702588,1.95838509558207,1.95785623887255,1.94178132280769,1.94017387599451,1.93489914650319,1.93729023786852,1.93690215988659,1.93671024398436,1.93716300674458,1.93776324655046,1.94002844015794,1.90308303148459,1.86668600889013,1.86653231938472,1.86807322316292,1.86794979521231,1.8693457392648,1.93343655641688,1.94358937418997,1.94240692995377,1.94359091463309,1.95160812852712,1.95248095328521,1.95167465922715,1.96530290822179,1.95793021526086,1.95898256944751,1.95640888521926,1.97502020004346,1.90776450265467,1.87752421629546,1.95084450975006,1.97871249902124,1.96992531091339,1.87855726488911,1.96103792161379,1.96492622722998,1.96432599088226,1.97578979188677,1.97648769449916,1.95668746908204,1.95521702150049,1.95855361213767,1.96584175857587,1.9654926220337,1.97158675431133,1.97116115664054,1.96893109394439,1.96793919100205,1.96232962630821,1.95876917352917,1.96438338912331,1.97938342572969,1.97219650649384,1.97649656338779,1.97023013096845,1.88982679351646,1.90330149445839,1.89030736514724,1.92141765748362,1.89045576366926,1.93099468435117,1.89227209521095,1.95960427493403,1.97435076017251,1.96920997413507,1.98791095134035,1.96401047630298,1.96689230442497,1.9644636628005,1.89303283151261,1.96829892220001,1.97076326462102,1.96897868567622,1.96964927419082,1.93393357225249,1.8959599371143,1.93689891823867,1.99809876480799,1.96511601368958,1.89827038524068,1.92658464428177,1.90043244580041,1.90254262004553
1.76480315852663,1.76536246461902,1.80219821370677,1.7654755296725,1.7660081161136,1.75122523330507,1.71847692932074,1.72049059542883,1.71980102705888,1.72227115177712,1.72178973823058,1.72241958964856,1.72197416120143,1.72137126699865,1.71985350371026,1.72174857124813,1.72191395784173,1.72227091634898,1.72208761658077,1.74326435922914,1.97185853895208,1.79589092666721,1.81338611828461,1.71599226877518,1.71899508837224,1.72004500354599,1.71959069792661,1.73841799978773,1.76641287281823,1.74191150629423,1.72113733250245,1.74035183460534,1.71647986514076,1.76740520000902,1.76658229802812,1.76762067715187,1.72060088841568,1.72147279695563,1.7214271580471,1.72327201293433,1.72318955458526,1.75511024896471,1.9371141756969,1.93832446313331,1.93965955947179,1.94095766121298,1.94148849494711,1.94002385229361,1.9389984969423,1.93816980872647,1.93834415678405,1.93598211938039,1.95230756272633,1.91673116692237,1.79319332278999,1.87928820269168,1.9379717928998,1.89360563208385,1.79302900105314,1.82753251092356,1.7904142639878,1.881179657242,1.94506408544877,1.87790216765329,1.79081798416357,1.86398739173495,1.86856935833695,1.86624701070782,1.8642768603014,1.86364334737983,1.86311074347272,1.8624664558375,1.86430831253787,1.862702340505,1.94574292502238,1.86805090025705,1.86653230829449,1.86531309771317,1.86542548868347,1.86590800622112,1.86991469957375,1.86783410934914,1.87115904181705,1.87103575927228,1.96430384338236,1.88393269003825,1.87207945680448,1.88096826208173,1.95693121159366,1.88030376469687,1.87503715396211,1.92595827940264,1.96035408949599,1.95486732599459,1.86278250440405,1.93716788341038,1.95038857959328,1.94451125338264,1.93728853992017,1.93769316973867,1.94493680865723,1.93923725606924,1.93983184247211,1.93838266994872,1.93632695313861,1.93641563557227,1.93668754238448,1.93791639779154,1.93867109997977,1.93838242995631,1.95282165592191,1.94091104648535,1.94292145486529,1.95068970248307,1.95974996635381,1.95122488497113,1.94995458349134,1.95711690847488,1.97554454233492,1.95399488080578,1.944958123175,1.92258343727323,1.87731393158561,1.95123933530485,1.96821313278998,1.97014768695487,1.87933262761489,1.96226320101718,1.96491647752033,1.96515228365767,1.97587879815319,1.97667800982191,1.97680439117394,1.95278118849353,1.95619469976875,1.96775719190555,1.97192320074224,1.97065674227983,1.96938110150066,1.96867781380973,1.9556676878962,1.96077278481999,1.97075819265708,1.96096782356219,1.89220583419627,1.97263790951054,1.97342480195693,1.96917245112593,1.88900319592611,1.91405398900123,1.96885172560796,1.97277866434266,1.97570621724143,1.97134812420396,1.96452941912606,1.96246651863915,1.96489176019407,1.96519582453983,2.00226969359775,1.96459189968792,1.96587522787849,1.964034607066,1.89338526822707,1.9680166198678,1.97284814959466,1.9678612401952,1.89585286048491,1.92302229265419,1.97204488614956,1.97336856542215,1.97110194770384,1.96978390804161,1.97400944458148,1.97104494444207,1.9866580062615,1.90716187954465
1.71805592128599,1.71678570510495,1.7166435400103,1.74347065927328,1.71736428143205,1.74542751523475,1.98530562908371,1.72047647960234,1.72179053565325,1.72068692608786,1.72279918364531,1.72133790904255,1.72216968115666,1.74347507247059,1.76913445140831,1.73566071698584,1.72145573203396,1.72158416392611,1.72169114823145,1.75098146549971,1.76715928195802,1.78641162303665,1.80712109857016,1.71563369565266,1.71860123104408,1.71958290489777,1.76691034540266,1.74984813958768,1.76675552213339,1.74955223006195,1.82942895955928,1.75041873232389,1.7685425180068,1.76762327881948,1.76721460756671,1.76771825133976,1.76802450632324,1.72100532932684,1.72189764999929,1.72188147100535,1.72220025965687,1.75583319068959,1.9449413141567,1.94408818329145,1.94239330405209,1.94213356376768,1.94343340029162,1.94155905788505,1.94107995791071,1.93912678854164,1.93984695873719,1.93679181929225,1.94590665923406,1.91773929426983,1.79143924318684,1.88221275685955,1.93878611948838,1.93925532552046,1.94272963779734,1.84535292328856,1.7918368291761,1.87773096397215,1.97889444260359,1.87339197031884,1.86266343816392,1.86255802231706,1.79171189365769,1.86775177723189,1.86946006938862,1.86605811717422,1.87321983936537,1.8620464244672,1.79096216311424,1.86252634918126,1.87670254889815,1.87097846746321,1.87459097223465,1.87146068380206,1.88209348498253,1.86603030047758,1.86456311685392,1.8662809965345,1.86672976721195,1.87195116163319,1.88225239715464,1.88306114550693,1.88229219150717,1.88048871793693,1.87615268816601,1.87860280535412,1.87686059772565,1.92709278033316,1.96532751563335,1.95288792673131,1.94216382567922,1.93740724225912,1.95226883096753,1.95218489701584,1.95228840026185,1.93847509070556,1.93957948955409,1.93912361434571,1.94121553158748,1.9394616386503,1.93908538150703,1.93924614200988,1.93962610038465,1.93943994401761,1.94080392015333,1.94016522372605,1.94152885668108,1.93987388734929,1.87238482271058,1.94971205320227,1.9600742861533,1.95105485017883,1.94566088372293,1.95599678246084,1.96275142774699,1.95263864452324,1.94578502998498,1.94320810711555,1.96348831007831,1.95944813792721,1.98905381105748,1.97173435730131,1.97334780710359,1.96319263231331,1.96688017402285,1.96646407693539,1.97025421264572,1.96760919333245,1.88513024234854,1.9516238386135,1.95582642764249,1.96740534289347,1.9728595603563,1.96977962624503,1.98970606143433,1.9683928573484,1.96011380808,1.96002374723596,1.95911431046561,1.95798850817998,1.88614785580302,1.95598877439358,1.95765376517025,1.96397126659394,1.88932870943624,1.92459683678817,1.96588930238265,1.97864094355815,1.98182070977301,1.98268063637069,1.98467215505295,1.97971337562386,1.98261688805116,1.96410838670126,1.96596269268789,1.96571693997166,1.96709115731567,1.96635296028225,1.96976638214763,1.9680455808993,1.97055743975783,1.96712619020382,1.89468021727831,1.91351472023637,1.89551003218237,1.97473537765658,1.98167400950943,1.97054951363875,1.97204600383992,1.96987329584342,1.97011480064477,1.90950036038105
1.71941659380861,1.71758361938871,1.76678551189336,1.75781852288711,1.76741954926613,1.73915741051459,1.72221564187512,1.72156065726052,1.71925545791534,1.72182168680951,1.71934006735866,1.72147049953367,1.72041758680294,1.75398395206052,1.76891024554159,1.74216661433736,1.72158914277848,1.72140714572633,1.76918675379333,1.75820871380174,1.76857293478208,1.77857054796396,1.80652183734738,1.71596918438059,1.71950618894522,1.7188727096968,1.71747428358728,1.73670669214383,1.71728771559111,1.73305543017996,1.71719909741617,1.71793590358989,1.71818004674732,1.73020948643503,1.71939257124609,1.71938940394036,1.71871646074713,1.72044757149754,1.7196639123604,1.72161059957386,1.72112660214726,1.75676675191921,1.94316346298235,1.94339435541193,1.94206116409916,1.94141876012287,1.9438237597731,1.9416679884919,1.94155956012481,1.93883053141494,1.79314407123455,1.93959620678259,1.93968023180922,1.91820354403975,1.95476852733375,1.90195605037841,1.9393634127366,1.93975580754579,1.94233489856434,1.8709361594657,1.94155212352318,1.872653405572,1.79143152725318,1.86617947120057,1.86756664855516,1.86776291337503,1.9463580885452,1.8687195836141,1.86001205918218,1.86600869759651,1.86720383078562,1.86312173213524,1.86327202167296,1.8628994569393,1.86387207146656,1.86695768956086,1.86657199847687,1.86854626535864,1.86563414485508,1.86484968849788,1.86416915754463,1.86400352282666,1.87990608626227,1.87476235825536,1.95979556674679,1.88326915440641,1.88097953703454,1.88066538572597,1.88110854950367,1.88095808043851,1.88328851351061,1.92705659944492,1.99204336631163,1.95309698745589,1.93667393905567,1.93596666540581,1.93625247834757,1.9501898839032,1.95028341965739,1.93891374874607,1.93867171617658,1.9386505197264,1.93938581178497,1.93987336444192,1.94028368237997,1.93995775249531,1.94018714143364,1.94047325763622,1.94130568561154,1.94110335663833,1.95352514364124,1.95431022697382,1.95398197148885,1.94997024126575,1.8718273297916,1.95119245290052,1.95360660176269,1.95473789376518,1.94898077545874,1.95210860631602,1.94733456680443,1.94549680938597,1.94927473319,1.95744731574417,1.87895968365326,1.91831321707175,1.87922929755197,1.90415184908099,1.87967104626213,1.95735649290486,1.95691598059593,1.96549044174638,1.96605718479688,1.96321159226943,1.97212641068321,1.96592675710538,1.96755603330825,1.96689981373404,1.96867068573798,1.96864573234523,1.9723786396596,1.96063096696663,1.96040630631381,1.95677393171985,1.96996473103137,1.95707238039301,1.96109673351391,1.96256834079151,1.88937666880045,1.93436837469577,1.98170883966908,1.97822637414528,1.98477648663031,1.98323666786545,1.98928758452107,1.97692254965183,1.96441962079497,1.96330312799659,1.96570471834186,1.96596630113045,1.98540151732266,1.96571719859426,1.96664877758283,1.965656688886,1.96602845526963,1.96652923067293,1.97010887393831,1.93076642205493,1.8956958566338,1.97201533988665,1.96808793313935,1.96875792920838,1.96819076914182,1.96733608888115,1.98366619160934,1.98721490660066
1.72077667753455,1.71821320063749,1.81008973394396,1.74758230860796,1.72007932202256,1.73343957649428,1.76752714342453,1.72068807175537,1.72302339768772,1.72078494363558,1.72193557047488,1.72091143219681,1.81630845449632,1.78219651870566,1.81721185718683,1.74667265333646,1.72095742334379,1.72080952500659,1.72123017174258,1.74632347079996,1.82004771583628,1.75859096189982,1.7195420271261,1.71807941624966,1.7193203487713,1.71920724225336,1.82256604150782,1.77273857529868,1.81580885468685,1.73364198929829,1.71699800652374,1.71759877242492,1.71703976681319,1.73302821779107,1.89720267829991,1.7192465051941,1.71863331730404,1.71951525438602,1.72087776159306,1.72065339006352,1.72122320603653,1.75810939264584,1.93949954572951,1.94262557922583,1.79028932801144,1.93964327441529,1.94333359054252,1.94086123584377,1.94100717020566,1.93828193635286,1.93922555923069,1.9407630195667,1.79247123613094,1.88582127253554,1.86575146096304,1.90311538702781,1.94054983561993,1.87950548682832,1.79262502701263,1.86218680838772,1.86246170777231,1.86575430949865,1.79119443297598,1.86651129171923,1.86801641327492,1.86790875536442,1.86849865984973,1.86820405530672,1.79110702889556,1.82034509152313,1.78737720076198,1.86268015711131,1.86343747118736,1.86267573973224,1.78947231395763,1.86789060398793,1.87450980310059,1.87091686255279,1.87976113924643,1.86425344947213,1.86431623161654,1.86356996753616,1.96338081665322,1.87041680038561,1.86874627838728,1.87344962820729,1.87194538405996,1.88028453955204,1.88441122313858,1.8811883271924,1.80455343219695,1.92685096427331,1.95982524357881,1.95506451812004,1.952078662183,1.94452604968009,1.94568775871652,1.94647373066962,1.93894797927413,1.93936183877683,1.86330208599649,1.93749210438187,1.94042581262202,1.94042619338053,1.9430839405166,1.9408964260611,1.94229031313123,1.9409739344074,1.94209467600316,1.94167647228569,1.87107827918152,1.9524887445537,1.96367809204924,1.94820163183058,1.94902684761808,1.9493322958414,1.96640108454582,1.95729481922931,1.96177894090465,1.96293218145526,1.96055011067628,1.95899598276808,1.98118185993087,1.96479816320517,1.96936748432711,1.95754653224794,1.96176672649089,1.91886757484033,1.87944038242603,1.95954217986899,1.97878818961012,1.96357336630185,1.88320808142213,1.96037179535882,1.98246712317631,1.96003529254674,1.88363099510606,1.96332388040431,1.96717984503197,1.96528180641685,1.96538559671159,1.96230974076336,1.95860741756396,1.95544121108674,1.89028286535564,1.9572835036944,1.96143891331643,1.96030770538322,1.96066925654295,1.95641103244904,1.98427598531807,1.9752235922636,1.96590745669338,1.98198300967043,1.99242757802068,1.97548465820864,1.96351816328193,1.96093918933501,1.96372571212942,1.96552829094226,1.98908909074422,1.96398014369006,1.96521314492691,1.96487700860147,1.96703565864282,1.96561530785768,1.96830225564076,1.9673779978091,1.96876219162616,1.97106667842053,1.99367722267248,1.96987057572762,1.96851044114029,1.96698888898512,1.89891520245926,1.98656683954847
1.72013928153052,1.71762904867307,1.77056056720173,1.73956660105105,1.7192719471127,1.71887835777252,1.71898353741287,1.71987697590128,1.7204732798276,1.72122699281707,1.72114937539999,1.7214633242382,1.75588755863993,1.77000666622014,1.78309144089935,1.75212984157355,1.74909584341105,1.7199752300862,1.71951652121155,1.7180338455989,1.71734681833059,1.71762115648585,1.71823326822082,1.71854854242263,1.71866327187034,1.71879152166795,1.73280199861654,1.73225409600441,1.73183664580044,1.73151433748553,1.72966986739499,1.7293258866815,1.73013866081477,1.73197911288223,1.73299087987034,1.71917262824973,1.71924037871143,1.71965490337292,1.71978512252809,1.72049490881982,1.72057832744269,1.75997152268013,1.9416812218441,1.94275032878292,1.94159475852586,1.93993231326565,1.94042007743798,1.93965259086428,1.93897412551225,1.93735650865635,1.93805431205392,1.94036548341355,1.90242483996602,1.90383852924463,1.90406293967948,1.90385142246442,1.87950870682528,1.87591303953455,1.86141375954687,1.86297691432838,1.86530303811111,1.86618568747427,1.86678689134608,1.8667128110108,1.86763957000871,1.86758711914798,1.86689118275388,1.86724097790932,1.82000233627103,1.83165415336007,1.84229596277316,1.86259147756336,1.86310722331558,1.8658588518609,1.8670069262333,1.86940169242279,1.86912563982202,1.86821496178104,1.86551915469807,1.86385084285321,1.86381069141818,1.86397942202766,1.86600655654586,1.86837486890881,1.86845786590731,1.87479142014014,1.87695831757813,1.88108456575291,1.88217755233035,1.88055934330614,1.87856422696949,1.92655867651781,1.95920422586938,1.95723586146109,1.9467395155603,1.94574862641319,1.94570356259222,1.9432979578229,1.94090291114897,1.94080689666415,1.89635810104523,1.93763656042628,1.93898764264035,1.94102940062067,1.94072733716785,1.94136998223081,1.94025498357014,1.94139995514326,1.94166847251117,1.94184999015611,1.90101139939376,1.94935485990416,1.9495821470365,1.94807005807395,1.94835218931429,1.9492613538893,1.95110100162284,1.95491003221973,1.96068131301013,1.96390636755935,1.96245422689997,1.95951775708512,1.96258762228729,1.96233971716981,1.9625482441302,1.95596529399539,1.95546826367334,1.93988038349376,1.94099704511786,1.96120433430636,1.96601885330706,1.96376524436334,1.96267343146247,1.96062492210672,1.95967021354124,1.95883184346501,1.95813201508697,1.95971166461083,1.96167314857371,1.96207133421242,1.96252749505597,1.96180817585932,1.95958849564621,1.95658385643718,1.95636636273226,1.95660522595279,1.95845629618063,1.95844958499009,1.95797137109645,1.95632317545574,1.96509386928266,1.96540950215925,1.96590273324052,1.96331354426264,1.96154716375322,1.9616602501977,1.95926875767067,1.95671056057799,1.95576655960587,1.96484940132322,1.98421530651886,1.96297490849986,1.96456487792245,1.96432740787023,1.96518392244086,1.96521383406759,1.96643540024974,1.96747223471859,1.96948311594338,1.97176678662655,1.97316631412925,1.9712924458901,1.96941700162319,1.97018093616614,1.97770963291051,1.98353505870176
1.71900151118919,1.71737842137742,1.81410754306905,1.73497213193367,1.72021492453279,1.71924905080452,1.71941177167408,1.71953288771281,1.72058798870961,1.72132094908183,1.72254564826695,1.72180538646857,1.72154764768204,1.75880936313301,1.8194420282477,1.7595269092184,1.76942830357202,1.72000078488391,1.71970936253035,1.71841636850339,1.71860172482038,1.71783595989837,1.71991352129922,1.71838363935746,1.71804286372796,1.71801714216778,1.7170951032858,1.73183779118547,1.71797954555353,1.74614590975219,1.81941332845337,1.77166336250882,1.81168533669795,1.7479624427817,1.71719777913132,1.71860730842878,1.71871934180148,1.71934011484793,1.71936465393805,1.71984412888463,1.72007799699142,1.76226939993616,1.94129369384694,1.94236773791499,1.94127442335719,1.9406544468648,1.94242446940948,1.94048345413636,1.94074965091111,1.93862834432015,1.93901828255531,1.93891123113728,1.94213838484577,1.94579074578476,1.94397423817278,1.90361908638191,1.79216365437625,1.87125834037868,1.86248470591039,1.87212682418583,1.95987200725764,1.86693030168492,1.86751495448701,1.86731119846637,1.86888057757743,1.86788780115471,1.86522877015204,1.86652994782565,1.79079914983975,1.84158158026847,1.87204610452706,1.86634816976324,1.8619969614992,1.86990729858007,1.87669523628608,1.87427524590483,1.8666938237849,1.86747773037042,1.86292492313888,1.86295463553655,1.96008392464811,1.86382421049114,1.86546720551384,1.86953649003204,1.86880724598645,1.87541465400262,1.88417300582058,1.88268135164376,1.88354152455511,1.88110749546292,1.87856497336667,1.92612867463048,1.96024516233191,1.95786633772354,1.94114016619817,1.9479579758968,1.94943357698225,1.93994969318755,1.94129166153671,1.94227535065935,1.86352314757637,1.93901271334158,1.94610521729895,1.94051306884283,1.94691499084996,1.93989389811285,1.94437630681217,1.9404139595067,1.94190351247729,1.94133586279218,1.86915587813352,1.94549920752994,1.94501868258041,1.94771420660384,1.96850685776381,1.95099764584869,1.9531304835748,1.95212348093577,1.87308708000497,1.90656150790118,1.8754132945097,1.95935850881673,1.96630999576477,1.96103306213166,1.94991195714951,1.95652951737643,1.94535391737782,1.94267621311252,1.94462995307523,1.95948349415724,1.95569472979277,1.96417097167703,1.96702909823639,1.96409069563858,1.96327100709756,1.96242039373579,1.96129073064277,1.96009269466498,1.9609905577334,1.96067040153941,1.97664535118994,1.97286212772102,1.97603744274058,1.95727527903599,1.96031946902026,1.95815804912882,1.9603709611829,1.95934776951066,1.96099982958445,1.95889964682407,1.89040764571667,1.96657306087015,1.96966797498479,1.96462031932574,1.96285871757256,1.96009517904258,1.96265221230081,1.95758076150513,1.89269541844112,1.96509704087111,1.99292990725918,1.96493858248058,1.96801463607476,1.96675331679954,1.96985138229446,1.96678796646669,1.9689076317634,1.96840789533061,1.97034172382721,1.93671739358103,1.89595443126505,1.93859015812164,1.9704485061512,1.96960697411865,1.98658071744038,1.98404406941454
1.80923429453672,1.71863079344403,1.71906852156948,1.7208805158979,1.71854436605725,1.72014221686361,1.81546282520526,1.74527059749312,1.76869015583581,1.72178493763542,1.72132000774978,1.72197364091669,1.89208913151647,1.74747690937537,1.72238453002675,1.72137449602146,1.72051498234016,1.72039792705851,1.78705957192508,1.71948596563922,1.71925574919172,1.71981413157299,1.71767659293101,1.71963156708242,1.76665318884597,1.74059321379599,1.71640657257189,1.75566747604193,1.82218591546199,1.75178027541301,1.71643573486747,1.74723148428094,1.76255725936547,1.75495280059422,1.81776968841584,1.71806746236655,1.71953066887156,1.71860277993995,1.71856494175391,1.71946704179729,1.7197401354061,1.76462425027698,1.94505287256092,1.94330114249144,1.94206036656104,1.94143793550118,1.94160109246214,1.94083965938538,1.94169839719527,1.94104039464692,1.94475666262106,1.93828149553121,1.79195219190907,1.94777055895909,1.96680239866568,1.90283806967625,1.94367636006291,1.87576305765706,1.79208675892949,1.88418995047722,1.94044348278889,1.86677348906476,1.86438555034585,1.86610958991971,1.94732889347965,1.86828526775098,1.86905925076181,1.86793587100236,1.87294634077318,1.87043083994793,1.87159501876672,1.86748466027225,1.87501294957835,1.8756744725893,1.94954446180371,1.8776757710178,1.8790290376829,1.87292659504538,1.87926449733896,1.86366792688177,1.86545612473644,1.86373878553778,1.88016030804899,1.87251352615152,1.95630705009906,1.87775648618857,1.87226950814544,1.88288152749412,1.88432073201614,1.88354510681973,1.88472381259099,1.9257666880051,1.96135377353075,1.9604039877257,1.97369188747608,1.94933934601058,1.95083131090095,1.93811075979968,1.86487790481134,1.94316785845063,1.95602278438262,1.94179150853641,1.94066292772167,1.94496180689817,1.9355802529656,1.94496973461439,1.93991556503364,1.94149195177217,1.86795371829756,1.94057474440456,1.94043413487221,1.9426225337698,1.94458714362573,1.94864765464171,1.95266620015755,1.95233516712346,1.9633288267621,1.95976204205412,1.95813290810748,1.95674340848488,1.97202178720626,1.95851602006379,1.95968575784219,1.95990550609873,1.97239134976197,1.96896596565497,1.97497648583563,1.97178242832491,1.97529985956062,1.96054585039157,1.96420693525735,1.96366247385176,1.96758819998088,1.96674216728714,1.95957434078346,1.967608059768,1.97831774599723,1.96175486843015,1.96514883256794,1.96167713466747,1.9589848412596,1.97111413944833,1.97381484586973,1.9581366112154,1.88690842855072,1.95937916691586,1.96168586734089,1.96032302867392,1.9620717321008,1.96190125551713,1.97171585160043,1.96743297505431,1.96568235967607,1.96344603877621,1.97874929495712,1.95922491597887,1.96115785500398,1.95922873201038,1.96128335440239,1.96690126190866,1.96658004389157,1.96672751014814,1.96998159504213,1.96899012461014,1.96864555347344,1.96800159967501,1.96770044275086,1.96911512690594,1.97094414991584,1.92518574322626,1.89659799337502,1.93090608608131,1.97358421659633,1.97152526642821,1.96920148981361,1.91631669840506
1.72136550065347,1.71989410587951,1.72477229026829,1.72041879276404,1.72129879237594,1.7209078586908,1.72261535221108,1.72201244977819,1.72106802824997,1.72219949352213,1.89189689291559,1.72216609269441,1.72138980354748,1.72123452145225,1.72086726746458,1.72134794132235,1.72075577886606,1.7206090804113,1.71979000130769,1.71987379756464,1.72164152078998,1.71880753142443,1.72049168595243,1.7189169612251,1.76715160930205,1.75064206633232,1.76653228652449,1.76753724861601,1.82681020032918,1.75688620558733,1.71695457875613,1.7168683273709,1.71668765024846,1.71684189577479,1.71608510774127,1.71776190623887,1.71714932247251,1.7186695514959,1.71907428161306,1.71929202935419,1.71932172772017,1.76635119685508,1.79153914568818,1.79270127119281,1.79315957559446,1.79337041434764,1.79355519104314,1.85586983003231,1.94431120066831,1.94102872750271,1.93971434217081,1.93893532388752,1.94024321628437,1.94430649247957,1.94136531428875,1.85252211013923,1.79289416105318,1.87861788209621,1.93988167493419,1.9400199080018,1.94130968796925,1.8668766184682,1.86609377906833,1.86642866571493,1.86813321482948,1.86762737811072,1.79131824679745,1.79153686087822,1.79084688846085,1.86068815394684,1.86194237202023,1.86609426868644,1.86180473886358,1.87761529976697,1.94921765618222,1.86738823422249,1.86317335408351,1.86839852543645,1.88011594996118,1.86396728407053,1.86520069226948,1.86400612202637,1.86434619105265,1.87040690541176,1.96572555052352,1.88038806927047,1.88277188288409,1.88290693497689,1.8734194560413,1.88281904480323,1.98249894551085,1.93319796130672,1.97064157980229,1.95971565008825,1.93952507841343,1.94466268208896,1.93602889668174,1.94036304012734,1.94213518661573,1.94117665303493,1.94155803235954,1.93870129385287,1.94541147823984,1.93895006323636,1.95022850058106,1.93885810746592,1.94949552525285,1.9397469552963,1.93969259693268,1.94055990178575,1.94179459658052,1.94067560237908,1.86940512425153,1.93812725569802,1.94162972446155,1.95366917319394,1.96680425439368,1.9617784004064,1.97304815475771,1.95708538981279,1.87632571009217,1.95867843761458,1.96145977682871,1.96002236958801,1.9595688489824,1.96590853745237,1.96994618143675,1.96756859038451,1.961045905887,1.95917970209092,1.95548561000238,1.96156827329198,1.96646814540492,1.96884785163504,1.97139549142917,1.97174460315057,1.96198959024167,1.96269697284956,1.96833430104652,1.96061321641858,1.9588932221116,1.95687822609454,1.88897501089699,1.96046486883616,1.96164827769565,1.96078313204675,1.96339156481028,1.96016133510048,1.99005299036143,1.96486784330204,1.96913675815372,1.96806554565687,1.88838887484024,1.92995519050918,1.8896480848577,1.96007175963057,1.96288844470624,1.95936384456953,1.88967667628376,1.96867038306829,1.98761137917155,1.96672672727602,1.97053394830234,1.96958201120741,1.97227502087525,1.9687621663689,1.97899510273287,1.97135003093841,1.97409090110031,1.9146877121627,1.89644498415116,1.92061073744867,1.97242559776917,1.98002850288092,1.99027926544217,1.91595982616995
1.71896804746442,1.7236054290196,1.7180831323549,1.72344923243119,1.72059905626439,1.72227818967356,1.72183029349403,1.72234637284487,1.7217222447152,1.72281745208465,1.81887509726872,1.72209238766858,1.72079986276523,1.721165394843,1.72130776800473,1.72137462137897,1.71959018690962,1.72018564352334,1.71941226188856,1.71983525214588,1.71893072591516,1.72023131335268,1.71673386251994,1.7202211715068,1.72018167870785,1.73986819242811,1.83611886286994,1.76735845599457,1.76599897956869,1.76091072351918,1.76491220946129,1.71533586192664,1.71464657594861,1.71554719122193,1.71750648293212,1.71607269882524,1.71612544711754,1.71719115127827,1.97581865413023,1.71883333533216,1.71848845866126,1.76693830470036,1.7928762696843,1.79294751178213,1.79272746053307,1.79309966299523,1.79347870170653,1.8423578796341,1.94393058455155,1.94160775418361,1.94098272562549,1.93961470411216,1.94074323724002,1.83866674563581,1.79311226551574,1.83675031325308,1.94144000551618,1.94306036679192,1.94202858935123,1.94057352653142,1.86754994746092,1.84823263042141,1.79143793518033,1.86491297376829,1.86381813429113,1.86611792641579,1.79202207545155,1.79188647950957,1.79153993004317,1.86023313111361,1.87599451499677,1.8760562296399,1.87527231269072,1.87759473355689,1.86267673229785,1.8627637444005,1.8632529028005,1.86332966637355,1.86523250843841,1.86318483341774,1.7905200143322,1.86405530627664,1.86483844130524,1.86447750410509,1.79355738422613,1.86618988368536,1.87088932029677,1.88282691461936,1.88140723181913,1.88156194850045,1.87816854330776,1.92130361240995,1.97262507623771,1.95919820292442,1.94788209574641,1.94452738190798,1.95941890850661,1.9436189400951,1.94304257529425,1.94290521739696,1.93522512223506,1.94172274047264,1.93388401690853,1.94360363908569,1.9348990891614,1.94573552908427,1.934483709801,1.94432588283211,1.94168431668371,1.94211929435348,1.86994339231336,1.93968931248552,1.95867279197225,1.93820379357379,1.87003960841283,1.90995517955626,1.87278881854367,1.91102340163765,1.87343270861583,1.94025214906407,1.94072566272034,1.95883058550984,1.94877910827567,1.95557667968881,1.87864218898861,1.95424570871189,1.95320831376093,1.95820447530192,1.87999747137075,1.9573836306012,1.95565756199299,1.95918310422296,1.98398678032243,1.97173070520674,1.97682563531632,1.97454427253488,1.95730409304747,1.96331289909961,1.96306320013497,1.96077335620792,1.96050165526761,1.9574518505709,1.95926150079442,1.96227417682868,1.96360434045555,1.96084300092935,1.88780235863253,1.95958175059822,1.96198618991556,1.9636311133453,1.96028647500149,1.96934092982501,1.9704418577003,1.96471222040387,1.98432426426768,1.96255532844029,1.96675343382984,1.96363750803604,1.98248537148259,1.97029180358355,1.89207966569848,1.96550403684045,1.96999568310119,1.97101576291728,1.9696677258762,1.96986858583676,1.9714165024191,1.97174080019855,1.97337544281698,1.90626883128341,1.89811540711241,1.91125715680124,1.98289389578906,1.98348167051341,1.98337468595559,1.91556722377535
1.72599474989904,1.7204253021201,1.72844593576027,1.72124926270086,1.81732753963381,1.72252015421216,1.72132304512068,1.72250737529866,1.72267921867347,1.72318126599859,1.72296326556271,1.72214953056848,1.72079760789122,1.72163279891376,1.7223803321083,1.72305000771077,1.89664518635735,1.72207097144969,1.72131073430141,1.72046238690654,1.71908009708219,1.71910369501019,1.72160781777657,1.71838682073106,1.71845571429077,1.71776168634599,1.71888335211813,1.74255410847514,1.76570315599115,1.73745231298646,1.71222958040926,1.71437775099394,1.71377271306821,1.71581833975901,1.71537155501893,1.71672793811097,1.71533830604453,1.71710030115227,1.71689963429555,1.7179651709958,1.71827504398248,1.76662071231605,1.79328527201744,1.79349395007598,1.79325196976654,1.79241220550918,1.79080963023755,1.8343045482954,1.94440534192852,1.9423318276308,1.79348098970857,1.8121610434881,1.79309152583296,1.82010186340053,1.79352237391243,1.82438638546469,1.79306755821629,1.94389397710036,1.94280616011507,1.94092926263313,1.79345183998567,1.82984036358552,1.7925336951921,1.86487263286568,1.87177453927495,1.86928643944525,1.86119389700761,1.86176930710379,1.86249513469214,1.86102163263016,1.86160326269186,1.87620766673951,1.87655207256934,1.87763518166463,1.87675456035032,1.86287386688755,1.86285000836367,1.86338806291025,1.86222108075853,1.86376832553289,1.86407191641905,1.86533876172176,1.86811912126525,1.86616778620637,1.86670814867513,1.86482011651525,1.79702729097204,1.88267518036245,1.88442448684099,1.88163437260818,1.87813389238511,1.91241987769398,1.95711757679135,1.95839954281594,1.9629395032494,1.9415789053928,1.93655656206423,1.94311263683488,1.94850767258818,1.9413513919562,1.94293122356643,1.93744353763919,1.94219502428856,1.94100435240969,1.94868030781603,1.94116574493804,1.9514701701038,1.94074679837924,1.94674875370157,1.94179963065753,1.95613874750409,1.94170269343177,1.94417285527897,1.94194428166207,1.94413009026569,1.94302840311206,1.94406563857003,1.94270823362303,1.94389237548413,1.9425391620781,1.97956661882532,1.96107292812609,1.96648504576204,1.95513110020857,1.9579697882614,1.95455399864731,1.97249097502756,1.96046105885235,1.96545287285125,1.95870868852482,1.88120857458712,1.95753336698784,1.95641483662366,1.97001911852208,1.97810997505426,1.97576585097707,1.95835121127183,1.96423127786833,1.96452149761692,1.9606779989772,1.95877252021273,1.95685006728125,1.97300142813414,1.97550067611326,1.9753034532656,1.97326321279431,1.97328964640944,1.97314301970583,1.97880548513403,1.9774428468765,1.97766200720246,1.97134911905014,1.88871549192151,1.96178612907619,1.96401169821115,1.96248551264397,1.96317497342317,1.96351190614837,1.96540304720594,1.97120895393502,1.9808706886956,1.9625784283522,1.89297356621326,1.97395259311494,1.97437871047081,1.92569528332534,1.89561787979577,1.89357080364327,1.89574771418765,1.89370703320888,1.8951303951772,1.90408061883831,1.98662132716856,1.98480186258238,1.99933664736405,1.91534598542516
1.71915396119345,1.72460949446299,1.7144396613905,1.72465860847888,1.72114814977467,1.72384627714782,1.99271642714768,1.72334056456216,1.72252202601544,1.72347632283791,1.83179349435011,1.72194195247321,1.72048138534992,1.72141934728264,1.72194673167232,1.723219307362,1.82173945242185,1.72219979304484,1.7214078569027,1.72757130981171,1.80549514313909,1.74243737221723,1.71863796442305,1.71978530565394,1.71607361048303,1.71767118017946,1.71491507769252,1.71586759205983,1.71460100303717,1.71500238333244,1.7137329918993,1.71430067279492,1.71399092084646,1.71476875489525,1.71500881764242,1.71572367752276,1.71632925269254,1.71682200037273,1.71760107068551,1.7177644542866,1.71724260262581,1.76826282660349,1.79411134144135,1.79392044520706,1.86882826080986,1.7922153348723,1.79061601095102,1.82533213136855,1.94481237534583,1.94278492767172,1.94240303605841,1.82289182970263,1.79380281040728,1.83047123109922,1.96615866443596,1.89248194706812,1.95849795619084,1.95238994210334,1.96032338772679,1.94141480231815,1.94455017653105,1.8679288902987,1.86636106793574,1.86547641784093,1.94309003233022,1.88861809132682,1.94629080503489,1.86473113941631,1.86552077027095,1.86836914191669,1.87374194505465,1.87608139260084,1.86291628233845,1.86799245381057,1.95321139466661,1.86316609457103,1.86334923977751,1.8630221033173,1.86592425510657,1.86337505095325,1.78981834343899,1.87657539285264,1.88243726993591,1.87631876120374,1.87395693795773,1.8763480844047,1.88493743129958,1.88367837434237,1.88189055295258,1.88316691810767,1.88466518219021,1.90105617489497,1.88645997031079,1.94964418050221,1.95263239434264,1.9400025344665,1.93673912263986,1.94277018143964,1.94389263111003,1.94485767960855,1.94135990091741,1.94370909180584,1.93530936879296,1.94252435199751,1.94547165116483,1.94692990040071,1.93871581330979,1.94627038921952,1.94062906939302,1.94412481899458,1.94420812454573,1.94331152917488,1.94457003270698,1.94355140272773,1.94450296863305,1.94271237258012,1.87225025550915,1.9420754325234,1.94426767623204,1.94465220030175,1.94744335019761,1.9479996956356,1.94957078653895,1.95281805655785,1.96701068887787,1.95246211651431,1.95244649963148,1.95050623317563,1.95192542561755,1.96081129550963,1.97500828218407,1.96934794773002,1.95786437873913,1.96751551862833,1.95801108267873,1.97687779793219,1.98096160715729,1.96399068208931,1.95830279745599,1.95933246684235,1.95885517111362,1.95666525667216,1.97857122116288,1.97772406363405,1.9600917330346,1.97211555148272,1.97543282509921,1.97386763058513,1.97751681955404,1.97679590186828,1.97667282712434,1.97421909352211,1.96785230949618,1.96283440896315,1.96328090201824,1.96342941762217,1.96430192370876,1.96437782655656,1.96789018616367,1.96938148654908,1.96825588378263,1.96532593172681,1.96744021637671,1.97251446114758,1.89273834126288,1.89399337478465,1.89072990145561,1.8960570701931,1.88876878227682,1.8969386235555,1.89209889009444,1.89709130058143,1.89584506074717,1.97843304473095,1.97293756162509,1.91523173455644
1.72404996345955,1.71982374242953,1.72928616649664,1.720340822232,1.72738901323443,1.7224198591854,1.72385741087268,1.72352825958605,1.98583428523614,1.7236840923924,1.72291460959034,1.7224571463525,1.72096593210247,1.72152014004611,1.72156661225945,1.72291749764103,1.72221705619981,1.72235191497074,1.72093904607421,1.72560318782879,1.76691277565517,1.75572128798781,1.72003685557629,1.71985031938097,1.7164807400686,1.71635341081257,1.71730765525147,1.71532627869741,1.71659399294632,1.71428076161039,1.71462601884951,1.71403636747434,1.76100078194312,1.73844751543029,1.79750773988297,1.75734941143438,1.82395977136421,1.71578677925056,1.71570064855932,1.71693098594282,1.71775078385241,1.77124045489867,1.79471676569988,1.79388348232968,1.79320296038576,1.79295135512211,1.7924386987304,1.81621589433155,1.94507963266345,1.84077547415503,1.79314923972621,1.83306375243223,1.863503016734,1.84264094000481,1.79284610140278,1.88701825990695,1.86788893421403,1.90450420106535,1.94187007913008,1.94054572996398,1.96625446459858,1.87001571591117,1.87202912844245,1.86519989543424,1.86257681325501,1.86244448667833,1.79250968385133,1.86403681318049,1.96828290097569,1.87041059087133,1.87501317220143,1.87644901892672,1.86347298672162,1.86354050320064,1.86383960484392,1.8630368107826,1.86240776897818,1.86296620241167,1.862324367855,1.86330795181171,1.96206273183638,1.87681711671124,1.88011931353476,1.87838947745162,1.88241547903437,1.87932922320377,1.88103110510074,1.88206373012489,1.88337175586675,1.88184686626313,1.96504364377402,1.91667049222615,1.88564906123198,1.94881569509641,1.94061121648359,1.93827274057455,1.93897531428884,1.94013300002108,1.94064435080423,1.94005622646884,1.94864138810263,1.93887083949193,1.94737589065756,1.94022837497779,1.94391275240418,1.9420279472317,1.94803202555724,1.9420583304137,1.94749487648464,1.94268157015145,1.86949163158173,1.94314041676522,1.94445263274026,1.9443796724288,1.96719474127401,1.96230497813384,1.94658088642131,1.9624148590803,1.96484614034073,1.95965167068339,1.94870319574266,1.94821731154644,1.94978393341678,1.95197321330745,1.97497460126915,1.95262140267704,1.87940153159209,1.94981901225502,1.95288966385499,1.96256959447722,1.97511815355228,1.97147001366362,1.97151449670374,1.96740595566825,1.98493903586408,1.97834915817898,1.97959887074914,1.96423300695826,1.96152325117806,1.96061662253993,1.9593383051975,1.95728616735674,1.97855580177167,1.97911541233394,1.96875011220975,1.96816604841443,1.96141892283277,1.97345274544637,1.99137632451801,1.97757069291361,1.97960303664105,1.97588507041324,1.89026301155428,1.96091744370291,1.96380672537015,1.96269351159452,1.96357160578483,1.96234461130594,1.97942779277934,1.97393038611836,1.97915894165912,1.96543694957402,1.96863804197812,1.97141542095285,1.89288276787478,1.89179762305521,1.89853377253945,1.89163970036456,1.90239797270915,1.89357456250688,1.90216117792751,1.8959874295368,1.89646164845506,1.98013356478246,1.98563492054717,1.91527807486458
1.7200125181154,1.7240503143404,1.71634866001684,1.72531583331366,1.71867524465795,1.72471561300288,1.72171027322504,1.72404478641486,1.72353479293151,1.72382883967557,1.72346941173168,1.72336625236026,1.89627032108563,1.77086940056315,1.77060067578987,1.75369734772502,1.76990024283592,1.72263412613148,1.72165913145109,1.72330033424181,1.83563352685428,1.82404179406694,1.81335066167482,1.75358852083005,1.71935454862872,1.71805939632905,1.71569387883724,1.71688278881332,1.71415551757424,1.71522788297596,1.71233827684706,1.71419086667755,1.71382979080088,1.71415619272311,1.71283203182258,1.71202419904524,1.71357463952463,1.71469681512809,1.71594170941777,1.71693714520905,1.71713568297018,1.77532535011066,1.7934625453688,1.79359684709823,1.79291758952565,1.79363457554126,1.79389372309548,1.80833761141319,1.79349378007031,1.82240713267219,1.79328375768375,1.84190288436724,1.96177524576157,1.86592858363768,1.94560835800177,1.89241257325751,1.94513737342961,1.90224873621316,1.79347087685576,1.89202804942238,1.86928037898281,1.86737624717505,1.94374364357322,1.86458018857007,1.86408985085326,1.86356176452362,1.87560520392293,1.86367977432974,1.86281633397686,1.86793777397102,1.87546669556818,1.87677720596485,1.87619455067119,1.86288626503085,1.86367980981309,1.86252085282007,1.97244486668477,1.86182924090832,1.86394477756361,1.86308715235589,1.9527032496729,1.87379146487687,1.79102944662478,1.83486922182188,1.79523952217932,1.83583660979033,1.79605651989652,1.83700821976722,1.79722917549063,1.88064694029534,1.95814238845385,1.93080567805278,1.98585326670313,1.95448427724002,1.93839354577755,1.93663990615654,1.94765330175506,1.94162650500017,1.94136207281508,1.9431833622531,1.93926398458475,1.94234849797438,1.93920260193061,1.94297809082817,1.94268701204284,1.94419256644331,1.9416947793904,1.94460862653703,1.94296559300741,1.94359035399498,1.94289256015535,1.94330596858876,1.94435837081207,1.94348224199751,1.96855811764436,1.96689734186726,1.96738283742441,1.96352512149253,1.97148909405125,1.96530658913137,1.96912747191262,1.94775733506722,1.94980987638519,1.94851403088187,1.95075298125915,1.95349037078889,1.9708123720786,1.94991585474476,1.95371386917381,1.96300311708154,1.97521371928472,1.96923694644431,1.96434762035252,1.96230276956805,1.88609176704771,1.92373541072907,1.88518821149113,1.96464770880682,1.97559192073428,1.96117705370395,1.95854193874314,1.95785054742939,1.9806042566123,1.98003333396987,1.9830820920694,1.96324314329473,1.8880141519152,1.92554203966284,1.88871586122697,1.97820224059594,1.98112657775789,1.97566223072336,1.96089372786294,1.95955255256725,1.97567481724505,1.96268564673279,1.96309659073019,1.96236332774083,1.98603582984276,1.97013634931433,1.96604478835816,1.96535203827753,1.96878050236666,1.96991641749753,1.89230076681895,1.89351367159026,1.88784989716401,1.89600486660143,1.88894766681602,1.89818692135067,1.89398633094229,1.89798662806094,1.89665633937305,1.97663260985744,1.97579514812026,1.91545231291201
1.82572836649232,1.72290802627187,1.72722396737209,1.72175632533925,1.72575762873087,1.72235379282076,1.724615580551,1.72333213840386,1.72360930832179,1.72377946112454,1.7239220732553,1.72349770585841,1.80996483811788,1.77111914385329,1.77134967208621,1.74242964471953,1.72310774309053,1.72279498098819,1.72251920369384,1.72180961996296,1.84107321580503,1.82893419033923,1.84337540544275,1.80595705040825,1.82738074743613,1.74898497253599,1.71749098666991,1.71583554182847,1.71580741883521,1.71404815025604,1.71479130147593,1.71391479120986,1.71538769685005,1.71479673487123,1.99582108055191,1.71081208817604,1.71289303444129,1.71309334166701,1.9933315906705,1.78249439625283,1.78164567676334,1.7869156428345,1.79470992663483,1.7942066779652,1.79460242558968,1.79452123108642,1.7948420143579,1.81707039116621,1.94532000010044,1.83875921773468,1.79367212872051,1.84955944732156,1.94373444711529,1.85239611414823,1.79321169084067,1.8688133787305,1.86771552202067,1.89791877905808,1.94511814956952,1.90489538536803,1.96923448205005,1.86371178477594,1.79432633863022,1.86363240654734,1.87057712065767,1.86630873865731,1.9507219047852,1.86404784338783,1.86479724060651,1.86625684195018,1.86170263010121,1.86078182984212,1.86186841436675,1.86185562492275,1.86219695371071,1.86067767800234,1.85988263567322,1.85973482280917,1.88122520886645,1.86330217490886,1.86652691575358,1.87108876131163,1.9632654734927,1.88185563554465,1.86700924513337,1.86878616240077,1.87120049597188,1.87054790362005,1.87187044082236,1.8803738252358,1.88236313393885,1.9130346040572,1.96293140220195,1.95796048737688,1.937535704438,1.93489230023049,1.86265753890879,1.93831886548966,1.94394030518031,1.93864464886626,1.94120265888724,1.93750646766673,1.86448798419127,1.86517883078239,1.86578390225685,1.86611312932542,1.86669784100467,1.90322072839691,1.94443565005445,1.94252958460899,1.9444585263394,1.9433249181202,1.94342011383211,1.94243960990273,1.97059104938584,1.9659244457828,1.96568837526405,1.96303584699484,1.8735773576081,1.9044155540707,1.87504844264936,1.90659527818567,1.87917172971422,1.94694927442206,1.95011676076153,1.94809811607894,1.95109200488969,1.95007254819708,1.95277525497381,1.96308775419489,1.9645523202992,1.96502732259201,1.97855713686809,1.95883833509499,1.9596318580939,1.96099548264247,1.96860954389381,1.96528321708687,1.98032354251387,1.96164570884909,1.95970578551697,1.95920926705208,1.96147398300893,1.96099490108879,1.88668783319634,1.96207356449359,1.9581327400302,1.9751184025752,1.98009991596377,1.97801943889076,1.98016930983374,1.9744823714692,1.96026863486492,1.96022699697336,1.96470334079475,1.96414562692907,1.9690537208131,1.96409988848065,1.96223881916115,1.96116177262636,1.96309580063208,1.96369131293782,1.97676882998743,1.96696511297673,1.96582950792779,1.89157346118624,1.89554514627555,1.89139881873503,1.89789774011393,1.89361628695081,1.89715498405862,1.91916475740424,1.98704927561607,1.97206593656777,1.9691347721299,1.9152236027312
1.72498205948899,1.72489307297744,1.72337036320762,1.72423939308307,1.72261829943492,1.72393070197566,1.72330302456404,1.72368256717995,1.72353257702341,1.72355901505076,1.72340768463931,1.72275468297424,1.72115819680835,1.71956870274982,1.7187872298839,1.71989080769884,1.72121314145511,1.72266531571193,1.7225575888374,1.72176875931377,1.77426715355686,1.77963727657948,1.78764481489964,1.79629696156949,1.80674251625708,1.76823570675622,1.74965751673542,1.71628683615208,1.71466110909623,1.71476562790987,1.71329487375998,1.71403824091633,1.71384449062691,1.71464324861664,1.76359181623622,1.71002933403355,1.71140908581297,1.71235009503278,1.78562453406176,1.78313343835373,1.78261088111986,1.7892221301095,1.79478019156239,1.7943648866206,1.79461966646265,1.79485696883521,1.79498477119964,1.82589300665602,1.90071533501306,1.90039700281511,1.90014126833408,1.89996286547604,1.90050164776436,1.84138282818049,1.82685956955166,1.86900547196537,1.86839573302207,1.89123115250641,1.90647916176819,1.90374245982634,1.88339447739179,1.86255276919053,1.86077221094437,1.86203839834709,1.86313864862991,1.86424882174267,1.86511094939506,1.86443749085737,1.86508443214119,1.8664599082556,1.86370141953051,1.86139012181917,1.86165089901608,1.86102185382834,1.86036780959114,1.85924024161099,1.85868620951827,1.85890494670306,1.86001454983805,1.86151742275178,1.86358189247378,1.86903663209615,1.90361900450917,1.89526697169737,1.88687901601434,1.8772436791061,1.87520086214228,1.87833394042844,1.87821596214209,1.87965172026572,1.88029647501196,1.91151514982615,1.96017563812181,1.95800411897703,1.9356083176197,1.93365216238027,1.93361821422626,1.93521696359619,1.93711015191916,1.93803131173292,1.93748266647034,1.93741825738168,1.90096017322467,1.86543637130088,1.86569456833253,1.86588171469204,1.86641090389925,1.88997138319375,1.90145263023061,1.94121540888554,1.94336746093795,1.94336253624448,1.94350441491293,1.94198269853653,1.96240054535295,1.96172747618514,1.96126611134705,1.96159530259323,1.95259074799878,1.95200135431635,1.95157974241685,1.95171950035282,1.95036308343387,1.94730411576837,1.94774350951361,1.94737406510896,1.94879282242207,1.95510075595064,1.96343669735671,1.96279452950724,1.96213910790293,1.96203837795249,1.96123422980144,1.96008880259079,1.96188177975744,1.9621151121003,1.96446172557349,1.9631382711177,1.96137497419811,1.96107954182539,1.96121313041474,1.96044324976966,1.96085635023348,1.96181261691679,1.96739256477621,1.96958523636483,1.97148195327976,1.97280892958344,1.97754046640411,1.97538897818119,1.97485159417826,1.97223593378896,1.97020803044343,1.96982034528945,1.96765918617578,1.96369990529879,1.96532559077275,1.96400014583737,1.96313391562071,1.96173121407381,1.96261327112403,1.96588449884529,1.96842078260101,1.96707511678199,1.92160497160103,1.89216646663672,1.89171475466836,1.89310171299071,1.89226020107049,1.89375577988572,1.91939655659172,1.93122662923085,1.96886167628853,1.97048383348384,1.97146889016969,1.91404297728865
1.72523587726517,1.72474817070983,1.72440383586004,1.72360617589748,1.72356507103671,1.72359505657578,1.72359192792689,1.7235847117245,1.7225194279449,1.72352789993558,1.72311800397293,1.72295594630427,1.72270125707247,1.72058140235647,1.72183489168454,1.72007718987206,1.72409627332745,1.72182639338805,1.7227023248786,1.72311686491637,1.76782689467373,1.76789685248073,1.76773247073137,1.78454202545889,1.83228911844472,1.78651065151398,1.81671203800609,1.71557567831784,1.71592493155397,1.71352675687385,1.71326158713039,1.71255829501956,1.71559961453126,1.71352510777259,1.99604215494292,1.71065852997838,1.71229012691923,1.71293911798456,1.98117249916477,1.75006411572612,1.71558010072676,1.79088399750838,1.7958531146837,1.82624042804172,1.94226662877202,1.82089291063557,1.794946921138,1.83643481189642,1.94280929486215,1.94128228101922,1.94203090717586,1.89822534350029,1.94648304363578,1.83241407197754,1.7938308969117,1.86859760270852,1.86675039068463,1.88355085078527,1.94855922052529,1.89760222814674,1.79350932457656,1.86411349646663,1.86206787847907,1.86225728436606,1.86150103487729,1.86214131011056,1.8621530193349,1.8631724585577,1.87443783891707,1.87250261876496,1.87491245839713,1.86164448775938,1.86218167319089,1.86142864774087,1.88183863267147,1.87468756739246,1.78957804518795,1.85925989757125,1.86137644094189,1.86130960010945,1.86300147543683,1.86793615485706,1.96247729522908,1.90323089968929,1.95616225719014,1.87954482336566,1.87218361795338,1.88085218940597,1.95932458217463,1.8814462944241,1.80635086311522,1.90654998592353,1.98534989504051,1.96307835561407,1.93982342218207,1.93554631566034,1.93703907853994,1.93533294001763,1.93850258973599,1.93895337399245,1.94081625087618,1.93916676216622,1.94494435550894,1.86604345687935,1.8640708321807,1.86629648895167,1.8663820377577,1.86863256557647,1.8686371611287,1.94180551466729,1.94645424668434,1.94423356739118,1.94429493820998,1.94233133536227,1.9636730000708,1.96195731394651,1.96120324076405,1.96191866330809,1.96521797353339,1.96316830521645,1.97586281510495,1.95114163514688,1.95026980410432,1.94785931021196,1.95081502440579,1.94956261569323,1.95097461124545,1.95543810545663,1.96582591378983,1.96483181103548,1.97779747843065,1.96271060730631,1.96510395921959,1.96302194262039,1.96620972743178,1.9631763354804,1.96503134144156,1.92430095799934,1.88616405950758,1.96038253551911,1.96341813660939,1.96156172634218,1.96311041611283,1.96076156045641,1.9743382907696,1.97272593821094,1.97458694188942,1.9734890772743,1.98542694845371,1.97318183438968,1.96231561288455,1.97049662919615,1.98633164819718,1.97314927688269,1.97796984569363,1.96366654646852,1.96725818388987,1.96508765122267,1.96714643985313,1.96375529471754,1.96324971288154,1.96894075860817,1.97077444291483,1.96824582479224,1.89215643622592,1.89213943928792,1.89341888955037,1.89246825635881,1.89418921576546,1.89298951776491,1.97339408465438,1.96909762800549,1.97348825281132,1.97310834623033,1.97709028819178,1.91230832160492
1.72346229426289,1.7252478837434,1.7729616351717,1.74397782296675,1.7236701890892,1.72438598939737,1.77282402364341,1.72353522717876,1.72356109474881,1.72352874669444,1.8225179818576,1.72354958906131,1.72228441506146,1.72247273416679,1.71986763214772,1.72305308920135,1.71862646848708,1.72308929702448,1.72090019387033,1.72539170370431,1.76803949728935,1.74704347053679,1.71844106955013,1.77445187295138,1.82176705703113,1.77325634511065,1.71620422672377,1.71608334918851,1.71248184299194,1.71459786654932,1.71172777574767,1.71406372977215,1.70959119667598,1.71430270628883,1.71211200176118,1.71252409667105,1.71335775166578,1.71470323377485,1.71638741962409,1.71670832499415,1.71691891903871,1.79458036950098,1.9449882616087,1.88758092701559,1.94374045804545,1.83211309531582,1.79632988830837,1.84524877572813,1.94339501379816,1.94094758656202,1.96832122008974,1.89338954493599,1.79546112619904,1.82035956967509,1.79373150460304,1.86944599019848,1.94606973064388,1.87636980754582,1.87132231231942,1.88628648985656,1.94891486193692,1.86715727903582,1.86730407158988,1.86442337996923,1.86197402694783,1.86125628650233,1.87564466678884,1.8625038150606,1.86308077248595,1.86224536956558,1.863331055436,1.86170738984962,1.86325126864944,1.86095234015576,1.78681989070002,1.87695190037173,1.88045531227958,1.88087168118363,1.88154497120353,1.87053353547436,1.86429372915002,1.86765433863185,1.7929133849132,1.87711938638234,1.88374863917458,1.88203496111948,1.88614348034108,1.88688495519607,1.88594729243656,1.88451610359906,1.87775598719953,1.89779239827666,1.97948454434808,1.97553632755043,1.98541084825851,1.96488680921124,1.96904548936277,1.94453020454321,1.94505255217341,1.94166187112083,1.93942289254193,1.93737818150184,1.86715966927598,1.86635524607513,1.86748453327021,1.86615051978039,1.86732811752259,1.8688390426909,1.869240208,1.94163625319858,1.94382299440949,1.94281894452196,1.94230877571824,1.94279728156613,1.94470851597697,1.9530034036386,1.95565962530027,1.95691752178485,1.94531758925052,1.96152926451007,1.96590610283575,1.95236233394587,1.95771273430918,1.95427990445149,1.95281798452856,1.95083849281442,1.95187907795589,1.95774150958209,1.96984325086453,1.96809251026615,1.96716584821869,1.96372250575799,1.88401525726791,1.96133832943429,1.96236490600949,1.96092684793291,1.88368905001442,1.90845046250769,1.88668308531915,1.95845970072729,1.95967163809086,1.9607560337814,1.88697573103975,1.96051979785638,1.97658923291173,1.97364134442515,1.974542254214,1.97403095852848,1.88849441576647,1.97075238102654,1.97122701743517,1.97033707325813,1.98035801813915,1.97133257245967,1.96429240526698,1.96387028542892,1.89023431809631,1.96346074233315,1.97653363320933,1.96562404706077,1.97088372042799,1.96953245669275,1.97105839725145,1.96763155421088,1.96749063816254,1.9245342812058,1.89275834317664,1.89266646441147,1.89288708285231,1.89312531445041,1.89375502153752,1.96574403208191,1.96694384396423,1.97499051398946,1.97856463839838,1.90903014059407
1.72637914422554,1.72559221962242,1.7742816506455,1.75384126144556,1.81344431989601,1.72468300775067,1.72416661621173,1.72462624277917,1.72376546973434,1.72481181119323,1.72403741662912,1.72436754960682,1.72373665187136,1.72349253272665,1.72575565374918,1.7220892354882,1.72728938065259,1.72203135676439,1.81986508916544,1.72782318796378,1.72098651031337,1.72006794298338,1.71918338391099,1.76555955160708,1.82172864319167,1.76126689381929,1.71480629370743,1.71543456003724,1.71721889650066,1.71485549717862,1.9968880047868,1.71267567580332,1.71872585874076,1.71190868103632,1.71357918511019,1.71239228989949,1.7147316198704,1.71495998242829,1.7157017799854,1.71640345967129,1.71647528130921,1.79780572703043,1.94532166594517,1.88363883816996,1.79436478634987,1.84202610721216,1.8702889419653,1.8531818421012,1.79548938216524,1.89914938058388,1.87061006519538,1.88565538211733,1.86972659860712,1.84032440365271,1.79352331487801,1.8695790462627,1.86659679344252,1.87025628822264,1.87200166619406,1.87730732161047,1.87185447707259,1.8709913787419,1.95007790547225,1.87687676582477,1.87439354693751,1.86112158874355,1.86326179348896,1.86225714075739,1.86323649462011,1.86238246201058,1.86186309183427,1.86228505578268,1.86191028357081,1.8609127352745,1.78902004691287,1.87963062765489,1.8808957459096,1.88101067346345,1.7894723139574,1.87491087842944,1.88274675118765,1.8779357602034,1.95891126918274,1.87349432540991,1.8662160017266,1.87150691579894,1.87266008645891,1.88707722276672,1.8862304772001,1.88623482362682,1.87845935359378,1.88323447757541,1.88288374445584,1.96024609973665,1.96217575831959,1.96198121950062,1.95161991368282,1.94595144033096,1.86620435150288,1.94220361342883,1.95405599141271,1.9368475174836,1.94121884290915,1.86799816465806,1.86657551864181,1.86791355335845,1.86620964477982,1.87954883485371,1.94273078045379,1.94327927415101,1.94324505873386,1.94294382985205,1.9690911588436,1.95733926022119,1.95842338633084,1.95002733457326,1.94582927720022,1.95883956221918,1.96183881677969,1.95957116360935,1.94983291437756,1.95014850009282,1.97575553837344,1.96733470235432,1.97516162115056,1.95097108730452,1.95399460975468,1.96154751466877,1.9756563010595,1.97156013444726,1.97442039009207,1.96379260504285,1.9566607450529,1.96168978628613,2.0020590932834,1.96808509538409,1.97112282795167,1.96976796211615,1.971805382374,1.97012069692276,1.96493589542487,1.96279691797502,1.96008347125042,1.96247191977859,1.97882525001061,1.97094695138367,1.96876954215056,1.97458918151796,1.99275969562857,1.9712793394397,1.96188610274368,1.97014169974923,1.97945925545192,1.97147006775304,1.97159672943024,1.96604322436697,1.96379501725616,1.9628555985422,1.89007558762461,1.9651143440656,1.97116380043205,1.96762236839606,1.96600292086657,1.96723959758372,1.9670473191744,1.96644247902187,1.96475176451415,1.96452536837213,1.96424164855774,1.96142160119591,1.98099900210201,1.97705979906991,1.98565738239234,1.98205904028511,1.98498814270174,1.90492664811404
1.72265865968383,1.72512536616901,1.72463361911189,1.72525723893777,1.72338891869966,1.725270239587,1.72395779769013,1.72515016253068,1.72642423686678,1.72517902297572,1.72563424040963,1.72544345529512,1.77122811532972,1.72555712916241,1.7230055991987,1.72530287711994,1.71854839694522,1.72436477963742,1.72030826654207,1.7230640394389,1.71768996734211,1.72160332401638,1.72055142124117,1.75647859787454,1.82077511472996,1.75118422177848,1.7170870369697,1.71638563403741,1.71404485134482,1.71547557517719,1.71154906788179,1.71563378477661,1.70717836359109,1.71492634137102,1.71129857142654,1.71287696382913,1.71354899216438,1.72541752683251,1.76481364165793,1.76573466704987,1.76647344924076,1.80071734272045,1.94883627543057,1.88387050853227,1.86988756719439,1.85089705553113,1.94586354964351,1.94412705045184,1.94356047337481,1.93955417040731,1.96308284682186,1.88969927970054,1.86674016796262,1.88564671824172,1.94618507380441,1.87104704573756,1.79492227829251,1.8697921672689,1.9685613367659,1.91161570400092,1.9484727131549,1.87334424541518,1.86236628893552,1.87668471175097,1.87463636296666,1.86162718428378,1.86258833002163,1.86246883819225,1.87579406746195,1.86189982172996,1.86283935382914,1.86209336230061,1.97350217898961,1.89252718895777,1.95225020166221,1.88110873023959,1.88057913555746,1.88134012956005,1.88247185840631,1.8785654409306,1.88108439869675,1.8747174660099,1.86706780154493,1.87055648402319,1.86747915298573,1.87075021638825,1.88681171755514,1.887221374514,1.88506862084102,1.88651163571063,1.88621964562063,1.88507659653749,1.97612494680931,1.95946781050515,1.95416436066474,1.95205277038784,1.94033524929983,1.94950304473708,1.95254635239555,1.94383069990489,1.93891833433232,1.93551748169374,1.8675995875004,1.86699524172542,1.8694054651742,1.86692777491171,1.86786906364375,1.88771737410045,1.94771892390795,1.94458190634386,1.94361488187729,1.94256895360836,1.95650946160073,1.95556275434274,1.94629011264265,1.94829870957217,1.87289425481392,1.96081283637337,1.96217097089369,1.9552828319187,1.94956166262377,1.94696382200404,1.94931751343454,1.94936817703646,1.9509597133506,1.94977759133211,1.96606658728275,1.96481399380143,1.96993827077159,1.96914001507388,1.96852797513992,1.96631026109921,1.96348676735553,1.96443374796362,1.96588938232745,1.96728386976015,1.96703358945718,1.96818827027524,1.97654109754488,1.97321335102881,1.97687204908438,1.96471838265104,1.96524107876275,1.96462002577169,1.95833876294518,1.96976555943912,1.9706610233988,1.9765106519209,1.98613223634982,1.97276695486114,1.96227455953373,1.96478477540338,1.96285980074331,1.97051569593491,1.97204458733738,1.96895128130465,1.96439439960459,1.96261656148549,1.89170960907565,1.96235724504656,1.96575627657408,1.96596069066656,1.96916630515707,1.96741650258624,1.96877861483212,1.96701821191079,1.96624636150576,1.96521860012182,1.96513742628391,1.96178457834337,1.89554957156689,1.97594293308767,1.98296948709802,1.98069724368744,1.89683849342329,1.90077947846034
1.72770839434205,1.72672507434688,1.72603121604126,1.72556517656701,1.7270259179343,1.72542551931656,1.72664145943078,1.72559168362528,1.72446014412146,1.72536357088183,1.72418622206252,1.72545975713478,1.72548167099925,1.72568927789529,1.72665795705199,1.72390197381704,1.72562508547048,1.72165634283013,1.72664919907496,1.72059551606359,1.72603152236738,1.72083806562168,1.72114637122897,1.74755192301985,1.76623012748457,1.74059486996559,1.71553886743904,1.7163628001878,1.90596875850008,1.71446296114328,1.71877164432081,1.71195355055489,1.72052142185679,1.71301195059098,1.99192824888407,1.71918625378928,1.71920815367744,1.72742227619617,1.76444342254084,1.7654617076492,1.81314695062655,1.81361613602974,1.94524989173157,1.88191676084582,1.79654356729619,1.83453201729166,1.9456199550431,1.94377826901179,1.94321270999141,1.94072656620285,1.79633523200886,1.90018051563091,1.94651234119963,1.89951834438914,1.87020376969172,1.87011303059066,1.86787026492908,1.87039251106016,1.94834810514321,1.89433635872552,1.87254417130241,1.87373976283702,1.87568049671341,1.87672756866059,1.86371093694876,1.86225741398976,1.8648785870718,1.86308216823377,1.87646655672149,1.86221796755322,1.86259873002317,1.86284794288157,1.87997514484188,1.87193392485241,1.86238706381302,1.85863437777869,1.78826121077185,1.8581140118427,1.86185665446097,1.86205660571191,1.86310926628548,1.87192019145606,1.86707355666015,1.87416444039185,1.9695708996016,1.87020289367879,1.87240962612225,1.88934413926374,1.96322702577252,1.88747929275734,1.88727035629749,1.88658040524541,1.96916135428899,1.96092968701392,1.96402915654145,1.9517530257554,1.95243601639814,1.95176341918443,1.95224255707955,1.94623944360771,1.94838031342418,1.94474576556437,1.86694963654611,1.86743911943952,1.86513093379081,1.86777103994965,1.86740331403577,1.89667668520888,1.94825145892147,1.9455211515105,1.9436800036068,1.94345697735525,1.94826464519187,1.95292408883376,1.95480987314212,1.95075211812408,1.96165417870192,1.96166965327487,1.96504205910817,1.95226334288114,1.87692165350511,1.94449559737284,1.96713055976141,1.94902748059662,1.95225317003658,1.95095711914894,1.95265455220894,1.95681347084836,1.95502797611298,1.96601500783176,1.96851892212495,1.96661807103412,1.95816270517419,1.96611264285143,1.96818501209743,1.9673424963838,1.96892857114976,1.96790320131508,1.96666995395742,1.96881658445682,1.96915677525551,1.96621521707786,1.96781688019525,1.96428187936797,1.95976529447132,1.96797874352671,1.98131635464045,1.97931021842336,1.98103073813091,1.97447530734926,1.96911826718232,1.96701504744491,1.96852214021692,1.96971120937228,1.96206822851499,1.96905808166265,1.98372861977711,1.96241685907531,1.96323077631769,1.96081071223423,1.98120500114588,1.96376230107163,1.96389620056258,1.96677846202441,1.96846565134682,1.96907379776076,1.9707766717391,1.96635035249496,1.96525451854633,1.96267621304828,1.97214691822711,1.97101202374057,1.97197046733711,1.97958943632739,1.98086093365477,1.91214992737931
1.72702618289676,1.72704506561771,1.82298896642976,1.72734394280083,1.72460448402207,1.7275869473458,1.72691154379964,1.7261856750343,1.72334651722948,1.72559246462027,1.81231011215081,1.76270049965731,1.77358827810578,1.77297244844312,1.77259022155285,1.75103080615147,1.72550111764605,1.72620053542374,1.71748997324309,1.72670732832789,1.71935695309105,1.72463473772948,1.82916943744809,1.73462867677086,1.71867540444237,1.72049843090692,1.71589804998657,1.71711399932215,1.71454285202725,1.71736214090946,1.70944034269376,1.71761091155316,1.70758097374631,1.71681836910902,1.71474043895675,1.71763678051671,1.71674492194689,1.72535794949773,1.76546871949714,1.76568668509126,1.8126455032307,1.81344975649931,1.94491724347571,1.87849956455948,1.7979310986739,1.79894970349844,1.79798657199571,1.8575013693406,1.94799210913545,1.94376142904255,1.94521984707241,1.90882857913356,1.96308242194595,1.91439755407719,1.94904942895754,1.87209731393472,1.87319859427464,1.87073673974618,1.79099099890436,1.8666173894291,1.86628201151221,1.87190678062583,1.94948196580952,1.87640186403388,1.87456943139596,1.8618366953547,1.86314095997493,1.86449837317976,1.86516271150811,1.86324194781588,1.86467979300969,1.8633003694014,1.78928007535652,1.85996203900349,1.86140908535141,1.85875212870374,1.88582577904547,1.85845995957474,1.86191298650498,1.86212480896798,1.86285629928935,1.8742560929748,1.88564171139395,1.87731556400131,1.79530675549414,1.86836743842397,1.88726270336913,1.88941763413428,1.88909850399525,1.8883854397759,1.88791252233848,1.88780126921458,1.96376867651952,1.9212606171892,1.8642483049219,1.93357632399491,1.93814337888681,1.93668475056404,1.86685796274364,1.94646377324134,1.96619549761553,1.95444820840328,1.96632130100543,1.8906182024733,1.86716981378239,1.86715465507007,1.86765446037614,1.90434585057755,1.94467063743333,1.94412092203514,1.94370999602973,1.9432923859275,1.97162017484829,1.94968416672431,1.94976664162589,1.94862689343404,1.96018345682665,1.95672969055379,1.94838418994572,1.95125529866969,1.96271563617133,1.94597419779467,1.94898810956653,1.9480371310475,1.96340799426064,1.95759997451919,1.95411416842194,1.95937497219143,1.96272384139266,1.96281048481165,1.96342610918561,1.96492940382336,1.97106839064399,1.96647201376912,1.96619303386553,1.96737605428399,1.97448845841745,1.97059927716038,1.97148797762297,1.97020434351098,1.96916261915098,1.96547529349825,1.88879238744714,1.96103004407453,1.97400870436247,1.966239198793,1.95762684411662,1.97535693201111,1.9768147299431,1.97568555723551,1.97630199517917,1.97468317346843,1.97330772155138,1.97177732525294,1.98264380068779,1.9687279355418,1.96487995132921,1.96326026101984,1.89110886214181,1.96092911362939,1.96270230079097,1.96256626328353,1.89064749008605,1.96566362067431,1.96926853168175,1.96925345365334,1.9722545264143,1.9664930533079,1.96650180902038,1.96374191377419,1.89400205296231,1.97113412030864,1.97569278261686,1.97664503438561,1.97527401230518,1.91179135141997
1.72641173225758,1.72721779500748,1.72648418612221,1.72633393676063,1.72961566180187,1.72657474919335,1.82238341483698,1.72605527771069,1.72521677572814,1.72588429696619,1.72615820034862,1.75544973336726,1.77387162379104,1.77314193411381,1.8129444662878,1.7731468350642,1.97597244501094,1.72407638487771,1.73132782153005,1.72169871346886,1.73033300507886,1.72166520025055,1.72401331011903,1.72125401270766,1.7215390888159,1.72060111911257,1.83110143538694,1.71747992249165,1.71948027276144,1.71532314386564,1.71985600128407,1.71370386097333,1.72003373650241,1.714695245877,1.7168522818842,1.71718776749537,1.71828630631437,1.72278112794904,1.81520330309266,1.75586748447358,1.72022057799115,1.79432677136716,1.94520206801193,1.8755201541,1.87045495405699,1.79922754556347,1.79744248086504,1.84123384869045,1.94594506956517,1.94482184452847,1.94559781229476,1.90068343872671,1.79573929234614,1.87277906275098,1.8724793314705,1.87270591648051,1.873847423723,1.86933156861819,1.86765387588758,1.86747539675323,1.86683225418755,1.86911788234408,1.87569909577114,1.87671800551965,1.87604652308241,1.86182848999116,1.86443668820873,1.86973702097301,1.87938275283147,1.87100786679636,1.86473523890447,1.8634579518346,1.86191634346996,1.8606923514252,1.88054166656826,1.85978426394701,1.86137321721298,1.85930670564429,1.88188645389955,1.87374075997203,1.96553388898309,1.87712918240785,1.8855264617117,1.88139970809531,1.88692555852411,1.86933660330936,1.87098231074373,1.87250766138842,1.87530294393537,1.88779016816408,1.88675507038602,1.88709562458532,1.885691895735,1.90828703080817,1.8654594076456,1.93312118786949,1.93742414745244,1.93729787116426,1.94031973044713,1.93896611161517,1.94037050537858,1.94072587611314,1.94218945843273,1.90214592063424,1.867453189714,1.86777639356791,1.86795920750882,1.91207538213583,1.94448431182501,1.94454548172719,1.94379560871125,1.94400234959598,1.97862190033578,1.94676820899445,1.94305499996204,1.94269522497151,1.94363627400696,1.94342822359161,1.94526490318767,1.94643742638973,1.94922581606602,1.94784793384796,1.94973622475235,1.94903216682458,1.97829268617891,1.96847100330565,1.9738557915616,1.96753285437434,1.98204307915472,1.96072489651037,1.88212170802099,1.96517748486958,1.94922907896882,1.95661012072386,1.88389029973554,1.96728166618635,1.96734329657718,1.9621170401676,1.95689869340154,1.96502795338611,1.96791548347844,1.96515421551458,1.96217719943721,1.96077528072322,1.96261858552064,1.96521457195821,1.96205685085938,1.97394868620155,1.97593813163418,1.97497525734768,1.88956134185558,1.97352248407996,1.97481521433842,1.97207489013377,1.97499732723442,1.96937261198293,1.9664621518085,1.96358332150093,1.96340690118944,1.96227339827625,1.9644373044913,1.96337856616051,1.96372873283544,1.96501293407344,1.96600138532385,1.96713129269926,1.96846783830347,1.96710716800641,1.96691751160955,1.96509552142502,1.96575693650116,1.97092172282921,1.96940760333289,1.97633227898183,1.97640440315003,1.91242542150374
1.7271172289613,1.72815119600144,1.72708517335534,1.72797271833792,1.72333350029388,1.72717259940596,1.72643509133959,1.72635536307525,1.72666217424206,1.72596222562671,1.83250477717337,1.74469300350299,1.72644538015916,1.75228797118659,1.77472697404905,1.75248733188786,1.72577205233668,1.72737020161027,1.71971673734816,1.72772769273424,1.71900527032491,1.72530571423111,1.71965668694583,1.72251895026532,1.71924316540169,1.72102186633884,1.71865591936065,1.72010456463848,1.71650940377088,1.71970564847098,1.71604695464496,1.71776613477428,1.7150773768146,1.71778752879287,1.71829067401734,1.73296925109678,1.76737342317294,1.72130914609845,1.7204240056098,1.72208209758974,1.72198577549658,1.78672109975179,1.79851736384698,1.82298896668461,1.79826391343634,1.79905322613516,1.79786132146726,1.82778177303981,1.79767171319951,1.87939656372759,1.94632801132893,1.89628607365009,1.87278210494458,1.87243742235888,1.87268502017491,1.87038227162082,1.86972712402448,1.86814191832717,1.86834541111431,1.8669391959835,1.86711437856748,1.8668311512073,1.86689386794516,1.86723044434801,1.86286943420585,1.8618777714506,1.86314104197865,1.87266356914828,1.87818245276472,1.87759663610821,1.95539330278661,1.86416882384925,1.86484258641439,1.86218814084317,1.86230662573988,1.86088014164145,1.86191507736212,1.86072251217313,1.86305369514747,1.86880109377564,1.86523607750815,1.87298032985523,1.8657039536779,1.87397007746111,1.86816151545005,1.87024165219559,1.87038227137652,1.87155582403293,1.88907142727048,1.88840565828853,1.88893811791614,1.89181798785359,1.98135133108986,1.9556637557488,1.93995914477691,1.94149464823382,1.96259199734786,1.93700874615293,1.93921673103762,1.93847014952863,1.94054421773884,1.93916830206339,1.93867238473814,1.91645706510652,1.94383941414004,1.90409027307889,1.94325298827263,1.91815923645172,1.94463572160818,1.94362684943007,1.94506043946978,1.94399703815223,1.94550590417425,1.94470584037656,1.94462503827171,1.94265166938325,1.87411497041178,1.94357616491891,1.94608140053979,1.94557257389597,1.8767966987679,1.94834257738171,1.95079038686613,1.95053706643492,1.9517646104962,1.95334793971095,1.95173979518862,1.96417177925805,1.97955044442935,1.96258173955116,1.96799589055545,1.96723655050315,1.96979125954028,1.95848864746352,1.9617428865631,1.96491548454439,1.88559377919802,1.90900353458217,1.88762048596328,1.96370896021994,1.96289303752311,1.9647079337425,1.97059528462903,1.96806038451033,1.96885787382584,1.96696895245032,1.96165734826279,1.97152741885724,1.97052000893335,1.97353144813687,1.97624907003304,1.97245982230183,1.98243015787051,1.96985914820312,1.97245665656589,1.97162930332836,1.97644196414427,1.96227123140988,1.96376819289722,1.96208645326757,1.96418657635598,1.96347017034934,1.96487648250383,1.9651819178784,1.96627873906907,1.9656742600874,1.97349721467565,1.96633572508801,1.96705901471711,1.964907885385,1.99070688691277,1.97327594592696,1.97355081934703,1.97560566409576,1.97754266876315,1.91373510117928
1.82228729553654,1.72964190500082,1.72982125126362,1.72782269241474,1.72875470276689,1.72677150572392,1.98045160441147,1.72623728246892,1.72725601920408,1.72594419205509,1.72780735815314,1.72681817656431,1.7266133343085,1.72659145453838,1.72666097049445,1.72649564257763,1.72800017806894,1.72570020456555,1.73032366208606,1.7240511072264,1.72838136520169,1.72236851368493,1.72457757095617,1.72147868330333,1.72232369114039,1.72068237426986,1.72151094729056,1.71995626240264,1.7219210862353,1.71977359996966,1.82885224375663,1.72130785575106,1.72052821656858,1.73769664322934,1.76877516175545,1.74255597318565,1.72000813106418,1.72228569108917,1.76933406396738,1.72331094106946,1.72376583724674,1.7838125581848,1.94812668367331,1.83359437167867,1.7976353993676,1.83043117047531,1.87336770215977,1.87558442912323,1.87493176671392,1.87648889984963,1.79677738079212,1.89249264779938,1.95523951190591,1.88955081669739,1.86947088860575,1.8701595783879,1.8675893164761,1.86968670583467,1.87159534881862,1.86840771426796,1.8774930872478,1.86717915387741,1.8675082186423,1.86811217309061,1.87580703534007,1.87435892130034,1.87791696008323,1.87685796445914,1.87875627465634,1.87471521036076,1.86461610032731,1.864328471358,1.95544136243683,1.89279522356808,1.96236195206855,1.87573998870716,1.88353883892613,1.87665962539024,1.95897855269305,1.87751882362765,1.8858979900198,1.88274064029464,1.88933344160862,1.88967773028307,1.95875747830203,1.87255471837469,1.87221255356799,1.87245390502302,1.87423494252834,1.88768511832822,1.89005570696819,1.89392453265917,1.97628385841591,1.95639165109811,1.95513538294327,1.93991764102868,1.86735775601421,1.93719513733386,1.93934537194239,1.93747491467079,1.86712713784771,1.9378891143751,1.94024675004997,1.90914213241313,1.86839195422413,1.86939713448599,1.86977554176606,1.91307173042146,1.94364822461369,1.94326526443313,1.94321997864957,1.94407496362486,1.94517483299904,1.94456027589633,1.94521215887455,1.94307862298852,1.94608140112836,1.94372367727295,1.94748122534264,1.94621336451377,1.94964222001334,1.94858805313483,1.95141430710246,1.95113715434975,1.95261880564352,1.9540693714977,1.95527520160069,1.96405502619594,1.98669979125725,1.9214908793633,1.88335495264539,1.92985465504118,1.95642014537691,1.95815048426631,1.96036731683303,1.96329782431904,1.88583088510849,1.9255940417288,1.97346750695768,1.96345571979558,1.96253846970089,1.96707063089231,1.9793347515557,1.96600717678649,1.96797691831065,1.9678406420885,1.97418642852256,1.97262121568664,1.973274719067,1.97199005309517,1.97430994901583,1.96987157052314,1.96499721730017,1.96050449660475,1.89040748980131,1.96098164476927,1.9625871418564,1.96114203256299,1.99038029832971,1.95984498006902,1.96324413072208,1.96284524754913,1.9646235207348,1.96483366589874,1.96697057398732,1.92484341354866,1.89088718758226,1.89157515765264,1.89265208470326,1.93190885081279,1.96612322770353,1.97362754660137,1.98169457512165,1.97389444024682,1.972754660481,1.91485054512381
1.73154296897821,1.73114832823027,1.72995079860371,1.72947093662891,1.7277121578064,1.72783584833034,1.7268256168762,1.72626810042229,1.72539127969635,1.72461165237663,1.72552971641619,1.72678838734106,1.72712946551893,1.72755738924749,1.72629234318841,1.72738012811837,1.72523077635019,1.72738474902431,1.72616469249067,1.72675092277578,1.72439319120345,1.72486183095325,1.72299400548502,1.72313648400619,1.72181397111215,1.7217482778626,1.72147599252811,1.72166295847708,1.72077906459657,1.72142520189411,1.72110376001785,1.72136954689073,1.72108007772657,1.74733328093031,1.75668244018062,1.75154439937729,1.74519965362234,1.72504699297341,1.72629659603476,1.72392455911783,1.72410982774817,1.78560604016773,1.87549531287192,1.87600865761571,1.87668989998721,1.87589960252615,1.87452868329084,1.87610662280418,1.87556857206873,1.87455233689527,1.87295870285014,1.88622811561737,1.91270166772347,1.90108378576917,1.88951221363397,1.86956959086817,1.86895649378851,1.86828546442046,1.86877186216282,1.86752351438669,1.86651876490059,1.86725698500946,1.8691318875051,1.86888937066565,1.87126032432365,1.87224197040801,1.87670048618356,1.87512711366732,1.87267968889556,1.87084698644411,1.86791245242336,1.86532861663104,1.86650169680339,1.8690436905534,1.87187742530422,1.87395281386915,1.87515473060158,1.87529102288265,1.87665630001757,1.8779866511713,1.87976862425426,1.88125322401993,1.88104375275019,1.88969888496308,1.9110673201822,1.87447326301117,1.87388840875284,1.87314795661923,1.87386375664153,1.88681025068766,1.88994119369188,1.89769549692221,1.95942533858014,1.95763397020049,1.95310529904457,1.9414058905902,1.94191535386011,1.93968284854905,1.93946772072941,1.94043501719276,1.9406197402555,1.94182152717709,1.94085658436487,1.89742766508204,1.86874949902833,1.86958838775049,1.86953759184605,1.90293869413689,1.94224392181711,1.94234271284747,1.94278238564356,1.94339466952387,1.94431482140455,1.94361964119149,1.94309324926625,1.94110277684148,1.94109396972309,1.94125207653006,1.94374552021847,1.94431016237503,1.94585151206702,1.9467787452309,1.94951432357406,1.95097995965274,1.95160745982363,1.95358238142699,1.95821470147203,1.96174557670162,1.92370329579573,1.91397673949611,1.90296790744884,1.92149849886329,1.95489729117792,1.95764451352937,1.96117490923775,1.96563514135741,1.9675928815012,1.96708720236457,1.9652243021571,1.96415601977084,1.96511955409175,1.96848356788107,1.96930447054333,1.96642095771849,1.96775972064368,1.96862697222734,1.97284510680577,1.97139202053902,1.97053720369696,1.96876656949099,1.96932761337242,1.96738798868798,1.96481347342197,1.96123520604667,1.96005858326471,1.96175519102583,1.96328855722007,1.9620547730966,1.96075846159657,1.95769078541942,1.95948969640926,1.96133499227139,1.96298681250788,1.96287504380814,1.92495424821937,1.91516101794155,1.89166108030643,1.89114784665111,1.89150707085649,1.92511138944032,1.96939302929003,1.97165244740328,1.973269759519,1.97362052684226,1.97351058830031,1.91543156830291
1.73205174832416,1.73171487487424,1.82721821564914,1.72937328030466,1.73111158557184,1.72782775803452,1.72821548515587,1.7273536333745,1.83047665993408,1.77787784345361,1.8331872242065,1.72812744435035,1.72968892087706,1.72712968491724,1.73073795331604,1.72515176858255,1.72720301311869,1.72619706911063,1.8411074545628,1.72635650145513,1.72681692817311,1.72496563284482,1.72432299503873,1.72457411887282,1.8330467613396,1.7621256497891,1.72263462486633,1.72185740740553,1.72174261567736,1.72147453379763,1.72025709643231,1.72085123142847,1.72064163537925,1.76104423674546,1.77885981298793,1.75804856097413,1.7702598025806,1.72613925072192,1.72236216127116,1.7240761042163,1.72465330250586,1.78775530759214,1.94595438748335,1.87571143642389,1.9402532584096,1.87426678590435,1.87065892530527,1.84094460409737,1.79969949384535,1.87230705630987,1.87122285467269,1.87901368961678,1.96526475494186,1.91606542977181,1.94857844438538,1.87045499440152,1.86823601295734,1.86725928619712,1.86650334527829,1.8647013585677,1.79320174281446,1.86805650649706,1.87150677982654,1.86767010611542,1.86551088916112,1.86885930091358,1.88014323790153,1.87047846414138,1.86446271798887,1.86828307277646,1.88115517027894,1.86377596475237,1.78971261220881,1.86014337474131,1.85984403435483,1.86225675170646,1.86391414291599,1.8702235823695,1.86638623119864,1.86546897530744,1.86651039382452,1.8662598787102,1.8671011790352,1.88905358078174,1.96159299766503,1.87666304722888,1.87473415943014,1.87346254776389,1.87547627725517,1.88503865672577,1.88730673198386,1.90291659836927,1.96191146458621,1.95889529092447,1.9388285148238,1.94601887123134,1.94748619352126,1.94237661743695,1.94035819220585,1.94695968775094,1.95504188268989,1.94754696676191,1.9502850866531,1.88606762749164,1.86924286013296,1.8686634967824,1.86937057965193,1.89369945745709,1.94247969351495,1.94307466523467,1.9434792179297,1.9441922494176,1.94597181766284,1.94447548092698,1.94474391642111,1.9416462556647,1.87291828180097,1.94168972180943,1.94524560444969,1.94439102396783,1.96460846839461,1.96161974497769,1.95135586174736,1.95416790967793,1.87974247263912,1.91234776708638,1.95995088697334,1.96210731602575,1.88130751413294,1.90175881983463,1.8827881533506,1.91201869689089,1.95619544601345,1.95540821918374,1.97235344831655,1.96865196983627,1.96956680952078,1.96788000990128,1.96542738915815,1.96402049730225,1.88810128205527,1.91726014552158,1.88980265998742,1.96489999346852,1.97168189624934,1.96878047313723,1.97645573209743,1.97249928384007,1.98300869729406,1.96718933333881,1.97058823388863,1.96845228515055,1.9698530629128,1.96471937443943,1.96322919085881,1.96602138875104,1.96933846167614,1.96546943700308,1.96282962687256,1.9584332479146,1.88974448480854,1.96202351075294,1.96428994233226,1.96302348732896,1.89121170216958,1.8920937793105,1.89015332430909,1.89130681388556,1.88880176915191,1.91492873710144,1.96981092767368,1.96960802323757,1.89384910330944,1.97412759004013,1.97600589931612,1.97576403258516
1.73108470986529,1.73283613992068,1.73103805792266,1.73147277840035,1.72607960166087,1.72978645578984,1.72739786366456,1.72889548428405,1.72813564937084,1.72952373685368,1.72836943963929,1.72925779917951,1.7280811569234,1.72943690166295,1.7225523688173,1.72978187919754,1.72061637815668,1.72898401316886,1.72505873315328,1.72758635202417,1.72634701833555,1.72653811518293,1.72485159779627,1.72544265084933,1.82649132342445,1.82464261705955,1.8340047149573,1.75765912009713,1.72278526393238,1.7230674617228,1.72374893421373,1.7508080346314,1.82249314111987,1.7821888756009,1.81937477572099,1.74638352684593,1.71985868903877,1.72541434758843,1.72389234213631,1.72519591606841,1.72594160307923,1.78964782603405,1.79973893930797,1.83307758864718,1.94899304883272,1.83863387805939,1.79929593642514,1.83005676073686,1.87164319763357,1.87146595179644,1.87129305594988,1.87030299823708,1.86894277253956,1.89750933156448,1.87013710737832,1.87193251693187,1.87417968295876,1.86766470263671,1.86624204780067,1.86571283606712,1.86738418762523,1.86683427599964,1.86589334447469,1.86603918731146,1.86555519344285,1.86488680946078,1.86500127627937,1.8638674596198,1.86437564377108,1.86542289520637,1.88222305287954,1.86337169375905,1.86194162533319,1.86094601678215,1.86094644368211,1.86160202382199,1.86197775186526,1.87552863405988,1.88877049994176,1.86532485323146,1.86714929764735,1.86592960704572,1.88912372244868,1.88817857843711,1.86944300964285,1.87873526286234,1.889397631035,1.8723284585624,1.87525166597628,1.88270369151965,1.88046931934689,1.90867389095879,1.99339234266546,1.96682043218649,1.96885321325811,1.94925581591871,1.94032364863579,1.94527506510553,1.95596409787356,1.9497281784166,1.95269159727899,1.95086297037474,1.86881063346207,1.86974441229817,1.86576096432948,1.86973463469761,1.86731309415529,1.88426604482216,1.94845585405899,1.94613271990386,1.94663347762848,1.94583256535832,1.94651248896349,1.94496409613013,1.94523791474612,1.94253605371328,1.87324506362009,1.94358582727134,1.94703857163427,1.94600537413177,1.96774042064577,1.96809919510407,1.97176909355306,1.9588866687818,1.87925795932815,1.90014709670522,1.88021078054866,1.96216177538075,1.9598536540377,1.91038993910382,1.88209899313493,1.89988331852941,1.88307528639069,1.95593210055685,1.95850725992248,1.95911732742817,1.88583190875153,1.96812841474551,1.97007826637037,1.97039933461085,1.97427800895576,1.96469642259673,1.96550108852508,1.96334664042128,1.96390835806185,1.96379842753225,1.96296075076017,1.96946766734852,1.97105304806819,1.9667870421877,1.96344247748029,1.96552708797671,1.96219380470894,1.96505859960795,1.9747605320586,1.96963802508686,1.97485041962873,1.96904959991326,1.88962860784631,1.95961574159922,1.96296540070504,1.96194182006834,1.96815548358736,1.96484690085651,1.96585800488462,1.89088736721768,1.89415463099092,1.89033180701035,1.89109039809285,1.89641531113908,1.89332143058897,1.96845698065338,1.96875590052877,1.97400463702408,1.97913332222494,1.97720347739972
1.73445551085403,1.73166543387226,1.7345329931928,1.73004555901485,1.73394295794057,1.7297744386583,1.73089946201439,1.73084404752034,1.99885845044583,1.73104510667394,1.72997837281328,1.73064030816634,1.82316198117055,1.72854045711039,1.73419790985934,1.72550154435258,1.73470711412089,1.7251901593367,1.73067181709211,1.72721470141084,1.82665111177654,1.72755692893219,1.72542038673032,1.72556636819188,1.72527911621035,1.82409188778761,1.83635836513539,1.77807747877731,1.83960799347593,1.72729322459937,1.72457734745685,1.76517601139335,1.81841934150425,1.76436351086884,1.72398668989152,1.72488024798505,1.72395799277782,1.72519923973907,1.98192222970821,1.72650566799037,1.72696420818404,1.79016442434762,1.80083842509274,1.80215083612971,1.79387549419997,1.82545732349429,1.87500873182818,1.82103688838736,1.79972287212457,1.87114542843313,1.87300640715534,1.87141219942551,1.94923205562838,1.91283745641217,1.96968624276212,1.87142547586511,1.87034857687677,1.86882746604443,1.79588360572173,1.83294917708748,1.79331712343895,1.86674376825439,1.95238476868283,1.86574174794744,1.79243278841097,1.86367358598843,1.8799336019057,1.86323031120482,1.86389067675607,1.86371264109803,1.78944347816727,1.8598243744633,1.86119351878386,1.86193260413788,1.86225745204337,1.8764695015008,1.8854859826635,1.88045615438365,1.86315076785638,1.86299048454416,1.86395487085736,1.8653563659854,1.86823940337608,1.88810267799922,1.88896289973245,1.88143467572567,1.87100463160437,1.87068995108498,1.88929799077237,1.88691054892561,1.89039860856207,1.91378839965216,1.99248241580225,1.96483183493103,1.94373750809013,1.95130929855934,1.95187441188976,1.94769124631914,1.94870592602894,1.94834981037745,1.94747318182191,1.95018192212192,1.86953633532427,1.86845521154467,1.872681217691,1.86801088606354,1.86969447928534,1.87187136810225,1.87142353235036,1.94549075011026,1.94471981434132,1.94539497794085,1.94496130281806,1.95161536817422,1.97136241489044,1.95201216416735,1.94690783894521,1.94586457972882,1.94806535650884,1.94750777496207,1.94879915210246,1.96798626346751,1.98335085769469,1.96122650305333,1.87939193984283,1.90973161289265,1.9659390506595,1.96335707623133,1.96573562952599,1.9199849562368,1.88213455906484,1.91938715174444,1.96417628517714,1.95794403469199,1.96770364168191,1.96249746572158,1.96218884877729,1.96628294462597,1.97585310146281,1.97055836202224,1.97076720793117,1.96681011246896,1.97857640308474,1.97434072996439,1.97905560921295,1.96550527348437,1.97108349082311,1.97002710645181,1.97160959058732,1.96620759027977,1.89087817596325,1.96561009939303,1.97921229641745,1.96581519180832,1.96519016885545,1.9689143609372,1.98567364442413,1.98185136425561,1.9890509405549,1.96067134791878,1.96253160899846,1.96160469334742,1.96229408078806,1.9203217366344,1.88893914219685,1.89223038733689,1.88685142142638,1.89306318841521,1.89180066547986,1.89502557989255,1.96832322297267,1.96867266097071,1.9705400535271,1.97168129116981,1.97936318124528,1.89236599307031
1.73231297551185,1.7341154726201,1.72825629893267,1.73376285790701,1.72924622853419,1.73325417602907,1.90645896693233,1.73274371102197,1.73249030982019,1.73263617208798,1.73249827102791,1.73232875926121,1.73040703915502,1.73215850615363,1.72505435344126,1.7328942209521,1.72218346947673,1.73156942501039,1.72547354879851,1.729741014328,1.72791083639522,1.73004927814921,1.77652521343215,1.79041894855723,1.81638579194376,1.82476376578428,1.7263531383663,1.72791990277348,1.72691903062443,1.72837056178568,1.84108785770445,1.77964399342848,1.72591085334463,1.72752192235626,1.72634527121843,1.72690933873039,1.7263042383851,1.72576153456938,1.72416485234264,1.72685172339088,1.72689428604879,1.78871846369572,1.95010674126238,1.801676111331,1.80009039261447,1.8000952022019,1.79832892334666,1.79918584896811,1.79860477599603,1.87043271689505,1.86996119679888,1.87224105997487,1.87237860720915,1.87318658532379,1.87020217346183,1.87311479204099,1.87467391548432,1.86962199258923,1.8671692687411,1.86762802800061,1.86940820082172,1.86717255551496,1.86610699704405,1.86573369303792,1.86569439691295,1.86457367464206,1.86517915422945,1.86394288373809,1.88226337515384,1.8759523658981,1.88202889468514,1.86015536974802,1.86280544325913,1.86187569146981,1.86313056881282,1.8865706080603,1.96174395997389,1.89571099330374,1.86328390136514,1.86189379421868,1.97058015225622,1.87724129076952,1.79466275618121,1.88818504678899,1.89002042548461,1.88423644967446,1.87426956454332,1.87202551585163,1.80538967011052,1.88473136522063,1.8818334920064,1.91757932293786,1.96978449888352,1.96316985123853,1.95301526615219,1.95169343320298,1.94040010666929,1.93914140943925,1.93909473505379,1.94056603628273,1.94300498334474,1.94739412438478,1.86953421897189,1.87081714270344,1.86582790956879,1.87098033710505,1.86847406266213,1.87175484928451,1.87172051222746,1.94600527174746,1.94597528949174,1.94600854373696,1.94555488144261,1.95552423175654,1.95917896051169,1.95441495912384,1.94793196482919,1.94733873528117,1.94830219921931,1.95583118230455,1.97828489115004,1.96760996371519,1.95601253170829,1.9606398946012,1.87890750648875,1.91978045326602,1.96020544684872,1.95991099579488,1.88169878190533,1.93150401185291,1.96304581237516,1.95911906372321,1.95765533947015,1.95541257396158,1.88644707619472,1.96414857384548,1.96797655504191,1.96623094088917,1.97511180965942,1.96934122417059,1.95793200722813,1.95451415399711,1.88820605886811,1.97004650600925,1.9729460375757,1.9640655164419,1.96435078611868,1.96462758266092,1.96397638652691,1.96453908938446,1.96496048207084,1.96791992885335,1.98107004255877,1.96619248927821,1.96011819658773,1.96709595636084,1.96710850803228,1.96877188006608,1.97409031560843,1.96154510211191,1.9617141019783,1.96141159301423,1.89082653961346,1.89149510055994,1.89356688785359,1.89005447976337,1.89588037558966,1.8912834712049,1.89480570558878,1.89338012927031,1.97742291843436,1.96823167052765,1.96834157932033,1.96970952446294,1.97503587458712,1.88144331514391
1.73447465455042,1.73261790550608,1.73637367535068,1.73179052202121,1.73564154862389,1.73341416855557,1.73522098879125,1.7336677053748,1.73183991539372,1.73324108678934,1.73457158297256,1.7331851583399,1.73395951519756,1.73129887996941,1.73585786465046,1.72896500278602,1.73741184228058,1.72868873477847,1.73406205747393,1.72986278942401,1.73163243205982,1.73091659991781,1.84224150890393,1.80647759206294,1.83737757577967,1.83321321565492,1.83655004984633,1.72930062659303,1.72794344675127,1.72923838877631,1.8221722256378,1.79429679191183,1.8270227569275,1.72880087896551,1.72700984303423,1.72827398255669,1.72912687355386,1.73078037138827,2.00221301403121,1.72994949304712,1.72962771669226,1.78622710933573,1.80006644085608,1.80063822799215,1.80018716414984,1.80009037651308,1.79967155466158,1.79966535593381,1.79935981700507,1.87185520776198,1.96757161815243,1.87308340006309,1.87231619625432,1.87370986525878,1.8762098286098,1.87283048864648,1.87479310144714,1.8692070781114,1.86868452361554,1.86805747425923,1.86628007236036,1.86820735654243,1.95474930347366,1.87080798702603,1.8663169759994,1.86530179126263,1.8661377831101,1.86493124140717,1.86521364887309,1.86309388165103,1.86297390109646,1.86069644723679,1.86030031109385,1.86196968411958,1.86321090954246,1.89741704850249,1.96612745912674,1.91342257756303,1.96292905594115,1.86126947340483,1.7917407294478,1.88178760557244,1.88847572471594,1.8876589412908,1.88627529026592,1.88580072664749,1.96611060478574,1.89948379727269,1.97807745769058,1.88550533856922,1.80867695018574,1.91990598934006,1.96653271632265,1.96170728102058,1.95978642554525,1.95557345714984,1.95881718484895,1.93968060857811,1.94241424459352,1.94119670401843,1.94157549694974,1.94537345939253,1.87106705455916,1.86979754574003,1.87197930480701,1.86925760201622,1.87051482608077,1.87088337791696,1.87196471646066,1.94627428655195,1.94652571141367,1.94628280806486,1.96731290297601,1.95806943590473,1.9461880735288,1.95611577495802,1.98885888532149,1.94850057495288,1.94911146307442,1.96050831230882,1.96643691904463,1.96718311163665,1.97491041853969,1.96199738188582,1.96775611464982,1.93096146198486,1.88205442200538,1.96923784062209,1.98698538141252,1.96731737138236,1.97146909883953,1.9702170061851,1.97909549516557,1.97526664956467,1.97699802188833,1.9652650405411,1.96822713964399,1.96648338680246,1.95760037704566,1.95687623301573,1.88986892274919,1.95563293012763,1.95913499585949,1.96195571451067,1.96212838372117,1.96386140285391,1.96361985777841,1.96627735050344,1.97522593337227,1.97439707059525,1.97479663638125,1.97176171750949,1.96830389286927,1.96731792432067,1.96850734892294,1.96691286466875,1.9671485190961,1.96443998344222,1.96353728684856,1.96247930497466,1.96291612742581,1.96196654297166,1.96596829098894,1.89255899233099,1.88977277800939,1.89391272073304,1.88770675938011,1.89408920498541,1.89227834899615,1.8924106881471,1.96643517721835,1.96835123283438,1.97080215941354,1.96879702911225,1.96846540530649,1.87291705154213
1.73452440150957,1.73524057452492,1.73036631032504,1.73442301586615,1.73232169383214,1.73460365305791,1.73435487714576,1.73406805553604,1.73312080438558,1.73360147164487,1.7335376211345,1.73358700900609,1.73219587569812,1.73314301910076,1.73124794586512,1.73303176506694,1.72719736130465,1.73351761801735,1.72833748168715,1.73261802011854,1.72983471550021,1.73150324680639,1.73027295044222,1.76861768516358,1.83896181967489,1.8315311260479,1.82795753152222,1.73005877376439,1.72836884229636,1.72980123776761,1.73004265686169,1.76941642138527,1.82777889434996,1.72994833968083,1.72893241875963,1.72967228736955,1.83559020671752,1.73102225393557,1.72921044632927,1.73064767673736,1.73047487464172,1.78439361841298,1.80026050653498,1.80065746956012,1.79940854382692,1.83449517315075,1.95207718692142,1.8742460694811,1.87457409840979,1.87402997227058,1.87602361180161,1.87586706457383,1.87480630547695,1.87607046176629,1.87521415423163,1.87431523044414,1.8674224310177,1.87056061040008,1.87969612343143,1.86698425351962,1.87111769162322,1.86794102962285,1.88069530540366,1.88403084541863,1.95580661577851,1.87409906826627,1.87881950394889,1.86837203469704,1.86250706368801,1.86171314366705,1.79069302907299,1.85951234910159,1.88466609183659,1.88686494732404,1.96166029962425,1.91259974802254,1.95882042176885,1.89288034063862,1.86507854417623,1.86324454872432,1.88849417183555,1.88626596784039,1.88798659606379,1.88393869207104,1.79750468136176,1.83259074291389,1.79919025848195,1.88066504123445,1.87909861141146,1.88675297032695,1.88938227865191,1.92194705517783,1.97291569352507,1.95812205893406,1.94871518473854,1.94835435342169,1.86959736286674,1.92534274583259,1.94203069142122,1.94184760318897,1.9632021405617,1.94490422400641,1.94429461100579,1.89375704828979,1.8692076341791,1.89067656320176,1.94335955405989,1.91831776415297,1.94445544609593,1.94569022660392,1.94550232254444,1.94513996193749,1.96823662787715,1.96031804813777,1.96586249998992,1.95960711585236,1.97788725750237,1.94983532460814,1.95139308544453,1.96559436629619,1.96712464600736,1.96781389525473,1.95482822614273,1.95940018474977,1.95594101023494,1.96716121498082,1.97570396392431,1.96961713983386,1.97211489339504,1.96481055557842,1.9638241485922,1.9589957197341,1.88339045725157,1.96451362993103,1.96523170548716,1.96495766710891,1.96551494021082,1.9664139391393,1.95910362876779,1.958584087836,1.96050289823635,1.95788090289039,1.96929291182836,1.96502786063408,1.9855523903382,1.96972813753949,1.97218878384322,1.96933399125439,1.97086539136037,1.97253236533662,1.98688698857917,1.97219098521766,1.96248158790295,1.96703770917535,1.97138568273101,1.96469966820151,1.96467043256558,1.96329967292556,1.96447162122367,1.96301351780387,1.97935614704315,1.95966885149047,1.89131836845661,1.89111260026635,1.89410112942082,1.89149902833708,1.89816100223629,1.89214273529896,1.89314985183128,1.89270772472444,1.96802746270079,1.9677077976836,1.9685446929574,1.9678222623612,1.96847895508942,1.86279452707388
