0.951120526539046,0.951211928151891,0.951433432087572,0.952606917724277,0.954186595714773,0.954872863706517,0.95683982648524,0.959290390166265,0.960948880026771,0.963060017263487,0.963117168957076,0.963826479215532,0.963568910988917,0.964399259916471,0.964698327135732,0.964637268836802,0.965274925178079,0.96737380541,0.970808345708172,0.970947457422569,0.971962367895222,0.972538815822644,0.974377246341522,0.974611679964625,0.973992748417003,0.974302134924558,0.973479955148738,0.972743223299329,0.973848094702527,0.972892679048231,0.973878398077157,0.97321924419145,0.974170844229078,0.974411010588996,0.974811131494403,0.984703288331128,0.990861769989466,0.990089541950974,0.986391040852756,0.987787491576814,0.987092712420595,0.98893270901304,0.98726124467783,0.987644799133013,0.984759088632612,0.985903748841322,0.984967980849512,0.984022167078881,0.984151410920222,0.983631387909817,0.98454668134499,0.984337402378987,0.984212110928862,0.985050665600394,0.985357960993937,0.986192550719104,0.987682583783833,0.989347090775462,0.99187542045385,0.990888427150053,0.990512200565817,0.99112321669822,0.9924797392914,0.989478343749633,0.985914841621515,0.985346415457528,0.98646965415687,0.986299031591343,0.988182571156213,0.99007789971117,0.991778052918152,0.993850553873701,0.99719312153859,0.99889517733109,0.999259973532234,1.00103855764571,1.00065709116448,1.00292347898196,1.00396477787652,1.0057719259904,1.00649129731238,1.00843149750818,1.01059612705174,1.01092806840764,1.01218998229641,1.01205101306153,1.01345875684209,1.01214009303457,1.01188912870697,1.01274136783867,1.01377417258226,1.01417782098235,1.01571104355139,1.01464118843529,1.01549252177757,1.01391029638146,1.01461052908254,1.01378476123538,1.01655437008895,1.01595322285003,1.01880033865532,1.01943756211799,1.02310958404813,1.02398778002978,1.02596984466502,1.02713312441906,1.02807565148678,1.02974847917562,1.03128982984413,1.03433211479042,1.03522645551992,1.0388045228226,1.03930632894106,1.04189856007534,1.04133323035841,1.04379243669483,1.04394752329127,1.04517474330297,1.04498551414082,1.04577219775808,1.0461664708574,1.04698085996996,1.04804575881571,1.05138441460376,1.05372456291096,1.05636243412623,1.05969663620611,1.0622301827299,1.06336069396537,1.06658255924582,1.06713706841269,1.0682638045131,1.06596735539163,1.06792196753238,1.06819241397432,1.07070011787714,1.07167637596511,1.07293503980843,1.07284465466953,1.07390103482927,1.07508399111981,1.07736399449204,1.07913779108973,1.08165893472122,1.08192510410087,1.08348261834041,1.08355460218157,1.08296135581564,1.0846873454834,1.09017315679994,1.0978321866554,1.09725513250131,1.09408550768458,1.09609476279866,1.0973063955772,1.09790335445703,1.09863296374904,1.09881544434187,1.10111532616011,1.10127966290145,1.10377337465286,1.10430778412579,1.10628665067769,1.11501773000948,1.11913242734363,1.1229688031625,1.12390753559353,1.12449728281089,1.12644674021327,1.12744945563444,1.135513010493,1.134818080382
0.950123514495631,0.950217842820699,0.950563891685507,0.951131047754177,0.951964243583174,0.952686032575022,0.953701887552318,0.953360676335963,0.953782096788175,0.95561075972074,0.957279111186897,0.959120134255335,0.96109255423486,0.962855249643648,0.963658715957713,0.963164334168144,0.96414577293189,0.965369016585414,0.96618265645004,0.969271889035674,0.970733911055553,0.971468077824857,0.97183418606752,0.972210052057558,0.97235451307664,0.972302602100285,0.971734029971426,0.972127155944083,0.97241975707316,0.972310076851001,0.971623939982332,0.971997707602726,0.973125724655885,0.973774314503383,0.97451265206647,0.97535515212981,0.97688812547513,0.978977346462516,0.980868991802422,0.980905412159757,0.980131156576207,0.980454116210266,0.980712886990342,0.980691820487031,0.980439394215174,0.979850164765966,0.979744828417567,0.980479880571048,0.98164862072688,0.9829277875201,0.984010546282156,0.98455353740314,0.984741282677562,0.985114830147395,0.984955371856843,0.984124409254689,0.982794133274407,0.983500550844192,0.983511402279925,0.983134628626565,0.982653451544074,0.982215909512977,0.981765144063251,0.981389647682819,0.982785843396001,0.983486447942722,0.983846521325182,0.985233842981917,0.987015575706873,0.988309505501885,0.989335566010689,0.991006048189002,0.992553736339974,0.993212893438087,0.993681813223344,0.996123280210406,0.999241809755271,1.00131339628526,1.00290597110665,1.00478241560593,1.00513631859479,1.00598024953382,1.00622832711878,1.00803699716371,1.00863302386785,1.00916149125938,1.00879374349757,1.00956333258643,1.00952475725455,1.01034620298937,1.01085693018817,1.01123553160477,1.01160805284197,1.0116753777257,1.01185796689042,1.01194722660491,1.0124371043702,1.01259150824359,1.01330807630304,1.01457630819225,1.0158127102849,1.01875528103641,1.0208862947925,1.02199846729587,1.02343912667871,1.02489276126969,1.02573931521363,1.02827562829307,1.03001588370346,1.03129010036806,1.03162982158226,1.03210525703972,1.03210162514004,1.03462621211573,1.03688270743272,1.03862049407792,1.03973409005662,1.03984435504223,1.03936214955046,1.04105321138736,1.04360799337652,1.04576380761532,1.04713221015061,1.04790511291548,1.04925079012272,1.05082485767988,1.05246021104145,1.05421536008641,1.05603331105179,1.05798451783858,1.05973773292456,1.06084263219454,1.06359913718042,1.06516315201821,1.0664381360204,1.06792249639067,1.06883208154494,1.06945477712609,1.07053855559256,1.07159076387164,1.07323555372354,1.07392814099756,1.07478651623337,1.07704203838336,1.07889458100289,1.08036631677837,1.08129602253965,1.08173249287252,1.0818450985597,1.08244505122081,1.08419264187214,1.08681357215246,1.09093165302958,1.09268433661546,1.09465200125113,1.09557568104443,1.09654124178011,1.09747198678171,1.0989671496213,1.10044336226479,1.10237182707213,1.10399134948353,1.10605344336403,1.10969627769954,1.11275521025789,1.11527068467263,1.11739441622958,1.12047674907721,1.12299065602811,1.12573622310113,1.12809875306003,1.13186328435247
0.948828807334751,0.94921896868033,0.949178699406478,0.949821759891207,0.949481060438907,0.95075944442614,0.950762600769791,0.951798121208425,0.95188486372417,0.950686771279064,0.951467182703445,0.952161768211472,0.953405705142047,0.954218462800115,0.955807894929514,0.960333189532848,0.962628374902793,0.963831937152153,0.963906042094037,0.962645982985237,0.96279106417784,0.966570255054333,0.969677571162423,0.97048390392311,0.97017363262682,0.970566265344246,0.969468141138917,0.971135907488726,0.972517402805638,0.971464370666885,0.969885237849321,0.970199127607162,0.972476807612909,0.973145880069606,0.974579152413408,0.975904649765936,0.977196236824316,0.97896599380949,0.979848472244857,0.980482239577942,0.977734808809068,0.975476213491621,0.974019922722032,0.972112911596341,0.973209329721406,0.970834548455924,0.972204073679787,0.972598441662888,0.9720805156531,0.966978691586334,0.962816187150545,0.962026272883933,0.961969074012715,0.961624892765683,0.961957838420343,0.973024274071638,0.980170764241956,0.97707529191309,0.973689312986039,0.972519933641671,0.972959510360954,0.977016501713704,0.979833780981541,0.980414701677825,0.981122881309823,0.981727019222717,0.9817226163072,0.981809674649064,0.980409521143244,0.977827431878917,0.979228553769791,0.979141462466868,0.980746451580473,0.985510339967439,0.989352176097275,0.989006332000976,0.990337633635895,0.990028245571628,0.99077351003585,0.997609439584118,1.00239240843031,1.00415597105885,1.00358966063448,1.00594095772967,1.00598499180602,1.0067836449399,1.00532663975951,1.00735066601989,1.00677167164961,1.00781433129367,1.00801284607402,1.00773753623942,1.00615845360408,1.00704354043145,1.00698726756131,1.00770009618134,1.00777993525222,1.00959979122515,1.01060633373962,1.01167534080324,1.01271508480388,1.01204520476078,1.01393657282029,1.01859795076151,1.02101791768242,1.02332006892102,1.02198705812783,1.02056977266746,1.0192953448147,1.01857778221672,1.02118553949865,1.02501467888276,1.02927712747406,1.02815998221283,1.02761256739668,1.02996731705551,1.03027890098269,1.03309142767369,1.03586214722906,1.03596464438109,1.03709447650819,1.03758589270662,1.03960357510366,1.04044228520772,1.04243256189346,1.0433467261067,1.04440753968924,1.04735586298631,1.05021712411619,1.05237837969947,1.05539244088807,1.05909698334336,1.06150845140097,1.06315734038446,1.06224991872999,1.06406902587668,1.06368724106078,1.06673129464952,1.06712198436764,1.06880958648976,1.06899969436114,1.07101064898416,1.0712937650787,1.07140160277065,1.07194409765076,1.0736410835047,1.07529391397,1.07758579908643,1.07927064341174,1.07962295809368,1.08135114402227,1.08288349660333,1.08530925429189,1.08905324380294,1.0916376032665,1.09295543951027,1.09337149143287,1.09532160203854,1.09607861431795,1.09915391172419,1.10076535269263,1.1026707389473,1.10414961661422,1.10636058613875,1.10534524165099,1.11029542337488,1.11327743298919,1.11669693339951,1.12075868931029,1.12382382265588,1.12722058017591,1.12976072312515
0.940802863059715,0.942853299465145,0.944666687127573,0.946396552349991,0.948011955745599,0.94923959839243,0.949833898734673,0.949587136922213,0.948386319766739,0.948930489261569,0.949746605071612,0.951878088546739,0.953546487103917,0.954896090477671,0.955562465820769,0.955606055346182,0.955537935621611,0.955405436064119,0.955282054540431,0.955254739594321,0.955186574025185,0.955095921626726,0.955655878357431,0.956988676669667,0.958382786575057,0.959586400808938,0.960954060611082,0.962651729090055,0.964249792995742,0.965482826757466,0.966716886693967,0.966662853555901,0.966064449493092,0.968657023970834,0.970060519188183,0.970978440270914,0.971567000323703,0.971621108889492,0.970988974838342,0.971042405475362,0.971529227567663,0.971898177343555,0.971814665010466,0.970712101616008,0.970349548517323,0.969059602157601,0.967694764060152,0.965109253662764,0.963584993053365,0.96344068314802,0.961988906680317,0.961359070907949,0.961138345523154,0.961026869379878,0.961018092621069,0.960758663799565,0.961443982042086,0.962747863930776,0.964895749129244,0.967803526405164,0.969680567612361,0.969418440271211,0.970143371829063,0.971917928760917,0.973711453290178,0.975164062771637,0.976410691612864,0.97756152969088,0.977696626625707,0.976273683073678,0.976692061025562,0.977629292878018,0.980055811595482,0.982329669271443,0.984385272857936,0.986225791173426,0.987896962755807,0.988984309739166,0.989021848492783,0.988654922932346,0.989603293275524,0.991726571511208,0.993771307712439,0.996099814866925,0.998684662598054,1.00128724514079,1.00419408187427,1.00654231340018,1.00619851107881,1.00593789241082,1.00587902241221,1.00600483626091,1.00549963294482,1.00604011629805,1.00594724933494,1.00654642784905,1.00668244116442,1.00790643658354,1.00877439959044,1.00942304838853,1.01058588018882,1.01018346753313,1.00990466368242,1.01002623489118,1.01135381249162,1.01244865830932,1.0139135835389,1.01527338965639,1.01671791846236,1.01742620472241,1.01793701186247,1.01755061074446,1.01870823972195,1.02083873233947,1.02284923772306,1.02438169990151,1.02556184914466,1.02722121486942,1.02861291988355,1.02967228367965,1.0308889098897,1.03258430606433,1.03469810285533,1.03681967320167,1.0388809947641,1.04097087381831,1.04293975795413,1.04458010348455,1.04619023337652,1.04792669618274,1.04967231206117,1.05143505823532,1.05331037747103,1.05507390669968,1.05671531868421,1.06032761204249,1.06353286349375,1.06605724285737,1.06707769107261,1.06751728479839,1.06852107393602,1.06991541376933,1.07184489897256,1.07275493290372,1.07332975879443,1.07439308016295,1.07548373779634,1.07610508058613,1.07599350519849,1.07779502948557,1.0794186294107,1.08171187920795,1.08365971782254,1.08600372715432,1.08760914728671,1.08971260933497,1.09124350557686,1.09304532628862,1.09566930488087,1.09836196798572,1.1002191389202,1.10143967236293,1.10509610042263,1.10555205500031,1.10564645076156,1.10803024465899,1.11060781295389,1.11385678250159,1.11862407896724,1.12190689535287,1.12808245592263,1.1286147639481
0.927578610374447,0.925487814897457,0.92454313114855,0.924161644500918,0.925789239992292,0.930068791641337,0.936116549014352,0.941914995738462,0.946472148082625,0.94744950609104,0.946902203125883,0.940673536339169,0.934839492325969,0.93495752600092,0.936006273695673,0.937030357657887,0.937514605746867,0.940482398883828,0.941930159269281,0.943554215485296,0.943331378646454,0.947050215342523,0.949638551116431,0.951228234326251,0.954340368235566,0.952929572702601,0.953439098849504,0.953390045447633,0.955422347507469,0.957249706737386,0.961079157463319,0.963338675217813,0.963814345148681,0.962917214954038,0.963663515507347,0.961503080429233,0.962479344092011,0.966438586499558,0.970290796709969,0.969070796831733,0.967107625978083,0.966631771503161,0.967432018884264,0.968467390138544,0.968195588601602,0.96737621932282,0.966351439624457,0.964590620070158,0.962928318566843,0.961683243153712,0.961071401132927,0.96020232991273,0.960794662153542,0.960210083347014,0.961251094446903,0.960565185672752,0.962182939408973,0.962442233124084,0.965283161288334,0.967159539798533,0.967874787857057,0.969350093259827,0.969125647870916,0.965729463619636,0.965159165381615,0.965210272609371,0.966770787185277,0.966932061775305,0.970478477078017,0.972683219361292,0.974107652702621,0.973856156209463,0.970903870561358,0.971071642196956,0.970410193739663,0.971227919108478,0.970441569114608,0.984671674187068,0.987958306935312,0.988297781730564,0.988671513691716,0.989244389098946,0.990372651777781,0.989740180999178,0.987725828814092,0.987020219185727,0.987923918126003,0.995421105854356,1.00445280462669,1.004353875706,1.00280503739856,1.00485407862497,1.00385289009031,1.00547705991217,1.00472108149145,1.00577226143092,1.00464141699064,1.00691359515114,1.00648574404469,1.00682178517995,1.00443359983857,1.00532651157666,1.00667643141449,1.00605070192773,1.00713588943933,1.00702889723982,1.01034595584608,1.01335454023339,1.01540588235934,1.01641847035862,1.01577293333336,1.01571412368935,1.01631093719627,1.0157406676999,1.01747092336524,1.0178517269634,1.0190086515482,1.01999843200904,1.02147342118354,1.02163960536627,1.02191724505502,1.02151790831356,1.02216551649085,1.0235135301307,1.02577641794638,1.02568294433939,1.02624343362346,1.02780286888804,1.02982132568474,1.03089586396412,1.03266389854492,1.03640983436125,1.03899775657181,1.04703274071202,1.05366649113594,1.05227775013801,1.05168265213237,1.05786039352168,1.0810624989416,1.06069882561522,1.05642913159509,1.05724973618593,1.05718234402046,1.05742208393223,1.05990917130342,1.06114635009158,1.06490015816251,1.06830351527425,1.07228513789527,1.07552666285481,1.07698414354891,1.07999989568184,1.08177889008002,1.08352870971857,1.08335622790791,1.08702825021338,1.08833042699902,1.08990846448442,1.08843329697212,1.08830029553665,1.08968636808283,1.09675709636337,1.13944001337137,1.10462183379817,1.10276805993118,1.10578147567033,1.1076587553735,1.10962238799214,1.109214170022,1.11286122893155,1.1390431985266,1.1246088026553
0.925400945217728,0.924033178881374,0.922690814787304,0.922186476396285,0.922606890191971,0.922113865440648,0.922071040942815,0.922614659430936,0.923793027060281,0.925545620578916,0.927754016200763,0.930195827944306,0.932854053059032,0.933733828176527,0.935887089465265,0.937032597986469,0.939609531405507,0.941070793888179,0.942932378460259,0.943659201291167,0.945052162355745,0.946125632300071,0.947633002931652,0.947898437582468,0.94742098845575,0.949134798284181,0.950597095492672,0.951974991091918,0.95307295820379,0.954264294328152,0.955048782374973,0.956814868613858,0.958313394721521,0.959398863950831,0.960012828541736,0.959734044895121,0.959814920174922,0.959439521906082,0.960698163516142,0.961819401576525,0.96384241578556,0.965318571977634,0.966000081795331,0.96655580724677,0.966354950591749,0.965421996677077,0.965623901680365,0.964692823480271,0.962569958046225,0.960809443957185,0.95910568141645,0.958827305340586,0.958902099476932,0.959127805050766,0.959436567087272,0.959815725708695,0.96031335746599,0.960961477611746,0.962673220993615,0.962981861504186,0.962123570989496,0.961953364637747,0.96195731235025,0.963187349199166,0.963595677199463,0.964554059333163,0.965240864939851,0.966373218314439,0.968341442867412,0.970568493928515,0.972667787867488,0.973389354333995,0.97287596310892,0.97231548899338,0.971934307780332,0.971856737799638,0.971881765620247,0.972617353391429,0.974373096131784,0.975749205957859,0.976949907592886,0.978741354785903,0.980445652030552,0.982576383489493,0.985053650982331,0.984838139640578,0.985460056758359,0.985346840244603,0.98736991037983,0.989385525623417,0.990721472127353,0.992163951548131,0.993632901961855,0.994853879696724,0.997174940331424,0.998893524029664,0.999708145081873,1.000897670895,1.00167167627555,1.00259917913732,1.00349679952923,1.0028946617776,1.0035337177919,1.00399952882031,1.00483619942623,1.00555727943054,1.00796959615856,1.00787343378345,1.00832549228032,1.00980169697085,1.01189114942426,1.01287334471205,1.01325430148193,1.01392346391573,1.01477648655234,1.01745550152926,1.01852532867964,1.01895004130532,1.01937640214487,1.0203293451228,1.019464355674,1.01978180170268,1.02085737609843,1.02192900606078,1.02343768240474,1.02436975259581,1.02563852885719,1.02694854549061,1.02862885716319,1.03004012634711,1.03173572659412,1.03439186493595,1.03633381580677,1.03661898623718,1.03860679153174,1.04078144223664,1.04249709478812,1.04437946713022,1.04644790260879,1.04802836818172,1.04902335997073,1.05157010366361,1.05481738389246,1.05608669697196,1.05759035462099,1.05947128748032,1.06211081453367,1.06391021511227,1.06511052404562,1.06608551670126,1.06699644555724,1.06796482295896,1.06927380764232,1.07115687308513,1.07337098432957,1.07583693484818,1.07864616358129,1.08181134881849,1.08524365248373,1.08876581491402,1.09170384187188,1.09506139025257,1.0977822694668,1.10031209604652,1.10244242147319,1.10406799134905,1.10813744918164,1.10848978913138,1.10879950698943,1.11178176295837,1.1141286301089,1.11633921301839
0.924049741091693,0.922966881998753,0.919767120357002,0.919488626291549,0.919971814987636,0.918797865262339,0.920661870351241,0.919876201948779,0.920641984475671,0.921250078297653,0.923004249658627,0.924413136785384,0.926076259763684,0.931812520051275,0.935222344178894,0.936981843399352,0.941503526968751,0.942604019442256,0.943530090774126,0.944562787849521,0.945282388967794,0.945989824688227,0.945899355262246,0.94660386022087,0.94664251545517,0.947368822572191,0.949005252850114,0.950223185397404,0.950580564539981,0.952436947402725,0.953548808683513,0.956509354797954,0.956869071885688,0.957722954108959,0.95740535777099,0.957738938954182,0.957640777588842,0.957357235366425,0.957179969944886,0.958022016940014,0.961344283314845,0.963893609194474,0.964293172188774,0.965122212023616,0.965091013336498,0.96196933585258,0.956376633000042,0.954358371078431,0.95322837826325,0.954924776670055,0.956235296186151,0.957519071847067,0.957425703101824,0.958492011885066,0.958577308112066,0.959416810099687,0.959191787924108,0.958275418028338,0.956676284336889,0.954257487138727,0.955794977574891,0.956352126954966,0.959688494257435,0.961775020695461,0.963252274972246,0.963178344607029,0.964904341745741,0.965131278161054,0.966138390766542,0.968834172473185,0.971765379290636,0.974165177031399,0.975987624184234,0.973737680729532,0.973252179482471,0.972147705711537,0.972595219034839,0.972586488259028,0.973678934180775,0.973749600721857,0.975150866008682,0.974762449910895,0.976405885990827,0.9761964808337,0.978557238768145,0.981631421839755,0.984168491277048,0.984596680170719,0.986138617982237,0.985216976447808,0.985749418665607,0.986980878100981,0.989918053379561,0.990176376781487,0.991874164881672,0.989912811272026,0.989675130188646,0.989910412962682,0.990367261638993,0.992619658068832,0.995088596492981,0.998779101234671,0.999861845894113,1.00178046827714,1.00178651730787,1.00235067472634,1.00162316765588,1.00128233764559,1.00187447791742,1.00271797000893,1.00459863579662,1.00402674041094,1.00460148300064,1.00717050101503,1.01063718274034,1.00654061267865,1.00508175541126,1.00591607449429,1.00526729722068,1.01251322232477,1.01571712577216,1.01742170542148,1.01964387141254,1.02029494867518,1.02190141977429,1.02298753882862,1.02509828505896,1.02598331710684,1.02783731514382,1.02895996980595,1.03017701282221,1.03307033050498,1.03626391414024,1.03623377212574,1.03795681108481,1.03699130140147,1.03648730700374,1.03891294314394,1.04234608808666,1.04365679912537,1.0469424519468,1.04781735781284,1.04985654092741,1.05361908006884,1.05579677466384,1.05691254284081,1.0568555397602,1.05729093033809,1.05798581186256,1.05974191105514,1.06057614721793,1.06327825979373,1.06602152421658,1.06761364560522,1.06901665787755,1.06898195404849,1.06895012482425,1.06993342215055,1.07115477915558,1.07381772581511,1.07626382106085,1.07718406871461,1.07861384202316,1.07966919082581,1.08074965587029,1.0867409534487,1.12321044518163,1.10733654741826,1.10614071862774,1.10563424048206,1.10566130299458,1.10618339429384
0.914491522007234,0.913667468675497,0.915623352223418,0.916365894649466,0.916729958122605,0.91701067761731,0.9176208660603,0.918439612138667,0.919028695826985,0.92030244031085,0.921738521996313,0.923760930940168,0.925962691792735,0.928228422363297,0.928674046883199,0.930051474395595,0.931386972534216,0.933063930537655,0.935197867912297,0.937362411638131,0.939531011678027,0.941204330209086,0.943126829563287,0.944828312465554,0.945049439719403,0.945704639459222,0.947757014662807,0.949830791877794,0.950701427538585,0.951158137467302,0.951161539705405,0.951589274148677,0.951006889454325,0.952701994539182,0.954380971128074,0.955250408792569,0.956010232124165,0.956022500005848,0.955610812604434,0.954934200075873,0.953156934490895,0.952894736170451,0.952612976523352,0.952129627885822,0.951908868295489,0.951501055127763,0.951132520428388,0.952233084868146,0.953059898972161,0.952756769934172,0.951750061021364,0.951539669489458,0.951392223761386,0.952876493010641,0.953558387541357,0.952813456978579,0.951750878937058,0.95259541527134,0.953320054691891,0.953327361817496,0.954191962811078,0.955516750569916,0.956585170857746,0.957150022681999,0.957382280236547,0.960465454723126,0.962221415925336,0.963317977449878,0.964095114446269,0.965156686075126,0.965237030994934,0.967287711914139,0.969215243068747,0.970370783601385,0.970290740534336,0.970140933677703,0.971173458696989,0.971613120927488,0.972446112734497,0.972905872322385,0.97357697230823,0.974278673978793,0.975050572585379,0.975553579509178,0.976802241543253,0.979022193623694,0.982964149515325,0.983905168974098,0.984326513319864,0.984416560078499,0.985125899144393,0.986713026174011,0.988605135299631,0.989720853338292,0.989975393173821,0.990029546976878,0.990057361602205,0.990799493839296,0.991989260687541,0.993464137584111,0.995282244852718,0.997178251240236,0.998886804430498,0.999322638775451,1.00019247333064,1.00018859566829,1.00031640821822,1.00068318783996,1.00144751608891,1.00229666332891,1.0034302030482,1.00414569005136,1.00517494235132,1.00633466512431,1.00689047038582,1.00609821904945,1.0059390878465,1.006690739758,1.00763770024003,1.01069906124015,1.01307003495217,1.01521935148571,1.01701897888765,1.01849579323675,1.02007115446132,1.02135576688887,1.02286855231746,1.02464056556011,1.02658328128957,1.02839234211599,1.03013534689459,1.03204695190236,1.03366090883834,1.03467074295125,1.03565774085509,1.0358094344538,1.03622883830059,1.03747886620652,1.03893813237234,1.03980483649286,1.0418714928417,1.04349053129565,1.04527578231188,1.04635696186779,1.04726526321718,1.04876689046578,1.05043162618017,1.0522276163993,1.05386586240715,1.05512309102045,1.05610496581807,1.05703597855739,1.05810244106771,1.05935947380348,1.06092603707889,1.06281416151955,1.06483150331182,1.06675517517374,1.06880779915228,1.07095589252203,1.07310403519404,1.07518624182457,1.0770966177661,1.07872334562919,1.08046647966602,1.081939906791,1.08320313869992,1.08457349825617,1.08663941770762,1.08977893235666,1.09377305187343,1.09804956166297
0.910753013565517,0.911736213743811,0.913066719068646,0.91364377277419,0.914579925713711,0.914681647520952,0.915266809723852,0.916422461311939,0.917333448115551,0.918693682978021,0.920323782145711,0.922245970177677,0.925774523713239,0.927229921414869,0.927500517375778,0.929501799630414,0.929989792885137,0.929895699155936,0.930535082181501,0.930945903086091,0.932496973802742,0.931287334441215,0.930614745028375,0.938516829669793,0.942975918779861,0.942262277977595,0.938717529504837,0.937695321030985,0.938619873144368,0.938091269175221,0.9405959356964,0.943323276097883,0.948193092300092,0.949974043909129,0.950581138733183,0.952802333115583,0.954721677645691,0.954183585851799,0.954901337975866,0.952775589825791,0.950772041958511,0.948125347907968,0.944835620277708,0.944872399919717,0.944198907003091,0.943879305798045,0.943822105645218,0.94264409320985,0.944267512093789,0.944882126773019,0.946086086298596,0.947459301752623,0.947873618867076,0.948027455908517,0.947934999811571,0.950115938843313,0.950386696854603,0.95094114348184,0.950335313857457,0.948690024774176,0.949485770512787,0.948277606737601,0.950071394822157,0.951909596697353,0.954471520587009,0.956471269530324,0.956219920320214,0.959984235604871,0.960789597903051,0.963187677924541,0.963358784523997,0.961360514597102,0.960378811460921,0.962111535703384,0.9646018787718,0.967025231266909,0.969110602571922,0.97042031748853,0.970700282293104,0.971525307281209,0.972897978734324,0.972817151134285,0.975060579645374,0.97402584415915,0.974234591754703,0.975499121716494,0.984211529513196,0.984228272196883,0.983524793844978,0.983225501279982,0.983908441106008,0.98614584877419,0.988525230396076,0.988974438828264,0.989100890158452,0.989558511632673,0.989785580295969,0.990832017687096,0.992917357962192,0.993683294146395,0.99517720589788,0.996577209307815,0.996761047071823,0.9981232736406,0.996815710450962,0.998915296509166,0.997920906602606,0.999827743109444,0.999297329572316,1.00155297848266,1.00229218292227,1.00377464749949,1.0048941682597,1.0051586358702,1.00464845172206,1.00550576084436,1.00583861410199,1.00676154174635,1.00769569025636,1.00968962466529,1.01114030007595,1.0133259437539,1.01533751512084,1.01691602266214,1.01941025854805,1.01983674110593,1.02109953052936,1.02332708164009,1.0262688196216,1.02785153901282,1.03085949347622,1.03114971992982,1.03265846220816,1.03319517487461,1.03450821812485,1.03450071377145,1.03543057796594,1.03568888021925,1.0361664435107,1.03695038768432,1.03725820054839,1.03715315495605,1.03855624930581,1.03799820368343,1.03988142882047,1.04000474097232,1.04216211935863,1.04181952549484,1.04356117213804,1.04384764296161,1.04561547143063,1.04618404935728,1.04726097774248,1.0484315490172,1.04977651742649,1.05092332887061,1.0520530980076,1.05338520065629,1.05447395955983,1.05627656170302,1.05775153644202,1.06042897597137,1.06269145450442,1.06520116563608,1.06758040425742,1.06900396468666,1.07010906740438,1.07998311996555,1.08315001696405,1.0843716374625,1.08774049129671,1.08992108349605
0.908231980338348,0.909096557053479,0.910239903764065,0.911088603205135,0.911790461059759,0.912864601343422,0.913965461903163,0.915392093050963,0.916363955257941,0.917310961723482,0.918183306905488,0.919373114497444,0.91949184209918,0.921165939356534,0.923302320829799,0.924005092628256,0.924405289207287,0.924991535353255,0.92555513823208,0.926085441358302,0.926824718188051,0.927775718732296,0.928693043781225,0.928996293685709,0.929467719387308,0.930358775822466,0.931161825199274,0.932693317430959,0.935279932268157,0.936935865234001,0.93956797300296,0.94245920291305,0.945585234808115,0.947434413325395,0.948357444778154,0.949617686893982,0.949673982733404,0.950935018841986,0.950019540618944,0.950341362952108,0.949346424648686,0.947694053065952,0.946064492541742,0.944727187927647,0.94342279002347,0.94323715449397,0.94279793713832,0.941848720416241,0.944187571013373,0.945300915000916,0.945142756812808,0.945766967075238,0.946502678449358,0.946270673176531,0.945366781307733,0.944372817496056,0.943891347564715,0.944686313331876,0.946451502181777,0.946560182321371,0.946611723636047,0.946984559721435,0.94838066072059,0.948828509426561,0.949513485323021,0.950612604053137,0.951229274202977,0.951986283351608,0.952676235246382,0.953744557309967,0.955531947109663,0.95781792137724,0.960340309706028,0.962350309925846,0.963512623000914,0.964040130084837,0.969334301383788,0.968829937966875,0.968891081495206,0.969081786313916,0.96927631205699,0.969506689380318,0.969748462171074,0.971155557908872,0.972380209665057,0.973061878112578,0.974411860966571,0.975925343066121,0.978479417211259,0.981182403463468,0.983159438451172,0.985491853099048,0.987572605171956,0.988431772068257,0.989045429983221,0.989535745487819,0.989822546736555,0.989935833487078,0.990996815945219,0.992206442085438,0.994012413411846,0.994997702428074,0.996465781732374,0.996588737589872,0.997607743377822,0.997709147166362,0.998905260564841,0.998789157509148,0.999727770861637,1.00023391814776,1.00158713016754,1.00240870091825,1.00365959406013,1.00413277145043,1.00463530143655,1.00543646780476,1.0063699509521,1.00709103702717,1.00821064955773,1.00937316454623,1.01068027074082,1.01197498673926,1.01334036808828,1.01501845397275,1.01690140686761,1.01821782179114,1.01973580676412,1.0220778073067,1.02437830302127,1.02679101961642,1.02897370771802,1.03020742713991,1.03119581539467,1.03232713945551,1.03283753753284,1.03348064912737,1.03374035079939,1.03439087322775,1.03474329629668,1.03540782626495,1.03568341687053,1.03660985331518,1.03735321942448,1.03758793526653,1.03818025170478,1.0388368625927,1.03954142926019,1.04026918903459,1.04122000342686,1.04244048237081,1.04396332619596,1.04508908750969,1.0464094785443,1.04758655335114,1.04904448983466,1.05013698230035,1.05140107991537,1.0527252001708,1.05424469806612,1.0557496541423,1.05764818483584,1.05995410813045,1.06267170862778,1.06465073564461,1.06701431928348,1.06871850301619,1.07028256543548,1.0778596297656,1.0799790448223,1.08229869871126,1.08528217923007,1.08801450067201
0.905909759835058,0.906706903432177,0.907932990674007,0.908329014169581,0.908841167684968,0.911330491635939,0.912335704443327,0.91470084429646,0.915043645001583,0.916084083330147,0.91559640771826,0.917603306909957,0.917977569441718,0.917950471797186,0.917520968568821,0.916388314066195,0.915543686640693,0.916326593413994,0.91656940936684,0.917304554615084,0.919069604098876,0.918957847579184,0.921205410409349,0.921937087121751,0.924749013497586,0.9254411670748,0.928649616466553,0.929745321240668,0.931921666733155,0.934058034860473,0.93522281176057,0.940156922864247,0.94417532952547,0.945449324528125,0.945155507262139,0.947519223961826,0.947973930992967,0.949053158347999,0.947905041796165,0.94889188238392,0.948346760595964,0.947491751154658,0.947160097955245,0.944277514817389,0.941768804380976,0.942556404276024,0.942315071520487,0.938189683068569,0.935158292646361,0.932838759030534,0.933328584591073,0.932782772042858,0.92639441119439,0.934242085975651,0.936216029032254,0.936150919664095,0.939011723910805,0.938236251362266,0.940192405869002,0.942136349966274,0.945154873553816,0.943153882634432,0.94234127548109,0.940947629152743,0.941778587629688,0.941164389261445,0.943418472439157,0.942679406876632,0.944542315473945,0.944651702680251,0.946111679712345,0.946758331918373,0.949194973928376,0.952411770278104,0.957155239255319,0.960970489721251,1.51379999998527,0.967001021883001,0.96499570843768,0.966834566920642,0.965155021577156,0.966266112565451,0.966616243558786,0.968911204570864,0.969951317047989,0.971655921542935,0.971452498327996,0.973042398973764,0.974916545495076,0.979738349013496,0.981924006539991,0.985294048127272,0.987318966963857,0.98851380641709,0.988393744992071,0.989878227242865,0.989641489359535,0.988373774624393,0.988993176477564,0.990580925905383,0.992322378867258,0.994204106202946,0.995052053625298,0.996117624955272,0.996087836408102,0.997593142858877,0.99809192685651,0.998560904844042,0.998177636546187,0.999408323915355,0.999871682705534,1.00129073231594,1.00247299711579,1.0032338201461,1.00400033400402,1.00506280504306,1.00755778954094,1.00692889914027,1.00910509239385,1.00876295115505,1.01039101896277,1.01051351528179,1.01128593611109,1.01293025077466,1.015493348023,1.01644184662733,1.01834558297761,1.02084135924924,1.02290945055644,1.02586150402518,1.02820698138049,1.02882188217264,1.03065822720246,1.03097417011639,1.03230381116122,1.03205222813185,1.03270612904924,1.03295439525699,1.0337169895348,1.03370673727467,1.03430024685789,1.03541631756158,1.03714502507483,1.03675043976351,1.0369646310856,1.03745792646121,1.03757255651177,1.03877133028534,1.0391325434834,1.04120188793993,1.04286331861499,1.04417124896816,1.0456532493865,1.0468639837688,1.04889995600388,1.04945863557998,1.050885410626,1.05215782724995,1.05409104517317,1.05524486496733,1.05698035841962,1.05959526755483,1.0630173857097,1.06427026432974,1.06653489517471,1.06862178589852,1.07167566606362,1.07463644197676,1.07720955555441,1.07987950581311,1.08359612550387,1.08631138657763
0.901127666212049,0.903228943745878,0.904380743553336,0.905439371680277,0.905886650867131,0.90577761887203,0.906144892280516,0.906286083272794,0.907015900507947,0.907610338084549,0.90810165166264,0.908784921709117,0.909482704415423,0.909946078524606,0.910259591906556,0.910965296179171,0.912423804273714,0.913814249763844,0.915225987998609,0.91630914891966,0.916482639482338,0.917375669992096,0.918494445220932,0.920499699469144,0.922281240071274,0.924133726083537,0.925868344912049,0.92819292660213,0.93008285768389,0.931869571477425,0.932675737290973,0.932308105111472,0.933448062636829,0.934214712321839,0.933908230013128,0.934387715594588,0.93481763222329,0.935295057249506,0.935561145454585,0.93563987341299,0.935787758015698,0.936102522714351,0.936469409716758,0.936460703825777,0.935939760729903,0.935504519602039,0.933780360523032,0.934069308423095,0.932951110862099,0.931865253225304,0.931856861048039,0.931245107674766,0.93013549632636,0.93231965284755,0.933916819388734,0.934724797674193,0.936032842611812,0.936631423659625,0.937284728336591,0.938352154231522,0.937955017228395,0.939660316098085,0.939604932298501,0.939735584814868,0.939799258994809,0.940268406658849,0.941293891065407,0.941910659661722,0.94285668611875,0.943648412849948,0.944359801489421,0.945175691823028,0.946210549593526,0.946565361366149,0.948295719303161,0.950545514126507,0.952856841330572,0.955197986408294,0.956828828695934,0.958593788445384,0.961317928127436,0.962552842995297,0.963954702606719,0.965318052996481,0.966506201287729,0.967804772623891,0.969663682960662,0.971035997628735,0.972013022657588,0.972233317694285,0.972718061647481,0.973114138444391,0.974184096660422,0.97620235319008,0.978654155865162,0.980998337182197,0.982743806147144,0.984392124069279,0.986198117935196,0.988664755307314,0.992263308241065,0.99289493470426,0.993919815367602,0.994131346806709,0.995235605580531,0.995222422560793,0.996507755953567,0.996292033972433,0.997189732602034,0.997624132257984,0.998717176219221,0.999597956774496,1.00066024299964,1.00167840525034,1.00248555752412,1.00305154423607,1.00299607905992,1.00436928662642,1.00491585351663,1.00641245286188,1.00785618064119,1.00849698109756,1.00925520688191,1.01012151264487,1.0112668516833,1.01450540028836,1.01762441289901,1.01999041576208,1.02116330330292,1.02292893205625,1.02337265883986,1.02608020040594,1.02813085841403,1.02918635749311,1.02975722716235,1.03044233662216,1.03105509938147,1.0318930454986,1.03201987817934,1.03212939928338,1.0324619188485,1.03372695791003,1.03472083387825,1.03534180895501,1.03583480032888,1.03653149610262,1.03747862918642,1.03802568462348,1.03914890963948,1.0403769391038,1.04217544824872,1.04329047775355,1.04484255824761,1.04611155269802,1.04778905469316,1.04910855606677,1.05064234254534,1.05204185129238,1.05339596759572,1.05489981793152,1.05671766632911,1.05868874733262,1.06109822271793,1.06273612218454,1.06498611678962,1.06705072605306,1.06975265103636,1.07212423852796,1.074652158371,1.07716837998731,1.08038869695141,1.08252595663552
0.897607135371319,0.90108545796547,0.901945524912322,0.902894107478878,0.901613591229824,0.901591887569475,0.901122846496061,0.900625726366409,0.901458316932644,0.901309869919784,0.900795115298985,0.899253206843806,0.89839437505223,0.898388081315035,0.898945950031061,0.901663060132434,0.905733157349703,0.904109299710287,0.905319346345653,0.907773782548918,0.912032254124877,0.914802081650565,0.91704493056734,0.918109909320978,0.919063223315809,0.921754689672608,0.923492560917089,0.926483972914614,0.927655806886974,0.930468292540621,0.931419793616475,0.9309029562161,0.929334212930784,0.930621206109306,0.932682325794819,0.929085543161393,0.924981905695861,0.922932349613755,0.922561795199976,0.922783775442268,0.92390197967475,0.925341580887235,0.928248100693754,0.926662113434987,0.926854349358994,0.927329096843367,0.931213497604528,0.931214642673799,0.931161398165055,0.930659585378174,0.93062099952892,0.930195134923407,0.930606748523493,0.931069072817416,0.932183524628176,0.932852373784808,0.933570861203149,0.93420731717059,0.934229718605696,0.935378819646109,0.936718594044344,0.936686470177739,0.938207214551766,0.937343855810461,0.937626271635658,0.938763216646934,0.940263657943199,0.940600091768382,0.942746225391351,0.942016326984978,0.943894830981596,0.943128217101598,0.944240891323454,0.945096798156963,0.946997094274041,0.946780867813291,0.948790401170661,0.948918859306061,0.951449218196015,0.954040430242277,0.958864745291347,0.95910544766599,0.959108735864047,0.958817614328993,0.959280270755406,0.959731106290118,0.961912976904401,0.961332641783708,0.962896020446814,0.963699005207248,0.967606333391795,0.967707624534209,0.970774115407418,0.971059150587658,0.97334590749327,0.97425436703607,0.976741068596697,0.980480136503223,0.981646041999425,0.986232429694602,0.994141563937019,0.992122455610573,0.992251205442935,0.992567076083756,0.993428722185057,0.993572965513744,0.993921369561325,0.994416559518252,0.995971764979579,0.99550218824156,0.997582202987003,0.99805369651299,0.998274309754566,1.00048216939064,1.00060681911879,1.00156092363038,1.00049478292014,1.0024314061623,1.00217982678752,1.00404509196307,1.00618805750097,1.00627258659663,1.00705160989925,1.007430113327,1.00682931394346,1.00729163643869,1.00757807056894,1.00681208695826,1.00785999760962,1.01438769566153,1.02026122553093,1.02439225912328,1.02622521791566,1.02754332109081,1.02669162612414,1.02887551802487,1.02902121402272,1.03099395391894,1.03029601719379,1.02999575416872,1.03025867157067,1.03154543284145,1.03285474037151,1.03370408253245,1.03443005342016,1.03575132652832,1.03753722991221,1.03753737460777,1.03875608109143,1.03979429272922,1.0422230679011,1.04250413492754,1.04494146993877,1.04526140082245,1.04819304728503,1.04870222942783,1.05174338118546,1.05225538853819,1.05343898458803,1.05455065735999,1.05659723586344,1.05791527678308,1.05964839514809,1.06136923133156,1.0628635939147,1.06536172646355,1.06784534552444,1.06968078941169,1.07300337292873,1.07332559374428,1.07409646987256,1.07436283261155
0.890711135279648,0.892662475421209,0.894463096747759,0.895338598936176,0.895498008772008,0.895347544055052,0.895223132310579,0.895157813498933,0.894901149776695,0.89436319243762,0.894351022004965,0.895721114810739,0.89634367831519,0.897121344873072,0.898465737677761,0.899410322615997,0.89985456158198,0.902051067013338,0.903504924881032,0.904920075416857,0.906666751398614,0.907843196867197,0.909200212888905,0.910774155843992,0.912154326389874,0.913325550380957,0.914490097275714,0.915640904646117,0.916520964461548,0.916941707619227,0.916940435353785,0.916696611930135,0.916415934857299,0.916569613091227,0.917848622553783,0.919157901459149,0.921182077545928,0.921421090060949,0.922079683359524,0.922098209932374,0.922945594355659,0.92396415411818,0.925237651621212,0.925347449605814,0.925553036921859,0.926116863369281,0.927712268722595,0.928567732718824,0.929063069900687,0.928934197507201,0.928902275677076,0.928454622417173,0.928533100110311,0.928791249351261,0.92962161065357,0.929967906921811,0.93064900718789,0.931036271941779,0.931784876720938,0.932288503569777,0.933347639123762,0.933518554616379,0.933467021542561,0.934689142500277,0.935850600038461,0.937281909225102,0.938153118047773,0.938609532148454,0.93922895734518,0.939765559460546,0.938940320516049,0.940498705274539,0.942271128784294,0.943455086873122,0.94515663309129,0.945277104395714,0.946458229309023,0.947812428025483,0.949522538532526,0.951970079033489,0.953558501744624,0.955591116850163,0.956268660271935,0.956822275035187,0.957204214670951,0.958396971086572,0.959432834982452,0.960159416811854,0.961131547827638,0.962718230978798,0.96485770634088,0.966307648521378,0.96801011744715,0.969968457978213,0.971926015356182,0.97406922584929,0.97658579989775,0.979239796072751,0.981977352843298,0.984028741866882,0.985487861730978,0.988136264947438,0.989270540887659,0.989737231496264,0.989642246710797,0.990409092255029,0.990566746979011,0.991224386888702,0.991091505606208,0.991873574860553,0.991638913311,0.994591520278572,0.995803618879316,0.997379717390578,0.998931632359031,0.999313859364203,0.999930091743417,1.0013470309173,1.00177235166173,1.00157924367588,1.00160042366284,1.00300351601636,1.00292049237222,1.00521600574762,1.00617842697094,1.0058599904799,1.00583154907511,1.00619649222929,1.00733593230602,1.00998017798746,1.01188253765077,1.01366666799238,1.01552743312817,1.01758585725154,1.01962596989132,1.02166139176585,1.02331268647501,1.02432096164137,1.02550729734985,1.02704304546047,1.02808531556382,1.02959038350709,1.0308926314509,1.03201861247056,1.03304706538107,1.03437552151093,1.03524508934979,1.03582777462548,1.03680857804055,1.03791811084062,1.03928522552199,1.03999608634879,1.04143542541051,1.04264621080157,1.04514590468363,1.04659446380593,1.05203248212582,1.05264339857998,1.05250252173078,1.05336322181693,1.05518942350055,1.05617141961581,1.05783848560709,1.05914062773513,1.06126302504914,1.0626231966301,1.06443964894855,1.0658218955593,1.06655064887835,1.07000596979683,1.0728739108061,1.07496826661146
0.889414186531784,0.885771287807759,0.881113843423096,0.881658799157126,0.881913904664383,0.883991253933071,0.886287466944401,0.887378780055119,0.888981402721537,0.889802510343432,0.890590631822035,0.891982505080541,0.894025644547169,0.89538599600867,0.897287102577411,0.8983718634124,0.89871830073701,0.901263928824395,0.90219492979865,0.902592777351754,0.901755551206525,0.900187681403071,0.8988561825065,0.898576664473801,0.90018709268135,0.899886504878375,0.901400464137546,0.9023404436714,0.905629833874197,0.907218134361033,0.90880937825894,0.908751591219337,0.910014898873421,0.912252165927447,0.918966019404197,0.919183102427681,0.919405647721635,0.920108976005165,0.921925342872683,0.921083263846363,0.921819391412954,0.92233002153331,0.9238491224614,0.923552235543703,0.924443001718126,0.924361746530291,0.925060727332039,0.926041857034607,0.927717651480616,0.926932472691419,0.928180138110539,0.926476669531089,0.926146902275522,0.92649346197089,0.926722548763716,0.927226689885079,0.926763452534993,0.928216705704893,0.928358136623652,0.92863594606962,0.927964072488564,0.929028468875848,0.930225507484255,0.931716174866434,0.93366767651428,0.936511852451126,0.936597534623687,0.936369324231243,0.933318578647307,0.933507157827203,0.93523596544965,0.935549462050334,0.936257981460267,0.937675200473271,0.938582922188298,0.942102760337741,0.944198709689918,0.945839092814085,0.947064767522005,0.949790133707988,0.952138061651095,0.952871089740848,0.953396028049593,0.95430404219724,0.954862641345796,0.956265350598397,0.9571316821052,0.958173419402166,0.959258315240374,0.961030561974958,0.963453262930585,0.964306752493135,0.966120842927069,0.968238408813714,0.970789669893903,0.973479838452228,0.975812127318251,0.978061224420218,0.982181999878641,0.983224633966397,0.98495755568128,0.985982531184445,0.986994196781486,0.987061141010818,0.986875651907079,0.987687851743846,0.98765885277776,0.988229022647426,0.987934120457252,0.98818798071688,0.988089360803458,0.984927700119044,0.983569165396526,0.982516027280761,0.982028393528805,0.983194074182285,0.985135202306843,0.98712391833426,0.992854913374819,0.998528554742862,1.00007920084181,1.00094531053588,0.999912057960473,1.00113214729554,0.999834708677338,1.00309562972135,1.00310210609899,1.00488703683284,1.00481919802865,1.00422732887032,1.0039303456392,1.00963599087443,1.01494986749168,1.01276565492169,1.01092837973526,1.01121343177707,1.01307431813861,1.01601246425776,1.01979401654278,1.02443641035679,1.02511429352932,1.02788899305242,1.02853792873304,1.03062230854916,1.03087688032471,1.03334940903536,1.03264710149782,1.0344937478559,1.034697410021,1.0362350030271,1.03708619200402,1.03684090253079,1.03738954265494,1.03901205393511,1.04011037944286,1.04226640057742,1.05604384378983,1.0535771867958,1.05040579330016,1.05178732288129,1.05442820489187,1.05450956249195,1.05491924579157,1.05725053572862,1.05905818012754,1.06030903702702,1.0609891723729,1.06276227976247,1.0637561533977,1.06379568793456,1.06495713596885,1.06507714773966
0.879597729859583,0.879895126005018,0.880513305638168,0.880981324961115,0.881699103161548,0.88290794756059,0.884166182752843,0.88635674961045,0.887615172344573,0.889343996750228,0.890246541313563,0.890428608611195,0.891586384612168,0.89264231589373,0.893210967888654,0.896195324176722,0.896706375605232,0.895682212201562,0.894255322386072,0.894304210703293,0.89437281813238,0.895420995114024,0.896952519007234,0.896357175566162,0.897182821820015,0.897670452578064,0.898784143749732,0.90005229959797,0.902581136771768,0.904332709608996,0.905588673804961,0.907625909665469,0.908720908401483,0.910030015538692,0.911617580482058,0.913074087739401,0.916116034559764,0.917101020940013,0.916841411557356,0.917764959871641,0.918799707304901,0.91947251831547,0.920751494162476,0.920839291032242,0.921389377898742,0.921722988780783,0.922410399465349,0.922670112752655,0.922399055520179,0.923216421181333,0.922762647515101,0.923368258410141,0.923422103926341,0.923624242455938,0.924129535758394,0.924411259419981,0.925029685773427,0.925558843876983,0.92624057717891,0.925814769686815,0.925461361614508,0.926083208676952,0.926652029303647,0.92679072427789,0.926411434547578,0.926961886375134,0.928130595803254,0.928855425814536,0.930716574143302,0.931496764836206,0.932165308850904,0.933423346704408,0.934657764364666,0.936483917770583,0.937966928269814,0.940117700916636,0.942009417688685,0.943895405011841,0.945474463627789,0.947165061332011,0.94772259859325,0.950164763068253,0.951129995398063,0.952530513353888,0.953314327582672,0.954651943152126,0.955668096849103,0.956576896448021,0.958093553412131,0.959162224415695,0.961051690289938,0.962417153987648,0.963701599369879,0.967419788060574,0.970293116922365,0.973353579751548,0.975877794633447,0.977594322110808,0.97784255726967,0.980078955583952,0.981825081594125,0.983429587637579,0.984518901126845,0.985168779985409,0.985224120019213,0.985853005147977,0.986427029249617,0.986627054880976,0.986458143441701,0.98681981813654,0.98610393279916,0.984392781868435,0.982713443289065,0.981685035796498,0.981362902230969,0.982098119008821,0.983271937093374,0.984240104804093,0.985112456536917,0.986164718077914,0.987736216494425,0.989905495136907,0.991939312782481,0.994156934363447,0.996268945600974,0.99862990438649,1.00033406220545,1.00152345311092,1.00210837761327,1.00197249966908,1.00207611986037,1.00202419050695,1.00303914955797,1.00487196861933,1.00745413981492,1.00931910570835,1.01073921021387,1.01183986177516,1.0136088177708,1.01488416307318,1.01684823350769,1.01911558397959,1.0210782277069,1.02265372229231,1.02388555007938,1.02461310497988,1.02541705037766,1.02720674571539,1.0291430591197,1.03052423726474,1.03171125078192,1.03301839807572,1.03425373791181,1.03600811493784,1.03791861534814,1.03945978002267,1.04060801745412,1.04189939749727,1.04607583210885,1.04840179948611,1.05004111493386,1.05155578667097,1.05313551969391,1.05427697971429,1.05581028088115,1.05722416156556,1.05881055259751,1.05976245604289,1.06082917190954,1.06157514907331,1.06248402385792,1.06400395831714
0.877996537632973,0.879064673239395,0.879343933453721,0.880216323093503,0.881030246122511,0.881495976200928,0.881752466809986,0.8802249509588,0.879471319756942,0.881454704065448,0.882244393492513,0.88691512003464,0.889416200599361,0.890636914915616,0.889786758857228,0.886532036256485,0.883571557335209,0.88712855777279,0.892361582383181,0.890938775422204,0.889718995711275,0.888834797276506,0.890416757218052,0.892822773684177,0.894413365032547,0.89516348045652,0.896045139204195,0.896113433201882,0.895454774882364,0.894440369829404,0.895565414072023,0.90138684398922,0.90798775667514,0.908769196105702,0.908603086718807,0.912057418657915,0.91519773523206,0.915798778954646,0.914017026987388,0.91555360330985,0.915264314750363,0.91707107296785,0.918321979436644,0.918470352447232,0.918485234563908,0.91903806702548,0.919630062913704,0.919654342195406,0.919821193867118,0.920091534370133,0.920324928629806,0.920567125990686,0.920268010470869,0.920810974490544,0.920965117515866,0.92186565587013,0.922642647400649,0.923265705633888,0.924762081299273,0.923081851042118,0.921861593587782,0.923000626191354,0.92336070374165,0.923573531646912,0.923482525914926,0.92272191093064,0.923787252797217,0.923756380583443,0.925344397607112,0.926852474390804,0.928249435261318,0.931370234136442,0.931615163060736,0.935488550240888,0.935965770979487,0.938696025585473,0.938813818986659,0.942199200593294,0.942962030047557,0.945572472256048,0.945398139033037,0.948572497134601,0.948221873800134,0.951151602104183,0.950980085053752,0.953740694820761,0.953904408409531,0.954731156657999,0.951659468929157,0.957150572775322,0.958980533193196,0.960771059839948,0.959873195781791,0.957842157361144,0.957864678886806,0.957388228354969,0.957842599092604,0.970324218904962,0.974748583699357,0.978350523957163,0.97925855150482,0.981836843824302,0.981833239116803,0.983716590788107,0.982974673596344,0.983941268875126,0.985009340731951,0.984942711836132,0.985220545209334,0.985177565846548,0.986330962153188,0.983094731419825,0.981517210812221,0.980387751228226,0.979331267215626,0.98075244363122,0.981264504535877,0.982100953549186,0.982579170294709,0.981620144520747,0.982761907648767,0.982620113541865,0.984193184251551,0.983557754125572,0.985459411949498,0.984961150805021,0.986514149931664,0.986045636328896,0.986834659665918,0.993167218605896,0.998733533175312,1.00052980053522,1.00222717854211,1.00370469350953,1.00509916782152,1.00742274131565,1.00835070405134,1.01005013492462,1.00934072987033,1.01000493254585,1.01034470795023,1.01135574758929,1.01321199428288,1.01387771731511,1.0155058134621,1.01729743099051,1.02116028297829,1.02222494152456,1.02374294771429,1.02487470910128,1.02655125747071,1.02902299225574,1.03075467562639,1.03305409086964,1.03591350977685,1.03644347454636,1.03723005066639,1.03983276372853,1.04418199621096,1.04560414079969,1.0476443786157,1.04893908013806,1.050859718163,1.05162496377231,1.05271283748897,1.05477566503068,1.0559457483446,1.05716628578597,1.05797701274178,1.05838871706784,1.05868326311089,1.05984053782766
0.870273849368231,0.871298624343658,0.87252681767863,0.873834364126837,0.875275361092049,0.876979477159482,0.878742899871571,0.880092631578821,0.880775400346941,0.882249886400287,0.883485833209508,0.885553634637314,0.889420078581591,0.889596049359773,0.887919369881096,0.886000916542703,0.884227960158491,0.883038862180656,0.882690560785047,0.883430086976204,0.8865921109911,0.887670423912054,0.889660778067148,0.890986116166004,0.892270082427944,0.89262082995905,0.893172012209742,0.893621037941738,0.893844596154172,0.89382847562353,0.894627904922138,0.896622936010289,0.898997234364171,0.900386188041941,0.901358626159157,0.902994792190184,0.904495125624121,0.905646993736912,0.907340590602818,0.9103445640886,0.912417019368827,0.913937356032752,0.914036253313493,0.915605172076642,0.915835228327664,0.915700222509985,0.916111866819637,0.916363371703553,0.916804513175384,0.917628620451343,0.918294872441802,0.918767992453062,0.918647429566123,0.918204065708255,0.918170496405089,0.919031880800253,0.919998293929885,0.919985765300275,0.919017833437276,0.919863938688374,0.919892487786102,0.920331486174667,0.920994762250715,0.920999171295385,0.922479888575656,0.922681396761327,0.922812502206028,0.922946463130762,0.923655121863734,0.924033729064262,0.925328272714607,0.926507172068434,0.92777814914613,0.929046439486869,0.930373911401994,0.931807797068872,0.933727439043798,0.934974931440168,0.936227106473731,0.93700412972327,0.936902929645119,0.938736165466578,0.940820081194845,0.941924205615352,0.942935929195593,0.943893181074583,0.945262916722079,0.946836145143095,0.949780959708249,0.950889299276601,0.952168541137452,0.953482456896588,0.954961570864592,0.956054576029201,0.956078366204019,0.956171185655064,0.956039813413371,0.956715357874552,0.960040555181389,0.963668979882979,0.966623489255207,0.969986551071712,0.973775626868057,0.977131956998521,0.979896127891662,0.980943516471715,0.981254210681609,0.982165717827074,0.982561532384941,0.982340779153837,0.980770961411644,0.98040452507783,0.979510302921755,0.979089422277661,0.979134343996413,0.979566923885736,0.98050527394044,0.980807419980223,0.98111361778747,0.981207926599798,0.981754341142892,0.982422874054988,0.983211837435453,0.983507531096961,0.984162234940186,0.984503033151965,0.985216555562583,0.98562173796515,0.986464419072552,0.989097460761877,0.991566011173516,0.99477377158255,0.998240733186783,1.00178813304434,1.00535063647134,1.00808017198573,1.00940955272484,1.01017619907688,1.01010056117398,1.00991898165995,1.00939314818915,1.01042652823996,1.01121812895936,1.0129185013016,1.01397976385042,1.01630012939321,1.01883632836938,1.02105796293092,1.02239695010402,1.02348221518788,1.02466387133685,1.02630895239738,1.02800398158408,1.02977026778783,1.03200686181843,1.03334255474693,1.03501570953589,1.03740227239602,1.03968788669427,1.04221543720776,1.04378150491568,1.0456182632239,1.04644735280198,1.04858499746415,1.05036312301232,1.05244350046007,1.05396146044194,1.05436354114443,1.05479674886859,1.05542036258125,1.05638881459399,1.05760672985
0.860785541033306,0.859181122470416,0.858371835194701,0.859174036756713,0.86027097089529,0.861412768956243,0.862931344078157,0.86263535232861,0.86333331153882,0.862016285316911,0.855483721094053,0.870799834210098,0.916018012646331,0.880947401115801,0.872953844765871,0.87288351470705,0.875965134043362,0.87634524981917,0.878707651646563,0.88004792718252,0.881851942430316,0.886096602303678,0.889608299093157,0.889800902176738,0.891013332158837,0.890698035012836,0.890653390298747,0.89168252622594,0.892568159813175,0.89244684948509,0.893026904702713,0.892972881957055,0.893341757870871,0.892705600429849,0.8951528500135,0.897914756777951,0.902174813762386,0.904299945768702,0.906170202570585,0.908649428280578,0.909586495015941,0.91202798872206,0.912393923608489,0.914071117916455,0.912945688923606,0.912726891254409,0.912187302464322,0.913223980990064,0.913844951987895,0.915375913845427,0.916439433056484,0.917837386660826,0.917252104264796,0.91565540501748,0.9146575896996,0.916253136293561,0.918176351867215,0.917417767042378,0.916525317685357,0.917321002823543,0.917222584312674,0.917759781392046,0.918669821446389,0.916651075278199,0.914012184886911,0.912998388967714,0.913837278483929,0.914090165090493,0.915731916952674,0.916050603837095,0.917479609241287,0.917135573233584,0.919300784877486,0.918392985770939,0.920461643223717,0.923624792347388,0.926645627026426,0.926904606314463,0.92860592238401,0.931168827827326,0.934745420647713,0.935051598217373,0.936343155194771,0.936584804572673,0.93784739750733,0.938696480108869,0.940030555149045,0.941763207787356,0.943250022803866,0.943796741403152,0.944264273610989,0.948341947689636,0.9529990550682,0.954837191406876,0.955316303553851,0.954202742506802,0.955140786476627,0.95614754833292,0.959641290976452,0.959850882572455,0.962086090176528,0.96292469816087,0.966232096680055,0.973789027578175,0.977892284853982,0.979278301667675,0.978240545074074,0.980239544794577,0.979443984839384,0.980681713867424,0.978823553110319,0.977999837800691,0.977526871284654,0.977534816313632,0.978301937019245,0.978601811689396,0.979426240544218,0.979789479365204,0.980063107192896,0.980298450625228,0.980696497556224,0.981512932991419,0.983793332431527,0.982832717081619,0.983895427503849,0.983575043458893,0.984610693859926,0.984545922345179,0.985656974310437,0.983869443838023,0.981760248344543,0.982838421108359,0.983432397177816,0.984357403472912,0.984613907366424,0.984916670503404,0.984737707455875,0.994384745865637,1.08399999992204,1.00883328711904,1.00689622134305,1.00853957452095,1.00969609723402,1.01106133162771,1.01205898107479,1.01477189498913,1.01655125957919,1.01983129653784,1.02091561145312,1.02156869500629,1.02206384239589,1.02374622392118,1.02475220782001,1.02616067872022,1.02669406978481,1.02979733232341,1.03184953196219,1.03471457272018,1.03679852904098,1.03913825119543,1.04175366926794,1.04242671081093,1.04413404222869,1.04582148254722,1.04764028761634,1.0513349085348,1.05229602388248,1.05259351356607,1.05070110023561,1.05226171385776,1.05353403486234,1.05525362347631
0.859053720664018,0.858179928953259,0.858239080329484,0.858994033735893,0.859994550511147,0.860824053568278,0.861685511917437,0.861534852555895,0.861145476287461,0.860482041265427,0.858943226497832,0.861069538201559,0.863176708413851,0.865471366088375,0.868871706796187,0.871191207126079,0.87448530219371,0.875475357865411,0.877051685623916,0.879074625646881,0.881605677997074,0.883607385332253,0.884565230196293,0.886570562752222,0.887842214168022,0.888448780348404,0.889180884911983,0.889914273507414,0.890417392337458,0.890103916600644,0.890263742886072,0.890415609689817,0.890647012821387,0.890999985492616,0.891966398734164,0.893055375388807,0.895107294407864,0.897050135633053,0.898800397559543,0.900775231073106,0.902620491791726,0.904133418997082,0.905221709459852,0.906000533461454,0.906760508959047,0.909324995467874,0.909994537831308,0.910273272947703,0.910117455627603,0.909567787569253,0.909175334260997,0.90972101238658,0.910722870066511,0.911747424883431,0.912383146256936,0.913596379088863,0.913302727845456,0.914787033760659,0.914958207511956,0.915360384690761,0.914940660758719,0.914108776971214,0.912473488924338,0.912969870131286,0.912321870393255,0.912284174726449,0.912638976887947,0.913338299338599,0.914023292349446,0.9149284825784,0.915509672210604,0.916004994703575,0.916605402909111,0.917131688195686,0.91951910542502,0.920601266257913,0.922072095634137,0.92390752555578,0.925789993421767,0.927574483964762,0.929241881385502,0.930867361174834,0.932245167417979,0.932985681399329,0.933643929969119,0.935143693334185,0.937981178752192,0.940916493396772,0.94254535806429,0.943402140524415,0.944067569691715,0.945154598500824,0.946223984226266,0.947925499280091,0.949952070879895,0.951534822261137,0.952527500248442,0.954016091544236,0.955425265708791,0.957225882892228,0.958999350891391,0.96003584083635,0.960670416801227,0.961346051206355,0.96186306846687,0.963292412231529,0.965411396453344,0.967588575977299,0.969619871975171,0.971311248270304,0.972965376156819,0.97493038089329,0.975328763486753,0.976041277123666,0.97661898049135,0.976801542569684,0.977367140295248,0.977541102144025,0.978128590064466,0.978012924539059,0.978549058025222,0.978930074895752,0.979648441962137,0.980047080247703,0.980738187885293,0.981008460168256,0.9817365399091,0.98228611151573,0.982944112571177,0.982595732791636,0.982268398042307,0.982860582589897,0.98367730732984,0.984358973374573,0.98504949751593,0.98526428490389,0.98581236617131,0.98727841181854,0.989579056018046,0.992419917911916,0.996206770528762,1.00032055883869,1.00439848293479,1.00821937997514,1.0115438304286,1.0143549912981,1.01646233461737,1.0173751870409,1.01689747283726,1.0188997314683,1.02016937557981,1.02119584018303,1.02226556151089,1.02341889793167,1.02490710977192,1.02734417905055,1.02973700458799,1.03204030183056,1.03420153717221,1.03591462860011,1.03670193365682,1.03913316801332,1.04021063552621,1.04172928787846,1.04183572966526,1.04279071466263,1.04434300718244,1.04529030678119,1.0471951401092,1.04890499511912,1.05070711727969,1.05266100318873
0.854481353594982,0.856395648562655,0.858387463362084,0.858278319570221,0.860198587497242,0.860154886575239,0.86182481441641,0.860445484381873,0.860812770864338,0.859502010794904,0.860194703872147,0.860739071511225,0.862993909960484,0.864611582400674,0.867268179518955,0.867858865649552,0.868080966793875,0.870009093974866,0.873079759594531,0.878124857435123,0.880497719617345,0.883052994417776,0.882974004706055,0.885300013934443,0.885124729628146,0.887263020799406,0.887276796303301,0.889093857550493,0.888510452159968,0.888447985861925,0.887267111395098,0.887940514400485,0.888640761421046,0.888762008495099,0.889192056075134,0.889715516800959,0.890736197675834,0.890182577590712,0.891984288652299,0.892373768051811,0.895139724607329,0.895032794488479,0.897618737775044,0.899359518451888,0.904444348838401,0.907872191166759,0.907849984312946,0.908519921028653,0.906390511670241,0.905675462544864,0.905147149922423,0.904342841476617,0.905799251756253,0.908099538304929,0.909272817064171,0.912188390392362,0.911599079994205,0.913403872894381,0.912875959467869,0.914065137311564,0.912435101094726,0.911987594226869,0.910127140335331,0.910670510362425,0.909823977011714,0.910809374015609,0.910656449222592,0.911815825288884,0.911859950790819,0.913160963412458,0.913591250991275,0.914167090844645,0.914395378673576,0.913769628124043,0.912562693274884,0.910818895939417,0.911170698926756,0.911723480786854,0.9136443774944,0.914333491447093,0.91628863554275,0.916809279777513,0.91868883700224,0.922489870603976,0.931221870411118,0.934099886685109,0.93438488448261,0.933812001512387,0.933568787893109,0.93807384945328,0.940744778009729,0.944290232629515,0.944453715841442,0.946581034544543,0.946418883612707,0.948586286820055,0.95056976736393,0.951431839437931,0.953309085099105,0.954592826503272,0.957377980497137,0.957163884742897,0.958780036884932,0.957727748944464,0.959973274234449,0.960006018533018,0.961859819037288,0.961089451336222,0.961964902583388,0.962858850738255,0.965502519752255,0.969163107084761,0.972942639880757,0.974988407711611,0.975215815915241,0.974749985034299,0.97540742726364,0.975344826758708,0.975894367446033,0.975641353060581,0.975940433609771,0.976229996062606,0.976807157555472,0.97714891470684,0.977564106547736,0.978249003523507,0.979165115005715,0.979966508263721,0.981670591465428,0.98119392477009,0.982596167398078,0.982274914347332,0.984423472689847,0.984044883423292,0.986349714896838,0.985170438940227,0.986488642867444,0.986683525022916,0.988066093662307,0.988537350713449,0.989632304794052,0.98895667392434,0.988306797426324,0.98825508265931,0.988211237103861,0.993210909719858,0.99623647646234,1.0098038058934,1.01398886065383,1.01614880268964,1.0183785175068,1.01850694421649,1.01924724601135,1.02078662210699,1.02220769299152,1.02525621089016,1.02773195394004,1.02974494903369,1.03130203763948,1.03340687840652,1.03416797251947,1.0367777246086,1.03729654300811,1.03978227869135,1.03855953157014,1.03955972896554,1.04025006486575,1.042049987861,1.04488529619378,1.04563587722638,1.0473221597941,1.04995515830954
0.853981427078094,0.854515021002431,0.855007808518434,0.855790551646729,0.856639751900683,0.857474567195789,0.858357456160587,0.85870774639036,0.858593339623858,0.858776187679224,0.858867813518171,0.859701690103183,0.861011373646186,0.863110003255002,0.865171226267197,0.866232546720151,0.866688502298044,0.868764106801246,0.871775172915345,0.873234024571979,0.874865524069123,0.875769395981787,0.876165018317389,0.87769908978221,0.879035555314195,0.880565708936893,0.881623922332999,0.882289057822059,0.882828046759946,0.883037034538125,0.884070520792828,0.884941046164239,0.886831159919809,0.886264900440364,0.887547920892421,0.888771997545598,0.889451615797994,0.890148763151349,0.890728173374314,0.891977955189161,0.892845476103826,0.894232355618621,0.895458016175679,0.896340075919664,0.896230661850687,0.897777555819953,0.899767925905608,0.90051691825762,0.901216635219536,0.902236812492842,0.902587721506191,0.902707328985653,0.903974852872452,0.903340633651922,0.903667011415548,0.903871878199571,0.904564908717113,0.905309208032452,0.905775921485174,0.906319629136872,0.907210302572691,0.908129912232887,0.908441619245413,0.908675343230456,0.908558797565593,0.909381323688073,0.909867590809743,0.910452885820736,0.910810237942344,0.911493189701967,0.911753565733223,0.911763090250906,0.911051697687047,0.911068602475308,0.910296299228224,0.909622496407722,0.909964022208981,0.910355055250359,0.911796297779619,0.912575336688504,0.913785175150424,0.914796568032036,0.916054130902198,0.91643453654578,0.919575384196654,0.923129175716564,0.926278308575462,0.929093564426287,0.931478247017371,0.932433207911166,0.934190078771144,0.935858022635961,0.937905975599476,0.940266217899748,0.942773856283538,0.9456429996289,0.946608281663376,0.949120860930482,0.951648871282613,0.951960436792473,0.952248886849593,0.953901893618294,0.954706563306756,0.955639746428593,0.957231752671359,0.957751215611587,0.958661442971712,0.959296611421669,0.960037645140386,0.961177537614791,0.96243652103447,0.963580487414888,0.965251244779213,0.967575167807695,0.969432415528897,0.971235958170607,0.972652667340241,0.972537537795793,0.972816499534923,0.972367019684902,0.972703686497873,0.972895948875362,0.973616578614082,0.973889893598067,0.974839189668771,0.975439441709605,0.976395930449498,0.977429786225846,0.978323832653008,0.979090852719753,0.97964279374049,0.980595065975813,0.981407136625738,0.982213779320398,0.982871600444091,0.983576805541425,0.984366382701968,0.985913966556597,0.987761273182554,0.988252674214854,0.988828786489839,0.988520813936033,0.988197716586723,0.988166091331424,0.98885850833772,0.991108534358102,0.993585320869506,1.00242063521171,1.01245353196714,1.01358469813269,1.01335782807287,1.01555440175761,1.0167629066149,1.01821734815126,1.02161860822143,1.02419759010516,1.02611654415483,1.02786646649478,1.0325421398788,1.03222208517852,1.03383967165786,1.03426691519634,1.03393816215194,1.03511139150275,1.03651947469724,1.03836358169457,1.03946472977966,1.04003419059923,1.04005816583919,1.0422503033713,1.04392680514643,1.04548452228156
0.852172709937189,0.853247056638207,0.852047467283544,0.854054392152083,0.852449380886066,0.855979242570455,0.856513072203764,0.85777930438237,0.856905557551417,0.858121537801752,0.857956535362526,0.858116457606919,0.860191643268336,0.862175126641263,0.864466726976661,0.865379779299414,0.86509822648621,0.866245259532117,0.865037854646711,0.864435915899309,0.865047029432225,0.869997510299923,0.8743458669447,0.876830019690879,0.877375326836325,0.878245027075532,0.876796081849639,0.876294876964684,0.87694357773605,0.878402139391675,0.880171417872108,0.880761120889893,0.879632551341402,0.882877101406088,0.884660949295871,0.888415540132469,0.889119280458605,0.890033668191901,0.889684885144726,0.891071981206609,0.891813617936791,0.892664529157824,0.893434262047338,0.894728937318012,0.894464629672434,0.894511155247186,0.895246558444299,0.8965262166992,0.898033134639474,0.899733625955111,0.899496225567089,0.899984397745254,0.897997391294996,0.898987114464512,0.898074395055187,0.897229536313305,0.89745989591954,0.896468715211172,0.896904685893871,0.896841856177345,0.900057831889413,0.904638065206981,0.906451369023941,0.907118766768391,0.905759716121489,0.908035378407468,0.908207584328373,0.909253282761911,0.90873966675511,0.91004864251752,0.909318483295709,0.910008653937984,0.907883503565069,0.909462581139059,0.908032889613189,0.90808184955604,0.906131395313566,0.908498744027296,0.91073942690562,0.910560380270164,0.911364127450874,0.91289320068804,0.914712710143393,0.914474799611159,0.916144351903646,0.915818344320517,0.917972563108609,0.917547047751049,0.918847483074013,0.923480547461544,0.929525107113046,0.930070683823316,0.931432416303823,0.930488932352577,0.932795034495446,0.939884045041619,0.943258219645467,0.945144541618681,0.944616081280874,0.947598533262172,0.949752906008278,0.950948552380208,0.952449975218195,0.953083849482427,0.953724042063086,0.95519028237232,0.956836331334165,0.957095127978287,0.959450042857183,0.958824863678503,0.960540975219513,0.960850681331845,0.962228114056835,0.961735754314612,0.963941634084197,0.968612104670322,0.971478294242133,0.970229866642585,0.968031687523981,0.968792630681533,0.969006956979896,0.969372305134503,0.969558153917688,0.970423603442309,0.970672058756404,0.972341193848756,0.974064901711763,0.974588973490717,0.976046015523393,0.976447819212141,0.97802519093554,0.978340572750374,0.980118742348415,0.979854460239568,0.98095341385568,0.981256298188789,0.982570325814617,0.984621384756805,0.988742354277277,0.987663430900506,0.989314691881822,0.9877426666187,0.987904759488692,0.987475660358871,0.988541375081085,0.989032042374376,0.989894756106731,0.997790111419608,1.01009459601634,1.01148640076466,1.01089817658171,1.01303411696697,1.01434756617297,1.01360944780571,1.01284639783124,1.01299090233038,1.01481779860978,1.01969739314778,1.14076999998527,1.02810943278248,1.02491867201945,1.02561583892782,1.02675719521572,1.02633645071163,1.02644363386867,1.02659636248714,1.02960952081351,1.0325385111345,1.0361896740063,1.03858423053624,1.0400972699781,1.04197460107293
0.84672166937711,0.847528621914319,0.848189506818629,0.848673251360128,0.849114203720103,0.84936246136142,0.849525787915443,0.849762667610555,0.850621446319705,0.852042317728796,0.853119512004972,0.854798845134656,0.854689225144877,0.85523399140739,0.855762693414691,0.856840456631743,0.858545865881448,0.860908952462989,0.862613224577725,0.863859450245253,0.864191445338111,0.863610817347308,0.863938651250044,0.865188981298325,0.866557319214042,0.868706910312403,0.870668077504771,0.872822939338828,0.87456919701081,0.876234195483493,0.877558769936381,0.878257034453976,0.878594273015751,0.879341227242258,0.879426456276971,0.880606786698778,0.882430157395172,0.884458528572283,0.887073319936104,0.889033586537127,0.890055188838779,0.891181767135062,0.892343893065584,0.892692717810214,0.892980954494592,0.893527161930937,0.894033530002706,0.895657749087369,0.896851604760887,0.897801377257221,0.898179900613775,0.898330465392489,0.898039999949998,0.897967674525325,0.897435598450434,0.897010082350718,0.896770259393717,0.896369171696909,0.89575177925154,0.895432661977557,0.896009297625886,0.896644793508458,0.897788734732051,0.898629845833792,0.898852718944582,0.898883234506841,0.898844639935694,0.898559849022986,0.898438881459247,0.898721715069579,0.899335624931206,0.900028856888599,0.900976231939152,0.902333108545653,0.90398469069322,0.90540735756192,0.906238316522739,0.906649932367531,0.905618568150114,0.907616908093133,0.909004184360899,0.910569802095978,0.91149135688239,0.912299374486114,0.912950914195799,0.913611778352342,0.915462258809327,0.916337181750253,0.918071039185166,0.91988087905995,0.921077428199158,0.923986436026639,0.92771053295909,0.929038918934492,0.931407928045804,0.934961096260812,0.944201151020327,0.944667617315876,0.944471837263849,0.946132565987285,0.947323247268468,0.948850399209381,0.949872999767005,0.951501814149966,0.952382069289651,0.953590896018618,0.954521025814352,0.95532742164275,0.955974651508824,0.956702163740359,0.957223314769726,0.958800525930173,0.959230893560511,0.960232991706934,0.960896565100101,0.961281323129822,0.96230522460962,0.96393076949196,0.965450264344131,0.966061224969082,0.966109841874789,0.966456118990042,0.966752823154721,0.967749217552079,0.968751197898314,0.969572900878074,0.970337412433441,0.971314620200493,0.972892238300666,0.973844529128256,0.975292464336827,0.976520286692899,0.977247636096296,0.978047022755033,0.978266853693565,0.979447167084874,0.980084857916733,0.981238562093906,0.981604263930582,0.983901534274337,0.985444420220319,0.985666364736276,0.985945481229386,0.98586830443732,0.986400352420949,0.987506522119149,0.989884503349702,0.993619598282933,0.996865908714326,0.999088785950677,1.00220732644076,1.00454732112947,1.0065191318982,1.00977428759784,1.01062928742561,1.01183867928782,1.01271272825761,1.0133182896954,1.01638015941984,1.01880810731758,1.01990148831068,1.02099963199654,1.02238860701513,1.02392797911365,1.02542033029252,1.02577833851062,1.02940012748738,1.03236013816966,1.03442121767099,1.03659608155778,1.03830066318215,1.03985305679567
0.839491277862017,0.839165747831339,0.839342639690912,0.840096209670049,0.840880536460373,0.841516569112981,0.842659760168649,0.842892490455998,0.843849712443927,0.844957757429916,0.847743595317356,0.849904408153774,0.851773033776622,0.854496832931094,0.855073725165216,0.856679633744294,0.855425897522423,0.855627923846874,0.855338135869989,0.856379324062777,0.858033676772405,0.85887377967074,0.858980961234887,0.862336133656272,0.865294890921231,0.865663388187364,0.866877647515508,0.869834978218492,0.871850839700802,0.87471418041627,0.874825928619085,0.87695987029421,0.876090655361445,0.877495425724795,0.875266154310397,0.874275718285721,0.874921357555289,0.876472298554859,0.878515001296379,0.878315996485454,0.879001182162212,0.886653937443919,0.891089841203224,0.891252227592601,0.890186836478773,0.89208766585507,0.890793412906714,0.894468950801362,0.895058596038355,0.896355609565677,0.896507221820852,0.897093510834418,0.896161984445527,0.897222028476291,0.895987577305891,0.896686611191748,0.896298987916406,0.896110579333929,0.894721061748971,0.893223784150989,0.892932412843654,0.889984653356837,0.890178483823212,0.889023833505775,0.890627220961255,0.889427943871655,0.891273283573066,0.890473439062901,0.893021565197178,0.89157815939568,0.893726504305225,0.891636582874842,0.892855413514453,0.892072318750683,0.894268990407907,0.894204077675349,0.896467468495671,0.900464578274085,0.903416146964553,0.906015489727232,0.906688029091765,0.909175860697503,0.909263690890847,0.91080512740868,0.91045217844445,0.910672687634244,0.910703507648403,0.911129006868048,0.911566573916351,0.916617532201066,0.920288381592242,0.921980849031182,0.923728111733971,0.926198095387427,0.930079433374086,0.932689732635499,1.08122999998527,0.944129199353674,0.942685881876458,0.944331009027909,0.94537544175669,0.947030844714743,0.947326815789827,0.950436701764404,0.95046613738557,0.952757600660916,0.952787912252456,0.953728651263921,0.952189080507017,0.953759414876635,0.954888842414983,0.955883994547362,0.956897438179472,0.957695996308754,0.958337710886777,0.95955629730701,0.961104900975983,0.962424300853553,0.963425791583438,0.964176707126699,0.963650892490021,0.963608719037143,0.963736501606727,0.965275207190795,0.966477834918644,0.967466221013748,0.966940661088284,0.968125091826333,0.968005014261531,0.971068741920948,0.973467883523166,0.974438321603867,0.975961980674695,0.975707713243345,0.976354248047337,0.97689079340794,0.978351249341323,0.978728586987158,0.978892011124665,0.981340993551954,0.983615489458294,0.983487987936266,0.98471263973866,0.984011229833574,0.984344697459892,0.984568721011727,0.983943233812909,0.984028284420103,0.98389181171128,0.9980442337312,1.00228807702765,1.00288133065404,1.00506925955723,1.00765692782634,1.00817052172474,1.01012568595255,1.01140105486508,1.01111755719354,1.01089192449614,1.00970231840116,1.00963677779181,1.01063015537322,1.0113380352921,1.01855916877633,1.01909174074791,1.02158247039422,1.0219017063607,1.0318512671305,1.03278217596852,1.03475543040789,1.03645965655162,1.03744384047133
0.83948187426867,0.840262741024501,0.840858301684247,0.841609585042983,0.841818514687855,0.841306820211725,0.840344296679345,0.840794784809833,0.842222931649646,0.844729987777384,0.84650124214558,0.846643067788731,0.845546436184167,0.845681841735509,0.84639575316172,0.847309965590151,0.84932313337483,0.852020469069665,0.853998829600083,0.854848654832193,0.855524192280315,0.856541148323155,0.858022062424727,0.85870212677353,0.860300217223159,0.862205685629649,0.863940202064723,0.865064966426976,0.865238194425992,0.866488059840434,0.86748873914208,0.869716580484005,0.871556443430843,0.872056068182648,0.872241819312356,0.872403859610748,0.872821014822058,0.874973610253949,0.876435284220974,0.877523184342036,0.878308691655708,0.878523610669785,0.878498638264769,0.879063712794773,0.880080601801552,0.880975135412603,0.881924806643616,0.882948536750724,0.884042762063556,0.885518525494219,0.88601374143626,0.886731822345104,0.887657181081053,0.888239179102029,0.889115900009981,0.889843476623664,0.890555837681116,0.890502813265191,0.889157625049365,0.889655214072611,0.889254476911988,0.888340068561452,0.88815920653112,0.887926897493777,0.888062711726866,0.888001618263423,0.888272924777694,0.888517506870652,0.888963384614128,0.889111333016194,0.890033956144579,0.889558596958504,0.889903639001973,0.890475657019632,0.892893958291842,0.893937664467866,0.895134952908958,0.896184209561723,0.89771722462347,0.898885482175477,0.90008614632007,0.901931978495788,0.904067707820217,0.905643055100276,0.90710378614004,0.908394871575253,0.909104200888704,0.910175602370098,0.910905397749091,0.913287183247988,0.915165004401098,0.917757273546985,0.921002280908768,0.92377312066424,0.925592802824376,0.928172594493702,0.931154451192001,0.932777972609416,0.934853728429286,0.937408175237064,0.938517500345624,0.940713977026463,0.942134846226702,0.943431169544933,0.944543639645181,0.945676239080997,0.947646031168568,0.949509472205909,0.950338396433979,0.951786099262608,0.952927977642291,0.954218382285718,0.954873170678593,0.955830036040927,0.956429967965766,0.957627508675869,0.957820986315909,0.957098819823334,0.957538336232332,0.958923125070573,0.960207610058538,0.960477303999601,0.960888599525292,0.960274916289914,0.960821323904999,0.962377876840897,0.964757038374811,0.965395789861989,0.96717312961812,0.968058900963504,0.970243862311853,0.972394319317257,0.973312551740981,0.974189662611871,0.974547871280875,0.97514214454251,0.975816830848042,0.976808567034734,0.977758053782273,0.978938254310525,0.979795456678868,0.980577567315729,0.981265795528152,0.9814655512453,0.981900962993835,0.982790288666856,0.983303729691085,0.983843092870597,0.984185063944796,0.992348997799945,0.994832424076187,0.998479879602663,1.00634230565972,1.00739147111499,1.00772384561347,1.00868282388128,1.00938694275334,1.00969491832615,1.0097109141437,1.00982352032571,1.01063084932294,1.01190324547829,1.01385495150013,1.01699592669315,1.01885592877312,1.02101088859807,1.02512227860187,1.02986588592534,1.0318184600728,1.03264538148663,1.03378282164424,1.03476333205608
0.817005190632902,0.817631374987711,0.81957635394077,0.819191928509489,0.81977552703499,0.829369254153279,0.836373156717909,0.838227795988489,0.838265669837206,0.838140742158495,0.83804113235758,0.841238547653217,0.843218156919533,0.844399026061251,0.843503872968838,0.843533668728167,0.844538062480483,0.843477688390154,0.8445958335492,0.845431928027655,0.846506232266745,0.848138780297927,0.850426229027127,0.851114435382603,0.853573148927723,0.854741523349857,0.857042796925595,0.859668331358612,0.863303097394207,0.865373865576896,0.865526206053381,0.865163194116782,0.865084037428006,0.865249410333576,0.86649349482677,0.86828108210936,0.86932255423158,0.868239415667098,0.867658468755641,0.865947155295182,0.867225735575276,0.867849891045723,0.870107463388221,0.873754435936035,0.876939621254326,0.877535422753163,0.879315246504678,0.880516923787464,0.883112250005364,0.881524972527978,0.880121432413526,0.881896592350309,0.883638413731501,0.882410199505651,0.881694028220128,0.881376684475363,0.881569323646414,0.883373618643303,0.886531047808739,0.887573282259593,0.885761283412031,0.886573239443028,0.886289900691574,0.886423186630199,0.886292760646041,0.886381635725103,0.886016837342582,0.886241331731819,0.885941760630279,0.885900556102913,0.885629318654649,0.886634847827023,0.887699183210674,0.887027294231037,0.886207538549007,0.88478605591795,0.885217619634857,0.885997919993084,0.889396999249657,0.88908179190519,0.890726984207536,0.892405040410922,0.896936654175372,0.901400382385624,0.904695959403487,0.907053030438659,0.907086853759562,0.90916459086177,0.909084328052567,0.910538650488719,0.911064929285974,0.913185724254401,0.916603094596893,0.921071792015575,0.923279694370315,0.926112441706593,0.927094151631375,0.931726395061118,0.934584901249283,0.936535495777336,0.936309140740609,0.936666637072767,0.936552815646575,0.935635647192728,0.937112048394376,0.937800840789389,0.938837138382963,0.94277105322495,0.9463458443989,0.94994014169241,0.950859534234339,0.952637344783618,0.952301342095438,0.954106619878805,0.953635006673803,0.956249720505066,0.955198993655661,0.954723157196739,0.953118199560423,0.95206653778714,0.952908258470562,0.953835883863827,0.954661158371225,0.955795487432608,0.955872467154257,0.956724722639431,0.95710248693741,0.959119534779153,0.959941394945303,0.965384966226024,0.968047627651333,0.971227290313824,0.971868982815947,0.973106256107178,0.973123690549279,0.972934071355354,0.973940028606127,0.974487421492393,0.976017352595239,0.976286511083542,0.977674562739337,0.977370770308347,0.97744730304749,0.978706022010979,0.979681869956546,0.981124304787176,0.982709241598306,0.983916630001922,0.986008101441676,0.986502929504552,0.986284554702111,0.995124509120586,1.02002174742196,1.0071967429442,1.00622913748387,1.00734450782153,1.007498242917,1.00817659911505,1.00857762272371,1.009381276168,1.01095080750379,1.01219779174433,1.01613103942628,1.01620127046344,1.0183254783986,1.0190445006315,1.02860154489755,1.03041596783276,1.03103341575173,1.03065206660301,1.03105093700533,1.03193964535485
0.815542617570522,0.816357265958967,0.817553031316799,0.818159563777774,0.819087326461098,0.821171784239467,0.823791238734977,0.827368150509318,0.830824006152668,0.83331754003657,0.835315918048216,0.836943744272137,0.839306439072856,0.839865786688093,0.841309274247341,0.841864625112446,0.842306691465473,0.842327777698503,0.844004430005491,0.845518065490953,0.846992864291524,0.847690099614993,0.848381096243927,0.8493312575719,0.850165929381965,0.850722143412387,0.85105526925036,0.851299081437827,0.851673089158208,0.852440543629483,0.853518254972022,0.854867245989761,0.856302356866004,0.857679191077558,0.85914995498589,0.860528594763267,0.861313548424451,0.862001406577879,0.862613667347547,0.863377635563527,0.864514844888112,0.866580612808768,0.868314252695021,0.86802225413152,0.868532806843301,0.869736100906859,0.871702890828297,0.873038065574714,0.873798997972896,0.874271682206917,0.874711961586949,0.875240032000606,0.875713801842846,0.876363596062237,0.877465922886785,0.87886363846266,0.878958283367754,0.878842633291269,0.879729221454258,0.881388647711356,0.883463888863537,0.88420520403379,0.884351247873894,0.8840645881948,0.884497117467778,0.884038168176433,0.884370805805696,0.884036249892071,0.884103564758723,0.883574403057877,0.883630081976219,0.884000084465432,0.88496985650489,0.884619340744847,0.88429808057124,0.884138865023671,0.884611692809773,0.885624345561104,0.887519288149313,0.888712584391576,0.889952729017792,0.891113424564376,0.892769142778275,0.893993266161543,0.89625550724721,0.899027673469302,0.901849672102479,0.904553587311986,0.906864028159916,0.909013960422801,0.909565194344593,0.912085768892033,0.915273491977411,0.916030292811482,0.916327861010196,0.919154125610037,0.922416219780394,0.925198868991808,0.92735026044665,0.928774707960674,0.92992132598821,0.931035216599084,0.93276684759489,0.933975231592371,0.935726612882339,0.936989619048273,0.937551947821006,0.937007897607205,0.937596002986169,0.938602177139832,0.939817438530682,0.941844560582481,0.944232575461443,0.946337736586877,0.947831077122445,0.94814957533472,0.948075348345004,0.950104849994305,0.950699401333221,0.950699059942851,0.950933913556177,0.951897305947626,0.952640552881507,0.95352025224269,0.954072924744622,0.954819319316983,0.955586983721509,0.956469613695685,0.957881972302814,0.959502019420786,0.961458936128432,0.962761081289945,0.964601640379114,0.966285465257059,0.966821804574321,0.968904284864998,0.969928734515855,0.970937813521989,0.972070352862117,0.973178609853129,0.973934431179615,0.974958549940752,0.97537847440383,0.977145397405799,0.978362482956378,0.980224074623347,0.981695845965734,0.983454427641301,0.984889392854886,0.985929594844664,0.986656107740213,0.991743686071382,0.995716248886635,0.999461027933085,1.00723185399635,1.00665780447857,1.00639942523082,1.00661531718402,1.00714540540843,1.00791126541817,1.00876341666609,1.00979697860636,1.01073190878177,1.01318350979763,1.01646250057685,1.01819604570038,1.02030319485558,1.02303735273962,1.02538810494775,1.02715020465651,1.02924262394756,1.02986923022669
0.814626085263519,0.8145814630976,0.816898486533919,0.816351457084772,0.81820569262753,0.815891277909874,0.817306735675345,0.816292540187644,0.816538423460562,0.824973243019103,0.832737597368189,0.833604186084227,0.833753691705194,0.836733662428272,0.838504301214438,0.840247060207925,0.83984662357729,0.840420979954962,0.838254776651767,0.838429516357914,0.837524182481326,0.836163006744992,0.83625716588797,0.836067378518551,0.835401641372102,0.835832642727458,0.836491721295105,0.839494909731855,0.848349161776317,0.849798396808637,0.84970588930833,0.849485746205668,0.850460334570884,0.850681813825861,0.852505408351005,0.853025203268698,0.854730246529637,0.85542421430589,0.858503374243958,0.859817229492618,0.862226796218183,0.862119342208017,0.862517558437582,0.865343894427513,0.868483338361162,0.868109459448462,0.868655061404346,0.867326351373895,0.864933062049623,0.86875563234863,0.871818482801279,0.871327761492335,0.871203660056995,0.872633803536003,0.872826398526257,0.87434532515818,0.875629674628124,0.877464045201902,0.87764647174893,0.880447416269849,0.88133066950613,0.882961654205925,0.881095461095439,0.882460607058455,0.881760996905335,0.88208882076942,0.881657515982376,0.882228043020083,0.881981672038864,0.881571189012961,0.879800924701341,0.88163963664023,0.882907308192044,0.882544696550237,0.882383767099828,0.882777627332895,0.883637965688899,0.884697193988206,0.886572618308201,0.888465141142834,0.889479571116865,0.889225881703986,0.889795844780888,0.889078671301893,0.890000564432409,0.890490923358987,0.893642588245255,0.894914985025734,0.89799696742112,0.902202622608068,0.90597015075492,0.908578685400229,0.908591962604242,0.91204163549184,0.913938590520154,0.914309816733101,0.91578922786749,0.915451431823311,0.916539954688891,0.922218848139,0.929430162364897,0.930535950312573,0.928698369190569,0.929495115410231,0.929233569138152,0.926218930434045,0.926822283342707,0.928555229834925,0.931654716400096,0.932158650936429,0.93355546268905,0.934210510537108,0.93525340104234,0.935458458283128,0.936395887540823,0.940042414845645,0.946259185577638,0.949227059344455,0.948417590848363,0.948536061939705,0.948924033510048,0.949632199167181,0.950269004527869,0.951259938543726,0.952074473551124,0.952803038922893,0.953518601354101,0.953985295102497,0.954449909537337,0.954214742562543,0.955569287050145,0.954611824165523,0.95726410738871,0.95992736419416,0.964673277259179,0.966881515883229,0.966412878259368,0.967909592325379,0.968282209096363,0.970188637328608,0.970953560331287,0.972096345879174,0.973196665816949,0.975059694669884,0.9779397390599,0.978927922213598,0.981245256666818,0.982423729095857,0.984503487644708,0.984549731894535,0.985040162940841,0.984537767124225,0.986005055919691,0.989493817997052,1.03972001759158,1.00550116605573,1.00448923702314,1.00498063980144,1.00528284977321,1.00608012117242,1.00608841471159,1.00733943920677,1.00800881709096,1.00966389633176,1.00986899612735,1.0103946823272,1.01128233674993,1.01546071302849,1.01807307818189,1.02342194418793,1.13187999998527,1.02841297667296
0.811089224361947,0.812125722055996,0.812268666624469,0.813942842225428,0.814224316451351,0.814445699747656,0.814657504021405,0.815225711959359,0.815662899586494,0.816314602064365,0.817259139260466,0.818920230771032,0.820869534774268,0.822735516979366,0.824699567180463,0.826526077218134,0.828379486681631,0.830300514656072,0.831870747532225,0.832434331952787,0.832617920675692,0.833456698708886,0.834548551484704,0.834377001622918,0.834713319042015,0.834746494694898,0.83547653664028,0.836918158650321,0.839001323217956,0.840924467495696,0.842940699289449,0.845886397396633,0.848673559363353,0.849478843564313,0.851436518834526,0.852862383174908,0.85368474661315,0.854887406575251,0.855991516688257,0.857272287095564,0.857966324316682,0.858671502250998,0.858647461454532,0.857489069793187,0.856559209197788,0.856626593498001,0.857526677597681,0.859173134388254,0.86167789764971,0.861559447879909,0.862072333046525,0.863212695355365,0.864640973317178,0.866213468604865,0.867740787505717,0.868964072230576,0.869923482145905,0.870429835071753,0.871353414845834,0.872579801118155,0.873751750963228,0.874307205539083,0.874678330516091,0.876417913098778,0.877239488102202,0.878815752634206,0.879415310838839,0.879702932508473,0.879677160580309,0.879802245195466,0.878996080781234,0.878458018409958,0.877662373248911,0.878747508324337,0.880421103083244,0.880654341480354,0.881929770717223,0.882341434218608,0.882615022357925,0.884042156234206,0.885100361229155,0.886660789819467,0.887741540435952,0.888651268874813,0.889095742285566,0.889856733824705,0.891355460263552,0.894874230156005,0.898094280570541,0.901501168944887,0.904737365161041,0.907330276798414,0.909497442093825,0.911617556593473,0.911771454665209,0.912810499565801,0.913717188850985,0.914340826730269,0.914636326866925,0.91482116123715,0.916294069334102,0.917511372156224,0.918566791946332,0.920545666640243,0.92244128561073,0.924559620946904,0.925730857203895,0.9278004442923,0.929979499570312,0.931114268997276,0.932648937090225,0.933524633214442,0.934364484472773,0.934594450426699,0.935364307645228,0.936400206187703,0.938024329910041,0.939583739909284,0.941938554190914,0.945107239499169,0.946615004129899,0.947917798469727,0.94855955151924,0.949818626382922,0.950354722959656,0.951263446231839,0.951381760226452,0.951673732737127,0.952697984963223,0.953058099862133,0.953981033922405,0.953384284310797,0.954564404416311,0.955872983922168,0.957941074355628,0.959901937623646,0.962861797875792,0.965196954379703,0.966938925736411,0.968796565587779,0.969554260453635,0.970813961436075,0.971770544443745,0.973694364026483,0.975369250733194,0.977682288722252,0.979622290987375,0.981252113481218,0.982474605675697,0.982886459137859,0.982972650845328,0.983383701518626,0.984866575223836,0.987970200657991,0.9903275788945,0.993513970907761,0.998077888936229,1.00296730772699,1.00559431831614,1.00466753206324,1.00423520142247,1.00508248383467,1.00609401702657,1.00758995791208,1.00859426160524,1.01008897025802,1.01144640878958,1.01411637627362,1.01631364064747,1.01983878287062,1.02159440891624,1.023259191174
0.808603096758516,0.810024222246877,0.810511651947886,0.812495775010431,0.812551957654823,0.813291516047762,0.813606960039354,0.813729263513627,0.814843284727514,0.816056567466839,0.816698649847264,0.817644069205249,0.817151354850021,0.820608974096103,0.824686106826762,0.82420744304699,0.823289166893851,0.8255257227094,0.826669418688238,0.827631365058697,0.829301663323217,0.831756605443424,0.832164423469679,0.833240870546426,0.832420507091576,0.833888524820879,0.832200654861863,0.831697867223038,0.832008360098464,0.837956922364578,0.842836376638278,0.842891670018258,0.843008705801358,0.845881917891859,0.85225908898248,0.852447558676426,0.853298653519903,0.854002993531251,0.854034836526338,0.854866381122333,0.853780974933135,0.854487184692561,0.854687757769934,0.85499241633931,0.854746359577828,0.854192736600426,0.855613896622978,0.854476758208116,0.855376303746474,0.85590085326637,0.858152334899642,0.858997646733356,0.861377795707169,0.861516339005609,0.86265787773583,0.862579197662858,0.864670533808583,0.864030826794562,0.866480131020715,0.867033416167083,0.867863224856946,0.86987898352604,0.872033173330321,0.873553479566637,0.874041153680481,0.876336776688733,0.876503948330271,0.877548046566762,0.8769576348535,0.878402683933949,0.876707808717705,0.876224571426149,0.874633280709338,0.875417612711507,0.873686456021036,0.874962278625217,0.874180603322529,0.875320474511242,0.876081021076853,0.87654048329058,0.879028310606044,0.883804855217628,0.886209641633002,0.888324764597224,0.888521947840716,0.88857950881506,0.887686837033526,0.8854650896587,0.886489396240925,0.886172509632452,0.887655194522485,0.889446281634327,0.893237135060243,0.901222427125784,0.909095934721285,0.911238157947071,0.91171278140014,0.913231371209788,0.913105339241365,0.914520434566346,0.914885223918229,0.917230094899765,0.919004829638496,0.920936144425017,0.922248836536814,0.923452320763168,0.924767128941607,0.927236958488252,0.928852607566168,0.93095488950066,0.931968192155705,0.933517063645613,0.933837967584466,0.933815879040118,0.934305508691214,0.934296988066238,0.934463570090195,0.934193905321077,0.936702052681704,0.941978013057699,0.944432397556659,0.946747068006488,0.946451811487752,0.94882486003154,0.948499585399513,0.950308474108774,0.949429069643518,0.949448165035829,0.946412420982289,0.946676917856919,0.947262238368672,0.950157491195467,0.951880725945758,0.953638465382109,0.954324759081389,0.956612102685656,0.958769599457191,0.963517008818282,0.96563421310638,0.967884272362998,0.968674240627719,0.969408189326878,0.970755646344291,0.971806833645328,0.973413980489476,0.976014239778431,0.979183072592563,0.979950129949386,0.981725431124033,0.980961594431584,0.980729758025316,0.981208187599165,0.981614102873583,0.98065401864584,0.981268662968907,0.986958732692137,0.989842522630906,0.994833610596882,1.00869277183201,1.00261903100978,1.00001104231888,1.00277917574866,1.00309209094285,1.0059928245509,1.00633260509496,1.00890777761207,1.01016475500028,1.01258282219174,1.01376121414398,1.0177025933795,1.0211348778173,1.02307743042119
