0.679799,0.679078,0.69324,0.698665,0.700601,0.700968,0.702978,0.701994,0.690366,0.689915,0.691989,0.694578,0.697242,0.698657,0.694715,0.694913,0.707813,0.709492,0.70975,0.709978,0.7105,0.69713,0.716584,0.71801,0.719451,0.718779,0.721466,0.721241,0.720444,0.721666,0.724365,0.723364,0.725298,0.728102,0.728041,0.730628,0.732223,0.731972,0.733426,0.736877,0.737402,0.738264,0.738423,0.736291,0.737172,0.740541,0.752768,0.753301,0.751331,0.75193,0.755458,0.757173,0.756251,0.818536,0.760545,0.767226,0.771806,0.772888,0.77679,0.781055,0.783607,0.784382,0.784333,0.791804,0.787563,0.794256,0.794615,0.79492,0.795945,0.803524,0.804871,0.808271,0.808714,0.819601,0.819824,0.822809,0.824297,0.824668,0.834384,0.835884,0.838914,0.838471,0.839368,0.841945,0.848466,0.851386,0.855007,0.858336,0.863903,0.866798,0.868244,0.0037869,0.886305,0.891319,0.893803,0.895515,0.900973,0.909165,0.909384,0.913828,0.915174,0.885895,0.887121,0.895995,0.899317,0.899835,0.905771,0.90259,0.904004,0.904321,0.915365,0.910056,0.908675,0.896503,0.947041,0.946277,0.909716,0.91438,0.915723,0.903205,0.914734,0.892775,0.886702,1.0535,1.05334,0.943136,0.94036,0.949893,0.985186,0.985239,0.970207,0.958197,0.976674,0.964048,0.967994,0.986678,0.986291,1.0219,1.0121,1.06072,1.01572,1.02693,1.02858,1.04065,1.04114,1.05325,1.05125,1.09612,1.08715,1.09544,1.09921,1.09622,1.0985,1.09782,1.1295,1.10457,1.10307,1.11061,1.12946,1.19208,1.15557,1.1545,1.15479,1.15478,1.1679,1.16689,1.16795,1.16656,1.17598,1.18592,1.1847,1.28465,1.20115,1.18357,1.20038,1.21004,1.20449,1.20362,1.21217,1.2338,1.23544,1.21515,1.21544,1.23359,1.24777,1.24678,1.23888,1.27786,1.26377,1.25116,1.25267,1.25278,1.26394,1.2936,1.28426,1.28872,1.29479,1.25664,1.32966,1.30562,1.32746,1.27306,1.29661,1.46099,1.46365,1.38946,1.42118,1.42024,1.41871,1.41302,1.41082,0.00430607,0.00426927,1.50383,1.40608,1.40414,1.41134,1.41151,1.41168,1.50487,1.42514,1.42716,1.43111,1.43077,1.42899,1.43707,1.44071,1.4415,1.44687,1.48642,1.48544,1.46765,1.46907,1.4708,1.48186,1.48293,1.48836,1.49127,1.49105,1.49858,1.50292,1.50501,1.51094,1.51365,1.52075,1.51925,1.51983,1.52548,1.52552,1.52864,1.5294,1.53107,1.52583,1.52146,1.52303,1.53076,1.5734,1.5871,1.58717,1.55589,1.57064,1.56942,1.56802,1.57822,1.57593,1.57541,1.58352,1.58571,1.58526,1.58821,1.5868,1.59862,1.59753,1.6029,1.60509,1.61875,1.62046,1.61944,1.62057,1.62703,1.63421,1.64304,1.64879,1.64768,1.65826,1.68228,1.81665,1.68865,1.68113,1.68889,1.69419,1.82644,1.6982,1.69555,1.69514,1.69339,1.80229,1.7654,1.72322,1.72723
0.670021,0.669701,0.677561,0.68007,0.687508,0.68065,0.688869,0.687461,0.687565,0.689504,0.687905,0.681006,0.687543,0.690717,0.691486,0.691729,0.689904,0.690335,0.704265,0.697251,0.694069,0.694137,0.706092,0.705603,0.685556,0.686651,0.685032,0.711119,0.711983,0.712824,0.791281,0.715445,0.712178,0.710329,0.705348,0.706574,0.721399,0.727873,0.726795,0.728446,0.729682,0.731291,0.732582,0.733746,0.733398,0.734566,0.737715,0.742585,0.735521,0.743072,0.745379,0.744911,0.742655,0.743171,0.755929,0.756963,0.760136,0.763594,0.767031,0.771121,0.768421,0.768352,0.777324,0.778524,0.78472,0.787548,0.790677,0.790562,0.788909,0.80141,0.803944,0.798816,0.80407,0.819272,0.808713,0.820406,0.823032,0.824542,0.825188,0.831143,0.833064,0.835114,0.837152,0.842292,0.846061,0.850323,0.852756,0.856643,0.858935,0.86102,0.866091,0.866548,0.866704,0.881836,0.884895,0.894023,0.88704,0.8973,0.868236,0.870423,0.930267,0.882251,0.88764,0.891973,0.895212,0.902179,0.903661,0.901507,0.938839,0.940117,0.940774,0.908353,0.905803,0.899836,0.922628,0.904593,0.920805,0.905244,0.897945,0.897664,0.890094,0.89101,0.895434,1.02067,0.939987,0.92745,0.929255,1.0491,0.950313,0.998246,0.995946,0.995222,0.97382,0.97361,0.975092,0.995733,0.997748,1.01467,1.01201,1.03543,1.01552,1.03657,1.0372,1.04261,1.04024,1.0412,1.04088,1.06674,1.08084,1.07525,1.10265,1.10186,1.10422,1.11566,1.1189,1.13507,1.10991,1.11383,1.1394,1.16525,1.16428,1.15187,1.15982,1.16406,1.14628,1.17366,1.2273,1.14615,1.13988,1.14292,1.14688,1.21259,1.15511,1.1576,1.1954,1.19261,1.17822,1.18596,1.21232,1.20066,1.20347,1.21531,1.21634,1.22112,1.22274,1.23508,1.23252,1.23212,1.22915,1.22878,1.23284,1.24085,1.22756,1.25515,1.25722,1.21961,1.21225,1.21327,1.22038,1.2333,1.23416,1.23407,1.28153,1.28502,1.30611,1.39474,1.40051,1.41235,1.41259,1.4168,1.42118,1.41072,0.00364951,1.38939,1.39539,1.39393,1.40283,1.41012,1.41048,1.41266,1.4164,1.41932,1.42157,1.42344,1.42666,1.42462,1.42272,1.4812,1.43485,1.44025,1.4403,1.48919,1.48681,1.46772,1.46911,1.51538,1.48328,1.4841,1.49222,1.49206,1.49884,1.50163,1.50281,1.50563,1.53074,1.53471,1.5195,1.51911,1.52291,1.52392,1.52334,1.52511,1.52444,1.52617,1.52566,1.52798,1.52686,1.53318,1.53663,1.54797,1.54843,1.5497,1.6004,1.56758,1.5677,1.57126,1.5796,1.58003,1.58124,1.58308,1.59091,1.59118,1.59337,1.59929,1.61081,1.61032,1.61982,1.61811,1.62417,1.63246,1.63729,1.63512,1.64021,1.64872,1.64539,1.72487,1.67479,1.66856,1.66826,1.67539,1.67628,1.68429,1.68515,1.69125,1.6877,1.68608,1.69369,1.69381,1.74689,1.71685
0.657245,0.657308,0.673298,0.673263,0.672706,0.673948,0.67372,0.67825,0.680109,0.677741,0.679597,0.679051,0.678185,0.679491,0.684258,0.687107,0.685631,0.68321,0.683482,0.69192,0.692526,0.679838,0.681002,0.685367,0.684339,0.685006,0.684864,0.685974,0.686137,0.682123,0.682821,0.683052,0.697367,0.697655,0.699514,0.698251,0.707479,0.71184,0.716853,0.717667,0.716365,0.719656,0.719891,0.726086,0.728446,0.725378,0.730631,0.732307,0.72432,0.734025,0.735862,0.735383,0.73648,0.735728,0.73758,0.740397,0.745697,0.749672,0.757176,0.762906,0.764067,0.766604,0.772511,0.774317,0.782654,0.785253,0.785586,0.785384,0.783928,0.785223,0.783614,0.788303,0.790232,0.795127,0.798766,0.813013,0.814709,0.818339,0.821721,0.823669,0.825167,0.826779,0.827899,0.82812,0.828822,0.841761,0.843213,0.848555,0.851513,0.852451,0.865797,0.865426,0.868276,0.870207,0.876864,0.879562,0.880695,0.885362,0.864726,0.866487,0.866971,0.873647,0.875899,0.876616,0.885221,0.888467,0.909216,0.930016,0.932844,0.93229,0.895361,0.899508,0.90492,0.895566,0.892425,0.952334,0.926156,0.928473,0.890341,0.935626,0.897836,0.8906,0.890705,0.997273,0.928642,0.947137,0.943707,0.943423,0.947006,0.954378,0.96251,0.970439,0.99297,0.997341,0.970438,0.971958,0.980941,1.00918,1.00815,1.00939,1.01968,1.02517,1.02565,1.03422,1.03677,1.0371,1.05404,1.07166,1.10026,1.09856,1.12746,1.12993,1.15165,1.12904,1.13082,1.13589,1.10349,1.12234,1.10579,1.1341,1.16176,1.21193,1.16138,1.13088,1.13015,1.13072,1.12708,1.12858,1.12941,1.13285,1.12513,1.13245,1.13825,1.15679,1.19882,1.18361,1.18866,1.19475,1.18687,1.20578,1.20689,1.24048,1.18284,1.1851,1.1986,1.21352,1.18595,1.19655,1.22402,1.22263,1.28135,1.2833,1.23942,1.21031,1.20218,1.20313,1.20542,1.20258,1.20235,1.20987,1.21274,1.25653,1.26824,1.27086,1.27183,1.33562,1.38837,1.39258,1.39059,1.3931,1.39777,1.40586,1.41318,1.41285,1.37458,1.65749,1.39422,1.39396,1.40224,1.40333,1.40856,1.40995,1.41045,1.41755,1.41723,1.41934,1.42358,1.42618,1.42976,1.43135,1.43598,1.43476,1.441,1.49604,1.49867,1.46776,1.49993,1.51158,1.48864,1.48832,1.49203,1.49177,1.49775,1.50367,1.50376,1.50818,1.51094,1.51101,1.51197,1.51591,1.51528,1.52595,1.53142,1.53013,1.52988,1.52686,1.53023,1.53508,1.54048,1.54163,1.54717,1.54792,1.66391,1.59943,1.56422,1.57074,1.57533,1.57537,1.57555,1.57208,1.57576,1.57833,1.58329,1.58412,1.74928,1.61538,1.61505,1.61962,1.62515,1.62678,1.62836,1.63279,1.63009,1.64049,1.7598,1.64736,1.76894,1.66181,1.66498,1.66925,1.66826,1.67906,1.68224,1.67785,1.68804,1.69388,1.69581,1.69066,1.68963,1.69067
0.653899,0.653992,0.653509,0.655114,0.665841,0.66928,0.665782,0.667232,0.666178,0.6623,0.658912,0.674811,0.672754,0.674859,0.675207,0.67554,0.680054,0.680054,0.666483,0.67576,0.67757,0.679641,0.676957,0.676761,0.680031,0.682296,0.682709,0.683544,0.686289,0.686476,0.681815,0.681812,0.683525,0.68611,0.688607,0.692788,0.693142,0.699571,0.707886,0.709854,0.711302,0.711653,0.713552,0.713409,0.712178,0.712193,0.719761,0.722536,0.723004,0.722489,0.723266,0.72672,0.731379,0.731549,0.734438,0.739234,0.746462,0.74913,0.752665,0.75161,0.761067,0.761865,0.759677,0.765096,0.769416,0.767457,0.770563,0.776249,0.776952,0.776701,0.778005,0.785529,0.790204,0.78964,0.793597,0.802279,0.804772,0.807142,0.809301,0.818221,0.821931,0.822983,0.827936,0.828963,0.830612,0.838487,0.841589,0.849626,0.855164,0.859518,0.861392,0.864734,0.865807,0.864975,0.866427,0.842805,0.845166,0.847739,0.892026,0.861665,0.863115,0.875718,0.876512,0.877162,0.925133,0.915544,0.91703,0.91653,0.874009,0.876956,0.874852,0.88459,0.873594,0.879824,0.880304,0.87283,0.881819,0.882414,0.875797,0.902834,0.912392,0.900662,0.943714,0.915302,0.915238,0.939575,0.940846,0.934266,0.932604,0.936253,0.929374,0.949766,0.965027,0.971777,0.977859,0.98125,0.966876,0.968225,0.968232,0.991896,1.00084,0.99482,1.0212,1.03107,1.01843,1.04198,1.0479,1.07206,1.0858,1.0878,1.0847,1.10545,1.09425,1.13309,1.09763,1.09963,1.11015,1.11688,1.12539,1.1273,1.12785,1.11074,1.12905,1.11339,1.11381,1.12405,1.12329,1.11565,1.11821,1.12256,1.13884,1.14638,1.14675,1.1828,1.18491,1.18758,1.18608,1.18472,1.18606,1.17279,1.17458,1.18869,1.17733,1.18478,1.18573,1.18981,1.18314,1.19581,1.18558,1.18932,1.18937,1.19241,1.18049,1.21118,1.21282,1.233,1.19693,1.19993,1.23671,1.2268,1.29234,1.29316,1.32686,1.30122,1.28394,1.31906,1.32016,1.38043,1.38182,1.37835,1.42296,1.39185,1.35149,1.35213,1.417,1.454,0.00367397,1.42738,0.00348319,1.44499,1.40181,1.40168,1.39981,1.4105,1.4497,1.45731,1.45254,1.45576,1.43326,1.43299,1.4334,1.43694,1.43952,1.44579,1.45497,1.45418,1.5007,1.50901,1.50748,1.48814,1.49293,1.49165,1.48999,1.6251,1.51981,1.49968,1.61867,1.5087,1.51122,1.51322,1.51417,1.5142,1.63305,1.52671,1.52773,1.52794,1.53255,1.53651,1.53746,1.54009,1.54222,1.58339,1.55469,1.5564,1.78156,1.56552,1.56953,1.56801,1.57515,1.57867,1.58228,1.57919,1.58347,1.58315,1.58968,1.58645,1.5956,1.69603,1.6957,1.64145,1.62753,1.63433,1.63789,1.63796,1.64064,1.64183,1.65078,1.6467,0.0037385,1.66221,1.66344,1.66904,1.67757,1.68269,1.682,1.69221,1.69386,1.69514,1.69327,1.69674
0.64219,0.649716,0.64863,0.647005,0.653579,0.658655,0.662973,0.662497,0.663505,0.663618,0.665595,0.664234,0.668919,0.672496,0.653919,0.653783,0.660591,0.666081,0.664228,0.653052,0.661433,0.663874,0.673364,0.670038,0.666373,0.669112,0.672371,0.676872,0.674742,0.675525,0.675639,0.676291,0.677589,0.687875,0.689645,0.691296,0.695236,0.698108,0.698345,0.696464,0.70928,0.694905,0.710185,0.710593,0.710819,0.716134,0.717718,0.719099,0.724053,0.722541,0.718467,0.725258,0.731292,0.732033,0.733068,0.734022,0.735441,0.736415,0.736481,0.741082,0.749822,0.752606,0.760192,0.761788,0.764114,0.764676,0.767891,0.7688,0.770589,0.774474,0.77932,0.784888,0.786649,0.793405,0.795661,0.802606,0.804721,0.806602,0.809288,0.821344,0.824371,0.827812,0.828771,0.832758,0.832841,0.833131,0.845948,0.84732,0.849079,0.859222,0.86264,0.860149,0.855729,0.847887,0.850692,0.852125,0.85331,0.849695,0.852837,0.852203,0.869418,0.876692,0.856199,0.88929,0.848187,0.849963,0.877762,0.844828,0.847437,0.847154,0.859868,0.832642,0.834305,0.870012,0.870709,0.863686,0.871508,0.873602,0.869443,0.866745,0.884829,0.911855,0.902901,0.904635,0.912299,0.925468,0.926959,0.929453,0.919209,0.922231,0.943612,0.930556,0.975076,0.964849,1.04271,1.04336,0.968515,0.981722,0.978566,1.02218,1.02366,1.02731,1.02963,1.0372,1.02041,1.03047,1.05829,1.07215,1.07463,1.10194,1.10292,1.1571,1.1168,1.08917,1.08521,1.1088,1.11681,1.14883,1.11773,1.1181,1.11237,1.12199,1.11882,1.12062,1.13889,1.12936,1.11993,1.12688,1.14204,1.16076,1.1726,1.14733,1.1476,1.21175,1.21273,1.18724,1.19055,1.17955,1.18967,1.19186,1.19737,1.17864,1.18115,1.18001,1.17793,1.1581,1.16077,1.16806,1.1708,1.18259,1.18899,1.20487,1.17804,1.17946,1.19562,1.22311,1.24035,1.24095,1.24081,1.25085,1.24858,1.25678,1.30249,1.31137,1.33405,1.33786,1.29277,1.2989,1.29828,1.33673,1.33648,1.33952,1.38462,1.39806,1.39831,1.40993,1.41275,1.98513,1.41564,1.42047,1.39938,1.39915,1.40111,1.40597,1.41097,1.40999,1.42069,1.42396,1.42911,1.43029,1.43622,1.43753,1.44307,1.44478,1.45056,1.45836,1.45731,1.50195,1.60352,1.61004,1.48779,1.48707,1.49081,1.48971,1.49532,1.50151,1.50603,1.50255,1.50539,1.50634,1.50784,1.54056,1.51784,1.52454,1.5269,1.53707,1.53369,1.53,1.5342,1.53447,1.54221,1.54088,1.54713,1.5478,1.55894,1.55838,1.56411,1.56503,1.57375,1.57934,1.57811,1.5885,1.59491,1.59353,1.59673,1.59983,1.59912,1.60705,1.60685,1.61293,1.61095,1.61938,1.61793,1.61865,1.62062,1.63565,1.65394,1.64745,1.64535,1.65264,1.65387,1.65377,1.70114,1.69426,1.67644,1.67412,1.68827,1.68646,1.69383,1.7023
0.641132,0.641941,0.643819,0.64593,0.644924,0.643695,0.658508,0.660168,0.653377,0.654328,0.657903,0.659101,0.656394,0.654847,0.65083,0.649217,0.655353,0.657114,0.65562,0.655807,0.65626,0.656629,0.660074,0.663728,0.66602,0.667451,0.676901,0.678652,0.680462,0.681951,0.683688,0.685739,0.685879,0.686718,0.684921,0.697132,0.698953,0.69113,0.685226,0.694939,0.699525,0.697118,0.702189,0.703616,0.701718,0.707755,0.708018,0.714608,0.71626,0.715798,0.720091,0.721552,0.72259,0.72874,0.730016,0.731953,0.736004,0.737417,0.740595,0.745231,0.747273,0.748283,0.748378,0.750793,0.762823,0.758184,0.76128,0.765753,0.767464,0.769865,0.771565,0.77716,0.77986,0.785754,0.7876,0.793063,0.802831,0.805951,0.807851,0.817805,0.821125,0.821356,0.830424,0.833539,0.834598,0.836147,0.836116,0.850352,0.850407,0.849047,0.852891,0.856586,0.857911,0.83913,0.840492,0.842326,0.84408,0.846789,0.848098,0.85771,0.831658,0.832117,0.846819,0.846788,0.845928,0.845442,0.860746,0.875411,0.86064,0.818153,0.817024,0.83265,0.828124,0.839296,0.856553,0.859749,0.846283,0.838718,0.849534,0.858008,0.908795,0.905492,0.880036,0.932913,0.912757,0.963725,0.965109,0.921919,0.922341,0.921586,0.922454,0.923116,0.971147,0.947219,0.946514,0.948634,0.998375,0.985064,0.990347,1.07483,1.03931,1.08904,1.04415,1.04705,1.03822,1.05492,1.05588,1.07326,1.08968,1.095,1.10159,1.1024,1.10984,1.09678,1.1121,1.13572,1.12321,1.12405,1.11834,1.12623,1.12695,1.13623,1.1437,1.13132,1.14665,1.13899,1.14018,1.1694,1.14848,1.15039,1.1523,1.15829,1.17331,1.17396,1.17067,1.18883,1.20217,1.18149,1.16947,1.15758,1.15433,1.17695,1.17118,1.15853,1.1557,1.15901,1.17747,1.18372,1.19114,1.20587,1.18465,1.17983,1.17726,1.19292,1.21559,1.22928,1.2398,1.22547,1.2301,1.25446,1.25765,1.24045,1.29778,1.28485,1.28126,1.28422,1.33332,1.29546,1.3121,1.33392,1.33735,1.33927,1.33977,1.34376,1.34401,1.40534,1.4155,1.40846,1.41663,1.38671,1.3962,1.39728,1.39851,1.40546,1.40997,1.4133,1.41725,1.41961,1.42563,1.4269,1.43034,1.43546,1.43636,1.44401,1.44691,1.44918,1.45382,1.45748,1.45952,1.46239,1.59476,1.49617,1.48608,1.48957,1.48904,1.48758,1.49306,1.49729,1.50537,1.50382,1.50736,1.51188,1.51145,1.51327,1.51661,1.52405,1.5215,1.52101,1.52182,1.52357,1.53241,1.54112,1.54781,1.55377,1.55277,1.5634,1.56427,1.57903,1.57553,1.5784,1.58205,1.58627,1.58435,1.58968,1.59501,1.5929,1.60176,1.61104,1.61049,1.61321,1.6151,1.61422,1.61517,1.61541,1.61622,1.61515,1.6597,1.6646,0.00362875,1.66189,1.6493,1.65665,1.6596,1.65778,1.66509,1.70547,1.68184,1.72747,1.69651,1.70322
0.620103,0.629038,0.634189,0.633829,0.635072,0.637583,0.648754,0.645524,0.645269,0.652185,0.655415,0.653617,0.655774,0.65079,0.649597,0.649849,0.651182,0.651649,0.64942,0.652368,0.653443,0.658679,0.659216,0.663941,0.667682,0.673943,0.676813,0.677407,0.680369,0.680869,0.680542,0.684673,0.686696,0.671611,0.670385,0.679087,0.678864,0.684369,0.685773,0.686626,0.689091,0.69353,0.693629,0.700927,0.703454,0.702896,0.707246,0.70002,0.698614,0.707547,0.715662,0.720023,0.722049,0.722399,0.726835,0.72944,0.727076,0.734001,0.736791,0.73853,0.738967,0.738112,0.7383,0.737919,0.748645,0.749916,0.763267,0.766787,0.771749,0.773929,0.773384,0.773442,0.773104,0.785265,0.78596,0.795093,0.796092,0.798094,0.79698,0.798079,0.814797,0.00388379,0.819793,0.825264,0.831278,0.835221,0.833967,0.834818,0.842437,0.839509,0.827124,0.828914,0.831209,0.864118,0.868117,0.868523,0.871655,0.82618,0.84914,0.825745,0.827325,0.840208,0.876667,0.840822,0.81655,0.834843,0.806216,0.816111,0.827004,0.828288,0.816634,0.815043,0.814181,0.816356,0.816319,0.83245,0.832695,0.832377,0.837645,0.841541,0.837703,0.873417,0.87447,0.88207,0.894129,0.901177,0.91235,0.901307,0.90153,0.90276,0.914605,0.916711,0.937256,0.94365,0.946312,0.996107,1.0073,1.02584,1.04307,1.05799,1.15004,1.07326,1.075,1.07385,1.06049,1.08394,1.0815,1.09235,1.09724,1.11352,1.11221,1.11061,1.13246,1.13182,1.12383,1.16396,1.13365,1.13307,1.14791,1.14334,1.14539,1.14323,1.17204,1.18084,1.14326,1.1463,1.19243,1.18324,1.18502,1.18207,1.19538,1.18208,1.18235,1.18455,1.18522,1.18631,1.18145,1.18458,1.18789,1.18744,1.17242,1.16382,1.18407,1.16626,1.16767,1.1648,1.168,1.21976,1.20148,1.17268,1.17697,1.18925,1.17932,1.18093,1.22998,1.21428,1.2247,1.2304,1.2405,1.26135,1.26556,1.25194,1.2547,1.37653,1.27575,1.28457,1.33712,1.36493,1.36426,1.3134,1.31401,1.34323,1.34068,1.34454,1.34538,1.35001,1.35326,1.35254,1.40201,1.4139,1.3911,1.39215,1.39361,1.39898,1.51323,1.53918,1.42015,1.41284,1.42265,1.42599,1.42631,1.43012,1.43775,1.44007,1.44093,1.70005,1.69916,1.4537,1.45403,1.46054,1.46759,1.46529,1.47539,1.47826,1.47849,1.48637,1.48968,1.48996,1.50476,1.50431,1.50381,1.50549,1.51287,1.51091,1.51737,1.51809,1.5193,1.51409,1.52072,1.5231,1.52504,0.00381923,1.54961,1.5537,1.55218,1.5611,1.56189,1.5652,1.57448,1.57297,1.59534,1.57931,1.58174,1.59057,1.58962,1.59725,1.6019,1.60452,1.61086,1.61329,1.61163,1.61423,1.62146,1.61863,1.61878,1.61664,1.62014,1.6206,1.62281,1.66965,1.67002,1.66738,1.65043,1.66131,1.66224,1.66205,1.67906,1.71365,1.72153,1.71273
0.617704,0.617247,0.62799,0.627457,0.627895,0.62661,0.627513,0.637277,0.640039,0.640313,0.640886,0.641209,0.647629,0.649932,0.650743,0.651278,0.651542,0.652164,0.649742,0.647801,0.635704,0.641982,0.643762,0.64715,0.650045,0.655546,0.652937,0.654397,0.652873,0.655489,0.656068,0.660958,0.662417,0.668868,0.669445,0.670701,0.668255,0.675684,0.678026,0.686723,0.6866,0.68681,0.689825,0.690725,0.693217,0.694415,0.697827,0.6975,0.693978,0.705157,0.707086,0.710612,0.713226,0.714116,0.722826,0.7253,0.724797,0.725888,0.735418,0.733671,0.734614,0.737102,0.738688,0.736874,0.750829,0.75966,0.758322,0.76201,0.764221,0.769662,0.759266,0.760086,0.761324,0.782713,0.786006,0.785794,0.789663,0.78951,0.791431,0.792267,0.793413,0.793263,0.816313,0.821209,0.821296,0.825356,0.829835,0.832045,0.821952,0.822736,0.824181,0.860375,0.861025,0.853152,0.853434,0.84387,0.815787,0.815858,0.837012,0.83663,0.822782,0.808054,0.808738,0.812941,0.809753,0.813439,0.819614,0.81801,0.814961,0.821948,0.821242,0.8155,0.808273,0.811053,0.81934,0.825591,0.824514,0.832983,0.83325,0.867694,0.877142,0.876438,0.873821,0.880533,0.883177,0.896113,0.902631,0.908777,0.922555,0.926299,0.925824,0.933508,0.956628,0.970102,0.968767,1.00615,1.04805,1.0413,1.04362,1.08546,1.09266,1.09499,1.11184,1.09968,1.1897,1.07056,1.07348,1.14122,1.10098,1.12657,1.10448,1.1061,1.13114,1.13216,1.1402,1.16861,1.17043,1.16776,1.14314,1.15368,1.17078,1.16399,1.16409,1.16506,1.164,1.19996,1.20119,1.19452,1.19547,1.18665,1.18486,1.18686,1.28116,1.23225,1.21917,1.20185,1.20161,1.19527,1.17508,1.16764,1.15495,1.27184,1.27096,1.17702,1.17777,1.18402,1.19267,1.19911,1.19833,1.19908,1.20597,1.19381,1.19268,1.17733,1.22205,1.20787,1.20849,1.20976,1.24368,1.24729,1.24305,1.24238,1.25844,1.24977,1.28454,1.29885,1.27537,1.28021,1.29654,1.29583,1.30175,1.30186,1.29941,1.33361,1.33621,1.3503,1.34919,1.41238,1.4094,1.36363,1.39944,1.38604,1.38849,1.39229,1.39538,1.3991,1.40637,1.40923,1.41569,1.41549,1.42248,1.42084,1.42844,1.42959,1.43054,1.43546,1.46778,1.44521,1.45045,1.45174,1.45209,1.46097,1.46059,1.46499,1.47546,1.54501,0.00368037,1.50553,1.51497,1.52119,1.50309,1.50017,1.5065,1.58705,1.50682,1.50936,1.51258,1.51114,1.51551,1.51417,1.52221,1.52881,1.54384,1.54328,1.55539,1.56114,1.55976,1.56625,1.57079,1.57114,1.57472,1.57568,1.5778,1.59303,1.59248,1.59397,1.59952,1.60408,1.60156,1.6029,1.60989,1.61027,1.62327,1.61977,1.61909,1.61521,1.61295,1.61686,1.67632,1.63001,1.64137,1.63725,1.64855,1.65092,1.691,1.65719,1.69721,1.78607,1.7909,1.69775
0.613608,0.617262,0.621241,0.623076,0.622805,0.62501,0.626343,0.626903,0.63592,0.636177,0.638404,0.645684,0.647727,0.648649,0.648805,0.637591,0.639673,0.641792,0.640023,0.631124,0.632606,0.635129,0.634838,0.633696,0.642194,0.642471,0.644481,0.646674,0.645868,0.652303,0.655002,0.656617,0.657684,0.656475,0.663404,0.661898,0.662218,0.666555,0.667488,0.667572,0.670146,0.673196,0.685947,0.688603,0.691007,0.693662,0.695892,0.696159,0.695421,0.692489,0.704159,0.707309,0.711727,0.715591,0.718552,0.721279,0.725797,0.726885,0.731591,0.731998,0.735969,0.736633,0.737402,0.738606,0.750995,0.752497,0.754223,0.756361,0.756044,0.760164,0.759765,0.760951,0.759954,0.780365,0.780858,0.783152,0.785175,0.787473,0.788858,0.793744,0.793833,0.789177,0.816377,0.816203,0.823326,0.825745,0.827854,0.830755,0.813812,0.814028,0.810822,0.82222,0.807233,0.809004,0.808931,0.811264,0.826992,0.822947,0.828942,0.830063,0.815416,0.807714,0.808791,0.806503,0.760171,0.793279,0.794769,0.769439,0.744837,0.744806,0.750918,0.769968,0.7807,0.773186,0.81806,0.818215,0.842357,0.85914,0.853557,0.841886,0.872861,0.871385,0.860773,0.860779,0.886851,0.890861,0.921793,0.916154,0.929945,0.929947,0.925593,1.00217,0.974533,0.975207,0.999684,1.02197,1.08473,1.1219,1.12274,1.0917,1.08126,1.08392,1.10512,1.08077,1.08582,1.09619,1.09905,1.11227,1.1052,1.12671,1.11852,1.12538,1.14092,1.12788,1.12881,1.16444,1.24395,1.25431,1.23404,1.1698,1.17731,1.14317,1.14738,1.15036,1.1989,1.1838,1.17816,1.18365,1.18325,1.18399,1.20233,1.23621,1.24677,1.29573,1.29795,1.22317,1.19644,1.18621,1.17032,1.18553,1.17925,1.18153,1.17833,1.17808,1.18051,1.17994,1.1761,1.18499,1.18623,1.19591,1.15315,1.16847,1.16785,1.17112,1.20702,1.24179,1.24243,1.24387,1.28499,1.24022,1.26436,1.26897,1.26108,1.27239,1.27363,1.2738,1.2759,1.27527,1.28444,1.26749,1.28958,1.29257,1.29213,1.30455,1.36297,1.36814,1.33919,1.33959,1.34292,1.52107,1.51687,0.00352683,1.36862,1.38288,1.39106,1.38809,1.39521,1.39471,1.4051,1.40769,1.41052,1.4181,1.42042,1.58643,1.42679,1.42595,1.42968,1.43391,1.46674,1.47864,1.4533,1.45148,1.45236,1.45568,1.53584,1.4996,1.47478,0.00395334,1.57735,0.00314877,1.50294,1.49555,1.5252,1.52941,1.50571,1.50839,1.50909,1.51655,1.51262,1.51151,1.51272,1.51373,1.53408,1.54625,1.5483,1.57111,1.55995,1.56589,1.56508,1.56818,1.56758,1.56793,1.5694,1.56996,1.58313,1.59027,1.59076,1.59559,1.59882,1.60068,1.60531,1.60578,1.60788,1.61314,1.61807,1.61978,1.61312,1.65601,1.66947,1.67173,1.63938,1.64051,1.63964,1.64321,1.64737,1.64798,1.64354,0.00373856,1.66175,1.69642
0.604615,0.605454,0.604421,0.599829,0.599305,0.608628,0.61001,0.623145,0.613547,0.879193,0.61802,0.00369809,0.638894,0.641538,0.632734,0.634731,0.634425,0.634781,0.6301,0.631448,0.631162,0.632358,0.632418,0.631736,0.634583,0.641681,0.641949,0.643356,0.642832,0.642978,0.645643,0.646249,0.647183,0.648932,0.655719,0.657554,0.657905,0.661125,0.662587,0.664351,0.668168,0.667234,0.660697,0.682947,0.693768,0.69556,0.695068,0.695338,0.694478,0.699292,0.701278,0.702608,0.705822,0.700848,0.71852,0.718563,0.715096,0.717693,0.712353,0.724974,0.72966,0.730678,0.731925,0.738694,0.740229,0.739934,0.749668,0.750953,0.753009,0.753979,0.756267,0.766731,0.765725,0.773927,0.780319,0.784662,0.787236,0.789522,0.792567,0.794182,0.795769,0.809153,0.810948,0.813299,0.815615,0.815451,0.808783,0.790357,0.81028,0.808295,0.810626,0.80974,0.84601,0.845458,0.847453,0.816527,0.817882,0.809055,0.872413,0.875761,0.814157,0.804225,0.805145,0.760056,0.7581,0.760474,0.750853,0.753007,0.745486,0.748869,0.737416,0.755538,0.757245,0.781782,0.767208,0.767958,0.769448,0.76959,0.839297,0.863105,0.837224,0.849448,0.874237,0.886809,0.912052,0.904807,0.926089,0.92249,0.924097,0.949615,0.977547,0.991226,0.992152,0.993933,1.01723,1.04301,1.08129,1.11577,1.12751,1.10247,1.09906,1.10912,1.10113,1.09768,1.0995,1.11638,1.12263,1.12731,1.14033,1.12714,1.12799,1.13019,1.13775,1.13702,1.20726,1.20736,1.23227,1.22017,1.188,1.2313,1.16744,1.19486,1.15739,1.16294,1.16122,1.18994,1.19165,1.17094,1.20828,1.20841,1.21327,1.21045,1.21738,1.21299,1.22548,1.18146,1.18359,1.18797,1.1857,1.17519,1.19482,1.19558,1.18496,1.18218,1.16885,1.17006,1.181,1.16721,1.1773,1.14943,1.16045,1.15344,1.15683,1.17073,1.21577,1.22268,1.22787,1.24792,1.24499,1.26055,1.25903,1.28044,1.26445,1.26218,1.26486,1.28876,1.27073,1.26054,1.25702,1.26934,1.33097,1.28298,1.29002,1.29891,1.28497,1.28288,1.28434,1.36879,1.37012,1.34965,1.35022,1.35396,1.36093,1.36839,1.38347,1.38417,1.38702,1.39303,1.39777,1.39963,1.40255,1.41576,1.4165,1.41508,1.41622,1.42004,1.42284,1.4231,1.43041,1.43861,1.43464,1.44344,1.44554,1.4515,1.45212,1.4528,1.48346,1.46463,1.47171,1.5077,1.48488,1.48523,0.00413342,1.52156,1.50334,1.50331,1.50313,1.51222,1.51373,1.51253,1.51436,1.51108,1.5168,1.55612,1.54426,1.54324,1.5658,1.55513,1.56159,1.57097,1.56698,1.57268,1.57172,1.57209,1.57632,1.60666,1.58832,1.58588,1.60993,1.59556,1.60078,1.59895,1.60617,1.62032,1.63387,1.62113,1.62069,1.62782,1.62833,1.63929,1.63755,1.63491,1.64191,1.64073,1.6404,1.6388,1.63871,1.65167,1.65526,1.67768
0.60266,0.594657,0.595624,0.60013,0.595919,0.601485,0.603269,0.58852,0.604099,0.597385,0.596251,0.596023,0.607526,0.621353,0.624773,0.625737,0.627565,0.628846,0.629778,0.630572,0.630944,0.625503,0.633419,0.632681,0.633957,0.630899,0.629831,0.63342,0.635726,0.635721,0.642496,0.643785,0.64427,0.647669,0.648547,0.651841,0.652269,0.65686,0.659766,0.659323,0.661161,0.662098,0.65853,0.659115,0.661506,0.688057,0.682168,0.683589,0.683547,0.690364,0.692535,0.694339,0.69719,0.700537,0.701022,0.707192,0.709559,0.709769,0.713162,0.71408,0.715377,0.723965,0.732738,0.736019,0.736155,0.738898,0.747732,0.750578,0.75308,0.762766,0.764347,0.766038,0.765666,0.764931,0.779863,0.781446,0.782921,0.78853,0.789836,0.789864,0.787741,0.789402,0.788576,0.808816,0.80235,0.807057,0.806951,0.835806,0.838155,0.838028,0.819598,0.821028,0.837234,0.827445,0.828452,0.853729,0.853066,0.780831,0.794678,0.854015,0.759012,0.756482,0.754193,0.758914,0.780321,0.659834,0.669928,0.634651,0.634911,0.63569,0.680838,0.669604,0.710496,0.712645,0.732929,0.726769,0.709955,0.715731,0.731048,0.853963,0.848699,0.840289,0.842345,0.850403,0.894301,0.90852,0.944043,0.940063,0.998746,1.00213,0.999157,0.997968,1.02773,1.0666,1.05665,1.0714,1.09861,1.10497,1.11858,1.13875,1.10944,1.12409,1.12932,1.11982,1.16189,1.18133,1.15665,1.15696,1.1841,1.17378,1.1708,1.17472,1.16626,1.19114,1.13944,1.13832,1.13906,1.13777,1.19891,1.19819,1.19423,1.18916,1.17513,1.17196,1.20259,1.20514,1.20721,1.22342,1.19887,1.20119,1.21922,1.20546,1.20517,1.2099,1.21262,1.21412,1.22403,1.22568,1.21616,1.2274,1.22894,1.20202,1.20421,1.32917,1.33057,1.33266,1.3332,1.1652,1.17139,1.18599,1.18231,1.18477,1.20381,1.2156,1.21954,1.22005,1.22411,1.22489,1.26513,1.25057,1.25778,1.25797,1.26588,1.27117,1.27198,1.24938,1.25091,1.27609,1.28571,1.31705,1.28871,1.28688,1.29543,1.28425,1.28513,1.31287,1.29577,1.29555,1.34785,1.37337,1.37556,1.33949,1.40498,1.40466,0.00410019,0.00379081,1.3835,1.38553,1.39831,1.39732,1.40015,1.41294,1.4146,1.41582,1.4149,1.41539,1.42289,1.42257,1.42533,1.42863,1.43717,1.43495,1.47343,1.44871,1.44849,1.45096,1.45117,1.45753,1.46459,1.47229,1.48148,1.48378,1.48808,1.48876,1.49711,1.50671,1.5054,1.51269,1.51211,1.51574,1.51488,1.51352,1.56695,0.00354781,1.54132,1.53912,1.64444,1.55237,1.57245,1.56197,1.55958,1.56646,1.57259,1.57191,1.56595,1.56359,1.59988,1.57477,1.59748,1.58281,1.58159,0.00369573,1.598,1.59493,1.61,1.60593,1.61355,1.61637,1.61796,1.62358,1.62422,1.63847,1.63859,1.63459,1.6345,1.63013,1.63759,1.64308,1.65209,1.66559
0.59307,0.590705,0.594017,0.596803,0.598065,0.597802,0.588668,0.589057,0.58789,0.589719,0.587372,0.593536,0.592497,0.604589,0.603324,0.606012,0.606682,0.607648,0.621495,0.610827,0.609655,0.610506,0.623851,0.628887,0.632504,0.63304,0.634549,0.63518,0.637939,0.639725,0.63886,0.6397,0.643374,0.643116,0.647677,0.650145,0.652077,0.656138,0.657373,0.660137,0.661844,0.65725,0.657873,0.658107,0.65278,0.674716,0.676654,0.680726,0.680045,0.691872,0.693185,0.694536,0.694752,0.695328,0.696939,0.698574,0.698031,0.700406,0.702238,0.715664,0.720577,0.720123,0.726899,0.731357,0.739813,0.74396,0.748744,0.753621,0.756729,0.757061,0.766658,0.766641,0.76841,0.76842,0.775603,0.782118,0.786355,0.7874,0.789626,0.79093,0.789079,0.791687,0.797344,0.822426,0.823504,0.792861,0.792727,0.785385,0.784854,0.815171,0.814528,0.833822,0.835005,0.836946,0.766848,0.770728,0.77008,0.776576,0.771664,0.776346,0.749015,0.740412,0.742019,0.643913,0.643425,0.646221,0.635489,0.634993,0.635374,0.614451,0.615167,0.659974,0.660654,0.71893,0.707751,0.718015,0.721241,0.722101,0.708377,0.731574,0.73294,0.847783,0.849887,0.851591,0.874125,0.874027,0.989058,0.962777,0.989562,1.00787,1.03929,1.04262,1.04007,1.04099,1.08858,1.0785,1.10327,1.13365,1.14939,1.14538,1.15611,1.15553,1.16358,1.18596,1.1952,1.19824,1.17718,1.17799,1.18855,1.21185,1.18805,1.19146,1.19477,1.20468,1.20027,1.18234,1.18127,1.19595,1.18632,1.18824,1.18762,1.17812,1.18551,1.2172,1.21085,1.20703,1.2084,1.21014,1.20474,1.20723,1.21911,1.20128,1.21222,1.20767,1.21153,1.21969,1.24051,1.24116,1.2466,1.2286,1.21308,1.2131,1.21334,1.21173,1.21124,1.20818,1.19026,1.19784,1.18631,1.2024,1.20014,1.1998,1.21965,1.20437,1.22104,1.22218,1.22711,1.22831,1.24498,1.27023,1.25617,1.27519,1.26233,1.27172,1.26717,1.24691,1.24727,1.24477,1.25034,1.25372,1.26896,1.29317,1.29767,1.29934,1.30626,1.27875,1.27864,1.30533,1.33339,1.29,1.29285,1.40128,1.40176,1.40207,1.3547,1.40492,1.37906,1.37945,0.00347397,1.41583,1.40737,1.4066,1.4113,1.41176,1.41394,1.41498,1.42248,1.42134,1.4255,1.43014,1.43416,1.43819,1.44286,1.47836,1.47807,1.48926,1.4592,1.46099,1.46145,1.46409,1.59691,1.51774,1.50521,1.49574,1.49592,1.50488,1.50512,1.50661,1.51227,1.51566,1.51395,1.51287,1.51237,1.52053,1.52816,1.5364,0.00347207,1.54804,1.55002,1.54909,1.55379,1.55773,1.5856,1.56268,1.56446,1.57062,1.57164,1.57132,1.57261,1.56858,1.58167,1.58053,1.60385,1.59561,1.60642,1.60176,1.61007,1.62048,1.62731,1.76099,1.62662,1.63029,1.62867,1.63404,1.63805,1.63537,1.63893,1.64288,1.64592,1.64617
0.582404,0.581759,0.580678,0.586142,0.58664,0.589313,0.588179,0.587926,0.590261,0.591878,0.588767,0.591712,0.591634,0.593028,0.586667,0.600622,0.601038,0.601782,0.598893,0.611987,0.61466,0.615055,0.624128,0.622936,0.624132,0.627163,0.628474,0.625337,0.628634,0.628441,0.629979,0.640238,0.641315,0.642229,0.642305,0.643032,0.647697,0.65531,0.650642,0.655969,0.657804,0.659212,0.662231,0.662827,0.674179,0.676843,0.679304,0.682644,0.682626,0.68838,0.693318,0.694064,0.693984,0.69794,0.694915,0.701318,0.703451,0.704592,0.711891,0.715694,0.719336,0.721263,0.722045,0.721585,0.736746,0.740552,0.748726,0.750005,0.759094,0.760535,0.767556,0.77064,0.773695,0.7831,0.783532,0.784116,0.780748,0.781621,0.785538,0.789806,0.790722,0.786001,0.812735,0.813409,0.82122,0.821769,0.782102,0.782967,0.783341,0.799007,0.800781,0.802499,0.784437,0.776803,0.768123,0.783295,0.785331,0.738462,0.711058,0.710421,0.677855,0.678522,0.665177,0.636283,0.605787,0.607432,0.609356,0.602595,0.609568,0.605295,0.615601,0.628271,0.698125,0.697739,0.985304,0.985358,0.985539,0.711118,0.71215,0.785732,0.767944,0.836562,0.864303,0.864871,0.88804,0.901821,0.991581,1.00595,1.00549,1.05028,1.05379,1.05351,1.05009,1.04433,1.08874,1.10932,1.11888,1.13242,1.13155,1.17811,1.17809,1.18114,1.18925,1.21752,1.20656,1.2318,1.23352,1.25092,1.25313,1.23661,1.198,1.19605,1.20778,1.20545,1.21308,1.22513,1.23011,1.23366,1.22219,1.23074,1.28017,1.21502,1.22631,1.25126,1.25099,1.24579,1.23672,1.2366,1.22777,1.23018,1.23253,1.22882,1.22709,1.231,1.25101,1.24462,1.25765,1.23397,1.24113,1.25192,1.2528,1.23412,1.23847,1.24069,1.22471,1.23777,1.23623,1.32561,1.22271,1.20858,1.22401,1.21354,1.22872,1.25091,1.23099,1.23192,1.24654,1.2499,1.24995,1.24971,1.2736,1.28618,1.26458,1.24778,1.2561,1.23302,1.23378,1.22765,1.24374,1.24108,1.24379,1.26092,1.26233,1.26436,1.29371,1.28992,1.29926,1.29577,1.3052,1.30554,1.31513,1.35677,1.35756,1.35878,1.40227,1.35407,1.35441,1.38186,1.38269,1.39862,1.39739,1.405,1.40445,1.412,1.41198,1.41695,1.42053,1.4266,1.42586,1.43112,1.43412,1.44002,1.44658,1.44718,1.45146,1.45563,1.45552,1.45905,1.45988,1.46122,1.46483,0.00381634,1.59082,1.48717,1.48813,1.49797,1.49708,1.5063,1.50457,1.50704,1.5064,1.50603,1.50902,1.50981,1.50991,1.55038,1.52837,1.53505,1.54726,1.5433,1.54477,1.54796,1.54961,1.55156,1.56128,1.56029,1.56103,1.56701,1.56601,1.572,1.57517,1.5766,1.59588,1.59244,1.59259,1.59745,1.60018,1.60616,1.61009,1.60966,1.61598,1.61967,1.62669,1.63553,1.63489,1.63599,1.63677,1.64439,1.64585,1.64323
0.568994,0.569427,0.567877,0.567624,0.56761,0.573769,0.574949,0.576329,0.577159,0.589959,0.589241,0.590113,0.590438,0.593599,0.588891,0.588171,0.595319,0.594788,0.599987,0.599805,0.603236,0.610382,0.610976,0.619705,0.62097,0.625017,0.623516,0.628122,0.629044,0.63075,0.631544,0.63153,0.633446,0.638403,0.639725,0.640827,0.644881,0.650788,0.653213,0.656392,0.657513,0.659291,0.660566,0.675594,0.674866,0.674705,0.67881,0.678998,0.688283,0.689702,0.689538,0.692036,0.694973,0.694151,0.69392,0.707351,0.710344,0.711908,0.713718,0.719201,0.722044,0.721696,0.727537,0.728749,0.738999,0.742555,0.742586,0.753384,0.758128,0.76638,0.768991,0.776007,0.777303,0.780289,0.779465,0.777517,0.780428,0.784998,0.7844,0.786321,0.803506,0.781201,0.799386,0.771284,0.771195,0.774565,0.762561,0.762671,0.762762,0.766546,0.766725,0.756685,0.775023,0.781677,0.780009,0.731225,0.729017,0.683759,0.685627,0.686072,0.680024,0.662715,0.649826,0.61378,0.61566,0.61473,0.605832,0.606554,0.606441,0.602386,0.611957,0.62834,0.670419,0.690612,0.977776,0.979291,0.979481,0.801115,0.803504,0.801955,0.801248,0.811909,0.813,0.905415,0.906563,0.971437,0.980425,0.980339,1.02903,1.02196,1.04316,1.06679,1.05672,1.08536,1.09265,1.1262,1.13672,1.1585,1.16155,1.22213,1.22191,1.21333,1.22629,1.21517,1.20952,1.23459,1.24021,1.2323,1.22952,1.23037,1.22285,1.23511,1.2345,1.257,1.24931,1.24598,1.24584,1.25135,1.24371,1.27399,1.25785,1.25996,1.25053,1.25539,1.30477,1.29763,1.30504,1.25151,1.25448,1.25744,1.26292,1.26276,1.26763,1.24713,1.2602,1.23006,1.25407,1.25791,1.25485,1.28939,1.25339,1.24687,1.25014,1.24816,1.25403,1.23735,1.2397,1.23428,1.24704,1.23983,1.24324,1.2371,1.22077,1.24376,1.25076,1.25243,1.25311,1.28256,1.25479,1.26795,1.24326,1.24358,1.26407,1.25809,1.23788,1.23023,1.22315,1.22145,1.25749,1.26521,1.26669,1.24188,1.25074,1.29367,1.30997,1.30597,1.29485,1.28718,1.29653,1.28864,1.29103,1.27908,1.27335,1.27417,1.28416,1.35647,1.35422,1.34765,1.39866,1.39368,1.39476,1.3963,1.40213,1.40856,1.5316,1.5949,1.44645,1.42103,1.4261,1.42913,1.42962,1.43675,1.44055,1.44776,1.44875,1.44674,1.455,1.45481,1.45641,1.45758,1.46392,1.4638,1.49193,1.49184,0.00388952,1.51432,0.0037102,1.51028,1.50968,1.51178,1.51099,1.51492,1.50646,1.49939,1.5016,1.50399,1.55786,1.55753,1.5333,1.54696,1.54629,1.54448,1.54953,1.54873,1.55572,1.55656,1.55815,1.55853,1.56497,1.57607,1.57457,1.57505,1.58143,1.58954,1.58921,1.59269,1.59213,1.5996,1.6053,1.60595,1.60998,1.60816,1.61954,1.61696,1.62248,1.63199,1.6249,1.63895,1.64408,1.64193
0.557454,0.558608,0.560129,0.562759,0.56905,0.568373,0.576249,0.577363,0.577087,0.578042,0.588807,0.589687,0.589489,0.588454,0.587439,0.588272,0.593563,0.594651,0.595566,0.597218,0.597112,0.596607,0.607012,0.60732,0.609147,0.601622,0.622269,0.624118,0.623616,0.624864,0.622313,0.626456,0.628712,0.630822,0.636478,0.636847,0.64,0.644736,0.64594,0.647033,0.646234,0.659529,0.669782,0.670482,0.673128,0.680113,0.67709,0.676357,0.684127,0.685892,0.685189,0.686499,0.689005,0.690557,0.694508,0.706944,0.710896,0.71284,0.715923,0.720715,0.723064,0.72394,0.726318,0.740847,0.743674,0.743028,0.753353,0.757365,0.759407,0.770215,0.774247,0.774537,0.776122,0.775585,0.778507,0.778549,0.798993,0.800282,0.800262,0.772208,0.747999,0.748971,0.756504,0.825241,0.74056,0.740759,0.742919,0.746011,0.757192,0.771085,0.773075,0.790407,0.789555,0.786515,0.775291,0.739133,0.722837,0.690398,0.689839,0.698226,0.698824,0.690737,0.63181,0.632238,0.61389,0.612393,0.606028,0.6106,0.611068,0.623143,0.627269,0.627844,0.637539,0.69068,0.686608,0.974555,0.975511,0.977888,0.767954,0.797614,0.782993,0.860434,0.85818,0.970004,0.970996,0.984808,0.983897,0.999212,1.01106,1.05754,1.04093,1.0418,1.08967,1.11151,1.14042,1.14998,1.16184,1.17609,1.19644,1.20125,1.19969,1.21064,1.22978,1.22693,1.23303,1.21685,1.23135,1.23297,1.24707,1.25323,1.22931,1.25407,1.23301,1.25023,1.25485,1.25479,1.26441,1.28101,1.3443,1.3468,1.28262,1.29861,1.27445,1.30521,1.29929,1.25721,1.25702,1.25651,1.25171,1.26124,1.28066,1.27401,1.28214,1.27247,1.26885,1.2674,1.26739,1.27845,1.27147,1.26525,1.26163,1.27094,1.25259,1.25417,1.26216,1.26173,1.2545,1.25139,1.24453,1.24248,1.23235,1.24645,1.23602,1.23758,1.23479,1.24334,1.28769,1.34856,1.28661,1.28226,1.23488,1.2368,1.23538,1.23406,1.22817,1.22896,1.21771,1.23957,1.25138,1.25453,1.28233,1.2884,1.23641,1.24804,1.25068,1.26409,1.26666,1.28457,1.29851,1.31315,1.29148,1.30214,1.28378,1.29826,1.28768,1.32728,1.33309,1.33372,1.42867,1.42681,1.41584,1.39472,1.39752,1.40158,1.40524,1.40985,1.41939,1.41974,1.42062,1.42443,1.42493,1.4287,1.42864,1.43024,1.4348,1.44296,1.44464,1.44406,1.44901,1.45149,1.45748,1.45492,1.49945,1.46961,1.46931,0.00331156,1.50315,1.48147,1.52335,0.00347509,1.51017,1.50756,1.50576,1.50191,1.50003,1.54547,1.54838,1.54384,1.53001,1.55236,1.54416,1.55129,1.55008,1.54776,1.55438,1.55525,1.55737,1.55777,1.56366,1.56567,1.67216,1.58133,1.5814,1.58786,1.58722,1.58569,1.59189,1.59867,1.60179,1.59911,1.6059,1.60701,1.60856,1.60976,1.61306,1.61875,1.63105,1.62957,1.63758,1.63701
0.558989,0.556862,0.558984,0.559272,0.562571,0.559668,0.561882,0.563446,0.564652,0.570508,0.56641,0.569828,0.57773,0.582803,0.584054,0.583928,0.590441,0.591054,0.590282,0.5931,0.591844,0.594261,0.597565,0.600542,0.601218,0.603309,0.602857,0.60525,0.606454,0.618726,0.619534,0.620707,0.624384,0.62893,0.631342,0.632987,0.633315,0.634651,0.645459,0.645375,0.643862,0.645068,0.662846,0.676505,0.680229,0.680892,0.682484,0.683018,0.691616,0.695457,0.696615,0.697214,0.696842,0.700311,0.702093,0.69906,0.70796,0.711471,0.718665,0.723231,0.724392,0.729526,0.736647,0.740835,0.743592,0.748199,0.748812,0.749135,0.754448,0.770258,0.77095,0.770484,0.766752,0.770476,0.766619,0.766672,0.769292,0.784613,0.785554,0.76005,0.760516,0.746409,0.728961,0.731448,0.732533,0.740219,0.741701,0.754385,0.757625,0.771147,0.772733,0.773766,0.763429,0.75613,0.753935,0.724307,0.705745,0.720921,0.722382,0.712295,0.666767,0.66958,0.630208,0.62932,0.62908,0.631406,0.626818,0.627912,0.628225,0.630047,0.625957,0.636237,0.637601,0.644607,0.701017,0.69167,0.767124,0.766211,0.759548,0.777961,0.834494,0.83528,1.01542,0.971811,0.996044,0.991116,0.992047,1.00752,1.0233,1.08282,1.08689,1.07481,1.10665,1.11707,1.17171,1.18061,1.18332,1.17686,1.18766,1.21137,1.17594,1.22271,1.22308,1.25743,1.27506,1.21469,1.21469,1.29282,1.29448,1.27506,1.31048,1.26521,1.26555,1.28244,1.26878,1.27428,1.28095,1.2824,1.2892,1.29215,1.30163,1.30528,1.30672,1.27222,1.28362,1.27039,1.2648,1.26808,1.28112,1.27887,1.28292,1.3028,1.27721,1.27925,1.28453,1.28401,1.27252,1.278,1.28697,1.27516,1.2742,1.28247,1.28002,1.28699,1.28889,1.24939,1.27531,1.28155,1.26458,1.26493,1.27878,1.23807,1.25438,1.24123,1.25019,1.23538,1.23381,1.29546,1.25034,1.23496,1.22575,1.23628,1.23859,1.20832,1.22654,1.22646,1.21618,1.23786,1.24737,1.25179,1.25323,1.23704,1.23905,1.22967,1.22973,1.23624,1.25762,1.28766,1.28802,1.28779,1.2871,1.28581,1.275,1.30343,1.2882,1.3127,1.32228,1.34674,1.34803,1.35187,1.40168,1.40333,1.39038,1.39217,1.4056,1.40314,1.41139,1.4134,1.41639,1.42304,1.42216,1.42427,1.42773,1.42939,1.43061,1.43257,1.43436,1.4379,1.44412,1.44425,1.44481,1.45198,1.49002,1.46148,1.46066,1.46377,1.47074,1.47214,1.51995,1.67744,1.50261,1.50024,1.49676,1.49937,1.49831,1.49971,1.50487,1.50563,1.52022,1.52198,1.53404,1.5391,1.54681,1.54461,1.5449,1.55128,1.55839,1.55926,1.55884,1.56149,1.57519,1.57809,1.57696,1.59166,1.58829,1.5889,1.59164,1.58985,1.59594,1.59442,1.59357,1.6075,1.60558,1.60608,1.61439,1.61309,1.61825,1.63275,1.63005,1.63429
0.549865,0.549912,0.549001,0.552348,0.554269,0.558124,0.557811,0.56147,0.563244,0.563709,0.564189,0.563978,0.563029,0.569039,0.569482,0.569756,0.569902,0.582064,0.584712,0.580774,0.589709,0.592583,0.597268,0.598486,0.600077,0.603644,0.605272,0.606173,0.606852,0.606469,0.605706,0.605723,0.618079,0.608806,0.625863,0.626485,0.628848,0.628908,0.635167,0.637655,0.642096,0.646149,0.648204,0.649786,0.00368216,0.669269,0.679589,0.690909,0.694,0.695817,0.697068,0.69808,0.700075,0.701463,0.704637,0.704938,0.707187,0.712317,0.713182,0.717246,0.72792,0.725067,0.725248,0.742881,0.749677,0.744126,0.747919,0.749288,0.746219,1.25818,0.744406,0.750567,0.750404,0.0037979,0.00381602,0.742176,0.74115,0.74187,0.742548,0.747941,0.748348,0.728102,0.728559,0.728647,0.762449,0.735404,0.764966,0.761028,0.822195,0.730335,0.739805,0.736475,0.734982,0.744386,0.745039,0.719949,0.69688,0.676731,0.679826,0.691089,0.680489,0.670303,0.663686,0.67982,0.652845,0.642734,0.631489,0.626471,0.629465,0.630149,0.654837,0.646424,0.649883,0.683976,0.729364,0.723223,0.717232,0.717748,0.832966,0.839104,0.941202,0.941934,0.985483,0.986779,1.0078,1.02676,1.03057,1.07808,1.09135,1.07596,1.09546,1.09954,1.10591,1.13901,1.1461,1.16038,1.16698,1.21111,1.21097,1.17795,1.17826,1.18968,1.2837,1.28543,1.28691,1.28956,1.2362,1.27113,1.27736,1.25099,1.25469,1.27893,1.27714,1.28914,1.28908,1.28513,1.2967,1.28957,1.29357,1.29607,1.32743,1.33015,1.29378,1.29573,1.29465,1.30664,1.29989,1.30165,1.30456,1.30262,1.2791,1.2782,1.292,1.27983,1.27874,1.28485,1.28665,1.26941,1.28029,1.27905,1.3295,1.27444,1.28768,1.28836,1.287,1.28473,1.26771,1.2708,1.27196,1.25904,1.25842,1.26536,1.28006,1.26055,1.26101,1.25736,1.25652,1.26142,1.25244,1.25102,1.22593,1.22591,1.22272,1.22029,1.19856,1.22557,1.20787,1.22759,1.31749,1.31926,1.25507,1.25864,1.2395,1.24309,1.21821,1.23019,1.22294,1.25116,1.32342,1.29036,1.27161,1.27303,1.2583,1.26035,1.28555,1.2708,1.27099,1.34145,1.38491,1.39939,1.36424,1.36421,1.36813,1.41535,1.39368,1.39657,1.40362,1.41306,1.41582,1.4179,1.41945,1.42274,1.42065,1.42447,1.51446,1.46143,1.46232,1.43551,1.43862,1.4412,1.44433,1.44486,1.45367,1.45681,1.46012,1.46475,1.46611,1.47347,1.47526,1.51149,1.52808,1.49608,1.49521,1.5016,1.50154,1.49895,1.50196,1.50597,1.55091,1.52047,1.52395,1.53368,1.56217,1.54205,1.5431,1.54653,1.54783,1.55897,1.55403,1.58884,1.619,1.57677,1.57934,1.5855,1.58394,1.58823,1.5888,1.58821,1.58755,1.59011,1.59502,1.5959,1.59874,1.60411,1.60573,1.61545,1.61599,1.63067,1.62934,1.62944
0.54499,0.542821,0.543064,0.538362,0.538305,0.540426,0.539652,0.542363,0.545777,0.547106,0.557117,0.560192,0.555219,0.556368,0.556893,0.565357,0.563787,0.563682,0.574639,0.574671,0.57523,0.589503,0.593145,0.595366,0.597521,0.604464,0.606955,0.607586,0.607972,0.611573,0.610157,0.609533,0.609787,0.609553,0.610326,0.615369,0.616496,0.622302,0.631816,0.63347,0.641215,0.646502,0.647469,0.651294,0.665353,0.667692,0.668968,0.680685,0.00385212,0.686612,0.677749,0.697239,0.69857,0.894361,0.00386663,0.700539,0.699595,0.704242,0.710997,0.00368473,0.723311,0.724691,0.723719,0.72604,0.726385,0.726332,0.727628,0.722217,0.719391,0.729357,0.736631,0.722957,0.724362,0.725769,0.725732,0.738668,0.742136,0.741332,0.74207,0.727637,0.722628,0.754073,0.760719,0.76254,0.763105,0.764004,0.74225,0.713916,0.712249,0.711573,0.705579,0.711237,0.710646,0.731666,0.730761,0.706261,0.708358,0.711185,0.745302,0.667941,0.670757,0.664289,0.659877,0.652782,0.65284,0.663262,0.64628,0.62481,0.736408,0.740592,0.784537,0.786147,0.804221,0.766985,0.712492,0.718551,0.733838,0.760372,0.833276,0.839829,0.944311,0.961088,0.973917,0.990793,1.01155,1.02257,1.04017,1.06941,1.098,1.1088,1.12943,1.14613,1.14759,1.14814,1.14927,1.18508,1.169,1.17078,1.19196,1.19468,1.19523,1.21558,1.20183,1.21407,1.20974,1.23289,1.26358,1.26604,1.26942,1.28579,1.29636,1.31249,1.32671,1.32945,1.31623,1.31145,1.34075,1.34347,1.3412,1.32974,1.33277,1.37449,1.33401,1.35445,1.3289,1.33727,1.32311,1.31653,1.31479,1.29882,1.29922,1.31256,1.29997,1.28351,1.28468,1.2973,1.31426,1.31534,1.30217,1.31659,1.29319,1.29512,1.3178,1.28946,1.27872,1.28425,1.28932,1.28334,1.28449,1.28885,1.26817,1.27568,1.27499,1.2755,1.27304,1.27877,1.28581,1.29173,1.29507,1.25197,1.25079,1.24402,1.24917,1.26534,1.21125,1.21118,1.2142,1.21029,1.2097,1.24366,1.24449,1.2344,1.23801,1.20935,1.2195,1.20289,1.20527,1.23303,1.23111,1.24925,1.24939,1.26808,1.2708,1.25055,1.26979,1.2726,1.27638,1.28471,1.26317,1.27101,1.26905,1.26732,1.37278,1.37446,1.30504,1.40893,1.40079,1.40144,1.40703,1.41342,1.41338,1.41422,1.41806,1.41984,1.53616,1.43422,1.43509,1.43763,1.43708,1.44057,1.44273,1.44264,1.4483,1.45268,1.45343,1.46442,1.46655,1.46798,1.47174,1.47735,1.47827,1.4814,1.53136,1.50215,1.50346,1.49906,1.50052,1.5003,1.50537,1.5052,1.51055,1.53031,1.52991,1.53029,1.535,1.54013,1.53922,1.54542,1.57749,1.57896,1.57671,1.57094,1.56862,1.5694,1.57586,1.59177,1.58275,1.58164,1.57992,1.58521,1.59207,1.59125,1.59512,1.59651,1.60239,1.60891,1.61347,1.6126,1.61882,1.6245
0.539203,0.540488,0.540014,0.539498,0.541099,0.538547,0.539246,0.544044,0.543244,0.545229,0.553279,0.554914,0.552133,0.556889,0.558547,0.559012,0.562345,0.566472,0.573115,0.575426,0.576109,0.578906,0.579508,0.585901,0.586913,0.588376,0.607233,0.609844,0.611346,0.612141,0.614814,0.617778,0.615205,0.614634,0.615273,0.618939,0.620254,0.622236,0.623055,0.62557,0.632729,0.632811,0.632702,0.650928,0.653137,0.652197,0.652229,0.660364,0.668909,0.675524,0.675784,0.676222,0.66842,0.672327,1.1517,0.00362497,1.15702,1.16109,1.16399,0.00354567,0.699672,1.16143,0.00348258,0.711646,0.00373528,0.719753,0.720895,0.721822,0.721258,0.722734,0.721345,0.721329,0.722456,0.728143,0.718043,0.728727,0.72554,0.726403,0.7151,0.716482,0.716536,0.736855,0.74152,0.742089,0.715117,0.75241,0.760515,0.739384,0.707252,0.702349,0.708709,0.725731,0.726097,0.730588,0.756172,0.760196,0.688306,0.663387,0.665676,0.69479,0.696431,0.646261,0.648452,0.659163,0.674373,0.690517,0.741487,0.74141,0.740866,0.740615,0.69764,0.72962,0.704741,0.711125,0.696931,0.698016,0.767822,0.738548,0.802159,0.947997,0.945759,0.96545,1.04073,1.02461,1.02621,1.06015,1.06266,1.08489,1.11249,1.11495,1.18334,1.18546,1.16382,1.14247,1.1732,1.17746,1.18343,1.18467,1.23881,1.24052,1.21047,1.19155,1.22212,1.22858,1.2259,1.24969,1.27027,1.2809,1.28165,1.28516,1.28692,1.29233,1.3125,1.31986,1.30555,1.34954,1.34522,1.35356,1.36786,1.35865,1.34075,1.35847,1.36054,1.35488,1.36608,1.36775,1.35659,1.347,1.33741,1.34433,1.32233,1.33006,1.32345,1.32412,1.31395,1.32265,1.29179,1.29199,1.30857,1.27961,1.2804,1.3175,1.32055,1.28796,1.30003,1.28047,1.30198,1.30191,1.29653,1.27788,1.29612,1.28955,1.27853,1.27892,1.27478,1.2848,1.28945,1.25579,1.25514,1.25576,1.25971,1.24665,1.23194,1.21855,1.21445,1.22551,1.20536,1.20406,1.23606,1.22689,1.23001,1.23351,1.23772,1.20086,1.20234,1.2188,1.23018,1.24326,1.24702,1.24373,1.24055,1.24399,1.26272,1.26477,1.27099,1.23862,1.26176,1.26096,1.27874,1.28204,1.25849,1.25813,1.26007,1.30901,1.3913,1.39038,1.3942,1.40137,1.40385,1.41133,1.41058,1.41444,1.4156,1.42427,1.42711,1.42712,0.00381779,1.46443,1.44193,1.44687,1.44424,1.44527,1.45049,1.45044,1.45119,1.51068,1.46347,1.46951,1.47697,1.47557,1.47463,1.47464,1.4795,1.51258,1.5165,1.49651,1.50342,1.50411,1.50345,1.50296,1.50795,1.50818,1.50752,1.51695,1.54902,1.65021,1.64371,1.55588,1.5511,1.54972,1.55539,1.55476,1.55425,1.55622,1.56992,1.57213,1.57357,1.57005,1.5793,1.59591,1.58979,1.5875,1.59098,1.5914,1.59856,1.61577,1.61775,1.61462,1.62214,1.62294
0.541321,0.538933,0.539219,0.538559,0.539173,0.541816,0.540558,0.545286,0.545062,0.547757,0.549167,0.549694,0.551718,0.553732,0.559821,0.56156,0.563425,0.564854,0.565575,0.56844,0.57925,0.577446,0.581405,0.582541,0.583871,0.59432,0.597097,0.610967,0.61022,0.609742,0.614257,0.61339,0.614847,0.613172,0.617803,0.618458,0.61962,0.620038,0.624523,0.626937,0.630074,0.632388,0.635822,0.637561,0.637273,0.637038,0.637137,0.649913,0.647502,0.663103,0.662267,0.665778,0.665764,0.659536,0.661023,0.661311,0.664232,0.666816,0.66958,0.671706,0.672572,0.679828,0.00352086,0.00321779,0.00334692,0.70083,0.701141,1.15031,1.14316,0.00353931,0.688962,0.710348,0.717003,0.718856,0.719667,0.719532,0.717835,0.716056,0.716717,0.717691,0.7069,0.714448,0.742129,0.741755,0.714241,0.74381,0.704817,0.708933,0.707785,0.725115,0.737578,0.725285,0.716488,0.724399,0.749584,0.747338,0.720452,0.665257,0.666403,0.660645,0.673848,0.65439,0.654052,0.684532,0.686541,0.708105,0.719303,0.701755,0.678862,0.679937,0.727316,0.727639,0.708858,0.718527,0.701362,0.769925,0.779745,0.854047,0.853849,0.860514,0.939749,1.00296,1.02559,1.02121,1.08843,1.0721,1.11298,1.1092,1.14668,1.14771,1.13625,1.14967,1.15994,1.1574,1.24167,1.20484,1.18513,1.18881,1.22033,1.20881,1.25136,1.23581,1.23627,1.23143,1.23249,1.2731,1.27388,1.28535,1.30647,1.30826,1.30921,1.42925,1.39861,1.31278,1.3128,1.40632,1.33597,1.33382,1.34702,1.351,1.35165,1.37755,1.37714,1.3913,1.37556,1.38004,1.3928,1.38564,1.35801,1.36181,1.35068,1.34794,1.32724,1.33338,1.32152,1.32179,1.32875,1.33008,1.32819,1.29382,1.29559,1.32689,1.30633,1.30952,1.30361,1.30347,1.30934,1.29553,1.30051,1.31281,1.29924,1.28284,1.28642,1.28258,1.28386,1.26515,1.26302,1.26267,1.26682,1.26018,1.25766,1.2574,1.22508,1.22577,1.22238,1.21584,1.21794,1.24775,1.20887,1.22416,1.20843,1.1885,1.18671,1.21046,1.1899,1.19127,1.24364,1.25373,1.25795,1.22044,1.22204,1.25298,1.26382,1.26226,1.2781,1.27271,1.29166,1.27862,1.27986,1.24779,1.25319,1.25407,1.26555,1.42454,1.31779,1.38903,1.38914,1.51659,1.4052,1.40418,1.41288,1.41226,1.42038,1.42182,1.42451,1.42685,1.4284,1.42931,1.64921,1.5145,1.43868,1.43994,1.44119,1.44623,1.44148,1.45404,1.68711,1.45843,0.00343738,1.46682,1.47552,1.47502,1.48034,1.4819,1.48262,1.49183,1.48955,1.53066,1.50448,1.50686,1.50751,1.50707,1.51092,1.51018,1.5613,1.53323,1.53668,1.54582,1.55808,1.55398,1.55744,1.55755,1.55817,1.56,1.56029,1.57141,1.5687,1.56671,1.56847,1.57773,1.58431,1.59149,1.59638,1.59615,1.59433,1.5997,1.60201,1.61097,1.60271,1.61346
0.535825,0.539242,0.53922,0.538179,0.538914,0.540639,0.541017,0.542283,0.544767,0.544566,0.548266,0.550782,0.552179,0.556005,0.557028,0.562888,0.562309,0.56321,0.566333,0.566767,0.567426,0.581573,0.583808,0.583303,0.583445,0.586625,0.597908,0.60148,0.60466,0.607562,0.607976,0.609223,0.609817,0.611206,0.611978,0.613242,0.618164,0.61955,0.619702,0.624209,0.626194,0.629339,0.629957,0.63421,0.633217,0.634512,0.636442,0.637122,0.646198,0.646421,0.649783,0.653781,0.656666,0.655265,0.653515,0.660503,0.661876,0.662379,0.663226,0.6621,0.659928,0.671542,0.679653,0.676318,0.676515,0.690607,0.684812,0.685753,0.68652,0.68767,0.69291,0.695049,0.700598,0.698608,0.698531,0.70837,0.709965,0.712462,0.707441,0.704024,0.707887,0.707876,0.704861,0.686247,0.684596,0.678432,0.698824,0.699513,0.7009,0.715706,0.72256,0.722086,0.702807,0.718101,0.717951,0.655766,0.656186,0.657044,0.660842,0.660672,0.658654,0.679982,0.674444,0.698598,0.709968,0.708633,0.695992,0.682783,0.684015,0.697782,0.70068,0.701749,0.708958,0.738595,0.736819,0.737069,0.870054,0.877573,0.878657,0.878718,0.984664,0.98518,1.01197,1.06764,1.14244,1.1177,1.11854,1.13418,1.1346,1.13297,1.14696,1.14742,1.15291,1.15256,1.25746,1.18436,1.20306,1.20288,1.21448,1.22394,1.2289,1.23107,1.23605,1.25764,1.27049,1.27268,1.28527,1.30881,1.29511,1.29589,1.30506,1.30782,1.40312,1.40248,1.40915,1.40896,1.32407,1.32386,1.40865,1.41124,1.3637,1.40712,1.393,1.39628,1.38613,1.36783,1.36783,1.35472,1.35905,1.36562,1.36674,1.35224,1.36487,1.35656,1.35297,1.34435,1.34053,1.32887,1.33029,1.33627,1.32758,1.33,1.32739,1.30704,1.30552,1.31842,1.30648,1.31193,1.30483,1.30194,1.31119,1.31208,1.32622,1.26555,1.26763,1.29935,1.26416,1.26247,1.26124,1.26399,1.25964,1.27258,1.28252,1.28178,1.27131,1.26984,1.25691,1.2059,1.20608,1.19644,1.1786,1.17634,1.17905,1.20946,1.20888,1.22505,1.23107,1.23076,1.22492,1.23989,1.23452,1.23703,1.23978,1.26502,1.26606,1.25294,1.2498,1.2503,1.27914,1.26258,1.27359,1.29569,1.2974,1.4111,1.40936,1.37839,1.38408,1.38954,1.39205,1.39192,1.39789,1.5617,1.43329,1.41843,1.41713,1.42091,1.42094,1.4293,1.51777,1.42749,1.45898,0.00339118,1.43802,1.43939,1.62602,1.44842,1.45121,1.45227,1.57436,1.47489,1.46718,1.47093,1.49873,1.65466,1.51944,1.48659,1.48514,1.52742,1.52759,1.54201,1.54433,1.5388,1.51051,1.5085,1.50998,1.51336,1.56287,0.00361629,1.54497,1.54588,1.55608,1.55869,1.55896,1.55846,1.55796,1.56219,1.56267,1.56783,1.56644,1.57323,1.57898,1.58352,1.58809,1.59441,1.59872,1.59543,1.59875,1.60248,1.60159,1.60711
0.53003,0.534841,0.52857,0.536869,0.537022,0.539034,0.54033,0.541635,0.542891,0.542919,0.548143,0.548369,0.550009,0.555311,0.555646,0.558482,0.559141,0.562519,0.564302,0.566163,0.567539,0.576405,0.573699,0.574071,0.58279,0.576851,0.586015,0.58581,0.58986,0.600012,0.598609,0.596837,0.602526,0.603644,0.607064,0.608121,0.609483,0.607639,0.609327,0.609131,0.614499,0.617391,0.618104,0.613702,0.628346,0.621294,0.624693,0.62431,0.625219,0.64122,0.641384,0.633607,0.643156,0.644097,0.647418,0.64909,0.636026,0.638947,0.656992,0.649499,0.653442,0.652566,0.660549,0.0039114,0.00366999,0.682856,0.683712,0.683918,0.686966,0.689875,0.687143,0.687368,0.690788,0.674943,0.688014,0.687643,0.700354,0.700195,0.692951,0.693904,0.691086,0.724341,0.719537,0.679922,0.687003,0.684313,0.699058,0.70097,0.716042,0.715395,0.726648,0.715171,0.704965,0.728432,0.700084,0.655986,0.656956,0.666054,0.666579,0.666283,0.680657,0.674112,0.688463,0.707271,0.697197,0.69513,0.701126,0.708241,0.731752,0.698762,0.712595,0.722034,0.742588,0.779031,0.856388,0.864937,0.912952,0.914606,0.919932,1.01871,0.982139,1.01147,1.12785,1.12891,1.13934,1.13397,1.14088,1.14574,1.14114,1.1323,1.14466,1.14795,1.15795,1.16413,1.16579,1.23266,1.18321,1.20161,1.20408,1.35116,1.35401,1.24317,1.24156,1.27444,1.27205,1.2876,1.28965,1.28513,1.28296,1.2887,1.32818,1.30781,1.33248,1.32756,1.31936,1.34356,1.33801,1.39276,1.39241,1.35753,1.35749,1.38216,1.43411,1.424,1.37677,1.3652,1.36534,1.3513,1.34296,1.36722,1.37,1.36824,1.35385,1.35522,1.41105,1.36365,1.36449,1.37089,1.38491,1.38065,1.37929,1.33254,1.33457,1.34361,1.33131,1.33279,1.3198,1.31506,1.3138,1.29721,1.28182,1.29113,1.29249,1.25939,1.29299,1.27878,1.29888,1.26631,1.28443,1.27186,1.28525,1.27501,1.26001,1.26073,1.26253,1.26161,1.26347,1.20835,1.19874,1.18502,1.18093,1.18163,1.18595,1.1883,1.22417,1.21857,1.24124,1.24216,1.21953,1.21628,1.23361,1.24436,1.25154,1.26049,1.26095,1.27419,1.26135,1.27358,1.25747,1.26218,1.28197,1.29778,1.29838,1.39192,1.39956,1.3722,1.38156,1.38462,1.38687,1.39492,1.3937,1.3973,1.40043,1.40129,1.40411,1.41374,1.41736,1.41887,1.41839,1.41162,1.41206,1.46451,1.53819,1.46682,1.46132,1.46189,1.44825,1.45382,1.45407,1.49003,1.46006,1.46383,1.46374,1.50484,1.47142,1.4792,1.4833,1.48333,1.48763,1.48613,1.49484,1.49692,1.5387,1.51002,1.51192,1.51181,1.55585,1.55851,1.5544,1.54503,1.55181,1.55357,1.55323,1.55461,1.55265,1.55224,1.56496,1.56335,1.5725,1.58142,1.58593,1.58327,1.58301,1.58414,1.59541,1.59715,1.60304,1.60733,1.61475,1.61292
0.526936,0.528306,0.531608,0.529842,0.534399,0.536156,0.540026,0.540359,0.540549,0.54238,0.548713,0.54754,0.54829,0.551717,0.552415,0.554465,0.555885,0.556108,0.557032,0.56577,0.564336,0.570138,0.571526,0.575405,0.578424,0.578014,0.576622,0.583584,0.586877,0.586745,0.591007,0.59291,0.591367,0.58739,0.587077,0.598216,0.595368,0.597698,0.600644,0.601152,0.61401,0.613747,0.615219,0.614097,0.613524,0.614264,0.625337,0.619107,0.620931,0.620951,0.623651,0.618332,0.61987,0.620752,0.617498,0.616067,0.636627,0.00357337,0.640156,0.646474,0.649296,0.637136,0.63851,0.00349023,0.656957,0.658817,0.659184,0.660319,1.15967,0.670336,0.672619,0.669128,0.672886,0.673624,0.689598,0.682556,0.680318,0.6781,0.687964,0.705718,0.676528,0.707939,0.670109,0.672326,0.676217,0.674477,0.681247,0.652299,0.673824,0.715067,0.714693,0.693441,0.684119,0.66996,0.666902,0.669203,0.657517,0.673069,0.685138,0.673514,0.693626,0.687145,0.694867,0.705158,0.70041,0.698656,0.697506,0.718427,0.718361,0.731746,0.729778,0.742689,0.761294,0.765398,0.853057,0.901599,0.895052,0.898082,0.977976,0.980106,1.11368,1.11552,1.11901,1.15258,1.15225,1.20925,1.21263,1.14499,1.14051,1.14657,1.1408,1.14371,1.15326,1.16137,1.1623,1.21891,1.18226,1.18346,1.3196,1.31962,1.32208,1.24612,1.24677,1.27742,1.27779,1.26797,1.27059,1.30941,1.31075,1.33262,1.30813,1.30819,1.3296,1.34019,1.40627,1.36381,1.37362,1.36128,1.35568,1.45096,1.37831,1.39873,1.39638,1.42426,1.37901,1.38167,1.37483,1.35838,1.36511,1.3678,1.37374,1.37555,1.37533,1.38123,1.36668,1.39619,1.39616,1.37892,1.38406,1.36654,1.36669,1.36764,1.33948,1.34332,1.34117,1.30892,1.32032,1.31088,1.30885,1.3121,1.30891,1.28448,1.29664,1.27761,1.26651,1.26739,1.27275,1.2719,1.27275,1.28113,1.31761,1.30538,1.28358,1.29119,1.27798,1.26342,1.24654,1.2476,1.19901,1.19763,1.18082,1.17968,1.21705,1.20688,1.20935,1.21511,1.22286,1.23902,1.21965,1.22054,1.24438,1.22951,1.24067,1.2397,1.23871,1.23468,1.23659,1.26492,1.27009,1.29879,1.26792,1.28355,1.29189,1.30706,1.31304,1.4068,1.3793,1.37874,1.38312,1.38527,1.38737,1.39591,1.3964,1.39657,1.40079,0.00393586,1.40946,1.41283,1.41072,1.41205,1.41205,1.41602,1.45973,1.43285,1.43318,1.44109,1.44305,1.44225,1.48297,1.45449,1.48933,1.46078,1.45931,1.4656,1.46553,1.47162,1.47794,1.47636,1.52056,1.489,1.49265,1.49235,1.54114,1.54797,1.50588,1.55452,1.56525,1.56711,1.55748,1.54746,1.54702,1.55195,1.55137,1.55068,1.55019,1.55253,1.55415,1.58644,1.58518,1.57546,1.58159,1.58603,1.58491,1.58978,1.58979,1.59513,1.60732,1.60316,1.60824,1.61746
0.506809,0.517427,0.521959,0.523166,0.531039,0.53241,0.533433,0.538407,0.537477,0.539318,0.539418,0.543426,0.546746,0.548975,0.551996,0.553613,0.553049,0.553305,0.554434,0.555066,0.56163,0.558023,0.560529,0.569289,0.567403,0.572156,0.573179,0.572512,0.572622,0.583197,0.583165,0.585946,0.583925,0.584766,0.586365,0.589823,0.592968,0.593871,0.597699,0.600114,0.598781,0.601572,0.598076,0.59459,0.597632,0.599191,0.601678,0.607813,0.618909,0.618472,0.618888,0.618226,0.620828,0.621406,0.621335,0.613316,0.610607,0.611234,0.613089,0.615845,0.633812,0.63612,0.643601,0.640889,0.643676,0.643605,0.65757,0.659137,0.664178,0.667763,0.668844,0.659785,0.660709,0.675485,0.678813,0.680813,0.678759,0.676252,0.674719,0.66958,0.703213,0.677158,0.701974,0.710813,0.703736,0.713686,0.671023,0.651856,0.708459,0.698823,0.699552,0.700259,0.702066,0.658455,0.642046,0.643207,0.642794,0.627013,0.677592,0.677597,0.683559,0.673629,0.70186,0.697552,0.714033,0.716286,0.728406,0.73638,0.735718,0.722928,0.76694,0.811503,0.795718,0.846254,0.847337,0.83659,0.953889,0.985123,0.977172,1.06813,1.06193,1.16097,1.07635,1.07778,1.16643,1.1382,1.14165,1.15137,1.12517,1.12547,1.12991,1.14309,1.14682,1.1903,1.18223,1.20279,1.20927,1.19823,1.23866,1.24273,1.24466,1.23338,1.24613,1.26864,1.34976,1.29312,1.28438,1.31967,1.3195,1.31461,1.33723,1.33919,1.3397,1.34069,1.36912,1.36399,1.37136,1.38091,1.36138,1.38184,1.38997,1.40219,1.37898,1.39659,1.39815,1.35608,1.35567,1.37508,1.38946,1.38461,1.37015,1.36082,1.4585,1.3938,1.40127,1.37259,1.39123,1.38991,1.37875,1.37596,1.36606,1.36418,1.36439,1.31666,1.31111,1.32655,1.31806,1.31295,1.29524,1.30653,1.30599,1.30617,1.28957,1.28625,1.29512,1.28716,1.30235,1.3063,1.26259,1.26422,1.27766,1.28474,1.28011,1.28015,1.27492,1.30136,1.24036,1.23038,1.19801,1.1933,1.18256,1.20266,1.20378,1.20451,1.21165,1.21831,1.21842,1.21063,1.23403,1.22164,1.23198,1.22585,1.23694,1.24734,1.22665,1.25775,1.25624,1.25899,1.27411,1.28153,1.26828,1.26369,1.33984,1.3058,1.30687,1.32639,0.00349163,1.37575,1.38262,1.38305,1.3851,1.38583,1.3886,1.38581,1.38812,1.3935,1.39961,1.40127,1.40303,1.40631,1.41286,1.41526,1.41703,1.45636,1.43101,1.43873,1.43772,1.4394,1.44385,1.44419,1.4455,1.45736,1.46148,1.46879,1.47422,1.47268,1.48031,1.48178,1.4834,1.48368,1.49629,1.49363,1.49533,1.55346,1.56176,1.5619,1.52324,1.5218,1.52648,1.52611,1.56536,1.54488,1.55096,1.5503,1.54728,1.54623,1.54975,1.55485,1.56043,1.5625,1.56371,1.56461,0.00353891,1.57918,1.57999,1.58063,1.58879,1.58768,0.00328327,1.68995
0.504199,0.504665,0.504342,0.50888,0.514664,0.520438,0.525466,0.524833,0.52528,0.534093,0.533997,0.535387,0.539175,0.541786,0.544664,0.549116,0.548327,0.549017,0.551065,0.551559,0.551681,0.553182,0.55344,0.555514,0.562746,0.562305,0.55971,0.570669,0.570579,0.568359,0.568241,0.568708,0.568313,0.577112,0.581107,0.580108,0.582009,0.582077,0.586736,0.587213,0.586882,0.591055,0.590031,0.590155,0.593839,0.60004,0.601998,0.602447,0.601946,0.597978,0.608319,0.615387,0.617385,0.617647,0.617694,0.618075,0.617309,0.618234,0.61803,0.618261,0.616599,0.615047,0.615401,0.618673,0.641357,0.641856,0.640159,0.00378912,0.661999,0.66431,0.665752,0.65966,0.660436,0.667083,0.669013,0.669364,0.675851,0.67613,0.676196,0.675533,0.68948,0.689757,0.653257,0.670531,0.658374,0.659247,0.666658,0.6429,0.659197,0.697396,0.638274,0.695725,0.701022,0.659701,0.64893,0.645599,0.657384,0.687584,0.637721,0.631111,0.664676,0.63845,0.67778,0.707114,0.707393,0.76157,0.744196,0.751779,0.758842,0.770114,0.786611,0.760166,0.847062,0.877849,0.884039,0.909837,0.96641,1.00815,1.0654,1.07169,1.0895,1.09117,1.07425,1.18345,1.12324,1.12977,1.15343,1.16566,1.17441,1.1743,1.16835,1.1567,1.15976,1.17604,1.21544,1.19946,1.21506,1.22377,1.23878,1.25645,1.2563,1.24706,1.25741,1.28764,1.29781,1.29664,1.29652,1.29814,1.28691,1.302,1.3205,1.32272,1.35466,1.34443,1.35121,1.35503,1.37341,1.37485,1.37123,1.38909,1.38245,1.3934,1.3997,1.38883,1.38469,1.39589,1.37713,1.37233,1.36989,1.3798,1.38832,1.3479,1.34898,1.4196,1.39176,1.39061,1.39269,1.38762,1.37842,1.37736,1.37706,1.38498,1.38383,1.34868,1.34583,1.34391,1.33432,1.32573,1.32782,1.31354,1.31496,1.30615,1.28753,1.28612,1.29787,1.3159,1.29192,1.29484,1.32395,1.27385,1.25144,1.26209,1.2633,1.26048,1.23751,1.23949,1.22571,1.19831,1.18785,1.19139,1.19261,1.21147,1.29941,1.30193,1.24708,1.21901,1.20936,1.2086,1.21791,1.22671,1.22601,1.21389,1.2133,1.21586,1.23565,1.23101,1.25282,1.26115,1.27145,1.27882,1.27957,1.26636,1.27217,1.27793,1.37447,1.39583,1.66853,1.6675,1.39957,0.00352719,1.38315,1.38214,1.38354,1.38266,1.38358,1.42752,1.43031,1.39824,1.39862,1.39967,1.40501,1.40585,1.4175,1.4216,1.42527,1.47269,1.43345,1.44406,1.44722,1.45049,1.45095,1.45046,1.51371,1.47606,1.47276,1.47684,1.47804,1.54146,1.53345,1.48478,1.48594,1.48789,1.48805,1.54426,1.59656,1.51175,1.51205,1.55383,1.52659,1.52771,1.52454,1.52408,1.56652,1.56883,1.54552,1.54503,1.55343,1.54949,1.55053,1.54906,1.55535,1.56182,1.56962,1.56986,1.57075,1.57302,1.58246,1.58705,1.58894,1.59356
0.488504,0.489312,0.499141,0.504007,0.503515,0.50553,0.522064,0.522444,0.525065,0.526521,0.524556,0.530614,0.530186,0.529591,0.529462,0.536144,0.539568,0.54788,0.54678,0.548339,0.546727,0.545674,0.545565,0.547367,0.547354,0.552438,0.554128,0.553697,0.553859,0.56121,0.565614,0.567458,0.567928,0.565801,0.562073,0.56222,0.580455,0.582178,0.58375,0.573955,0.578763,0.578913,0.576623,0.570773,0.580105,0.58088,0.583784,0.586105,0.585031,0.58672,0.5865,0.5978,0.59805,0.607176,0.605938,0.607338,0.6082,0.607352,0.609328,0.617266,0.61839,0.616959,0.615649,0.617981,0.625349,0.625124,0.626128,0.626818,0.628695,0.631766,0.653839,0.655952,0.657271,0.666889,0.670157,0.666407,0.663853,0.663979,0.664595,0.666408,0.666977,0.656356,0.678159,0.681512,0.646287,0.655678,0.650084,0.650258,0.634851,0.63181,0.671708,0.661073,0.660008,0.676327,0.668711,0.680865,0.662634,0.691901,0.668771,0.63034,0.684161,0.647327,0.646256,0.684454,0.710595,0.787197,0.787357,0.751487,0.750987,0.753683,0.760116,0.861355,0.864099,0.86959,0.890235,0.89147,0.924921,1.04911,1.0312,1.02039,1.03701,1.0525,1.08563,1.09613,1.10966,1.16772,1.15443,1.15699,1.19796,1.1971,1.21697,1.25607,1.20354,1.20999,1.24034,1.24123,1.24043,1.2398,1.24892,1.24084,1.26005,1.25949,1.2702,1.26568,1.31,1.299,1.28598,1.29426,1.29143,1.29112,1.30487,1.32685,1.32999,1.35055,1.35647,1.35526,1.39826,1.39191,1.39629,1.4315,1.41906,1.39576,1.38853,1.38705,1.39308,1.3833,1.3822,1.372,1.35721,1.35703,1.36758,1.37041,1.37135,1.36808,1.38399,1.38458,1.37583,1.44763,1.39418,1.38653,1.35734,1.36115,1.36425,1.36366,1.35907,1.35599,1.33405,1.33364,1.33118,1.33071,1.29285,1.29275,1.29345,1.30908,1.29334,1.29415,1.29816,1.27977,1.29253,1.28143,1.28147,1.28611,1.25741,1.25759,1.25694,1.21677,1.19373,1.20575,1.19224,1.22596,1.22656,1.2009,1.22584,1.22254,1.21867,1.25257,1.24886,1.21629,1.21801,1.2199,1.23283,1.21799,1.22168,1.2209,1.22133,1.24041,1.25826,1.25899,1.27024,1.26755,1.26941,1.28211,1.26757,1.2651,1.30339,1.30307,1.37922,1.39334,1.3547,1.35632,1.35911,1.36177,1.3737,1.37409,1.37639,1.37788,1.52427,1.42472,1.40731,1.41346,1.41678,1.41524,1.4138,1.42133,1.42971,0.00384169,1.4379,1.47819,1.45106,1.45397,1.48797,1.48571,1.46822,1.49641,1.46575,1.47851,0.00330397,1.47347,1.47198,1.47471,1.47481,1.52616,1.52794,1.49382,0.00345953,0.00363682,1.50334,1.50115,1.55006,1.5158,1.52158,1.52203,1.52302,1.516,1.56571,1.56423,1.54811,1.54784,1.54719,1.56054,1.55961,1.56846,1.56975,1.56907,1.57592,1.57951,1.58199,1.58428,1.58702,1.60034
0.480369,0.487106,0.494009,0.494999,0.497975,0.500763,0.507918,0.508577,0.508745,0.517889,0.525547,0.523451,0.526018,0.531189,0.530932,0.531616,0.531616,0.535226,0.536636,0.538529,0.543925,0.54484,0.542869,0.541419,0.542102,0.54308,0.544075,0.547664,0.552418,0.55201,0.551228,0.552445,0.556133,0.562596,0.564653,0.563686,0.562137,0.554062,0.552266,0.552397,0.568117,0.570084,0.571171,0.572712,0.572821,0.574755,0.58316,0.58595,0.586519,0.586454,0.587274,0.00344718,0.599768,0.600565,0.601428,0.607308,0.609006,0.608342,0.611561,0.611493,0.612335,0.615162,0.617218,0.616963,0.627314,0.628241,0.628825,0.630665,0.632621,0.634157,0.633976,0.655015,0.656211,0.656253,0.663958,0.66739,0.666143,0.66621,0.667431,0.680908,0.682278,0.683094,0.646541,0.656747,0.641874,0.639315,0.635349,0.652573,0.663445,0.632583,0.659033,0.672543,0.649906,0.672621,0.66982,0.659425,0.657072,0.65931,0.657482,0.674558,0.65835,0.658806,0.693233,0.681994,0.721398,0.771604,0.77623,0.797118,0.795814,0.820538,0.841349,0.8473,0.870862,0.880518,0.931604,0.93599,1.0142,1.0149,1.03597,1.03588,1.03755,1.0514,1.05999,1.09832,1.1365,1.12041,1.13007,1.15395,1.14952,1.2152,1.21935,1.22254,1.22335,1.21943,1.22034,1.25175,1.24113,1.24555,1.25335,1.27004,1.27018,1.27097,1.25695,1.41714,1.35815,1.27361,1.27429,1.27508,1.27357,1.31577,1.32135,1.34082,1.34162,1.33776,1.34808,1.36138,1.38115,1.37967,1.38199,1.38692,1.38608,1.44173,1.43979,1.40761,1.40709,1.40007,1.41118,1.41253,1.41643,1.41465,1.37633,1.37778,1.39982,1.41725,1.3941,1.36786,1.3676,1.37153,1.3769,1.36779,1.36156,1.35782,1.42388,1.37451,1.33805,1.37443,1.3502,1.33322,1.33918,1.31998,1.2919,1.2935,1.31604,1.30886,1.30727,1.28252,1.2855,1.28217,1.25975,1.259,1.29194,1.28108,1.28169,1.25313,1.24764,1.24464,1.26159,1.20699,1.20933,1.20032,1.23036,1.2217,1.20949,1.21481,1.22045,1.2267,1.21773,1.2176,1.22695,1.22103,1.2229,1.22925,1.22694,1.21826,1.22213,1.22169,1.23392,1.24621,1.2539,1.24693,1.25549,1.29003,1.27945,1.28572,1.28767,1.28856,1.38236,1.37563,1.34823,1.35411,1.36379,1.3656,1.37408,1.37565,1.37502,1.37878,1.37999,1.4321,1.4348,1.43423,1.41432,1.41473,1.41649,1.42087,1.41978,1.41986,1.45809,1.46048,1.44253,0.00351296,0.00366326,0.00333843,1.44739,1.44872,1.45495,1.45868,1.45584,1.49951,1.49992,1.50675,0.00366794,1.49876,1.51382,1.51573,1.48928,1.49079,1.49621,1.49338,1.50011,0.00346437,1.52737,1.51445,1.51266,1.51642,1.52274,1.52588,1.52639,1.57959,1.57979,1.5788,1.56085,1.56165,1.56852,1.56724,1.57442,1.57793,1.58597,1.58329,1.58863,1.59875
0.479624,0.478953,0.486394,0.48548,0.489924,0.49372,0.493646,0.503838,0.50462,0.512046,0.516847,0.517353,0.515155,0.522506,0.525521,0.517212,0.530607,0.531977,0.533348,0.531801,0.532618,0.532206,0.535715,0.541119,0.540711,0.535195,0.544654,0.544867,0.544802,0.545387,0.539105,0.541067,0.539409,0.539282,0.542621,0.540502,0.550012,0.555384,0.554634,0.555251,0.55722,0.561884,0.564555,0.566599,0.567334,0.57085,0.570912,0.57617,0.572335,0.579017,0.580603,0.581862,0.582857,0.596037,0.597913,0.597956,0.601442,0.59999,0.598619,0.604804,0.606417,0.609964,0.611146,0.617161,0.615516,0.618942,0.629419,0.63184,0.633157,0.634537,0.636452,0.637379,0.644521,0.645592,0.65219,0.663041,0.662344,0.662675,0.662853,0.660119,0.67663,0.678461,0.638946,0.656499,0.656946,0.647423,0.658249,0.674401,0.662474,0.662122,0.699578,0.660168,0.6689,0.663707,0.663085,0.647781,0.647378,0.646589,0.655491,0.655643,0.664478,0.659662,0.707831,0.712329,0.712518,0.773733,0.765904,0.765083,0.803839,0.81869,0.81731,0.849733,0.914656,0.929185,0.91983,0.91792,0.961843,0.975322,1.05438,1.00608,1.04761,1.04044,1.06833,1.13595,1.12253,1.12887,1.13874,1.1442,1.14988,1.19222,1.22072,1.20943,1.19279,1.19364,1.22143,1.22974,1.22677,1.23845,1.23955,1.30714,1.27489,1.2407,1.38937,1.39592,1.35478,1.30348,1.28628,1.3098,1.27721,1.27874,1.31551,1.31181,1.33496,1.33655,1.38811,1.38802,1.34674,1.43422,1.43212,1.38787,1.39624,1.39665,1.38054,1.37766,1.38001,1.40114,1.40968,1.41628,1.4073,1.42346,1.39973,1.3999,1.39937,1.36228,1.36213,1.39392,1.3815,1.38557,1.38429,1.35616,1.3542,1.37037,1.34867,1.36963,1.39451,1.39338,1.39197,1.34285,1.36574,1.32256,1.29609,1.30505,1.30976,1.29919,1.30154,1.28415,1.28719,1.28988,1.29568,1.2758,1.30001,1.27186,1.25198,1.25319,1.25497,1.25874,1.26114,1.23653,1.22564,1.22812,1.2123,1.20912,1.23011,1.23441,1.22943,1.2303,1.22846,1.22356,1.22622,1.22625,1.23215,1.23233,1.22768,1.22933,1.2347,1.2337,1.22328,1.23844,1.244,1.25531,1.2569,1.25737,1.26171,1.29121,1.28569,1.28864,1.29028,1.39455,1.38099,1.35221,1.35564,1.36365,1.37149,1.37677,1.37708,1.37797,1.38481,1.38933,1.39121,1.39144,1.39282,1.39886,1.44813,1.60608,1.45436,1.42663,1.42618,1.42565,1.42741,1.47382,1.43935,1.43609,1.4421,1.44239,1.44803,1.4519,1.45753,1.45764,1.45811,1.46458,1.50635,1.47183,1.47718,1.4788,1.47928,1.48674,1.48531,1.49324,1.49091,1.49166,1.5053,1.53225,2.0048,0.0035633,1.54367,1.52264,1.53059,1.52653,1.53133,1.52617,1.54496,1.58523,1.56766,1.56544,1.5742,1.57313,1.57403,1.57355,1.57616,1.58968
0.474387,0.475109,0.477143,0.48102,0.482926,0.47966,0.480207,0.50144,0.507974,0.510396,0.507255,0.512272,0.512195,0.515056,0.516365,0.517541,0.51579,0.518638,0.521817,0.522247,0.526067,0.524139,0.518537,0.521178,0.520758,0.534687,0.537022,0.538669,0.538882,0.537388,0.536108,0.535723,0.532121,0.531007,0.540034,0.537468,0.538875,0.538514,0.533189,0.544062,0.548241,0.55227,0.551103,0.551724,0.552497,0.567809,0.568936,0.570249,0.571309,0.57319,0.580255,0.58104,0.577473,0.579722,0.580219,0.593083,0.594706,0.596235,0.59457,0.593437,0.598637,0.604568,0.607147,0.610052,0.611083,0.612858,0.617992,0.620818,0.623978,0.62483,0.631463,0.635949,0.636748,0.63838,0.645233,0.646308,0.653622,0.660517,0.659151,0.657666,0.67798,0.677204,0.678415,0.678956,0.680233,0.681629,0.64999,0.639118,0.639296,0.63858,0.674161,0.664274,0.689455,0.687099,0.664193,0.648882,0.638844,0.652366,0.654625,0.68618,0.670194,0.713692,0.702901,0.731771,0.752535,0.736264,0.741186,0.764897,0.774863,0.837011,0.856822,0.886242,0.907362,0.95499,0.926837,0.971376,0.980971,0.99036,0.985042,1.00456,1.02499,1.07408,1.09456,1.09601,1.08755,1.12935,1.11349,1.12275,1.22718,1.1663,1.198,1.20332,1.25305,1.20408,1.20463,1.4238,1.32806,1.30988,1.22993,1.23062,1.257,1.24304,1.27376,1.28375,1.2785,1.28029,1.26706,1.27221,1.31349,1.31107,1.28438,1.33676,1.327,1.34178,1.37362,1.34807,1.36742,1.37081,1.36363,1.37079,1.38232,1.38831,1.40244,1.41399,1.43041,1.44163,1.41479,1.41187,1.42279,1.42262,1.42066,1.41833,1.38517,1.39893,1.39856,1.41259,1.40755,1.37901,1.36462,1.37912,1.36475,1.34383,1.34476,1.37212,1.35073,1.35037,1.34883,1.39684,1.33427,1.33626,1.32305,1.32685,1.32239,1.34099,1.31271,1.28809,1.30444,1.3024,1.29596,1.26306,1.27746,1.27738,1.25625,1.26657,1.26202,1.27062,1.24764,1.22702,1.22656,1.22043,1.22196,1.21095,1.2317,1.22336,1.23333,1.23298,1.24496,1.23941,1.23793,1.22527,1.22356,1.23218,1.23293,1.22312,1.24121,1.24094,1.2294,1.24771,1.25115,1.25233,1.23464,1.24946,1.24979,1.27875,1.31164,1.31488,1.34758,1.37441,1.37438,1.34937,1.3598,1.36359,1.37085,1.37215,1.37706,1.37791,1.38194,1.3874,1.38669,1.39119,1.39049,1.39917,1.39928,1.39941,1.45696,1.41684,1.41499,1.41807,1.42275,1.42543,1.42474,1.42706,1.49048,1.44087,1.44178,1.46111,1.45359,1.45784,1.45732,1.46467,1.46571,1.47854,1.4815,1.48142,1.48145,1.48309,1.48275,1.48521,1.49294,1.49339,1.49592,1.50455,1.51311,0.00382443,1.55678,1.52695,1.52923,1.53205,1.52969,1.53987,1.53711,1.54144,0.00354261,0.00363969,1.59592,1.56586,1.5957,1.58184,1.58186,1.58435
0.464465,0.47068,0.468821,0.467909,0.479367,0.480499,0.479046,0.488614,0.495984,0.498109,0.509612,0.510112,0.50941,0.497492,0.498551,0.513661,0.51471,0.511366,0.518238,0.516434,0.516042,0.517958,0.518461,0.521454,0.517365,0.511918,0.508947,0.514392,0.516487,0.517723,0.529524,0.530763,0.528108,0.527548,0.52923,0.529246,0.529672,0.529398,0.530733,0.545537,0.548301,0.549692,0.551029,0.549703,0.553577,0.556974,0.55286,0.55333,0.545275,0.57562,0.576061,0.577962,0.578298,0.580095,0.581945,0.581947,0.582153,0.591095,0.593125,0.59642,0.598689,0.598829,0.601388,0.601335,0.611118,0.615605,0.617127,0.617557,0.626384,0.626843,0.63137,0.635058,0.637705,0.638451,0.651378,0.65063,0.652415,0.653134,0.65282,0.654139,0.645776,0.679343,0.691555,0.6776,0.677892,0.676945,0.693346,0.645933,0.681087,0.660692,0.689002,0.683986,0.670561,0.67159,0.642599,0.659873,0.659906,0.678334,0.677828,0.693715,0.706164,0.716526,0.701423,0.736381,0.747104,0.752625,0.754754,0.759033,0.774543,0.822252,0.83972,0.861097,0.891757,0.8927,0.935605,0.93777,0.969154,0.984036,0.986469,1.02536,1.02435,1.04983,1.05354,1.06766,1.06771,1.10176,1.13027,1.12374,1.16848,1.17059,1.20002,1.1982,1.25655,1.20355,1.4336,1.38589,1.29825,1.25154,1.27329,1.2331,1.23979,1.2407,1.26747,1.24805,1.29579,1.29594,1.27066,1.27251,1.29307,1.28823,1.28803,1.32159,1.32108,1.31617,1.33666,1.34078,1.35777,1.38052,1.34702,1.37647,1.40079,1.40655,1.38668,1.42161,1.42396,1.41097,1.42732,1.4233,1.42043,1.42098,1.41698,1.39209,1.37141,1.38756,1.35143,1.43554,1.43305,1.36496,1.36922,1.36631,1.38109,1.37584,1.36726,1.36691,1.35352,1.35643,1.35166,1.34134,1.34463,1.35482,1.29602,1.29823,1.30668,1.30895,1.31259,1.31271,1.30923,1.29246,1.28393,1.28356,1.28551,1.27928,1.27549,1.25971,1.26065,1.24157,1.25008,1.24054,1.24103,1.23157,1.22684,1.22489,1.22304,1.23223,1.22604,1.22719,1.24107,1.22741,1.22473,1.21646,1.21643,1.24006,1.22672,1.21967,1.21665,1.22263,1.21492,1.21387,1.22146,1.22765,1.23596,1.24069,1.25192,1.27021,1.29864,1.27359,1.26309,1.26617,0.00357676,1.34721,1.35614,1.35831,1.35998,1.45448,1.38173,1.3798,1.38224,1.38122,1.38514,1.38251,1.38647,1.38697,1.39813,1.40129,1.40502,1.40675,1.40959,1.41309,1.41415,1.41459,1.42186,1.46971,1.43616,1.43675,1.44678,1.44676,1.45449,1.45486,1.4554,1.45576,1.46727,1.46611,1.47103,1.47526,1.48523,1.48627,1.48644,1.48793,1.49022,1.49253,1.49964,1.50591,1.51145,1.51348,1.5129,1.51633,1.68352,1.53057,1.53235,1.53689,1.53546,1.53567,1.53754,1.54234,1.59624,1.59666,0.00352855,1.56477,0.00348516,1.57178
0.465262,0.463144,0.464255,0.468774,0.466403,0.461841,0.00359779,0.487595,0.00347286,0.483118,0.48546,0.914667,0.00365826,0.920924,0.498329,0.506971,0.506631,0.508611,0.511741,0.511027,0.513195,0.514006,0.510351,0.510749,0.511667,0.510928,0.510187,0.505603,0.505716,0.517454,0.518411,0.517834,0.525433,0.527674,0.529137,0.530968,0.530593,0.530024,0.530685,0.530516,0.530461,0.529196,0.544732,0.535369,0.535074,0.549785,0.541927,0.543777,0.542384,0.543092,0.542377,0.549739,0.576404,0.578681,0.579978,0.577499,0.580296,0.582523,0.59298,0.594632,0.595344,0.593999,0.595697,0.598145,0.607555,0.609563,0.611821,0.612357,0.626037,0.627933,0.631581,0.633834,0.636406,0.642585,0.646747,0.648657,0.649368,0.649691,0.645302,0.64529,0.642995,0.642219,0.689183,0.690723,0.684716,0.685569,0.690238,0.639659,0.629948,0.642971,0.633362,0.674421,0.689722,0.633592,0.632871,0.6537,0.653726,0.690274,0.688407,0.693704,0.684402,0.695021,0.77629,0.777677,0.741039,0.752039,0.76647,0.768349,0.756627,0.758997,0.806603,0.83103,0.830274,0.901908,0.915777,0.933487,0.955635,1.00293,1.03169,1.03489,1.0129,1.1254,1.1252,1.12559,1.06021,1.12153,1.11098,1.12271,1.15708,1.19516,1.19282,1.20114,1.22688,1.22387,1.23183,1.22603,1.21958,1.26637,1.23043,1.29328,1.27939,1.27801,1.24468,1.2429,1.24176,1.27359,1.30215,1.27162,1.29869,1.31336,1.33635,1.38891,1.38698,1.39001,1.33996,1.39025,1.38554,1.36279,1.36355,1.35018,1.38356,1.38439,1.38645,1.38825,1.37158,1.38233,1.46063,1.40703,1.38186,1.3695,1.38162,1.37887,1.38537,1.38829,1.38512,1.3881,1.36341,1.3496,1.34409,1.36367,1.34609,1.34597,1.36469,1.36045,1.3654,1.35491,1.35613,1.40302,1.32643,1.31518,1.35088,1.31549,1.31263,1.31988,1.30778,1.3133,1.30349,1.29485,1.31349,1.2836,1.27394,1.24834,1.25368,1.26505,1.25903,1.24982,1.24605,1.25773,1.24391,1.24367,1.2255,1.22966,1.21733,1.22761,1.22802,1.25408,1.24827,1.2366,1.23587,1.21411,1.2151,1.20927,1.21256,1.20069,1.19914,1.21102,1.22939,1.22948,1.22196,1.22935,1.23214,1.23133,1.23493,1.25743,1.26051,1.2575,1.26506,1.26794,1.26067,1.36508,0.00353647,0.00359975,0.0038039,1.38524,1.3859,1.39521,1.37244,1.39665,1.3836,1.38478,1.38347,1.38473,1.38759,1.38984,1.39339,1.4548,1.44735,1.40739,1.40868,1.41554,1.41896,1.46777,1.46988,1.47056,1.47196,1.44449,1.4445,1.4508,1.45563,1.45798,1.45956,1.46826,1.47007,1.47644,1.47876,1.479,1.48487,1.4836,1.48713,1.49448,1.49606,1.53644,1.51153,1.51094,1.51605,1.5216,1.5213,1.52777,1.53637,1.5335,1.53771,1.53667,1.54034,1.5383,1.5406,1.54049,1.54735,1.59973,1.6006,1.60546
0.451727,0.456136,0.454348,0.45808,0.46211,0.455873,0.447422,0.45831,0.00360117,0.00366138,0.476504,0.475492,0.473138,0.473871,0.475017,0.476906,0.00365782,0.00347732,0.00340168,0.501453,0.50154,0.50385,0.494189,0.496887,0.501175,0.498325,0.501812,0.500974,0.503422,0.495754,0.49604,0.503054,0.503175,0.502939,0.527059,0.528345,0.52164,0.525004,0.524348,0.525207,0.526996,0.527629,0.534026,0.534457,0.535719,0.537393,0.539555,0.540952,0.542554,0.541859,0.543517,0.542838,0.542826,0.00345167,0.573397,0.572989,0.573167,0.581502,0.582337,0.586495,0.587664,0.587236,0.588708,0.589193,0.607705,0.60682,0.611912,0.612717,0.614741,0.623581,0.62615,0.625873,0.631734,0.633377,0.643511,0.645308,0.646377,0.648113,0.642905,0.647643,0.648997,0.648272,0.632579,0.683213,0.684331,0.687563,0.663739,0.626186,0.63207,0.663634,0.666322,0.643787,0.642932,0.652224,0.653383,0.661292,0.653865,0.651214,0.650798,0.666422,0.670185,0.677229,0.703862,0.777247,0.779173,0.745137,0.752661,0.76393,0.764276,0.756526,0.777145,0.779387,0.828833,0.879985,0.899248,0.900422,0.957826,0.97755,1.00141,1.01901,1.02553,1.03036,1.04856,1.0566,1.071,1.13337,1.14572,1.14142,1.14383,1.17405,1.17225,1.21253,1.22277,1.22294,1.22598,1.2384,1.27062,1.29955,1.28938,1.28607,1.2879,1.271,1.28692,1.2453,1.24586,1.24694,1.28028,1.27709,1.29527,1.33402,1.33635,1.33792,1.32632,1.32563,1.33756,1.33888,1.37149,1.3465,1.3539,1.34729,1.3458,1.37801,1.39936,1.36446,1.3607,1.34845,1.34897,1.38116,1.42986,1.43005,1.43425,1.4388,1.36813,1.3642,1.36547,1.43138,1.43262,1.37824,1.37959,1.36595,1.36775,1.36883,1.37065,1.36323,1.35635,1.33643,1.35374,1.34738,1.34155,1.32324,1.32095,1.33008,1.30495,1.30107,1.2994,1.27634,1.27647,1.27765,1.32094,1.30585,1.28068,1.24741,1.26909,1.27166,1.34588,1.34438,1.28324,1.23628,1.24648,1.23807,1.24303,1.21954,1.27005,1.2323,1.23358,1.21904,1.22252,1.19886,1.21155,1.19493,1.19456,1.21276,1.20098,1.20471,1.19003,1.21731,1.21899,1.22285,1.2367,1.21159,1.22376,1.22189,1.21822,1.24345,1.2456,1.24651,1.24746,1.25906,1.26035,1.35429,0.0036867,1.47275,1.35342,1.35793,1.35603,1.36031,0.00349901,1.37413,1.37896,1.38085,1.38424,1.38199,1.38583,1.38646,1.3917,1.39457,1.39465,0.00358074,0.00347533,1.44848,1.41048,1.40963,1.4125,1.51107,1.46166,1.4392,1.43767,1.44638,1.45374,1.45244,1.46151,1.46702,1.46653,1.47025,1.47479,1.47446,1.47587,1.48319,1.48842,1.48869,1.48814,1.49357,1.49695,1.49902,1.54019,1.53953,1.5188,1.52731,1.5289,1.52866,1.53452,1.54388,1.54256,1.54205,1.54428,1.55126,1.55485,1.5571,1.59588,1.59558
0.446013,0.447762,0.445354,0.456085,0.441675,0.443317,0.445167,0.444994,0.449964,0.449987,0.450688,0.451799,0.472381,0.00355577,0.476692,0.475847,0.476412,0.47712,0.473701,0.0036718,0.498138,0.492814,0.493628,0.494078,0.494227,0.491733,0.495148,0.500006,0.497289,0.499935,0.492857,0.493499,0.50169,0.501205,0.500676,0.517839,0.518408,0.520871,0.521261,0.523126,0.524398,0.52113,0.518746,0.52959,0.529995,0.534073,0.535482,0.538572,0.540151,0.542731,0.545726,0.543951,0.54408,0.545244,0.544156,0.00347758,0.573881,0.574511,0.583285,0.582149,0.586483,0.587951,0.587865,0.588923,0.589961,0.593261,0.606045,0.612942,0.614147,0.61549,0.616364,0.614686,0.629472,0.631017,0.630006,0.632424,0.633573,0.642827,0.639199,0.643636,0.643998,0.648862,0.641901,0.643514,0.644942,0.669045,0.653424,0.629686,0.628289,0.663884,0.628815,0.627909,0.64436,0.633314,0.652727,0.6663,0.646459,0.65323,0.656557,0.646993,0.65215,0.669656,0.670328,0.671424,0.694096,0.729518,0.713337,0.763243,0.776602,0.753529,0.757787,0.773002,0.830808,0.832461,0.86819,0.914382,0.925429,0.939616,0.984266,1.03613,1.03943,1.03915,1.07034,1.05282,1.07633,1.08897,1.09577,1.13786,1.13163,1.15382,1.20512,1.18538,1.21365,1.22357,1.22366,1.24106,1.2674,1.27178,1.29163,1.30414,1.30111,1.3045,1.30046,1.30376,1.29458,1.25661,1.25509,1.26845,1.33516,1.27865,1.31267,1.3239,1.33077,1.326,1.34372,1.36307,1.34055,1.3334,1.33538,1.35133,1.3755,1.34258,1.41284,1.4235,1.34329,1.35458,1.35776,1.37075,1.45986,1.4152,1.41538,1.44018,1.44396,1.37828,1.37946,1.38222,1.34634,1.34423,1.34125,1.34081,1.33799,1.34339,1.35812,1.34999,1.36776,1.36581,1.35438,1.33402,1.31941,1.31771,1.29507,1.29486,1.30277,1.2878,1.30862,1.31831,1.30606,1.27909,1.28884,1.29576,1.27041,1.2684,1.24457,1.25777,1.25095,1.25052,1.27385,1.23237,1.23722,1.22324,1.22557,1.23001,1.22877,1.2207,1.20963,1.23668,1.22796,1.21969,1.21562,1.23294,1.23631,1.21837,1.21942,1.21786,1.19909,1.20562,1.20307,1.19934,1.21154,1.22207,1.23055,1.22182,1.22306,1.21885,1.21859,1.26141,1.27328,1.21489,1.21451,1.21511,1.33636,1.33531,1.34348,1.35107,1.34965,1.35298,1.35574,0.00354575,1.3711,1.37549,1.37724,1.38464,1.38372,1.38646,1.39071,1.39164,1.3934,1.3891,1.39068,1.39512,1.44731,1.44715,1.40993,0.00345524,1.41955,1.43066,1.43501,1.43487,1.4422,1.44571,1.48339,0.00360868,1.46521,1.46508,1.47037,1.46935,1.47131,1.47629,1.4776,1.48177,1.48778,1.48606,1.49625,1.49465,1.49982,1.53855,1.57829,1.5214,1.52135,1.52996,1.53253,1.53275,1.53666,1.54559,1.52681,1.51405,1.53351,1.54479,1.55239,1.55252
0.00339812,0.444483,0.444705,0.439383,0.442305,0.442259,0.441486,0.442762,0.451851,0.44987,0.451347,0.449275,0.450117,0.45618,0.466249,0.466432,0.467854,0.468105,0.472427,0.466504,0.467965,0.475473,0.46968,0.490278,0.493426,0.491151,0.49001,0.490962,0.490331,0.492642,0.486355,0.490929,0.493157,0.500684,0.504188,0.50829,0.510373,0.511849,0.512443,0.511394,0.511355,0.508076,0.515193,0.51617,0.51542,0.527539,0.52807,0.532262,0.536724,0.54061,0.536012,0.543683,0.546981,0.545199,0.544895,0.544627,0.543761,0.0038261,0.562916,0.581752,0.584749,0.584844,0.584702,0.586192,0.585126,0.586832,0.585368,0.585406,0.602675,0.604144,0.61471,0.615664,0.616647,0.616581,0.628569,0.63155,0.629235,0.632516,0.63879,0.656698,0.642244,0.643314,0.645392,0.646617,0.646966,0.637144,0.677587,0.6343,0.632043,0.619682,0.625401,0.635835,0.639399,0.634799,0.661689,0.664286,0.66404,0.663172,0.665473,0.666763,0.673702,0.673141,0.671623,0.691875,0.664626,0.649822,0.650239,0.647723,0.648833,0.749419,0.751954,0.75234,0.845779,0.849935,0.874093,0.873876,0.905893,0.945954,0.975866,0.977329,0.989324,1.01649,1.05335,1.04968,1.0846,1.12411,1.11954,1.1312,1.17353,1.1647,1.20186,1.21299,1.2375,1.24098,1.24704,1.25713,1.25482,1.27456,1.26912,1.28474,1.31436,1.32091,1.33041,1.28397,1.26035,1.25188,1.25146,1.27521,1.27513,1.30912,1.31039,1.31875,1.37514,1.32663,1.33697,1.34764,1.38498,1.34563,1.35068,1.3389,1.35014,1.33171,1.35281,1.34679,1.34069,1.36592,1.35125,1.34037,1.34326,1.37141,1.46467,1.41505,1.41121,1.38623,1.38599,1.37482,1.43125,1.38206,1.38458,1.3638,1.33519,1.33577,1.37673,1.35803,1.36817,1.3376,1.33245,1.34763,1.35141,1.32672,1.31642,1.3058,1.30892,1.31303,1.28676,1.31177,1.30125,1.28092,1.28723,1.27591,1.28502,1.25946,1.26692,1.23815,1.24313,1.2458,1.24758,1.22062,1.19002,1.217,1.20041,1.20242,1.22237,1.21541,1.21904,1.21981,1.21138,1.21435,1.21629,1.24142,1.20082,1.1973,1.22221,1.18485,1.17844,1.21342,1.19234,1.19288,1.21634,1.20579,1.2149,1.1997,1.18851,1.18578,1.19602,1.20994,1.20379,1.23591,1.23795,1.32243,1.3211,1.43253,1.33465,1.33681,1.34689,1.34912,1.3501,1.36689,1.36803,1.36765,1.36812,1.3715,1.52424,1.80029,1.38879,1.38913,1.39038,1.39061,1.3902,1.42058,0.00351198,1.43043,1.44947,1.41185,1.46874,1.42008,1.42118,1.47137,1.44036,1.44064,1.44774,1.446,0.00322708,1.45342,1.45966,1.46807,1.46812,1.46999,1.50271,1.5069,1.48791,1.48684,1.49027,1.49351,1.49847,1.49659,0.0035734,1.54903,1.51951,1.52113,1.52135,1.52072,1.53386,1.53298,1.53338,1.53752,1.5448,1.55296,1.54942,1.55215
0.408695,0.412044,0.405241,0.409537,0.417772,0.418015,0.418048,0.431953,0.43293,0.00344411,0.424556,0.446616,0.448247,0.439459,0.447991,0.44802,0.448661,0.449194,0.45006,0.449778,0.450076,0.46804,0.46868,0.468376,0.470163,0.485922,0.486913,0.488897,0.489175,0.488701,0.486743,0.48735,0.49542,0.505223,0.506924,0.507979,0.508362,0.509878,0.513892,0.513378,0.513287,0.513579,0.515289,0.515895,0.517396,0.516588,0.532981,0.535538,0.536952,0.537347,0.529928,0.539334,0.539019,0.539821,0.542058,0.541881,0.541178,0.540842,0.540086,0.56493,0.569186,0.575269,0.577175,0.577694,0.583067,0.587621,0.588331,0.00348641,0.603875,0.604403,0.604715,0.610086,0.60656,0.612264,0.626058,0.628892,0.63143,0.630268,0.635602,0.636502,0.643896,0.652616,0.647548,0.652222,0.652238,0.652744,0.642898,0.671358,0.681265,0.647326,0.626695,0.628201,0.629129,0.636495,0.644726,0.639177,0.695221,0.663864,0.712312,0.715219,0.673295,0.680601,0.655124,0.651879,0.656423,0.653548,0.652068,0.653154,0.654512,0.654673,0.75146,0.75249,0.835384,0.847084,0.835075,0.874479,0.919864,0.912627,0.914302,0.95646,0.955222,0.985766,0.978756,1.02585,1.07147,1.07038,1.07454,1.13985,1.14832,1.17974,1.18003,1.20995,1.21587,1.23055,1.23611,1.24701,1.25533,1.25713,1.27653,1.30854,1.26096,1.29497,1.29585,1.4431,1.27526,1.26496,1.26378,1.26808,1.26303,1.30087,1.29406,1.31221,1.29897,1.30018,1.32279,1.34831,1.30914,1.31291,1.33455,1.34654,1.34826,1.36491,1.3454,1.37139,1.3641,1.36456,1.36703,1.36923,1.36105,1.38086,1.38011,1.38325,1.39843,1.39813,1.36947,1.38129,1.39492,1.38232,1.37487,1.3741,1.36947,1.35605,1.33401,1.32727,1.32197,1.32323,1.34072,1.34317,1.32047,1.32509,1.32332,1.31981,1.29335,1.30239,1.28873,1.29337,1.28939,1.31324,1.26425,1.26551,1.28049,1.28063,1.28626,1.26449,1.23416,1.2166,1.2157,1.21592,1.21065,1.21305,1.19739,1.22023,1.21961,1.21603,1.20661,1.20687,1.20477,1.19893,1.19813,1.18891,1.18429,1.18157,1.18809,1.1958,1.16656,1.18008,1.19828,1.19847,1.20093,1.19646,1.18072,1.18489,1.18712,1.18806,1.18119,1.21137,1.2006,1.20119,1.26699,1.26049,1.25127,1.32037,1.33042,1.33373,1.33914,1.3392,1.34322,1.34557,1.36432,1.36805,1.37421,1.36878,1.37051,1.37718,1.3786,1.3862,1.38479,1.38816,1.38813,1.39067,1.39255,1.39693,1.39599,1.40247,1.41712,1.4231,1.42189,1.42078,1.42587,1.47093,1.43856,1.4451,1.44361,1.62685,1.49178,0.00341012,1.4617,1.48631,1.469,1.47452,1.48186,1.48859,1.48858,1.48802,1.49763,1.49895,1.49691,1.49635,1.54905,1.5224,1.51951,1.52136,1.52319,1.53002,1.53669,1.5379,1.54383,1.54945,1.5467,1.55143
0.411077,0.00375115,0.41502,0.40873,0.408072,0.40819,0.40721,0.414893,0.417838,0.417243,0.41872,0.419657,0.425445,0.426177,0.431643,0.447108,0.445147,0.448807,0.448429,0.448266,0.448544,0.466272,0.466504,0.468757,0.469317,0.470664,0.469125,0.472963,0.471157,0.49074,0.49332,0.493515,0.494669,0.49777,0.502636,0.505145,0.506097,0.506808,0.507555,0.513321,0.513799,0.514206,0.511586,0.51257,0.511776,0.513919,0.515311,0.519084,0.521359,0.527676,0.530897,0.532134,0.53333,0.54131,0.539444,0.542313,0.544557,0.54759,0.54797,0.56407,0.569963,0.569558,0.576012,0.57619,0.576987,0.00357085,0.587479,0.58394,0.587521,0.589794,0.600689,0.59899,0.602258,0.610487,0.610706,0.611066,0.622276,0.626017,0.629443,0.628553,0.63924,0.642165,0.645426,0.64861,0.650062,0.667376,0.662886,0.662565,0.650117,0.648366,0.656683,0.660015,0.629325,0.629019,0.642403,0.635685,0.631856,0.659322,0.689491,0.650557,0.650352,0.674709,0.662817,0.653152,0.674769,0.652779,0.649398,0.649828,0.653021,0.726752,0.76432,0.753137,0.74383,0.746574,0.838235,0.908776,0.893871,0.889439,0.89679,0.954444,0.949314,1.00202,1.00276,1.00598,1.05713,1.04243,1.08079,1.16994,1.1592,1.161,1.17934,1.18459,1.19047,1.204,1.20892,1.23028,1.23299,1.20368,1.207,1.23344,1.23105,1.25631,1.25168,1.26062,1.26839,1.24392,1.2677,1.2661,1.2568,1.26938,1.32687,1.29917,1.30059,1.36676,1.36674,1.31809,1.32926,1.31143,1.31026,1.30562,1.30747,1.31255,1.31906,1.31924,1.31962,1.32026,1.35841,1.34598,1.36336,1.37214,1.37169,1.38739,1.38511,1.39869,1.36871,1.39345,1.37282,1.37433,1.41263,1.41203,1.40577,1.40628,1.35812,1.34329,1.33192,1.33033,1.34039,1.33003,1.32145,1.30656,1.30622,1.30224,1.31915,1.30684,1.27319,1.26223,1.26159,1.25679,1.25635,1.23007,1.23633,1.24005,1.2126,1.21437,1.21572,1.21032,1.21129,1.20292,1.1992,1.15629,1.16134,1.16422,1.15971,1.19155,1.18936,1.19294,1.21951,1.18775,1.186,1.18424,1.18604,1.17479,1.17795,1.16191,1.18256,1.18761,1.17616,1.17709,1.17924,1.19151,1.18359,1.17565,1.17524,1.17705,1.20638,1.24381,1.19915,1.18849,1.18959,1.25368,1.25388,1.25506,1.32171,1.32251,1.32858,1.33756,1.34205,1.34366,1.34399,1.34763,1.35665,1.35858,1.3655,1.37298,1.37223,1.38007,1.3843,1.38319,1.38788,1.41196,1.4163,1.39777,1.39591,1.3976,1.40587,1.45376,1.4495,1.41929,1.41842,1.41842,1.43333,1.43214,1.43375,1.43276,1.48645,1.45185,0.00331996,1.4614,1.46862,0.00416677,0.0033429,1.48013,1.48482,1.4844,1.48686,1.51704,1.49777,1.49838,1.50609,1.50435,1.51695,1.51907,1.51919,1.51959,0.00347044,1.53218,1.53816,1.5375,1.54681,1.54782
0.390069,0.392368,0.404542,0.40658,0.407233,0.406591,0.406786,0.403161,0.415645,0.417259,0.420491,0.421126,0.422427,0.427014,0.421178,0.0034217,0.442344,0.441526,0.44492,0.446153,0.453763,0.459345,0.459615,0.465429,0.466383,0.468703,0.468425,0.470376,0.472916,0.47968,0.481056,0.488638,0.487452,0.487676,0.49042,0.490725,0.495385,0.498311,0.499967,0.49879,0.501982,0.510079,0.509845,0.510265,0.514748,0.516804,0.517793,0.518447,0.519063,0.519577,0.521787,0.525274,0.527282,0.528064,0.53887,0.542561,0.548761,0.551347,0.552525,0.5578,0.560288,0.560729,0.560887,0.561957,0.563071,0.566225,0.576941,0.576729,0.580612,0.586747,0.588134,0.591457,0.597299,0.601805,0.607355,0.609334,0.624465,0.624019,0.624488,0.627579,0.632224,0.632461,0.631805,0.641149,0.642356,0.643229,0.656052,0.659212,0.659158,0.649964,0.616134,0.618676,0.618687,0.603786,0.642122,0.611476,0.6363,0.645809,0.622216,0.627841,0.627375,0.678133,0.683951,0.697411,0.659695,0.645951,0.646703,0.651017,0.651578,0.712245,0.72491,0.722985,0.729655,0.737825,0.736205,0.756826,0.890264,0.892099,0.884857,0.926703,0.950045,0.952194,1.00203,1.00623,1.03497,1.03685,1.09525,1.09428,1.13924,1.13988,1.15619,1.20645,1.1964,1.19603,1.19112,1.21975,1.22165,1.22687,1.20878,1.20759,1.21043,1.23682,1.25343,1.23453,1.2345,1.23477,1.25039,1.25743,1.25065,1.2712,1.27472,1.27745,1.30306,1.29959,1.30232,1.30562,1.30675,1.30407,1.31697,1.31817,1.30522,1.31291,1.39665,1.37844,1.34278,1.32647,1.33406,1.34392,1.33745,1.35208,1.35262,1.35907,1.37433,1.38694,1.40516,1.4046,1.37811,1.35839,1.35849,1.35293,1.32692,1.32649,1.32712,1.33937,1.32992,1.32963,1.3157,1.31529,1.33626,1.30252,1.29648,1.29862,1.24847,1.25414,1.25371,1.24458,1.24636,1.2486,1.23703,1.25024,1.21261,1.20901,1.21678,1.20271,1.183,1.18578,1.18903,1.19137,1.19489,1.19536,1.1375,1.1286,1.13428,1.12515,1.14182,1.16104,1.17029,1.1647,1.18098,1.15407,1.15693,1.18977,1.16735,1.17032,1.16016,1.15995,1.16315,1.18082,1.18453,1.18463,1.18567,1.18823,1.18803,1.2178,1.18955,1.20522,1.20234,1.20556,1.20856,1.24068,1.31202,1.31445,1.31681,1.32081,1.32562,1.33283,1.33298,1.33826,1.34467,1.34357,1.36847,1.37614,1.38159,1.36905,1.36913,1.37699,1.37654,1.37809,1.41132,1.38855,1.38637,1.39017,1.39204,1.39459,1.49636,1.40733,1.40641,1.40733,1.41353,1.41256,1.41303,1.51419,1.5195,0.00356665,0.00377029,0.00376386,1.45755,1.45761,1.46068,1.46754,1.47396,1.47537,1.47993,1.48502,1.4845,1.49735,1.49666,1.50639,1.50603,1.5063,1.50166,1.53573,1.51692,1.51771,1.53483,1.53427,1.53369,1.53735,1.54241,1.5443
