0.335202,0.336079,0.336226,0.343026,0.341714,0.340508,0.347879,0.346795,0.34519,0.335219,0.335959,0.340352,0.362672,0.366209,0.372754,0.375364,0.37547,0.378496,0.379325,0.384033,0.384687,0.385215,0.384883,0.396363,0.393887,0.00330985,0.404074,0.419737,0.422131,0.425133,0.428672,0.428455,0.441737,0.442576,0.443264,0.454726,0.454561,0.463851,0.46482,0.465263,0.46535,0.464614,0.469004,0.475376,0.478173,0.480357,0.482631,0.00355024,0.486286,0.486525,0.489048,0.491055,0.491446,0.493415,0.485732,0.479976,0.481862,0.00322996,0.0034917,0.493445,0.494203,0.49417,0.508712,0.509245,0.513122,0.517112,0.525859,0.52809,0.522447,0.523144,0.539675,0.541295,0.54218,0.542475,0.537997,0.536722,0.537588,0.53696,0.54534,0.00339785,0.549778,0.571232,0.573678,0.57654,0.575429,0.575136,0.57947,0.581745,0.00366138,0.0033759,0.602223,0.605207,0.607426,0.608596,0.616133,0.617232,0.00340305,0.00355372,0.00369398,0.638993,0.646182,0.00355875,0.649888,0.00336393,0.670265,0.674696,0.679358,0.68136,0.683878,0.685696,0.684994,0.684677,0.683092,0.676282,0.675809,0.677235,0.705745,0.707385,0.701481,0.680882,0.691257,0.683252,0.674556,0.67443,0.663447,0.682873,0.678176,0.700953,0.683745,0.701654,0.701111,0.745574,0.725661,0.763403,0.800271,0.788829,0.84566,0.853824,0.862322,0.893392,0.873529,0.871504,0.883955,0.91899,0.912276,0.919618,0.926376,0.926939,0.944933,0.953598,0.951662,0.963918,0.991715,1.02162,1.01686,1.01943,1.06128,1.06291,1.0536,1.05465,1.06843,1.07394,1.08556,1.09579,1.11561,1.11823,1.09845,1.08949,1.02944,1.0651,1.05763,1.06635,1.02916,1.04371,1.03689,1.03481,1.02296,1.02675,1.02667,1.01595,0.998784,1.02248,1.03007,1.03328,1.03693,0.99758,0.9954,0.996307,0.99547,0.985878,0.975854,1.06173,0.985057,0.981738,0.987584,0.988662,0.973458,0.979298,0.954252,0.944056,0.944174,0.949955,0.998063,1.00308,1.00455,0.998531,0.996017,1.01851,1.03849,1.02032,1.02378,1.04649,1.01352,1.07468,1.07706,1.06372,1.06466,1.09925,1.10391,1.10432,1.17062,1.16357,0.00328289,0.00360492,1.17407,1.17378,1.17376,1.175,1.18799,1.18939,1.20039,1.20675,1.21089,1.2164,1.21677,1.22108,1.22334,1.22998,1.23608,1.23706,1.24036,1.34949,1.25677,1.25986,1.25985,1.30193,1.30239,1.28195,1.28584,1.29477,0.00364431,0.00310976,1.30924,1.31571,1.31307,1.31943,1.31945,1.32239,1.3273,1.33596,1.34286,1.34393,1.34539,1.35822,1.35816,1.39109,1.37516,1.38022,1.37977,1.38694,1.38788,1.41579,1.40046,1.40505,1.40264,1.40872,1.4121,1.4232,1.44674,1.43018,1.43354,1.43631,1.43701,1.43731,1.43681,1.43987,1.44094,0.00326085,0.00347161,1.46809,1.47636,1.47959,1.47944,1.4862,1.48487,1.49027,1.49187,1.49861,1.49641,1.4966
0.335311,0.335623,0.336499,0.336263,0.336043,0.33794,0.344502,0.345007,0.344897,0.344778,0.343345,0.348035,0.349351,0.34916,0.362554,0.374074,0.376629,0.37935,0.381535,0.382571,0.383388,0.385151,0.389464,0.394218,0.394409,0.4023,0.406678,0.418542,0.417821,0.418539,0.425383,0.426074,0.430607,0.429841,0.444079,0.4443,0.44485,0.00363336,0.46363,0.463862,0.00342891,0.462403,0.00365062,0.00362527,0.00341137,0.456115,0.0033582,0.448053,0.00317732,0.0035651,0.00345067,0.479931,0.48064,0.481355,0.482677,0.483597,0.483674,0.483253,0.492649,0.495068,0.497666,0.497239,0.500157,0.507684,0.514245,0.517366,0.00328863,0.512059,0.512626,0.52242,0.531122,0.531791,0.532595,0.533565,0.535485,0.536943,0.539594,0.538864,0.549433,0.551896,0.553884,0.564078,0.566582,0.567318,0.573349,0.57429,0.577237,0.577914,0.58027,0.600368,0.600902,0.603339,0.604373,0.612121,0.615375,0.619488,0.00350255,0.624957,0.632166,0.641028,0.640167,0.648493,0.648129,0.64914,0.649614,0.738591,0.663224,0.665991,0.682306,0.682935,0.685028,0.684755,0.682074,0.683468,0.680354,0.694802,0.69569,0.696866,0.697745,0.716108,0.719287,0.679705,0.678111,0.69679,0.671562,0.656932,0.65498,0.660458,0.663743,0.694363,0.674341,0.673821,0.697752,0.733962,0.746335,0.777519,0.794444,0.809957,0.812953,0.859842,0.850312,0.877742,0.891826,0.861994,0.882367,0.88896,0.881659,0.881742,0.863703,0.907584,0.916015,0.916564,0.97139,0.984309,0.994554,0.98525,0.995073,1.03402,1.02481,1.01784,1.06076,1.072,1.07823,1.05524,1.05064,1.0398,1.03954,1.01904,1.02164,1.02966,1.0134,0.994983,1.018,0.99802,1.00623,1.00064,1.00158,1.00643,0.989478,1.01721,1.00986,1.00887,0.985329,1.00102,1.00286,0.996332,1.01014,1.00801,0.995968,1.0093,1.14638,1.03713,0.979303,0.985931,0.991481,1.00152,1.00057,1.00453,0.962485,0.949472,0.935942,0.938853,0.943939,0.981273,0.980513,0.987716,1.02952,1.00897,1.0077,1.05804,1.06443,1.04931,1.08462,1.0849,1.10684,1.07971,1.08094,1.08577,1.08719,1.13284,1.16109,0.00336918,1.15472,1.15964,1.16465,1.17089,1.17144,1.17871,1.18134,1.18224,1.22261,1.20556,1.20805,1.21237,1.21644,1.21752,1.22007,1.22068,1.22234,1.32681,1.23375,1.24328,1.2434,1.33536,1.25712,1.36143,1.26923,1.27248,1.28108,1.28108,1.28937,1.29448,0.00374394,1.30699,1.30862,1.30862,1.31334,1.31727,1.32272,1.35175,1.33274,1.34721,1.34351,1.3491,1.34963,1.37574,1.36466,1.38722,1.3919,1.38251,1.39276,1.39456,1.39208,1.40228,1.40465,1.40666,1.41669,1.4177,1.41759,1.42709,1.44744,1.43619,1.43923,1.43851,1.44322,1.43947,1.4405,1.44006,1.44568,1.4961,1.46274,1.47657,1.47716,1.48246,1.48836,1.49539,1.49846,1.50013,1.50079,1.50119
0.335451,0.336255,0.336254,0.337557,0.336599,0.335003,0.335142,0.341946,0.343286,0.345616,0.338905,0.339108,0.345235,0.346981,0.363098,0.364031,0.376015,0.37859,0.379431,0.382927,0.383812,0.38493,0.390365,0.393253,0.395179,0.39804,0.408188,0.416824,0.418111,0.419193,0.420086,0.427789,0.433655,0.432697,0.432674,0.00349795,0.00337986,0.00357519,0.00334507,0.00359029,0.00371903,0.427179,0.427516,0.428102,0.425798,0.432776,0.445152,0.00347727,0.0037581,0.00330605,0.439107,0.439174,0.00366687,0.00310949,0.481515,0.00337068,0.482545,0.477256,0.476817,0.00342425,0.00337983,0.00355868,0.500568,0.00342531,0.00370162,0.490876,0.491961,0.491755,0.500413,0.00338818,0.525644,0.528743,0.52764,0.530606,0.530054,0.535921,0.543016,0.541329,0.54981,0.550715,0.55409,0.00356295,0.00380784,0.572985,0.573406,0.57659,0.583687,0.583935,0.585043,0.584643,0.589758,0.593647,0.590907,0.59303,0.596787,0.00323578,0.631942,0.00347858,0.627949,0.629655,0.630993,0.64716,0.648415,0.64996,0.650755,0.00356667,0.663308,0.667352,0.668348,0.669586,0.673125,0.67452,0.67465,0.677484,0.680122,0.680851,0.680708,0.674844,0.675233,0.675775,0.714963,0.713443,0.721293,0.676376,0.689184,0.643316,0.645698,0.646931,0.697934,0.686649,0.676424,0.680351,0.696853,0.696877,0.697765,0.715465,0.762799,0.792632,0.784775,0.784309,0.799369,0.832207,0.82367,0.843662,0.817999,0.851139,0.843246,0.864633,0.852479,0.866107,0.893386,0.87801,0.905084,0.932477,0.956468,0.962612,0.966841,1.00921,1.01188,0.974014,0.997028,0.99487,0.992657,1.02964,1.05068,1.0791,1.08085,1.07851,1.01632,1.00114,1.00489,0.99053,1.02003,0.984786,0.969811,0.972755,0.974815,0.988125,1.00836,0.998742,0.985125,0.976692,0.987826,0.988402,0.991641,1.00543,0.994274,0.971401,0.973038,0.980675,0.994853,0.980308,0.980286,0.982535,0.984467,0.997018,0.998236,0.988251,0.974648,0.968376,0.946777,0.946559,0.938009,0.977505,0.980792,0.981354,0.998754,1.01565,1.00393,1.03179,1.04983,1.0573,1.09361,1.07581,1.0792,1.08013,1.07802,1.10177,1.10495,1.13709,1.13898,1.15245,1.14994,1.15174,1.16398,1.16669,1.17071,1.17441,1.17574,1.17658,1.17851,0.00337648,1.20228,1.20234,1.2078,1.213,1.21545,1.21821,1.21947,1.22371,1.22982,1.23326,1.2627,1.24833,1.25054,1.25305,1.25461,1.26782,0.00369786,0.0035103,0.00316309,0.00350226,1.29251,1.30064,1.30193,1.30852,1.30859,1.31254,1.31485,1.31749,1.3235,1.333,1.3338,0.00347075,1.38152,1.37218,1.43542,1.36848,1.37117,1.37567,1.3772,1.38802,1.39491,1.39487,1.40173,1.40676,1.40887,1.41133,1.41878,1.41569,1.42703,1.42806,1.42815,1.44036,1.44094,1.4349,1.43745,1.44098,1.44238,1.44382,1.45175,1.51645,1.51361,0.00311501,1.51262,1.48692,1.49529,1.50175,1.49953,1.49849
0.332396,0.336131,0.323851,0.338279,0.325863,0.326421,0.32667,0.341752,0.341219,0.33636,0.335838,0.336357,0.336784,0.346635,0.356139,0.355073,0.366616,0.371783,0.370628,0.370322,0.380953,0.388967,0.389888,0.393798,0.39425,0.395952,0.407322,0.408193,0.408398,0.417509,0.00328865,0.00364468,0.00351788,0.401981,0.00353215,0.394524,0.393448,0.397392,0.403408,0.00356342,0.00367031,0.426884,0.427867,0.426894,0.428045,0.426404,0.427176,0.428123,0.429822,0.43277,0.4376,0.441287,0.442147,0.451045,0.450089,0.45215,0.453737,0.453077,0.455244,0.455358,0.458922,0.461634,0.462003,0.463421,0.471628,0.472273,0.472727,0.483873,0.00336084,0.502551,0.503863,0.00348958,0.528107,0.52933,0.530946,0.53132,0.545812,0.546072,0.548406,0.550497,0.552142,0.00348345,0.00341809,0.00342584,0.570823,0.571376,0.579992,0.580931,0.581892,0.58147,0.00346,0.590886,0.590673,0.593164,0.59237,0.588958,0.0030725,0.00366722,0.00344661,0.00351594,0.00352602,0.00377811,0.00330083,0.00355286,0.00343494,0.00383176,0.00341039,0.662876,0.665106,0.660137,0.670768,0.672545,0.673678,0.676398,0.675974,0.674115,0.675027,0.675813,0.675722,0.675351,0.732281,0.733578,0.725524,0.725459,0.708556,0.708388,0.643577,0.645343,0.675297,0.673518,0.66049,0.677267,0.684095,0.697883,0.705254,0.70821,0.726309,0.72483,0.76138,0.763703,0.775007,0.805599,0.815259,0.813476,0.790672,0.801632,0.802153,0.801716,0.804277,0.891222,0.886838,0.859598,0.881999,0.884893,0.921647,0.970456,0.967232,0.967497,0.96739,0.928996,0.941482,0.950155,0.948947,0.95618,1.04304,1.04445,1.04499,1.08449,0.984566,0.988489,1.04009,1.01705,1.01821,0.959825,0.954337,0.960771,0.956325,0.965439,0.992154,0.992865,0.991893,0.979577,0.991789,0.942547,1.00196,0.988969,0.970546,0.970539,0.971008,0.968885,1.00956,0.978442,0.980571,0.972917,0.974462,0.966735,0.987192,0.943198,0.943787,0.990895,0.949901,0.95659,0.967718,0.960686,0.966874,0.967365,0.971482,1.0013,1.02707,1.02546,1.05612,1.07131,1.10373,1.10515,1.07788,1.0905,1.14271,1.11903,1.12937,1.13138,1.1384,1.14114,1.15649,1.15424,1.1609,1.16398,1.16878,1.17395,1.17411,1.17631,1.18483,1.18698,1.18775,1.21084,1.20106,1.20978,1.21024,1.21217,1.21526,1.21948,1.22187,1.24814,0.00353213,1.24415,1.24399,1.24568,0.00345805,1.26029,1.26217,1.2893,1.2796,0.00358168,0.00319384,0.00331966,1.30312,1.30596,1.30611,1.30623,1.31174,1.31442,1.31611,1.32421,1.32566,1.34981,0.00321425,1.37149,0.00325005,0.00337392,0.00340708,1.36309,1.37165,1.3771,1.37727,1.40816,1.40305,1.39921,1.40287,1.39972,1.40683,1.41797,1.42196,1.4239,0.0037344,1.44534,1.44468,1.4414,1.43694,1.43981,1.43918,1.44525,1.44452,1.44853,1.51198,1.51227,0.00343859,1.48456,1.48845,1.48542,1.49216,1.49532
0.331601,0.331284,0.335532,0.334386,0.325226,0.324654,0.340702,0.3407,0.338999,0.344965,0.332346,0.348018,0.348085,0.351278,0.353166,0.365479,0.365691,0.367817,0.367326,0.37069,0.370929,0.00353482,0.00366566,0.392981,0.394273,0.393405,0.403039,0.403424,0.00353625,0.00346512,0.379351,0.0034733,0.00336279,0.00366134,0.399875,0.394413,0.395191,0.394306,0.398558,0.399833,0.399803,0.423608,0.421896,0.423551,0.424051,0.424663,0.426267,0.427653,0.429863,0.430834,0.434639,0.436059,0.444395,0.445785,0.448475,0.448797,0.447915,0.450263,0.451575,0.449773,0.449847,0.45121,0.459619,0.467205,0.468752,0.469498,0.468613,0.00345117,0.490055,0.494562,0.00342896,0.00361452,0.00368193,0.00340629,0.528161,0.003425,0.00375296,0.529461,0.529501,0.0035322,0.539063,0.0033765,0.00339796,0.00333168,0.56387,0.565108,0.56629,0.562641,0.562906,0.00365231,0.0034298,0.585503,0.586392,0.584972,0.586842,0.587506,0.5887,0.00357275,0.750626,0.00334843,0.609063,0.611901,0.612841,0.613955,0.00372462,0.00332765,0.627881,0.629205,0.630508,0.00351248,0.00358467,0.660762,0.662738,0.664499,0.671625,0.672774,0.67246,0.671497,0.672329,0.673703,0.715033,0.702314,0.704232,0.703236,0.732266,0.724395,0.739136,0.663504,0.651423,0.653739,0.677286,0.660724,0.688788,0.721931,0.68754,0.715434,0.70549,0.722236,0.711652,0.730934,0.779448,0.737164,0.73872,0.773892,0.787341,0.78818,0.763367,0.760696,0.769726,0.771223,0.835139,0.825377,0.824725,0.918382,0.915328,0.926103,0.932743,0.942739,0.900118,0.907551,0.906042,0.894442,0.92894,0.932963,0.923342,0.923342,0.96938,0.950209,0.964435,0.99142,0.983095,0.978302,0.952459,0.954158,0.938497,0.935134,0.936415,0.936041,0.940658,0.995339,1.00323,0.981559,0.978495,0.968275,0.948019,0.948796,0.967949,0.977436,0.95516,0.945911,0.954251,0.948704,0.947372,0.947947,0.94981,0.948965,0.950092,0.96058,0.931105,0.967173,0.925705,0.924762,0.964859,0.966443,0.968735,0.968576,0.970737,0.984356,1.01204,1.03088,1.04956,1.08729,1.08496,1.10582,1.07339,1.11202,1.1059,0.00342142,1.1301,1.1315,1.13691,1.1398,1.15056,1.14967,1.1522,1.24333,1.16487,1.17123,1.17399,1.18094,1.17793,1.1795,1.18141,1.18419,1.1825,1.21262,1.22339,1.20232,1.20808,1.20922,1.21199,1.21938,1.22386,1.22703,1.23363,1.23605,1.24365,1.31989,1.32193,0.00348636,1.26703,1.275,1.27581,1.31934,1.29384,1.29814,1.29922,1.30404,1.30983,1.31285,1.31321,1.31162,1.31374,0.00356202,1.35757,1.35812,1.34984,1.34377,1.37406,1.35838,1.36377,1.36598,1.37424,1.3824,1.38436,0.00367044,1.40123,1.40148,1.43721,0.0035638,1.41942,1.42593,1.42599,1.43763,1.44016,1.44178,1.43787,1.43632,1.44042,1.44045,1.4419,1.44136,1.51594,1.46196,1.4621,1.49913,1.4793,1.48138,1.48073,1.48179
0.331065,0.332202,0.332234,0.324425,0.325662,0.33986,0.340926,0.342835,0.343157,0.344651,0.344769,0.344966,0.342315,0.353497,0.355446,0.35586,0.355917,0.364205,0.359023,0.369796,0.371484,0.369459,0.00326243,0.385715,0.38648,0.00344672,0.00340044,0.00359409,0.00340269,0.00340035,0.360808,0.359894,0.00330232,0.39038,0.00330989,0.392668,0.393525,0.397029,0.396633,0.398965,0.399992,0.400429,0.401356,0.418357,0.410771,0.414504,0.424404,0.428693,0.429051,0.430201,0.430965,0.434656,0.433996,0.436924,0.441853,0.443691,0.444987,0.445205,0.445784,0.44627,0.448988,0.449962,0.454987,0.456577,0.457153,0.457065,0.456426,0.478685,0.00313176,0.491509,0.00338383,0.506933,0.510844,0.507364,0.509204,0.512312,0.515722,0.525766,0.522756,0.522104,0.535101,0.537916,0.00330129,0.00346925,0.00342288,0.00360851,0.559945,0.00354188,0.557826,0.556914,0.555741,0.00329645,0.566233,0.563637,0.569456,0.604941,0.0033146,0.00354436,0.0032558,0.00379289,0.597891,1.08182,0.00327164,0.00365555,0.616599,0.619128,0.625252,0.626281,0.626038,0.62744,0.00318336,0.00349163,0.00349989,0.003562,0.00348474,0.00341228,0.667514,0.669407,0.671952,0.6728,0.675167,0.666839,0.666988,0.707335,0.707288,0.679969,0.732628,0.687379,0.718745,0.653527,0.672346,0.712928,0.694579,0.710913,0.725774,0.725273,0.728546,0.717372,0.69961,0.701216,0.733681,0.721501,0.722477,0.741994,0.725617,0.74601,0.763387,0.75382,0.755229,0.766761,0.783257,0.823328,0.80119,0.811073,0.849855,0.880315,0.887871,0.873662,0.877741,0.856151,0.853514,0.855703,0.896819,0.894964,0.901218,0.907771,0.891866,0.917024,0.942119,0.954326,0.960501,0.961167,0.94829,0.907231,0.908734,0.95065,1.00666,0.915039,0.938442,0.939773,0.960611,0.981699,0.946322,0.946815,0.993117,1.00577,0.946958,0.95776,0.96972,0.947033,0.945862,0.946322,0.98085,0.980818,0.951011,0.95387,0.957752,0.957514,0.962909,0.955573,0.932168,0.925406,0.940898,0.958385,0.959992,0.969278,0.971704,1.02049,1.03447,1.07845,1.08194,1.07072,1.05255,1.05288,0.00350965,1.12874,0.00316053,0.00343984,0.00341799,1.13052,1.13636,1.13542,1.13643,1.13964,1.14486,1.14911,0.00336261,1.16106,1.16734,1.16772,1.16729,1.17248,1.17486,1.17631,1.17818,1.18191,1.18456,1.76604,1.20305,1.20582,1.21019,1.21504,1.21911,1.22775,1.23202,1.22939,1.22786,1.22914,0.00351374,1.28003,1.24617,1.40822,1.28583,1.27064,1.27617,1.30016,0.00340577,1.29319,1.29165,1.29479,1.32669,1.3069,1.31157,1.3182,1.31866,1.32311,0.00320139,1.34381,1.34369,1.37966,1.35928,1.3677,1.3709,1.37549,1.37503,1.38635,1.40788,1.41981,1.413,1.43034,0.00321603,1.41728,1.41689,1.42688,1.43003,1.4329,1.44087,1.43898,1.43745,1.4384,1.4401,1.43945,1.44113,1.44656,1.44548,1.51404,1.50913,1.47127,1.47488,1.47454
0.339153,0.339745,0.340125,0.337908,0.327381,0.325359,0.33219,0.340146,0.342699,0.345567,0.343303,0.345077,0.339511,0.323717,0.354712,0.355713,0.325501,0.326071,0.326991,0.358818,0.00356442,0.00335789,0.0036227,0.355833,0.353896,0.35483,0.357371,0.359023,0.359921,0.359448,0.358256,0.363954,0.364645,0.367328,0.369752,0.369042,0.369694,0.390756,0.39061,0.390607,0.397147,0.400207,0.400045,0.403025,0.403893,0.412809,0.412111,0.429344,0.43026,0.432106,0.433852,0.433273,0.434253,0.439923,0.441943,0.444007,0.443096,0.445389,0.448343,0.448735,0.450174,0.452128,0.464888,0.465055,0.464919,0.466107,0.472272,0.472399,0.476404,0.00326808,0.00368139,0.0032997,0.5045,0.506196,0.510971,0.508915,0.51025,0.511551,0.512595,0.522189,0.524145,0.529143,0.529082,0.532249,0.533862,0.535042,0.536287,0.536955,0.537711,0.555474,0.557663,0.558976,0.560884,0.560351,0.569642,0.571374,0.581932,0.582155,0.582785,0.583002,0.594275,0.595374,0.597238,0.00346544,0.00351982,0.62193,0.624555,0.625793,0.627068,0.621765,0.627706,0.625741,0.0035665,0.00353345,0.00340774,0.00321119,0.66006,0.00335845,0.667357,0.669504,0.670046,0.672485,0.66301,0.656936,0.658648,0.659049,0.719725,0.725881,0.728487,0.739268,0.725268,0.715925,0.690681,0.698321,0.695567,0.729486,0.706208,0.712259,0.700837,0.704479,0.705817,0.708759,0.738831,0.73778,0.745892,0.724354,0.726819,0.726977,0.770302,0.740389,0.76188,0.805515,0.7948,0.792414,0.799391,0.803113,0.834956,0.848999,0.869908,0.876948,0.878962,0.854575,0.860267,0.876938,0.866483,0.852849,0.867095,0.975924,0.973992,0.976297,0.912173,0.899346,0.883199,0.872565,0.911758,0.911738,0.891351,0.892209,0.907056,0.932639,0.921492,0.93806,0.9293,0.923159,0.925048,0.935791,0.929718,0.928831,0.929424,0.923746,0.971578,0.932378,0.946453,0.942456,0.952008,0.945764,0.944467,0.954606,0.939149,0.982161,0.984712,0.939388,0.941211,0.966835,0.969986,1.05531,1.0698,1.07183,1.07648,1.08342,1.09137,1.07388,1.06985,1.07272,1.07401,1.11146,1.11421,1.11781,1.1246,1.12634,1.12986,1.13802,1.14005,1.14375,1.14466,1.14803,1.15173,0.00342425,1.35149,1.3527,1.17123,1.17467,1.17476,1.18047,1.18285,1.18498,1.19227,1.19333,1.19559,0.00323334,0.00361063,1.21499,1.22226,1.23318,1.22784,1.23277,1.23312,1.23655,1.23738,1.24451,1.25462,1.25624,1.28847,1.28627,1.29674,1.3047,1.28371,1.28595,1.28774,1.28653,1.29133,1.33777,1.31544,1.31503,1.32321,1.32501,1.32964,1.33836,1.33971,0.00336083,0.00337223,0.00319642,1.36936,1.37072,1.37023,0.00324706,1.40307,0.00327253,1.38989,1.39462,0.00327727,1.43226,1.42993,0.0034924,1.42976,1.43125,1.43447,1.43707,1.43938,1.43539,1.43977,1.44837,1.44822,1.45799,1.45568,1.45959,0.00332527,0.00359854,1.52095,1.52317
0.343333,0.343879,0.3095,0.338559,0.336289,0.338059,0.345892,0.346123,0.346855,0.349232,0.345584,0.319327,0.00364105,0.0036915,0.321302,0.328044,0.32845,0.335796,0.335952,0.337088,0.338678,0.00317288,0.0034125,0.361461,0.362377,0.362216,0.365383,0.364632,0.366096,0.366374,0.36547,0.363962,0.37395,0.37599,0.376971,0.380045,0.382922,0.381561,0.384166,0.383919,0.400925,0.408345,0.409222,0.410118,0.409963,0.405524,0.405316,0.404781,0.407642,0.434789,0.410609,0.411191,0.438926,0.442743,0.00359467,0.441064,0.441166,0.44043,0.44175,0.443134,0.446466,0.44982,0.469185,0.470811,0.469961,0.476224,0.473398,0.47382,0.473167,0.0034674,0.00334829,0.00355779,0.00355253,0.00358427,0.00336377,0.5126,0.514494,0.513793,0.00324846,0.0037141,0.00333248,0.532519,0.524731,0.539017,0.541993,0.542464,0.543125,0.532108,0.533213,0.532654,0.00342873,0.00359031,0.560435,0.563173,0.562835,0.580279,0.580695,0.581115,0.00347547,0.592091,0.594446,0.595688,0.602496,0.603007,0.602769,0.614796,0.623712,0.624927,0.625077,0.628465,0.630705,0.632912,0.632962,0.632878,0.634928,0.633274,0.00353717,0.00341523,0.00355747,0.00336597,0.666256,0.664644,0.667262,0.669362,0.669615,0.67436,0.731244,0.733769,0.734933,0.735726,0.740074,0.741221,0.745823,0.747355,0.736423,0.71179,0.717552,0.728428,0.709024,0.709372,0.711056,0.736358,0.75444,0.735529,0.732006,0.759274,0.774401,0.773016,0.73919,0.750637,0.75946,0.749039,0.821617,0.797282,0.796348,0.821226,0.810648,0.807715,0.818539,0.836395,0.819814,0.847521,0.84692,0.859588,0.852596,0.852878,0.853459,0.856012,0.868665,0.865737,0.864973,0.874486,0.883856,0.863855,0.894477,0.884498,0.897869,0.898571,0.898659,0.908773,0.949908,0.926198,0.928773,0.925048,0.926489,0.960101,0.942046,0.906489,0.901469,0.918983,0.925064,0.91265,0.913815,0.932146,0.938633,0.949783,0.969932,1.00345,1.00881,1.0087,0.991036,0.99498,0.991362,1.03202,1.03219,1.03325,1.0519,1.04729,1.05756,1.06054,1.08175,1.08466,0.00342797,1.10207,1.10595,1.11175,1.11337,1.18737,1.12905,1.12977,1.13517,1.13958,1.14184,1.14642,1.15329,1.15129,1.15399,1.15682,0.00352759,1.17246,1.17509,1.17669,1.17808,1.18523,1.18687,1.19158,1.19921,1.20229,1.20332,1.20398,1.20478,1.21092,1.21623,1.33774,1.33673,1.23661,1.23721,1.24278,1.24825,1.25366,1.25695,1.25954,1.31225,1.28164,1.28227,1.28818,1.29182,1.29149,1.28678,1.29337,1.29225,1.29403,0.00328908,1.33814,1.32324,1.32725,1.33031,1.33131,1.33583,1.35874,1.44359,1.35676,1.35877,1.36103,1.36329,1.37067,1.37624,1.37734,1.38185,0.00333801,1.42381,1.42009,0.00318907,1.58286,1.58179,1.43623,1.43681,1.44175,1.43872,1.44148,1.44497,1.44638,1.45001,1.45747,1.45776,1.45874,1.45939,1.47188,1.47959,1.47844
0.307006,0.315394,0.308726,0.317177,0.317137,0.308878,0.309517,0.00332313,0.00348829,0.321693,0.314632,0.316511,0.320694,0.311986,0.31187,0.311901,0.336414,0.335265,0.33828,0.338461,0.344277,0.346379,0.347923,0.361949,0.362029,0.362245,0.364046,0.364308,0.36853,0.369221,0.369864,0.370136,0.370334,0.376421,0.377392,0.384086,0.385469,0.386219,0.386217,0.387147,0.378464,0.00352257,0.410923,0.00323682,0.407728,0.395185,0.397009,0.404156,0.404225,0.404589,0.405616,0.406678,0.417022,0.421185,0.422046,0.00350044,0.437722,0.442023,0.444685,0.443267,0.442787,0.445396,0.454645,0.457246,0.458111,0.458256,0.4567,0.458283,0.463935,0.473837,0.476096,0.479307,0.47652,0.47679,0.486944,0.486673,0.488466,0.00359724,0.501066,0.00338602,0.00362525,0.518066,0.528608,0.532518,0.534465,0.528077,0.529398,0.53276,0.535702,0.541296,0.542643,0.545876,0.00347346,0.00365871,0.00356812,0.00326891,0.579483,0.581107,0.581776,0.590474,0.592034,0.600517,0.599058,0.607723,0.608518,0.609074,0.609256,0.00350544,0.615161,0.00325535,0.632633,0.631571,0.635551,0.638121,0.637677,0.637053,0.638469,0.641776,0.648427,0.650128,0.652736,0.657319,0.657485,0.657326,0.691866,0.699053,0.701937,0.702867,0.704032,0.702406,0.701994,0.702785,0.750461,0.701937,0.760295,0.760522,0.725287,0.763091,0.762003,0.75371,0.771053,0.722837,0.756542,0.733464,0.735116,0.74313,0.745272,0.749533,0.737728,0.737086,0.733826,0.736143,0.781232,0.784364,0.783074,0.779686,0.778036,0.793395,0.83974,0.81546,0.814382,0.798012,0.790973,0.791747,0.814562,0.81671,0.84972,0.846127,0.843369,0.853789,0.859293,0.859123,0.859989,0.856792,0.87772,0.861497,0.864337,0.854072,0.86369,0.872752,0.855046,0.872087,0.870897,0.871305,0.888413,0.903564,0.902133,0.888885,0.930526,0.917881,0.921894,0.919647,0.92943,0.974102,0.958885,0.983209,0.984688,0.971634,0.971498,0.97412,1.00761,1.00392,1.06309,1.01544,1.03178,1.0354,1.03652,1.04003,1.06051,1.06911,1.06878,1.08564,1.09495,1.09635,1.10198,1.10369,1.11284,1.11371,1.1173,1.12229,1.12929,1.13231,1.14201,1.14776,1.14874,1.14776,1.15105,1.16189,1.1663,1.16677,1.16842,1.17339,1.17362,1.17924,1.17981,1.18497,1.21895,1.21629,0.00359939,0.00303501,0.00342777,0.00365911,1.21535,0.0031829,1.23212,1.24083,1.23991,1.24366,1.24498,1.24627,1.24935,1.27644,1.27492,1.26795,1.2702,1.2743,1.27574,1.2753,1.28467,1.29124,1.28995,1.29498,1.30224,1.30659,1.31718,1.3191,1.32044,1.32024,1.3282,1.35533,1.36879,0.00335081,1.43678,1.37517,1.36286,1.36472,1.37073,1.36888,1.37818,1.40779,1.39247,0.0032207,0.00334811,0.00346986,1.44467,1.42745,1.42879,1.43216,1.46133,1.4385,1.44062,1.44286,1.44377,1.4474,1.45677,1.45574,1.45884,1.46413,1.46458,1.5074
0.307365,0.305001,0.308955,0.310433,0.310553,0.311885,0.312648,0.313172,0.312013,0.311826,0.315134,0.316368,0.316457,0.316953,0.314066,0.311865,0.320622,0.322664,0.32802,0.335825,0.336827,0.339924,0.00348869,0.00320372,0.363229,0.365046,0.366853,0.366747,0.368063,0.370144,0.370345,0.370214,0.369393,0.368065,0.360659,0.376371,0.379812,0.376342,0.369075,0.367892,0.368434,0.373113,0.374606,0.396641,0.00340699,0.398804,0.397131,0.400329,0.404872,0.407767,0.408729,0.407822,0.409069,0.410405,0.410227,0.874099,0.00342006,0.434661,0.438608,0.439443,0.00337947,0.00336105,0.00343881,0.454868,0.45178,0.458981,0.453265,0.456548,0.459089,0.460259,0.455377,0.476353,0.00342438,0.0034739,0.473797,0.476315,0.477466,0.477462,0.00310689,0.00331839,0.00356387,0.511124,0.514508,0.515788,0.527781,0.52801,0.52902,0.532101,0.536091,0.536855,0.535536,0.541841,0.543262,0.553531,0.556763,0.562961,0.56481,0.5688,0.569771,0.577823,0.578441,0.580939,0.587179,0.591183,0.593131,0.594114,0.595145,0.00363262,0.614591,0.615456,0.619812,0.00338532,0.00341401,0.637551,0.638454,0.640476,0.64192,0.643351,0.00338445,0.00383523,0.666654,0.668855,0.669409,0.00369136,0.00335146,0.700369,0.701767,0.702329,0.704272,0.705327,0.707654,0.712154,0.706877,0.707144,0.706713,0.705977,0.761593,0.766505,0.767819,0.767499,0.777147,0.774632,0.756731,0.784225,0.799218,0.799401,0.741915,0.795458,0.749678,0.751682,0.752729,0.751513,0.774511,0.767962,0.801185,0.779095,0.794518,0.797768,0.790907,0.813001,0.794155,0.793934,0.782421,0.788978,0.788192,0.808289,0.810672,0.815825,0.832371,0.832536,0.856717,0.837877,0.83977,0.817045,0.818691,0.814709,0.831517,0.833029,0.833803,0.847861,0.822608,0.852266,0.853963,0.878024,0.875626,0.887183,0.901486,0.898853,0.919543,0.905355,0.908828,0.930287,0.934539,0.938476,0.913156,0.956677,0.969751,0.973141,0.970352,0.992222,1.0213,1.0305,1.04412,1.04626,1.02918,1.05797,1.03602,1.03728,1.06512,1.07176,1.07835,1.0888,1.09226,1.09567,1.10285,1.10604,1.11334,1.11448,1.12418,1.12699,1.1287,1.1297,1.13101,1.137,1.13881,1.14173,0.0035284,1.14747,0.00358989,1.15703,1.16233,1.16463,1.167,1.16954,1.17582,1.18027,1.17976,1.1839,1.1864,1.19361,1.19524,1.20594,1.21042,1.21506,1.21596,0.00332058,1.26167,1.24062,1.24058,1.24265,1.2838,0.00359391,1.2642,1.26409,1.26374,1.26401,1.27211,1.27737,1.2779,1.28439,1.28987,1.29469,1.30309,1.30669,1.31731,1.32087,1.31896,1.32607,1.32363,1.32746,1.33777,1.34009,1.34673,1.35415,1.35489,1.35863,1.3927,1.35961,1.40263,1.40903,0.003503,0.00360598,1.41748,1.42031,0.00341761,1.4163,1.44359,0.0041066,0.00353684,1.43433,1.43939,1.43814,1.44045,1.44744,1.489,0.00390928,0.00337442,1.46243,1.45808,1.45988
0.303293,0.305917,0.307519,0.306937,0.309837,0.310404,0.310203,0.31064,0.310439,0.3108,0.312007,0.317007,0.317003,0.315637,0.314068,0.316746,0.316681,0.322144,0.00349171,0.334375,0.00309623,0.00354364,0.00342094,0.00341468,0.0034854,0.00344688,0.00357799,0.363667,0.362638,0.353243,0.345423,0.355295,0.356843,0.356139,0.357694,0.00352063,0.357093,0.363222,0.363943,0.36493,0.366177,0.365537,0.360351,0.364996,0.391188,0.387715,0.387018,0.389538,0.387757,0.395897,0.396361,0.39545,0.395309,0.41025,0.410041,0.411838,0.414216,0.41693,0.417488,0.417979,0.424147,0.00366336,0.00341277,0.446436,0.447552,0.00366565,0.448888,0.444249,0.445383,0.446718,0.445391,0.00341131,0.456497,0.467916,0.468485,0.474165,0.475738,0.476839,0.476326,0.00356881,0.00355181,0.502483,0.515007,0.517342,0.517409,0.518345,0.524518,0.531748,0.530648,0.533892,0.00362502,0.539391,0.540653,0.552431,0.559935,0.563169,0.563745,0.565966,0.568036,0.569217,0.570291,0.578589,0.585599,0.587825,0.590321,0.592391,0.0036566,0.00342663,0.00357641,0.609558,0.609473,0.00330888,0.626463,0.627809,0.629105,0.630731,0.636678,0.00332886,0.647556,0.651308,0.0036713,0.0033689,0.00363366,0.00376578,0.00341085,0.00332964,0.690969,0.69502,0.70065,0.707255,0.70966,0.711197,0.719658,0.721054,0.720963,0.756514,0.75729,0.759501,0.769339,0.76654,0.770175,0.746376,0.775323,0.777472,0.78946,0.725932,0.794461,0.792815,0.793977,0.795081,0.742856,0.742525,0.742912,0.754799,0.787204,0.78823,0.778013,0.797421,0.797309,0.801531,0.770846,0.779,0.778629,0.785301,0.771786,0.774196,0.776918,0.779076,0.797544,0.806013,0.821772,0.809742,0.81443,0.815338,0.821884,0.811847,0.81517,0.81661,0.829798,0.830634,0.836847,0.863936,0.85281,0.854693,0.877111,0.877758,0.87039,0.883346,0.89774,0.898477,0.903304,0.902011,0.912826,0.94031,0.932339,0.922122,0.969607,1.01839,1.01505,0.981726,1.0084,1.01085,1.01589,1.01998,1.026,1.04437,1.04862,1.05416,1.05556,1.07796,1.08369,1.08557,0.00365836,1.09285,1.09766,1.10515,1.10661,1.10904,1.1115,1.11349,0.0034029,0.00373498,1.12498,1.12333,1.12389,1.1291,1.13356,1.1353,1.13742,1.14656,1.15409,1.1546,1.1606,1.16801,1.17268,1.17785,1.18058,1.18793,0.00343161,1.1951,1.19778,1.20308,1.20831,1.20983,1.21307,1.21514,1.21669,1.22952,1.23227,0.00353533,1.27788,1.25572,1.25732,1.25731,1.26039,1.28588,1.27142,1.27457,1.27795,1.2842,1.28557,1.29118,1.29099,1.32637,1.31589,1.31503,1.31195,1.3204,1.32546,1.32719,1.32698,1.33294,0.00348963,1.33826,1.33691,1.38888,1.3862,1.35603,1.38821,1.39759,1.39911,0.00353687,1.39384,1.39463,1.39688,1.40469,1.40392,0.00316539,0.00353437,1.45093,1.42764,1.42955,1.42957,1.4285,1.52972,1.47381,1.47071,1.455,1.45359,1.45434
0.297407,0.296893,0.299906,0.300952,0.304763,0.304653,0.303564,0.305199,0.294573,0.293709,0.307098,0.31066,0.314266,0.314364,0.00342902,0.297006,0.311719,0.318271,0.00353103,0.313951,0.00339385,0.00365016,0.00356692,0.0032349,0.00336507,0.326597,0.00339033,0.00370607,0.340857,0.341387,0.341052,0.341687,0.317409,0.318226,0.35534,0.351863,0.352472,0.355636,0.359365,0.361795,0.360853,0.361324,0.358424,0.358297,0.356417,0.361832,0.362427,0.383192,0.387092,0.388382,0.393793,0.391595,0.39077,0.391928,0.405058,0.391729,0.00327018,0.410478,0.400678,0.404668,0.405209,0.00354155,0.424044,0.00364655,0.409731,0.00351079,0.432399,0.434132,0.439795,0.4426,0.44262,0.44401,0.451731,0.452169,0.453683,0.463488,0.463968,0.466852,0.475952,0.476815,0.477889,0.481027,0.00341189,0.510692,0.511782,0.512529,0.510669,0.51145,0.513117,0.51392,0.513128,0.532638,0.535304,0.537735,0.54403,0.54472,0.560338,0.561654,0.562038,0.563648,0.566014,0.567001,0.00317198,0.581454,0.58149,0.580267,0.590988,0.593352,0.597576,0.600394,0.603762,0.0036741,0.616288,0.623473,0.625139,0.626351,0.627686,0.629389,0.64189,0.642639,0.642759,0.644301,0.00351305,1.17459,0.00323135,0.00373863,0.00353706,0.690864,0.692157,0.693712,0.704201,0.706848,0.71618,0.7177,0.719207,0.720724,0.72182,0.760594,0.757696,0.758934,0.765856,0.769903,0.732191,0.731512,0.780265,0.725492,0.787596,0.742283,0.749948,0.756608,0.780306,0.765959,0.767249,0.757407,0.775624,0.815993,0.775525,0.782688,0.787288,0.765055,0.767335,0.763492,0.765419,0.782966,0.768218,0.771315,0.770385,0.800817,0.795135,0.79529,0.821733,0.843756,0.833545,0.836507,0.836461,0.82133,0.82234,0.81573,0.818492,0.835074,0.832019,0.832155,0.905799,0.856187,0.847806,0.849364,0.899389,0.909314,0.900738,0.89228,0.909311,0.943004,0.904746,0.973905,0.943263,0.961867,0.948567,0.950615,0.954169,1.01682,1.02023,1.02876,1.01245,1.04575,1.04847,1.0514,1.05005,1.0526,1.06154,1.06381,1.08079,1.08169,1.08067,1.08533,1.08813,1.09176,1.09345,1.09668,1.09625,1.10916,1.10308,1.10575,1.10892,1.11486,1.11709,1.12006,1.12895,1.14946,1.13732,1.14107,1.14531,1.14657,1.15144,1.29811,0.00327355,1.19278,1.17641,1.18098,1.18497,1.19061,1.19314,0.0036125,1.20033,1.20759,1.20662,1.21218,1.2097,1.20858,1.26131,1.22727,1.22944,1.25701,1.24772,1.25318,1.2638,1.26334,1.26789,1.27234,1.27339,1.27623,1.28175,1.28258,1.28798,1.29227,1.29363,1.30136,1.30354,1.33449,1.31898,1.31976,1.31872,1.31939,1.32304,1.32526,1.33431,1.33678,1.34609,1.34719,1.35369,1.36393,1.36395,0.00376522,1.3774,1.38386,1.38334,1.39439,1.39643,1.39876,1.40357,1.40279,1.44771,1.41937,1.41951,1.42018,1.4211,1.42268,1.47238,1.4715,1.45078,1.44967
0.283397,0.282542,0.280319,0.00317249,0.286396,0.272611,0.00351154,0.291409,0.292785,0.292804,0.293338,0.290428,0.289789,0.288943,0.289439,0.270755,0.270557,0.28417,0.310214,0.28701,0.00356954,0.00345594,0.00341874,0.00330152,0.00354124,0.00361238,0.00328657,0.323658,0.00336775,0.338382,0.338965,0.333507,0.315856,0.315836,0.317448,0.321053,0.00364442,0.353135,0.356799,0.357082,0.358447,0.356904,0.357106,0.358481,0.358554,0.360338,0.361791,0.360904,0.360135,0.361279,0.36097,0.386232,0.387495,0.38601,0.387261,0.388618,0.390056,0.394157,0.399898,0.403246,0.400233,0.402355,0.393246,0.401979,0.402709,0.401502,0.425733,0.428788,0.438027,0.439944,0.441468,0.442643,0.448231,0.450819,0.451492,0.459173,0.459557,0.466443,0.465714,0.474569,0.472078,0.00350061,0.00336528,0.496526,0.496574,0.00319342,0.50854,0.510466,0.511792,0.512506,0.514725,0.534514,0.53351,0.534149,0.534132,0.538221,0.540861,0.542061,0.54818,0.54876,0.559346,0.560951,0.564238,0.571814,0.574544,0.575162,0.577044,0.00354468,0.59076,0.0035957,0.00358545,0.604561,0.00315345,0.619635,0.624511,0.625264,0.625727,0.628197,0.638903,0.641603,0.642553,0.644609,0.645347,0.00341066,0.659815,0.00332176,0.00349739,0.00357822,0.68871,0.690583,0.691531,0.00336891,0.714689,0.716824,0.71859,0.722897,0.728198,0.728573,0.728655,0.734498,0.734248,0.731495,0.72921,0.736164,0.734061,0.793957,0.791997,0.774057,0.766622,0.728911,0.756439,0.758579,0.80375,0.797414,0.7587,0.809893,0.766937,0.791373,0.790434,0.778687,0.795254,0.77312,0.76649,0.767397,0.790201,0.815919,0.801592,0.795165,0.812926,0.829247,0.813685,0.808851,0.843411,0.853401,0.833038,0.822838,0.823543,0.826016,0.84998,0.831957,0.833865,0.866641,0.876908,0.892155,0.881238,0.875366,0.87003,0.870381,0.876979,0.938664,0.94265,0.970403,0.9729,0.948778,0.961746,0.959259,0.975474,0.951159,0.952516,1.01511,1.00323,1.00743,1.01048,1.01994,1.02988,1.0367,1.04952,1.05243,1.05446,1.05608,0.00360783,0.00342093,1.07763,1.07989,1.08247,1.08164,1.08506,1.08796,1.09169,1.09463,1.09998,1.10825,1.10995,1.11219,1.11534,1.11664,1.12333,1.13016,1.13253,1.13363,1.13919,1.13993,1.14152,1.15055,1.15471,1.25691,1.16976,1.17064,1.17816,1.18237,1.18755,1.19142,1.19559,1.20203,1.20357,1.20694,1.20778,1.2047,1.20532,1.21702,1.22236,1.23655,1.23771,1.251,1.25611,1.2578,1.28336,1.27113,1.27145,1.27464,1.27706,1.28369,1.28463,1.28895,1.29278,1.2975,1.29771,1.29985,1.30327,1.33618,1.31325,1.31353,1.31706,1.31885,1.3235,1.33378,1.33458,1.3685,1.34468,1.35011,1.43124,1.38294,1.38807,1.39249,1.3908,1.38995,1.3906,1.39603,1.40086,1.41583,1.40848,1.40885,1.40594,1.40596,1.41628,1.41877,1.42594,1.42707,1.43688,1.43756
0.255231,0.254892,0.254771,0.25539,0.261707,0.263658,0.272532,0.287712,0.289877,0.289775,0.287434,0.288995,0.289637,0.287969,0.287167,0.271924,0.272195,0.283752,0.286445,0.287974,0.28713,0.288273,0.286206,0.0036134,0.00365691,0.00365764,0.0033912,0.00337448,0.00348757,0.317548,0.317432,0.304884,0.318373,0.315405,0.316122,0.319387,0.323277,0.00333447,0.0033197,0.350332,0.353609,0.353865,0.355885,0.356971,0.358265,0.359852,0.359863,0.357173,0.357449,0.360283,0.362384,0.361781,0.36104,0.360924,0.380019,0.380486,0.390535,0.388235,0.396472,0.398953,0.399589,0.399908,0.534523,0.395419,0.403387,0.409751,0.00330992,0.415387,0.424933,0.0033169,0.43936,0.429961,0.430536,0.430955,0.443332,0.452725,0.456372,0.460223,0.463502,0.464085,0.469111,0.469633,0.470591,0.47226,0.473695,0.00339747,0.00335743,0.502838,0.503739,0.512052,0.512206,0.00382926,0.528731,0.531166,0.00345933,0.537798,0.541105,0.542195,0.542305,0.551073,0.553555,0.553644,0.563636,0.564168,0.57305,0.573407,0.00325046,0.584714,0.585452,0.58717,0.588896,0.598905,0.00354291,0.00359382,0.00353414,0.620348,0.619943,0.632108,0.633053,0.64251,0.643303,0.651937,0.00328632,0.655739,0.00347122,0.00391703,0.672873,0.68124,0.687951,0.690729,0.692493,0.0032813,0.00344234,0.712098,0.713232,0.720231,0.728558,0.729575,0.735236,0.735776,0.738554,0.741658,0.742628,0.744927,0.732684,0.734158,0.734579,0.755679,0.00355647,0.808446,0.773905,0.775625,0.781127,0.781327,0.78145,0.786679,0.78767,0.791202,0.790918,0.819111,0.822485,0.799654,0.784823,0.785595,0.790317,0.800323,0.801871,0.850079,0.83334,0.881129,0.886526,0.852649,0.887607,0.872144,0.870692,0.856571,0.847012,0.842685,0.83633,0.863891,0.895561,0.896769,0.895169,0.918412,0.907535,0.890918,0.892901,0.889113,0.932954,0.938961,0.938717,0.956511,0.958227,0.959777,0.973677,0.976141,0.980736,0.982241,0.979883,0.974881,0.975496,1.06478,1.02245,1.02223,1.03328,1.03286,1.03535,1.03625,1.05061,1.05189,0.0035872,0.00361979,0.00333884,1.06019,1.06812,1.07452,1.07896,1.08351,1.08486,1.08721,1.09238,1.26303,1.10443,1.10697,1.11318,1.11416,1.12004,1.122,1.12515,1.12705,1.13331,1.13438,1.1359,1.36015,1.14953,1.16151,1.16662,1.17095,1.17498,1.18193,1.18403,1.18975,1.19272,1.19683,1.20018,1.20292,1.20877,1.21106,1.20794,1.21093,0.00366906,0.00352428,0.00342349,0.00357543,1.25073,1.25644,1.26356,1.2805,1.26276,1.26091,1.26762,1.27481,1.27759,1.28429,1.28201,1.28729,1.28719,1.29273,1.30167,1.30312,1.30308,1.31138,1.31114,1.31357,1.32558,1.32683,1.33136,1.35932,1.33772,1.34455,1.35411,1.35619,1.36515,1.36541,1.38866,1.38239,1.38264,1.39432,1.39849,1.40153,1.40478,1.40831,1.40819,1.40747,1.40291,1.45737,1.45156,1.42789,1.42797,1.43981
0.244442,0.255759,0.255069,0.255849,0.258207,0.247596,0.266531,0.25422,0.25193,0.252429,0.252634,0.268417,0.269139,0.276833,0.25747,0.261635,0.258886,0.258595,0.259882,0.284312,0.284695,0.283777,0.00386275,0.00324645,0.266996,0.00339838,0.00387516,0.288693,0.287978,0.298794,0.309276,0.311004,0.311148,0.310537,0.308905,0.30775,0.321644,0.328498,0.325432,0.329978,0.332455,0.339142,0.341243,0.344499,0.340882,0.344489,0.344568,0.354041,0.358667,0.361663,0.3616,0.363133,0.364573,0.363924,0.360695,0.381371,0.38249,0.384362,0.387519,0.389537,0.39417,0.394586,0.396647,0.396419,0.398025,0.412483,0.418047,0.416994,0.41894,0.418796,0.422134,0.42572,0.430545,0.438372,0.445257,0.438666,0.439599,0.449642,0.450234,0.4511,0.457412,0.470028,0.473037,0.474747,0.476377,0.476666,0.476173,0.501062,0.510545,0.505306,0.507735,0.520511,0.523735,0.523187,0.528017,0.53812,0.535253,0.537511,0.540052,0.543567,0.551891,0.551733,0.555587,0.556753,0.00355914,0.00352176,0.573793,0.00325609,0.588982,0.590215,0.591152,0.59159,0.605057,0.608097,0.612597,0.614076,0.614379,0.00343245,0.00374911,0.00356246,0.645506,0.00326588,0.00356593,0.00357087,0.00326055,0.00338909,0.673835,0.674636,0.676305,0.675642,0.674428,0.00337487,0.696893,0.00335679,0.701061,0.00354,0.720242,0.72243,0.00351705,0.00317551,0.734949,0.00341864,0.747176,0.748756,0.752241,0.75548,0.756492,0.756088,0.747102,0.776272,0.777161,0.782813,0.788477,0.790492,0.792948,0.797283,0.801288,0.802739,0.808104,0.807553,0.80989,0.819664,0.819943,0.846572,0.850554,0.807016,0.819881,0.818626,0.82146,0.810784,0.88346,0.8848,0.886183,0.833035,0.834732,0.841554,0.842677,0.825507,0.882022,0.85652,0.909759,0.894549,0.918015,0.921016,0.921878,0.933598,0.934938,0.942924,0.946008,0.950109,0.940816,0.941194,0.954355,0.974574,0.978927,0.99233,0.995918,1.00064,1.00411,1.00358,1.00345,1.00829,1.02036,1.02193,1.02334,1.03772,1.03954,1.03978,1.04016,1.04556,1.04574,1.05485,1.05916,1.0607,1.06447,1.0656,1.07097,1.07688,1.07744,1.08603,1.08768,1.09276,1.10066,1.10514,1.11222,1.11204,1.11483,1.11896,1.12596,1.13107,1.13266,1.1385,1.14009,1.14938,1.15828,0.00340231,1.16821,0.00342415,1.20169,0.0035093,1.19083,1.33427,1.2127,0.00344671,1.21704,1.20898,1.21081,1.20811,1.20367,1.2024,1.20769,0.00358189,1.32016,1.2448,1.2424,1.24355,1.24815,1.24813,1.25064,1.27801,1.26166,1.26468,1.27257,1.27518,1.2781,1.28535,1.28678,1.29168,1.29565,1.29713,1.30482,1.30523,1.30611,1.34714,0.00357961,1.32256,1.32763,1.33151,1.33249,1.33648,1.3441,1.35113,1.35439,1.36714,1.36809,0.00346061,1.46557,1.39111,1.39629,1.39519,1.40052,1.40045,1.40257,1.40228,1.40002,1.40231,1.45783,1.42937,1.43052,1.43041
0.226948,0.247722,0.246246,0.24791,0.247986,0.249114,0.246506,0.255536,0.258829,0.257583,0.257853,0.246576,0.246527,0.24703,0.260084,0.2627,0.266648,0.268918,0.265499,0.266317,0.262521,0.263654,0.267504,0.267511,0.268403,0.270673,0.279679,0.287989,0.28873,0.289329,0.304098,0.30446,0.304315,0.313111,0.309162,0.00368299,0.00350863,0.321659,0.328576,0.325972,0.326854,0.326719,0.00327857,0.344462,0.344038,0.347835,0.346664,0.346729,0.349536,0.349245,0.351594,0.360062,0.365956,0.365663,0.365907,0.364701,0.363801,0.36806,0.376531,0.377288,0.391068,0.396054,0.396833,0.40086,0.404778,0.405345,0.414298,0.414266,0.419939,0.4209,0.422589,0.424141,0.428361,0.427192,0.429639,0.43224,0.44195,0.451037,0.452708,0.453524,0.459301,0.454913,0.463531,0.477368,0.476606,0.476256,0.474986,0.49514,0.507411,0.5085,0.00327705,0.521843,0.525878,0.526852,0.528355,0.531973,0.534662,0.538085,0.545617,0.548713,0.551529,0.553653,0.554206,0.561418,0.574073,0.576356,0.577561,0.578556,0.590627,0.591167,0.592168,0.596867,0.00329849,0.608916,0.60977,0.617607,0.619251,0.623458,0.62613,0.637852,0.638794,0.641763,0.00354795,0.00343412,0.666907,0.667981,0.669839,0.67134,0.673436,0.67991,0.679391,0.681742,0.683857,0.700579,0.703021,0.706286,0.00338543,0.716798,0.00349638,0.726841,0.0030873,0.739841,0.740469,0.743415,0.756937,0.760059,0.760166,0.767095,0.769447,0.771905,0.00333835,0.781284,0.790246,0.794891,0.795308,0.806616,0.809894,0.811019,0.813388,0.818898,0.820959,0.823583,0.825169,0.823008,0.821295,0.821761,0.836428,0.86781,0.836433,0.840486,0.842865,0.845056,0.862463,0.892551,0.90783,0.882186,0.882906,0.883972,0.920863,0.893912,0.895062,0.897119,0.899528,0.929802,0.928876,0.933615,0.933709,0.932981,0.956719,0.956801,0.966835,0.975482,0.978735,0.978436,0.982589,0.995433,0.998621,1.00144,1.00916,1.0067,1.00939,1.01278,1.01527,1.0152,1.03246,1.03605,1.03892,1.04087,1.0422,1.04354,1.04986,1.05242,1.05392,1.05806,1.06207,1.06495,1.07318,1.07846,1.08141,1.08193,1.0812,1.0906,0.00332649,1.11988,1.10743,1.112,0.00309191,1.1234,1.1309,1.1356,1.16035,1.13922,1.14131,1.14305,1.14378,1.14862,1.15749,1.21018,1.16931,1.1743,1.17747,1.18593,1.18905,1.1947,1.19799,1.20599,1.20942,1.21043,1.21271,1.21164,1.21195,1.2579,0.00347771,1.2418,1.2462,1.247,1.25094,1.25458,1.25537,1.26117,1.26333,1.26499,1.26939,1.27641,1.27649,1.2784,1.28303,1.28775,1.29134,1.29286,1.29526,1.2965,1.29786,1.30054,1.31544,1.31497,1.32144,1.33398,1.33338,1.34235,1.34203,1.3531,1.35434,1.36435,0.0033914,0.00348261,0.00343129,1.38783,1.38838,1.39333,1.3932,1.39875,1.40779,1.40551,1.4035,1.40697,1.41927,1.42541,1.42464,1.42373
0.229755,0.00334154,0.00353473,0.00339504,0.246843,0.00325747,0.227826,0.229692,0.229033,0.257012,0.238214,0.238061,0.249546,0.251126,0.251495,0.251547,0.251428,0.251761,0.249811,0.268477,0.262481,0.263092,0.248183,0.00349397,0.272364,0.272742,0.273516,0.279604,0.287639,0.282055,0.288704,0.289758,0.290648,0.293117,0.293721,0.294032,0.296051,0.00344812,0.00358374,0.0032239,0.327554,0.327936,0.325214,0.32599,0.339441,0.340985,0.341665,0.34071,0.347019,0.347607,0.351461,0.352473,0.354814,0.356112,0.356669,0.366219,0.368942,0.368827,0.36988,0.370295,0.380418,0.379815,0.389656,0.394261,0.397393,0.404563,0.407306,0.405496,0.406953,0.410227,0.41785,0.417904,0.421335,0.423149,0.423144,0.428858,0.430137,0.439458,0.442943,0.443946,0.445953,0.00340934,0.462103,0.467792,0.469631,0.473951,0.475277,0.00353349,0.00371228,0.00368995,0.521481,0.522696,0.525387,0.526999,0.529611,0.530199,0.538124,0.539277,0.545957,0.547282,0.548976,0.557054,0.557953,0.559658,0.574854,0.577392,0.580349,0.580111,0.582448,0.00324711,0.593255,0.00300736,0.604891,0.602826,0.603475,0.610294,0.607999,0.00345854,0.00366512,0.00346277,0.634529,0.635359,0.636682,0.00371164,0.00358814,0.665919,0.666519,0.669231,0.673171,0.674295,0.67665,0.678126,0.00351227,0.00356824,0.00335067,0.00348532,0.706479,0.711889,0.714238,0.00351812,0.0032926,0.732552,0.00356832,0.738618,0.00360737,0.00356312,0.743275,0.00341435,0.00358701,0.0033737,0.00331053,0.00350286,0.786127,0.787102,0.788222,0.00332729,0.00360795,0.0035791,0.825913,0.829446,0.832382,0.839803,0.834416,0.835308,0.850034,0.853203,0.854371,0.857056,0.856768,0.85835,0.0033757,0.880299,0.864687,0.865265,0.884693,0.887034,0.909681,0.916515,0.921544,0.927244,0.930425,0.921256,0.919025,0.922635,0.918707,0.00339785,0.00345804,0.954713,0.956735,0.00349744,0.974511,0.978475,0.980415,0.984175,0.992287,0.991396,0.998388,0.999665,1.00051,0.993029,0.992485,1.01587,1.01888,1.02221,1.02338,1.02462,1.03276,1.0373,1.03759,1.03998,1.06701,1.05125,1.05773,0.00337161,1.06837,1.07194,1.07567,1.08299,1.08744,1.08877,1.08922,1.09482,1.10106,1.10239,1.1055,1.10612,1.10741,1.10842,1.11563,1.12044,1.12215,1.12494,1.12628,1.12955,1.14167,1.14463,1.14791,1.1606,1.16708,1.16879,1.17732,1.1848,1.18493,1.18745,1.19667,1.20527,1.20556,1.20792,1.20792,1.2061,1.20981,1.24411,1.23874,1.23994,1.24435,1.24413,1.24374,1.24665,1.24988,1.25577,1.25848,1.26433,1.26625,1.27104,1.2721,1.27611,1.27749,1.282,1.2854,1.28844,1.29253,1.29316,1.29944,1.30046,1.3092,1.31848,1.32128,1.32711,1.3277,1.33061,1.33891,1.34059,0.00347754,1.35731,1.35859,1.48015,1.49005,0.00357747,1.3902,1.3916,1.39274,1.39578,1.39833,1.40098,1.4026,1.40315,1.41694,1.4174,1.42019,1.41922
0.202104,0.207678,0.210087,0.211696,0.21195,0.209973,0.210457,0.210396,0.231522,0.231277,0.231668,0.240556,0.241378,0.240699,0.238301,0.249484,0.252239,0.253268,0.25444,0.252663,0.254562,0.255928,0.236904,0.237844,0.237902,0.238775,0.260675,0.279226,0.280287,0.279995,0.282463,0.289745,0.28904,0.292851,0.290494,0.297423,0.298252,0.299434,0.298428,0.305513,0.306437,0.318229,0.325145,0.317984,0.329232,0.328648,0.331311,0.331354,0.00331018,0.351093,0.348282,0.342761,0.344346,0.354815,0.352027,0.35619,0.35666,0.357202,0.368881,0.370201,0.37227,0.373001,0.373083,0.394471,0.39926,0.397835,0.400852,0.401255,0.407375,0.407138,0.407548,0.410443,0.412484,0.417722,0.422595,0.42473,0.425679,0.00359506,0.00336798,0.45051,0.452734,0.454508,0.454289,0.00342772,0.475083,0.475554,0.477275,0.0037133,0.49745,0.498519,0.00327495,0.00362209,0.00307762,0.534326,0.534245,0.533505,0.540105,0.542819,0.546488,0.546562,0.549096,0.554703,0.55393,0.554034,0.560861,0.572934,0.572083,0.00359006,0.582869,0.581443,0.586817,0.587392,0.588061,0.603809,0.604415,0.604679,0.61434,0.614268,0.00336519,0.632566,0.634159,0.636785,0.00350846,0.64817,0.00335255,0.663829,0.667787,0.661538,0.669727,0.670157,0.675498,0.675184,0.00328966,0.00329699,0.00341371,0.703961,0.704624,0.713669,0.715439,0.00397665,0.00332249,0.727512,0.729069,0.73203,0.733883,0.736934,0.739545,0.745913,0.00363992,0.762105,0.00349897,0.00338504,0.00330137,0.00367248,0.00339732,0.801506,0.00339642,0.00385603,0.818565,0.821458,0.835546,0.838164,0.840849,0.846166,0.848567,0.850328,0.00329298,0.0034616,0.87143,0.877817,0.879306,0.881588,0.874756,0.896166,0.898442,0.905858,0.00327248,0.912542,0.914601,0.916644,0.919027,0.926124,0.931133,0.938461,0.946232,0.956928,0.95472,0.95426,0.953743,0.954976,0.964916,0.975124,0.979492,0.983427,0.986019,0.987127,0.992849,0.996861,1.0013,1.00119,0.998165,0.00343935,1.01589,1.02304,1.0255,1.025,1.02608,1.03364,1.0355,1.03892,1.04882,1.05134,1.0541,1.0614,1.06474,1.07176,1.07165,1.07657,1.07529,1.07974,1.18496,1.09187,1.09799,1.09751,1.10235,1.10521,1.10727,1.11267,1.11485,1.12183,1.12437,1.12837,1.12858,1.13646,1.13879,1.14306,0.00370205,0.00344575,0.00336752,1.17401,1.17412,1.18321,1.18801,1.18941,1.19483,1.20353,1.20306,1.20273,1.206,1.20885,1.20967,1.20885,0.00341278,1.23326,1.23732,1.2399,1.24008,1.24417,1.24988,1.25174,1.25491,1.26383,1.26394,1.26569,1.27111,1.27698,1.27589,1.27944,1.28593,1.28782,1.28904,1.29004,0.00338845,1.30686,1.3059,1.33301,1.31736,1.3223,1.32276,1.32699,0.00336884,1.33906,1.34142,1.34701,0.00325763,1.36945,1.36865,1.37622,1.38108,1.38704,1.39467,1.39469,1.39224,1.39588,1.40561,1.40575,1.41233,1.41344,1.41811,1.41729
0.200873,0.200303,0.212265,0.209021,0.213692,0.21277,0.211786,0.212014,0.221565,0.232038,0.23377,0.234964,0.236912,0.234732,0.235683,0.235285,0.25384,0.254041,0.248353,0.249249,0.249093,0.23812,0.239274,0.240746,0.242388,0.243488,0.242693,0.00352316,0.274415,0.00339236,0.27243,0.275353,0.284148,0.290732,0.290769,0.298885,0.296958,0.298413,0.301752,0.306279,0.305269,0.311815,0.316695,0.00352969,0.326579,0.00335487,0.33131,0.331524,0.00367853,0.339152,0.336329,0.344925,0.347862,0.34565,0.345957,0.346935,0.362121,0.361519,0.367211,0.372182,0.371954,0.370189,0.368966,0.369213,0.39287,0.400332,0.402197,0.404369,0.405645,0.410357,0.409235,0.412677,0.413177,0.414361,0.428124,0.431912,0.43807,0.00337105,0.446277,0.447002,0.449235,0.448581,0.449479,0.00345296,0.476186,0.47748,0.47751,0.477574,0.498186,0.501019,0.500957,0.00338105,0.00349525,0.534296,0.536157,0.538788,0.538802,0.540363,0.54602,0.54625,0.546532,0.548864,0.550588,0.554081,0.555505,0.560435,0.563762,0.566571,0.00342586,0.581568,0.584184,0.58427,0.590773,0.590344,0.600886,0.602282,0.607792,0.608705,0.609324,0.624316,0.634451,0.638188,0.633538,0.639179,0.652751,0.00318818,0.662656,0.661039,0.662319,0.662898,0.656726,0.00324703,0.00371511,0.690539,0.691188,0.694532,0.697695,0.00356142,0.00354813,0.71998,0.722079,0.724593,0.729919,0.731692,0.73575,0.739116,0.740972,0.741438,0.00353686,0.763364,0.763505,0.763366,0.780878,0.784144,0.00346671,0.00330038,0.00358883,0.00349904,0.0032649,0.826111,0.827773,0.831162,0.830277,0.845405,0.846016,0.84772,0.859661,0.862666,0.86419,0.867222,0.890146,0.878111,0.878706,0.899575,0.900318,0.00332764,0.917528,0.920014,0.923724,0.926161,0.926056,1.05901,0.00353203,0.942606,0.943968,0.950555,0.953535,0.953217,0.95255,0.958692,0.963535,0.967984,0.97379,0.975931,1.06095,0.00365175,0.003469,1.00208,1.00069,0.999446,1.08123,0.00371115,0.00344582,0.00350125,1.02045,1.02374,1.02027,1.02084,1.02234,1.0242,1.0411,0.0034445,0.00377189,1.04755,0.00350455,0.00341442,0.00318115,0.0033439,1.07712,1.07833,0.00345715,0.00331557,1.09383,1.09596,1.1011,1.10148,1.10344,0.00346923,1.11924,1.12549,1.12576,1.13196,1.13585,1.13947,1.14032,1.14173,1.14727,1.14936,1.15374,0.00349044,1.16706,1.17472,1.18188,1.18572,1.18916,1.19456,1.19799,1.20178,1.20215,1.2061,1.20822,1.21238,1.22623,1.23333,1.23327,1.23768,1.23839,1.2433,1.245,1.25086,1.25568,1.2579,1.26355,1.26395,1.2648,1.26654,1.27472,1.27898,1.2807,1.28329,1.28441,1.28402,1.28628,1.29677,1.3024,1.30878,1.31201,1.31277,1.31689,1.32522,1.3251,1.33337,1.33912,1.34413,1.35201,1.35724,1.36476,1.36475,1.48987,1.38002,1.37998,1.38161,1.37966,1.38675,1.38633,1.3963,1.39666,1.4412,1.42038,1.4197
0.199208,0.198091,0.191062,0.211951,0.212284,0.212456,0.21149,0.212621,0.00340348,0.234794,0.235207,0.237459,0.237413,0.237626,0.223157,0.234445,0.24712,0.249494,0.250745,0.251337,0.250735,0.248064,0.249233,0.249709,0.250531,0.244029,0.242457,0.240305,0.241558,0.237616,0.00338618,0.00378794,0.00335355,0.287298,0.289018,0.283633,0.284577,0.284927,0.302781,0.306661,0.309741,0.305219,0.303392,0.309681,0.310136,0.312303,0.313623,0.321872,0.330032,0.33186,0.332126,0.332801,0.34502,0.348132,0.348101,0.348784,0.348632,0.361586,0.369259,0.369208,0.368654,0.367463,0.372597,0.370777,0.370093,0.385488,0.386116,0.404798,0.40546,0.407223,0.411222,0.411984,0.412642,0.415368,0.425163,0.424229,0.424984,0.439246,0.442098,0.445694,0.447866,0.44884,0.450864,0.451194,0.00332487,0.467292,0.00345984,0.479789,0.491806,0.494329,0.495568,0.496382,0.515424,0.518169,0.518743,0.519419,0.542411,0.538514,0.540018,0.545934,0.548119,0.552157,0.553085,0.555333,0.557405,0.557892,0.560495,0.565118,0.56952,0.571386,0.573858,0.574574,0.00332671,0.59132,0.593246,0.59319,0.00328139,0.613936,0.614699,0.614836,0.00348269,0.630192,0.631231,0.00351442,0.636045,0.635147,0.647791,0.649666,0.651187,0.651902,0.653261,0.00327687,0.00333332,0.00351659,0.0036874,0.00375325,0.00339761,0.00337533,0.00350743,0.720354,0.722512,0.723929,0.728108,0.729432,0.733713,0.735995,0.73871,0.746677,0.00359179,0.76315,0.76442,0.00350003,0.00339919,0.00347062,0.786357,0.790045,0.791292,0.792242,0.796786,0.797356,0.818676,0.00359887,0.832997,0.836623,0.839544,0.842503,0.843695,0.860577,0.858919,0.852589,0.876559,0.867702,0.875029,0.887793,0.00341823,0.00362377,0.00347898,0.917816,0.921466,0.00362482,0.931299,0.933361,0.935668,0.937588,0.938741,0.947495,0.949772,0.95156,0.953658,0.950167,0.955823,0.960842,0.965312,0.966236,0.966217,0.973797,0.97695,0.978736,0.981669,0.00325956,1.0568,0.00335653,1.00147,1.00243,1.00922,0.00335294,1.02258,1.02051,1.02093,1.02199,0.0034285,1.03872,1.04195,1.04379,0.00350615,1.05052,1.0576,1.06116,1.06473,1.06745,1.0777,1.07999,0.0033646,1.09093,1.09144,1.09459,1.09822,1.09883,0.00326376,0.00376643,0.00357334,0.00361795,1.13359,1.13469,1.13357,1.13567,1.14097,0.00322552,1.15149,1.15796,1.16086,1.19306,1.176,1.18255,1.18566,1.18808,1.19132,1.19873,1.20312,1.20576,1.20692,1.20803,1.2094,1.22962,1.23156,1.23154,1.23412,1.24009,1.24107,1.24408,1.24803,1.25374,1.25903,1.26264,1.26236,1.26426,1.26797,1.27693,1.278,1.27893,1.28236,1.28739,1.28904,1.29087,1.31366,1.30357,1.31026,1.31116,1.31842,1.32215,1.32574,1.32955,1.33126,1.33788,1.34442,1.34446,1.35153,1.35529,1.35726,0.00366677,0.00342509,1.37814,1.37623,1.378,1.38609,1.38985,1.3997,1.40245,1.40592,1.41513
0.196718,0.195884,0.197276,0.198241,0.200514,0.206468,0.206577,0.207468,0.207272,0.231626,0.2346,0.235222,0.234803,0.233438,0.230693,0.234024,0.23217,0.230554,0.238084,0.233841,0.248992,0.248305,0.247511,0.247664,0.243695,0.244211,0.245263,0.24328,0.238989,0.236983,0.235378,0.00328609,0.236111,0.00343273,0.282704,0.283485,0.284913,0.285005,0.284718,0.286204,0.287282,0.292836,0.292966,0.307791,0.308594,0.310102,0.319658,0.319007,0.319517,0.324138,0.332454,0.334673,0.334065,0.345368,0.348031,0.00336049,0.351379,0.35313,0.362949,0.364401,0.366011,0.370841,0.372471,0.372851,0.372982,0.373327,0.37472,0.374713,0.00366419,0.00314013,0.397841,0.4001,0.410873,0.413286,0.41373,0.423294,0.422333,0.427783,0.428037,0.435306,0.447998,0.443043,0.44815,0.00328301,0.00346827,0.00336497,0.47524,0.477068,0.479095,0.495216,0.496425,0.495354,0.504285,0.505388,0.51898,0.519853,0.520113,0.5358,0.543726,0.544751,0.545714,0.548946,0.551745,0.552131,0.5564,0.55877,0.561924,0.563318,0.564454,0.570141,0.571734,0.572377,0.578165,0.590516,0.592306,0.591579,0.00364746,0.60432,0.607121,0.00338435,0.0035522,0.00341788,0.00343231,0.00317779,0.00345511,0.639142,0.647322,0.649278,0.652462,0.653778,0.651184,0.657194,0.658365,0.00348051,0.6782,0.00331003,0.00352864,0.00319836,0.701247,0.70399,0.705769,0.717546,0.719658,0.00351523,0.0034071,0.00334865,0.744718,0.00334678,0.00381547,0.759172,0.761072,0.769458,0.777081,0.777712,0.781979,0.78437,0.787615,0.791653,0.796515,0.00344128,0.817485,0.819378,0.82968,0.834414,0.836164,0.838344,0.839373,0.845258,0.845114,0.849449,0.861789,0.874475,0.875022,0.00338251,1.04604,0.00353124,0.00370585,0.00354635,0.0034543,0.909313,0.91104,0.913147,0.00341487,0.00331492,0.926227,0.932836,0.93528,0.938615,0.940464,0.943137,0.952127,0.00341008,0.95958,0.965387,0.00349501,0.974503,0.977276,0.980937,0.982191,0.985055,0.968492,0.970227,1.03111,0.00316749,1.00197,1.00643,1.00911,1.01049,1.0154,1.01446,1.01533,0.00340336,1.03606,1.04264,1.0466,1.04597,1.04655,0.00294152,0.00346781,1.06849,1.07438,1.07412,1.07684,1.08177,1.08444,1.08207,1.11716,0.00332551,1.10216,1.1152,1.11315,0.00343982,1.12694,1.12605,1.12365,1.12633,1.13454,1.13867,1.14231,1.1531,1.18065,1.16738,1.17,1.1742,1.18331,0.003115,1.19851,1.19862,1.20096,1.20227,1.20376,1.20482,0.00349287,1.22209,1.22301,1.233,1.23316,1.23925,1.24182,1.24198,1.2501,1.25469,1.26064,1.26081,1.26388,1.26669,1.26729,1.27404,1.28033,1.28113,1.28534,1.28714,1.2949,1.29557,1.29614,1.29964,1.2999,1.30862,1.31202,1.31441,1.32278,1.32648,1.32892,1.33541,1.33824,1.34241,1.34685,1.35327,1.35733,1.36134,1.36408,1.37402,1.37229,1.37574,1.38584,1.38658,1.39633,1.39761,1.39668,1.39944
0.191208,0.197386,0.198257,0.198169,0.206216,0.209382,0.201955,0.20392,0.20172,0.20311,0.204826,0.204671,0.203012,0.229721,0.229301,0.229258,0.2316,0.232636,0.232544,0.232163,0.23185,0.230969,0.229514,0.243487,0.243804,0.244345,0.244886,0.244549,0.244603,0.24498,0.242201,0.24478,0.240986,0.266259,0.266809,0.26976,0.267745,0.267039,0.265872,0.289341,0.2904,0.291029,0.290981,0.306619,0.00328622,0.3109,0.312568,0.315331,0.322864,0.325125,0.328507,0.329618,0.330393,0.331781,0.345338,0.351357,0.353122,0.354956,0.00360631,0.366832,0.369286,0.367459,0.371457,0.371435,0.37056,0.372381,0.37423,0.374842,0.38014,0.394651,0.399591,0.397119,0.401258,0.401725,0.404027,0.404003,0.416128,0.421912,0.421865,0.426952,0.431887,0.00362512,0.444853,0.45137,0.451688,0.463155,0.469253,0.471536,0.476399,0.477647,0.00357684,0.503637,0.504557,0.50698,0.506521,0.507109,0.512262,0.00358033,0.543608,0.543357,0.548344,0.548441,0.548834,0.549818,0.551897,0.55234,0.563305,0.563923,0.567542,0.569834,0.571632,0.573763,0.57627,0.578272,0.579041,0.578732,0.00349216,0.00354254,0.600873,0.608781,0.610776,0.622959,0.624535,0.626177,0.626756,0.00360145,0.645957,0.649456,0.655204,0.655929,0.657052,0.657174,0.658204,0.00316622,0.00343948,0.00370445,0.687512,0.690389,0.00322259,0.704287,0.00337772,0.0034723,0.00349757,0.00353907,0.00335435,0.739021,0.744852,0.00353227,0.00362164,0.759382,0.766703,0.769042,0.769737,0.769958,0.781508,0.782344,0.785481,0.00352644,0.799039,0.0034455,0.00363413,0.00364257,0.00322702,0.821398,0.83578,0.836847,0.838438,0.840582,0.842158,0.844183,0.0034459,0.861997,0.863976,0.866563,0.880842,0.882349,0.885782,0.888144,0.00347722,0.003487,0.909549,0.912865,0.917612,0.918307,0.919275,0.925227,0.00334184,0.932883,0.93236,0.938547,0.943006,0.950315,0.952978,0.957298,0.00348196,0.00339012,0.971547,0.97575,0.97962,0.979013,0.979474,0.980903,0.98644,0.988617,0.991908,0.0036183,1.00841,1.01285,1.01415,1.01446,1.01611,1.02618,0.00361199,1.03933,1.04068,1.04501,1.05107,1.05449,1.05632,1.06763,1.07083,1.07354,1.07499,1.07787,1.08409,1.08581,1.09002,1.09145,1.10038,1.10426,1.10378,1.11871,1.11983,1.12151,1.12169,1.12275,0.00328509,1.14185,0.00337218,1.15314,0.00331935,1.16957,1.1707,1.18094,1.18536,1.18704,1.19337,1.19637,1.19893,1.20233,1.20205,1.20192,1.20445,1.20565,0.00328246,1.23083,1.23606,1.23724,1.243,1.24637,1.24659,1.25576,1.25941,1.26481,1.26932,1.26899,1.27132,1.2715,1.27815,1.27741,1.28115,1.2853,1.28745,1.28511,0.00335215,1.29372,1.30108,1.30219,1.30293,1.30612,1.31612,0.00349772,0.0032741,1.32714,1.3326,1.33677,1.34675,1.34448,1.34484,1.35365,0.00329816,1.36221,1.36365,1.36772,1.37932,1.39037,1.39264,1.39736,1.39987,1.40526
0.196632,0.197391,0.198276,0.198886,0.200625,0.205276,0.207198,0.203849,0.205501,0.205525,0.206231,0.207512,0.207809,0.207162,0.206061,0.212625,0.227578,0.23124,0.229171,0.231407,0.232568,0.233514,0.233146,0.233826,0.234053,0.235276,0.238113,0.244792,0.246075,0.245063,0.244111,0.243573,0.245529,0.244978,0.00374522,0.27169,0.269512,0.268991,0.268841,0.270768,0.270862,0.287075,0.289331,0.28995,0.291634,0.307283,0.308205,0.320339,0.320573,0.32183,0.331559,0.331613,0.332585,0.0035084,0.00338703,0.00332131,0.342585,0.343582,0.345171,0.345259,0.354795,0.369707,0.359044,0.371832,0.370775,0.370452,0.374095,0.374216,0.375885,0.385798,0.388679,0.388118,0.395118,0.395283,0.402726,0.40956,0.409817,0.409604,0.423827,0.424587,0.434357,0.434392,0.437991,0.438209,0.442309,0.00312274,0.00360796,0.475898,0.477047,0.00344529,0.00383097,0.00347033,0.00340905,0.507392,0.509683,0.51418,0.515136,0.520606,0.518434,0.518726,0.545669,0.549741,0.55064,0.554917,0.554992,0.556104,0.555555,0.56581,0.568897,0.567933,0.570411,0.575038,0.578875,0.579632,0.582101,0.587838,0.588391,0.00332838,0.00365634,0.610239,0.611276,0.608416,0.608914,0.62528,0.00354954,0.00339521,0.00367102,0.00330327,0.645157,0.655488,0.656138,0.646583,0.659937,0.00343831,0.673456,0.677247,0.00359632,0.00322775,0.00320689,0.0034539,0.00356764,0.00330813,0.00345991,0.00343777,0.731973,0.735383,0.739766,0.00346126,0.749989,0.749431,0.750736,0.00339982,0.762682,0.00340716,0.00355744,0.00355571,0.00344722,0.787908,0.0035591,0.797712,0.0033317,0.00347979,0.809177,0.00327545,0.00368297,0.00316734,0.00370095,0.834105,0.0035603,0.00361971,0.846714,0.847771,0.00352956,0.00310946,0.00323048,0.00338648,0.888576,0.889488,0.89493,0.899047,0.904369,0.903328,0.903682,0.905797,0.00338625,0.925683,0.927104,0.931259,0.933212,0.93366,0.93565,0.947285,0.949307,0.952639,0.959376,0.964967,0.968506,0.970326,0.973091,0.979212,0.979994,0.982048,0.990476,0.994056,0.99372,0.997874,0.999545,1.00119,0.0034645,1.01462,1.17737,1.02387,0.00341518,1.03358,1.03945,1.04334,1.04729,1.05274,1.05489,1.05998,1.17204,1.0722,1.07738,1.0788,1.08389,1.08491,1.08852,1.08999,1.09244,1.10015,1.10222,1.10319,1.11745,1.1183,1.12204,1.13354,1.13974,1.14367,1.14578,1.15054,0.00359137,1.16214,1.17181,1.17348,1.30175,1.18975,1.19262,1.19882,1.20172,1.20457,1.20519,1.20291,1.2051,1.20472,1.2078,0.00335248,0.00367703,0.00340528,1.23629,1.23838,1.24084,1.24323,1.3582,1.24999,1.25665,1.25789,1.26148,1.26213,1.26467,1.27077,1.27184,1.27753,1.28034,1.28682,1.28918,1.28994,1.28987,1.29566,1.30204,1.3024,1.30772,1.3087,1.31231,1.31519,1.32248,1.32322,1.32618,0.00320106,1.34506,1.34935,1.35327,1.35476,0.00361149,0.0035544,0.00338785,1.38933,1.39096,1.39556,1.39361,1.39815
0.181104,0.182209,0.179444,0.179374,0.179949,0.185394,0.00341506,0.199303,0.203993,0.201687,0.205457,0.208788,0.209085,0.210201,0.216841,0.217678,0.218606,0.219742,0.218272,0.218354,0.21734,0.231299,0.231914,0.234557,0.236309,0.2379,0.240949,0.24196,0.244775,0.247218,0.244463,0.245171,0.246034,0.245489,0.263957,0.264022,0.26516,0.267258,0.280971,0.281571,0.285129,0.288755,0.289869,0.291662,0.291675,0.297219,0.297047,0.296267,0.299497,0.300199,0.30958,0.309908,0.310785,0.326592,0.329793,0.334879,0.334104,0.336738,0.340124,0.345234,0.346766,0.348826,0.00314699,0.361337,0.360653,0.36304,0.371036,0.370543,0.374143,0.375618,0.377514,0.383742,0.385501,0.400039,0.399725,0.398425,0.405872,0.420945,0.421216,0.427194,0.00349005,0.436615,0.440949,0.44141,0.442881,0.44449,0.444672,0.00361866,0.00320949,0.00345243,0.00349366,0.480132,0.488404,0.504492,0.505174,0.510672,0.508895,0.517033,0.518515,0.518786,0.529265,0.539226,0.544239,0.545207,0.545723,0.554051,0.554665,0.556018,0.553961,0.560805,0.564237,0.565249,0.564929,0.56427,0.565222,0.565507,0.0032445,0.591174,0.593192,0.593821,0.601593,0.00361801,0.614054,0.614785,0.618316,0.621523,0.624969,0.625685,0.626262,0.644079,0.644988,0.648109,0.647678,0.647606,0.00330416,1.12617,0.00313924,0.0035337,0.00344958,0.00372537,0.00342591,0.00370881,0.00333738,0.724658,0.00351572,0.732271,0.735952,0.742603,0.745506,0.748632,0.00348663,0.756608,0.757879,0.766658,0.77055,0.00343463,0.00328857,0.00340279,0.00338345,0.793987,0.00370391,0.801703,0.805732,0.00369855,0.816737,0.819134,0.82158,0.816862,0.818912,0.863731,0.00349861,0.84464,0.84559,0.972145,0.00344467,0.00348123,0.878576,0.880855,0.881905,0.889135,0.890154,0.890394,0.892142,0.903003,0.00338316,0.00364336,0.00340817,0.925033,0.927661,0.933039,0.940742,0.944331,0.947472,0.950515,0.961028,0.963178,0.967877,0.970987,0.974307,0.977635,0.980009,0.981782,0.990024,0.993381,0.998105,1.0021,1.00334,1.00828,1.00934,1.012,1.01447,1.01666,1.02585,1.03324,1.03601,1.03999,1.04841,1.05364,1.05937,1.06315,1.06301,1.07102,1.07066,1.0838,0.0034001,1.09071,1.09225,1.09504,1.09917,1.1048,1.10614,1.11359,1.115,1.12328,1.12656,1.13445,1.13755,1.14012,1.14307,1.14475,1.15828,1.15958,1.16118,0.00362946,0.00332429,1.2916,0.00375779,1.19218,1.21011,1.19858,1.19989,1.20208,1.20173,1.20148,1.20244,1.20621,1.20993,1.25197,1.35475,1.23226,1.2314,1.2345,1.24052,1.24421,1.24778,1.24815,1.25752,1.25687,1.25997,1.26396,1.26676,1.26934,1.27345,1.27405,1.27893,1.27904,1.28333,1.28736,1.29506,1.29927,1.30531,1.31002,1.30747,1.30705,1.30928,1.31206,0.00343825,1.33814,1.33847,1.34878,1.35116,1.35349,1.3544,0.00371975,1.381,1.38167,1.38368,1.39073,1.39004,1.395
0.181065,0.18107,0.180459,0.180591,0.180948,0.183175,0.183111,0.184228,0.186244,0.00326695,0.200298,0.206197,0.207379,0.209354,0.209897,0.218197,0.217472,0.219711,0.213762,0.218044,0.217873,0.224697,0.226517,0.230282,0.233577,0.229393,0.231736,0.232524,0.235178,0.232343,0.238311,0.240353,0.242275,0.243607,0.263116,0.26386,0.263882,0.263847,0.259297,0.280145,0.27716,0.283154,0.280176,0.287548,0.290282,0.294728,0.297379,0.298765,0.298651,0.300204,0.308362,0.309648,0.311235,0.320125,0.322239,0.323159,0.323767,0.324096,0.337533,0.344934,0.346527,0.34776,0.347891,0.357347,0.358741,0.359285,0.360622,0.369792,0.37611,0.37755,0.380571,0.383677,0.384546,0.38673,0.387051,0.400308,0.400462,0.412086,0.414599,0.41585,0.434857,0.00340463,0.438901,0.440174,0.442383,0.4439,0.446653,0.00325495,0.00374659,0.00338144,0.00359365,0.479579,0.490813,0.493415,0.493373,0.509459,0.508673,0.514585,0.519626,0.528049,0.52915,0.538712,0.540923,0.544323,0.546868,0.548373,0.55149,0.554127,0.556477,0.560507,0.561592,0.562572,0.562505,0.571951,0.571973,0.570203,0.586402,0.587606,0.587441,0.593944,0.597675,0.00335206,0.614522,0.617037,0.617846,0.62154,0.623937,0.62779,0.626048,0.627233,0.643361,0.646371,0.648075,0.64765,0.673967,0.00324128,0.679283,0.684508,0.00361456,0.698585,0.704556,0.00353659,0.00351864,0.00334961,0.00328718,0.00310989,0.732721,0.733448,0.737553,0.00333677,0.747362,0.753024,0.754347,0.763323,0.764816,0.767773,0.770183,0.772316,0.00398308,0.00356819,0.00342434,0.00343529,0.803009,0.00325576,0.814506,0.816208,0.819619,0.820212,0.819024,0.821357,0.826251,0.835085,0.841138,0.843627,0.846331,0.00338455,0.00356675,0.00361007,0.00365518,0.883949,0.886668,0.892022,0.897929,0.899444,0.906376,0.909337,0.0033003,0.923123,0.92779,0.928401,0.939294,0.943636,0.945742,0.0034496,0.959898,0.962123,0.966582,0.967374,0.97228,0.975604,0.979635,0.980368,0.98492,0.987552,0.00347173,0.998274,1.00334,1.00568,1.00935,1.01421,1.01492,0.00353397,1.02152,1.02408,1.03167,1.03329,1.08029,1.05543,1.05862,1.06902,1.07372,1.07687,1.0831,1.08598,1.08903,1.08875,1.09135,1.09771,1.10095,1.10125,1.10477,1.10933,1.11082,1.11469,1.11623,1.11922,0.00362178,1.13515,1.13998,1.13978,1.14805,1.15048,1.15464,1.15586,1.16431,1.16668,1.17041,1.18234,1.18616,1.18965,1.18801,1.19069,1.18955,1.19757,1.19938,1.19934,1.20555,1.20968,1.21482,0.0035001,1.22744,1.23246,1.23264,1.23402,1.23719,1.24228,0.00356738,1.25271,1.25353,1.25859,1.26056,1.26157,1.26692,1.27428,1.27755,1.27829,1.27963,1.28202,1.2954,1.29596,1.29803,1.30267,1.30487,1.30942,1.30939,1.31182,1.32147,1.33642,1.3658,1.34676,1.35231,1.35352,1.35084,1.36075,1.36801,1.37421,1.37442,1.38215,1.38353,1.38821
0.169653,0.169332,0.169506,0.16988,0.182761,0.182565,0.183526,0.185155,0.187156,0.187475,0.190132,0.195475,0.196193,0.195948,0.196048,0.198004,0.198028,0.200257,0.219476,0.216831,0.220409,0.219867,0.22064,0.224398,0.222437,0.224784,0.226077,0.229873,0.229854,0.235405,0.216274,0.24072,0.241917,0.242248,0.253728,0.256795,0.258417,0.256894,0.257026,0.257223,0.26931,0.269903,0.279453,0.280917,0.282204,0.284032,0.286509,0.291621,0.296968,0.300349,0.303129,0.305272,0.310601,0.311542,0.323289,0.32316,0.324507,0.327051,0.328309,0.33099,0.341392,0.342098,0.345995,0.348912,0.358955,0.360379,0.360772,0.364243,0.368696,0.370361,0.374483,0.379781,0.380717,0.382444,0.391084,0.391637,0.39708,0.412194,0.414717,0.412233,0.418795,0.425151,0.426635,0.431801,0.4412,0.442739,0.44223,0.456074,0.466695,0.00334146,0.00332719,0.480446,0.481211,0.483333,0.00339134,0.511311,0.00330624,0.510357,0.516512,0.519699,0.520722,0.529834,0.530119,0.546779,0.00340903,0.548818,0.546266,0.555152,0.556225,0.55394,0.557223,0.560809,0.560747,0.567904,0.568781,0.569152,0.584484,0.586823,0.587814,0.588999,0.601947,0.603519,0.603302,0.607812,0.61239,0.620825,0.62133,0.626193,0.6298,0.632095,0.633412,0.647661,0.649524,0.652006,0.652838,0.00333196,0.00338352,0.681759,0.00339871,0.00367036,0.698414,0.698672,0.00334634,0.00339952,0.718267,0.720725,0.729474,0.731943,0.736005,0.736905,0.744796,0.749043,0.759159,0.761687,0.764581,0.765893,0.769818,0.775297,0.777534,0.778739,0.00352949,0.00359685,0.799715,0.00340969,0.80527,0.808335,0.813437,0.815492,0.818445,0.820475,0.824758,0.826398,0.00355068,0.847465,0.00347637,0.85999,0.00344404,0.003555,0.879514,0.883137,0.884563,0.88762,0.895149,0.00341708,0.903121,0.908601,0.916539,0.91919,0.924236,0.925162,0.00347157,0.944938,0.94819,0.949727,0.00354291,0.96369,0.966805,0.97137,0.974441,0.984067,0.985611,0.987325,0.989259,0.991648,0.994999,1.00096,1.00364,1.01177,1.01439,1.01592,1.01981,1.11494,1.03589,1.03745,1.04052,1.04172,1.04407,1.05732,1.06254,0.00331472,0.0032535,1.07783,1.08195,1.08307,1.08852,1.08846,1.08872,1.09296,1.09312,1.09963,1.20686,0.00348421,1.11004,1.11492,1.11654,1.1217,1.12517,1.12709,1.1362,1.13795,1.14651,1.14927,1.14592,1.14775,0.00342135,1.1754,1.17383,1.1766,1.17912,1.18719,1.19223,1.19343,1.18947,1.19214,1.19485,1.20352,1.20949,1.21061,1.21659,1.21729,1.22887,1.23059,1.23299,1.23238,1.23854,1.24129,1.24351,1.25101,1.25446,1.25788,1.26094,1.26319,1.26672,1.272,1.27672,1.27786,1.27608,1.27911,1.29464,1.29644,1.30227,1.30221,1.30918,1.30907,0.00337633,1.32197,1.32806,1.33257,1.33469,1.33617,1.34328,1.34873,1.35016,1.3625,1.36738,1.37172,1.37488,1.38095,1.38696,1.3925
0.00368594,0.169096,0.171177,0.172926,0.178113,0.180542,0.00335928,0.00365813,0.186408,0.186661,0.186233,0.195774,0.195979,0.197934,0.198359,0.195417,0.201515,0.204803,0.209301,0.2102,0.220284,0.221416,0.2218,0.220784,0.21938,0.224388,0.231316,0.230304,0.229151,0.228518,0.226822,0.21989,0.210915,0.00341014,0.00368727,0.258143,0.258585,0.00343596,0.261402,0.258854,0.259089,0.259216,0.271568,0.00354633,0.285322,0.284634,0.284607,0.00332878,0.299485,0.293688,0.303836,0.302079,0.304672,0.307995,0.315274,0.320441,0.32763,0.327714,0.330904,0.334103,0.343201,0.342709,0.343185,0.353197,0.352141,0.355888,0.358678,0.364241,0.368868,0.37736,0.377145,0.379051,0.382832,0.390369,0.402096,0.403448,0.4035,0.415094,0.416976,0.417434,0.417666,0.427799,0.428521,0.442109,0.444352,0.444891,0.446235,0.454918,0.46232,0.468164,0.470625,0.470395,0.471269,0.00335239,0.486792,0.487506,0.00361959,0.00332414,0.516065,0.520479,0.522109,0.522722,0.532325,0.537927,0.543668,0.543427,0.547759,0.551386,0.55382,0.555876,0.559234,0.560472,0.561754,0.562964,0.564671,0.581022,0.583725,0.585003,0.590065,0.59226,0.60113,0.602473,0.604931,0.00321049,0.61343,0.61841,0.620177,0.620792,0.631697,0.633602,0.633357,0.647893,0.65245,0.652472,0.653016,0.00341248,0.00338182,0.00337299,0.00382761,0.00343896,0.698063,0.00320651,0.705753,0.711289,0.714148,0.716192,0.722675,0.727253,0.728398,0.00329573,0.743518,0.745998,0.76092,0.763453,0.764925,0.765966,0.767067,0.775008,0.775598,0.778334,0.784657,0.789386,0.791309,0.0036507,0.801039,0.81002,0.81248,0.815322,0.817756,0.824992,0.826814,0.832417,0.838482,0.836407,0.00337593,0.00329337,0.864284,0.00351374,0.00344044,0.881084,0.884077,0.891072,0.895967,0.00335566,0.00376186,0.00348469,0.918134,0.922784,0.925642,0.9262,0.937553,0.940108,0.952477,0.953868,0.960385,0.00339057,0.00339777,0.978135,0.982362,0.984725,0.987668,0.989795,0.991461,0.994268,0.998704,1.00315,1.00637,1.01257,1.01472,1.01891,1.02195,1.02564,0.00350087,0.00328635,1.03684,1.04505,1.04524,1.054,1.0575,1.06089,1.06356,1.06796,1.07009,1.07384,1.079,1.08347,1.08506,1.08894,1.09382,1.09591,1.10004,1.10417,1.11169,1.11438,1.11672,1.12227,1.12698,1.12982,1.13602,1.14032,1.13982,1.13902,1.14018,0.00340625,1.16751,1.17411,1.17617,0.00331648,1.26179,1.18576,1.18642,1.18881,1.19452,1.19347,1.19553,0.00343452,1.21298,1.21252,1.21765,1.22241,1.22241,1.2231,1.23369,1.23619,1.23981,1.24967,1.24951,1.24993,1.25654,1.25903,1.26205,1.26387,1.27406,1.27467,1.27577,1.27856,1.27856,1.28408,1.28676,0.00343876,1.29585,1.29846,1.3089,1.31643,1.31817,1.3229,1.32741,1.3295,1.3343,1.34061,1.3413,1.34753,1.35863,1.36795,1.36973,1.37382,1.3723,1.37764,1.39097,1.39335
0.00344506,0.17554,0.174838,0.175411,0.170259,0.171735,0.172364,0.178321,0.186827,0.189245,0.19259,0.192981,0.00336794,0.192649,0.193885,0.193827,0.194485,0.205309,0.206155,0.209711,0.208276,0.204162,0.217881,0.204221,0.204547,0.218228,0.217082,0.216876,0.216887,0.218713,0.222516,0.223458,0.221965,0.21752,0.221543,0.00340759,0.24464,0.24891,0.249391,0.258497,0.252296,0.259856,0.259587,0.26004,0.276589,0.275478,0.286858,0.290176,0.292358,0.297595,0.302902,0.306614,0.309679,0.310473,0.310553,0.314606,0.317933,0.317778,0.330337,0.339372,0.339722,0.343249,0.344579,0.348482,0.354773,0.355522,0.359113,0.362291,0.362868,0.377754,0.369357,0.378346,0.386831,0.387361,0.401459,0.403774,0.403954,0.404905,0.407533,0.418121,0.429091,0.436298,0.442023,0.443302,0.443983,0.444672,0.445727,0.456636,0.457579,0.468956,0.470394,0.472778,0.484161,0.48591,0.48581,0.495488,0.499636,0.499387,0.0034937,0.524371,0.526217,0.528341,0.528979,0.53674,0.539753,0.542018,0.545647,0.551454,0.559632,0.560597,0.565545,0.565153,0.566063,0.569702,0.570737,0.572478,0.580572,0.58566,0.588119,0.588302,0.590118,0.600957,0.605487,0.60627,0.606182,0.616668,0.618598,0.620419,0.00333322,0.634542,0.637302,0.646762,0.649905,0.650649,0.650519,0.650626,0.650248,0.00346035,0.675118,0.68124,0.00334559,0.691285,0.00362309,0.00366319,0.00325251,0.717291,0.00346771,0.72193,0.00344887,0.739845,0.745704,0.744097,0.747709,0.753409,0.752622,0.765523,0.767431,0.769066,0.776483,0.784621,0.785335,0.788355,0.791634,0.796078,0.798262,0.802588,0.801757,0.801631,0.805442,0.825942,0.829004,0.831378,0.835214,0.83851,0.843081,0.8443,0.00338552,0.860977,0.00337236,0.00356625,0.00351322,0.88854,0.00325579,0.0034837,0.00335904,0.916511,0.920549,0.922377,0.924688,0.92614,0.933107,0.00348912,0.0034652,0.0033987,0.958056,0.961926,0.970855,0.973383,0.981171,0.984533,0.981714,0.982992,0.987949,0.992347,0.995859,0.996314,0.99908,1.00547,1.00839,1.01134,1.01501,1.01613,1.02104,1.02515,1.03197,1.03414,1.03668,1.03933,0.0034232,1.05941,1.0609,1.06619,1.06909,1.07433,1.07644,1.07739,1.08272,1.08955,1.09333,1.09611,1.10114,1.10499,1.10778,1.11216,1.11347,1.26169,0.00367167,1.13107,1.13455,1.13816,1.14047,1.1427,1.14663,1.18863,1.16554,1.16845,1.17754,1.17983,1.18389,1.18504,1.18553,1.18713,1.19429,1.1986,1.19895,1.20142,0.00334687,1.22064,1.22267,1.22434,1.23227,1.23051,1.23239,1.23345,1.23709,1.2386,1.25227,1.25311,1.25313,1.25492,1.26237,1.26807,1.26886,1.26857,1.26833,1.27093,1.27287,1.27481,1.2775,1.28235,1.28994,1.2914,0.00341599,0.00365936,0.00348485,1.32961,1.33173,1.33603,1.33922,1.33917,1.34188,1.35432,1.35772,1.36637,1.36657,1.37516,1.38237,1.3828,1.38488,0.00338684
0.147861,0.146235,0.00369857,0.00315881,0.171247,0.173005,0.17146,0.170378,0.171133,0.171902,0.172633,0.178857,0.176568,0.180092,0.179477,0.18655,0.18675,0.186288,0.185401,0.203971,0.207764,0.205187,0.205414,0.206768,0.206645,0.205227,0.217338,0.218051,0.217617,0.218819,0.218819,0.220682,0.223464,0.224058,0.223489,0.00363221,0.242883,0.24277,0.242815,0.24176,0.243741,0.259617,0.263162,0.266316,0.275699,0.269424,0.271956,0.276543,0.276587,0.00337198,0.303194,0.305957,0.307655,0.310706,0.311832,0.31242,0.316518,0.317204,0.333612,0.00347159,0.335016,0.00328455,0.348436,0.351992,0.359628,0.362547,0.363299,0.365562,0.373284,0.374449,0.376339,0.382778,0.384577,0.384086,0.372787,0.394957,0.396312,0.397617,0.397816,0.398542,0.400205,0.00319308,0.00336871,0.00344843,0.423937,0.439916,0.441027,0.438905,0.439183,0.441717,0.443861,0.445875,0.00355012,0.0033907,0.00347786,0.48524,0.491564,0.492356,0.493365,0.00347952,0.00313041,0.521065,0.00360422,0.538258,0.540452,0.543746,0.542189,0.543391,0.556088,0.558815,0.559446,0.563267,0.566055,0.565597,0.56572,0.565175,0.577117,0.583151,0.58644,0.588147,0.590357,0.591889,0.592578,0.597307,0.599769,0.00329762,0.00319131,0.621841,0.00345393,0.62992,0.634891,0.639153,0.647487,0.64842,0.650872,0.649309,0.653291,0.00336768,0.00351948,0.674156,0.00345286,0.00324608,0.00322155,0.698879,0.701063,0.704727,0.711378,0.714697,0.71884,0.725122,0.731291,0.00342769,0.740846,0.745681,0.74705,0.755993,0.759757,0.761408,0.770287,0.77287,0.782185,0.78815,0.790096,0.795093,0.801037,0.801189,0.802481,0.803587,0.80429,0.00330511,0.83058,0.833006,0.834732,0.00351805,0.851076,0.854264,0.861142,0.86489,0.866085,0.00339363,0.878201,0.00336967,0.00353031,0.00325506,0.90193,0.911981,0.916872,0.920103,0.923068,0.929161,0.930732,0.00339327,0.946114,0.947918,0.954764,0.960241,0.967053,0.966339,0.97008,0.973436,0.975729,0.978387,0.985637,0.989654,0.992979,0.995921,1.00094,1.00401,1.00551,1.0078,1.01254,1.01684,1.02053,1.02384,1.0269,1.03179,1.03631,1.03896,1.04316,1.04689,1.05727,1.05989,1.06291,1.06848,1.07445,1.07783,1.0816,1.08262,1.08883,1.09565,1.10022,1.10266,1.108,1.11502,1.11644,1.1222,1.12572,1.12622,1.13062,1.14005,1.14356,1.14884,1.15366,1.15784,1.1607,1.16393,1.20316,1.1826,1.18854,1.19138,1.19425,1.19305,1.18996,1.19533,1.19847,1.20968,1.21513,1.21594,1.21914,1.227,1.22765,1.23289,1.23517,1.24409,1.24603,1.24798,1.23998,1.24298,1.25063,1.25156,1.25283,1.26002,1.2615,1.26559,1.27133,1.27383,1.27425,1.28082,1.2835,1.29014,1.29846,1.29888,1.30873,1.31508,1.32295,1.32428,1.33069,1.34095,1.34123,1.34129,1.35006,0.0033671,1.36206,1.36562,1.37065,1.37619,1.37826,1.38174,1.39265,1.39411
0.149046,0.141652,0.155732,0.155023,0.157222,0.158442,0.158653,0.171376,0.170377,0.170132,0.172177,0.16986,0.170933,0.171857,0.178427,0.177906,0.187827,0.187046,0.1899,0.192886,0.196657,0.205715,0.204471,0.201509,0.205963,0.206138,0.205799,0.219404,0.220809,0.22012,0.220216,0.223222,0.224472,0.224798,0.223887,0.224687,0.228027,0.227215,0.0032951,0.243986,0.241745,0.244049,0.253733,0.252992,0.00315269,0.274763,0.274036,0.27589,0.277604,0.00311787,0.305366,0.307185,0.307848,0.307711,0.311574,0.315443,0.320896,0.327282,0.32701,0.327255,0.00353284,0.0037398,0.00338503,0.00331701,0.361342,0.3638,0.365807,0.366536,0.358616,0.358905,0.382208,0.384512,0.37566,0.377466,0.378642,0.3913,0.394738,0.395066,0.398431,0.400182,0.401166,0.407931,0.415147,0.416812,0.417537,0.418013,0.442455,0.441843,0.445883,0.446169,0.444601,0.457428,0.459145,0.459119,0.480869,0.482549,0.483533,0.488085,0.494658,0.494354,0.00343745,0.518712,0.518445,0.514945,0.514328,0.567803,0.544388,0.545252,0.546701,0.547739,0.5595,0.557801,0.560131,0.563374,0.563636,0.563089,0.58011,0.585054,0.590158,0.590625,0.589862,0.586984,0.587801,0.607711,0.610691,0.61027,0.606306,0.62457,0.627621,0.628742,0.630884,0.632023,0.641288,0.644196,0.646409,0.652362,0.652074,0.652082,0.652265,0.673071,0.679197,0.00348763,0.692883,0.696888,0.69703,0.00341503,0.709888,0.711685,0.717597,0.719263,0.72848,0.731987,0.732682,0.738755,0.743355,0.75065,0.752215,0.00374118,0.00339747,0.781938,0.784449,0.786748,0.789788,0.794043,0.798105,0.803133,0.804509,0.80724,0.807996,0.808251,0.82905,0.83663,0.00336319,0.00342492,0.852138,0.858276,0.860238,0.865926,0.868873,0.872654,0.00328665,0.00351309,0.00327218,0.897276,0.0031222,0.90819,0.914585,0.916139,0.929562,0.931291,0.932114,0.00364554,0.00331426,0.00366512,0.00327083,0.960537,0.963317,0.964809,0.968975,0.974647,0.977877,0.982072,0.985188,0.987884,0.989446,0.995911,1.00382,1.0036,1.00542,1.00805,1.01425,1.02203,1.0208,1.02181,1.02898,1.03254,1.03421,1.04158,1.0466,1.04755,1.04969,1.05888,1.06428,1.06896,1.07009,1.07621,1.07807,1.0845,1.08958,1.09863,1.10291,1.10537,1.1089,1.11572,1.11452,0.00329218,1.12945,1.13055,1.13677,1.14218,1.14448,1.147,1.15131,1.15871,1.16293,1.16575,1.16876,1.17293,0.00336087,1.19443,1.19442,1.19398,1.19251,1.19165,1.19478,1.19781,1.21065,1.21371,1.21682,1.22219,1.23233,1.23332,1.24454,1.24922,1.2491,1.25421,1.2555,1.26025,1.25278,1.2543,1.25796,1.26214,1.26737,1.26714,1.27271,1.27254,1.27571,1.28679,1.28786,1.28861,1.30416,1.30311,1.3085,1.31128,1.31432,1.32534,1.32858,1.33164,1.33294,1.34211,1.34442,1.35144,1.35386,1.35664,0.00344146,0.00348324,0.00344893,1.39455,1.39438,1.40328
0.14261,0.144572,0.145065,0.146676,0.147972,0.149196,0.15939,0.159407,0.162223,0.162407,0.166648,0.00347853,0.176079,0.178096,0.17524,0.178692,0.176333,0.176575,0.179178,0.186877,0.189463,0.193949,0.198866,0.201565,0.202395,0.203444,0.204726,0.207056,0.206003,0.208364,0.218486,0.210295,0.223986,0.224356,0.224227,0.231488,0.231747,0.234113,0.234344,0.236231,0.244447,0.245902,0.252311,0.254617,0.255469,0.00333718,0.270464,0.277671,0.279885,0.00319108,0.290547,0.290899,0.305934,0.00333462,0.307725,0.317131,0.314661,0.314102,0.327187,0.0033742,0.331426,0.331074,0.333169,0.00350233,0.342445,0.344894,0.351633,0.361838,0.359304,0.362666,0.364836,0.0035199,0.369678,0.378747,0.378653,0.00336762,0.384686,0.400204,0.400547,0.4031,0.403206,0.408465,0.420887,0.423058,0.424434,0.425321,0.440727,0.440312,0.44674,0.452009,0.45731,0.45759,0.460933,0.46405,0.473605,0.488016,0.488535,0.490506,0.494868,0.499016,0.500421,0.49967,0.511926,0.513879,0.515346,0.518394,0.53664,0.538823,0.54062,0.540142,0.547042,0.546533,0.558908,0.562442,0.564264,0.564225,0.566767,0.56759,0.587653,0.587139,0.591794,0.592485,0.598479,0.606102,0.607489,0.608169,0.609561,0.611477,0.619796,0.62175,0.628874,0.629071,0.637321,0.638479,0.645975,0.645406,0.645554,0.651149,0.00368029,0.00339135,0.670512,0.00353832,0.00332821,0.0036133,0.701151,0.702839,0.704008,0.705593,0.715922,0.717417,0.719678,0.726106,0.736078,0.739958,0.742272,0.742476,0.744214,0.745149,0.775207,0.777643,0.785093,0.786619,0.00351541,0.797881,0.801192,0.802001,0.805421,0.807733,0.806664,0.823037,0.822863,0.0035342,0.00363328,0.00328552,0.00366044,0.00331211,0.861473,0.865391,0.868777,0.872721,0.87502,0.879496,0.881904,0.00318712,0.00377616,0.899129,0.907719,0.909568,0.00341674,0.920725,0.927131,0.935604,0.938561,0.0032913,0.949935,0.953732,0.956483,0.964244,0.965813,0.971558,0.974216,0.979451,0.98509,0.988355,0.993119,0.994796,0.997922,1.00467,1.00901,1.01045,1.01575,1.01948,1.0191,1.0216,1.02307,1.02486,1.04936,0.00344219,1.04809,1.05155,1.05204,0.00342895,0.00360092,1.07213,1.07772,1.08199,1.08911,1.09003,1.09498,1.09791,1.09923,1.10165,1.10483,1.10866,1.10962,1.11874,1.12647,1.1329,1.1354,1.14345,1.1472,1.15004,1.15798,1.16194,1.16326,1.16759,1.17269,1.17858,1.18114,1.17849,1.18451,1.186,1.1863,1.19581,1.20029,1.19856,1.20101,1.20848,1.21266,0.00331876,1.23742,1.23698,1.23832,1.24667,1.24734,1.25044,1.25309,1.25477,1.25658,1.2573,1.26258,1.26291,1.26486,1.27191,1.27481,1.27471,1.27811,1.28298,1.28792,1.28877,1.29936,1.30388,1.30688,1.31461,1.31791,1.32258,1.33039,1.33117,1.33968,1.34415,1.34567,1.35197,1.35514,0.00322464,0.00363208,1.4746,1.38572,1.39376,1.39551,1.40425
0.132021,0.131332,0.144132,0.148568,0.148336,0.157847,0.148785,0.161713,0.161393,0.162824,0.163979,0.165243,0.165824,0.171786,0.172095,0.175474,0.176596,0.175426,0.173214,0.180026,0.176627,0.18349,0.184311,0.183242,0.200361,0.200175,0.195028,0.195078,0.207072,0.206516,0.2069,0.207296,0.208846,0.210883,0.219852,0.219753,0.228312,0.227447,0.229052,0.237154,0.240529,0.240466,0.252079,0.255546,0.258475,0.00351429,0.00351324,0.00357508,0.00338238,0.00359118,0.00356986,0.296611,0.298457,0.306674,0.30734,0.308286,0.307859,0.316581,0.003507,0.322965,0.32733,0.329461,0.331754,0.340469,0.342373,0.350755,0.353275,0.352834,0.358663,0.363234,0.362302,0.363454,0.370457,0.371481,0.369297,0.385463,0.393064,0.395668,0.399573,0.398138,0.401774,0.404058,0.415918,0.418778,0.418787,0.425641,0.42526,0.440453,0.444889,0.447849,0.450784,0.456792,0.456983,0.464164,0.466009,0.486634,0.483324,0.4906,0.500454,0.500332,0.500533,0.504584,0.504507,0.514562,0.516885,0.521337,0.522352,0.526075,0.531689,0.534182,0.534867,0.541784,0.54244,0.543946,0.544517,0.56406,0.564465,0.565968,0.573828,0.00346057,0.587445,0.592929,0.59776,0.602506,0.603039,0.607437,0.610227,0.613635,0.618168,0.62169,0.622731,0.635948,0.637672,0.638498,0.642656,0.645499,0.646889,0.647752,0.663611,0.665492,0.667778,0.669935,0.671416,0.683194,0.6854,0.687767,0.689092,0.690399,0.71509,0.713955,0.00350755,0.00352489,0.00348661,0.742155,0.742424,0.743716,0.751957,0.752292,0.769164,0.771307,0.773502,0.785049,0.790465,0.785197,0.786665,0.00322204,0.803249,0.801951,0.808082,0.810771,0.811833,0.825657,0.828651,0.840874,0.843955,0.844903,0.00338948,0.00347404,0.866713,0.87425,0.877013,0.87946,0.884838,0.888994,0.894307,0.896263,0.00358601,1.1291,0.916562,0.920641,0.922158,0.923267,0.927306,0.92881,0.00354133,0.00342238,0.953152,0.957141,0.966143,0.966968,0.00328553,0.00344768,0.983314,0.986714,0.98916,0.99426,0.997465,1.00425,1.00966,1.01435,1.02288,1.01977,1.02057,1.02322,1.02716,1.02748,0.00356139,0.00332754,0.00332883,1.05617,1.06089,1.06418,1.06826,1.07368,1.0789,1.08376,1.08566,1.08973,1.09223,1.10459,1.10603,1.10674,1.11409,1.1133,1.11831,1.1222,1.1305,1.13696,1.13787,1.14496,1.14516,1.15469,1.15973,1.16113,1.16696,1.17399,1.17381,1.1777,1.1812,1.18516,1.18279,1.18746,1.18786,1.20538,1.20528,1.20645,1.21034,1.21382,1.21573,1.22604,1.2291,1.235,1.24065,1.24483,1.24761,1.25215,1.3072,1.2564,1.2635,1.2631,1.26442,1.2641,1.26571,1.26784,1.27371,1.27673,1.28659,1.29429,1.29843,1.30442,1.30639,1.3102,1.31395,1.31751,1.32083,1.32454,1.32504,1.33404,1.33944,1.34595,1.34822,1.37046,1.37027,1.37191,1.38236,1.38905,1.39536,1.39822,1.39757,0.00337376
0.130115,0.133374,0.134257,0.0034709,0.147663,0.148299,0.156233,0.16051,0.16119,0.162816,0.159267,0.160181,0.161114,0.16566,0.164258,0.166177,0.164901,0.170587,0.169306,0.17025,0.175855,0.177291,0.177325,0.183202,0.185894,0.186561,0.192996,0.198563,0.200119,0.200942,0.20284,0.210024,0.208975,0.211684,0.212081,0.216413,0.21557,0.224942,0.225622,0.226712,0.226982,0.238336,0.2364,0.240479,0.250718,0.252901,0.00354051,0.00322162,0.265169,0.00323936,0.00338044,0.00338392,0.300134,0.299221,0.299494,0.304549,0.303359,0.313601,0.320749,0.320678,0.320641,0.0032801,0.331708,0.333577,0.350974,0.353342,0.352988,0.360293,0.36141,0.363663,0.364171,0.368798,0.366943,0.370076,0.385775,0.38898,0.389932,0.396212,0.396941,0.39833,0.403379,0.413548,0.415137,0.414387,0.418816,0.418603,0.435202,0.00334201,0.441462,0.448414,0.00356838,0.463286,0.464913,0.465633,0.470544,0.483943,0.485405,0.494023,0.494412,0.496847,0.500312,0.504355,0.511375,0.513948,0.515084,0.522717,0.525199,0.52904,0.532573,0.534061,0.535686,0.536751,0.545517,0.548358,0.546889,0.54629,0.00353536,0.574065,0.576626,0.583296,0.585707,0.586232,0.586942,0.599533,0.60208,0.602967,0.611543,0.613804,0.614728,0.624913,0.627531,0.634718,0.635558,0.640154,0.643224,0.645809,0.647167,0.656483,0.645628,0.637155,0.667533,0.696481,0.683825,0.687036,0.687572,0.688269,0.69687,0.00330992,0.712877,0.715225,0.721373,0.723373,0.00329002,0.745745,0.744339,0.745277,0.752471,0.752885,0.766603,0.772849,0.775291,0.777676,0.780745,0.780851,0.790112,0.788268,0.787128,0.00352029,0.806167,0.810875,0.811035,0.811272,0.00338012,0.00322925,0.843035,0.00324228,0.861341,0.865967,0.871162,0.003273,0.00323688,0.00343033,0.891292,0.893988,0.894425,0.898657,0.898579,0.909619,0.912012,0.00344073,0.00365049,0.926122,0.928422,0.931828,0.934223,0.935428,0.95347,0.00330906,0.961412,0.963373,0.964756,0.00353276,0.983995,0.988519,0.992531,0.994883,1.00249,1.00507,1.00769,0.00343867,1.01316,1.02191,1.021,0.00323458,1.03618,1.03818,1.04226,1.04387,1.05322,1.05928,1.06313,1.07078,1.07428,1.08006,1.08147,1.08501,1.08832,0.00340781,1.10612,1.10769,1.11021,1.1123,1.11793,1.11861,1.12136,1.1244,1.13,1.13424,1.14431,1.14543,1.14786,1.15481,1.16198,1.16527,1.16879,1.17731,1.17992,1.18339,1.18699,1.18906,1.18939,1.19144,1.20755,1.21202,1.2135,1.20245,1.20381,0.00333622,1.22377,1.2321,1.23123,1.23727,1.24652,1.25074,1.25326,1.25819,1.26149,1.26829,1.27037,1.2719,1.27015,1.27137,1.27742,1.277,1.28459,1.28804,1.2964,0.00318424,1.30806,1.30919,1.31873,1.32335,1.32284,1.32639,1.3286,1.33662,1.33718,1.33896,1.35473,1.35543,1.35818,1.3668,1.37722,1.37848,1.38879,1.4031,1.41406,1.41547,1.41545,1.41689
0.130798,0.126957,0.126598,0.127303,0.00343684,0.00318832,0.15039,0.14887,0.158783,0.1567,0.160919,0.156077,0.158065,0.161662,0.16267,0.165565,0.167615,0.168728,0.16767,0.16797,0.176019,0.177569,0.175554,0.184013,0.183662,0.183812,0.18481,0.195026,0.194074,0.195726,0.199888,0.199919,0.199717,0.210316,0.210669,0.2112,0.212587,0.213121,0.226983,0.228144,0.233603,0.235084,0.235418,0.238476,0.244974,0.00338986,0.249841,0.26589,0.267588,0.278566,0.28043,0.279988,0.00339467,0.290123,0.291808,0.305223,0.306849,0.308156,0.308868,0.324152,0.322311,0.330881,0.329896,0.329805,0.334394,0.350171,0.345811,0.35806,0.3578,0.362241,0.3629,0.368555,0.372885,0.366767,0.389631,0.385435,0.392672,0.394783,0.396159,0.398712,0.401085,0.417047,0.417528,0.417201,0.4172,0.003576,0.00338223,0.428727,0.0033608,0.00348837,0.00337535,0.460087,0.00348852,0.00344619,0.473224,0.473057,0.00343739,0.494104,0.498171,0.498085,0.50092,0.504626,0.512461,0.515213,0.514862,0.516314,0.5177,0.535902,0.537202,0.539375,0.538838,0.54465,0.5492,0.551033,0.551576,0.560657,0.562029,0.567465,0.579202,0.578236,0.586928,0.587092,0.596224,0.597574,0.600836,0.604735,0.00334423,0.620435,0.619458,0.621367,0.6293,0.633217,0.635052,0.635531,0.639819,0.641728,0.646352,0.646095,0.648047,0.648675,0.643504,0.645063,0.64775,0.652113,0.653672,0.700166,0.0029686,0.00349879,0.00346406,0.0035817,0.00343748,0.7301,0.00349865,0.00354501,0.00334174,0.752012,0.00334298,0.00347436,0.00353035,0.769872,0.776971,0.780451,0.784848,0.787052,0.785484,0.785222,0.794084,0.797302,0.804145,0.811426,0.00325224,0.831597,0.842806,0.844613,0.853333,0.856877,0.859456,0.866654,0.871608,0.878786,0.881987,0.885818,0.888488,0.89958,0.904511,0.904921,0.907787,0.909703,0.901176,0.903874,0.904807,0.00359487,0.930969,0.93352,0.936979,0.940342,0.949375,0.951697,0.00342117,0.967041,0.971968,0.978113,0.978616,0.00358807,0.990661,0.994924,0.00322327,1.00648,0.00338924,1.01351,1.01687,1.02112,1.024,0.00338118,1.03891,0.00353543,1.05058,1.05348,1.05841,1.06101,1.068,1.07196,0.00344682,1.08518,1.08794,1.09174,1.09532,1.10379,1.10814,1.11209,1.11459,1.1179,1.12178,0.00334573,0.00324913,1.14422,1.14428,1.14542,1.14909,1.15187,1.15598,1.16699,1.17226,1.16854,1.17209,1.17869,1.18465,1.18661,1.19095,1.19153,1.19422,1.19738,1.20554,1.21198,1.20246,1.20511,1.2231,1.22961,1.23217,1.24025,1.24521,1.24675,1.24751,1.25441,1.26636,1.26561,1.2714,1.27121,1.27845,1.28143,0.00339323,0.00364167,0.00331607,0.00329216,0.00326165,1.30662,0.00328225,0.00348606,1.31848,1.3239,0.00353075,1.33355,1.33179,1.3312,1.33634,1.33925,1.3378,1.34446,1.3461,1.35812,1.36838,1.38037,1.38033,1.39096,1.39337,1.41146,1.41266,1.42176,1.42229,1.43126
0.122363,0.129594,0.128589,0.128052,0.128183,0.126946,0.149454,0.148979,0.152469,0.157632,0.15732,0.158014,0.158092,0.158118,0.164331,0.165214,0.165445,0.165471,0.164152,0.169364,0.170245,0.171922,0.173399,0.180494,0.177794,0.177723,0.189192,0.190443,0.197055,0.197252,0.198841,0.200288,0.199411,0.204377,0.203865,0.214446,0.215748,0.214165,0.224687,0.224975,0.00344739,0.231255,0.236792,0.236749,0.244529,0.244431,0.244717,0.00336772,0.00356905,0.00336641,0.269167,0.00349212,0.290084,0.290726,0.290445,0.290814,0.307131,0.308042,0.317368,0.320948,0.320726,0.321198,0.331838,0.334885,0.337306,0.337956,0.346523,0.347452,0.34778,0.359536,0.358234,0.357228,0.357368,0.357083,0.375778,0.375728,0.377003,0.394278,0.39352,0.411712,0.413182,0.415056,0.417874,0.4166,0.00327723,0.424168,0.422551,0.00338815,0.00348176,0.445013,0.446135,0.448229,0.454499,0.456336,0.469313,0.469653,0.470174,0.00319739,0.00355842,0.501513,0.507065,0.51246,0.513421,0.515475,0.520916,0.518894,0.529071,0.530472,0.530483,0.530298,0.54175,0.543815,0.545255,0.543946,0.545909,0.559179,0.560556,0.567287,0.569946,0.577369,0.580643,0.587583,0.591053,0.594232,0.60026,0.597484,0.598212,0.00335734,0.625234,0.627325,0.00360069,0.642404,0.644641,0.647907,0.647757,0.649244,0.651531,0.648486,0.667014,0.667568,0.629645,0.688467,0.676353,0.715933,0.703151,0.705125,0.695947,0.702244,0.702799,0.707822,0.00346726,0.725209,0.732379,0.734865,0.735616,0.744132,0.744415,0.751259,0.752505,0.00348281,0.775632,0.778224,0.780148,0.784805,0.788266,0.789799,0.803873,0.803981,0.807345,0.00338888,0.00361714,0.00353501,0.00344044,0.846636,0.854542,0.858027,0.860232,0.8669,0.868843,0.878637,0.883652,0.887793,0.887767,0.00319098,0.902412,0.906503,0.909756,0.911361,0.909263,0.909947,0.907118,0.00338308,0.971793,0.9355,0.937965,0.940018,0.947493,0.948167,0.961505,0.968574,0.970255,0.973424,0.977178,0.00345103,0.990295,0.996332,1.00119,1.005,1.00681,1.01188,1.01683,1.01797,1.01837,1.02931,1.03035,0.00329464,0.00343982,0.00339627,1.24254,1.24308,0.00375495,0.00338194,1.08656,1.08982,1.09628,1.09824,1.09895,1.10104,1.10385,1.11261,1.11959,1.11986,1.1441,0.00342194,1.14226,1.14411,1.14741,1.14948,1.23359,0.0033765,1.16587,0.00344617,1.17281,1.17811,1.18127,1.18383,1.18803,1.1912,1.19388,1.197,1.19977,1.20285,1.20813,1.21008,1.21235,0.0034639,1.23263,1.23584,1.23775,0.00342906,1.24955,0.00331828,0.00339996,1.26391,1.2673,1.27763,1.27826,1.28938,1.29873,1.30151,1.30295,1.30424,1.30783,1.30711,1.31329,1.32217,1.32351,1.33032,1.33279,1.33292,1.33597,1.34055,1.34175,1.34406,1.34713,1.34943,1.34947,1.35572,1.35794,1.36487,1.37341,1.37543,1.38011,1.38875,1.39457,1.39668,1.40834,1.42129,1.42387,1.43391
0.121541,0.121279,0.128272,0.130329,0.129728,0.130379,0.131276,0.135466,0.137483,0.137426,0.136663,0.158012,0.157536,0.157106,0.158683,0.159894,0.15903,0.165477,0.163349,0.164155,0.156274,0.156715,0.173902,0.173246,0.173937,0.179038,0.179864,0.182033,0.182685,0.183672,0.199425,0.20004,0.200294,0.20612,0.206039,0.210494,0.213105,0.213386,0.21457,0.213319,0.228242,0.232126,0.23147,0.236069,0.240162,0.241941,0.247307,0.256122,0.00334995,0.00340944,0.00344793,0.00345946,0.287604,0.287145,0.291305,0.293098,0.00328938,0.314829,0.314727,0.312317,0.317294,0.324384,0.323352,0.32622,0.325232,0.339264,0.341036,0.341741,0.350825,0.358963,0.359788,0.357293,0.360051,0.361496,0.377165,0.378112,0.383281,0.379377,0.379312,0.401839,0.401586,0.403925,0.409265,0.417352,0.418177,0.423577,0.425895,0.00346965,0.00337655,0.445884,0.446822,0.452018,0.451854,0.452451,0.45521,0.463494,0.0031329,0.00346041,0.00327205,0.491558,0.508098,0.510189,0.51163,0.512526,0.515407,0.528111,0.528361,0.530154,0.533486,0.533081,0.541696,0.545223,0.545792,0.546336,0.552289,0.559671,0.563881,0.566206,0.566642,0.57506,0.578109,0.580664,0.594525,0.598034,0.600142,0.601257,0.599575,0.597506,0.620087,0.620976,0.622357,0.628943,0.646741,0.649128,0.652273,0.653301,0.658769,0.663155,0.663084,0.650489,0.687768,0.00326951,0.714359,0.706165,0.718346,0.716047,0.702525,0.70666,0.708251,0.704997,0.704496,0.725594,0.00350423,0.739346,0.742041,0.744321,0.745405,0.747147,0.00345528,0.766621,0.770884,0.772934,0.780385,0.785444,0.787006,0.786532,0.00334534,0.817449,0.819365,0.820441,0.00313138,0.842115,0.844356,0.845876,0.855076,0.00355738,0.867069,0.869739,0.874994,0.876424,0.878109,0.880681,0.884263,0.899875,0.902747,0.907233,0.909319,0.911374,0.91417,0.915612,0.924929,0.9267,0.927566,0.00359593,0.00343596,0.00323156,0.960816,0.00334936,0.0032442,0.977365,0.981196,0.98259,0.98488,0.00357562,0.99737,0.99904,1.00218,1.00833,1.01148,0.00351903,0.00330871,0.00344461,1.0239,1.02612,1.03206,0.00361303,0.00326524,0.00370188,1.06489,1.07519,0.00330939,1.08851,1.09121,1.09465,1.0939,1.09751,0.00352924,1.11523,1.11724,1.15393,1.13161,1.13259,1.13605,0.00333289,0.00318738,0.0033918,0.00338488,1.17171,1.17169,1.17349,1.17485,1.18296,1.1868,1.18832,1.19548,1.19305,1.19634,1.199,1.22904,1.20474,1.20347,1.20513,1.21397,1.4317,1.22902,0.00333554,0.00317824,1.47823,1.26988,1.27126,1.27411,1.27609,1.29417,1.28481,1.28856,1.28908,1.293,1.29992,1.29908,1.547,1.31291,1.31622,1.31893,1.49285,1.33261,1.33646,1.34241,1.33927,1.34486,1.34617,1.34684,1.34638,1.35322,1.35744,1.35771,1.35892,1.3603,1.36709,1.37197,1.37556,1.37537,1.38111,1.38477,1.38808,1.38842,1.39909,1.39864,1.61357,1.41748,1.43038
