1.16837455958163,1.16873476394797,1.17084326403936,1.17007831091498,1.18184200510152,1.18206826294061,1.1842840698028,1.1839095119728,1.19433733652302,1.19559155762536,1.19828677863331,1.19900535535988,1.20159591837841,1.20250887607538,1.20481971268743,1.20469876514628,1.21060108194806,1.21252663247365,1.21485190339622,1.21718927982729,1.21846004481209,1.21982118919655,1.22204377256703,1.22424620058658,1.22573992503539,1.22708914720173,1.24095709180546,1.24189005953421,1.24378632929506,1.24458378215128,1.24662319791672,1.24795791010391,1.25150421664186,1.25521670499916,1.2563111867712,1.25733111970605,1.26072976872204,1.26444360858536,1.26476103857659,1.26590103781257,1.26726322546919,1.26840808939894,1.26936608681652,1.26913845254582,1.27140383849833,1.27237497410133,1.27437575917111,1.27491013231404,1.28714219883776,1.28626375951216,1.28741220937936,1.28759822817848,1.28897669933603,1.28885595836212,1.31445471877662,1.35146088225828,1.32493123321457,1.31164890462862,1.32124263920941,1.36027949329396,1.32972338519871,1.32996036642855,1.33230841490807,1.33477555748972,1.33573095296258,1.33680969754605,1.33764505977301,1.37591894918107,1.36095936211549,1.38081999535551,1.35136367581461,1.35329283484638,1.35458021943621,1.35627217829633,1.3578429971092,1.36020604614082,1.35911660617657,1.35834257304718,1.35897229338587,1.35823585168652,1.36145277362029,1.39865998189397,1.36771953463824,1.37071466758017,1.3716181248183,1.3741470203677,1.37613701130131,1.37876680566789,1.38030463389935,1.38263281316421,1.38275601028863,1.38378154575898,1.38538449434775,1.38721507557888,1.38943334991133,1.39621615575959,1.39665444027883,1.398159854943,1.39978691720573,1.40298666290294,1.40218488226401,1.40374185475712,1.4039523949133,1.40617213214392,1.40669659012894,1.40840601964979,1.40932575721377,1.41087635076003,1.41300935576296,1.41561123886289,1.41637844447181,1.41652045305789,1.41949143866971,1.42124631525341,1.42384865395482,1.4265213166929,1.42705514547357,1.42776332819527,1.43038194980183,1.43344740665915,1.43376306106702,1.43546424203745,1.43592607423482,1.43835616581687,1.43779252144023,1.43698495442948,1.44400524244337,1.4486901254803,1.44837585746569,1.45108378782315,1.45078370739956,1.46529220840044,1.46574629139277,1.46510555399271,1.46751382124056,1.4712118003745,1.47091190027896,1.47250067905452,1.47370736578073,1.48350885231767,1.48286280346084,1.48554696284449,1.49085873408158,1.49427162907387,1.49894477518513,1.50781118633928,1.51013599418616,1.51285326406811,1.51710287200814,1.5190126548755,1.52001714625448,1.52011069950441,1.52290856142223,1.53206704212655,1.53104229989774,1.53089653099592,1.53327068289772,1.53538541723174,1.5369265248056,1.53882472011234,1.53977112986739,1.54187826594062,1.54069185021894,1.54039641661061,1.53851561869313,1.53734880294656,1.53594697436847,1.53496264151785,1.54892126610955,1.58674959743616,1.5792331761644
1.16893989331438,1.16961644604793,1.17112815201228,1.17154113655539,1.18300929858691,1.18411305573231,1.18715286011206,1.18886107081845,1.19346624183273,1.19593079570603,1.19814349744806,1.19934710741697,1.2014435379858,1.20283941530215,1.20476393009541,1.20622855294773,1.2096731321063,1.21213662358535,1.21415461180526,1.21562606251346,1.21729139947162,1.21844155741745,1.22038443519887,1.2217478468915,1.22329605735393,1.22509574125824,1.23959603506965,1.24389998396754,1.24412318704117,1.24496524092838,1.2465173994324,1.24832192880446,1.25117406099362,1.25473210920208,1.25656111087978,1.25792617699344,1.26041815527096,1.26238308399723,1.26413542284289,1.26533171916446,1.26743295561023,1.26891733938612,1.27068436613469,1.27182840864017,1.27351601251728,1.27490531750262,1.27711539913855,1.27951521524279,1.28449769311068,1.28606364492558,1.28785942436779,1.28904126899921,1.29020126281721,1.29082410153924,1.29744632771225,1.29972713610153,1.30255691771059,1.30649331314783,1.31476279528471,1.34616148886194,1.32833066617214,1.32865784468312,1.33074560537546,1.33274862145398,1.33429395133311,1.3358204845934,1.33737082767198,1.33923491022811,1.34129621266097,1.34483163179291,1.3497861926139,1.35189193983902,1.35401246611,1.35526318659793,1.35700670425855,1.35795558677108,1.35853079475456,1.35863506018953,1.35957910087483,1.3604781433106,1.36231604484101,1.36449322112512,1.36688702117032,1.36920665227068,1.37126188346045,1.37382105289859,1.3763583344658,1.37888622178825,1.38048654262109,1.3817510206406,1.38283347259034,1.38368905835062,1.38606740980409,1.3877043828111,1.39001738945078,1.39712627229646,1.39820035393884,1.39890261575781,1.40075780448881,1.40179238743122,1.40254217740816,1.40267671660551,1.40397227022699,1.4046475063984,1.40661612269881,1.40773380952279,1.40923979562593,1.41021038283087,1.4127576350388,1.41491929344993,1.41632118447383,1.41764183107764,1.41965404186741,1.42133630998572,1.42348806928412,1.42563942730655,1.42666848694722,1.42779697217043,1.42992365960659,1.43208304690535,1.43350897042255,1.43473567693926,1.43608079978614,1.43732719144109,1.4387096537596,1.44014048289595,1.44367855461717,1.44634372490346,1.44800198793774,1.44935803786718,1.44962931318347,1.46611955967447,1.46608635877589,1.46578902946619,1.46685247900981,1.46823490898135,1.46994821667762,1.47159655312842,1.47387768011298,1.48103014239271,1.48237657389276,1.48436225853216,1.48765640184158,1.49105408555071,1.49821885479593,1.50477575349993,1.5058514479779,1.51619879136378,1.5178727119887,1.51862524784307,1.51919069325281,1.51979378209019,1.52123347363512,1.52365625577517,1.52651603065355,1.52912884332993,1.5314009495139,1.53313108226324,1.53560622009149,1.53747807379267,1.53857626188,1.53908413162144,1.5390295823491,1.5386096005796,1.53767331808848,1.53666709726414,1.53539178282,1.53527978744222,1.53998409143355,1.54503978516677,1.55184917486864
1.16999046014648,1.16966847473772,1.17222681483656,1.17348428398891,1.18311354706156,1.19645482237375,1.19133147109284,1.19064235611685,1.19396760343675,1.19631980899215,1.19811327421972,1.19890517707748,1.2013298282165,1.20277079458871,1.20478936570262,1.205739305859,1.20943082782189,1.21237016887548,1.21349229919497,1.21392556005339,1.215966828403,1.21626949556041,1.21871167254725,1.21945965034241,1.22049400814988,1.21916540590489,1.2374819122227,1.24604159901785,1.24415826926013,1.26006613900677,1.24640265536576,1.24802680568646,1.24949681898451,1.25659103125823,1.25637105236725,1.2583098024633,1.25979260346398,1.26136378814173,1.26297591176465,1.26471611852386,1.26706732726364,1.26999890621502,1.27156113093559,1.27477230025145,1.27501070490692,1.27725040995221,1.27872887129511,1.28163208213707,1.28393451865393,1.28531270144186,1.28788633777401,1.2903330275118,1.29136177435859,1.2932359399805,1.29512649736253,1.29455380357936,1.29564267661057,1.2953063736944,1.3099109086997,1.36515998993168,1.32693479684995,1.32579639091166,1.32919131688982,1.33097681657043,1.33289793099696,1.33506487815475,1.33685225537899,1.33960355575723,1.34019313177366,1.34158365880174,1.3505701590838,1.35043813049789,1.35310825259898,1.3536605716336,1.35579276156649,1.35621441074529,1.35741324943693,1.35824211251977,1.35945350661573,1.36164823751094,1.36238086971477,1.3640385007421,1.3661409105068,1.36793275938191,1.370784169563,1.3737090703455,1.37636311199018,1.38022259768489,1.38018158785156,1.38149709743754,1.38196713826723,1.38250146013392,1.38572510384437,1.3872336325101,1.39048263931071,1.43256998441594,1.39864340195976,1.39934238069295,1.40079376262688,1.40246763367533,1.40169090092286,1.40263996831066,1.40274893600041,1.40411783609065,1.40567477171342,1.40864073774638,1.4083460372272,1.40926339521231,1.41194579216097,1.41538019899355,1.41566503031791,1.46878999971575,1.41963786760628,1.42063594107424,1.4228073616761,1.42587084974882,1.42588670703345,1.42717561118207,1.42898064681535,1.43208770545989,1.43276111802583,1.43479610198118,1.4354413004457,1.43726384523771,1.43859298488899,1.44169153943861,1.44308324809558,1.44545605019973,1.44760002151063,1.44952983754494,1.44983888127319,1.56984999988175,1.46590308671292,1.46554583594075,1.46520060370661,1.4664280837418,1.46812178660254,1.47135187738827,1.47215494987279,1.48108228149345,1.48073694400152,1.48240944135342,1.48404090275297,1.48338003327858,1.49820448078959,1.5005649694541,1.5026451739179,1.59784000040089,1.51830633840628,1.51700046444292,1.51829370184121,1.51784022224674,1.519185386325,1.51843936634936,1.52415639975514,1.52725282788105,1.52964816500481,1.52997380401271,1.53422437377996,1.53673027180783,1.53744264628535,1.53648104751648,1.53765454330698,1.53694485217529,1.53696749018762,1.53608478458804,1.53358676636254,1.53084706741015,1.52954978275928,1.5284152823648,1.52842290514102
1.17243454511302,1.1730458038719,1.17467536124878,1.17602776234512,1.18293006349126,1.18878737708266,1.1908777862169,1.19252317069237,1.19506632590568,1.19713357694233,1.19918073893668,1.20051151527553,1.20251816560758,1.20404937281695,1.20614005600287,1.20788286813745,1.21034738483344,1.21231904507537,1.21383333337203,1.21473433214308,1.21652234018992,1.21766006856781,1.21902922069467,1.21966600122803,1.22029111529483,1.22008820606442,1.23493738767721,1.24404956434119,1.24285819479645,1.24357377810647,1.24513446144579,1.24591032120492,1.24799433724312,1.2520130059341,1.25430469242912,1.25942033843222,1.25978121333726,1.26045187569626,1.26247156376319,1.26431711974859,1.26702009450241,1.26929368788195,1.27172471138451,1.27372526504857,1.27539544120027,1.27683662776994,1.27954067440647,1.28233052256681,1.28453056575571,1.28592313288982,1.28812449996812,1.28977428728485,1.29175588913327,1.29337779835111,1.2952325334757,1.29594590119426,1.29684777970399,1.29714596823301,1.30662775532062,1.30989985887076,1.3129328025237,1.32775298760093,1.32877416148474,1.32934693870938,1.33104165087858,1.33388163250791,1.33597846257555,1.33737732371254,1.33864140982243,1.34509572817262,1.35111441165797,1.35205067893681,1.35381979636068,1.35484688140456,1.35587049712797,1.35592172127112,1.35661347658074,1.35709992793191,1.35830609290274,1.35955405132345,1.36140289347366,1.36336498154642,1.36554798276447,1.36779559190835,1.37024671124159,1.37275061029523,1.37520088494513,1.37729862540536,1.37867000821379,1.37952001081128,1.38117514904316,1.38367575074069,1.38671967807356,1.38924981177371,1.39231436045778,1.39431059148548,1.39756374742272,1.39971338349306,1.40090508820214,1.40064492312769,1.40058111675988,1.40079724009776,1.40234767847916,1.40339596093348,1.40540182688088,1.40660943530277,1.40793787084056,1.40871972419623,1.41132651340066,1.41351003879193,1.4151744022347,1.41662433853355,1.41813734402476,1.41912114260867,1.42108679596634,1.42297430699164,1.4240347061993,1.42520116149227,1.42726035124795,1.42949695643223,1.43140618146959,1.43318121215798,1.43455166400888,1.43583946573502,1.437653245874,1.43956570338137,1.44200374211089,1.4459921811883,1.44787878352711,1.44975474597085,1.45111825350886,1.45354862303883,1.45710998288293,1.46152359622747,1.46300327180447,1.46426294949019,1.46632940508319,1.46887644670322,1.47164601624423,1.47552204848199,1.47799196292092,1.48162559546761,1.48359159596466,1.48301745936982,1.49766063788382,1.49762686552831,1.49789668744289,1.4997964209854,1.50135588142341,1.50325915633247,1.5066048079539,1.51041186212278,1.51382944636939,1.51614894275781,1.51938934173905,1.52103793704315,1.52125679886216,1.52050198630096,1.52098938239165,1.52184740766582,1.52300399107647,1.52464461017912,1.52699130040113,1.52946545912407,1.53145775769101,1.53220100804108,1.53139102404589,1.53063706222882,1.52878010549234,1.52733120602871,1.52755076660823
1.17422501889313,1.17544671383946,1.17643125779013,1.17940356973869,1.18299641432159,1.18620541384931,1.19010535913448,1.19314470609891,1.19572266713704,1.19806125446352,1.19999844873347,1.2017870541259,1.20347049414906,1.2051815154284,1.20732699989982,1.20971421858128,1.21136106752628,1.21319325227633,1.21429541850605,1.21501807485857,1.21717066909018,1.21907650640429,1.21970574830307,1.22027467731751,1.2209524191971,1.22101803100713,1.23214220637196,1.36209999990061,1.23636244616227,1.2316554560434,1.24015891450491,1.24274772638805,1.24369170801879,1.24328095598349,1.25108916934199,1.26317402549709,1.25902807183294,1.25885445793203,1.2611636599657,1.2638647511515,1.26618731730203,1.26938532876069,1.27112934641126,1.27399731239912,1.27481445540431,1.27596865202454,1.27917415593768,1.28410418146218,1.2847027418687,1.2861563194836,1.28779994986543,1.2892709326137,1.29161857596118,1.29359986415854,1.29578172054241,1.29715217668522,1.29825814073485,1.29910262385492,1.30098856713076,1.30190890636658,1.30940549234756,1.36517999629008,1.32783402169297,1.32575684298235,1.32771413640442,1.32596909130522,1.32530749089186,1.32632767717885,1.32933817187242,1.5189399999072,1.40023420965765,1.42690246312624,1.42622058882917,1.42813171043879,1.35537024389661,1.35441354238742,1.3550386581286,1.35504295292859,1.35639390241318,1.35671209671173,1.35974371328778,1.36220615480265,1.3645841857605,1.36704424047825,1.36954992745056,1.37143819307467,1.37396138485696,1.37490994152919,1.37692258182991,1.37662197336671,1.37862348845876,1.50011000014621,1.43973353002495,1.49693000021575,1.3927380704381,1.39118688160953,1.39530547610073,1.48596000024071,1.40053122650438,1.39883646778891,1.39774524974563,1.39911665914998,1.4007841805821,1.40374401613018,1.40419922797012,1.40635991382844,1.40657580727967,1.40786467786363,1.40998484727678,1.41275608309863,1.41407852377873,1.41625471465257,1.4165376537398,1.41637713768123,1.41903661532519,1.42092697416221,1.42177059019079,1.42272718739144,1.42495858632003,1.42792867073047,1.42954235166989,1.43282564031837,1.43288078282414,1.43479578076929,1.43574323892311,1.43763296428974,1.43881673783455,1.44906000947699,1.44785793270668,1.45046038246685,1.45129338553212,1.45226399469423,1.45607538410464,1.46082992832117,1.46079340757307,1.46261981830357,1.46351905527459,1.46752564504777,1.46955053457383,1.47199326974918,1.47312042320664,1.4834904164062,1.48474586213318,1.48212238884938,1.49616845148691,1.49372756983749,1.49445425929274,1.49239058543358,1.49529063462773,1.50247339741146,1.50266114478486,1.5031315023377,1.50762883232204,1.51198937199754,1.51173465953326,1.51135785945224,1.51510240155186,1.51881501685626,1.52024602924848,1.52127835761319,1.5228183815707,1.52428219222534,1.52372650866698,1.52335140672468,1.52373544939851,1.52458287965449,1.52828860951127,1.55920998034577,1.52685772602311,1.5242950318908,1.52270317376599
1.17356037265905,1.17443303014516,1.17660704651756,1.17990239537044,1.18378893002008,1.18707463786064,1.19001788845207,1.19291313489546,1.19668613546406,1.19910402823051,1.201353763528,1.20313538626603,1.20488007476978,1.2064439743449,1.20872724087978,1.21084790561745,1.21267376974807,1.21417675692513,1.21563732031266,1.21687182318517,1.21845278319348,1.21981083024903,1.22073661866021,1.22147158831087,1.22249733720357,1.22384726656925,1.22924487797896,1.2309089751665,1.23307982982446,1.23384606579335,1.23721808681308,1.23892100867189,1.24072408391419,1.24166742232981,1.24803683119166,1.24992855130712,1.25467967627529,1.25763842603882,1.2602128331642,1.26249786409012,1.2653597402288,1.26797368591841,1.27045664747562,1.27257953054595,1.27482558061823,1.27621833753856,1.27959920461858,1.28248027569699,1.28459241578217,1.28604335373228,1.28826248829188,1.2900561530051,1.29255067533746,1.29563202419379,1.29761082522886,1.29903618571854,1.30002107918588,1.30094196886678,1.30211322500737,1.30342403892668,1.30530245753442,1.30736957306152,1.30969856675338,1.31238508331673,1.31536830628262,1.31848512685545,1.32321869755546,1.32606209477497,1.32816112468974,1.36817270007967,1.3844954658569,1.42500871376507,1.42493937248792,1.42562462213206,1.3543085512101,1.35318838091401,1.35352619797572,1.35417463047282,1.35527445506676,1.35652782729378,1.35840090792947,1.3605643997086,1.36300171114855,1.36608906413237,1.36871759918878,1.37109089266801,1.37346731526314,1.37549429197717,1.37682116070906,1.37684481634322,1.37760867129493,1.37777411209335,1.37836962259807,1.38015343313351,1.38346338646811,1.38550166226752,1.38599949975655,1.38548871946213,1.38661999060928,1.38955749998659,1.39328406734628,1.3965603718917,1.39962360624042,1.40157567435746,1.40318144934702,1.40391496632789,1.40595846189849,1.40749632111449,1.40927836836102,1.41076346984214,1.41246451588662,1.41387095114081,1.41517792616801,1.4159209769895,1.41758433364348,1.41865129231113,1.41957336770268,1.42041482467691,1.42251879120766,1.42471404763371,1.42684966520975,1.42882526173673,1.43023501012798,1.43151923719231,1.43356561237664,1.43593704224288,1.43750845097852,1.44015595004519,1.44417046467948,1.44898829099307,1.45087175190694,1.45187441322525,1.45388650439273,1.45571906634771,1.45746192943765,1.4583332319705,1.45903185067799,1.46725638285725,1.46800424729627,1.46892256047287,1.46945169943989,1.48714440393525,1.4898770779294,1.49371526233014,1.49607838962616,1.49469692171032,1.49318414015698,1.49171549892907,1.49242658252967,1.49328050794968,1.49616440498185,1.49952003669503,1.50178265777602,1.50367987911409,1.50528134284159,1.50676716133914,1.50810168956014,1.50921087821124,1.51003217669747,1.51062876700738,1.51116495239527,1.51177278143615,1.51252242018092,1.51343708125333,1.51427434659017,1.51465538081258,1.51453570770141,1.51510575698394,1.51617268447448,1.51887034665778,1.51895701513078
1.1714265107474,1.17231433040048,1.17467903431393,1.18022119510783,1.18441093784135,1.18816876328079,1.18954809894199,1.19134297092322,1.1984761076255,1.2005979343679,1.20242429870416,1.2050923765119,1.20588275610734,1.20742290964163,1.20987179189019,1.21262106034775,1.21394468039237,1.21563913594096,1.21687550389294,1.21887354436627,1.21957649333526,1.22138021869486,1.22158588933574,1.22265733820621,1.22339754376408,1.2246900238634,1.2279825413889,1.23046741475046,1.23208816236415,1.23337830359817,1.23515359359546,1.23560869707427,1.23799043725902,1.23857714194046,1.24628061397887,1.24751835967688,1.25224326392615,1.25755502058076,1.25865058755183,1.26145618272919,1.26374556365804,1.26765225136739,1.2690801403938,1.27191084118363,1.27436759220258,1.27509793089427,1.27930948409443,1.28224417364938,1.28396146777552,1.28589816247023,1.2880750077634,1.2909802200216,1.29199348854704,1.29950823580029,1.29915279009235,1.30190134995516,1.30142272760099,1.30276607099578,1.30311255240859,1.30471329390024,1.30518172376252,1.30597884005595,1.30641190207163,1.3065339392405,1.31363074643011,1.31670613523613,1.31641388108166,1.3178778369348,1.31912871495251,1.32294772184481,1.37055781104705,1.45665999682405,1.44858254605049,1.45688999702329,1.35243510747912,1.34864813985273,1.35088098950292,1.35226183460218,1.3535187194075,1.3554989543613,1.35639840525397,1.35811788823265,1.36071748671512,1.36475006661412,1.36793399277196,1.36954711933421,1.37226249772936,1.49911999989666,1.37689776727133,1.37562720425929,1.37675621390665,1.37698838819328,1.37645135393249,1.37615712843771,1.37527169311388,1.37593313169251,1.37907945500823,1.3838569008834,1.38440429274857,1.38586560334258,1.38909599249087,1.38940568021892,1.39849510239909,1.40122184561448,1.40123720486669,1.40201448863163,1.40416155321337,1.40841784379889,1.40753796136914,1.40950013693024,1.41022798476665,1.41155254867169,1.41350855469062,1.41415144772875,1.41610384954277,1.41623023847208,1.41709321527202,1.41717181629547,1.41958438890821,1.42235807193032,1.42372781284988,1.42634547804167,1.4268587135522,1.42836251364185,1.4306376476405,1.43580595579863,1.435827827986,1.43617361452934,1.44004558367032,1.44997656301036,1.45049597242417,1.44970667845024,1.45134708090126,1.44990796406586,1.4532565876056,1.45541223054108,1.45566988475524,1.48497841998105,1.46694881890552,1.46688754365219,1.46671126231065,1.5162099875328,1.49554179815794,1.50004384432645,1.49844882778428,1.5505700010124,1.49091945096908,1.48763850688873,1.49010819008858,1.49196854466784,1.49105931814709,1.49120346732697,1.48987126962731,1.49142693868092,1.49171596667497,1.49530355681037,1.4939624173241,1.49620688423317,1.4977044029186,1.50203346041999,1.50244212219545,1.5056580118157,1.50721778109259,1.51227611823901,1.51256299236737,1.51414196216882,1.51368888625174,1.51478393746472,1.51511455494753,1.51614048751772,1.51637086290547
1.16840776441959,1.16955885649971,1.17044393465195,1.18310856603532,1.18518594669911,1.18678293696519,1.1882046172676,1.19533109617547,1.19840273267128,1.20050471132755,1.20316311041189,1.20539064328102,1.20684894181334,1.20872889756412,1.21098830536051,1.21327004713767,1.21499600084774,1.21641002083974,1.21773193714134,1.21909716399654,1.22007349344788,1.22115313324399,1.22195011635052,1.22284000652509,1.22405521995893,1.22555825724762,1.22780844458593,1.22982507369711,1.23170168671261,1.23326175302181,1.23480242660456,1.23597507571352,1.2378053814368,1.23970031067744,1.24372604163664,1.24658365425781,1.24999277000249,1.25331154653694,1.25622615907295,1.25872777766661,1.26135860177566,1.26378924923537,1.26721323254405,1.27432494135057,1.27590067450151,1.27746426085761,1.28062991689783,1.28214485022612,1.28389867105681,1.28541794257544,1.28796799808704,1.29042884914338,1.29274783843536,1.2959631613171,1.29833264811295,1.3003961001488,1.30147246614615,1.3024365832619,1.30316672121315,1.30396458331237,1.30492905555523,1.30566887838395,1.30658004627549,1.30755318878472,1.31062130642057,1.3129464568088,1.31409522153132,1.31610110114713,1.31638603574789,1.32735388727989,1.33660716275486,1.33642230590837,1.33835065097751,1.34025594866396,1.34297556855625,1.34576290241544,1.34812383730881,1.34967368007822,1.35063767370854,1.3520206868469,1.35313013060836,1.35477210142724,1.35624030377854,1.35715510950085,1.35794144264473,1.35880352746194,1.35988217989768,1.36132271284286,1.36317538267414,1.3651509908876,1.36771735851779,1.36974848901922,1.37192070440395,1.37295869055068,1.37330867403065,1.37434002134473,1.37754237919363,1.37995839685512,1.38212604949808,1.38444650181374,1.38790031868225,1.38995203936489,1.39593052059517,1.39796212688072,1.39977809295763,1.40032282115938,1.40168505569615,1.40161879525776,1.40407646746539,1.40562368196353,1.4078615959907,1.40984791871017,1.41248097173152,1.41457510515444,1.41563774166482,1.41533328919629,1.41521385085477,1.41538194240818,1.41686596898539,1.41839296379245,1.42033027244125,1.42195253361919,1.42357858919063,1.4247962706499,1.42651423393521,1.42726997439069,1.42967299140153,1.43226028137959,1.43235915891331,1.43416158348262,1.43817478453266,1.44282236894319,1.44698944376983,1.44999669133589,1.45223109403043,1.45311227615163,1.45363148645641,1.45482987446307,1.45757098681324,1.46227831219213,1.46354901003021,1.46492312368674,1.46671092015229,1.46950255405521,1.47228426483157,1.47459317847781,1.47729303705803,1.48117114019037,1.48220841978344,1.48433627044622,1.48618907620179,1.48820008105439,1.4879991331375,1.48949625599782,1.48981490710297,1.49099531806221,1.49163300338778,1.4940763989448,1.49579288860782,1.49975389871349,1.50089659459935,1.50303256131649,1.50434339568492,1.50605313920147,1.50796941849357,1.51088719527343,1.51106380716701,1.51234977913534,1.51317818500005,1.51462824718147,1.51468731298467
1.16587718262815,1.16781032299098,1.16752808014868,1.33327999990768,1.18535208494124,1.18508063448033,1.18589210859926,1.19828641734568,1.1993080825894,1.20016587654702,1.20420109063031,1.2075061704134,1.2074453736464,1.21022678418596,1.21180246393678,1.21438672870256,1.21582518184791,1.21727045972877,1.21821515036922,1.22005996252933,1.22019822581025,1.22163762414059,1.22179393660156,1.22308909362329,1.22386884032344,1.22606259913484,1.22732198353959,1.22964597989975,1.23100269978722,1.23352034317957,1.23411550334542,1.23636063114924,1.23702701709692,1.2391998765167,1.24237760017342,1.24535316248015,1.24757961402696,1.25015146666289,1.25336489477456,1.25653953462666,1.25847906177258,1.25946474544914,1.26845894619835,1.43048999990578,1.32116203958376,1.37294000044563,1.28186941612456,1.28212932679143,1.28265250353837,1.28472182853606,1.28687348178078,1.2906767098867,1.29176983285355,1.29412554711703,1.29692601832336,1.30033687442986,1.30098755251752,1.30233651531766,1.30275787453889,1.30311769365039,1.30449062330293,1.30514443346524,1.30635782615942,1.30631612205335,1.30810992554682,1.30692422297085,1.31048164510091,1.31076764335903,1.31359520133006,1.37119999151941,1.33535186590462,1.33286792193648,1.33684176115723,1.33805303178131,1.34118066467063,1.34230795850667,1.34598850560886,1.34689728434639,1.34747724018154,1.34638918468659,1.34950458402999,1.35079623832817,1.35232919533758,1.3514810404765,1.35247622706935,1.3540249448841,1.35510556268963,1.35755822822706,1.35946098205781,1.36401552304365,1.36690067158818,1.36843341141405,1.36996076823128,1.3695488093057,1.37030545233548,1.37045429909254,1.37056974574933,1.37101888524484,1.37932019207982,1.38140725975102,1.38755425566059,1.38641043209565,1.3956150974386,1.39520336295195,1.39755037954033,1.39896115566246,1.3989524390187,1.39926281411837,1.40042805104501,1.40152212358149,1.40501132716347,1.4069322176975,1.41050766585474,1.45537999756867,1.41522877208882,1.41331787705176,1.41256292676765,1.4123547473429,1.41374221785239,1.41486744313136,1.41668642700305,1.41883171358142,1.41997810284128,1.42198240388951,1.42314071357278,1.42446303029703,1.42657646319294,1.42868374432114,1.43105389292036,1.43312536818616,1.43158165849209,1.43305367029444,1.43369798598222,1.4355953365685,1.44515626516609,1.45174533046045,1.45144166657521,1.45406213174934,1.45670583563314,1.45908554525421,1.46206524040808,1.46487788980924,1.46604923238511,1.46597668556045,1.47283014950775,1.47442035969656,1.47619146204601,1.47838692037062,1.47947205584783,1.48004941346085,1.47983404919704,1.48109109566881,1.48509553110308,1.49030578738564,1.48787792957929,1.48891503080561,1.48870418341917,1.48883587051746,1.49274994864161,1.50131993878707,1.49986267675652,1.50197329515324,1.50215947007014,1.50245820207229,1.50395957213063,1.50397395794255,1.50771374202511,1.5096086739151,1.51144669063239,1.51430034390336,1.51363973067567
1.16427859404877,1.16535673877203,1.16559960922584,1.18321565877719,1.18438500589956,1.18444990510183,1.18441344403028,1.19946381315456,1.20003245682585,1.20120492161788,1.2030384668583,1.20505298100691,1.20670059901968,1.20917125040701,1.21174277519665,1.21428637530851,1.216124309688,1.21728479573937,1.21780387874028,1.21867714774377,1.21935311997685,1.21997037205969,1.2208302690966,1.2213434425679,1.22261239399436,1.22391976234105,1.22612237506041,1.22788886949319,1.22949920104882,1.23084663163602,1.23217722208212,1.23351305530148,1.23524966484441,1.23891157413235,1.24153215948262,1.24318099032615,1.24531988934027,1.2475846057738,1.25095707715001,1.2541432468375,1.25648239715221,1.25675812940415,1.26928341870768,1.26954279185079,1.27100844323391,1.27222741011546,1.27551836515674,1.27824868078185,1.28030868707059,1.2821400601457,1.28491683094729,1.28731155480821,1.29009464832115,1.29239402820926,1.29528766128854,1.29732408130102,1.29945803987148,1.30088734182971,1.30207092446605,1.30288289890662,1.30450537150339,1.30580847277566,1.30703778304964,1.30744692104058,1.30789957148246,1.30793685558092,1.30920268276331,1.30992709140974,1.31177015470883,1.31432892504347,1.31587394729045,1.31713987605096,1.31926483297636,1.32252402952041,1.32575062070906,1.3295507277908,1.3332777702674,1.33697044136986,1.340823487467,1.34431760494503,1.34652822776121,1.3488877480054,1.35007972235496,1.3504621345309,1.35155512420362,1.3527426194707,1.35387118164039,1.35526508787068,1.35680169119805,1.35853404684326,1.36036395514815,1.36258813626986,1.36400548907696,1.36631950519737,1.36727624997047,1.36797400181061,1.36904522410125,1.37049980833987,1.37374321910227,1.38506325431229,1.38788156748233,1.39001062631938,1.39453413220845,1.39585821184928,1.39654487153791,1.3961297485093,1.39673921242522,1.39643456918352,1.39752542710801,1.39779523875261,1.39832575330369,1.39959939278311,1.4008635774612,1.40242663287009,1.40434676261024,1.40656227465812,1.40892584524386,1.41006429026282,1.41133890469969,1.41231942800335,1.41384571505662,1.41509678202287,1.41676383934998,1.41940466293423,1.4205623940192,1.42157147145806,1.4242054915495,1.42580937705514,1.42670298838254,1.42746617695711,1.42920525689544,1.4308024063974,1.43263035353952,1.43467597325988,1.44099733717768,1.44185987887844,1.4446536227755,1.45522643105338,1.45602433863934,1.45872405976988,1.46073872698547,1.46306071261578,1.46689625327335,1.46814807067647,1.47194732368141,1.47295716996464,1.47468665918912,1.47627915096422,1.47707621119257,1.47753151337848,1.47838899555592,1.47958634127999,1.48148036634726,1.48196420745,1.48415375854641,1.48520735266007,1.48655217266254,1.48796197774911,1.49019578812612,1.49194127921948,1.4952438903974,1.49874892068087,1.49957895671221,1.50182228390474,1.50277531126599,1.50417642697253,1.50549048887773,1.50710537832466,1.50807417788729,1.50939032066469,1.51077884125028
1.16334034260917,1.16451946562833,1.16504743457674,1.17972848838621,1.18287837477477,1.18332260366622,1.18327956262858,1.21256952883559,1.21201071896091,1.22802239799068,1.22609771208255,1.22789541633676,1.23134880854212,1.44939999990768,1.25334349720821,1.25847169933275,1.25825510180867,1.26047056902467,1.2166672298784,1.21758868728071,1.21827842731615,1.21825379679377,1.21943586121149,1.21909775195558,1.22022994949083,1.22123628528082,1.2242219057258,1.22664280294053,1.22739809474894,1.22852735639033,1.22955634863953,1.23049306737158,1.23197213198648,1.48246999990768,1.24123707897245,1.2407159236878,1.24241591654861,1.24419074630076,1.24789939587018,1.25227695821877,1.25555166716144,1.25364816201725,1.26850685332579,1.26709193098096,1.26998659832877,1.26934243617178,1.27015324317358,1.26982068735576,1.2748071631967,1.27904410498315,1.2824207868261,1.28424528132861,1.28776849584677,1.29043467085164,1.29318614309506,1.29426724259141,1.29781401989219,1.29881359420998,1.30112462749141,1.30150235717638,1.30380651154664,1.39541000041969,1.30772934272066,1.30751257630678,1.30761909661799,1.30641177403368,1.30795464034821,1.30688595308632,1.30863907217094,1.3070325754563,1.31359694570802,1.31608942011896,1.31975612127705,1.32382421958133,1.3266818570742,1.32964987810915,1.33302176217624,1.33597954317742,1.33838606116625,1.33859782770108,1.34349394486174,1.34688527864513,1.34860254323607,1.34813287768321,1.35046017170565,1.35128484291083,1.35237443698083,1.35276827340877,1.35398737363338,1.35374259746124,1.35534702303565,1.35656885378068,1.36044890232007,1.36340897768785,1.36386761442076,1.36340855266495,1.36625349046983,1.36743035031922,1.37038047465962,1.55730000007493,1.48784742441495,1.63943999990768,1.438716759834,1.43058091280482,1.39466934063758,1.39206510860399,1.39375240354392,1.39283903327421,1.39407564565099,1.39417678217999,1.39432677885432,1.39319836765584,1.39280655163668,1.39243531066624,1.39394710562501,1.39531131702408,1.40626387231328,1.40779953941216,1.40885470498527,1.40987846545499,1.41083319780257,1.41205159137239,1.41205199619234,1.41159953113115,1.41354832871122,1.41647620271154,1.41577525957927,1.4172770804413,1.42070047937082,1.42378940564911,1.42707134143298,1.42880825744576,1.43104805859205,1.4305616182582,1.44052737654619,1.44066992000942,1.44245647314684,1.47825999867039,1.45340263288058,1.45005128588465,1.45941702980275,1.45573940184283,1.4675701860751,1.48028969345797,1.47428533702988,1.470436066104,1.47378854953479,1.47449139100125,1.47498119349813,1.4745018638353,1.47634680259821,1.4779741382822,1.47926220884081,1.48095983001015,1.48161058302298,1.48247353797856,1.48443927730946,1.4867059340082,1.48830308680167,1.49043425763111,1.49176218122446,1.49230751986349,1.49620244803236,1.50201644431842,1.50155329064489,1.50427861384511,1.50368035528799,1.50427447879415,1.50539257740301,1.50563848532509,1.50865633126944
1.16195130990067,1.16299737875672,1.16581097375494,1.17060597541475,1.17550032274487,1.17861074298535,1.18296142979758,1.21196193202228,1.21206659590106,1.21705446609062,1.22194877560796,1.23155426078152,1.23281495319286,1.24625877996905,1.24972502592969,1.25470653836048,1.25669270353242,1.25836639680966,1.21470347486245,1.21672239681623,1.21800833809098,1.21873675478666,1.21948473274093,1.21914285225687,1.21820530763187,1.22104768816064,1.22313534081023,1.22393384428099,1.22525351355991,1.22610009279247,1.22721937244112,1.22817290251632,1.23011425709837,1.23172684074158,1.23373074272374,1.23695638682705,1.23964241015304,1.24180230230003,1.24386820358743,1.25643757886504,1.25864047704623,1.26187813503908,1.2673504573379,1.26935538553763,1.27167477561779,1.27095287236902,1.27100701334127,1.27118079552922,1.27227679268304,1.27438989622969,1.27961166769819,1.28360503158099,1.2863765209246,1.29217150419788,1.29239210212501,1.29545084465731,1.29854312193002,1.3006070821079,1.30240169220898,1.30355357059789,1.30452870316785,1.34594153262501,1.30724218487968,1.30710278578031,1.30719108407506,1.30731152511814,1.30767251220676,1.30744403267196,1.30788605936769,1.30857688180095,1.31120783882897,1.31436063547688,1.31878493562981,1.32312160813474,1.3266481036262,1.32905988053458,1.33169475336525,1.33339902490172,1.33636575978085,1.33802113328934,1.34021590287898,1.34066339695151,1.34321117947461,1.34555476943012,1.3475673868021,1.34915438409614,1.35041710534975,1.35044655941232,1.35195529802988,1.35256429741347,1.3541831947843,1.35541647042535,1.35768277202019,1.35893976994106,1.36094069919792,1.36212366846863,1.364504801918,1.36611276668964,1.3689418743277,1.42530383172489,1.44597612376494,1.46364199359512,1.44377949264558,1.43877649869072,1.39447076657654,1.39356081445719,1.39331408841848,1.39143920426993,1.3919337406534,1.39214104244202,1.39288773376653,1.39308590836624,1.39300984552885,1.3931220767449,1.39433929208943,1.39675332407985,1.40195310624424,1.40477945885348,1.40676927989543,1.40785324371395,1.40829584359106,1.4081241468584,1.40883574678244,1.41018831887991,1.41116277546416,1.4127906466015,1.41393290555852,1.41606117255129,1.42057674398123,1.42392350689466,1.42627891520186,1.43106935102089,1.43141014245672,1.43436489465904,1.43915892748368,1.44089402682087,1.44187361510321,1.44368226322044,1.44714040373203,1.45637144126887,1.46192522290689,1.46520965635145,1.46916360354608,1.47163852188297,1.47411632436324,1.47334864983419,1.47487995670167,1.47432586937693,1.47346819139097,1.47352037674844,1.47472314139897,1.4759311148013,1.47746320958587,1.47880170818608,1.47987726521948,1.48086024199767,1.48285186548824,1.48472674127142,1.48611820763314,1.48738410313179,1.48895004525472,1.49055316741672,1.49276213189564,1.49487495811744,1.496996239556,1.49815699333759,1.50007911749694,1.50159077813274,1.5025068580426,1.50393023255565,1.50612759458739
1.16001908520488,1.15949113702941,1.16091253790351,1.16221847256198,1.16282503407384,1.16412360002576,1.18379377479479,1.33891999990944,1.20782510931953,1.20392776535943,1.21247286153008,1.23262817870982,1.23353546810605,1.24432325972747,1.24625614534413,1.25500818512301,1.2565449865381,1.25872207244657,1.21104766648169,1.19811000377707,1.23169561482047,1.26510060966511,1.23802483860394,1.20562683658191,1.21108186689832,1.20684712227817,1.22163300666505,1.22091510957921,1.22245265724949,1.22369519541724,1.2243770212393,1.22488511277133,1.22855179972913,1.23160303100759,1.23290716630103,1.23386180086722,1.23703521133413,1.23941308287908,1.24107071950467,1.32347999693599,1.2948937378329,1.32649000775746,1.31259277364456,1.33865999398687,1.27462969893537,1.25597115630533,1.25820409416077,1.25811043593642,1.26819177839747,1.26804102986807,1.2676059096929,1.26862305297043,1.27179946794751,1.36741000020262,1.28691428729427,1.28033090351433,1.28006655658039,1.2818654473289,1.28283822361637,1.28592267868458,1.28930711852988,1.38133999995825,1.30529060435151,1.30160404016187,1.30549286275376,1.30630655826429,1.30706464386831,1.30598320825347,1.30658129920987,1.30766684766757,1.30851650504979,1.30863276496985,1.30791435447866,1.30934603948111,1.31648752010483,1.32665910711579,1.32970633840177,1.32935291614411,1.33409482400545,1.33475015317966,1.33800074869304,1.33765047006371,1.33677928473158,1.33517590534464,1.33647871930344,1.3382398409068,1.34284854114905,1.34618243346423,1.3498635430083,1.34942403608107,1.3524248207155,1.35270598472262,1.35540247894337,1.35435108509497,1.35863681257343,1.35962555817952,1.3624242755537,1.36274103520817,1.36266317496663,1.36119057365797,1.42453688343261,1.50946999979203,1.45430573061153,1.46702959318875,1.38790319521968,1.3819871929023,1.3847901010081,1.38526193280699,1.38837079884336,1.38698435318875,1.39113737457526,1.39290998907798,1.39294764285366,1.39302700336467,1.39361986374084,1.39544703449889,1.39942438032036,1.40267183001836,1.40535145357998,1.4065828827913,1.40635155827084,1.40432682921348,1.40483154269241,1.40407890415867,1.40731104508711,1.41074587433367,1.409985122143,1.41008161266126,1.40712742648925,1.40563105769015,1.41427265486052,1.47079999871417,1.42704898632163,1.42095623987837,1.41947721096887,1.42115497017899,1.42171044957515,1.42485869214081,1.4412848311584,1.47755416164149,1.4694105891406,1.48164912285887,1.47264820589271,1.4506403787751,1.47695373055886,1.48289226807293,1.47840079564605,1.5030499907161,1.47150851436161,1.47132037480302,1.47314860059953,1.47383493328483,1.47583783163938,1.47751785084817,1.47803262321387,1.47908939793217,1.48102053860686,1.48392487323639,1.48388698514852,1.48426477312882,1.48632715547873,1.48792229233687,1.48961750112848,1.48971522375835,1.49365966165121,1.49543668511959,1.49761605647672,1.4983731192111,1.50028319977836,1.50037799197999,1.50433782321741
1.15520434369539,1.15841567895109,1.16005458927988,1.1616298835765,1.16152386019069,1.16314971268033,1.18539578603511,1.20735033874244,1.20768716938357,1.20779922902723,1.21128460753351,1.21278830200723,1.21261307530779,1.21104787402363,1.20887861217748,1.20702843934399,1.20615650107557,1.20653782629348,1.20807587875838,1.22901770351655,1.23431983532015,1.2468795816036,1.2385212229793,1.22913887875665,1.22172464850301,1.21870531031415,1.22013515688455,1.22058215288806,1.22041173613406,1.22106990421052,1.22183447529674,1.22389346928378,1.2248489515194,1.22519321300318,1.22777110268823,1.2323090896757,1.23485846397861,1.23812193208455,1.23912361965035,1.26170452282492,1.27744282890894,1.28792978103213,1.30705849289495,1.31347585373196,1.27600207913483,1.25837797355305,1.2594437187795,1.26016376422478,1.26361638787249,1.26449969371782,1.2656874586728,1.26702145950617,1.2667037115198,1.26806556939841,1.27063438997667,1.27316440437235,1.2757873791276,1.27919171990801,1.28076460729805,1.28358487951306,1.28378812885024,1.2847057980894,1.28622990717116,1.28758726095461,1.28917476906762,1.29137128426554,1.29427093757156,1.29735170470504,1.29994311744129,1.3028035774583,1.30474230884211,1.30597178589195,1.3059859802154,1.30703113097368,1.30890788760844,1.31107178311508,1.31307232272299,1.3149136516943,1.31688691486488,1.31930394668099,1.32191392370029,1.32513055550244,1.32866489046611,1.33241126782649,1.33577753630184,1.33931129966845,1.34249721230992,1.34942271878592,1.35087544041079,1.35138149056388,1.35238055254186,1.35426722321283,1.35614484910397,1.35713484661905,1.35942236577907,1.36120554835581,1.36248056023036,1.36368558739365,1.36266640608366,1.36312937947296,1.36385547706488,1.36272979732196,1.36303652816593,1.36427694670663,1.36675201819553,1.36904811715907,1.3717566526441,1.37487348323026,1.37783777537122,1.38027107610575,1.38238870563388,1.38479436371199,1.38763391139466,1.39055641099212,1.391859241732,1.39669485620035,1.39734219522425,1.39744565068973,1.39660691036873,1.39618621377637,1.39784593521148,1.40150817439969,1.40217929028534,1.40261968940974,1.4039164747403,1.40369821584143,1.40582206900915,1.40627745656181,1.40585874980107,1.40583937981332,1.40697206028035,1.40895445999685,1.41121249856342,1.41463625228516,1.41664145202097,1.41890638613885,1.41970583056289,1.42176844250743,1.43351266995002,1.44457311798905,1.45527906145009,1.47525338816034,1.47568674538959,1.47795470073806,1.47827027983811,1.47841365871972,1.47778219222598,1.48537585836535,1.47068650334567,1.47135781627191,1.47261912140434,1.47373278661166,1.4746120011774,1.47553947757516,1.47624194463292,1.4770892151222,1.47908923132361,1.48081230786477,1.48194610016973,1.48259552612569,1.48441077108258,1.48605178086772,1.48800976083647,1.48990823701967,1.49229140525357,1.49458072004012,1.49586994723236,1.49732367284218,1.49879710486773,1.50080838761094,1.50235421189568
1.14245341462198,1.14266212009674,1.1575732025379,1.15081087405411,1.15751865806239,1.15271860617997,1.18721862224103,1.2068770496809,1.19087623171961,1.16352085945618,1.16541266105943,1.16479220545088,1.16770464587164,1.17084476622218,1.17233118970493,1.17476394148682,1.18180778992766,1.19767932077951,1.20747355697255,1.34338000031549,1.28961968210486,1.42972999990923,1.26447925512872,1.26475443135786,1.24211146746941,1.42984999990768,1.21884531956882,1.20692255061762,1.21683398647483,1.21448020076277,1.21757431989907,1.2162086936785,1.22071527957885,1.22240391508525,1.22466389505866,1.22249756200955,1.23107788422525,1.22660571807469,1.23674112104792,1.23373794722846,1.23535319534822,1.23405233000652,1.30150204288897,1.45034999991379,1.27626504359641,1.24889659685636,1.2596165858688,1.25838815997902,1.26087110765603,1.25980505288456,1.26334715427227,1.26235685746948,1.26492000477604,1.26691628858199,1.26719890236499,1.26887608531334,1.27080979717995,1.27372446316368,1.27749858615066,1.27590682216455,1.28245503973883,1.28380468329766,1.28316658482649,1.2837726838932,1.28371718275696,1.28531701443093,1.28936169016223,1.28737945648099,1.29639155200605,1.29442885719136,1.29587826070964,1.296993988588,1.29977142747646,1.30275837758115,1.30264262350795,1.30491842880366,1.30501576970294,1.30689307135671,1.31385461514012,1.31965127460358,1.31910857916703,1.32056257574464,1.32812579558863,1.32718716888878,1.32854719237221,1.32761880155429,1.33096430714334,1.40587999918794,1.38284836582241,1.402179997942,1.34478350910311,1.33897980512726,1.34057253452667,1.34144666641008,1.34322237026479,1.34379702659904,1.34589451589046,1.41046999953821,1.35916933123817,1.35385342243553,1.35600596471055,1.35982436605439,1.36084368872134,1.36152926176228,1.36229592114459,1.3646593997296,1.36444825133225,1.36607272173774,1.36803784241516,1.37188397769718,1.37342145052993,1.37710544180204,1.37756776176591,1.37953734891076,1.38359364217365,1.43596999745799,1.39457371636367,1.39059059344887,1.3920553982469,1.39355168177577,1.39503348381181,1.39495398729759,1.39922457149801,1.40020169383453,1.40137671019491,1.40164528673003,1.40258439394626,1.40387622334721,1.40403382840129,1.40512960993514,1.4060681018217,1.40803769658036,1.41000340417927,1.41301360158562,1.41400048885818,1.41418367181591,1.4172181354808,1.41892197507305,1.41965766928551,1.42164174740031,1.44396392639601,1.47418108967349,1.47597359970463,1.47884435704315,1.46060763435545,1.44902113937229,1.47671197418069,1.49798102605253,1.4706519516952,1.46133013376163,1.47211843323473,1.50016997940674,1.47328190776288,1.47394649338571,1.47413629938541,1.47477615662183,1.47687602722251,1.47932403727604,1.47982718687652,1.48052801334577,1.48233663625703,1.48428228143302,1.48643936474918,1.48994982063316,1.49112819295424,1.49471614492536,1.49445879809098,1.49557711267821,1.49775317350619,1.50070449843409,1.50105213122269
1.14289054253632,1.14575726874706,1.16027191961545,1.16145402354472,1.16469206717876,1.17415057101703,1.18869786341222,1.18853717695097,1.18241319130824,1.1692699718622,1.16759739179075,1.1666156661477,1.16715460534828,1.16979650597339,1.17080904200922,1.17320628965864,1.17421795675302,1.18184020793558,1.20463057917758,1.24903576819898,1.25158133645904,1.25485315137627,1.26092941473632,1.26444630633494,1.22996418553236,1.22030531440946,1.21650677202598,1.21365250539327,1.21548510479586,1.21589121934833,1.21701853654458,1.21877680338273,1.2216202026692,1.22355212617376,1.22502528760886,1.22691844364601,1.23065237272768,1.23150611753672,1.23556518624199,1.23608655896032,1.2367156318821,1.23638027693795,1.29593929664197,1.29951874719059,1.2778574586879,1.27388550787301,1.27224350828695,1.27280872758534,1.272077117062,1.26920073260786,1.26488150660068,1.26391270858955,1.26371392717989,1.26559464207456,1.26601757375007,1.26758379417717,1.26823673181727,1.27670670010335,1.27927863949714,1.27889513015907,1.28094280590218,1.2822451151365,1.28162100208777,1.28255931864428,1.28223003839099,1.28354022085245,1.29190579143851,1.29310903765823,1.29442188800778,1.29327593139175,1.29442519671554,1.29539197655968,1.29733724884826,1.29909763602003,1.30061870340322,1.30275888803479,1.30391143789223,1.30605784666523,1.31024897763056,1.31352137341604,1.3165072828052,1.32485522597558,1.32765639588886,1.32829531801422,1.32843449212111,1.32865601253406,1.32908956969633,1.32952809898207,1.33058775146895,1.3326402266763,1.33550303176223,1.33844905675276,1.34017167432578,1.34312268572079,1.34335148036353,1.34299225009554,1.34446543957247,1.34585729193404,1.34742057990818,1.35067678830204,1.35354507166157,1.35624817748953,1.3579687423357,1.35911230485997,1.36024867700084,1.36153550287034,1.36280182943992,1.3645469479645,1.36663428562546,1.36924635993212,1.37152279554194,1.37389963213602,1.37575700701911,1.37747266264889,1.37889469306098,1.38068843300845,1.38415576544199,1.38859233335335,1.39115194484378,1.39295151663578,1.39359690070956,1.39630390791358,1.39902349564275,1.4001473465972,1.40047287493307,1.39933023284809,1.39997893570829,1.40049602995052,1.40175242777163,1.40274794814683,1.4042542993406,1.40571291802795,1.40805544373223,1.41015274906526,1.41261080507388,1.41457117210095,1.41623788034762,1.41763775314628,1.4185393207613,1.41945321606264,1.42500096509623,1.43205549026294,1.44006554284064,1.44844673165755,1.45631044811323,1.46481122721686,1.47616986939106,1.47540409337152,1.47277573865319,1.47157609655379,1.47103532481182,1.47140248193371,1.47104561192163,1.47128417047322,1.4719876427314,1.47274554937369,1.47532344633708,1.47723008081055,1.47857842923565,1.47913683838746,1.4809550520036,1.48237344181235,1.4841664191151,1.48595364771324,1.48790612360871,1.4895790430525,1.49146724426278,1.49318010151664,1.49526198069725,1.49768432871625,1.49850498104252
1.14350017850106,1.33628999990768,1.21175414690243,1.24084998941707,1.19912386670001,1.18965395954282,1.18984271338158,1.19064696109851,1.17938586092364,1.17393039212062,1.16866524815175,1.15502334038633,1.16418501477022,1.15912582512389,1.16706240349897,1.16339976607367,1.16402054596322,1.1634535033719,1.19793775754752,1.24537821309985,1.24921207972013,1.24957211527383,1.25667767847908,1.36579999993169,1.22735843342751,1.18402374164713,1.2016212176896,1.40586999990768,1.32185283621097,1.40864999990768,1.21032051774458,1.20486296647963,1.20723429334989,1.20513710630105,1.22478604201218,1.4182105289711,1.41903120945938,1.42860533955889,1.34455599317483,1.29255999414597,1.2716438873767,1.22442226356748,1.29080206317529,1.3062032628665,1.2851929891005,1.29370884847675,1.28868461480641,1.32175999847483,1.29775094269626,1.32379999901249,1.26245076368305,1.25358628508392,1.25792004068778,1.25509326182058,1.26332769527295,1.26099596236458,1.26674876516146,1.28779460656763,1.28378318620065,1.39735999990019,1.27961678039566,1.26785111516401,1.27790325846691,1.27369429114057,1.27960137192342,1.27746558881784,1.29473996852135,1.33508998815885,1.2957426016866,1.28974083466456,1.29236285756845,1.29284068852112,1.29478237166945,1.29587806224671,1.29852371613476,1.30227984358431,1.30264040880631,1.30372299849568,1.30481832242505,1.30682319162187,1.3094544462152,1.39251999863236,1.3649217500397,1.40297000056216,1.32226471216287,1.31706968915432,1.31813388799748,1.31936796623591,1.31804819358555,1.31931152304086,1.31885611992606,1.31988068562669,1.32679918748588,1.40700000061889,1.34244261690369,1.33994833303448,1.33897845502174,1.34035328610559,1.34387415305403,1.34740399075471,1.35042688631283,1.35277334417092,1.3548786045895,1.35593093337463,1.35765088612949,1.358270852662,1.36071375751493,1.36307730367141,1.36482394757991,1.36759861527754,1.36924905957366,1.37145842446824,1.37341857132909,1.37541497522126,1.37712170696996,1.37888691325631,1.37878197744802,1.37870978937457,1.38261620794233,1.42458999163057,1.38858337540058,1.38247879530571,1.3818443363938,1.3825848308929,1.39254867185582,1.39609140724086,1.39653540676133,1.3969155798439,1.3993293359524,1.40002561503044,1.40213693056989,1.40262719837359,1.40585820595018,1.40727576274133,1.41157011570597,1.41540903424591,1.41571400056343,1.41701335540583,1.41768645728703,1.41837940119087,1.42036916054241,1.42288884921866,1.42343868215479,1.42476995128286,1.44702604604043,1.47686323575691,1.47697718266557,1.47813010117373,1.47484895007858,1.49266987600378,1.46862754437101,1.46571447438819,1.46769272803555,1.46782311932952,1.46931531578326,1.46953578807121,1.47357293484777,1.47682082146239,1.47712114765712,1.47751863092521,1.47914089549962,1.48095787172522,1.4814341463044,1.48238092553061,1.48463141987707,1.48716721142702,1.4886581945126,1.48998963987575,1.49298921115534,1.49560045930681,1.49632784926957
1.14323697273048,1.1794079137696,1.20725715706326,1.21173755278307,1.20534375133443,1.18854308191222,1.18639480145962,1.1831317314308,1.17904851443508,1.17409993858448,1.16910790888186,1.16944761515808,1.16696628410736,1.16663176557004,1.16638273040446,1.1650269903985,1.16473394515563,1.16443144947749,1.17642521981445,1.178064445923,1.18080885189417,1.18525655459209,1.19421196040716,1.20410554209572,1.20486694500308,1.18580085119302,1.18787867567417,1.19051594756474,1.1937638059882,1.19774574780703,1.2024637439328,1.20720092932248,1.21060301250026,1.21347615296864,1.22241436703836,1.41908980926981,1.4206171626665,1.4243946007266,1.38601053897808,1.35958205302751,1.33263354941773,1.31045151083401,1.28782915071528,1.28367390732592,1.28041078938535,1.27647447590737,1.27264753536289,1.26938772842093,1.26663411756091,1.26410417334468,1.26170280657091,1.25866514443761,1.26028173210393,1.25985495609832,1.26378286407284,1.26365300476544,1.26635130006042,1.26911100615178,1.27196819377158,1.27489996964507,1.27804767861422,1.27984290801816,1.28207504091702,1.28698739190261,1.29383314900967,1.29607334356849,1.29735450899027,1.30309344085577,1.29787975995216,1.29542331164914,1.29409314593012,1.29327222369517,1.29310295380633,1.29453587193795,1.29564661443056,1.2970981516661,1.29907474790029,1.30056176116862,1.29997226531141,1.29986964446363,1.30036785903502,1.30140347464779,1.30262545982352,1.30452282489266,1.30704574599981,1.30961135340184,1.31148048956736,1.31328084568073,1.31523369878302,1.31660549611679,1.31725420199853,1.31814346051114,1.31936516760301,1.32247518825849,1.32634516699762,1.33010764142028,1.33449739046084,1.33898278023276,1.34186487995022,1.3446484637065,1.34730716065233,1.34969467140978,1.3519678820893,1.35388586609881,1.3556161014455,1.35712598333653,1.35872184653946,1.3602826224539,1.36244322035483,1.36509259097346,1.36686947604511,1.3686353021396,1.37104751129784,1.37294794853431,1.3751696006074,1.37686373447632,1.37747256019438,1.37762341985639,1.37755672007654,1.37819964034219,1.37826848663729,1.37965226668077,1.38069282316795,1.38242787803478,1.38753488200635,1.39134428943749,1.39330705736269,1.39672038049078,1.39878525907143,1.39963020935504,1.40177502705949,1.40336716042836,1.40560410543402,1.40729066342976,1.41027881488299,1.41276324893279,1.41454569360229,1.41602423014378,1.41716943053116,1.41832974168485,1.42002807790135,1.42186552045905,1.42276976092456,1.4235310046648,1.42820567909439,1.43098250268369,1.4349313532912,1.43918169504267,1.44193553849483,1.44703809968971,1.45397398798359,1.46267786893901,1.46549269254541,1.46634858916613,1.46770141571423,1.46918936672571,1.47325753749386,1.47517061912924,1.47656401354117,1.47695907102268,1.47804878530495,1.47838837295911,1.47911334104393,1.47979160969139,1.48164203827012,1.48485549683645,1.48610022267377,1.48918215392967,1.49074665665562,1.49215813120937,1.49284453261081
1.1413984756816,1.13829696002948,1.20456879351893,1.33092999990768,1.20842786409953,1.12220000149334,1.1576799935354,1.15701675743886,1.15692988940284,1.15671981996998,1.16414220920601,1.1723534316921,1.1678829481776,1.18415037938017,1.2187052133492,1.35390000031239,1.252522733601,1.15368000223176,1.17212622817507,1.15546000191239,1.16033937964075,1.1587600066982,1.19239239671632,1.22177032027773,1.20504324126902,1.17561048961619,1.17872998954736,1.18011313594634,1.18203949747693,1.18209834570546,1.20309180023154,1.21000340369791,1.2132774527644,1.2162322605157,1.22077697155452,1.79056999990768,1.46378766373402,1.78917999990768,1.41943575861623,1.49135000002695,1.36798652263687,1.42552000020605,1.26071177891119,1.23954921038169,1.23226165703621,1.22294201566637,1.22812901105435,1.23041493139685,1.23290688723475,1.23267804866617,1.23474690999251,1.23340976211407,1.26425428176434,1.27006720585615,1.26829881821904,1.24254047359206,1.25438439806842,1.24550966995062,1.25759210751746,1.24816862841966,1.27796037553763,1.31752999225395,1.29315341860176,1.3072770474008,1.29938945923073,1.31811453538709,1.30251630193958,1.30979181767733,1.31368379871618,1.32523398047926,1.3259866308723,1.34617999246501,1.28975907250294,1.28868952840741,1.29078714481494,1.29084281383203,1.29209776730489,1.29412364422676,1.29617165997366,1.29905113228642,1.29941234524227,1.30083338236018,1.30148706485116,1.30363897218909,1.3043154431238,1.30635278478041,1.3078786209859,1.31034643358559,1.31248873476958,1.31444918421409,1.31507058434488,1.31632047338489,1.31785425327507,1.32157134001179,1.32659221536638,1.32924447169888,1.33105960833716,1.33143559948553,1.33974232780607,1.34162951019775,1.34411387449339,1.34588408227055,1.34892529996666,1.35118891359504,1.35338450559884,1.35542910249814,1.35644087873853,1.35680163109673,1.35931208253141,1.35933999470053,1.36400845347093,1.36514297450978,1.36851988856551,1.37001318554773,1.37296831468285,1.37562411328404,1.37580921306639,1.37616746028292,1.3759290995127,1.37518662425764,1.37657375771556,1.37768872823733,1.37851101370331,1.379059382578,1.38188517729159,1.38153145324513,1.38878668425358,1.42106000919181,1.39903802545576,1.39786328248674,1.40151743074419,1.40364708371519,1.40530329551243,1.40618775867482,1.40894547555706,1.41125568660681,1.41327473105246,1.41590583253033,1.41653748117826,1.41817613666906,1.41954059636169,1.42212469133584,1.4221744628722,1.423172555653,1.42793375147008,1.43074631055413,1.43524974372697,1.43987368822572,1.440622995962,1.44099892987361,1.45244602317679,1.46390365225715,1.46457300260902,1.46347821372268,1.46493555519232,1.46594578678597,1.47386113029544,1.47454711475731,1.47571447586915,1.47636373478851,1.47651333256304,1.47617181345392,1.4761376414244,1.47500537165802,1.47692109248561,1.47590508652327,1.48188704611304,1.49002946385438,1.48901260423371,1.48905226915546,1.48951876585047
1.1297310194837,1.15642592463611,1.19851572948701,1.21334421443621,1.2101988135073,1.16962981400995,1.15781189400448,1.1574109021427,1.15722794519502,1.15776110239432,1.16025054486104,1.16406441067292,1.16469164928768,1.17500140332747,1.23588111273716,1.31364792228389,1.28851199792029,1.26780788529492,1.2491341354504,1.23235856054561,1.16293840457337,1.15985019972591,1.19179722434539,1.2043600843173,1.20465264528402,1.18641878022877,1.18023189073039,1.18136830385801,1.18277235080068,1.18332172312231,1.20448587412981,1.21339789801882,1.21441851308249,1.21827266376359,1.22119817603073,1.27234964077326,1.30347309354307,1.33572338411546,1.37081243848714,1.40855967977793,1.34035629710571,1.30688827595423,1.24906109738719,1.23224017546974,1.23101379901458,1.22723572524207,1.22980087291686,1.23214597945373,1.2342220947012,1.23527887139185,1.23646007900042,1.24853724151245,1.26691719439784,1.2705050001051,1.27092652658613,1.27298406586554,1.2743016052266,1.2760142453491,1.27710904499741,1.27772432295249,1.27796339169639,1.28174447582278,1.28732969584423,1.29247329604331,1.29676265799062,1.29951437407809,1.3014101900428,1.31363041682913,1.31776305336745,1.32301408433952,1.32560915347989,1.32707904503873,1.28673805203512,1.28842106624933,1.28965565776968,1.29066904139975,1.29069560788242,1.29159480210389,1.29330620610084,1.29524211989433,1.29621119781532,1.29754345655069,1.29903522182055,1.30061938739113,1.30207817948604,1.30356530007029,1.30557113183953,1.30867893512523,1.30946960455074,1.31098733566933,1.31229051200454,1.31346904527935,1.31442324811324,1.32423889288836,1.32587990131068,1.32679582967882,1.32867850381754,1.33129767779846,1.33577166651485,1.33829132851652,1.340861736128,1.34329549114975,1.34574889499985,1.34812911869493,1.35057780377032,1.35291237453699,1.35440799593913,1.35585834194992,1.35820199240569,1.36089857639742,1.3640438360343,1.3657898045757,1.36751570754837,1.36874063656532,1.37083282844597,1.37257384834008,1.37352957826012,1.3738683594705,1.37434609077682,1.37436305957368,1.37530888911096,1.37601000625527,1.37745582179504,1.37851306481976,1.37998206695211,1.38043984738983,1.38433078769551,1.39774292212715,1.39987564421081,1.40056540248882,1.40273771046739,1.40437865090854,1.40595109331801,1.40661860351263,1.40836268798504,1.40965296925239,1.41189768944174,1.4138335256535,1.41551573155698,1.41713280666276,1.41840043299271,1.419747138652,1.42102894890874,1.4225653708867,1.42527499173428,1.4279006511296,1.43171834222918,1.44073406124038,1.44046790325375,1.44118893704259,1.44242329441994,1.44552604089497,1.45062851348835,1.45650273359174,1.46152167675228,1.47010420018656,1.47329131410732,1.47471400197248,1.47559983287696,1.47549388210775,1.47572941194738,1.47502579177127,1.47468606592571,1.47448603745209,1.47541389779015,1.4762933300675,1.47840754524848,1.48002510151423,1.48217999454533,1.48476495494238,1.48586588210454
1.12468651682364,1.18153014124208,1.19195397046296,1.21907992351669,1.21334332334311,1.24727000026574,1.12801013726566,1.11445078927607,1.11691616519067,1.11771685850542,1.12277350925136,1.12335903244721,1.1627744471721,1.1614760284059,1.2520799730986,1.69751035867182,1.66761340339827,1.63740297798882,1.63656902329604,1.63692570639103,1.17109740731917,1.15068000156315,1.18684374976149,1.20318188604501,1.2036988274666,1.20257900367179,1.17204358486134,1.1652154601164,1.16615906188989,1.16652289547762,1.20567873254851,1.27167000081275,1.21031380813886,1.20415097271471,1.19162169250844,1.18332557218574,1.18610515011703,1.18190877555001,1.29886106995833,1.76544999990768,1.30458552661512,1.25798999317337,1.23988258520944,1.19807453402564,1.20312104498415,1.20606854536421,1.20961848627971,1.2110827391108,1.21235565277107,1.21184560097185,1.21941909921709,1.26727599838894,1.26761027090645,1.27075378535834,1.27123227902473,1.28221095839623,1.2728793143646,1.28756963537336,1.28006847555934,1.28721949714661,1.25036320997915,1.23471157304642,1.23770504920356,1.23851879207683,1.2468378327401,1.24699603148337,1.29771292390166,1.36081000006398,1.32050244115946,1.32267283904864,1.32553011701959,1.32753742754974,1.28240439081991,1.27745610579767,1.28009545666601,1.27990104917008,1.28489428470846,1.28768627508089,1.28849468480024,1.28847104557741,1.29144499624636,1.29395427897908,1.29598019484282,1.29761743642309,1.2991537715382,1.29987308059859,1.30153700871391,1.30072056353144,1.30519529177742,1.30750481044047,1.309340662039,1.31094512352443,1.31199025967588,1.35114997793067,1.32480864346369,1.32291344032459,1.32517341310145,1.32889403863788,1.33369497907518,1.33446538518462,1.33783009866029,1.33982957431402,1.3426593597421,1.34407500573085,1.34752868766194,1.35089025629283,1.35190662373376,1.35363308873303,1.35626064943263,1.36109138789653,1.36454472919445,1.36550636534555,1.36640663815337,1.36610702914144,1.36859766966071,1.36999472287727,1.37136687540777,1.3709848602862,1.37260467115671,1.37226713398059,1.37375813930415,1.37395126178518,1.37616423050032,1.37812124193699,1.37869702737495,1.37995386054251,1.3806745978468,1.394266998178,1.40097558616741,1.40120762723811,1.40397165600527,1.40524346641086,1.40672498537322,1.40611051740336,1.40736530831561,1.40741098754794,1.41010540982479,1.4125391467044,1.41408089743368,1.4170872492486,1.41681165401556,1.41813425869037,1.41928328174457,1.42131434232942,1.4226269515575,1.42315626058427,1.42889636542474,1.47923999505121,1.43844752315012,1.43526505924959,1.43551805542112,1.43807798568682,1.43760213275447,1.43951412392373,1.44907318729342,1.57938000020119,1.52324308134366,1.58270000016919,1.47519669724381,1.47398975878001,1.4746010294084,1.47347341421689,1.4723254457974,1.4734416739282,1.47366796356738,1.47612707137608,1.47580083505033,1.47580951047772,1.47907199471959,1.48202984182531,1.48254936675801
1.08735824894496,1.08775172730888,1.0913203474482,1.09605814618275,1.09941597567534,1.10254316452988,1.10880451165942,1.11401217218061,1.11769412390201,1.12028688770388,1.12308232741228,1.18311111574902,1.21336303051039,1.24589247545289,1.2681401470332,1.68905055140385,1.67211633153542,1.6617784414246,1.64121650588066,1.63774747701906,1.19380533280893,1.18993666261313,1.18509999818334,1.18070023417169,1.17747698100699,1.1748133084141,1.17179431881357,1.16800224978351,1.16658769335471,1.17206395150191,1.205185900892,1.20346732110069,1.20224320597404,1.19880594293562,1.19366502261246,1.19011285507738,1.19219075620783,1.19506369590601,1.19967269532935,1.22094427209033,1.22216651126702,1.22267620650315,1.22467172052001,1.2043892380781,1.20503061547187,1.20757900410973,1.21062821177324,1.21268525078847,1.21318756985861,1.21235897360794,1.21094466697309,1.20922424972043,1.20787504731612,1.20734985382342,1.20811704401631,1.20942477375556,1.2112373219134,1.21319236227608,1.21695824267247,1.22255427115479,1.22888256694019,1.23446061515825,1.23772906231055,1.24280077529163,1.24475592690373,1.24695237109364,1.29224615708273,1.30482016878439,1.30801050865511,1.31469012725816,1.30615399517867,1.2998583273299,1.27955339448017,1.27966811774075,1.28059035501421,1.28094786705517,1.2830358239034,1.28436749063525,1.28561256906122,1.2863968451775,1.28880634089077,1.2910030359184,1.29336552113769,1.29526005795727,1.2970089622831,1.29831203559768,1.29977639090398,1.30074583121336,1.30287341816319,1.30451741447037,1.30655880119796,1.30939840493566,1.31069014627329,1.31213045163274,1.3143616526741,1.31891228169419,1.32013115560382,1.33157257346212,1.33320020627321,1.33354115000324,1.33586372646193,1.3386790859306,1.34018366914958,1.34170894341128,1.34386654352214,1.3466195175266,1.34843611120125,1.35013096512535,1.35182541013561,1.36481323049555,1.36590027053975,1.3656343709145,1.36559471622186,1.36545057801549,1.3668469722883,1.36859003494561,1.37045173746069,1.37172745303518,1.37224636551735,1.37239565972419,1.37330617593271,1.37379987891181,1.37533952541915,1.37632775080789,1.37706632708557,1.37747305290164,1.37803732959414,1.39802213893035,1.4009797585123,1.40305852039808,1.40645100704306,1.40528919440412,1.40942274339415,1.40793910780234,1.40753779671328,1.40724246374519,1.40884876517106,1.4101683496945,1.41176651397552,1.41314256232604,1.41440215325008,1.41562769193282,1.41764708298018,1.41959972444152,1.42133405339643,1.42319207841347,1.42656563058591,1.42886118080765,1.43069734326346,1.43277720975016,1.43368763976748,1.4356121223233,1.4365733592075,1.43846158904808,1.44027043825967,1.44339200604417,1.44719345657305,1.45039494278615,1.4533755479181,1.45590498005666,1.4587557156252,1.46245601314485,1.46705441310016,1.46931731920604,1.47072807412421,1.47263021878376,1.47379768465779,1.47455978414485,1.47678367892173,1.47911918739174,1.47955731619216
1.08038947425993,1.08376264176745,1.08898115923245,1.08496403614907,1.09875494863606,1.09847393662693,1.09767054879978,1.09853754835277,1.10015085196158,1.10109924120394,1.10165226692011,1.31002000008278,1.24277047688474,1.32236999818669,1.29293168471973,1.70128963256045,1.67903720951043,1.68925873802819,1.64755346603736,1.65565840254591,1.19577763372308,1.20544701779519,1.17370323860333,1.14977584065667,1.15105954086472,1.15144706456829,1.15229702746109,1.15338202094836,1.16492874609946,1.71979999990768,1.2040852927652,1.20091171470808,1.18038496601288,1.16947161587052,1.16899906969689,1.17000152490472,1.19563618860222,1.19618642900078,1.19680702775521,1.21701166023921,1.21977947572293,1.21804531762335,1.22287999619654,1.39361999990768,1.19662299040619,1.1931611500524,1.19469856040699,1.19645706290981,1.19722905605619,1.19886581832893,1.20060233995587,1.20256731308705,1.20528026394835,1.20722687191417,1.20987800414391,1.21170912719544,1.21293986357065,1.214122236694,1.21556078782551,1.21541221250235,1.21655578719133,1.21799931217481,1.21964606916195,1.2891399966479,1.23991079694011,1.23293576890957,1.28632378845345,1.30295066325028,1.30493945326088,1.32193217595948,1.30255797393582,1.25946000538323,1.27846863204076,1.32106999251073,1.28083459182248,1.27975296568076,1.28084557295733,1.28118204985209,1.28247451552322,1.2828116644602,1.28579523347922,1.28805089617188,1.29068898728763,1.29311158628321,1.29487639343016,1.29665791523439,1.29817847772501,1.29960745610402,1.30083869393636,1.30102239372684,1.30286826615167,1.30176623279934,1.3093760329814,1.31156941242539,1.31238213903796,1.31339751724381,1.31675363069449,1.36501978345867,1.33858524610457,1.33061488975349,1.33378307340732,1.35186531149289,1.33813288663251,1.33759480300011,1.33956215671278,1.33948511599044,1.34369073704953,1.34643162530043,1.34901972374538,1.44383000024878,1.36623192694658,1.36377536916227,1.36424760309113,1.36218513998254,1.36436017977865,1.36629233431675,1.36967441740316,1.37254443932916,1.37169110328187,1.37105426627685,1.37249143309735,1.37227538486246,1.37431972584085,1.37478442402794,1.37534243848402,1.37511165278282,1.37633315820956,1.50153000030394,1.4476756962249,1.52783999997754,1.41287800256839,1.39987210392993,1.41627970705698,1.54131000015301,1.40627860655504,1.40503809892549,1.40673625933062,1.40784392747426,1.40887904577182,1.41000377938235,1.41138120723062,1.41346050936013,1.41529216681366,1.41928690021219,1.41947394237237,1.42222255150724,1.42546356478606,1.42915651090586,1.43046943538598,1.43120116206847,1.43191264983675,1.45849838597665,1.43661824866801,1.43855466214681,1.43965552384469,1.44275117444597,1.44421174816894,1.44777308618435,1.44762254092446,1.44918394273363,1.45608047648571,1.46253590637079,1.46529281644585,1.4671479619275,1.46694024555347,1.46709326511483,1.47218121482937,1.47241293300929,1.47462407335807,1.47284262224495,1.47655638254219
1.07768745160761,1.08744775133403,1.09028051142085,1.09393434817214,1.09797249223964,1.09739066197091,1.09597745978635,1.09831312529786,1.10022235548282,1.10137834948111,1.10195095766709,1.15698060311011,1.18374083909661,1.21168432987475,1.24122752117474,1.27296162076219,1.30729915950662,1.34456324367573,1.29203560124599,1.24366570286503,1.18134441774691,1.17818152697748,1.16461153263558,1.15360104500769,1.15206244711253,1.15179675698353,1.1519663490462,1.15844811088549,1.16185140781143,1.15985165561171,1.16045394687372,1.1611592214421,1.16401998987478,1.16697881795183,1.16777518649843,1.1745294142896,1.19675589147947,1.19593815224331,1.19395820849622,1.19161753234611,1.1894277059923,1.18771273704377,1.18690467012187,1.18746221639487,1.18943315537799,1.19219784888979,1.19394150572273,1.19437952914846,1.19564412785535,1.19669359943167,1.19821681989045,1.19900126091729,1.19906419593402,1.19915797455347,1.1998895080385,1.2016097785739,1.20426177476531,1.20772401971548,1.21132529626395,1.21435325412724,1.21534117312858,1.21645371229667,1.21826127543856,1.2207417813484,1.22379335064311,1.22760265591826,1.28050608324613,1.29354214674064,1.2932564752389,1.29364421951164,1.29383730323447,1.29194638865438,1.27953495128321,1.28053902924766,1.28105811283571,1.2803313684602,1.2792184775507,1.27929903278773,1.28054201280167,1.28146539270071,1.283763391685,1.2858352408833,1.28836197310893,1.29063201668761,1.29274440435917,1.29474115627889,1.29662884363298,1.29852810483185,1.29970583093495,1.30096643804205,1.30185779658528,1.30287785886364,1.30594646536824,1.30836357999948,1.31036198794323,1.31252547541418,1.31435486846553,1.35446952968861,1.34877805714222,1.34129228924571,1.33379649480485,1.33467000135125,1.33617626358314,1.33643871037065,1.3362193982822,1.33752089376696,1.34047260518699,1.34422827901472,1.34504679778097,1.3471531640154,1.34877677911829,1.3515565063746,1.35435552065818,1.35946473675376,1.36070670471715,1.36790389476573,1.36860466135415,1.3698494338574,1.37008566885187,1.37065566415049,1.37230937732645,1.37340652468599,1.37418896039315,1.37404713886626,1.37428000219852,1.37428617649219,1.37543097461507,1.38473070903185,1.39222564808664,1.41924515462163,1.41834763355045,1.42021322988919,1.42041873321488,1.47829149405865,1.40507969077472,1.40548421484998,1.40505070872456,1.40562463068396,1.40631312028248,1.40692368629392,1.4086327792703,1.41005515825876,1.41202831117098,1.41382286459833,1.41598510140792,1.41825241786307,1.42129248074094,1.42476297628168,1.42795043749991,1.43026869774551,1.43085892564178,1.43135862647616,1.43241763268424,1.4354314410176,1.43758483647656,1.43985650095596,1.44188548214012,1.44410470324896,1.4456621307024,1.44773611449815,1.4501650947975,1.45377574340077,1.45757758384842,1.46098134825142,1.46297083596193,1.47028009477158,1.47250781559577,1.47395064550319,1.47609350027653,1.47592670709558,1.47676437300354
1.07603175465806,1.15383000083907,1.09666926487977,1.10771581113247,1.10260313315714,1.11371222204397,1.09153675779057,1.08855001877366,1.08948828540409,1.09215144293626,1.09458203519406,1.09690299445387,1.11721291180741,1.13052650787976,1.13239144055553,1.13665274128668,1.22721008390425,1.66488999990768,1.22458688666378,1.14712846146608,1.14036227538268,1.12850249995058,1.14086031217827,1.15900257221515,1.14405277589252,1.14087412421003,1.14544104841261,1.33659999990812,1.16257817844944,1.1553307404683,1.15890118336251,1.15753930951194,1.15912366176565,1.15767551079947,1.16194573685848,1.48173999990768,1.29440237302534,1.48605999990768,1.17941645456409,1.16888580981526,1.17211497055181,1.17658434506661,1.17797565527092,1.1790134339188,1.18274042216226,1.18557886249689,1.18858887273551,1.19064683849513,1.19339727133302,1.19293983134564,1.19435922190772,1.19353000969293,1.19391787024483,1.19525027012206,1.19566910882719,1.19735189311328,1.19829405445075,1.20021107119073,1.20127038805212,1.20219661628834,1.21276384181512,1.21379520750734,1.21672824762735,1.21969226856691,1.22231217433249,1.22543170273897,1.27586902152904,1.29466669985055,1.29342648921854,1.2948919111388,1.2948631022865,1.29800978287584,1.28043126499854,1.26369691810217,1.27033675265831,1.26961128517983,1.27528210447698,1.27633040886727,1.27830501450502,1.27900839219434,1.28153794860394,1.28337723189486,1.28587642040152,1.28834437180014,1.29041396041526,1.29273659564372,1.29493717878353,1.29783887109879,1.29845517061708,1.30093849167612,1.30074903867035,1.30174002182739,1.30318555995404,1.30371651265119,1.30779850577213,1.31200178462722,1.31344718190674,1.36199733006695,1.35452716158851,1.36487994309608,1.33036326369495,1.3262239631534,1.32600124791719,1.32901103135951,1.33163816835694,1.33319669263316,1.33461747782691,1.33391594077544,1.34305287086018,1.34121678703614,1.34740625205279,1.34607483813659,1.34966972362177,1.35150606294225,1.3569611637455,1.49249999986924,1.36603883294166,1.36245171400307,1.36713158326421,1.36791488611678,1.3710859966846,1.51179999989801,1.373832621954,1.37220720222081,1.37294579813248,1.37202255654478,1.37313283367645,1.37321410554086,1.38837651596557,1.41861130486836,1.41924713077803,1.41947765871723,1.42146361790032,1.54680000008565,1.4014182460297,1.39618760766453,1.40107826988163,1.40321563241439,1.40292220886112,1.40343947020038,1.40521951179508,1.40725362133643,1.40828400567099,1.40890890572926,1.41187906019374,1.41466837482144,1.41421602813061,1.41512144646778,1.41568699670506,1.41738073544913,1.42812638890224,1.43093975805839,1.43102882025616,1.43392867980098,1.43568638040084,1.43738498643705,1.43922675560008,1.44085439871458,1.44323102584557,1.4439138902619,1.44741863388984,1.44991875389578,1.45113249365775,1.45342791658995,1.45997894001367,1.48920273556118,1.4845008385532,1.57746999998485,1.47925916360722,1.47656870443386,1.47723525942165
1.07610427194275,1.07888023727243,1.08114621949793,1.08328801910459,1.08613368824155,1.09259505157723,1.08982981253059,1.08841834580919,1.08801005305955,1.0914599558806,1.09422681959771,1.09595763248276,1.11016648456731,1.12915133846024,1.13060405563785,1.13250312977822,1.13360598978582,1.13540879336762,1.135948295547,1.13611803640455,1.13419059503333,1.13316633375558,1.13693693799227,1.14009236129553,1.14214732919471,1.14292154169779,1.14468250685664,1.24039391015114,1.16317518883289,1.16008521387873,1.16045536453824,1.16029818677615,1.16065941371126,1.16060246116156,1.16218107696252,1.16344005890965,1.16406054084563,1.17790129812928,1.17316782706363,1.17094349026267,1.17125218825681,1.17190685854674,1.17304423583096,1.17435202297424,1.17515131627596,1.17607524103832,1.17747191970647,1.17958685345107,1.18230740729945,1.18541212748413,1.1885038440546,1.19090348534228,1.19221699361054,1.19292149045802,1.19424415493545,1.19548704552817,1.19744166927143,1.19925206984051,1.20144504877659,1.203769300603,1.20856953600421,1.2109610955799,1.21507093444543,1.21770699321408,1.2200251237133,1.22178555276899,1.27549440539366,1.29298476120158,1.29177857999078,1.29305610803449,1.29326574729472,1.29496412302114,1.28187561708996,1.26745424625897,1.27136997709552,1.27205317349087,1.27486514699795,1.27444246728548,1.2776183141133,1.2788071185479,1.28030843648929,1.28166974049894,1.28355577514007,1.28550162935273,1.28770132806496,1.29020827366571,1.29215371775193,1.29362985209837,1.29486605149988,1.29802949307402,1.2982624475013,1.29975150951453,1.30127452255621,1.30255820433319,1.30497324519899,1.30732172785016,1.30837190554606,1.30900503158985,1.31028157526626,1.3127046564362,1.31570550217759,1.31866915213173,1.32252765286718,1.32527646153996,1.32762288019509,1.3298191060667,1.3313089607969,1.33210558656549,1.34279583226737,1.34470555339027,1.34689677048916,1.34735568435556,1.34818022715881,1.34918080231131,1.35166797495005,1.35348963947656,1.35454066923869,1.35506620118602,1.35553418289235,1.35631354422048,1.35745891315557,1.35888078992203,1.36067059058015,1.36287016792555,1.36748057882503,1.37125298615602,1.37324660820348,1.37390586355401,1.37948788839637,1.38493658220181,1.3888436677333,1.39320343642434,1.39854092211689,1.4461273579238,1.40129974274739,1.39931968171569,1.39972154568249,1.39879150531636,1.39943298274402,1.40034039178766,1.4026157562461,1.40408451550528,1.40566410219268,1.40668594998084,1.40892834559773,1.41051439729791,1.41218604386906,1.4134161961688,1.4153611046858,1.4177817893862,1.42175478391656,1.42467424700032,1.42750321771109,1.43399332418156,1.43437561784822,1.43492137616972,1.43682904055748,1.43995657673552,1.44231778072631,1.44382407167317,1.44550169603941,1.44732871637622,1.44949666922377,1.45246220942379,1.45579814901337,1.48584005347404,1.4855877672764,1.48559677179038,1.48275142290509,1.48026025258896,1.47864043454349
1.06596055806176,1.06740537903821,1.06694017830589,1.06788861737001,1.08394168778514,1.10072197679926,1.08245266318878,1.07879003557874,1.08086147254117,1.08153042517027,1.08142581832456,1.08283854833975,1.10062355822423,1.12695769571209,1.12919046801226,1.13068034294643,1.13371167722598,1.1374820005508,1.13732235078394,1.13905153249598,1.13189792158701,1.12462296386679,1.12611693817923,1.12718709488294,1.12857133367969,1.12963155463112,1.13102503933831,1.3154399999868,1.16588976776873,1.16792068652643,1.14319660782279,1.13861638514823,1.13874358191348,1.14058258747808,1.14653602606155,1.14946658766276,1.15163012505821,1.18097359488639,1.16955327728184,1.16518891420218,1.16501792340771,1.16525747901308,1.16665103357655,1.16956987658181,1.17017005709592,1.17132387437525,1.17085027871947,1.17279764517913,1.17375912495055,1.17671039558567,1.17829358823818,1.18057360854288,1.19008175277039,1.1896781286004,1.19211638349985,1.19320751126133,1.19610022173771,1.19841856640445,1.20082204095902,1.2031081819709,1.20577246879097,1.20632448382243,1.21408989675404,1.2159268559486,1.21768917635346,1.21959656617222,1.27339576514949,1.44123999990768,1.28808524442121,1.28486940028857,1.29051378895686,1.29471025473743,1.2828441992814,1.25217998332417,1.27581122094138,1.28080539636689,1.27742979972048,1.26928437126856,1.2787108594971,1.27857356537722,1.27902774360276,1.27966070042644,1.28105112068061,1.28251104858516,1.28487967640161,1.28783312100431,1.29020040261275,1.28894256598754,1.28990040192378,1.28883238650295,1.29478574165687,1.29772229241349,1.29954137671914,1.30021380736674,1.30137269881131,1.29973755560631,1.30183486633097,1.30502865477866,1.30584754975726,1.30702487838544,1.31243846951335,1.31755489598414,1.32064893364667,1.32183303970567,1.32401888395349,1.32497219638081,1.32837019603836,1.33025461364789,1.34350844363462,1.48397000034737,1.427313337238,1.48910000012918,1.3457465807556,1.34459195230616,1.34241217942405,1.3420963930941,1.34127072967154,1.342279130302,1.34358194865957,1.34698950717845,1.34842177205533,1.35234955079776,1.35596975880339,1.36045868038707,1.35928839537904,1.35880056365814,1.36040039909652,1.36376319838003,1.36463397561783,1.36708766765554,1.36725834579536,1.3684274318328,1.39668114954501,1.49565000041259,1.39210422415533,1.38835476233335,1.3909752990575,1.39222723917175,1.39536102429783,1.39717198302102,1.39948181189563,1.40210769930428,1.40258114703989,1.4041950852814,1.40553738243477,1.40799553213193,1.40940690874003,1.41281444752648,1.41363368106639,1.41750102753103,1.41764482484592,1.41751997125693,1.4217206987594,1.45135921034911,1.43284608823468,1.43155809342126,1.43331068754197,1.57938999990768,1.44261112415225,1.44312150584362,1.44367328038411,1.44399880099424,1.44682242561559,1.45056491621227,1.45372416614624,1.48548097016672,1.46277348121853,1.45575929620558,1.45708488079753,1.45881596069993,1.45980964916241
1.06406362545699,1.06468734713051,1.06523496785482,1.06590983289817,1.06658287735124,1.06781826214861,1.07045492485372,1.0753716791354,1.07825194732639,1.07958978221301,1.08032873740387,1.08137245617337,1.08196791355711,1.08312882153276,1.08529829653136,1.0879476710151,1.09124868392533,1.09557380510133,1.10007979653165,1.10434089152407,1.10841076469338,1.11244269917332,1.11630642989874,1.1196221621955,1.1219433720315,1.12318850819012,1.1252108584526,1.12666728221949,1.12793991779899,1.12946700626155,1.13168552381299,1.13513857444008,1.13737248662911,1.1399070737709,1.14349109911221,1.14586022212988,1.14673365177544,1.14947243194879,1.15278027342377,1.15575668403508,1.15901654225283,1.16167455752974,1.16354325238845,1.16562634251057,1.16636035365666,1.16806820697689,1.1687730998829,1.17103061932009,1.17200368803354,1.17416804087379,1.17686041326382,1.18452476312204,1.18772017751692,1.18895077362588,1.19126014564123,1.19309691763187,1.19575993968382,1.198167914489,1.20086349299422,1.20277680611467,1.20529512138122,1.20714991393033,1.21110509771183,1.21330907460605,1.21509066448169,1.21597596763795,1.26734644867358,1.26664723779687,1.26781610545312,1.27278958625394,1.27701201245881,1.28046068170924,1.28229651264026,1.28164717149658,1.27991435206709,1.2804376731999,1.27950352723719,1.27962419751768,1.28032380247464,1.27879711437498,1.27777869938276,1.27743643860329,1.27875248968098,1.28049955135857,1.28150874836985,1.28953004255147,1.29108333009019,1.28887790754211,1.28673066595953,1.28781394427602,1.28893589513064,1.29826463895557,1.2991856795641,1.2999324320813,1.30054140066922,1.29951766749226,1.30076014476613,1.30374630712297,1.30557694420899,1.3072499882974,1.30872099922016,1.31755651945907,1.31902256239531,1.32043010577816,1.32166202900043,1.32347119016933,1.32607439800243,1.32729968042016,1.34563081976263,1.43021925109391,1.40559209820453,1.38282477378132,1.34417282734253,1.3426412258579,1.3407165065722,1.3403847479745,1.33979721977078,1.34053024212306,1.34194696939439,1.34401394338494,1.34630358533081,1.348545821556,1.34912379883686,1.35118227351781,1.35290049869224,1.35629764318135,1.35854857402745,1.36102768385473,1.36277482401495,1.3643777588941,1.36584975148192,1.36732818355454,1.36951583592281,1.37204842932543,1.37492208843799,1.37843005012662,1.38168688939376,1.38564573165487,1.39112850241974,1.39524974762098,1.39724151745792,1.3983817751483,1.39996501618209,1.40062221510624,1.40285389074817,1.4041767397321,1.40677801945983,1.40844222185714,1.41072894368066,1.41295452049128,1.41429283976247,1.41512402323805,1.41643965155901,1.41929069531862,1.42248020070191,1.4278529885336,1.43209315673456,1.43547610407213,1.43876118965613,1.44138220141488,1.44176426006659,1.44181150955706,1.44338294054808,1.4453151934407,1.44795326863753,1.45090559869625,1.45348674476229,1.4553976086396,1.45664213116252,1.45868971093338,1.45911749753416
1.06180430058549,1.06173313859768,1.06323816091249,1.0637231125817,1.06472923197796,1.06656719408504,1.0696481313749,1.10122866940557,1.0790367706142,1.07866354678456,1.08007464258598,1.08042668459729,1.08206979866542,1.08297337310481,1.08612234659272,1.08902958188332,1.0905330988905,1.09201526345231,1.09337306891074,1.09414086934255,1.10188358126505,1.10312163696197,1.11420301577285,1.11782682050503,1.11953692092118,1.12182277454757,1.12013001318326,1.12012694143279,1.12243808307363,1.12445301809769,1.13119980887224,1.13349276781055,1.13621258352609,1.13855897470321,1.14162735671943,1.1440716750551,1.14522614010641,1.14538346382182,1.15298069308769,1.15518868788785,1.15709263684502,1.15846183346454,1.15986897951439,1.15889966952463,1.1611327330901,1.16221125028777,1.16435602024533,1.16480997310025,1.16889053468873,1.17090345499354,1.17673470255929,1.22951999838563,1.1863368536627,1.1867164150674,1.18991338085354,1.19214987322134,1.19467598663493,1.19793021231395,1.20070875668556,1.20222447213669,1.2047029210429,1.20600495171939,1.20929201601368,1.21113830399153,1.21292742120414,1.2130818483075,1.26326191410323,1.26154533139587,1.2643649600373,1.27356076371431,1.26021009954303,1.23815576318259,1.26050102974987,1.28117567925095,1.28095051042076,1.28150870929201,1.28049280979363,1.29001097563059,1.28481793020629,1.29543938158261,1.27583037505149,1.27383708044483,1.2760473193355,1.27984706281231,1.2798795900616,1.30153910979049,1.29637013533879,1.30578498126759,1.28193259909026,1.28189764782964,1.28512294791052,1.44018999990414,1.30694778501533,1.32651918706849,1.30092797689854,1.29710602688019,1.29779014734812,1.29631881614419,1.2975380188531,1.29860347473653,1.30605502619438,1.35809999309853,1.33418142401932,1.34721020902344,1.31967437306557,1.32110973515331,1.32528834782231,1.32495351062415,1.34811565566805,1.48874000009089,1.3828673907779,1.33215096473,1.34050200516895,1.33751045861827,1.33783242035243,1.33568680583713,1.3374402397149,1.33851684172738,1.34008087433413,1.34113387640586,1.34450603916465,1.34657822540128,1.34731088445386,1.34805811341741,1.35057144531717,1.35212426763894,1.35594098925143,1.35901952363793,1.36025939095874,1.36072408141028,1.36355004968365,1.36529314802778,1.36813380158442,1.37145355596263,1.37337972881398,1.37617749695429,1.37991530578365,1.38370340707004,1.38405046490247,1.38355414979596,1.39414086368703,1.39571894398867,1.39648405319726,1.39741275563438,1.39946460101692,1.40120146838979,1.40334011832211,1.40568876150302,1.40631733726616,1.40564160630896,1.40966505184964,1.41226622277211,1.41435026210495,1.41742208821672,1.42059589738322,1.42612239637297,1.42511399124519,1.42627219063825,1.42850941337885,1.46094946070754,1.44012274067885,1.43853998572269,1.43819895488412,1.43848907157097,1.43772824614824,1.43842404592921,1.43857007714507,1.43928336488664,1.44686057680447,1.52691000064935,1.45604663668669
1.0593187170157,1.06022912358626,1.06184970592386,1.06280236195416,1.06381847022522,1.06495380198112,1.06889837446447,1.07497474225096,1.08101394077961,1.07995579302989,1.08053073971485,1.08117041640624,1.0824579486279,1.08404963829839,1.08620935910899,1.08815080310067,1.08998917544777,1.09135864493416,1.09324492329494,1.09512315847333,1.09948740195443,1.10085675644423,1.11263508554941,1.11494037809863,1.11611273031203,1.11651338157461,1.11824928645037,1.11932516200338,1.12249884918169,1.12580672653757,1.12917357907753,1.13221407188405,1.13603049052034,1.13840757446462,1.14088316894397,1.14315813008976,1.14504009217126,1.1470628794505,1.1510248812598,1.15373262027022,1.15578539851961,1.15704331525282,1.15849244606291,1.15888338575406,1.16020312966207,1.16094616086304,1.16257819190234,1.16384277011411,1.16797803383104,1.17088958157357,1.17481986766886,1.17776088280399,1.18374655005405,1.18653507905411,1.18924715040721,1.19072370642987,1.19294816673858,1.20025139707434,1.20180105530083,1.20333137388325,1.20539605432403,1.20650433184164,1.20894771575222,1.21045648797989,1.21231097415744,1.22710550617409,1.26003154725944,1.25730750080447,1.25417254993339,1.25001593250971,1.24508905009462,1.2400027283865,1.24902217929384,1.24846542520127,1.24847033710913,1.24936638259362,1.25103724960962,1.25367787870278,1.25680244904231,1.26108437547436,1.26578019928739,1.27055024190775,1.27201836622617,1.27309519539215,1.27461339858566,1.27450256310949,1.27425015942864,1.27529129899431,1.27851046976821,1.28046840081166,1.28197800187917,1.29394730848192,1.2998744865077,1.30677187552404,1.30116333965093,1.30027271627107,1.2972310137075,1.29695294252512,1.29752284002607,1.29999218398671,1.30352269610108,1.30442883420888,1.30936854917672,1.31135447797735,1.31408879068639,1.32465126046254,1.32792900732574,1.3319963561961,1.34979686243152,1.35115158859352,1.35109675229818,1.34941745465877,1.34494762225421,1.3400107019663,1.33706316794075,1.33530787034268,1.33580391097146,1.33677843501794,1.33883577413505,1.34150359746345,1.34381854014125,1.34445840899381,1.34546657866056,1.34653718074075,1.3490232893553,1.35140471174231,1.35395887729863,1.35603074196956,1.35839433036205,1.36019298789346,1.36226278857524,1.36394218264731,1.3665139650821,1.36858163885455,1.3715233231478,1.37563389967772,1.37882443131656,1.38078549985721,1.38328984537553,1.38515878840338,1.38976976222524,1.39168918069925,1.39480379191578,1.39633449218972,1.39852046977897,1.39964851079107,1.40196725526864,1.403170126721,1.4047966887215,1.40534560353943,1.4076973390088,1.40931010053699,1.41218223629057,1.41461872084662,1.41718006525552,1.41833441371524,1.42092002487571,1.42326828223269,1.42258360417853,1.42406830921576,1.42618667258219,1.42959519799342,1.43294254346195,1.43499811275556,1.43611086456009,1.43728013888327,1.4378179559566,1.43845931169942,1.44009157705487,1.44325561267433,1.44666408298656
1.05679816233576,1.05756572293141,1.06053396237616,1.06156808067548,1.06262488636346,1.06436896970226,1.06712397887924,1.06789243055012,1.08510783616411,1.09513969067992,1.08169069010578,1.08040918832173,1.08276863446746,1.08414919227835,1.08594446081293,1.08684515785431,1.08909705211769,1.08948293394623,1.09235325074516,1.09263329585199,1.09898770930154,1.09917869230793,1.10778228168732,1.10319430993918,1.11463636663374,1.11414847035577,1.1160694531911,1.11594973240984,1.12190714440371,1.12726004267191,1.12764434270546,0.00367785993973084,1.13615514321912,1.13878481030132,1.14036001866507,1.14313868691276,1.14462777672995,1.14667547405938,1.14972306043412,1.15292253173141,1.15404256938236,1.15565063217165,1.15666691460793,1.15820122456477,1.1584104316293,1.15887001269298,1.1601670494666,1.15983975546397,1.16756293666424,1.16963449606654,1.17248885195447,1.17377905994753,1.18198884765355,1.18603724430651,1.18874538757197,1.18852769639268,1.19281556771574,1.34149999998561,1.2636929319513,1.3189900002518,1.20593796735919,1.20535408375806,1.20870875200781,1.20922560916164,1.21309426182525,1.32044000025425,1.25868410361735,1.25688301063327,1.24182196855956,1.23031488957221,1.23000965519764,1.23695311779571,1.24946520548918,1.2478154297291,1.24937279209106,1.250836104302,1.25254440140942,1.25536352567039,1.25645546983573,1.25715510180477,1.26193092441289,1.2644587631977,1.26795855633859,1.27055382288979,1.27009760237966,1.27231766673653,1.27282345830622,1.27492373998367,1.27684938131829,1.31586999129866,1.28078036804737,1.27556262840916,1.28712443825307,1.42461999988771,1.30254779793431,1.30634574471166,1.29397241054461,1.28899292169406,1.28962733279348,1.28886658159914,1.28726841831979,1.28537526460677,1.28637831559998,1.28665302306124,1.31282801266994,1.35224195288454,1.339809254802,1.40569000068218,1.3502689497015,1.34981190644857,1.35101927369374,1.35107823873096,1.349448735147,1.35362302666546,1.33520255762638,1.33233434535568,1.33375292521993,1.33391073803964,1.33649085374839,1.37154998550395,1.34347352792932,1.34176763134901,1.34264452968954,1.3435730088248,1.34693895217531,1.35030353513132,1.35175699972681,1.35274604511228,1.35608601392181,1.35939539569261,1.36025454687349,1.36204829888145,1.36400156355406,1.3654677721029,1.36722318337413,1.36607601796822,1.37695333618593,1.37885463910714,1.3810083127062,1.38484484704681,1.38647990485357,1.38760272009493,1.39323170425078,1.39661046018547,1.39689897824266,1.3990466147992,1.39990500261106,1.40243339568675,1.40277422786058,1.40473746394486,1.4052961057333,1.40645589225745,1.40942968217703,1.41256077294926,1.4146210574927,1.41697745617595,1.41843186100088,1.41794709266584,1.42055786613451,1.42075104680212,1.42497385365189,1.42707698417834,1.43023080273403,1.43215011882216,1.43445593686998,1.43638416804321,1.43685877201679,1.4365334136261,1.43862753117231,1.43788902876562,1.44664131300973
1.05511168283096,1.06100800383276,1.06073627371606,1.06005992985894,1.06071725482256,1.06192626476828,1.06678577850811,1.07267741810744,1.08904048996466,1.09238979594554,1.08301644052824,1.08229811777087,1.08314187414571,1.0843438862158,1.08607659712209,1.08769167268599,1.08953392869575,1.09096707818891,1.09298711011158,1.09455652059066,1.09751376247434,1.10344776601742,1.10704311108344,1.10939842998003,1.11274978164161,1.11400869505001,1.1157193728696,1.11731902163322,1.12041609466526,1.12359136180744,1.1269676686554,1.1303294554481,1.13418156281135,1.13689025248185,1.13917243130118,1.1416837021348,1.14396892946138,1.14631282150744,1.1481619558659,1.15012286401557,1.15202103844195,1.15351424550224,1.15486528296627,1.1556950078993,1.15687806830783,1.15758612663508,1.15933772396785,1.16094932635399,1.16489998611278,1.16770824224056,1.17109850937036,1.17414007213934,1.17832172470895,1.18077183841899,1.19085357503926,1.19094192440918,1.19228765597959,1.19712154828666,1.19882994405087,1.20099189966923,1.20564888147516,1.2077801096933,1.2105247099792,1.21168783670697,1.21331775899946,1.21914284996458,1.2198515968111,1.22052137983865,1.22199293297442,1.22491393510693,1.22473956569892,1.24423786588349,1.25153414114612,1.24979215621443,1.25045146911981,1.25111835037378,1.25266720045105,1.25451245286985,1.2564602971878,1.25841748724348,1.26046878712671,1.26237305484491,1.26452803097708,1.26627120125539,1.26750866134757,1.26924339504784,1.27136778986179,1.27423192613588,1.27597387372554,1.29622958453745,1.27938764996455,1.27762292351516,1.28031655254375,1.30913679229356,1.29786392203567,1.29496919174079,1.29217947879463,1.28915896718458,1.28855954997332,1.28814858027137,1.28739221485599,1.28672164771898,1.28687052813396,1.28691807712709,1.30128964721544,1.30725866305899,1.31459779404026,1.32308487109321,1.33227990568584,1.34803915494338,1.34560555575416,1.3429068173115,1.34041706762382,1.33815772797651,1.33574414462167,1.33367326449303,1.33302930049723,1.3330626511365,1.33267287343223,1.33284210067271,1.33360290070652,1.3373892537405,1.33995816119937,1.34162231424855,1.34494430541063,1.34766149687762,1.35001661700309,1.35177141671085,1.35396148704303,1.35562841976232,1.35769884364226,1.36080611009759,1.36270777869716,1.36391933497095,1.36630163058488,1.36818848167416,1.37337816420679,1.37588103885018,1.37888386840012,1.3810190444264,1.38487549613888,1.38783318379003,1.39132318911082,1.39346962858779,1.39538487627918,1.39632225944125,1.3982332467852,1.39924790690107,1.4011334130996,1.40213892531501,1.40396388465099,1.40512726906691,1.40772148107053,1.4097399113437,1.41249520342071,1.4158318633395,1.41786037607362,1.41911239677408,1.42093681929304,1.42205228967014,1.42418257557776,1.42594364341316,1.42852448482135,1.43064701579805,1.43272190067818,1.4344626640539,1.43620456366685,1.43771710051569,1.43973999679662,1.44111172004431,1.44453982757339
