2.2177492089403,2.21964204186114,2.22051334590406,2.2224262088029,2.22344773768082,2.22530051064566,2.2271632985995,2.22870560690537,2.27923122640612,2.23083879956219,2.2937129004989,2.29468435443182,2.28694276793547,2.28507997998163,2.28009251546005,2.28089371457998,2.23738860236764,2.2390611055305,2.23852029612455,2.2403129791554,2.24115423823133,2.24209564719725,2.2438082103161,2.24460940943604,2.2461717477199,2.24720329158682,2.24801450569575,2.24956682899062,2.2509989724175,2.25300197021733,2.25510511790715,2.25823980946389,2.26134445605363,2.30138438207226,2.30245598589517,2.30660219134082,2.30839487437167,2.30939637327158,2.3079742448337,2.30700279090078,2.30546048259491,2.30511997296894,2.30572087230889,2.30647199648383,2.30630174167084,2.30718306070277,2.30884554887663,2.3104179021495,2.31029772228151,2.31386305836521,2.316326745659,2.31720806469092,2.31780896403087,2.31800926381086,2.28109401435996,2.27886067181315,2.27760879818826,2.27755872324326,2.27760879818826,2.27796933779223,2.27802942772622,2.27880058187916,2.27901089664814,2.27929131634012,2.28005245550405,2.28078354970099,2.28220567813887,2.28357773163175,2.28551062450859,2.33424356097849,2.33469423548345,2.33483444532944,2.33375282651753,2.33301171733159,2.33080841975178,2.3305580450268,2.32787402797503,2.32718299373408,2.32535025074724,2.32507984604426,2.3257808952742,2.32603126999918,2.32736326353607,2.32866521210596,2.33127912423474,2.3329115674416,2.33316194216658,2.33374281152853,2.33366269161654,2.29505490902479,2.2937028855099,2.29292171636797,2.29087865861214,2.29040795412918,2.28532033971761,2.28508999497063,2.28794426683539,2.28936639527327,2.2889958406803,2.28906594560329,2.28968687492124,2.28850510621934,2.28868537602132,2.2878240869674,2.28887566081231,2.28810450665937,2.28811452164837,2.28865533105433,2.28809449167037,2.28927626037227,2.28922618542728,2.28959674002025,2.29057820894217,2.29050810401917,2.29121916823811,2.29073844876615,2.29204039733604,2.29380303539989,2.29513502893678,2.29683757706664,2.35593602715066,2.35481434838276,2.35491449827275,2.35437368886679,2.35621644684264,2.35618640187564,2.35564559246969,2.35707773589657,2.35623647682064,2.35627653677663,2.35579581730467,2.35660703141361,2.35858999923544,2.36229554516513,2.36473920248092,2.36655191548977,2.36556043157885,2.3650496671399,2.36491947228291,2.30855511419565,2.3067624311648,2.30537034769392,2.30378797943205,2.30375793446506,2.30460920852998,2.30647199648383,2.30470935841998,2.30584105217688,2.30527019780393,2.30648201147283
2.2188909176862,2.21983232665212,2.22182530946295,2.22391844216378,2.22666254914955,2.28710300775946,2.28754366727542,2.28953665008625,2.27967188592208,2.28204543831488,2.29272141658798,2.29323218102694,2.28744351738543,2.23417379089891,2.23571609920478,2.23594644395176,2.23738860236764,2.23776917194961,2.23870056592653,2.24060341383637,2.24121432816532,2.24302704117417,2.24399849510709,2.24493990407301,2.24567099826995,2.24800449070675,2.24869552494769,2.25002751848458,2.25188029144942,2.25386325927126,2.25541558256613,2.25727837051997,2.26143459095462,2.30233580602718,2.30496974813395,2.30381802439905,2.30577094725389,2.30715301573577,2.30778396004272,2.30658216136282,2.30423865393702,2.30451907362899,2.3056107074299,2.30597124703387,2.30658216136282,2.30816452962469,2.30719307569177,2.30952656812857,2.3092060884806,2.31071835181947,2.31758863427289,2.31721807967992,2.3174984993719,2.31295169436628,2.28046307005302,2.27814960759421,2.2770379438153,2.27772897805625,2.27778906799024,2.2782898174402,2.27815962258321,2.27814960759421,2.27897083669214,2.27934139128511,2.28023272530604,2.28100387945897,2.28247608284185,2.28498984508064,2.28607146389254,2.33686748809627,2.33676733820628,2.33594610910835,2.33557555451538,2.33364266163854,2.33244086295864,2.32981693584086,2.32802425281001,2.32653201944914,2.32670227426212,2.32683246911911,2.32661213936113,2.32713291878909,2.32840482239198,2.32881543694095,2.33164967882771,2.33272128265062,2.3341634410665,2.33426359095649,2.3341333960995,2.29507493900279,2.29396327522388,2.29271140159899,2.29121916823811,2.29024771430519,2.2830168922478,2.28290672736881,2.28941647021826,2.28944651518526,2.28943650019626,2.28833485140635,2.28874546595532,2.28834486639535,2.28839494134035,2.28807446169238,2.28877551092232,2.28889569079031,2.28823470151636,2.28797431180238,2.28843500129635,2.28849509123034,2.28977700982223,2.28913605052629,2.29037790916218,2.29026774428319,2.29113904832612,2.29121916823811,2.29269137162099,2.29303188124696,2.29584609315572,2.35405320921882,2.35292151546192,2.35255096086895,2.35359251972486,2.35513482803073,2.35569566741468,2.35699761598457,2.35706772090757,2.35730808064355,2.35441374882279,2.3555354275907,2.3567171962926,2.36214532033014,2.35982184288234,2.36249584494511,2.36574070138084,2.36604115105081,2.36528001188688,2.36633158573179,2.35719791576456,2.30784404997671,2.30525016782593,2.304468998684,2.30429874387101,2.30494971815596,2.30394821925604,2.30421862395902,2.30475943336497,2.30452908861799,2.30553058751791,2.30704285085678
2.2188408427412,2.22083382555204,2.22307718308785,2.28386816631273,2.28469941039966,2.28391824125773,2.28524021980561,2.28653215338651,2.28847506125234,2.29383308036689,2.29167985773207,2.2902176693382,2.29031781922819,2.23394344615193,2.23528545467782,2.23564599428179,2.23723837753266,2.23779921691661,2.2391211954645,2.24084377357235,2.24186530245027,2.24346770069013,2.24469954433703,2.24524035374298,2.24690284191684,2.24771405602577,2.24914619945265,2.25078865764852,2.25199045632841,2.25418373891923,2.25590631702708,2.2592613383418,2.26217570014056,2.30631175665984,2.30717304571377,2.304468998684,2.30646198149483,2.30740339046075,2.3067924761318,2.30584105217688,2.30515001793594,2.30502983806795,2.30568081235289,2.30602132197887,2.30702282087878,2.3079842598227,2.30891565379962,2.31110893639044,2.31373286350822,2.31637682060399,2.31773885910788,2.31766875418489,2.31908086763377,2.32231570908049,2.27909101656013,2.27776903801224,2.27717815366129,2.27773899304525,2.27764885814425,2.27770894807825,2.27801941273722,2.27853017717618,2.27901089664814,2.28018265036104,2.28023272530604,2.28193527343589,2.28235590297386,2.2853704146626,2.2865621983535,2.33607630396534,2.33642682858031,2.33683744312927,2.33584595921835,2.33469423548345,2.33227060814566,2.32982695082986,2.32846491232598,2.32774383311804,2.32668224428413,2.32655204942714,2.32669225927313,2.32754353333805,2.32856506221597,2.33016746045583,2.3317698586957,2.3340632911765,2.33442383078047,2.33422353100049,2.3353452097684,2.33642682858031,2.29313203113695,2.29186012753406,2.29078852371115,2.28669239321049,2.28091374455798,2.28101389444797,2.28263632266583,2.28943650019626,2.28988717470122,2.28940645522926,2.28961676999825,2.28857521114233,2.2889257357573,2.28820465654937,2.28836489637335,2.28881557087831,2.28841497131835,2.28734336749544,2.28883560085631,2.28926624538328,2.28917611048228,2.29006744450321,2.29100885346913,2.29046804406318,2.29164981276508,2.29204039733604,2.29313203113695,2.29399332019088,2.29570588330973,2.35536517277771,2.35729806565455,2.35633662671063,2.35588595220567,2.35465410855877,2.35938118336637,2.35766862024752,2.35700763097357,2.35585590723867,2.3543035839438,2.35521494794272,2.35950136323436,2.36033260732129,2.36547029667786,2.36361752371302,2.36488942731591,2.36609122599581,2.36542022173286,2.36388792841599,2.3115095359504,2.30702282087878,2.30484956826596,2.30383805437705,2.30494971815596,2.30394821925604,2.30452908861799,2.30435883380501,2.30578096224289,2.30449904365099,2.30692267098879,2.3067824611428
2.2189209626532,2.22051334590406,2.2818150935679,2.28337743185177,2.28390822626873,2.28414858600471,2.28524021980561,2.28630180863953,2.29361275060891,2.29282156647798,2.29339242085093,2.23509516988684,2.233182306988,2.23393343116293,2.2343841056679,2.23597648891876,2.23743867731264,2.2379294117736,2.23959189994746,2.24099399840734,2.24201552728525,2.24352779062413,2.24458937945804,2.24567099826995,2.24585126807193,2.24768401105878,2.24944664912263,2.25113918226349,2.25210062120741,2.25422379887523,2.25679765104801,2.2592713533308,2.304398893761,2.30792416988871,2.30931625335959,2.31118905630243,2.30995721265553,2.30894569876662,2.30625166672585,2.30643193652783,2.30521010786993,2.30410845908003,2.30530024277093,2.30568081235289,2.30693268597779,2.30830473947067,2.31009742250152,2.31068830685247,2.31369280355222,2.31696770495494,2.31731822956991,2.3186502231068,2.31785903897587,2.31760866425089,2.27872046196716,2.27834990737419,2.27781911295724,2.2782798024512,2.27766888812225,2.27758876821026,2.27859026711017,2.27872046196716,2.27927128636212,2.27990223066906,2.28024274029504,2.28121419422795,2.28264633765483,2.28334738688477,2.28482960525665,2.33463414554946,2.33590604915235,2.33700769794226,2.3365470084483,2.33308182225459,2.33249093790364,2.3305280000598,2.32847492731497,2.328174477645,2.32740332349207,2.32723306867908,2.32747342841506,2.32784398300803,2.32997717566485,2.33027762533482,2.3317498287177,2.33379288647353,2.33499468515343,2.33637675363531,2.33518496994441,2.29595625803471,2.29314204612595,2.29268135663199,2.29419361997086,2.28696279791347,2.28388819629073,2.28089371457998,2.2818451385349,2.28846504626334,2.28931632032827,2.28959674002025,2.28909599057029,2.28882558586731,2.28845503127434,2.28834486639535,2.28924621540528,2.28939644024027,2.28838492635135,2.28882558586731,2.28888567580131,2.28949659013026,2.29066834384316,2.29045802907418,2.29092873355714,2.29216057720403,2.29095877852413,2.29305191122496,2.29302186625796,2.29397329021288,2.29630678264968,2.35541524772271,2.35512481304173,2.35506472310774,2.35464409356977,2.35954142319036,2.35874022407043,2.35755845536853,2.35575575734868,2.3590306587514,2.35513482803073,2.35941122833337,2.36124397132022,2.36188493061616,2.36291647448308,2.36486939733791,2.3650296371619,2.3649495172499,2.36477926243692,2.36344726890003,2.36349734384503,2.30589112712188,2.30433880382701,2.30411847406903,2.30502983806795,2.30507991301294,2.304378863783,2.30534030272692,2.3056507673859,2.30687259604379,2.30708291081278,2.30700279090078
2.22035310608008,2.22086387051903,2.28344753677477,2.28399836116972,2.2830769821818,2.28649209343051,2.28338744684077,2.29024771430519,2.29082858366714,2.29292171636797,2.23344269670198,2.23382326628394,2.23289187230702,2.23397349111893,2.23562596430379,2.23684779296169,2.23751879722463,2.23885079076152,2.24004257445242,2.24096395344034,2.2426965465372,2.24360791053612,2.24493990407301,2.24552077343496,2.24677264705985,2.24838506028872,2.24965696389161,2.25072856771452,2.25256131070137,2.25513516287415,2.25723831056397,2.26058331688969,2.30291667538913,2.30618156180285,2.30882551889863,2.31018755740251,2.30970683793055,2.30788410993271,2.30702282087878,2.30496974813395,2.30450905863999,2.30535031771592,2.30519007789194,2.30628171169284,2.30688261103279,2.30865526408564,2.30967679296356,2.31143943102741,2.31463421251814,2.31557562148406,2.31129922118142,2.31144944601641,2.31185004557637,2.31260116975131,2.2771481086943,2.27749863330927,2.27780909796824,2.27735842346328,2.27778906799024,2.27815962258321,2.27860028209917,2.27880058187916,2.27899086667014,2.27962181097709,2.28029281524003,2.28108399937096,2.28257623273184,2.28432885580669,2.28626174868353,2.33452398067047,2.33717795275524,2.33863012616012,2.33812937671016,2.33751846238121,2.33450395069247,2.33125909425674,2.32943636625889,2.32801423782101,2.32740332349207,2.32775384810704,2.32781393804103,2.32914593157792,2.33011738551084,2.33121903430074,2.33305177728759,2.33483444532944,2.33519498493341,2.3353652397464,2.3352951348234,2.29482456427781,2.29341245082893,2.29267134164299,2.29173994766607,2.28886564582331,2.29509496898079,2.29301185126896,2.29243098190701,2.28969688991024,2.28944651518526,2.29068837382116,2.28934636529527,2.2889858256913,2.2889357507463,2.28917611048228,2.28868537602132,2.28922618542728,2.28853515118634,2.28941647021826,2.28914606551529,2.28952663509725,2.29043799909618,2.29090870357914,2.29043799909618,2.29158972283108,2.29150960291909,2.29264129667599,2.29325221100494,2.29485460924481,2.29638690256168,2.35573572737068,2.35470418350377,2.35612631194165,2.36281632459308,2.36082334178225,2.35800912987349,2.35720793075356,2.35655695646861,2.35806921980748,2.35917086859739,2.36009224758531,2.36158448094619,2.36269614472509,2.36341722393303,2.36416834810797,2.36463905259093,2.36557044656785,2.36678226023675,2.36289644450508,2.30935631331558,2.30637184659384,2.30416854901402,2.30352758971808,2.30457916356299,2.30430875886001,2.30656213138482,2.30529022778193,2.30522012285893,2.30690264101079,2.30709292580178,2.30655211639582
2.22104414032102,2.28506996499263,2.28523020481662,2.28399836116972,2.28175500363391,2.28138444904094,2.28342750679677,2.28842498630735,2.29064831386516,2.29358270564191,2.23138962395715,2.23175016356112,2.23383328127294,2.2343640756899,2.23507513990884,2.23687783792869,2.23762896210362,2.23853031111355,2.2403330091334,2.24124437313232,2.24207561721925,2.2438082103161,2.24507009893,2.24643213743388,2.2473535164218,2.24821480547573,2.2497270688146,2.25109912230749,2.25249120577837,2.25509510291815,2.256887785949,2.26035297214271,2.29744849139559,2.30097376752329,2.30344746980608,2.30772387010872,2.30842491933866,2.30904584865661,2.3067524161758,2.30431877384901,2.30476944835397,2.30474941837597,2.30523013784793,2.3055506174959,2.30699277591178,2.30885556386563,2.31007739252352,2.31349250377224,2.31404332816719,2.3151449769571,2.31075841177547,2.3104179021495,2.31139937107141,2.31178995564238,2.27869041700017,2.27722822860629,2.27701791383731,2.27733839348528,2.27717815366129,2.27769893308925,2.27884064183515,2.27896082170314,2.27911104653813,2.27968190091108,2.28053317497601,2.28148459893093,2.28247608284185,2.28378804640074,2.28564081936558,2.33913087561008,2.33805927178717,2.33822952660015,2.33797915187517,2.33507480506542,2.33349243680355,2.33089855465277,2.32970677096187,2.32853501724897,2.32884548190794,2.32851498727097,2.328204522612,2.3305981049828,2.33069825487279,2.33279138757361,2.33342233188056,2.3352450598784,2.33583594422936,2.33564565943837,2.3341033511325,2.2948946692008,2.29409347008087,2.29329227096094,2.292581206742,2.29271140159899,2.29292171636797,2.29217059219303,2.29162978278708,2.2901575794042,2.29036789417318,2.28922618542728,2.2890359006363,2.28945653017426,2.28942648520726,2.28928627536127,2.2901375494262,2.28925623039428,2.28923620041628,2.28916609549328,2.29005742951421,2.28950660511926,2.29029778925019,2.29061826889816,2.29110900335912,2.29168987272107,2.29265131166499,2.29334234590593,2.29454414458583,2.29521514884878,2.29793922585655,2.35731809563255,2.35595605712866,2.35703767594057,2.36166460085818,2.36052289211228,2.36044277220028,2.35620643185364,2.35688745110558,2.36234562011012,2.3602725173873,2.36005218762932,2.36189494560516,2.3626160248131,2.36456894766794,2.36448882775594,2.36639167566578,2.36606118102881,2.36596103113882,2.31325214403626,2.30771385511972,2.30569082734189,2.30367781455306,2.30347751477308,2.30398827921204,2.30403835415703,2.304468998684,2.30523013784793,2.3056006924409,2.30619157679185,2.31089862162146,2.3067824611428
2.21955190696014,2.28593125404656,2.28721317263845,2.28953665008625,2.29175997764407,2.28389821127973,2.28464933545466,2.28742348740743,2.28836489637335,2.23347274166897,2.23390338619594,2.23261145261505,2.23316227701,2.23405361103092,2.23682776298369,2.23660743322571,2.2378793368286,2.2391412254425,2.24063345880337,2.24127441809932,2.24259639664721,2.24399849510709,2.24469954433703,2.24637204749989,2.24763393611378,2.24876562987069,2.2497871587486,2.25061840283553,2.25353276463428,2.25514517786315,2.25883069381484,2.26573102123526,2.29464429447582,2.29786912093355,2.30032279323834,2.30862521911865,2.3091159535796,2.30764375019673,2.30535031771592,2.304398893761,2.30476944835397,2.30491967318896,2.30542042263892,2.30608141191286,2.30703283586778,2.30939637327158,2.31072836680847,2.31226066012534,2.31400326821119,2.31225064513634,2.31146947599441,2.31608638592302,2.30949652316157,2.280683399811,2.27812957761621,2.27842001229719,2.2770880187603,2.27779908297924,2.27728831854028,2.27794930781423,2.27837995234119,2.27912106152713,2.27962181097709,2.2794415411751,2.28073347475599,2.28176501862291,2.28225575308387,2.2854104746186,2.28644201848551,2.33861009618212,2.33789903196318,2.33868020110512,2.33866017112712,2.33487450528544,2.33424356097849,2.33152949895972,2.33061813496079,2.32927612643491,2.32857507720497,2.32903576669893,2.32955654612688,2.33077837478478,2.33132919917974,2.33244086295864,2.3341233811105,2.33513489499941,2.33637675363531,2.33724805767824,2.33622652880032,2.2949447441458,2.29338240586193,2.29180003760006,2.29181005258906,2.29348255575192,2.29205041232504,2.2913193181281,2.29080855368915,2.28980705478923,2.28956669505325,2.28924621540528,2.28916609549328,2.28960675500925,2.29101886845813,2.2901375494262,2.29108897338112,2.28986714472323,2.28957671004225,2.28961676999825,2.28935638028427,2.28967685993224,2.29109898837012,2.29074846375515,2.29085862863414,2.29306192621396,2.29306192621396,2.2937129004989,2.29447403966284,2.29581604818872,2.29792921086755,2.35836966947746,2.35973170798134,2.36130406125421,2.36110376147423,2.35644679158962,2.35531509783272,2.35563557748069,2.36162454090218,2.36113380644123,2.36098358160624,2.36174472077017,2.36292648947207,2.36604115105081,2.36481932239292,2.36535011680987,2.3661513159298,2.3649795622169,2.36533008683187,2.30898575872262,2.30613148685786,2.304418923739,2.30427871389301,2.30644195151683,2.30433880382701,2.304368848794,2.30465928347498,2.30553058751791,2.30650204145082,2.30544045261691,2.30651205643982,2.30827469450368
2.22378824730679,2.28827476147236,2.28798432679138,2.28973694986624,2.28413857101571,2.28341749180777,2.28621167373853,2.29061826889816,2.29331230093894,2.29712801174761,2.23249127274706,2.23259142263705,2.23373313138295,2.23451430052489,2.23695795784068,2.23731849744465,2.23776917194961,2.24169504763728,2.24071357871536,2.24169504763728,2.24329744587715,2.24416874992007,2.245090128908,2.24663243721387,2.24751375624579,2.24875561488169,2.24957684397962,2.25206056125141,2.2533024198873,2.25547567250012,2.26217570014056,2.26201546031657,2.29152963289709,2.29591619807872,2.30762372021873,2.30878545894263,2.31015751243552,2.30782401999871,2.30730324057076,2.30500980808995,2.30433880382701,2.30434881881601,2.3056707973639,2.30615151683585,2.30701280588978,2.30806437973469,2.31062821691848,2.31264122970731,2.31426365792517,2.31398323823319,2.31550551656107,2.31703780987794,2.31830971348083,2.27851014719818,2.27805947269322,2.27958175102109,2.27667740421134,2.27681761405732,2.27743854337527,2.27817965256121,2.27847008724218,2.27887068680215,2.27938145124111,2.27986217071307,2.28019266535004,2.28212555822688,2.2830269072368,2.28351764169776,2.2853603996736,2.33626658875632,2.33712787781025,2.33953147517004,2.33972175996103,2.3388704858961,2.33484446031844,2.33200020344268,2.33482443034044,2.33098868955376,2.32982695082986,2.32990707074185,2.33041783518081,2.33107882445476,2.33199018845368,2.33383294642952,2.33614640888833,2.33736823754623,2.33787900198518,2.33810934673216,2.32882545192995,2.29594624304571,2.29287164142297,2.29312201614795,2.29192021746805,2.29159973782008,2.2913693930731,2.29034786419518,2.29027775927219,2.28965682995424,2.29035787918418,2.29024771430519,2.28950660511926,2.28935638028427,2.28950660511926,2.28956669505325,2.28923620041628,2.28934636529527,2.28999733958021,2.28953665008625,2.29057820894217,2.29055817896417,2.2902176693382,2.29207044230304,2.29126924318311,2.29295176133497,2.29277149153298,2.29292171636797,2.29665730726465,2.29738840146159,2.36400810828398,2.36098358160624,2.36068313193626,2.36133410622121,2.36118388138622,2.3543135989328,2.35479431840476,2.36199509549515,2.3614342561112,2.36253590490111,2.36217536529714,2.36285638454908,2.36328702907604,2.36597104612782,2.36606118102881,2.36578076133683,2.36544025171086,2.36546028168886,2.31115901133543,2.30690264101079,2.30543043762792,2.30520009288093,2.30394821925604,2.30396824923404,2.3055806624629,2.30457916356299,2.30447901367299,2.30615151683585,2.30734330052675,2.30701280588978,2.30695271595579,2.3068125061098
2.22261649359389,2.28670240819949,2.28914606551529,2.29059823892016,2.29233083201702,2.29048807404117,2.28850510621934,2.29196027742405,2.29318210608195,2.29674744216565,2.29770888110956,2.29657718735266,2.2343340307229,2.2355558593808,2.23600653388576,2.23720833256566,2.23898098561851,2.23969204983745,2.24096395344034,2.24193540737326,2.24346770069013,2.24462943941403,2.24535051862197,2.24687279694984,2.24820479048673,2.24923633435365,2.25029792318756,2.25157984177945,2.25285174538234,2.25581618212609,2.26122427618564,2.26482967222533,2.29094876353513,2.30739337547175,2.30727319560376,2.30864524909664,2.30909592360161,2.30785406496571,2.30638186158283,2.30453910360699,2.3055906774519,2.30495973314495,2.30546048259491,2.30658216136282,2.30768381015273,2.3091560135356,2.31106887643444,2.31336230891525,2.31424362794717,2.31651703044998,2.31799924882186,2.3174784693939,2.28243602288585,2.28135440407394,2.27737845344128,2.27780909796824,2.27677755410133,2.27737845344128,2.27733839348528,2.27820969752821,2.27868040201117,2.27932136130711,2.27906097159314,2.27992226064706,2.28023272530604,2.28133437409594,2.28241599290785,2.28351764169776,2.28581107417857,2.33388302137452,2.33605627398734,2.34104373850892,2.340102329543,2.33924104048907,2.33635672365731,2.33431366590148,2.33314191218858,2.33155954392672,2.33098868955376,2.33076835979578,2.33122904928974,2.3317297987397,2.33367270660554,2.33492458023043,2.33682742814027,2.33725807266724,2.33866017112712,2.33881039596211,2.34065315393795,2.29558570344174,2.2937028855099,2.29245101188501,2.29193023245705,2.29190018749005,2.29052813399717,2.29030780423919,2.28970690489924,2.2901675943932,2.28969688991024,2.28975697984423,2.29026774428319,2.28960675500925,2.28941647021826,2.28948657514126,2.28989718969022,2.29049808903017,2.28913605052629,2.2902176693382,2.29064831386516,2.2913393481061,2.29126924318311,2.29163979777608,2.292581206742,2.29300183627996,2.29397329021288,2.29385311034489,2.29595625803471,2.29900081469046,2.36185488564917,2.36076325184826,2.36209524538515,2.35580583229367,2.3543035839438,2.35508475308574,2.36355743377902,2.36360750872402,2.36246579997811,2.36242574002212,2.36328702907604,2.36309674428506,2.36389794340499,2.36449884274494,2.36725296471971,2.36637164568779,2.36560049153485,2.36396804832799,2.30938635828258,2.30766378017473,2.30544045261691,2.30686258105479,2.30406839912403,2.30381802439905,2.30455913358499,2.30466929846398,2.30429874387101,2.30638186158283,2.30657214637382,2.30622162175885,2.30669232624181,2.3079542148557
2.22039316603607,2.22273667346188,2.28949659013026,2.29054816397517,2.29040795412918,2.29046804406318,2.28927626037227,2.29119913826011,2.29356267566391,2.29560573341974,2.2960664229137,2.23565600927079,2.23466452535987,2.2355658743698,2.23689786790668,2.23821984645457,2.23966200487045,2.24035303911139,2.24128443308832,2.24228593198823,2.24357786556912,2.24513018886399,2.24603153787392,2.24722332156482,2.24826488042073,2.2498272187046,2.25045816301154,2.25183021650443,2.25415369395223,2.25765894010194,2.25829989939788,2.26505000198331,2.30586108215488,2.3068525660658,2.30747349538374,2.30837484439367,2.30897574373362,2.30755361529574,2.30625166672585,2.30517004791394,2.30543043762792,2.30474941837597,2.3055606324849,2.3067924761318,2.30814449964669,2.31002731757853,2.31180998562038,2.31366275858522,2.31538533669308,2.31603631097802,2.3174384094379,2.31811942868985,2.28000238055906,2.27819968253921,2.27807950267122,2.27601641493739,2.27672747915633,2.27775902302324,2.2770379438153,2.27812957761621,2.27876052192316,2.27958175102109,2.27914109150513,2.27974199084508,2.28099386446997,2.28156471884292,2.28239596292985,2.28553065448659,2.2866623482435,2.28833485140635,2.34406826518666,2.34266616672678,2.34084343872893,2.34070322888295,2.33790904695218,2.33503474510942,2.33317195715558,2.33256104282663,2.33280140256261,2.33223054818966,2.33243084796964,2.33387300638552,2.33452398067047,2.33510485003242,2.33657705341529,2.33863012616012,2.33961159508204,2.33916092057708,2.33880038097311,2.29545550858475,2.29332231592793,2.292581206742,2.2913794080621,2.29107895839212,2.29027775927219,2.2901275344372,2.28996729461322,2.29003739953621,2.29009748947021,2.28961676999825,2.28962678498725,2.28978702481123,2.28975697984423,2.28973694986624,2.28981706977823,2.29005742951421,2.29070840379915,2.29167985773207,2.29061826889816,2.29109898837012,2.29212051724804,2.29227074208302,2.29261125170899,2.29381305038889,2.29326222599394,2.29417358999286,2.29703787684662,2.35871017910343,2.35814933971948,2.35988193281633,2.36176475074817,2.36109374648523,2.36441872283295,2.36344726890003,2.36414831812997,2.36429854296496,2.36542022173286,2.36325698410905,2.363807808504,2.36440870784395,2.36625146581979,2.36587089623783,2.36697254502773,2.36650184054477,2.36601110608381,2.36356744876802,2.31119907129143,2.30573088729789,2.30486959824396,2.30461922351898,2.30661220632982,2.30426869890401,2.30480950830997,2.30449904365099,2.30525016782593,2.30552057252891,2.30554060250691,2.30691265599979,2.30667229626381,2.30818455960268
2.22076372062904,2.22330752783483,2.22463952137172,2.29083859865614,2.292521116808,2.28932633531727,2.28915608050429,2.29194024744605,2.2937729904329,2.29590618308972,2.29695775693463,2.23534554461182,2.23541564953481,2.2366775381487,2.23697798781868,2.23811969656458,2.23900101559651,2.24075363867136,2.2415047628463,2.2427065615262,2.24399849510709,2.24529042868798,2.24551075844596,2.2474536663118,2.24830494037672,2.25026787822056,2.25122931716448,2.25256131070137,2.25381318432626,2.25718823561898,2.2592913833088,2.26294685429349,2.30721310566976,2.30855511419565,2.30790413991071,2.30784404997671,2.30852506922865,2.30590114211088,2.30582102219888,2.30533028773792,2.30539037767192,2.30537034769392,2.3056607823749,2.30698276092278,2.30834479942667,2.31001730258953,2.31189010553237,2.31311193419027,2.31478443735313,2.31708788482293,2.31733825954791,2.31529520179208,2.27940148121911,2.27840999730819,2.27768891810025,2.27675752412333,2.27789923286923,2.27690774895832,2.27755872324326,2.2782697874622,2.27902091163714,2.27888070179115,2.27937143625211,2.27940148121911,2.28044304007502,2.2818952134799,2.28278654750082,2.28433887079569,2.28597131400255,2.34230562712281,2.34261609178178,2.34270622668278,2.34013237450999,2.340072284576,2.33713789279925,2.33569573438337,2.33423354598949,2.33362263166054,2.33347240682555,2.3341534260775,2.33358257170455,2.33390305135252,2.33489453526343,2.33669723328328,2.33758856730421,2.33908080066508,2.34053297406996,2.33923102550007,2.33690754805227,2.33796913688618,2.29308195619195,2.29307194120296,2.29175997764407,2.2913693930731,2.29112903333712,2.29063829887616,2.29070840379915,2.2901776093822,2.28992723465722,2.28997730960222,2.28980705478923,2.28960675500925,2.28953665008625,2.28994726463522,2.29064831386516,2.29087865861214,2.29077850872215,2.29205041232504,2.29094876353513,2.29181005258906,2.29288165641197,2.29270138660999,2.29278150652198,2.29398330520188,2.29458420454183,2.29572591328773,2.29771889609856,2.35537518776671,2.35520493295373,2.35830957954346,2.35564559246969,2.36918585759655,2.363807808504,2.36613128595181,2.36507971210689,2.36471917250292,2.36474921746992,2.36457896265694,2.3650296371619,2.36596103113882,2.36601110608381,2.36812426876264,2.36846477838861,2.36652187052277,2.36594100116082,2.31113898135743,2.30731325555976,2.30619157679185,2.30668231125281,2.30552057252891,2.30544045261691,2.30447901367299,2.30481952329897,2.30451907362899,2.30547049758391,2.30613148685786,2.30646198149483,2.30671235621981,2.31021760236951,2.31029772228151
2.22062351078305,2.22282680836287,2.22448929653673,2.22639214444657,2.28758372723142,2.29940141425042,2.29633682761668,2.29789916590055,2.30105388743528,2.23361295151496,2.23387334122894,2.23477469023886,2.23564599428179,2.23662746320371,2.2378893518176,2.23853031111355,2.23988233462843,2.24104407335234,2.24283675638318,2.24363795550312,2.24437906468905,2.24531045866598,2.2462418526429,2.24725336653181,2.24875561488169,2.25007759342958,2.25158985676845,2.25223081606439,2.25492484810517,2.25959183297877,2.26004250748374,2.30672237120881,2.30857514417365,2.30872536900864,2.30865526408564,2.30852506922865,2.30783403498771,2.30658216136282,2.30575091727589,2.30501982307895,2.30532027274892,2.30614150184686,2.30668231125281,2.30717304571377,2.30874539898664,2.31050803705049,2.31249100487232,2.31519505190209,2.31694767497695,2.31729819959192,2.31689760003195,2.31470431744113,2.31636680561499,2.27786918790224,2.27815962258321,2.27748861832027,2.27744855836427,2.27721821361729,2.27782912794624,2.27820969752821,2.27918115146112,2.27910103154913,2.27921119642812,2.27986217071307,2.28060327989901,2.28192525844689,2.28239596292985,2.28396831620272,2.28646204846351,2.34292655644076,2.34249591191379,2.34220547723282,2.34231564211181,2.34046286914697,2.34099366356392,2.33686748809627,2.33615642387733,2.33504476009842,2.33453399565946,2.33437375583548,2.33465417552746,2.33512488001042,2.33631666370131,2.3377087471722,2.33852997627013,2.34021249442199,2.34118394835491,2.34184493762885,2.3365169634813,2.29522516383777,2.29362276559791,2.29226072709402,2.29168987272107,2.29008747448121,2.29123919821611,2.29052813399717,2.29061826889816,2.29025772929419,2.29058822393116,2.28983709975623,2.29003739953621,2.29007745949221,2.2901575794042,2.29043799909618,2.2913193181281,2.29075847874415,2.29025772929419,2.2913794080621,2.2913593780841,2.29275146155498,2.29281155148898,2.29308195619195,2.29292171636797,2.2937229154879,2.29563577838674,2.29643697750667,2.2984399753065,2.35345230987887,2.35297159040691,2.35472421348177,2.36439869285495,2.36601110608381,2.36643173562178,2.36525998190888,2.36548031166686,2.36539017676587,2.36530004186487,2.36572067140284,2.36552037162286,2.36681230520375,2.37367257266817,2.36698256001673,2.36873518309159,2.36700258999473,2.31161970082939,2.30902581867861,2.30721310566976,2.30491967318896,2.30539037767192,2.30370785952006,2.30462923850798,2.3068425510768,2.30635181661584,2.30541040764992,2.30515001793594,2.30670234123081,2.30642192153883,2.30818455960268,2.3068425510768,2.30997724263353
2.22254638867089,2.22315730299984,2.22403862203177,2.22654236928156,2.28524021980561,2.29451409961883,2.29582606317772,2.29754864128558,2.29696777192363,2.23251130272505,2.23323238193299,2.23386332623994,2.23509516988684,2.23620683366574,2.23800953168559,2.23864047599254,2.24082374359435,2.24127441809932,2.24271657651519,2.24366800047011,2.24454931950204,2.24634200253289,2.24700299180683,2.24779417593777,2.24831495536572,2.24992736859459,2.25132946705447,2.25316221004132,2.25537552261013,2.256947875883,2.26015267236273,2.2627866144695,2.30753358531774,2.30806437973469,2.30890563881062,2.3079942748117,2.3091159535796,2.30774390008672,2.30545046760591,2.30552057252891,2.3056006924409,2.30660219134082,2.30657214637382,2.30739337547175,2.3091760435136,2.31060818694048,2.31284152948729,2.31556560649506,2.3174984993719,2.31775888908588,2.31777891906388,2.31456410759515,2.27867038702217,2.27822972750621,2.27784915792424,2.27716813867229,2.27725827357329,2.27748861832027,2.27799938275922,2.27850013220918,2.27998235058106,2.27918115146112,2.27954169106509,2.280723459767,2.28075350473399,2.28115410429396,2.28292675734681,2.28409851105971,2.28612153883754,2.34232565710081,2.34199516246384,2.3435975607037,2.3436376206597,2.34053297406996,2.34073327384994,2.33907078567608,2.33799918185317,2.33568571939437,2.3352450598784,2.33469423548345,2.33506479007642,2.33569573438337,2.33739828251322,2.33836973644614,2.33991204475201,2.34138424813489,2.34204523740883,2.34292655644076,2.33946137024705,2.29794924084554,2.29382306537789,2.29356267566391,2.2913593780841,2.29081856867815,2.29149958793009,2.29068837382116,2.29111901834812,2.29041796911818,2.29024771430519,2.2901776093822,2.29028777426119,2.2901275344372,2.29054816397517,2.29064831386516,2.29085862863414,2.29091871856814,2.29112903333712,2.29165982775407,2.29182006757806,2.29225071210502,2.29231080203902,2.29293173135697,2.29357269065291,2.29478450432181,2.29540543363976,2.2961465428257,2.29795925583454,2.35239072104496,2.36414831812997,2.36535011680987,2.36308672929606,2.36598106111682,2.36651185553377,2.3661613309188,2.36612127096281,2.36749332445569,2.36650184054477,2.36575071636984,2.36717284480772,2.36746327948869,2.36967659205751,2.36814429874064,2.36847479337761,2.36593098617182,2.31144944601641,2.30699277591178,2.30594120206687,2.30630174167084,2.30391817428904,2.30505988303495,2.30426869890401,2.30492968817796,2.30608141191286,2.30536033270492,2.30594120206687,2.30708291081278,2.3067624311648,2.30859517415165,2.30871535401964,2.30984704777654
2.22188539939695,2.22219586405592,2.22391844216378,2.22669259411654,2.2901275344372,2.29533532871677,2.29533532871677,2.29806942071354,2.29892069477846,2.29988213372238,2.233152262021,2.23409367098692,2.23531549964482,2.23691789788468,2.23780923190561,2.2391211954645,2.2403129791554,2.24112419326433,2.24226590201023,2.2438282402941,2.24468952934803,2.24491987409501,2.24728341149881,2.24813468556374,2.24952676903462,2.25057834287953,2.25203051628441,2.25343261474429,2.25518523781914,2.25856028911186,2.26193534040458,2.30716303072477,2.3079341848777,2.30902581867861,2.30859517415165,2.30982701779854,2.30729322558176,2.30724315063676,2.30651205643982,2.30641190654983,2.3056507673859,2.30665226628581,2.30639187657183,2.30829472448167,2.30965676298556,2.31171985071939,2.31324212904726,2.31407337313419,2.31775888908588,2.31848998328282,2.31755858930589,2.31902077769977,2.2782397424952,2.27701791383731,2.27779908297924,2.27722822860629,2.27770894807825,2.27738846843028,2.27756873823226,2.27893077673615,2.27908100157113,2.27905095660414,2.28058324992101,2.28019266535004,2.28158474882092,2.2818551535239,2.28247608284185,2.28407848108171,2.28589119409056,2.28765383215441,2.34192505754084,2.34298664637475,2.3436075756927,2.34159456290387,2.34131414321189,2.3412540532779,2.33735822255723,2.33706778787625,2.33581591425136,2.33703774290925,2.33601621403134,2.33723804268924,2.340062269587,2.34040277921297,2.34250592690279,2.34348739582471,2.34469920949361,2.34583090325051,2.34422850501065,2.29539541865076,2.29543547860676,2.29326222599394,2.29240093694001,2.29149958793009,2.29308195619195,2.29118912327111,2.29262126669799,2.29107895839212,2.29030780423919,2.29055817896417,2.29114906331512,2.29115907830412,2.29088867360114,2.29060825390916,2.29068837382116,2.29099883848013,2.29188015751206,2.29146954296309,2.29320213605994,2.292541146786,2.29312201614795,2.2937429454659,2.29383308036689,2.29521514884878,2.29527523878277,2.29827973548252,2.36433860292096,2.36256594986811,2.3626560847691,2.36369764362501,2.36725296471971,2.36586088124883,2.36710273988472,2.36606118102881,2.36693248507174,2.36788390902666,2.36756342937868,2.36712276986272,2.36827449359762,2.3709985706054,2.36984684687049,2.36839467346561,2.36910573768455,2.36925596251954,2.3080243197787,2.30631175665984,2.30711295577977,2.30451907362899,2.30377796444305,2.30366779956406,2.30411847406903,2.30397826422304,2.30548051257291,2.3079642298447,2.30525016782593,2.30745346540574,2.30805436474569,2.3068325360878,2.30754360030674,2.31070833683047
2.22089391548603,2.22266656853888,2.22387838220778,2.22753385319247,2.29630678264968,2.29664729227565,2.29743847640659,2.29651709741867,2.29645700748467,2.2984299603175,2.23385331125094,2.23452431551388,2.23570608421578,2.23696797282968,2.23757888715863,2.23983225968344,2.24067351875937,2.24125438812132,2.24242614183422,2.24365798548112,2.24519027879799,2.24643213743388,2.24754380121279,2.24825486543173,2.24928640929864,2.25032796815455,2.25181018652643,2.25360286955728,2.25512514788515,2.25972202783576,2.26224580506355,2.30844494931666,2.30895571375562,2.30993718267754,2.3103878571825,2.3092161034696,2.30788410993271,2.30652207142882,2.30607139692386,2.30577094725389,2.30577094725389,2.30663223630781,2.30707289582378,2.30845496430566,2.31071835181947,2.31190012052137,2.31404332816719,2.31589610113203,2.31880044794179,2.32014245646768,2.31738833449291,2.31767876917388,2.27874049194516,2.27722822860629,2.27732837849628,2.27808951766022,2.27799938275922,2.27732837849628,2.27956172104309,2.2794215111971,2.27904094161514,2.27970193088908,2.27986217071307,2.28048310003102,2.28139446402994,2.28240597791885,2.2842887958507,2.2842086759387,2.28577101422257,2.28638192855152,2.34490952426259,2.34445884975763,2.34379786048369,2.34297663138575,2.3424157920018,2.34143432307988,2.33909081565408,2.33834970646814,2.33709783284325,2.3376386422492,2.33821951161115,2.33815942167716,2.33943132528005,2.34072325886094,2.34279636158377,2.34420847503265,2.34470922448261,2.34428859494464,2.34186496760685,2.29652711240766,2.29479451931081,2.29456417456383,2.29182006757806,2.29151961790809,2.29102888344713,2.29196027742405,2.29108897338112,2.29148957294109,2.29195026243505,2.29093874854613,2.2913493630951,2.29181005258906,2.29071841878815,2.29124921320511,2.29250108683,2.29213053223703,2.29341245082893,2.29166984274307,2.29313203113695,2.29297179131296,2.29349257074092,2.29383308036689,2.29459421953083,2.29619661777069,2.29690768198963,2.29876045495448,2.363807808504,2.36247581496711,2.36207521540715,2.36722291975271,2.36784384907066,2.36758345935668,2.36870513812459,2.36819437368563,2.37011725157347,2.36560049153485,2.36897554282757,2.36843473342161,2.3697066370245,2.36988690682649,2.37018735649646,2.3697867569365,2.36904564775056,2.31086857665446,2.30736333050475,2.30571085731989,2.30420860897002,2.304378863783,2.30408842910203,2.30482953828797,2.30611145687986,2.3056307374079,2.30569082734189,2.30699277591178,2.3068325360878,2.30671235621981,2.30833478443767,2.30757364527373,2.3115095359504,2.30994719766653
2.22151484480398,2.22290692827486,2.22358794752681,2.22575118515062,2.22740365833548,2.2973483415056,2.2961164978587,2.29745850638459,2.29636687258368,2.2984299603175,2.30023265833735,2.23610668377575,2.23689786790668,2.2378693218396,2.23800953168559,2.23894092566251,2.24101402838534,2.24161492772529,2.24326740091015,2.24440910965605,2.24468952934803,2.2462318376539,2.24785426587176,2.24834500033272,2.24955681400162,2.25077864265952,2.25292185030534,2.25410361900724,2.256927845905,2.25914115847381,2.26275656950251,2.30718306070277,2.3091660285246,2.31014749744652,2.31013748245752,2.30883553388763,2.30857514417365,2.30758366026273,2.3067424011868,2.3068325360878,2.30648201147283,2.30672237120881,2.30758366026273,2.30899577371162,2.31067829186347,2.31267127467431,2.31481448232013,2.31556560649506,2.31884050789779,2.3210538204666,2.31503481207811,2.3150548420561,2.27781911295724,2.27740849840827,2.2771180637273,2.27766888812225,2.27742852838627,2.27808951766022,2.27811956262721,2.27898085168114,2.27917113647213,2.27965185594409,2.27996232060306,2.28103392442597,2.28142450899694,2.28228579805086,2.28147458394193,2.28437893075169,2.2853603996736,2.28715308270445,2.34327708105573,2.34494958421859,2.34458904461462,2.34498964417458,2.3423957620238,2.34176481771686,2.34089351367393,2.33925105547807,2.33865015613812,2.33872026106111,2.34046286914697,2.3388204109511,2.33628661873432,2.34270622668278,2.33256104282663,2.34586094821751,2.34551042360254,2.33981189486202,2.34034268927898,2.29716807170361,2.29676747214364,2.29358270564191,2.29269137162099,2.29149958793009,2.29237089197301,2.29181005258906,2.29163979777608,2.29143949799609,2.29234084700602,2.29277149153298,2.29104891342513,2.29300183627996,2.29162978278708,2.29208045729204,2.29198030740205,2.29279152151098,2.29326222599394,2.29287164142297,2.29283158146698,2.29468435443182,2.29440393473984,2.29452411460783,2.29512501394778,2.29528525377177,2.29929124937143,2.36155443597919,2.36089344670525,2.36201512547315,2.36911575267355,2.36760348933468,2.36731305465371,2.36722291975271,2.36746327948869,2.36838465847662,2.36998705671648,2.36917584260755,2.36995701174948,2.37002711667248,2.3709484956604,2.37116882541838,2.37140918515436,2.37029752137545,2.36823443364163,2.30886557885463,2.30709292580178,2.30585106716588,2.30485958325496,2.30480950830997,2.30433880382701,2.30467931345298,2.30627169670384,2.30628171169284,2.30611145687986,2.30660219134082,2.30664225129681,2.30713298575777,2.30885556386563,2.30826467951468,2.31005736254553,2.30961670302956
2.22199556427594,2.22287688330786,2.22392845715278,2.22532054062366,2.22657241424855,2.22818482747742,2.23006764540926,2.23226092800008,2.23374314637195,2.23835004131156,2.23859040104754,2.23643717841272,2.23753882720263,2.23750878223563,2.23887082073952,2.23987231963943,2.24078368363836,2.2426264416142,2.24339759576714,2.24464946939203,2.24534050363297,2.24707309672983,2.24766398108078,2.24873558490369,2.24965696389161,2.25247117580037,2.25245114582238,2.25471453333618,2.256867755971,2.25940154818779,2.26335746884246,2.30973688289755,2.31105886144544,2.3126913046523,2.31012746746852,2.31111895137944,2.30936632830458,2.30761370522973,2.30663223630781,2.30662222131881,2.30708291081278,2.30714300074677,2.30756363028474,2.30999727261153,2.31179997063138,2.31348248878324,2.31602629598902,2.31715798974593,2.3187103130408,2.3198720517647,2.32513993597826,2.28194528842489,2.27789923286923,2.2771380937053,2.27772897805625,2.27801941273722,2.27842001229719,2.27809953264922,2.27867038702217,2.27926127137312,2.27937143625211,2.27931134631811,2.28030283022903,2.28092375954698,2.28114408930496,2.28212555822688,2.28358774662075,2.2841986609497,2.28672243817749,2.28728327756144,2.3448594493176,2.34557051353654,2.34620145784348,2.34817441067632,2.34465914953761,2.34352745578071,2.34220547723282,2.34521998892157,2.34085345371793,2.33963162506004,2.34081339376194,2.34251594189179,2.34370772558269,2.34791402096234,2.35016739348715,2.35161956689203,2.34949638922421,2.3495364491802,2.34204523740883,2.29713802673661,2.2949247141678,2.29426372489386,2.29382306537789,2.29324219601594,2.29195026243505,2.29186012753406,2.29153964788608,2.29196027742405,2.29171991768807,2.29227074208302,2.29151961790809,2.29290168638997,2.29278150652198,2.29242096691801,2.29278150652198,2.292571191753,2.29270138660999,2.29382306537789,2.2937329304769,2.2937629754439,2.29442396471784,2.29688765201163,2.29554564348575,2.29714804172561,2.29839991535051,2.35767863523652,2.36135413619921,2.36880528801458,2.36810423878464,2.36759347434568,2.36768360924667,2.36749332445569,2.37073818089142,2.37176972475833,2.3708884057264,2.37086837574841,2.37179976972533,2.37268108875725,2.3721102343843,2.37261098383426,2.37200006950531,2.37264102880126,2.31066827687447,2.30757364527373,2.30580099222088,2.30508992800194,2.30472938839797,2.30529022778193,2.30535031771592,2.30515001793594,2.30585106716588,2.3067724461538,2.30894569876662,2.30657214637382,2.30773388509772,2.30825466452568,2.30818455960268,2.30943643322758,2.31025766232551,2.31073838179747
2.22236611886891,2.22281679337387,2.22416881688876,2.22521037574467,2.22682278897353,2.22789439279644,2.22947676105831,2.23117930918817,2.23271160250504,2.23316227701,2.23471460030487,2.23613672874275,2.23699801779668,2.23797948671859,2.23857037106954,2.2403330091334,2.24138458297831,2.24227591699923,2.24319729598715,2.24466949937003,2.24522032376498,2.24690284191684,2.24775411598177,2.24934649923264,2.25136952701047,2.25150973685645,2.25254128072337,2.25721828058597,2.25731843047597,2.25973204282476,2.26375806840242,2.31167979076339,2.31180998562038,2.31086857665446,2.31070833683047,2.30942641823858,2.30850503925066,2.30739337547175,2.30691265599979,2.30648201147283,2.3079542148557,2.30749352536174,2.30966677797456,2.31046797709449,2.31242089994933,2.31410341810119,2.3150949020121,2.31861016315081,2.3198219768197,2.31963169202872,2.31845993831582,2.28057323493201,2.27881059686816,2.27753869326526,2.27935140627411,2.27809953264922,2.27781911295724,2.27877053691216,2.27888070179115,2.27928130135112,2.27931134631811,2.28002241053705,2.27995230561406,2.280613294888,2.2818150935679,2.28256621774284,2.28338744684077,2.28431884081769,2.28594126903556,2.28836489637335,2.29099883848013,2.34777381111635,2.34793405094034,2.3471929417544,2.34620145784348,2.34446886474663,2.34337723094572,2.34215540228782,2.34305675129775,2.34156451793687,2.34168469780486,2.34296661639676,2.34419846004365,2.34629159274447,2.35109878746407,2.34906574469724,2.34882538496126,2.34896559480725,2.34900565476325,2.29818960058152,2.2973283115276,2.29349257074092,2.29401335016888,2.29236087698402,2.29240093694001,2.29248105685201,2.29181005258906,2.29200033738005,2.29250108683,2.292531131797,2.292591221731,2.29220063716003,2.29337239087293,2.292581206742,2.29211050225904,2.29407344010287,2.29380303539989,2.29331230093894,2.29447403966284,2.29457418955283,2.29592621306772,2.29540543363976,2.29658720234166,2.29771889609856,2.29894072475646,2.36805416383964,2.36726297970871,2.36787389403766,2.3674232195327,2.36731305465371,2.36981680190349,2.36876522805858,2.3709985706054,2.37118885539638,2.37137914018736,2.37265104379026,2.37339215297619,2.3733220480532,2.37428348699712,2.37260096884526,2.37173967979133,2.31100878650045,2.31084854667646,2.30739337547175,2.30721310566976,2.30522012285893,2.30493970316696,2.30533028773792,2.30530024277093,2.30617154681385,2.30665226628581,2.30626168171485,2.3067724461538,2.30755361529574,2.30779397503172,2.30776393006472,2.30857514417365,2.30927619340359,2.30938635828258,2.31010743749052
2.22261649359389,2.22358794752681,2.22434908669074,2.22574117016162,2.22674266906154,2.22783430286245,2.22918632637733,2.23122938413316,2.2319204183741,2.23250128773605,2.23544569450181,2.23542566452381,2.2379494417516,2.23783927687261,2.23853031111355,2.2403129791554,2.24130446306631,2.24339759576714,2.24351777563513,2.24434901972206,2.24640209246688,2.2474136063558,2.24788431083876,2.25063843281353,2.25019777329757,2.25181018652643,2.25310212010732,2.256967905861,2.25817971952989,2.26004250748374,2.30977694285355,2.31059817195148,2.31144944601641,2.31060818694048,2.31019757239151,2.31133928113742,2.30868530905264,2.30746348039474,2.30761370522973,2.30736333050475,2.30816452962469,2.30990713771054,2.30928620839259,2.31110893639044,2.31293166438828,2.31421358298018,2.31824962354684,2.3186301931288,2.31960164706172,2.31993214169869,2.3210037455216,2.27898085168114,2.27848010223118,2.2771481086943,2.27741851339727,2.27871044697816,2.27817965256121,2.27894079172514,2.27967188592208,2.27975200583408,2.27973197585608,2.28074348974499,2.28087368460198,2.28074348974499,2.28214558820488,2.28270642758883,2.28316711708279,2.28396831620272,2.28551062450859,2.28855518116434,2.28998732459122,2.3459510831185,2.34728307665539,2.34755348135837,2.34735318157839,2.34614136790949,2.34355750074771,2.3424858969248,2.34206526738683,2.34413837010966,2.3435875457147,2.34415840008765,2.3459410681295,2.34844481537929,2.34869519010427,2.34991701876217,2.35002718364116,2.34973674896019,2.34860505520328,2.2972882515716,2.29652711240766,2.29417358999286,2.29434384480585,2.29392321526788,2.29297179131296,2.29246102687401,2.29218060718203,2.29224069711603,2.29290168638997,2.29273143157698,2.29273143157698,2.29275146155498,2.29359272063091,2.2937129004989,2.29309197118095,2.29341245082893,2.29397329021288,2.29473442937682,2.29525520880477,2.29551559851875,2.2996517889754,2.29624669271569,2.29736837148359,2.2984299603175,2.36571065641384,2.36571065641384,2.36589092621583,2.36642172063278,2.36808420880664,2.37305164335022,2.37275119368025,2.37309170330622,2.37298153842723,2.37246075899927,2.37295149346023,2.37324192814121,2.37631652976395,2.37513476106205,2.37292144849323,2.3733420780312,2.37302159838323,2.31267127467431,2.30766378017473,2.30638186158283,2.30627169670384,2.30655211639582,2.30698276092278,2.30655211639582,2.30596123204487,2.30617154681385,2.30596123204487,2.30862521911865,2.3080042898007,2.30776393006472,2.30769382514172,2.30830473947067,2.30864524909664,2.30958665806257,2.31110893639044,2.31103883146744
2.22254638867089,2.22404863702077,2.22464953636072,2.2260516348206,2.22748377824748,2.2283951422464,2.22929649125632,2.2307987396062,2.23279172241703,2.23360293652596,2.23478470522786,2.23642716342372,2.23698800280768,2.23874062588253,2.23966200487045,2.24088383352835,2.24187531743927,2.24279669642719,2.24440910965605,2.24487981413901,2.24478967923802,2.24732347145481,2.24896592965067,2.24943663413363,2.25074859769252,2.25232095096539,2.25497492305016,2.25635699153205,2.25971201284676,2.25997240256074,2.26484970220333,2.31098875652245,2.31411343309018,2.31129922118142,2.31058815696248,2.31048800707249,2.31073838179747,2.30786407995471,2.30751355533974,2.30823463454768,2.3079542148557,2.30960668804056,2.31014749744652,2.31082851669846,2.31282149950929,2.31375289348621,2.31929118240275,2.3186402081178,2.3198119618307,2.3210337904886,2.32400824222135,2.2794515561641,2.27902091163714,2.27886067181315,2.27769893308925,2.27878055190116,2.27800939774822,2.27890073176915,2.27994229062506,2.27975200583408,2.28013257541605,2.28051314499801,2.28017263537204,2.28145455396393,2.28215560319387,2.28222570811687,2.28323722200578,2.28504993501463,2.28555068446459,2.28755368226442,2.28904591562529,2.34705273190841,2.35153944698003,2.35013734852015,2.34916589458723,2.34696259700742,2.34560055850353,2.34531012382256,2.34755348135837,2.34514988399857,2.34529009384456,2.34521998892157,2.3471929417544,2.34740325652338,2.35141926711204,2.35167965682602,2.35097860759608,2.34998712368516,2.34979683889418,2.30029274827135,2.29514504392578,2.29597628801271,2.29389317030089,2.29337239087293,2.29331230093894,2.29308195619195,2.29355266067492,2.29287164142297,2.29285161144497,2.29288165641197,2.29326222599394,2.29296177632396,2.29411350005887,2.29413353003687,2.29407344010287,2.29414354502587,2.2936828555319,2.29537538867276,2.29563577838674,2.29580603319973,2.29647703746267,2.29700783187962,2.29931127934943,2.30072339279831,2.36443875281095,2.36561050652385,2.36549032665586,2.36714279984072,2.36964654709051,2.37587587024798,2.37373266260217,2.37265104379026,2.37378273754716,2.37307167332822,2.37386285745915,2.37489440132607,2.37457392167809,2.37609620000597,2.3745238467331,2.37372264761317,2.31244092992732,2.30752357032874,2.30673238619781,2.30653208641782,2.30954659810657,2.30568081235289,2.30625166672585,2.30612147186886,2.30522012285893,2.30756363028474,2.30726318061476,2.30710294079077,2.30759367525173,2.30877544395363,2.30857514417365,2.30978695784255,2.30999727261153,2.31089862162146,2.31048800707249,2.31197022544436
2.22239616383591,2.22402860704277,2.22545073548065,2.22651232431456,2.22620185965559,2.22896599661935,2.23059843982622,2.23188035841811,2.23288185731802,2.23359292153696,2.23450428553589,2.23868053594853,2.23739861735664,2.23862044601454,2.24038308407839,2.24306710113017,2.2984800352625,2.29985208875538,2.29294174634597,2.24520029378699,2.24604155286291,2.24835501532172,2.24869552494769,2.24985726367159,2.25183021650443,2.25305204516232,2.25471453333618,2.25835998933188,2.25884070880384,2.26223579007455,2.30841490434966,2.31335229392625,2.31254107981732,2.3127213496193,2.31052806702849,2.31012746746852,2.30957664307357,2.30885556386563,2.3080042898007,2.30838485938267,2.30853508421765,2.30996722764453,2.31019757239151,2.31098875652245,2.3139632082552,2.31560566645106,2.31878041796379,2.31878041796379,2.31889058284278,2.31946143721573,2.3210838654336,2.27974199084508,2.27795932280323,2.27776903801224,2.27798936777023,2.27778906799024,2.27911104653813,2.27874049194516,2.27912106152713,2.27955170605409,2.27987218570207,2.28030283022903,2.28114408930496,2.28246606785285,2.28208549827088,2.28236591796286,2.28372795646674,2.28460927549867,2.2854004596296,2.28713305272646,2.28984711474523,2.34856499524728,2.35020745344315,2.35027755836614,2.34893554984025,2.34790400597334,2.34765363124836,2.34694256702942,2.34728307665539,2.34569069340453,2.34774376614935,2.3471729117764,2.34822448562131,2.3495364491802,2.35089848768409,2.35142928210104,2.35102868254108,2.35185992662801,2.3495464641692,2.29902084466845,2.29815955561453,2.2949647741238,2.29403338014687,2.2948746392228,2.29352261570792,2.29287164142297,2.29469436942082,2.29408345509187,2.29462426449782,2.29288165641197,2.29327224098294,2.29322216603794,2.29402336515788,2.29380303539989,2.29561574840874,2.29456417456383,2.2948846542118,2.29583607816672,2.29590618308972,2.29567583834274,2.29641694752867,2.29771889609856,2.29936135429443,2.29913100954745,2.36602112107281,2.36698256001673,2.36675221526975,2.37031755135345,2.37231053416428,2.37398303732714,2.37418333710713,2.3745538917001,2.37392294739315,2.37487437134807,2.37502459618306,2.37633655974195,2.37669709934592,2.37606615503897,2.375725645413,2.31485454227612,2.30979697283155,2.30748351037274,2.3068125061098,2.30764375019673,2.30581100720988,2.30580099222088,2.31064824689648,2.30698276092278,2.30642192153883,2.31080848672046,2.3068125061098,2.30841490434966,2.30757364527373,2.3092161034696,2.30892566878862,2.30894569876662,2.30960668804056,2.31092866658845,2.31194018047737,2.31302179928928
2.22338764774682,2.22391844216378,2.22493997104169,2.22701307376452,2.22739364334648,2.22923640132233,2.23157990874813,2.23144971389114,2.233152262021,2.23442416562389,2.23516527480983,2.23689786790668,2.23796947172959,2.2391011654865,2.24278668143819,2.29516507390378,2.29713802673661,2.2996217440084,2.30113400734728,2.29090870357914,2.24942661914463,2.25184023149343,2.24966697888061,2.2510190023955,2.25078865764852,2.25343261474429,2.25515519285215,2.25709810071798,2.26069348176868,2.26328736391946,2.3115696258844,2.31282149950929,2.31362269862923,2.31179997063138,2.31180998562038,2.31077844175346,2.30936632830458,2.30935631331558,2.30931625335959,2.3092261184586,2.31005736254553,2.31050803705049,2.31178995564238,2.31334227893725,2.31468428746314,2.31684752508695,2.31782899400887,2.32089358064261,2.32419852701234,2.31782899400887,2.28644201848551,2.27993227563606,2.27769893308925,2.27740849840827,2.27883062684615,2.27892076174715,2.27815962258321,2.27907098658213,2.27988220069107,2.27966187093308,2.28049311502001,2.28057323493201,2.28212555822688,2.28217563317187,2.28251614279784,2.28323722200578,2.28286666741282,2.28456921554267,2.28533035470661,2.28705293281446,2.29003739953621,2.34850490531329,2.34892553485125,2.34980685388318,2.34932613441122,2.35152943199103,2.34812433573132,2.34893554984025,2.3484348003903,2.34790400597334,2.34750340641337,2.34857501023628,2.34941626931221,2.35255096086895,2.35205021141899,2.35218040627598,2.35204019642999,2.35290148548392,2.35504469312974,2.30017256840336,2.29689766700063,2.29562576339774,2.29550558352975,2.2937429454659,2.2949347291568,2.29424369491586,2.2937930204109,2.29431379983885,2.29406342511387,2.29366282555391,2.29445400968484,2.29471439939882,2.29434384480585,2.29425370990486,2.29669736722065,2.29474444436581,2.29631679763868,2.29569586832073,2.29653712739666,2.2972481916156,2.29828975047152,2.29759871623057,2.30034282321634,2.30105388743528,2.36600109109482,2.37242069904328,2.37432354695312,2.37340216796519,2.37431353196412,2.37460396664509,2.37407317222814,2.37429350198612,2.37510471609505,2.37613625996196,2.37598603512698,2.37672714431291,2.37633655974195,2.37609620000597,2.37615628993996,2.31236081001533,2.31016752742452,2.30707289582378,2.30638186158283,2.30627169670384,2.30625166672585,2.30672237120881,2.30734330052675,2.30747349538374,2.3068425510768,2.30786407995471,2.30753358531774,2.3079842598227,2.30822461955868,2.30833478443767,2.30976692786455,2.31115901133543,2.31375289348621,2.3115195509394,2.31215049524635,2.31294167937728
2.2236179924938,2.22457943143772,2.22691292387453,2.22637211446857,2.22900605657535,2.23020785525525,2.23084881455119,2.23190038839611,2.23309217208701,2.2343240157339,2.23585630905077,2.23698800280768,2.23817978649858,2.23955183999146,2.24094392346234,2.24425888482106,2.24584125308293,2.24836503031072,2.24725336653181,2.24902601958466,2.24885576477168,2.2485352851237,2.24904604956266,2.2509589124615,2.25162991672444,2.25428388880922,2.25558583737911,2.25802949469491,2.26032292717571,2.26667243020118,2.31234078003733,2.31303181427828,2.31408338812319,2.3150548420561,2.31182000060938,2.31083853168746,2.3103377822375,2.31119907129143,2.31042791713849,2.31019757239151,2.31071835181947,2.31184003058738,2.31267127467431,2.31436380781516,2.31598623603303,2.31813945866785,2.31928116741375,2.32074335580763,2.32328716301341,2.3246692314953,2.28275650253382,2.28028280025103,2.27867038702217,2.27789923286923,2.27892076174715,2.28121419422795,2.27906097159314,2.27910103154913,2.27957173603209,2.28059326491001,2.28026277027303,2.28116411928296,2.28160477879892,2.28254618776484,2.28241599290785,2.2830469372148,2.28391824125773,2.28487968020165,2.28592123905756,2.28813455162637,2.29099883848013,2.29127925817211,2.35036769326713,2.35060805300311,2.351910001573,2.35159953691403,2.35099863757408,2.34978682390518,2.34911581964224,2.3507783078161,2.3496065541032,2.3507883228051,2.351899986584,2.35331210003288,2.35366262464785,2.35419341906481,2.35396307431783,2.35507473809674,2.35621644684264,2.35767863523652,2.29708795179162,2.29596627302371,2.29554564348575,2.29459421953083,2.29466432445382,2.29404339513587,2.29408345509187,2.29525520880477,2.29421364994886,2.2948946692008,2.29528525377177,2.29470438440982,2.29519511887078,2.29556567346375,2.29528525377177,2.29572591328773,2.29657718735266,2.29656717236366,2.29740843143959,2.29664729227565,2.29825970550452,2.29817958559253,2.30006240352437,2.37425344203012,2.37508468611705,2.37168960484634,2.37289140352624,2.3744837867771,2.37537512079803,2.37463401161209,2.37710771389488,2.37694747407089,2.37701757899389,2.37669709934592,2.37676720426891,2.37864000721175,2.37778873314682,2.37656690448893,2.31162971581839,2.31347247379424,2.30847499428366,2.3056707973639,2.30618156180285,2.30698276092278,2.30616153182485,2.3056507673859,2.3067624311648,2.30785406496571,2.30780399002072,2.30823463454768,2.30856512918465,2.30845496430566,2.30939637327158,2.30970683793055,2.30948650817257,2.31064824689648,2.31082851669846,2.3115095359504,2.31245094491632,2.31484452728712
2.22331754282383,2.2248898960967,2.22704311873151,2.2271833285775,2.22825493240041,2.23006764540926,2.23163999868213,2.23171010360512,2.2343240157339,2.23471460030487,2.23603657885276,2.2366875531377,2.23805960663059,2.2390510905415,2.24098398341834,2.24274662148219,2.24400851009609,2.24529042868798,2.24596143295092,2.24650224235688,2.24734350143281,2.24882571980468,2.24961690393561,2.25124934714248,2.25246116081137,2.25438403869921,2.2557060172471,2.25838001930988,2.26574103622426,2.26379812835842,2.3150748720341,2.31403331317819,2.31424362794717,2.31328218900325,2.31308188922327,2.31187007555437,2.31195019546637,2.31326215902526,2.31024764733651,2.31101880148944,2.31251103485032,2.31377292346421,2.31433376284817,2.3150748720341,2.31734827453691,2.31825963853583,2.3210037455216,2.32187504956453,2.32349747778239,2.32414845206734,2.28268639761083,2.28034289018503,2.27882061185716,2.27958175102109,2.27766888812225,2.2795116460981,2.28057323493201,2.27956172104309,2.28005245550405,2.28037293515202,2.28106396939297,2.28147458394193,2.28230582802886,2.28315710209379,2.28335740187377,2.28356771664276,2.28446906565268,2.2854104746186,2.28639194354052,2.28790420687939,2.29179002261106,2.35062808298111,2.3507382478601,2.35238070605596,2.35352241480187,2.35453392869078,2.35254094587995,2.35480433339376,2.35344229488987,2.35128907225505,2.35491449827275,2.35270118570394,2.35222046623198,2.35441374882279,2.35409326917482,2.35599611708466,2.35758850033552,2.35585590723867,2.35644679158962,2.35703767594057,2.29890066480046,2.29983205877739,2.29581604818872,2.29649706744067,2.29553562849675,2.29507493900279,2.29544549359576,2.29477448933281,2.29532531372777,2.29524519381577,2.29461424950883,2.29552561350775,2.29538540366176,2.29579601821073,2.29656717236366,2.29660723231966,2.29683757706664,2.29777898603256,2.2985000652405,2.29925118941544,2.30035283820534,2.30139439706126,2.37083833078141,2.37033758133145,2.37203011447231,2.37163952990134,2.37515479104005,2.37436360690911,2.37578573534699,2.37632654475295,2.37664702440092,2.37707766892788,2.37708768391688,2.37870009714575,2.37881026202474,2.37975167099066,2.37833955754178,2.37680726422491,2.30941640324958,2.30858515916265,2.30820458958068,2.30751355533974,2.30717304571377,2.30656213138482,2.30743343542775,2.30744345041675,2.30655211639582,2.30773388509772,2.30741340544975,2.3080143047897,2.30878545894263,2.30891565379962,2.30986707775454,2.30991715269954,2.3115195509394,2.31183001559838,2.31202030038936,2.31326215902526,2.31308188922327,2.31410341810119
2.22455940145972,2.22610170976559,2.22706314870951,2.2272133735445,2.22827496237841,2.23004761543126,2.23183028347311,2.23236107789007,2.23377319133895,2.23535555960081,2.23730848245565,2.2366675231597,2.23824989142157,2.23916125542049,2.24044317401239,2.2414446729123,2.24345768570113,2.24468952934803,2.24550074345696,2.24671255712586,2.24747369628979,2.24909612450766,2.25016772833057,2.25080868762651,2.25238104089938,2.2545342635342,2.25600646691708,2.26037300212071,2.26334745385346,2.31242089994933,2.31358263867323,2.31418353801318,2.31453406262815,2.31403331317819,2.31321208408026,2.3127614095753,2.31225064513634,2.31209040531235,2.31144944601641,2.31121910126943,2.3127413795973,2.3127914545423,2.31485454227612,2.31673736020796,2.32096368556561,2.32003229158869,2.32136428512557,2.3234674328154,2.32201525941052,2.32194515448752,2.28094378952498,2.27994229062506,2.28104393941497,2.27866037203317,2.27924124139512,2.27907098658213,2.27929131634012,2.28025275528403,2.28085365462398,2.28149461391993,2.28164483875492,2.28145455396393,2.28227578306186,2.28285665242382,2.28334738688477,2.28360777659875,2.28460927549867,2.28521017483862,2.28610150885954,2.28691272296847,2.28938642525127,2.29109898837012,2.35368265462585,2.35298160539591,2.35479431840476,2.35597608710666,2.35616637189764,2.35385290943884,2.35345230987887,2.35324199510989,2.35223048122098,2.3543536588888,2.35398310429583,2.35497458820674,2.35538520275571,2.35821944464247,2.35974172297034,2.35802915985149,2.35621644684264,2.3554853526457,2.29877046994348,2.29698780190163,2.29697778691263,2.29526522379377,2.29635685759468,2.29592621306772,2.29553562849675,2.29600633297971,2.29535535869476,2.29533532871677,2.29519511887078,2.29646702247367,2.29662726229766,2.29662726229766,2.29637688757268,2.29743847640659,2.29761874620857,2.29806942071354,2.29761874620857,2.29871038000948,2.29982204378839,2.30136435209426,2.3698067869145,2.37082831579241,2.37242069904328,2.37359245275618,2.375695600446,2.37658693446692,2.37694747407089,2.3768773691479,2.3780891828168,2.37782879310282,2.37855988729976,2.38249577797643,2.3805027951656,2.37938111639769,2.37912072668371,2.31102881647844,2.31051805203949,2.30838485938267,2.30714300074677,2.30655211639582,2.30659217635182,2.3068425510768,2.30839487437167,2.30671235621981,2.30723313564776,2.30791415489971,2.30788410993271,2.30759367525173,2.30967679296356,2.31047799208349,2.31104884645644,2.31100878650045,2.31087859164346,2.31267127467431,2.31237082500433,2.31465424249614,2.31398323823319,2.31564572640706
2.22403862203177,2.22536060057966,2.22640215943557,2.22768407802746,2.22947676105831,2.23052833490322,2.23115927921017,2.23287184232902,2.23448425555789,2.23538560456781,2.23722836254366,2.23762896210362,2.24011267937541,2.24035303911139,2.24110416328633,2.24218578209824,2.24342764073413,2.24420880987607,2.24569102824794,2.24692287189484,2.24790434081676,2.24968700885861,2.25057834287953,2.25170002164744,2.25311213509632,2.25474457830318,2.25656730630103,2.25989228264875,2.26498991204932,2.31248098988332,2.31690761502095,2.31546545660507,2.316266655725,2.31487457225412,2.31374287849722,2.31355259370623,2.31249100487232,2.31416350803518,2.31327217401426,2.31311193419027,2.31364272860722,2.31552554653907,2.31659715036198,2.31835978842583,2.31998221664369,2.32075337079662,2.32393813729836,2.32517999593425,2.31930119739175,2.31832974345883,2.28139446402994,2.2794215111971,2.28164483875492,2.28031284521803,2.2794315261861,2.27931134631811,2.28004244051505,2.28047308504202,2.28060327989901,2.28140447901894,2.28152465888693,2.2818751835019,2.28230582802886,2.28338744684077,2.28353767167576,2.28472945536666,2.28554066947559,2.28607146389254,2.28615158380454,2.28713305272646,2.28812453663737,2.28985712973423,2.35326202508789,2.35357248974686,2.3554553076787,2.3567171962926,2.35558550253569,2.35706772090757,2.35794903993949,2.35585590723867,2.35452391370178,2.35655695646861,2.3566871513256,2.3578889500055,2.35731809563255,2.35867011914743,2.35916085360839,2.35781884508251,2.35948133325636,2.35304169532991,2.30000231359037,2.30107391741328,2.29697778691263,2.29659721733066,2.29554564348575,2.29565580836474,2.29620663275969,2.29514504392578,2.29581604818872,2.29651709741867,2.29628675267168,2.29777898603256,2.29689766700063,2.29640693253967,2.29973190888739,2.29773892607656,2.29923115943744,2.30041292813934,2.30058318295232,2.29907091961345,2.30147451697325,2.30263625569715,2.37343221293219,2.37759844835584,2.37435359192011,2.37419335209613,2.37599605011597,2.37741817855385,2.37785883806982,2.3792108615847,2.3805027951656,2.37934105644169,2.37983179090265,2.38115376945054,2.38055287011059,2.38031251037461,2.31206036034536,2.30885556386563,2.30822461955868,2.30738336048275,2.30669232624181,2.30609142690186,2.3091960734916,2.30760369024073,2.3068225210988,2.30712297076877,2.30761370522973,2.30769382514172,2.30836482940467,2.30878545894263,2.3091760435136,2.31021760236951,2.31116902632443,2.31173988069738,2.31122911625843,2.31223061515834,2.31325214403626,2.31312194917927,2.31555559150606,2.31432374785917
2.22444923658073,2.22578123011762,2.22728347846749,2.22788437780744,2.22918632637733,2.23115927921017,2.23178020852812,2.23355286158097,2.23462446540388,2.2354757394688,2.23640713344573,2.23753882720263,2.2403330091334,2.24067351875937,2.24280671141619,2.24225588702123,2.24369804543711,2.24475963427102,2.24540059356697,2.24697294683984,2.24886577976068,2.25040808806655,2.25183021650443,2.25256131070137,2.25439405368821,2.25623681166406,2.25768898506893,2.2616248757456,2.26535045165329,2.31346245880524,2.31488458724312,2.31681748011996,2.31642689554899,2.31695768996594,2.31462419752914,2.31438383779316,2.31437382280416,2.31419355300218,2.31314197915727,2.31472434741913,2.31565574139605,2.31549550157207,2.31696770495494,2.31774887409688,2.31977190187471,2.32234575404749,2.3245790965943,2.32619150982317,2.32838479241398,2.33135924414673,2.2818551535239,2.28033287519603,2.28038295014102,2.27900088165914,2.27839998231919,2.27970193088908,2.280653354844,2.28020268033904,2.28114408930496,2.28156471884292,2.28225575308387,2.28227578306186,2.28232585800686,2.28365785154375,2.2841786309717,2.28471944037766,2.28535038468461,2.28611152384854,2.28647206345251,2.28804441672538,2.28969688991024,2.29199032239105,2.29296177632396,2.35558550253569,2.35645680657862,2.35691749607258,2.35744829048954,2.35755845536853,2.35727803567655,2.35638670165563,2.36318687918605,2.35652691150161,2.35821944464247,2.36219539527514,2.36005218762932,2.35999209769532,2.36044277220028,2.36304666934006,2.35480433339376,2.35321195014289,2.29958168405241,2.29898078471246,2.29886060484447,2.29861023011949,2.29707793680262,2.29654714238566,2.29693772695663,2.29561574840874,2.29625670770469,2.29626672269369,2.29711799675862,2.2972882515716,2.29826972049352,2.29771889609856,2.29925118941544,2.29786912093355,2.29783907596655,2.29918108449244,2.29998228361237,2.30109394739128,2.37656690448893,2.37498453622706,2.37463401161209,2.37946123630968,2.375665555479,2.37620636488496,2.37789889802581,2.3769074141149,2.37940114637569,2.37890039692573,2.38101355960455,2.3805027951656,2.38107364953855,2.38012222558363,2.37998201573764,2.38121385938454,2.30965676298556,2.30941640324958,2.30723313564776,2.30727319560376,2.30726318061476,2.30930623837059,2.30695271595579,2.30703283586778,2.30781400500971,2.30778396004272,2.30787409494371,2.3091459985466,2.31003733256753,2.31019757239151,2.31021760236951,2.31081850170946,2.3114995209614,2.3115696258844,2.31249100487232,2.31325214403626,2.31577592126404,2.31583601119804,2.31483451229812,2.31618653581301
2.22421889183375,2.22634206950157,2.22728347846749,2.2284051572354,2.23083879956219,2.23120935415516,2.23325241191099,2.23298200720801,2.23515525982083,2.2366775381487,2.23754884219163,2.23767903704862,2.24011267937541,2.24113420825333,2.24318728099816,2.24244617181222,2.24437906468905,2.24536053361097,2.24660239224687,2.24912616947466,2.24954679901262,2.24989732362759,2.25182020151543,2.25267147558036,2.25442409865521,2.25717822062998,2.25850019917787,2.26106403636165,2.26612160580622,2.31407337313419,2.31623661075801,2.31771882912988,2.31854005822781,2.31733825954791,2.31582599620904,2.31501478210011,2.31503481207811,2.31681748011996,2.31442389774916,2.31451403265015,2.31657712038398,2.31772884411888,2.31782899400887,2.3198119618307,2.32128416521358,2.32402827219935,2.32470929145129,2.32546041562623,2.32551049057122,2.32780392305203,2.28318714706079,2.28090372956898,2.28022271031704,2.27977203581207,2.27974199084508,2.28045305506402,2.28102390943697,2.280703429789,2.28122420921695,2.28258624772084,2.28203542332589,2.28275650253382,2.28251614279784,2.28380807637874,2.28359776160975,2.2842387209057,2.28568087932158,2.28609149387054,2.28716309769345,2.28758372723142,2.28939644024027,2.29111901834812,2.29324219601594,2.3554653226677,2.35581584728267,2.35740823053354,2.35760853031352,2.35778880011551,2.35967161804735,2.35839971444446,2.36042274222229,2.36299659439507,2.36150436103419,2.36218538028614,2.35951137822336,2.35963155809135,2.36345728388903,2.3649495172499,2.36239569505512,2.36233560512112,2.30289664541113,2.30210546128019,2.29807943570253,2.30005238853537,2.29714804172561,2.2972682215936,2.29762876119757,2.29913100954745,2.29676747214364,2.2973082815496,2.2972882515716,2.29741844642859,2.29831979543851,2.29890066480046,2.29920111447044,2.30037286818334,2.29923115943744,2.30019259838136,2.3009036626003,2.30300681029012,2.37234057913128,2.37182981469233,2.37317182321821,2.37496450624906,2.37651682954393,2.37725793872987,2.37908066672771,2.37964150611167,2.37992192580364,2.38025242044062,2.38072312492358,2.38190489362548,2.38151430905451,2.38178471375749,2.38085331978057,2.31064824689648,2.30786407995471,2.30762372021873,2.30788410993271,2.30776393006472,2.30758366026273,2.30789412492171,2.30959667305156,2.30829472448167,2.3080042898007,2.30932626834859,2.30889562382162,2.3091860585026,2.30996722764453,2.31073838179747,2.31113898135743,2.31190012052137,2.31207037533436,2.31261118474031,2.31282149950929,2.31415349304618,2.31408338812319,2.31444392772716,2.31497472214411,2.31809939871185
2.22497001600869,2.2260616498096,2.22774416796146,2.2283951422464,2.23005763042026,2.23166002866013,2.23298200720801,2.2343540607009,2.2355258144138,2.23653732830272,2.23886080575052,2.23848023616855,2.24015273933141,2.24119429818732,2.24217576710924,2.24349774565713,2.245050068952,2.2461817627089,2.24728341149881,2.2486254200247,2.25180017153743,2.25114919725248,2.25227087602039,2.25477462327018,2.25528538770914,2.25739855038796,2.25993234260475,2.26309707912848,2.31543541163807,2.31641688055999,2.31767876917388,2.31781897901987,2.31975187189671,2.31784902398687,2.3174884843829,2.3150848870231,2.31518503691309,2.31726815462492,2.31588608614303,2.31605634095602,2.31671733022996,2.31825963853583,2.31931121238075,2.32204530437752,2.32292662340944,2.32330719299141,2.32561064046122,2.32661213936113,2.32623156977916,2.3269426339981,2.28374798644474,2.28198534838089,2.27976202082308,2.28005245550405,2.27971194587808,2.27972196086708,2.28144453897493,2.28154468886493,2.28202540833689,2.28209551325988,2.28246606785285,2.28278654750082,2.28366786653275,2.28391824125773,2.28402840613672,2.28468939541066,2.2865621983535,2.2866122732985,2.28643200349651,2.28761377219842,2.28885563083431,2.29128927316111,2.29247104186301,2.35543527770071,2.35816936969748,2.3578488900495,2.35891047888341,2.36181482569317,2.3613841811662,2.36511977206289,2.36255593487911,2.36202514046215,2.36239569505512,2.36353740380102,2.36553038661186,2.36641170564378,2.36331707404304,2.36413830314097,2.3685849582566,2.36282633958208,2.3626660997581,2.30077346774331,2.30011247846936,2.29947151917342,2.29889064981147,2.29928123438243,2.29807943570253,2.29812951064753,2.29793922585655,2.29894072475646,2.2984900502515,2.29987211873338,2.29990216370038,2.29834984040551,2.29942144422842,2.30078348273231,2.3009136775893,2.30179499662122,2.30119409728127,2.30466929846398,2.37321188317421,2.37040768625444,2.37112876546238,2.37109872049539,2.3827862126574,2.38299652742639,2.38071310993458,2.38107364953855,2.38254585292142,2.38194495358147,2.38348726188734,2.38237559810844,2.38151430905451,2.38287634755839,2.31139937107141,2.31007739252352,2.30786407995471,2.30786407995471,2.30789412492171,2.30898575872262,2.3080443497567,2.30939637327158,2.30823463454768,2.30850503925066,2.30944644821658,2.30948650817257,2.30934629832659,2.30980698782055,2.31104884645644,2.31112896636844,2.31244092992732,2.31259115476231,2.31343241383824,2.31399325322219,2.3139632082552,2.31454407761715,2.3150848870231,2.31607637093402,2.316266655725,2.31805933875585
2.22443922159173,2.22684281895153,2.22818482747742,2.2295468659813,2.23069858971621,2.23166002866013,2.23339262175698,2.23467454034887,2.23573612918278,2.23658740324771,2.23817978649858,2.24009264939742,2.24068353374837,2.2414146279453,2.24293690627318,2.24415873493107,2.24493990407301,2.24652227233487,2.24804455066275,2.2486154050357,2.24950673905662,2.25118925720848,2.25269150555835,2.25513516287415,2.25785923988192,2.25831992937588,2.26254625473353,2.26333743886446,2.31707786983393,2.31954155712773,2.32090359563161,2.31944140723774,2.31821957857984,2.31926113743575,2.31933124235874,2.31819954860184,2.31724812464692,2.31655709040598,2.31610641590102,2.31763870921789,2.32053304103864,2.32256608380547,2.32178491466354,2.32200524442152,2.32312692318943,2.32443888674832,2.32593112010919,2.32752350336006,2.32808434274401,2.32916596155592,2.28354768666476,2.28059326491001,2.28150462890893,2.280683399811,2.28003242552605,2.28118414926096,2.28145455396393,2.28137443405194,2.28328729695078,2.28243602288585,2.28289671237981,2.2830569522038,2.28414858600471,2.28464933545466,2.28466936543266,2.2854104746186,2.28674246815549,2.28687266301248,2.28766384714341,2.28829479145036,2.28948657514126,2.29077850872215,2.292531131797,2.29434384480585,2.35949134824536,2.35916085360839,2.36047281716728,2.36523995193088,2.36364756868001,2.36330705905404,2.36233560512112,2.36279629461509,2.3614242411222,2.36610124098481,2.36559047654585,2.36596103113882,2.36599107610582,2.36642172063278,2.36606118102881,2.363827838482,2.36105368652923,2.30163475679723,2.30142444202825,2.29952159411841,2.30008243350237,2.29928123438243,2.29897076972346,2.29877046994348,2.29875043996548,2.30142444202825,2.29982204378839,2.30011247846936,2.29993220866738,2.30104387244628,2.30036285319434,2.3008736176333,2.3020453713462,2.30188513152221,2.30192519147821,2.37612624497296,2.37523491095204,2.37608618501697,2.37583581029199,2.38112372448354,2.38091340971456,2.38133403925253,2.38113373947254,2.38221535828445,2.38368756166733,2.38366753168933,2.38392792140331,2.38315676725037,2.38300654241538,2.31232075005934,2.31114899634643,2.30883553388763,2.30886557885463,2.30900578870061,2.3092261184586,2.3091560135356,2.30896572874462,2.30834479942667,2.30930623837059,2.30926617841459,2.30942641823858,2.31015751243552,2.31085856166546,2.31064824689648,2.31180998562038,2.31212045027935,2.31183001559838,2.31399325322219,2.31414347805718,2.3138830883432,2.31413346306818,2.31466425748514,2.31493466218812,2.31719804970192,2.31771882912988,2.31840986337082
2.22540066053565,2.22695298383052,2.22795448273044,2.23032803512324,2.23046824496923,2.2319404483521,2.233122217054,2.23510518487584,2.23637708847873,2.23831999634457,2.23939160016747,2.23942164513447,2.2415047628463,2.24195543735126,2.24318728099816,2.24447921457905,2.24747369628979,2.24714320165282,2.2485553151017,2.24897594463967,2.25016772833057,2.25258134067936,2.25368298946927,2.25607657184007,2.25719825060798,2.25903099359482,2.26128436611963,2.26844508325403,2.31966173699572,2.32008236653368,2.32140434508157,2.32157459989456,2.32130419519158,2.31859013317281,2.31829969849183,2.3186402081178,2.3187103130408,2.31785903897587,2.3174684544049,2.31924110745775,2.31934125734774,2.32040284618165,2.32172482472954,2.32380794244137,2.32477939637429,2.32893561680894,2.32631168969116,2.328164462656,2.3305680600158,2.33118898933375,2.28243602288585,2.28079356468999,2.28140447901894,2.28135440407394,2.28218564816087,2.28092375954698,2.28118414926096,2.28245605286385,2.28283662244582,2.28392825624673,2.2830068772588,2.28383812134573,2.28567086433258,2.28488969519064,2.28585113413456,2.28618162877154,2.28702288784746,2.2866423182655,2.28741347241843,2.28937641026227,2.28867536103233,2.29083859865614,2.29282156647798,2.29463427948682,2.35919089857539,2.36069314692526,2.36349734384503,2.36350735883403,2.36419839307497,2.36270615971409,2.36440870784395,2.36955641218952,2.3650596821289,2.36515983201889,2.37639664967594,2.37048780616644,2.3685849582566,2.36778375913667,2.36519989197488,2.36490945729391,2.3662114058638,2.30263625569715,2.30099379750129,2.30000231359037,2.29904087464645,2.30067331785332,2.29986210374438,2.30008243350237,2.29982204378839,2.29937136928343,2.29912099455845,2.2997018639204,2.3008535876553,2.3008836326223,2.30055313798533,2.3020754163132,2.30224567112618,2.30216555121419,2.30342743982808,2.37520486598504,2.37529500088603,2.37519485099604,2.3780891828168,2.38096348465956,2.38252582294343,2.38262597283342,2.38380774153532,2.38364750171133,2.38601103911513,2.38429847599628,2.38417829612829,2.38302657239338,2.3127313646083,2.3114895059724,2.30992716768854,2.30923613344759,2.30891565379962,2.30809442470169,2.30848500927266,2.30878545894263,2.31025766232551,2.31017754241352,2.3103678272045,2.31106887643444,2.31077844175346,2.31009742250152,2.31089862162146,2.31057814197348,2.31125916122542,2.31252104983932,2.31258113977331,2.31438383779316,2.31431373287017,2.31491463221012,2.31648698548298,2.31532524675908,2.31648698548298,2.31823960855784,2.31837981840382,2.32025262134667
2.22641217442457,2.22745373328048,2.2295668959593,2.23002758545326,2.23181025349511,2.23389337120694,2.23421385085491,2.2355157994248,2.23573612918278,2.23713822764266,2.2379494417516,2.23986230465044,2.24161492772529,2.24272659150419,2.24414871994207,2.245060083941,2.24589132802793,2.24699297681783,2.24871555492569,2.24928640929864,2.25135951202147,2.25252125074537,2.25483471320417,2.25588628704909,2.25726835553097,2.25953174304478,2.26482967222533,2.26816466356205,2.32054305602764,2.32080344574162,2.32234575404749,2.32074335580763,2.32125412024658,2.31944140723774,2.31994215668769,2.32049298108265,2.31940134728174,2.32024260635767,2.31917100253476,2.31925112244675,2.32125412024658,2.32420854200133,2.32303678828843,2.32414845206734,2.32781393804103,2.32807432775501,2.32899570674293,2.32869525707296,2.32927612643491,2.33040782019181,2.28447908064168,2.28527026477261,2.28156471884292,2.28106396939297,2.28240597791885,2.28168489871091,2.2830469372148,2.28260627769884,2.28291674235781,2.28334738688477,2.28387818130173,2.28387818130173,2.28483962024565,2.28558072943159,2.28741347241843,2.28731332252844,2.28872543597732,2.28789419189039,2.28831482142836,2.28934636529527,2.29030780423919,2.2901675943932,2.29170990269907,2.2937429454659,2.36039269725529,2.36450885773394,2.363757733559,2.3625859798461,2.36465908256893,2.36526999689788,2.36653188551177,2.36638166067678,2.36807419381764,2.36922591755254,2.37011725157347,2.36959647214551,2.37112876546238,2.36917584260755,2.36352738881202,2.36418837808597,2.36551035663386,2.36535011680987,2.30282654048813,2.30139439706126,2.3008836326223,2.30015253842536,2.3008736176333,2.30131427714926,2.30189514651121,2.30099379750129,2.30105388743528,2.30062324290832,2.3008535876553,2.30154462189624,2.30194522145621,2.30229574607118,2.30497976312295,2.30380800941005,2.37751832844385,2.37525494093004,2.38015227055062,2.38259592786642,2.38152432404351,2.38141415916452,2.38378771155732,2.38346723190935,2.3840581162603,2.38554033463217,2.38674213331207,2.3851497500612,2.31785903897587,2.31286155946529,2.31265124469631,2.30943643322758,2.30882551889863,2.30897574373362,2.30875541397564,2.30910593859061,2.30777394505372,2.31443391273816,2.3091760435136,2.30998725762253,2.31121910126943,2.31045796210549,2.31091865159945,2.31067829186347,2.31092866658845,2.31162971581839,2.31223061515834,2.31258113977331,2.3139131333102,2.31585604117604,2.316276670714,2.31442389774916,2.31774887409688,2.31621658078001,2.31715798974593,2.31876038798579,2.31938131730374,2.3210838654336
2.22659244422655,2.22865553196038,2.22871562189437,2.23064851477121,2.23179022351711,2.23304209714201,2.23424389582191,2.23535555960081,2.23756887216963,2.2379594567406,2.23939160016747,2.2415147778353,2.24191537739526,2.24293690627318,2.24475963427102,2.24583123809393,2.24642212244488,2.24669252714786,2.24923633435365,2.25078865764852,2.25188029144942,2.25363291452428,2.25417372393023,2.25765894010194,2.25938151820979,2.26141456097662,2.26428886281938,2.3245790965943,2.3186201781398,2.32166473479555,2.32373783751837,2.32181495963054,2.32358761268339,2.32060314596164,2.3210438054776,2.32152452494956,2.32098371554361,2.31996218666569,2.32034275624766,2.32111391040059,2.32121406029059,2.32264620371747,2.32557058050522,2.32872530203995,2.32773381812904,2.32964668102788,2.32952650115989,2.32907582665492,2.33196014348668,2.33487450528544,2.28504993501463,2.2830569522038,2.28332735690678,2.28103392442597,2.28216561818287,2.28194528842489,2.28272645756683,2.28255620275384,2.28288669739081,2.28404843611472,2.28371794147774,2.28525023479461,2.28550060951959,2.28573095426657,2.28627176367253,2.28695278292447,2.28720315764945,2.28813455162637,2.28880555588931,2.28961676999825,2.29117910828211,2.29088867360114,2.29101886845813,2.29350258572992,2.29634684260568,2.36352738881202,2.36293650446107,2.36315683421906,2.36338717896604,2.37346225789919,2.36830453856462,2.37285134357024,2.36930603746454,2.36922591755254,2.36924594753054,2.36869512313559,2.36731305465371,2.3744537418101,2.36744324951069,2.36681230520375,2.36649182555577,2.37341218295419,2.30278648053214,2.30260621073015,2.30395823424504,2.30103385745729,2.30154462189624,2.30371787450906,2.30148453196225,2.30279649552114,2.30252609081816,2.30272639059814,2.30193520646721,2.30184507156622,2.30359769464107,2.30400830919003,2.30390815930004,2.30519007789194,2.3839779963483,2.38059293006659,2.38006213564963,2.38075316989057,2.38038261529761,2.3828362876024,2.38376768157932,2.38453883573226,2.38659190847708,2.38629145880711,2.38489937533623,2.38474915050124,2.31309190421227,2.3139531932662,2.30991715269954,2.30994719766653,2.3091860585026,2.31066827687447,2.31054809700648,2.30894569876662,2.30948650817257,2.31064824689648,2.31015751243552,2.31252104983932,2.3103377822375,2.31093868157745,2.31237082500433,2.3115596108954,2.31236081001533,2.31234078003733,2.31259115476231,2.31328218900325,2.31353256372823,2.31893064279878,2.31773885910788,2.32012242648968,2.31693765998795,2.31821957857984,2.31817951862384,2.31875037299679,2.32399822723235,2.32070329585163
2.22659244422655,2.22866554694938,2.22939664114632,2.23171010360512,2.23180023850611,2.23358290654796,2.23545570949081,2.23765900707062,2.23744869230164,2.23847022117955,2.23979219972744,2.24079369862736,2.24237606688922,2.24307711611916,2.24422883985407,2.24557084837995,2.24704305176283,2.24790434081676,2.24891585470567,2.25045816301154,2.25200047131741,2.25404352907324,2.25528538770914,2.25853024414486,2.25881066383684,2.26114415627364,2.2664020254982,2.32382797241937,2.32410839211134,2.32430869189133,2.32369777756238,2.32254605382747,2.3210237754996,2.32270629365146,2.32445891672631,2.32302677329943,2.32175486969654,2.32130419519158,2.32257609879447,2.32235576903649,2.32475936639629,2.32428866191333,2.32565070041721,2.32675234920712,2.3281244027,2.32879540696295,2.32972680093987,2.33210035333267,2.33135924414673,2.33482443034044,2.28611152384854,2.28386816631273,2.2830970121598,2.28625173369453,2.28347758174176,2.28331734191778,2.28276651752282,2.28341749180777,2.28494978512464,2.28507997998163,2.28706294780346,2.28476951532266,2.28734336749544,2.28692273795747,2.28677251312249,2.2878441169454,2.2889557807243,2.2878040569894,2.28938642525127,2.29071841878815,2.29146954296309,2.29101886845813,2.29262126669799,2.292581206742,2.29513502893678,2.29813952563653,2.36298657940607,2.37111875047339,2.37204012946131,2.37125896031937,2.37145926009936,2.37183982968132,2.37114879544038,2.37002711667248,2.36816432871863,2.36786387904866,2.37619634989596,2.37313176326222,2.37281128361424,2.36676223025875,2.37025746141946,2.37945122132068,2.3032672000041,2.30539037767192,2.3032271400481,2.30188513152221,2.30135433710526,2.30181502659922,2.30273640558714,2.30656213138482,2.30251607582916,2.30315703512511,2.30287661543313,2.3032071100701,2.30427871389301,2.30414851903602,2.30519007789194,2.38203508848247,2.38176468377949,2.38130399428553,2.38112372448354,2.38182477371348,2.38326693212936,2.39071808394474,2.38813421678295,2.38632150377411,2.38608114403813,2.38570057445616,2.3863515487411,2.31414347805718,2.31174989568638,2.31315199414626,2.30997724263353,2.30909592360161,2.30958665806257,2.30944644821658,2.30893568377762,2.30847499428366,2.30929622338159,2.31067829186347,2.31140938606041,2.31047799208349,2.31218054021335,2.31177994065338,2.31205034535636,2.31226066012534,2.31225064513634,2.31294167937728,2.31362269862923,2.31432374785917,2.35415335910881,2.35293153045092,2.3210938804226,2.31738833449291,2.31861016315081,2.31855007321681,2.3198620367757,2.32155456991656,2.32038281620366,2.32794413289802
2.22815478251042,2.22870560690537,2.23066854474921,2.23129948905616,2.23407364100892,2.23389337120694,2.23539561955681,2.23596647392976,2.23782926188361,2.23883076078352,2.24034302412239,2.2414346579233,2.24211567717525,2.24370806042611,2.245060083941,2.24598146292892,2.24820479048673,2.24825486543173,2.2509889574285,2.25169000665844,2.25231093597639,2.25481468322618,2.25614667676306,2.2580695546509,2.2617150106466,2.2628467044035,2.32852500225997,2.32280644354145,2.32430869189133,2.32612140490017,2.32724308366808,2.32303678828843,2.32179492965254,2.32417849703434,2.32414845206734,2.32216548424551,2.32232572406949,2.32265621870646,2.32776386309603,2.32397819725435,2.3246391865283,2.32612140490017,2.32692260402011,2.32758359329405,2.328204522612,2.33216044326666,2.33326209205657,2.33118898933375,2.33462413056046,2.33638676862431,2.28746354736343,2.28671242318849,2.28389821127973,2.28392825624673,2.28354768666476,2.28506996499263,2.2841786309717,2.28483962024565,2.28497983009164,2.28605143391455,2.28521017483862,2.28561077439858,2.28598132899155,2.28711302274846,2.28697281290247,2.28846504626334,2.28767386213241,2.28873545096632,2.28962678498725,2.29009748947021,2.29082858366714,2.29541544862876,2.29437388977285,2.29411350005887,2.2948646242338,2.29635685759468,2.30163475679723,2.36995701174948,2.37135911020936,2.37197002453831,2.37123893034138,2.3709284656824,2.37102861557239,2.3709785406274,2.37620636488496,2.37614627495096,2.37594597517098,2.37442369684311,2.37108870550639,2.37038765627645,2.375745675391,2.37609620000597,2.37910069670571,2.30639187657183,2.30452908861799,2.3055806624629,2.30515001793594,2.30312699015811,2.30334731991609,2.30404836914603,2.30344746980608,2.30400830919003,2.30538036268292,2.304458983695,2.30595121705587,2.30546048259491,2.38308666232738,2.38099352962655,2.38215526835046,2.38445871582026,2.38238561309744,2.38478921045723,2.38604108408213,2.38628144381811,2.38624138386211,2.3864116386751,2.38666201340008,2.38695244808105,2.31344242882724,2.31219055520235,2.31090863661045,2.30969682294156,2.31011745247952,2.30963673300756,2.31122911625843,2.31001730258953,2.30935631331558,2.31081850170946,2.31053808201749,2.31244092992732,2.3138931033322,2.31198024043336,2.31232075005934,2.31257112478431,2.31200027041136,2.31313196416827,2.31326215902526,2.31338233889325,2.31420356799118,2.31567577137405,2.36123395633122,2.35477428842676,2.3198720517647,2.3174384094379,2.31851001326081,2.31950149717173,2.32186503457553,2.32448896169331,2.32217549923451,2.32627162973516
2.2283550822904,2.22916629639934,2.23066854474921,2.23213073314309,2.23347274166897,2.23422386584391,2.23647723836872,2.23684779296169,2.23864047599254,2.23955183999146,2.24043315902339,2.24416874992007,2.24244617181222,2.244999994007,2.24581120811593,2.24677264705985,2.24820479048673,2.24962691892461,2.2510290173845,2.25234098094338,2.2533424798433,2.25520526779714,2.25722829557497,2.25886073878184,2.2616749506906,2.26384820330342,2.32397819725435,2.32555055052722,2.32683246911911,2.32520002591225,2.32528014582424,2.3257608652962,2.32745339843706,2.32520002591225,2.32414845206734,2.32378791246337,2.32426863193533,2.32282647351945,2.32379792745237,2.32472932142929,2.32517999593425,2.32838479241398,2.33043786515881,2.33125909425674,2.33199018845368,2.33212038331067,2.33404326119851,2.3352951348234,2.33494461020843,2.33655702343729,2.33807930176517,2.28556069945359,2.28393827123572,2.28413857101571,2.28381809136773,2.28396831620272,2.28481959026765,2.28649209343051,2.28499986006964,2.28573095426657,2.28605143391455,2.28684261804548,2.28692273795747,2.28736339747344,2.28739344244043,2.28816459659337,2.28911602054829,2.29003739953621,2.29029778925019,2.29150960291909,2.29180003760006,2.29198030740205,2.29221065214903,2.29482456427781,2.29446402467384,2.29703787684662,2.29944147420642,2.37256090888926,2.37198003952731,2.37182981469233,2.37144924511036,2.3708984207154,2.37173967979133,2.37971161103466,2.37700756400489,2.37595599015998,2.37548528567702,2.37392294739315,2.37180978471433,2.37066807596842,2.37556540558901,2.3769074141149,2.38085331978057,2.30601130698987,2.30568081235289,2.30499979310095,2.30419859398102,2.3055506174959,2.3032672000041,2.30507991301294,2.30381802439905,2.30450905863999,2.30523013784793,2.30522012285893,2.38610117401612,2.38626141384011,2.39138908820768,2.38498951023722,2.38548024469818,2.38491940531422,2.38543016975318,2.38557037959917,2.38718279282803,2.38772360223399,2.38910567071587,2.38595094918114,2.38486933036923,2.31371283353022,2.31140938606041,2.31013748245752,2.30949652316157,2.31061820192948,2.31044794711649,2.31064824689648,2.31008740751252,2.30952656812857,2.31191013551037,2.31081850170946,2.31138935608241,2.31204033036736,2.31185004557637,2.31248098988332,2.31373286350822,2.31224063014734,2.31368278856322,2.3127814395533,2.31608638592302,2.31536530671508,2.31647697049398,2.31642689554899,2.35276127563793,2.35815935470848,2.31976188688571,2.32038281620366,2.32432872186932,2.32180494464154,2.32300674332144,2.32427864692433,2.3234273728594,2.32622155479016
2.22985733064028,2.23056839485922,2.23184029846211,2.23354284659197,2.23494494505185,2.23525540971082,2.24157486776929,2.23818980148758,2.23940161515647,2.24000251449642,2.24132449304431,2.24249624675721,2.2438182253051,2.24458937945804,2.24561090833595,2.24847519518971,2.24899597461767,2.25033798314355,2.25161990173545,2.25269150555835,2.25518523781914,2.2557661071811,2.25858031908986,2.26108406633965,2.26321725899647,2.32597118006519,2.32798419285402,2.32451900666031,2.32708284384409,2.3269426339981,2.32619150982317,2.32756356331605,2.32689255905311,2.32662215435013,2.32750347338206,2.32787402797503,2.32656206441614,2.3270227539101,2.32675234920712,2.32735324854707,2.32764368322805,2.32845489733698,2.33034773025782,2.33197015847568,2.33320200212258,2.33381291645153,2.33427360594549,2.33458407060446,2.34164463784887,2.34106376848692,2.34111384343191,2.34162460787087,2.28646204846351,2.28607146389254,2.28494978512464,2.28700285786947,2.28594126903556,2.28591122406856,2.28694276793547,2.28589119409056,2.28637191356252,2.28688267800148,2.2890058556693,2.28806444670338,2.28870540599932,2.28866534604333,2.29043799909618,2.29163979777608,2.29042798410718,2.29227074208302,2.29206042731404,2.292561176764,2.29326222599394,2.29484459425581,2.29511499895878,2.29703787684662,2.30068333284231,2.3721402793513,2.3721402793513,2.37234057913128,2.37760846334484,2.37658693446692,2.37705763894989,2.37762849332284,2.37732804365286,2.37747826848785,2.38054285512159,2.37631652976395,2.37627646980795,2.37138915517636,2.37457392167809,2.38013224057263,2.37934105644169,2.37978171595766,2.30697274593378,2.3067624311648,2.30515001793594,2.30697274593378,2.30688261103279,2.30623163674785,2.30624165173685,2.30686258105479,2.30716303072477,2.3816845638675,2.38091340971456,2.37953134123268,2.38780372214598,2.3899068698358,2.39003706469279,2.3888052210459,2.38726291274003,2.38647172860909,2.38859490627691,2.38859490627691,2.38718279282803,2.38733301766302,2.3127614095753,2.31216051023535,2.3103477972265,2.3114995209614,2.31016752742452,2.31073838179747,2.31023763234751,2.31057814197348,2.31074839678647,2.31083853168746,2.31132926614842,2.31185004557637,2.31250101986132,2.31219055520235,2.3126913046523,2.31356260869523,2.31349250377224,2.31360266865123,2.31452404763915,2.31452404763915,2.31604632596702,2.31495469216611,2.31695768996594,2.31708788482293,2.35598610209566,2.3554853526457,2.32014245646768,2.32088356565361,2.35213033133098,2.32479942635228,2.32255606881647,2.32391810732036,2.32421855699033,2.32590107514219
