2.24810728153634,2.24848433063721,2.24908498290486,2.25061489158204,2.24949405792143,2.25217419212167,2.25022043168699,2.25255036819504,2.25408044017022,2.25445783460519,2.25555777492139,2.25623429343502,2.32586830586022,2.32695462901944,2.32730792279743,2.32660593098828,2.32584327976262,2.32511498165426,2.32681639902636,2.32595038334818,2.32639907626548,2.32673413001396,2.32730500246379,2.32880840981491,2.32745413901868,2.32727489412534,2.3281974973764,2.32726900765906,2.32870084732667,2.32833434779712,2.32727325289837,2.32635675096653,2.32612702901345,2.32692879291243,2.3253344587699,2.3249085382762,2.32489024010009,2.32442977600869,2.32604561951641,2.32457738737744,2.32498873435988,2.32528076978834,2.32806431626764,2.32825602597309,2.32584925046521,2.32586244096863,2.32616829576145,2.32664196320169,2.32898872179134,2.3280921745878,2.32869293102874,2.33017204080171,2.3304265098901,2.33214976150535,2.33121262961188,2.33192503141327,2.33214626860527,2.33315180293269,2.33549962048098,2.33467658162975,2.3352041841015,2.33616355673023,2.33671484543299,2.33877106307322,2.33770998902484,2.33819248685594,2.33931533107338,2.34048367451177,2.34290355184487,2.3419958462592,2.34097267108595,2.34237126291065,2.34371134510646,2.34586655659729,2.34497232120639,2.34774610131433,2.34617852410902,2.34971314897771,2.35067140190403,2.3491658930176,2.34908664866271,2.35655129132739,2.35624217753182,2.35809439805184,2.35768100517022,2.35744612590138,2.35944155004766,2.36115543915516,2.36237070672764,2.3625556874266,2.28373069018867,2.36313839726736,2.3641553752343,2.36482157793152,2.36336188045047,2.36628470874236,2.28468907096987,2.36319776486592,2.33127564475117,2.28615464733899,2.36265564752101,2.36405937729552,2.28810393337118,2.28953219422031,2.28826104398803,2.28849866440261,2.28843825935275,2.29027140804237,2.29190857793262,2.28962831720201,2.28963902283507,2.28907062414396,2.29122546959219,2.29178947435081,2.29043482287115,2.29078903845173,2.29107185054784,2.29180587550408,2.29320562816133,2.29290217392009,2.29338320854877,2.29317436678578,2.29414489121516,2.29584361515135,2.29465068390408,2.29620340701773,2.29633991794861,2.29851255151771,2.30080000575437,2.29968531999468,2.30110195808011,2.37290905299953,2.37379446832863,2.37501035704916,2.37444095546983,2.37504134366033,2.3768460321683,2.37790720301118,2.38006132096565,2.37811688621802,2.37803248494299,2.37851248961454,2.37979489031443,2.38222655399191,2.37961211684914,2.38687992077369,2.38827035896709,2.38871851450335,2.39044371847332,2.38770591170792,2.38588563290938,2.38527696649991,2.38606287105183,2.38848999347366,2.3848953325644,2.38572109712998,2.38802244624672,2.38942249860092,2.39190003286007,2.39002980722615,2.38746519811004,2.38907022031457,2.38924458497371,2.392175449971,2.39073123360201,2.38925944031801,2.38925112371794,2.39109582523547,2.39141500157639,2.38697651625279,2.38696933224822,2.38847846479688,2.38675005554665,2.38974567739632,2.38665356477846,2.3895741444426
2.24903076411355,2.24909946975056,2.25043046109116,2.25096476283912,2.25175580644307,2.25140300071088,2.25246364700449,2.26571037754517,2.27942804885998,2.29074212071047,2.30220836030906,2.31558544915808,2.32733846000989,2.32765279073443,2.3275405484823,2.32714677986664,2.3267521369689,2.32781707130696,2.32859043527518,2.32813033556738,2.3279580386917,2.32851552606826,2.32881181140949,2.32953787997922,2.32868948328352,2.32818642768387,2.32841542703961,2.32835765027039,2.32922965495623,2.3286118833776,2.32816221409951,2.32759658308513,2.32748332100438,2.32786635292156,2.32683720657988,2.32678832861673,2.32560074276228,2.32614589616844,2.32684888582253,2.32623270262181,2.32639819362836,2.32711245984434,2.32884656072389,2.32929565289719,2.32821287506349,2.32793055075766,2.32803349606065,2.32873076896226,2.33005208727069,2.32997935041322,2.32983852173404,2.33103440610557,2.33189277794773,2.33331077088065,2.33303078851581,2.33326761693708,2.33393285932533,2.33547097972663,2.33694304797148,2.33670974306613,2.33694620127565,2.33754822233347,2.3385271713038,2.33999489499908,2.33970244443996,2.34000462882011,2.34087544166591,2.34230423074032,2.34400117906763,2.3437692938937,2.34370138634544,2.34462455179923,2.34566329128895,2.34723048120318,2.34699317185338,2.34839213062854,2.34919669752356,2.35107153513081,2.35217244701791,2.35158933035766,2.35251943289141,2.3559706573958,2.35805340263178,2.35894560901018,2.35837040493956,2.35834319409732,2.35931709020588,2.36076668089496,2.36233064244926,2.36267437681561,2.36351999929173,2.36354163192415,2.36437070102187,2.36549865392817,2.36517692279355,2.3662563504756,2.36571405126252,2.36562549918984,2.36655126769724,2.36589721847253,2.36387408177598,2.36487843572494,2.35880586717979,2.34543267138244,2.32952223248593,2.31605358790481,2.3062222106871,2.29292134936902,2.29300417792974,2.29168686166347,2.29083814193858,2.29145582290417,2.29211885619365,2.29267230276115,2.29219434287912,2.29174539740741,2.29222224545846,2.29269479994727,2.29381210355143,2.2940583403223,2.2939316000829,2.29389866370302,2.29456914211382,2.29550381421391,2.29612404361213,2.2964825969935,2.29857113932191,2.2998394268331,2.30200295437236,2.30163141689747,2.30161214977671,2.33526549774471,2.37420022268327,2.37481276698435,2.37496502880653,2.37585151001547,2.37722023121213,2.37896568153433,2.38033914943057,2.37958223953734,2.37948371962961,2.38020326786104,2.38172813526878,2.38335004821149,2.38284998157476,2.3854934319226,2.38903015309519,2.39084094954399,2.39228842242563,2.3908756109122,2.3895646784912,2.38903399502923,2.38966721558108,2.39056085686104,2.38857235738199,2.38877111452053,2.38978970310375,2.39140060876973,2.39318508614084,2.39200812219791,2.39073508165168,2.39104999190068,2.39187022188742,2.39338945257044,2.39203611967207,2.39108176371276,2.39097015048179,2.39193299408591,2.39288885435661,2.39087101431502,2.39041574580905,2.39032712966921,2.39071972657354,2.39156964527031,2.38969040887258,2.38952361104869
2.24796699836831,2.25036866152671,2.24894631622152,2.25108751876345,2.25093707666287,2.25144698679823,2.25253529655661,2.32429932498894,2.32478451526906,2.3234942171404,2.33300850318362,2.3282184655524,2.32853540893379,2.32850483737375,2.32823719800543,2.32648868240086,2.32634826904012,2.32852858033887,2.32962040987489,2.32761139461194,2.32790213692703,2.32849244873284,2.32854865904554,2.3294960877311,2.32769531914289,2.32739947552294,2.32711707486885,2.32727830868943,2.3288321616085,2.32749325505224,2.32737349373437,2.32739316016879,2.32662968266974,2.32774442553552,2.32678398035645,2.32692395832649,2.32475413394671,2.32499758359665,2.32708346415242,2.3253683791053,2.32588424705337,2.32670094496644,2.32913755816462,2.32966458979993,2.3280173478107,2.32830814292202,2.32791789547269,2.32843258234584,2.33041200606408,2.32954823516319,2.32918403330309,2.32978543654069,2.33177069337172,2.33349340793711,2.33267313126304,2.33259032868941,2.33323715521363,2.33610937967722,2.33742622912529,2.33659080817526,2.33647938729257,2.3370894041555,2.33794889846208,2.34029438889219,2.33939474043057,2.33928448706018,2.34037453768172,2.34179629854003,2.34426671276273,2.34341024776973,2.34364805236756,2.34491829450544,2.34512873836412,2.3473390072371,2.34556743877662,2.34738775356458,2.34977722616053,2.3509856577069,2.35279540951822,2.35056913191872,2.35214282179596,2.35511367104142,2.35944942039084,2.35939629127598,2.35709274783467,2.35743873292683,2.35765718955116,2.35920210870911,2.36177942085695,2.36105101722881,2.36305598772356,2.3620666995591,2.36278113795723,2.36553653973197,2.36473905909018,2.36747193219431,2.36606155217836,2.3669316292855,2.36805026174456,2.36822358905524,2.36976219754912,2.36707220740207,2.36957402247386,2.37120896631066,2.37014855977443,2.37018055603661,2.36941188487134,2.29149944013442,2.29232686313395,2.29035530717926,2.2906341172716,2.29122546039653,2.29225768390919,2.29308161405957,2.29213394940696,2.29225797859236,2.29186679461887,2.29246095604676,2.29404545053396,2.29438221537124,2.29402374247098,2.2935358210838,2.2935266813206,2.29523975938404,2.29417959963079,2.29618118186198,2.29631150131033,2.29850047379349,2.30111026591172,2.29952654014604,2.2998735477943,2.30077984327606,2.37338795694623,2.37420539224347,2.3741541454217,2.37469505187582,2.37622181867996,2.37763915783395,2.37936210347538,2.37752289249645,2.37757260416048,2.37858194725764,2.38048152514003,2.38261013125623,2.3801540030878,2.38058720930896,2.38842963421122,2.38954149366276,2.39218959952575,2.39040480100327,2.3896581599961,2.3886884999133,2.38962044593098,2.39069546719144,2.3866001769559,2.38768020949972,2.38809932368553,2.38936657167102,2.39250897646948,2.39046596664441,2.38954314278951,2.38968140287107,2.39031396342962,2.3926827991231,2.38945475547273,2.38921576090191,2.38870920609541,2.38913741746425,2.39227603406278,2.38964645538089,2.39059806358142,2.38894580102369,2.39084178839073,2.39143181865285,2.38786570474693,2.38724028600261
2.25058113209648,2.24986980985056,2.25046897511124,2.27023374331615,2.28087649569267,2.29396148122225,2.31213154012692,2.32513992157199,2.32697202123282,2.3277461724164,2.33002407537977,2.32894529443614,2.32929211040014,2.32926138837946,2.328369201253,2.32823029935395,2.32825539594269,2.33015396778834,2.33087539532018,2.33029831723515,2.32976077696471,2.33027472431558,2.32997960246932,2.33048678735103,2.32953461793722,2.32927849821698,2.32951476552601,2.32918678468879,2.32978102784697,2.32870220599536,2.32837547213876,2.32730731373463,2.32733402690079,2.32825093813187,2.32764186490279,2.32783089559584,2.32756463909993,2.32835415703238,2.3286597890197,2.32762040501935,2.32752356669285,2.32821165887399,2.3293911596969,2.33017963784918,2.32950921481567,2.32941345162372,2.33004056127144,2.33027045458968,2.33144963308289,2.33119652099355,2.33124625540367,2.33206774095591,2.33315731651523,2.33454520603589,2.33420668063025,2.33437554560963,2.33499039509412,2.33654636993128,2.33807845435464,2.33784504031413,2.33817586843638,2.33890263688165,2.34040527401717,2.34172608287327,2.34127960650099,2.34161754014032,2.34269516116898,2.34415998591688,2.34560844737832,2.34521763683872,2.34552538897799,2.34657048408712,2.34765448618427,2.34921148542843,2.34893730524493,2.3499451346286,2.35136085739214,2.35298203229972,2.35475055547049,2.35441432714271,2.35487367478811,2.35648653586466,2.35867905464388,2.35995660934703,2.35901135715445,2.35878144042741,2.35941772565613,2.36081144684207,2.36288339379343,2.36311443444312,2.36417777503404,2.36422317703618,2.36531438878439,2.36704713258321,2.36683244209969,2.36798206987273,2.36770682799103,2.36832146254553,2.36965809421774,2.37041561896457,2.37043295515926,2.37054523329775,2.37130558000339,2.37202819290767,2.37088799716321,2.37020256275974,2.36929851427021,2.35518248980667,2.33419162876738,2.31100048662027,2.29127511450242,2.29171223331412,2.29274703397722,2.29336237544572,2.29304483473075,2.29259214059478,2.29287212409031,2.29326790405296,2.29431399785394,2.29455553479358,2.29415853815875,2.29421956000224,2.29464550764845,2.29538563674818,2.29580085947094,2.29597616265067,2.29814206057325,2.29954779012777,2.30110108677147,2.30057792065124,2.29987488177408,2.30053750724696,2.32043513035996,2.335405012528,2.35064613003461,2.36388497164826,2.3772795408958,2.37800091244384,2.37903762927385,2.37845999285063,2.37821295583805,2.37906368205874,2.38081435952655,2.38311108145281,2.38466404607668,2.38589640603768,2.38883053694066,2.39070181164122,2.39254007031758,2.3915733945201,2.39054947040813,2.3902341149941,2.3909989276311,2.392140945089,2.39053656945497,2.39011678703339,2.38989406907072,2.39105187516955,2.39284613190299,2.39160118271312,2.39072320172812,2.39098383853722,2.39197643638426,2.39341425552248,2.39175076932074,2.39106607958063,2.39099794749193,2.39180600309479,2.39327807429731,2.39182312014248,2.39109847740169,2.39057586781925,2.39126274839192,2.39187552786785,2.39001663966698,2.38908878690129
2.2499745020319,2.25048119721039,2.25019984460723,2.29377436549985,2.33272856085815,2.33258252306884,2.33141343129788,2.33012864821802,2.32990495180795,2.33121826648247,2.32923993308636,2.32849250470535,2.32882503196837,2.32945656421329,2.32732728049475,2.32752965275746,2.32827572655602,2.33028423921164,2.3315149556386,2.33024126280446,2.33024286160137,2.33031922185065,2.32964872450572,2.33045893318469,2.3288893132233,2.32959006005564,2.33068517063832,2.32887510786527,2.32988616753695,2.32805056262076,2.32805735199858,2.32539755621656,2.32515080285408,2.3279844607288,2.32662492375696,2.32697920825591,2.32887082328256,2.32990911924713,2.32958159958428,2.32699075160458,2.32723888633493,2.32763335707166,2.32843219177994,2.3299417064685,2.32837598636064,2.32893310490752,2.3306272708485,2.32978961377806,2.33154901315619,2.33051145567882,2.33156509857913,2.33205138602039,2.33291726546323,2.33469820302296,2.33360704353343,2.33400592733616,2.33429205076617,2.33517350851591,2.33780575868498,2.33688467824637,2.33751658712893,2.33851770006358,2.34103742752181,2.34220329751625,2.34058731618832,2.34128131329219,2.34303156483245,2.34451167312925,2.34596671234408,2.34440594005619,2.34482311330842,2.34647578643662,2.34772863643973,2.34999070819738,2.34899103319621,2.35002823541213,2.35091256087508,2.35240021710197,2.35561869826215,2.35493899729591,2.35455402658255,2.35533212425932,2.35669606330309,2.35987793446224,2.35783295293692,2.35783263658057,2.35840958523805,2.36012537749686,2.36319985891428,2.36276955987232,2.36443972165363,2.364008623763,2.36493240126844,2.36761644764913,2.36580361372396,2.36821942764315,2.36803580353545,2.36770319354866,2.37105739022655,2.37236525423459,2.37009393874941,2.37177037303135,2.37112651170785,2.37202230813668,2.36985249303085,2.36936464006381,2.36783580189059,2.3671376735763,2.36811621505368,2.36801184888775,2.2908377035034,2.29148240098793,2.29126429880734,2.29323492134206,2.29170421385454,2.29259459406297,2.29218697657673,2.29279911372253,2.29423290770846,2.2937356448554,2.29390899100215,2.29349365211986,2.29445976737986,2.29555229034936,2.29453356214344,2.29614010976994,2.29686587484366,2.30000821354528,2.30016542861313,2.29781614691954,2.29946176355275,2.29866232423763,2.30154088915454,2.30306996007782,2.30275827278419,2.30237275198158,2.37614251536444,2.37568331813441,2.37780985231617,2.37697853666716,2.37591692912966,2.37655110882926,2.3781453190153,2.38127632057941,2.38657372284669,2.38671331342067,2.38778140732699,2.38834133137707,2.39122053235731,2.38934072591887,2.38792735647708,2.38771490888443,2.38858648168546,2.39165899377741,2.38995939024958,2.38953041748429,2.38756947363589,2.38865431783579,2.39151558525936,2.38884929721569,2.3877852759571,2.38854366115679,2.38951131869353,2.39229718530422,2.38950027433718,2.38942807332806,2.38955888408024,2.39037867472618,2.39248444885422,2.39002446892761,2.38870383591068,2.38848987990629,2.38884811336468,2.39063957838627,2.38860117575473,2.38783119284699
2.28674711550229,2.2991160868887,2.30997453407631,2.32175184595774,2.33197953106956,2.33136883870761,2.33103183886521,2.3309701800195,2.33127966718885,2.33086594546555,2.33052085868754,2.32952498522031,2.33023561468593,2.33067262503258,2.32968355356941,2.32983696713427,2.32983847520785,2.33098059190118,2.33177441320185,2.33118391928231,2.33064750956229,2.33088194230818,2.33061704670311,2.33121519408349,2.33034375484398,2.33042494079306,2.33067806037124,2.33062074824547,2.33139014890307,2.3306469797218,2.3303438329949,2.32925067246913,2.32943225359143,2.32974577894957,2.32873933710204,2.32867267154689,2.3295586816598,2.3303569115861,2.33060979342458,2.32945494254897,2.32905232612266,2.32941470088001,2.32973754247852,2.33068832297662,2.33017617758113,2.33028786878058,2.33128164914975,2.33145762594348,2.33269358845423,2.33237318794234,2.33264345779186,2.33331632121681,2.3344364096158,2.33587329763423,2.33556782381636,2.33573698061007,2.33610615377642,2.3373432195215,2.33901097537943,2.33878023838914,2.33938527016252,2.34056316707407,2.3419695650115,2.34325214395207,2.3427208829959,2.34291240344829,2.34403793680288,2.34551843382424,2.34706033985401,2.34673336871779,2.34711480998666,2.3482859377735,2.34971896840162,2.35159957985176,2.35179891439416,2.3535623973216,2.35476313945127,2.35611429442849,2.35756707814927,2.3569967905619,2.35703782861312,2.35823837583244,2.36037013249108,2.36219655305307,2.36188547066188,2.36178137447002,2.36234181799406,2.36329197315066,2.36501118181043,2.36503345637648,2.36630195516565,2.36693880932288,2.36846191117858,2.36997882131598,2.36970133230366,2.37020371649591,2.37047903493317,2.371065259712,2.37267770308638,2.37266509580469,2.37193703038539,2.37217442992899,2.37234051394497,2.37270594568133,2.37114162658388,2.36956363928685,2.36891008762601,2.36876417866863,2.36854247638898,2.36811087175376,2.29255689351833,2.29276318139796,2.29311345922278,2.29341648566286,2.29331496824211,2.29290472787268,2.29363023019773,2.29367594440959,2.29459559155032,2.29467505896207,2.29414950662577,2.2948892145427,2.29513546844396,2.29602078548051,2.29623461565838,2.29608501544369,2.29763748940819,2.29846761566548,2.29939107540279,2.2992751433104,2.29867424841703,2.30008061364268,2.30129225780399,2.30329009311347,2.30328487111956,2.30322337635146,2.31611434266942,2.3230466065509,2.33309790564342,2.35082325040449,2.36430892471424,2.37120429614489,2.38030562028664,2.38254843214894,2.38513592524225,2.38694405564446,2.38802021167725,2.38926752883074,2.39081414091395,2.38978928102387,2.38880772243528,2.38886745908658,2.39017326938958,2.39199907013089,2.39099184239815,2.39017324112347,2.38927205122562,2.39025555726545,2.39180042279385,2.39036899858383,2.38953644915705,2.3898323748045,2.39100734095394,2.39267620130373,2.39138776019831,2.39090038080998,2.39098361092636,2.39161552382875,2.3927626144067,2.39126413233548,2.38988635263812,2.38923878807645,2.38934994872302,2.39034317347846,2.38966238130002,2.37696946675784
2.33486083434885,2.33447066838454,2.33167278681499,2.33319863262846,2.33158671617713,2.32996608341145,2.32961508169584,2.33081249421212,2.33167233350692,2.33061873755503,2.32989330953072,2.32882943072989,2.32946974554572,2.33112453508996,2.32966748632558,2.33007156658184,2.32963294712776,2.32960007872021,2.33134794418057,2.3296480367876,2.32968744349484,2.32966494896619,2.32965122518939,2.33093275455,2.32934702304816,2.32958939938885,2.32961590440749,2.32993678289994,2.33194686074692,2.3316951109222,2.33125315580197,2.33124438998337,2.33134460557464,2.33073704868817,2.32802826126451,2.32817819903627,2.32879490358102,2.32970648873153,2.33081168761782,2.32911840438532,2.32919517847299,2.32932677112735,2.32902055984969,2.33061752050376,2.32914667256343,2.33006173821834,2.33048753789746,2.33089439500595,2.33282433222359,2.33191789181381,2.33190629827047,2.33247146623181,2.33399842810624,2.33615308221474,2.335404293842,2.33541561620672,2.3355964987431,2.33707113905503,2.33935680501748,2.33800171944915,2.33880495225399,2.34074749452466,2.34102344424323,2.34321540849598,2.34222148263925,2.3416259692253,2.34297670033364,2.34436856518299,2.34704567330017,2.34630437438467,2.34663983381472,2.34803517739661,2.34905310163808,2.35193625209877,2.35040293377215,2.35613003325567,2.3562744136743,2.35737829883084,2.35813700016091,2.35575709238672,2.35628351057931,2.35794037927031,2.36186093646031,2.36330126948261,2.36279684227444,2.36320266372499,2.36329488080475,2.3636478613369,2.36530604357921,2.36403095049406,2.36634233659687,2.36724710348361,2.36926831142941,2.37088756275789,2.37038127326424,2.37010572152574,2.37075867478106,2.37093476069713,2.37313382369925,2.37141230405344,2.37090333632057,2.37064769759002,2.37089283097831,2.3723158757938,2.37064887196068,2.36738873422381,2.36847179936885,2.36967689085811,2.3688349337449,2.36820616570085,2.2919449166141,2.29470062961849,2.29152683337287,2.29366956108377,2.29182414273755,2.29372706808378,2.29289114924771,2.29360844755946,2.29471395548065,2.29353684589539,2.2947992040194,2.29396358295169,2.29527260950147,2.29617367769939,2.29545500322356,2.29652814771734,2.29603814163223,2.29732041414613,2.29852109925019,2.29744098942481,2.29766917496737,2.29674989306937,2.29952785237112,2.30184369246029,2.30040078365774,2.30098787986465,2.30133170289741,2.30319528624587,2.30617446328423,2.30547975428823,2.30527173379042,2.30703677059344,2.37807110468495,2.38142803696306,2.38224546004409,2.38529299148842,2.3863801631382,2.38649185302812,2.38902639500932,2.38702334148141,2.38615561652374,2.3862496818047,2.38793158818667,2.390541014178,2.38840559288502,2.38831152998276,2.38641102138831,2.3880700416185,2.39038205870211,2.38791923512966,2.38730128955482,2.38763313972782,2.38863511961006,2.39134587461109,2.38903100726301,2.38895092423818,2.38927635110756,2.38952612373468,2.39179236968159,2.38973049994551,2.38811653632177,2.38749793099072,2.38697351143987,2.38861107732731,2.38702810457738,2.31179204908048
2.33404430052946,2.33404245873703,2.33414860266257,2.33467842148664,2.33377403421347,2.33235917493236,2.33194604632958,2.33231033825341,2.33300828735705,2.33211428256712,2.33126429155322,2.33098023630713,2.33161765672325,2.33253018706845,2.33191868950831,2.33196447284695,2.33212843183087,2.33150420295189,2.33204584307291,2.3309835122018,2.33053119913725,2.33058853595609,2.33095460148101,2.33195012896806,2.33126216555814,2.33142852402219,2.33111340989597,2.33181173589829,2.33288688938471,2.33255234870532,2.33232687282928,2.33202528806273,2.33194043223212,2.33150239861424,2.32986886116483,2.32923385621745,2.32987726814079,2.33117973234565,2.33174820302795,2.33063547084998,2.33000937222169,2.33035516617326,2.33067109381749,2.33162726173668,2.33099898410468,2.33113785350354,2.3317939799748,2.33259474887999,2.33402566041308,2.33379925236526,2.33388901378488,2.33445159083919,2.33564719551052,2.33729324594889,2.33712334927821,2.33742628875475,2.33804728834117,2.33979958902457,2.34095638910417,2.34036940768024,2.34064394548644,2.34183637318137,2.34276199202902,2.34407141844799,2.34356021583016,2.3435156402339,2.34444331034822,2.3460056844211,2.34800391572917,2.34816975512439,2.34889106884165,2.35051806750464,2.35190211857493,2.35367071536535,2.35391787958373,2.35559656594997,2.35670164982492,2.35771805123954,2.35894849494371,2.35842668115734,2.3586576555254,2.35981697513718,2.36195947217771,2.3634803162891,2.36336785945074,2.3635788560959,2.36425839631623,2.3649152568686,2.36610934742351,2.36576689337187,2.36667467454369,2.36769491922929,2.36940616779177,2.37099559478293,2.37083201916752,2.37107992322438,2.37244685444953,2.37341348695379,2.37451931326646,2.37340873388821,2.37200841844712,2.37136442084799,2.37156562098539,2.37226497872288,2.37085794494198,2.3692218357104,2.36915913870544,2.3692164875885,2.36898316901438,2.36827209266466,2.29386378654588,2.29385019722812,2.29397372620583,2.29417241229839,2.29410526208367,2.29365451171325,2.29455120622199,2.29467334350993,2.29550544840415,2.29547576251884,2.29474864045932,2.29548048074331,2.29568370068909,2.29659969366519,2.29675804929898,2.29653864409417,2.29741435777836,2.29750889222548,2.29851135414838,2.2985815177935,2.2980340063407,2.2990808046149,2.30010429959843,2.30183442535832,2.3015116062509,2.30164941408969,2.30285999336252,2.30454162147496,2.30676382198299,2.30637254574443,2.30614640193263,2.30627159462618,2.32784670541475,2.34250326096715,2.35684159834432,2.37115189618911,2.38655810070936,2.3871527500449,2.3882810423697,2.38733376261459,2.38683589285201,2.38712321949068,2.38842694211777,2.39005819243059,2.38907740494782,2.388485087053,2.38807580223201,2.38885044597042,2.39011492664866,2.38882404697324,2.38822027198856,2.38859753884783,2.38975013821679,2.39134073500171,2.39035272881447,2.38989869733923,2.389942028926,2.39070675926795,2.39234310041872,2.39228202061146,2.37647448936257,2.36189150726353,2.35384090447014,2.34092864981042,2.32969933753603,2.31148983633505
2.33255677337459,2.3335258067603,2.3353206308071,2.33588358684459,2.33536401277068,2.33271030457635,2.33226727928382,2.33193428346264,2.33347754857663,2.33207829523027,2.3303089769387,2.33095265499372,2.33153240022,2.33300786472218,2.3316046638673,2.33234378804844,2.33379595998086,2.33056499677857,2.3319680844713,2.32978893062407,2.32973187415963,2.32940285932571,2.33024413333028,2.33206631955343,2.3310929824676,2.33166947533026,2.33073952633003,2.33121327398495,2.33291759553187,2.33177484886382,2.33168475746487,2.33155503302264,2.33085063152769,2.3312751919261,2.32862903697001,2.32797623120118,2.32840850211617,2.33181898497269,2.33191610249335,2.3294727784264,2.32897049353786,2.32929066817868,2.33034079640784,2.33167900309652,2.3300771152647,2.33053393693506,2.33099596538963,2.33215228821483,2.33422919800598,2.33357431018126,2.33378287759324,2.33412213038154,2.33492931420555,2.3373612706604,2.33653376500257,2.33711229753928,2.33780608683575,2.34091624261522,2.34137039975211,2.33975503491672,2.3396401822277,2.34129019504588,2.34205356117169,2.34367819386521,2.34237308313982,2.34230295633976,2.34342636235967,2.344975161658,2.34771732723276,2.34725635185977,2.34817338103165,2.3512522182409,2.35200274571569,2.3538045746252,2.35318812721946,2.35403482655168,2.35497981053486,2.35548774717571,2.35823939269904,2.35762520824431,2.35827581845932,2.35846874903205,2.36054550394326,2.36230325456673,2.3610634989277,2.36170854732453,2.36284621817192,2.36343602201051,2.36525081252321,2.36402010857776,2.36490541138834,2.36555937917502,2.36719772773161,2.36953619263182,2.36830127168996,2.36870097248778,2.37230415159684,2.37291613129741,2.3743625047661,2.37282091279758,2.37008598112793,2.36894758386004,2.36908721875201,2.37101145620366,2.3688680214268,2.36865981838506,2.36832126148756,2.36881680322712,2.36908174703388,2.368393126757,2.29363382336899,2.29376949158758,2.29272998841328,2.29462417464291,2.29295995970143,2.29428613226235,2.29367067937552,2.29523934234888,2.29595292268104,2.29538344368377,2.29497662492096,2.2945579497623,2.29554468466315,2.2966357109548,2.29562110842442,2.29742523378573,2.29644774986199,2.29728453532809,2.29833116611321,2.29758896309143,2.29834306589718,2.29755596482138,2.29947115287969,2.30079954970191,2.29937083822442,2.30041105420409,2.30121679320269,2.3030332534917,2.30548975117503,2.3037959738207,2.30426184921991,2.30386276834152,2.30570292730351,2.30777666287454,2.30772494859649,2.30694933114719,2.38443996590807,2.38451361263017,2.38653395792786,2.3847238366328,2.38465998253073,2.38493211952604,2.38586807763331,2.38839768053072,2.38661973400627,2.38650227155383,2.38651919788213,2.38657088179631,2.38854720003952,2.38630944368437,2.385943655598,2.3867848517225,2.38772681049727,2.39002779039808,2.38827855375386,2.38819530993586,2.38816724157614,2.38917746092209,2.39147312603459,2.39145778337274,2.30990844723287,2.30977540228612,2.30966484556579,2.31118124504331,2.30938594258082,2.30856393437335
2.33509042205327,2.33578841928374,2.33602696464054,2.33654133042372,2.33561235849908,2.33505860804981,2.3347208681746,2.33410838846412,2.33459978551544,2.33345532421562,2.33233122903915,2.33259416340385,2.33325194363164,2.33417063183026,2.33340013918738,2.33317719129254,2.33330617730845,2.332483628148,2.33360235476573,2.33316569620515,2.33298998462939,2.33292682497599,2.33256729165758,2.33331573053616,2.33248761842012,2.33244019012221,2.33218003094519,2.33282387190415,2.3335915377696,2.33274353338966,2.33222815079319,2.33180583454467,2.33166962749185,2.33181033010322,2.33041374381462,2.32990130667035,2.33043391004907,2.33165478307577,2.33232059471728,2.33134279319432,2.33060637192745,2.33105601738939,2.33164060222717,2.33270347134838,2.33215251716552,2.33237420676679,2.33272509922475,2.33360985390769,2.33498324195034,2.3348126318661,2.33506058813901,2.33584998255159,2.33700909773448,2.33833955924196,2.33821512408259,2.33862735254438,2.33967373871013,2.34100873738557,2.34170311269603,2.34125897248813,2.34171149230918,2.34248890459569,2.34324622929991,2.34409598234202,2.34370550369835,2.34414472854877,2.34511068071468,2.34671979013456,2.34834665208287,2.34860767417992,2.34949656597104,2.35113863468746,2.35237677118918,2.35387503716899,2.35397649785393,2.35455953678741,2.3554550338859,2.35671734668708,2.35822721545689,2.3581975653271,2.35851104068648,2.3591844876995,2.36055118952978,2.36201386916625,2.36188629328908,2.36233637562557,2.36309633770301,2.36408675954126,2.36515073847249,2.36482852817736,2.36498754711609,2.36587609112036,2.36735425845507,2.36919023458152,2.3694158873491,2.37065276998853,2.3723802292192,2.37342819416334,2.37411457410939,2.37248732346845,2.37004855568678,2.36949238283307,2.36987740445904,2.37078750762955,2.36960380324867,2.36872318158837,2.36866467114856,2.36876442477108,2.34863987329419,2.32217827519132,2.29374622631824,2.29363732950448,2.29447781747548,2.29493237678496,2.29471516319377,2.29427917144892,2.29504309013499,2.29549883053439,2.29641519824198,2.29620473053659,2.29576233524575,2.29582163292535,2.29627142672517,2.29695458762544,2.29710522457849,2.29696955271814,2.29793464955054,2.29798633012894,2.298790924796,2.29866372043602,2.29840259645329,2.29911950506522,2.29966215900583,2.30097146651042,2.3009499062885,2.3018671543412,2.3025056719201,2.30351785465807,2.30517234378579,2.30473883587664,2.30464470945223,2.30490146841038,2.30608358042474,2.30769155972961,2.3076541788071,2.30752776768994,2.31245876868877,2.31418356965139,2.3185533312006,2.32252166854901,2.32308361259469,2.32649046854388,2.33152236896812,2.33642083280473,2.34000312098589,2.34232037785657,2.34412501684617,2.34561289595468,2.34616468058399,2.34530308251008,2.34339441802026,2.34102674276024,2.338125318044,2.33413934867862,2.32915500488838,2.32467646256768,2.32270267765778,2.32088537054972,2.31596266274138,2.31279278552063,2.31055613958039,2.31036728037223,2.31083909428777,2.31174733630202,2.31053109391708,2.30984086272634
2.33615359415728,2.33740264719472,2.33465473032398,2.33622774419797,2.33383985754127,2.33550933252403,2.33593254987602,2.33311032959916,2.33473074530081,2.33255076138849,2.33174138419027,2.33180502091027,2.33308500604215,2.33444584519212,2.3325017908204,2.33259580686014,2.33171964443834,2.33099972801936,2.33419062520871,2.33437608937669,2.33479832187593,2.3349567179923,2.33221623149482,2.33346671124724,2.33168515374881,2.33140747066985,2.33166915216773,2.33222127018885,2.33340844208244,2.33171775991497,2.33082612457752,2.33051347802493,2.33003324909972,2.33137802053943,2.32910216918484,2.32950315683937,2.32980597315674,2.33022385326446,2.33173766546811,2.33049351578475,2.3300844261121,2.33024785356711,2.33103454594235,2.33246900902634,2.33156407536068,2.33234064460965,2.33219589240131,2.33255521634132,2.3344568754563,2.33356279545279,2.33398488547116,2.3353617675355,2.33681467662755,2.33790059030247,2.33721185777785,2.33775775698601,2.33960601063918,2.3402532926161,2.34097872281044,2.34045682261563,2.34163925087619,2.34235473651869,2.34258261264059,2.34352527746944,2.3425573236157,2.34379723366082,2.34457041975725,2.34668636979256,2.34795255887735,2.34752210269414,2.3484597096873,2.34972362384006,2.35069079976711,2.35276528180631,2.35239410887515,2.35298988026151,2.35397371272947,2.3556088053494,2.35726894250087,2.35622352980853,2.35729153819047,2.35748030795835,2.35901318045457,2.36114530484562,2.36093142503697,2.36255267249834,2.36203444623804,2.36346356000888,2.36474994656883,2.36344932960059,2.36308589614138,2.36415938539848,2.36548383522436,2.36804870234167,2.3678307590316,2.37078720516246,2.37158128389307,2.37215346312769,2.37306678066112,2.37075890773024,2.36654006835034,2.36742974281917,2.36795584966152,2.3696631224043,2.36794204875295,2.3675067185928,2.36785338755452,2.36862551805004,2.32830828736128,2.29318088729145,2.2924835726272,2.2932113629148,2.29339399847451,2.29496348166828,2.29322483785698,2.29469077215225,2.29382058690852,2.29552977070368,2.29633633030021,2.2959943601923,2.29556501659378,2.29591108785899,2.2953529939388,2.29714002224724,2.29569320470892,2.29750244763597,2.29701066439296,2.29838696469142,2.29881460465638,2.29758216560736,2.29883595302633,2.29811345969624,2.29933577432892,2.30055558194113,2.30052248904893,2.30265937644334,2.30214744071393,2.30125332637138,2.3037631153439,2.30252412736802,2.30245535509253,2.30263969603158,2.3034141960957,2.30615222252737,2.30410671410471,2.30498999004122,2.30457070827111,2.30527551303137,2.30745928518437,2.30579000944863,2.30604748161455,2.30761770872907,2.30844091017697,2.31034652925479,2.3085010616506,2.30809036531384,2.3088236783898,2.30907329715738,2.31097702781576,2.30873166155444,2.30859935425295,2.30935866205646,2.30967192788236,2.31152586040579,2.30969958756127,2.30921964169905,2.30829452318868,2.30877913154941,2.31078303381863,2.30917630415417,2.30855627731331,2.30857300564041,2.30811627803721,2.31069024814985,2.30827021368831,2.30778651860168
2.3369826353752,2.33732974676816,2.33736473203548,2.33760740725375,2.33614482795534,2.33618450932929,2.33623160285563,2.33585682636301,2.3361862643644,2.33493555386637,2.33403138039509,2.33422908538996,2.33498527519474,2.33589512805004,2.33519653310665,2.33492573677173,2.33473897884754,2.33472484360899,2.33568886827358,2.33541067170116,2.33533170052826,2.33542820023551,2.33475854259027,2.33470663981042,2.33338943980199,2.33276530722295,2.33304720113884,2.33365982883258,2.33402184962496,2.33278603861796,2.33194953701615,2.33130512822496,2.33159481375322,2.33196012286851,2.33099822764563,2.33069439649674,2.33081144403318,2.33104654875682,2.33173143242727,2.33151354053189,2.33110907202033,2.33179055307324,2.33206024739993,2.33294819724158,2.3327650691342,2.33305120211701,2.33331758653327,2.33373749885638,2.33462425076801,2.33449667551531,2.33504151447814,2.33585457565353,2.33681164186206,2.33742730449881,2.33752960607852,2.33800064094764,2.33902002922898,2.33980859146487,2.34064326631999,2.34053608403558,2.34116579908811,2.34180306601295,2.34270894850781,2.34346932323542,2.34335545507297,2.34403507687173,2.34508365143181,2.34651970669947,2.34777534303102,2.34795264154414,2.34851094658705,2.34966122637415,2.35096732951754,2.35254136334382,2.35283111845282,2.35333879702439,2.35423876570519,2.35579368281642,2.35696569588706,2.35680386397009,2.35693431013792,2.35744066047914,2.35900816568767,2.36058151020579,2.36256706329808,2.3648848474396,2.3661709705207,2.36693438875045,2.36639279435915,2.36452905957981,2.36269000436509,2.36195089841483,2.36014409663625,2.35791898488325,2.35507986544054,2.35250499389111,2.35038969603787,2.34759264063774,2.34297794775641,2.33669731434471,2.33028778644338,2.32521094781814,2.32134042426401,2.31732228856258,2.31282231808935,2.30965420529134,2.30782681994808,2.30504631330377,2.29689112968244,2.29536881102288,2.29426807582249,2.29384004448262,2.29470359328162,2.29509525165652,2.29482543687612,2.29449679461896,2.2952023205733,2.29575907987893,2.29699327237032,2.29678562598687,2.29668718813137,2.29625728606747,2.2970621598743,2.29760483761627,2.29766521824946,2.29745551123734,2.29845549673741,2.29862940207617,2.29929705686254,2.29904927647761,2.29875452362383,2.29947866928536,2.29992610874853,2.30106811619397,2.30104868156379,2.30199000758846,2.3021001613161,2.30277813425624,2.3037675683099,2.30360356059393,2.30315108540722,2.30343677606121,2.3045286523523,2.30603961536759,2.30581384153395,2.30527927812524,2.30599852304337,2.30677620038233,2.30831572203114,2.3074615489647,2.30751403723931,2.30843563093859,2.30973694741438,2.31086722332145,2.30965445871676,2.30915404183185,2.30969469478434,2.31071732894461,2.31176134387423,2.31045253111775,2.30970336090295,2.31022907784929,2.31061000804009,2.31213043500939,2.31098517571541,2.31025934243985,2.30971922887551,2.31057678663195,2.31164839081956,2.31053186228363,2.30978694856067,2.30937387383695,2.30990282708777,2.31075538841081,2.30964452259745,2.3089356512817
2.33618927053258,2.33580181412837,2.33765236424279,2.33765498409469,2.33475938404962,2.33500706740745,2.3351403178204,2.33581675672489,2.33646057148362,2.33473080036962,2.33382732600904,2.33410530741863,2.33501776803394,2.33628949389918,2.33547480531996,2.33572053466366,2.33580679337687,2.33571796381171,2.33589477011237,2.33415280614444,2.33434082672623,2.33471531375444,2.33498447027324,2.33462264606439,2.33234766366685,2.331835756037,2.33208877046117,2.3336612724592,2.33338742304846,2.33181167240798,2.33073299778901,2.32982033767547,2.33076602420374,2.33126870538102,2.33010099797321,2.32989097157214,2.33020220924582,2.32995068647509,2.33107637764684,2.33058461531438,2.33074671221179,2.33132737891491,2.33177924418881,2.33241934580495,2.33215070071098,2.33235200847472,2.33280680727529,2.33296759069809,2.3337921424647,2.33343514805445,2.33438979008062,2.33527485180876,2.33605938130308,2.3364011840119,2.33627250772237,2.33704679033458,2.33760638979359,2.33871820826,2.33999002276527,2.3395206533414,2.34000268920108,2.34081549211144,2.3421050471264,2.34311244499679,2.34259607093409,2.3434221950305,2.34461495000481,2.3456959589909,2.34724375747563,2.34706244990266,2.34736512578861,2.3486799116755,2.35003204959941,2.35196296747422,2.35209131701627,2.35235761476604,2.35314435102561,2.35503209735017,2.35639911340343,2.3558606656791,2.3558920892005,2.35578403638667,2.29188643491422,2.29348783361207,2.29239231272511,2.29328829796566,2.29282474262117,2.29339307471756,2.29470137544375,2.29310975545443,2.29364278320348,2.36348804180733,2.29418598268935,2.29569005632886,2.29422840511061,2.29519657470062,2.29708191406964,2.29513184183847,2.29688212532544,2.29551657825071,2.29554641589624,2.295469724833,2.29629274813798,2.29777659664401,2.29624933939305,2.29638694366001,2.29601650003249,2.29450331250458,2.29661868462786,2.29702326152454,2.29356737595802,2.29337055624827,2.29346546934823,2.29509152396325,2.29348095126284,2.29494827691941,2.29391808680821,2.29569635406802,2.29694301369268,2.29743856453269,2.29578286488234,2.29636879369167,2.29637847126707,2.29813586739317,2.29686826676898,2.2977666791744,2.29792740876166,2.29835044134256,2.29936120101426,2.29813433810587,2.2989337208136,2.29838729143204,2.3001443586804,2.30090796975479,2.30005171261829,2.30096221977747,2.30130490179517,2.30257188870592,2.30370564060448,2.30361558783617,2.30218745105812,2.30202706096935,2.30282501834604,2.30519282766,2.30430032061282,2.30423330149968,2.30401199487223,2.30561415194973,2.30719794879188,2.30493200222661,2.30561453722295,2.30597253905871,2.30805173416829,2.3094049226388,2.3065912594023,2.3067267076117,2.30711846154119,2.30906490736309,2.31062745154238,2.30761466394856,2.3077078745717,2.30747937855936,2.30779890214954,2.31052618135278,2.309236271055,2.30748523485026,2.3079381562058,2.30846373014999,2.31087535073325,2.30901922529743,2.30782771545007,2.30816533599905,2.30819017581579,2.30988732387374,2.30793609136613,2.30841530369864
2.33812425540963,2.33791134832299,2.33827995616545,2.33804813462359,2.33658248316304,2.33592518264401,2.33614733515234,2.33644671060943,2.33671771141373,2.33589319427371,2.33559030568796,2.33559193126226,2.33606413714497,2.33676259608923,2.33617054891906,2.33595816428024,2.33588977948148,2.33604375981015,2.33603032281488,2.33516768946604,2.33467927062218,2.33464015974855,2.33457148038963,2.33441299462944,2.33330450062993,2.33242998706565,2.33280879846019,2.33260408830225,2.33255859353342,2.331329820824,2.3306062887778,2.3302150754363,2.33032270946879,2.33061740983098,2.33033942786467,2.33041233592254,2.330282115244,2.33032640257724,2.33073190565231,2.33055629678241,2.33041718383693,2.33111851884747,2.33145870244479,2.33227881702911,2.33224119915754,2.33214817128672,2.33226017305187,2.33249589386341,2.33336973224398,2.33344210646458,2.33383176547691,2.33454075885912,2.3352241022941,2.33539913075779,2.33507842749254,2.33348696631847,2.33332515272711,2.33319425133569,2.33170495565146,2.32887953904301,2.3256797121373,2.32312907689258,2.32153164290061,2.32034646480774,2.31915228471572,2.31831881645038,2.31835998912023,2.31909687886303,2.31968547584921,2.31954063437769,2.31901877070763,2.31865923067286,2.3182495809794,2.31685950588885,2.31386284534058,2.30986823724787,2.30589649927946,2.30232188721019,2.29907574920384,2.29691222116985,2.29479575031489,2.29265659932731,2.29340278437309,2.29419441227645,2.29358493281797,2.2931080637732,2.29340305644906,2.29387741457285,2.29511557767203,2.2945629737917,2.29455678101917,2.29526317841703,2.29520774594707,2.29588252112265,2.29532518455469,2.29492283937918,2.29624474843227,2.29611391882769,2.2974665368685,2.29661048931946,2.29619296829256,2.29623443546133,2.29693551381164,2.29805802190101,2.29672746868186,2.29651211228504,2.29565756811541,2.2959656049309,2.29676306800571,2.29644703252809,2.2955693425284,2.2947218855753,2.29517310957848,2.29544282351612,2.29538977843604,2.29501528029271,2.2959091707899,2.29617816819677,2.29749682757,2.2974217563149,2.29735990287541,2.29725125915056,2.29831011925734,2.2990127236983,2.29888461255503,2.29877739939117,2.29895763128915,2.29939169168944,2.29991474342328,2.29977104935047,2.29935677276488,2.30021818198003,2.30084220693376,2.30165870420294,2.30129263337005,2.30140412922457,2.30198243055521,2.30280777598703,2.30359374591582,2.30319192577709,2.30262967323744,2.30273221461923,2.30357659041957,2.30472740964693,2.30482366148725,2.30425421866599,2.30519211533787,2.30589538669396,2.30719332647437,2.30622924660087,2.30632866844831,2.3066196712935,2.30770199628305,2.30862422584438,2.3074719569821,2.30728518705694,2.30765282985576,2.30895247439418,2.31020941844127,2.30929088150021,2.30813348723747,2.30826612894231,2.30885959008036,2.31040134893634,2.30966485534776,2.30921754878338,2.30912136276067,2.30998968172706,2.31083677844529,2.30969536193319,2.30919988218697,2.30899339044982,2.30942810729064,2.31017081341194,2.3096564175621,2.30920945372031
2.338165880964,2.33779256932034,2.33739468062712,2.33707476113641,2.33541316712163,2.33436990278469,2.3351409278277,2.3351023135377,2.33540403267441,2.33453427964728,2.33557162428238,2.3349663313367,2.33524977086845,2.33604346756869,2.33507831695487,2.33429897282074,2.33482534481228,2.33489785747647,2.33533331351608,2.33415051972203,2.33372562373339,2.33310387146949,2.33298942892714,2.33351347662524,2.33180651087891,2.33176106754783,2.33159508498414,2.33095256563431,2.33083474267439,2.32919724334384,2.32899020627255,2.32914524708547,2.3290001750813,2.32943676215793,2.3296383578374,2.33024007108022,2.32982758339733,2.32962260455221,2.33037655717992,2.32961362682261,2.32991228210239,2.33039416316114,2.33079324716509,2.33201292015812,2.33199471302553,2.3316420930183,2.33125694454108,2.33105826222037,2.33283024118723,2.33303993510812,2.3328384379882,2.3342527866025,2.28784587974804,2.31806760779205,2.33573693030377,2.28720703322065,2.28716092625226,2.28695885687214,2.28859182921752,2.28817468763004,2.2874221018863,2.28721050110307,2.28750770686386,2.28874001160149,2.28761123339434,2.28748675704854,2.28748577486909,2.28852252936162,2.28945390099343,2.28760576159609,2.28874586970479,2.28949800782133,2.29042385294372,2.29161478950794,2.29042484417415,2.28874618563828,2.28854156578996,2.2895953943995,2.29159172527717,2.29068438681838,2.29084983366953,2.29080922902934,2.29096878219935,2.29300090828303,2.29167731708304,2.29091910110584,2.29055603495401,2.29146644294581,2.29372501952594,2.29266702244956,2.29223432973609,2.29250372019882,2.29214945336349,2.29444887001188,2.29182779968252,2.29339648129338,2.29205101821873,2.29453104574393,2.29596130253742,2.29466983397665,2.29404016466165,2.29385573916138,2.2944562970251,2.296443110888,2.29473423506336,2.29325651842367,2.29446316954317,2.29354082326345,2.29607723194254,2.2948890335699,2.2950693037668,2.29497555453521,2.29448083395483,2.29592148708778,2.29454411305198,2.29594322812907,2.29532023261142,2.29614088400001,2.29733817860948,2.29687021926571,2.29740714134475,2.29705865303096,2.29874661698231,2.29959118861789,2.29938451349518,2.29894974380737,2.29901462535965,2.29889313812881,2.30024764140927,2.2990242893177,2.299721993729,2.29961432898226,2.30129548139893,2.30188326264418,2.30048756072489,2.30125184646172,2.3009724952435,2.30239892560384,2.30325536773501,2.30183218203678,2.3017852319858,2.3020425474141,2.30262163534206,2.30427133254704,2.30334829737504,2.30380582276983,2.3033237981364,2.30481832142689,2.3058893723816,2.30465329078893,2.30477181335223,2.3052223849317,2.30500363109952,2.30694068392829,2.30507935772217,2.30560630476938,2.30568656727921,2.30645073716416,2.30903766965782,2.30842963928203,2.30625761051539,2.3062248971458,2.30716425881705,2.30913330416234,2.30794547150027,2.30838696952028,2.30824019277891,2.30898462089317,2.30985735935104,2.30782427618571,2.30860836486611,2.30857087650643,2.30883027314531,2.31023443041153,2.31010042055437,2.3090108690494
2.3379909212423,2.33740594882767,2.33703976152464,2.33604831499221,2.33519123173757,2.33443434315875,2.33432283443867,2.33421783124089,2.33388836462529,2.33395759108485,2.33405701112706,2.33442189619657,2.33504552361677,2.33563371745782,2.33497358808998,2.33476608347105,2.3343841008312,2.33459176687191,2.33480863747574,2.33430729361937,2.33369652440361,2.33348187113959,2.33347061683803,2.33331784643028,2.33238615139649,2.33142494912596,2.33175764177214,2.33063152352337,2.33028417798499,2.32913428765135,2.32852105444444,2.32849514760925,2.3284312229549,2.32864535548294,2.32848944428271,2.32715790789235,2.32704591709151,2.3268545013867,2.32512590232318,2.32211560151489,2.3188134268952,2.31590700506977,2.31345298401795,2.31092667499028,2.30787037908066,2.30439313241039,2.30085773918043,2.29713355341073,2.29290084788075,2.28888506643642,2.28660324376674,2.28649288177546,2.28753820770689,2.28745795325986,2.28724280319248,2.28684352965792,2.28689049525647,2.28735672684717,2.28848081393705,2.28814631298575,2.28730359304086,2.2876052294809,2.28798043442721,2.2891138144513,2.2884824813124,2.28844019960319,2.28814813280262,2.28894534556912,2.28983165719117,2.28912077534351,2.28897027665033,2.28940308283167,2.29038521840459,2.29165473390773,2.29087215043787,2.28984955752164,2.28946778011421,2.29060762143448,2.29164778765659,2.29136957148845,2.29053424833739,2.2911945573429,2.29134766324234,2.29239427236893,2.29180135517632,2.29077173703298,2.29147642610173,2.29193019746334,2.29338131105388,2.29291255390441,2.29289156333839,2.29246853883053,2.29284470729573,2.29366992580188,2.29343737357003,2.29254079825962,2.29366632015,2.29406942213141,2.295559845893,2.29494167075375,2.29433219200836,2.29480793613868,2.29540796817001,2.29665151827078,2.295331784674,2.29510444272161,2.29415841815412,2.29537572183347,2.29596838805078,2.29585387358432,2.29583105804151,2.29607248011833,2.29629615761514,2.29651064376824,2.29640587991306,2.29592389321539,2.29681657796127,2.29710521809932,2.29813837989888,2.29804894528008,2.29791963907412,2.29832626401334,2.29918004832412,2.30015944734342,2.29982088780663,2.29981733355913,2.29943615749379,2.30008097426485,2.3005772378912,2.30046168590994,2.30032431596632,2.30109574950782,2.30200490526588,2.30263384980093,2.30230946342922,2.30190102218451,2.30274866782688,2.30337909660192,2.3041777772186,2.30361265015557,2.30297603859039,2.3031023276673,2.30370204074259,2.3044831183677,2.30431205714881,2.30395986483697,2.30452831739587,2.30500914924025,2.30586175002164,2.3051458379085,2.30558106010352,2.30555957152579,2.30619652836921,2.30688961260281,2.3062954357759,2.30645097158464,2.30658492686536,2.30782733573946,2.30891058654438,2.30849651410452,2.30758396578684,2.30706603399412,2.30773805756502,2.30881104364305,2.30877536881205,2.30867911592234,2.30913972903118,2.30953869818862,2.31001339495996,2.30910581806604,2.309041912252,2.30917959133606,2.30963587446376,2.31063882291413,2.31032213155214,2.3099709284546
2.33658265033187,2.33622402326276,2.33680484285575,2.33497233315958,2.33472084160395,2.33420869757582,2.33330945817691,2.33346586023802,2.33203904010537,2.33296468442986,2.33223784217817,2.33257187352288,2.33400673767534,2.33452348179167,2.33384741953881,2.33412446253255,2.33327332761685,2.333284452272,2.3342336421938,2.3338071284944,2.33323668623452,2.3331691551392,2.33363860149077,2.33318145789401,2.33177572268861,2.33056987714417,2.33218458387675,2.32995973885163,2.32972092117404,2.32833228150151,2.32781961311084,2.3280762297019,2.27863502459792,2.30970235197164,2.3292877885419,2.27982761623087,2.28009590431122,2.28250484546359,2.28188032111654,2.27966778853184,2.28152425162554,2.28154718502394,2.28254269154939,2.28318851108426,2.28211140556282,2.28260690438083,2.2824728996108,2.2840078142929,2.28424545576608,2.28335601955678,2.28302368408142,2.28308641864655,2.28293182204034,2.2851649244437,2.28364409588473,2.28408423581608,2.28346570080666,2.28465411260262,2.28677872016259,2.28490178154833,2.28524238788496,2.2843087823504,2.28601196229038,2.28755430586884,2.28642948238017,2.28704166849182,2.28594571838347,2.28626328164725,2.28855734761292,2.28710348916502,2.28660894917967,2.28636388311747,2.28745063011534,2.29002751557857,2.28939342114962,2.28704832361834,2.28792037620577,2.28791969276206,2.29060360158089,2.28838124227969,2.28948537750848,2.28843695307073,2.29015622085203,2.29089265384837,2.28876007533379,2.2897454561294,2.28865485162759,2.29110957769089,2.29192155896976,2.29134344081479,2.29231757229176,2.29100444424734,2.29048221377006,2.29260022514167,2.29095336893181,2.29217344229619,2.29084014096378,2.29293685640291,2.29407778805742,2.29288628419138,2.29311343114833,2.29305091862687,2.29472837828083,2.29560723690525,2.29529530231467,2.29286766272551,2.29430413715995,2.29382931517869,2.29583383091466,2.29463886638411,2.29596887197726,2.29653276485667,2.29674691244245,2.29701169361393,2.29571571237774,2.29646672694835,2.29578335067145,2.29758579385748,2.29834454160991,2.29748471164791,2.29811661298634,2.2972960612524,2.29904090355619,2.30004461182287,2.29965301685726,2.29890706842851,2.2995396807405,2.29906292396441,2.30075109837756,2.29968847513392,2.30041530778797,2.30065818996144,2.30216661166219,2.30304417661606,2.30171793800934,2.30226344781189,2.30210822244587,2.3041008537334,2.30459378793684,2.30417640813176,2.30279274295876,2.30274720248351,2.30348884792989,2.30456956748018,2.30348861059538,2.30374617780587,2.30375249162778,2.30464418919603,2.30535674073818,2.30422705102749,2.30501711404956,2.30559664021813,2.30554564399174,2.30681877163424,2.30591499120037,2.3061158943993,2.30623759849403,2.30785915451786,2.30886610769063,2.30816304076196,2.30735414856908,2.30652159886412,2.30632568039653,2.30842995300487,2.30786944780755,2.30852147246387,2.3085199251308,2.3094008771452,2.30984974138697,2.30832526504106,2.30859045773974,2.3084113592915,2.30898276956394,2.31053708482416,2.31019006765261,2.30902568122739
2.33629584998797,2.33559058832597,2.33552548045792,2.33325185565212,2.33200010990519,2.33126886693171,2.33171061789841,2.33021943336187,2.32940687166877,2.32997021244677,2.3305054601619,2.3320694399669,2.33337824046712,2.33407307940612,2.33360890005455,2.33159487987263,2.3302621460543,2.32814194509214,2.32615964606227,2.32330954503662,2.31911939837283,2.31442032340772,2.30974828139826,2.30521536968726,2.30077883309424,2.29663848711287,2.29282649299621,2.28898694587645,2.28486125505695,2.28111558440371,2.27907725802277,2.27897146422406,2.27977800235871,2.28076012320289,2.28117695843927,2.2802020720786,2.27998516968911,2.28108922690389,2.28133363925124,2.28073987819525,2.28059483288057,2.28149073590319,2.28211609148159,2.28306272124607,2.28263230961374,2.28198841246449,2.28275136517342,2.28300579873155,2.28407881334624,2.28299715535906,2.28289196167667,2.28217563091637,2.28306914330924,2.28379877123499,2.28358476420217,2.28303661881994,2.28353490608522,2.28429598197066,2.285595508194,2.28536652992731,2.28434312277245,2.2852258843702,2.28560861761167,2.2868101450245,2.28618650181594,2.28621210147925,2.28625030763272,2.28681538081282,2.28775607512817,2.28733796984092,2.28676711972027,2.28723697283302,2.28783400956787,2.28914140826671,2.2886011267031,2.28780426511316,2.28800136242,2.2887730622056,2.28967070373808,2.28941574917857,2.28852231080728,2.28941228036411,2.2896857285838,2.29040144963988,2.2897756192493,2.28906905302335,2.28968791895747,2.29024961732665,2.29142655185847,2.29132862751032,2.29123163861539,2.29103911332546,2.29129068097095,2.29199219290734,2.29197883066295,2.29141117439461,2.2921391750101,2.29246415124454,2.29356411081463,2.29352255377928,2.29324573105125,2.29450106777203,2.29479279359707,2.2957718020571,2.29477431565118,2.29481240833271,2.29398825781548,2.29517229077567,2.29563770380582,2.29582178552939,2.29573007183413,2.29651559736885,2.29684854696681,2.29730605630956,2.29707859397876,2.29653266889478,2.29723046881916,2.29784389880735,2.29876294222145,2.29866452567236,2.29834442672229,2.29922163578594,2.29992217519739,2.30085610597955,2.30033509069501,2.30037463707805,2.30031312613504,2.30080599183217,2.30155142141459,2.30149227019455,2.30200615616375,2.30210472848444,2.30289334733356,2.30340757614244,2.30317595600483,2.30298331440305,2.30411952292323,2.30425089960681,2.30494885961053,2.30446179069036,2.30370845919178,2.30410162188223,2.30445001560973,2.30528004683948,2.30497419531036,2.30462623288092,2.30473493635654,2.30516119547623,2.30596410303417,2.30556716931211,2.30592680134751,2.30609675495071,2.30661503009608,2.30746512370829,2.30730815578421,2.30734925957609,2.30744015965834,2.30867376987504,2.30916699355517,2.30854014445555,2.30789920325616,2.30768390996285,2.30795184989805,2.3086980386065,2.30857314115539,2.30865389422518,2.30956195772974,2.30985809420362,2.31049977026096,2.30997699555846,2.30974765685482,2.31050196546745,2.31098883865702,2.31164668380703,2.31078276168312,2.31066602706961
2.3359629188739,2.26011823224863,2.33785151629529,2.29782951613051,2.26218261698714,2.26320648947824,2.33541148946327,2.26427639725904,2.26487510007987,2.26433607686439,2.26414255873375,2.33275717338256,2.33389002414635,2.33431357470745,2.33461915107362,2.2663591865575,2.26690122947308,2.26699553014917,2.26875453261116,2.26813555988648,2.26867075030489,2.26864886476169,2.26995372505863,2.27148241279926,2.27109139991902,2.27171725924446,2.27235982881536,2.27329745639053,2.27416516125451,2.27317345502659,2.27369549738664,2.27430156252561,2.27538426854258,2.27865858565627,2.27953827949359,2.2766758574316,2.277363301595,2.2770163767086,2.27952003558377,2.27699578156245,2.2790054689617,2.2775403448507,2.28000844456288,2.28140766513626,2.27920220596414,2.28053379003001,2.27878876139385,2.28062638191459,2.28185991012483,2.28097253951703,2.27965775666827,2.28091860655116,2.28018553775705,2.2824033699633,2.28056400754112,2.28152521013301,2.28112251912429,2.28234569651803,2.28412068541227,2.28324195034712,2.28309662109539,2.28328253708716,2.28435530854346,2.28514630141067,2.28395875268491,2.28405850797807,2.28548431278713,2.28485266519913,2.2865404630038,2.28499046763493,2.28605916573347,2.28583876575664,2.28628855544309,2.28765579059311,2.28607127605023,2.28654958566998,2.28660040534952,2.28715847124845,2.28852916654132,2.28680472837918,2.28820326747122,2.28712771587054,2.28947374791689,2.28976499649064,2.28849480259959,2.2886563223356,2.28819207435553,2.2891899506753,2.29076134898835,2.29030626868047,2.29006917287529,2.2900832754778,2.29044489947071,2.29158271915937,2.29047713453163,2.29162516741248,2.29074989677653,2.29173100088022,2.29307437725702,2.29188064108484,2.29387761427654,2.29369375203043,2.2952801371602,2.29523514168471,2.29483024856826,2.29337383785238,2.29483444055151,2.29351659227487,2.29585705165415,2.29477043547476,2.29559412238677,2.2951616352659,2.29625931727714,2.2973596763419,2.29622823179499,2.2966871907435,2.2961622825172,2.29762581353396,2.29881195788131,2.2975708364664,2.29853509516175,2.29852231668667,2.30069183933619,2.30097614817364,2.29988130710579,2.3003150775836,2.30053666447286,2.30053351312501,2.3018673222424,2.3015558595239,2.30295228249141,2.30250120267255,2.30209200516018,2.30357365833764,2.30181918848884,2.30352449038175,2.30433703752273,2.30373458290123,2.30466812553888,2.30326634116393,2.30342940977274,2.30378039423588,2.30423599553675,2.30546512410531,2.30510728835005,2.30448570434225,2.3042328486347,2.30434771089067,2.30611536181278,2.30529213122538,2.30571922158346,2.30589482617592,2.30586990986953,2.30770745691113,2.30754637308951,2.3072916346125,2.3071491750951,2.30866303374472,2.30929384436419,2.30755736439892,2.30732586946642,2.30748855953208,2.30779855217067,2.3086723554405,2.30692154088034,2.30841964273464,2.30901795071498,2.30955589977588,2.31058041433726,2.30971204768699,2.3096529712989,2.31104505560869,2.31219122252776,2.3119370207662,2.31053757484862,2.30986914770985
2.2645310970016,2.25999423124231,2.26020384819619,2.2611164757277,2.2619997165728,2.26236669976913,2.26338766897064,2.26358043058464,2.26449866385448,2.26423629494398,2.2645245343502,2.26567394716442,2.26665791604966,2.26788710900481,2.2674861329133,2.26732544511659,2.26660287611754,2.267847217482,2.26859352086811,2.26898014716775,2.26864597439472,2.26988341900572,2.27024154660735,2.27179287958833,2.27152466541987,2.2720882788602,2.27234683972686,2.27347627056294,2.27428278778987,2.27364980783372,2.27388976234516,2.27390052779685,2.27543604664877,2.27688587027325,2.27703663865805,2.27632076024931,2.27637194309561,2.27726295785345,2.27806129493551,2.27802726561935,2.27714181258335,2.27831440092608,2.27900735550616,2.2802507194448,2.2800573784163,2.2790858962233,2.28010726193681,2.28000096578349,2.28141961699307,2.2805592027487,2.28064824121253,2.28043301733125,2.28124040728493,2.28152140911134,2.28141197254312,2.28107437510342,2.28212682954106,2.28254745988831,2.28361565737994,2.28356437220144,2.28323482902452,2.28365119455881,2.28403802597292,2.28471067740761,2.28435898870406,2.28471822644741,2.28492690586693,2.28568002972775,2.28617959964623,2.28646123877172,2.28605157302643,2.2870330409485,2.28688025003627,2.28740611651277,2.28699575908286,2.28641453546511,2.28722902648574,2.28752167282686,2.28822083714723,2.28797790690324,2.28745924958682,2.28848504066271,2.28898330131573,2.28999046795,2.28962011445764,2.28964822980101,2.28927880255098,2.28995257007466,2.29075551035216,2.29104780184815,2.29059974542763,2.29111578882223,2.29119035549346,2.29181905186321,2.29168798255806,2.29148870023909,2.29218580633896,2.29277808098412,2.29355654427608,2.2937121255171,2.29356886322345,2.29497374478827,2.29514507111336,2.29615321433097,2.29554254533724,2.29591546562624,2.29499088288347,2.29593756914615,2.29648862917366,2.2964993855839,2.29655820682119,2.29659904147314,2.29728183056357,2.29785349610575,2.29773111140358,2.29723034186279,2.29806672128762,2.29895700488808,2.29960013783005,2.29920158475002,2.29883735675938,2.29985177108304,2.3006855375351,2.3017287467317,2.30131538096667,2.30130665849796,2.30123995745688,2.3016491826071,2.30253409932495,2.30261034960087,2.3029408288665,2.30310700138664,2.30385589178757,2.30448232302262,2.30420144944838,2.30401379046157,2.30468079758963,2.30462486621058,2.30524362400921,2.30473707357349,2.30433548095331,2.30493311854068,2.30526694285532,2.3061962510176,2.30594163249251,2.3056882170732,2.30589525834444,2.30626197571954,2.30731587424316,2.30720176676705,2.30695955798317,2.30707252430117,2.30762497323325,2.30852346965414,2.3084362499787,2.30854836425696,2.30922631889325,2.30953949287205,2.30985497912663,2.30916401407881,2.30852211542843,2.30902602693881,2.30901944650524,2.30956601955884,2.30911029417378,2.30912415984027,2.31003037233459,2.31028025806689,2.31123492230873,2.31089225013517,2.31093502624165,2.31153652623004,2.31208555934223,2.31262873230547,2.31180318702138,2.31169669084961
2.25644980431986,2.2574582171605,2.2575580414417,2.26007767492596,2.25961082752764,2.26089452681695,2.25966199786316,2.26109726669411,2.26244006625441,2.26178514110961,2.26189614144389,2.26263321938407,2.26337917644699,2.26558646844456,2.26564038714115,2.26402050819407,2.26568642173184,2.26457964624201,2.26782037420728,2.26590502825485,2.26863224736442,2.26709781966408,2.26918892478015,2.27026262710778,2.2697949651337,2.27004779782908,2.27046444523968,2.27116874048855,2.27306378448123,2.27186942626218,2.27194646289467,2.2723157805302,2.27309778823692,2.27491566523593,2.27313622428894,2.27450672876653,2.27408996928792,2.27549447860093,2.27678101294785,2.27548145530266,2.27657991367837,2.27529103849181,2.27793204216512,2.27878418289214,2.27751179735591,2.27905800169507,2.27761559608581,2.27921983277606,2.27997438690123,2.27885447253912,2.27979666088719,2.28020470598565,2.28062798481848,2.28131524655805,2.27963867123376,2.28180068670427,2.28118814237345,2.28296796581918,2.28321082761631,2.2832900877897,2.28283651530963,2.28340773290513,2.28300966786332,2.28430888274565,2.28401978335536,2.28412698574023,2.28504835354125,2.28469240547276,2.28646587045323,2.28559268888687,2.28733953456642,2.28650226750435,2.28736720169719,2.28734710355806,2.28559245833545,2.28703093045336,2.2857920172858,2.2877974011169,2.28815396273232,2.28655392296185,2.28773888782956,2.28700668771136,2.28908887141925,2.28983731055709,2.29017232054808,2.28969041117605,2.28984230098139,2.28880938721718,2.29096695599566,2.29030870362019,2.29133444903806,2.29071657332705,2.29118089957922,2.29196651334753,2.29093989465457,2.29150762079541,2.29187082148183,2.29322826226713,2.29405113075565,2.29267443310073,2.29440378423351,2.29354665105446,2.29567101984653,2.29608425710805,2.296597709762,2.2959956082337,2.29568511428133,2.29552282756437,2.29711286073097,2.29680207192025,2.29674426356803,2.29716746732516,2.29666994239454,2.29839483228922,2.29689896885929,2.29777721319619,2.29734755895977,2.30033076235016,2.30008469947594,2.29823741246688,2.29901914227455,2.29844059685323,2.30063166820208,2.30176411418356,2.3016133582204,2.30089448342239,2.30122999779176,2.30064919261266,2.30265858738765,2.30217114806472,2.30215295494693,2.30255179025377,2.30415904216116,2.30505894252643,2.30439822156909,2.30380230349118,2.30391048868343,2.30403154526968,2.30537981516239,2.30402322587779,2.30448483155032,2.30429340115657,2.30516278873571,2.30631375137768,2.30538785421517,2.30577014841156,2.30619068067722,2.30636316641233,2.30788979722285,2.30806692261793,2.30664305895164,2.30714956052514,2.30747317494281,2.30884234104778,2.30751225722842,2.30863827332263,2.31048641704947,2.30913834414986,2.30997469855028,2.30861615619397,2.30867181030363,2.30909574964968,2.30891364943294,2.30985664119207,2.3086509556059,2.30925231707832,2.30934492881947,2.30983130808895,2.3111416458655,2.31025396042823,2.31085398072074,2.31067984766931,2.31093899029251,2.31251362362158,2.31178414832456,2.31145661235694
2.25675024663661,2.25684657779789,2.25801569299659,2.25924338116095,2.25996625408572,2.25917796779045,2.26043525639263,2.26041523580732,2.26184450358089,2.26156446727339,2.26201921434705,2.26238841378479,2.2632808061241,2.26465442055616,2.26458121003999,2.26489941357006,2.26458947074162,2.26584447329741,2.26656413283165,2.26711500865223,2.2666852418129,2.26828741796655,2.26862714748981,2.27009224079801,2.26963742618,2.27022042174512,2.27034039790946,2.27168805057939,2.2725160576669,2.27218692657977,2.27217995459344,2.27207735563662,2.2732682592699,2.27369495422238,2.27374481210789,2.27352799146773,2.27449529210233,2.27521033571736,2.27574349601125,2.27586802432321,2.2750750454837,2.2763761466117,2.27682095777649,2.27796387526463,2.27825843538266,2.27799228613495,2.27895380611365,2.27924325539143,2.28003799627518,2.28011210741644,2.28011845242603,2.28094428590404,2.28147341496824,2.28151314396136,2.28128972198758,2.28090540630711,2.28209485248377,2.28246012297766,2.28348533009564,2.28323972072801,2.2834940029355,2.28322992062759,2.28401984920082,2.28476229422447,2.28471508502656,2.28567350711122,2.28485487688468,2.28590511040495,2.28612197602669,2.28685073834922,2.28638031887536,2.28761200199627,2.28750457005075,2.28787745313032,2.28765195004953,2.28715374997386,2.28796501770565,2.28818539994479,2.28877762700966,2.28870462596346,2.28810295060611,2.28959031385845,2.2897400591252,2.29087316151375,2.29025455983846,2.29056352768056,2.28962590266899,2.2906135603238,2.29129993125816,2.29152963704916,2.29184575872736,2.2917013111606,2.29215147237227,2.29270870944445,2.29265589915577,2.2924965578169,2.29292543959508,2.29394007727243,2.2944743111946,2.29450671966818,2.29378224581433,2.29508570521201,2.29543182407174,2.29654728094293,2.29621783872248,2.29634405246003,2.29604931555317,2.29687487006488,2.29797613059095,2.29795353184187,2.2983549587576,2.29782527068975,2.29889806077274,2.29920624013961,2.29923494158101,2.29817867118724,2.29921052154981,2.29998692585185,2.3006945954501,2.30014558472776,2.29987011014327,2.30066588169601,2.3013763597115,2.302554878826,2.30213944450936,2.30212103673491,2.30176667759642,2.30245823687071,2.30318724502595,2.30322446939976,2.30292367358821,2.30383629902295,2.30484250468811,2.30567957757906,2.30528155904706,2.30504033930854,2.3053815816593,2.30581723498819,2.30641122043,2.30580494377728,2.30559427135297,2.30571033114963,2.30619756573997,2.30701625205893,2.30687410720278,2.30657892619142,2.30711140545784,2.3075851799869,2.30864083264207,2.30838507241616,2.30835599012323,2.30818690004821,2.30891228443328,2.30973208425034,2.3096674319711,2.30935011707338,2.31012927820773,2.31007826615819,2.31057704752787,2.31003639438694,2.30958919586076,2.30982769614852,2.30993964440197,2.31065899744247,2.3104919458399,2.31037807787075,2.31096673541443,2.31119909133162,2.31214102377687,2.31173429632546,2.31174578622734,2.31184897133399,2.31237972883117,2.31322645795453,2.31281075710255,2.31259783493271
2.25543175148959,2.25546713017348,2.25596411450772,2.25844478555174,2.25719951298104,2.25875180369653,2.25707839690945,2.26001628623788,2.2603253128834,2.26023610753689,2.26080025630595,2.26125029927375,2.26134162621416,2.26340570915346,2.26313569592561,2.2636158258407,2.26365165773234,2.26417401540413,2.26569452522954,2.26438591223466,2.26688971012819,2.26532233091477,2.26881365490351,2.26883622804532,2.26849224343228,2.26860379470678,2.26977289588415,2.27031315338705,2.27168228628911,2.27090492160503,2.27148211336037,2.27119396585367,2.27266987044533,2.27329826663085,2.27213836705956,2.27384107690192,2.27324185886928,2.27548817443011,2.27541202732114,2.27393271873478,2.27540667559155,2.27460419375661,2.27662037749729,2.27740840978442,2.27729686234661,2.27821954543655,2.27830995641955,2.2796043301342,2.28021775966023,2.27957059784576,2.28122501033034,2.28023022769422,2.28274407376517,2.28189661961107,2.28004841217735,2.28160536271717,2.28014784663375,2.28282257222246,2.28312300384436,2.28321219388814,2.28255873713412,2.28319831248358,2.28329363816661,2.28484189186601,2.28553768838197,2.28519702916651,2.28624987565985,2.28398185083894,2.28645214199661,2.28525266311295,2.28729549231182,2.28626997247573,2.28812994636951,2.28825750674845,2.28698409594613,2.28871509191097,2.28734153720461,2.28888535782961,2.28940719714147,2.28790277579357,2.28988163417995,2.28884675660467,2.29147002120763,2.29083737452446,2.29100119654722,2.28866713552922,2.29023622707658,2.28939325920744,2.29163176085638,2.29161322696762,2.29172052142001,2.29230788586031,2.29127413079881,2.29335444891839,2.29293949445907,2.2927341417497,2.29267516136909,2.29369104604719,2.29500507134637,2.2934644933234,2.29400935842666,2.29338044321594,2.29568759542352,2.296159715566,2.29505434766255,2.29558197134085,2.29520373551217,2.29652567864669,2.29821383895686,2.29904201077691,2.29771946018324,2.29883460004705,2.29853148267619,2.3002735655769,2.29907872869816,2.29876348857225,2.29779945859988,2.30019154074745,2.30085400806572,2.29974617906407,2.30030089126872,2.30055538897891,2.30158160735889,2.30264981198775,2.3021749305698,2.30122112618955,2.30207586986741,2.30172992751627,2.30357451124615,2.30234039312819,2.30287063628297,2.30307053596383,2.30507829397263,2.30578701536206,2.30456157088967,2.30507488261718,2.30555643931003,2.30627777005694,2.30694214951192,2.30576766322685,2.30554345716867,2.30580245266447,2.3055111525338,2.30728674720429,2.3064716446685,2.30667572314467,2.30607668717203,2.30764685392618,2.30856061737391,2.30774846402013,2.30838855934296,2.30822237262576,2.30822702882464,2.31022561627881,2.30997195645228,2.30894327293567,2.30880802872244,2.30964792678322,2.31056668867408,2.30962135289485,2.30950503870075,2.30912390374289,2.30934893435627,2.31085379783209,2.31013600895946,2.31104831840051,2.31065356420449,2.31133948079558,2.31241164703209,2.311478368972,2.31151118643081,2.3114649822516,2.31215774612211,2.31336950235054,2.31217376197297,2.31241783538635
2.25580512061065,2.25621049656864,2.25710180794682,2.25779147831666,2.25834110751566,2.25758389148751,2.2588629720607,2.25897948575432,2.26013054162799,2.26019336240349,2.26058371298769,2.26099150042183,2.26187758143922,2.2627498791388,2.26330762438447,2.26321514315098,2.26433079527719,2.26438981128108,2.26523075922371,2.26581718103787,2.26574200901433,2.26728318237608,2.26762722939183,2.26869009306524,2.26862898219349,2.26937263766881,2.26949472686327,2.27044511292095,2.2710053992328,2.2712969142137,2.27134466514576,2.27171518708085,2.27252784796289,2.27289399696618,2.27332173764063,2.273061312256,2.27427944535292,2.27462456705211,2.2751840078525,2.27533195916369,2.27493591381895,2.27624874065452,2.27640374001593,2.27761046940173,2.27789674857472,2.27835583724339,2.27879574628184,2.2795428747472,2.28008533879415,2.28063235394769,2.2803941873194,2.28135019468853,2.28159991676568,2.28181331762422,2.28160597759377,2.2809123049501,2.28218326094971,2.28236106213915,2.28355195479431,2.28351851959673,2.28358533768812,2.28382627997451,2.28444576641097,2.28546848458799,2.28526356711086,2.28611179314401,2.28499551427538,2.28599384938614,2.28613512733394,2.28663269857427,2.28602095655948,2.28745396596706,2.2877434097121,2.28873802788882,2.2890237704319,2.28852948156555,2.28940147551633,2.28960968734047,2.2901721374182,2.29042782938068,2.28954810538344,2.29161941774356,2.29077835605377,2.29175275931463,2.29087410888986,2.29134028076269,2.29074554790155,2.2917115372268,2.29257641398771,2.29256337198531,2.2940391651031,2.29272719987878,2.29370985274431,2.29404679859053,2.29431333461279,2.29392367881932,2.29421253145123,2.29490814085584,2.2955527220893,2.29572993690438,2.29488075656155,2.29617412481564,2.29604570396816,2.2968724530185,2.29646168768697,2.29623025701139,2.29694855795564,2.29749101748043,2.29923296329992,2.29950000963233,2.29967945229275,2.29910177586154,2.30021006054044,2.30042181159336,2.3005052774555,2.29950598680994,2.30116574754969,2.30113013294957,2.30215267486035,2.30185664132419,2.30220714386189,2.30269298700853,2.30297433601132,2.30383275264561,2.30341307780889,2.30342846211481,2.30291964143545,2.30374518495709,2.30423959182593,2.30409524822809,2.30387441122799,2.30491676094457,2.30603809385425,2.3066497371919,2.30611840801678,2.30622667833264,2.30690966006012,2.30756482532051,2.30807108344323,2.30725563085449,2.30700531899182,2.30659516514973,2.30712668836524,2.30784604902857,2.30777168338758,2.30744963641909,2.30794087651821,2.30836797352658,2.30936635009124,2.30899804788301,2.30913846603758,2.30912927649494,2.309749069221,2.31074685408227,2.31067391152383,2.30985318565752,2.31018124927451,2.31053349525307,2.31117173267399,2.31062486859406,2.3104205162529,2.31038462766958,2.31075590847945,2.31148943125759,2.31141624871064,2.31135126562609,2.31202753920955,2.31246503693669,2.31339902653536,2.31332942211545,2.31292087051516,2.31340790256623,2.3135739960522,2.31423465956302,2.31369693212352,2.31341436383885
2.25570932877433,2.25642138134838,2.25734556525376,2.25769699745058,2.25708428404517,2.25885250891072,2.25737617933934,2.25943055687788,2.25964557993701,2.25956174985993,2.26034918410086,2.26011735177947,2.2615982963326,2.26251023381307,2.26149585444043,2.26428979764043,2.26359963158483,2.26472382589982,2.26516269997839,2.2649975109195,2.2669360057735,2.26662758597207,2.2680443938409,2.26818449641149,2.26874488902036,2.26928055747622,2.26987929228797,2.26938513073422,2.27078325323898,2.27086349852946,2.27124916613337,2.27175317458744,2.27185259199805,2.27306674312719,2.27209424144811,2.27411236578516,2.27305067178004,2.27445955509072,2.27514350800021,2.27410211256745,2.27628440552705,2.27516605730945,2.27678687894232,2.27741231412229,2.27764478109429,2.27832157673806,2.27881534807761,2.27845036611439,2.28018823338855,2.27924222617036,2.28132629828437,2.28001233440623,2.28109716826309,2.28170225882682,2.28022559190973,2.28170887660773,2.28111551921142,2.28242196146341,2.28334456503967,2.28310171127077,2.28379475387667,2.28357626749176,2.28453080387944,2.28540268578735,2.2858571588814,2.28407239259362,2.28603345385976,2.28407930654588,2.28675525402915,2.28462122155998,2.28651320527625,2.28558261498377,2.28770843629495,2.28892132540269,2.28878103053945,2.28955201702062,2.28874721024454,2.29036676471898,2.29078646440387,2.28943296571882,2.29125396384744,2.29097679436216,2.29141510552423,2.29125272542425,2.2910519779241,2.29116863126934,2.2919705271374,2.29142317196608,2.29291430612956,2.29355431374209,2.29429798749576,2.29469674558247,2.29244077639727,2.2949246500157,2.2941758170828,2.29462341170548,2.29437915656685,2.29480999166214,2.29621982412532,2.29514590528722,2.29680396903539,2.29593708748085,2.29665817020308,2.29699742908702,2.29564817256565,2.29686615598894,2.29623614433277,2.29755625972074,2.29934962442913,2.3006262882453,2.29916343040801,2.29955968592706,2.29942098138544,2.30079228312786,2.29879390035491,2.30078629415738,2.30162336437039,2.30232805109653,2.30253554307152,2.30215337189105,2.30349539409083,2.30363584293928,2.30307981536789,2.3042227701095,2.30420802513535,2.30350630007675,2.30346069051279,2.30343799690963,2.30478332243218,2.30364548254988,2.3039805412038,2.30474906856744,2.3068576603993,2.30701485682215,2.30539444814354,2.30653001564061,2.30667600445467,2.30822104835237,2.30843597267174,2.3076274397392,2.30656235913948,2.30668282389454,2.30629109127435,2.30810210129643,2.30693525367267,2.30780053550385,2.3076092255397,2.30804609433818,2.30946088920242,2.30869452451827,2.30871730617007,2.30876253908014,2.30927704646243,2.31088653835238,2.31027492154526,2.30935567066035,2.30999167917402,2.31038329033275,2.31136734563302,2.31013762195989,2.31032985383237,2.31047377413735,2.31057555580973,2.31185271866203,2.31071598136481,2.31117600403621,2.31155282416845,2.31251549986205,2.31375816270925,2.31356055400527,2.31340059187603,2.31356486325206,2.31379970095339,2.31446902618794,2.31325866275733,2.31318091670214
2.2549333120676,2.25632099325131,2.25667678305975,2.25719772463152,2.25772370133335,2.2575722963627,2.25871130350501,2.25890831074234,2.25969872746584,2.2602110661859,2.26003216906425,2.26125540682654,2.26166245105144,2.26239523850072,2.26303242199431,2.26293976304239,2.26447280804271,2.26442197052817,2.26540317303925,2.26591683438314,2.26613364319878,2.26722516679582,2.26735178543673,2.2682455463895,2.26855347806066,2.26898363810333,2.26939825919696,2.27004295233179,2.27080962203247,2.27090658006852,2.27206333383729,2.27149169715527,2.27273905879804,2.27298311435842,2.27375549809428,2.27340268073953,2.27475717761147,2.27493288226642,2.27568418051965,2.27580681622278,2.27560817732239,2.27650104550431,2.27693390823239,2.27804746030234,2.27818493360972,2.27888812205915,2.2789329247903,2.27989060896701,2.28014959879986,2.28054920529501,2.28019497604328,2.28115546797571,2.28146157247663,2.28201695465616,2.28205356834754,2.28117907816235,2.28253806679719,2.28256015282248,2.28389060608952,2.28419665742579,2.28412593569618,2.28504111652348,2.2854525752585,2.28643552758102,2.28619421085114,2.2867597807484,2.28608540149309,2.28715022331527,2.28771937152533,2.28870207437951,2.28802602363947,2.2892388141773,2.28836685085508,2.28936266627154,2.28933314981147,2.28899935036264,2.28972635955834,2.29012099353068,2.29066984218291,2.29092236849224,2.29010339500976,2.29211348440203,2.29123705048035,2.29247450592668,2.29216857225657,2.29247830668825,2.29267074410952,2.29331540724654,2.29402113939582,2.29346386313991,2.29502736777288,2.29370073917594,2.29480428434367,2.29511430053732,2.29551901163819,2.29511849563638,2.2956348702667,2.29610860311671,2.29685662588576,2.2972287970324,2.29678866034996,2.29825549832839,2.29729239994963,2.29793207775033,2.29744827046508,2.29722845294142,2.29791784980707,2.2984130412362,2.2999287445232,2.30022813417424,2.30017713557969,2.30012719459962,2.30055834564265,2.30105818525762,2.30108707804588,2.30083731006196,2.30256162684785,2.30250787836446,2.303446770188,2.30317092262014,2.30333873336123,2.30368463887897,2.30392665569299,2.304836076972,2.30465807607081,2.30458449859961,2.3044267671336,2.30518372839392,2.30572386516333,2.30534042419032,2.30545845898652,2.30592508528072,2.30710213281099,2.30758530233182,2.30709761278343,2.30708321932949,2.307878568447,2.30833324510069,2.30907689240964,2.308332911597,2.30791101186179,2.30747516910825,2.30809467065607,2.30882408952269,2.30865083936512,2.3085598131629,2.30896221417406,2.30943713763457,2.31036033471823,2.31016281605774,2.30985679960583,2.31058956136574,2.3110582198354,2.31169459488171,2.31115867030513,2.31074876311212,2.31108521863714,2.31146215972548,2.31237684361126,2.31170701144218,2.31134815872586,2.31138177739232,2.31190104675308,2.312842596521,2.31247969364498,2.31203063123715,2.31241938159369,2.31304332259965,2.31401068126223,2.31422107236789,2.31391092127853,2.31480241499974,2.3147335288556,2.3154581130062,2.31475061792931,2.31456877078864
2.25577612153741,2.25501754635139,2.25709643333847,2.25710945743053,2.25659885627223,2.25872578928165,2.25783243628941,2.25957697708334,2.2599555527156,2.25945830662359,2.26129803592814,2.26059206874953,2.26249246441445,2.26258523841333,2.26208967170874,2.26429970602137,2.26282611833933,2.26536817648726,2.265572511256,2.26547408254976,2.26670368419597,2.26650597531252,2.26688689662539,2.26810434756307,2.26767005496067,2.2688137112044,2.26829771415639,2.27037838814921,2.27050772522377,2.27119824783083,2.27154671869695,2.27255768366037,2.27122651838726,2.27368253304733,2.27262563060552,2.27483631683402,2.2738364494978,2.27611824588838,2.27600034861676,2.27561075646548,2.27586080442376,2.27562594555937,2.2772415924759,2.27808039400512,2.2785390841327,2.278095452398,2.27977346334012,2.27945331294571,2.28060305292266,2.27899277317014,2.28090457374624,2.27962365433584,2.28216872944865,2.28240066020599,2.28105996451367,2.28216150663561,2.28079595910653,2.28295524346965,2.28390210633139,2.28394534615213,2.28443648278547,2.28491791585555,2.28610841911473,2.28665977337985,2.2869102767361,2.28700035496349,2.28748802013573,2.28679249259758,2.2893177624039,2.2896058591266,2.29206843675845,2.28994830170871,2.28886769127422,2.28931017987223,2.28793465002191,2.28884060622371,2.28865933934408,2.2893989419414,2.29058210022079,2.28870860489072,2.29105053036646,2.28995547723248,2.29172722251085,2.29255173849647,2.29258543979914,2.29248369524257,2.29263184735474,2.29426521693484,2.29408632060868,2.29366433808919,2.29283932056319,2.29497653739104,2.29300611267172,2.29564867318766,2.29492258732107,2.295608686023,2.29523903895056,2.29623096122385,2.29740818029688,2.2961048814995,2.29836156380394,2.29820287895534,2.29781187678853,2.29808269040237,2.29698577010274,2.29754658829951,2.29726168369894,2.2982930704016,2.2998777303017,2.29925407631275,2.30015849364581,2.29983831409479,2.29986738718013,2.30122721498729,2.30003753100331,2.30150410324117,2.30111501680638,2.30273177724703,2.30336856203175,2.30262898815429,2.30237696460738,2.30264689609962,2.30321151793863,2.30482049666882,2.30415616949923,2.30441585727354,2.30422116915477,2.3057211435491,2.30643223913672,2.3054495424831,2.30578666263857,2.3058179800088,2.30667068793676,2.30810787136353,2.30620949592971,2.30738571281304,2.30709745055801,2.30791849106091,2.30899834515087,2.30832095479464,2.30717606358062,2.30742909265938,2.30759222796932,2.30919247583598,2.30829141627589,2.30859743418151,2.30860114433165,2.30933519694701,2.31069610419552,2.30973357266723,2.30991415588322,2.3107869128135,2.31203127788825,2.31196967662525,2.31034835779795,2.31089335326042,2.31055105341975,2.31072708157554,2.31249690850184,2.31143609504313,2.31095291096193,2.31101368176529,2.31142023858625,2.31348501748525,2.31221716212828,2.31177953895755,2.31131048280558,2.31258698729976,2.31402730577977,2.31283433636362,2.31432335020491,2.31338266055186,2.31484582481247,2.31550957165487,2.31460417828931,2.31442719413702
2.25513242861379,2.25634790167436,2.25674657293292,2.25723311290774,2.25777427461569,2.25792002203298,2.25924611955651,2.25958242696609,2.26013918899815,2.26068263530114,2.26039864530807,2.26211615469054,2.26191262678337,2.26284130628831,2.26336604142853,2.26378148652532,2.2650686687751,2.26532791971405,2.26638965736359,2.26689176957986,2.26742818216198,2.26743744072527,2.26802019705872,2.26850264836034,2.26906958914303,2.26872465923404,2.26986595437109,2.27028241595356,2.27127599533402,2.27092734621011,2.27259519835836,2.27153830008446,2.27318872470231,2.27340705355395,2.27431614794943,2.27399858733374,2.27535945721808,2.27567867620152,2.27637362544102,2.27612037187694,2.27613774094603,2.27636245544842,2.27758901215746,2.27850660508526,2.27865774717145,2.27989308887032,2.27937680555202,2.2804254545037,2.28056938713017,2.28102007817326,2.28046054644845,2.28172266699243,2.28206991319895,2.28260180611978,2.28256275687598,2.28174055144432,2.28304364710741,2.28331574716536,2.28451855742495,2.28459967914144,2.28512934338984,2.28553780405763,2.28629721188259,2.28693772713141,2.28701863300211,2.2871864983448,2.28764789112663,2.28827478705727,2.28927598854487,2.29052052334219,2.29024607106089,2.29195151047187,2.29053372693418,2.29099634980945,2.29035198193587,2.29012421179107,2.28995356665679,2.29039353850211,2.29088010052313,2.29100160261979,2.29042395974033,2.2919606187135,2.29217078955495,2.29339211428082,2.29341997476425,2.2930879765788,2.29382068403958,2.29424390122248,2.29508791855666,2.29439223007268,2.29505074672533,2.29441345638825,2.29539720644348,2.29615906260406,2.29669627434726,2.29644313838869,2.29678734053044,2.29735817081685,2.29783726089128,2.29792881245171,2.29744524720941,2.29896192791645,2.29833426649019,2.29936451105416,2.29904998749963,2.29922415491569,2.29906659685296,2.29970995973979,2.30058493222211,2.30069711971818,2.3005976128034,2.30120678219631,2.30120985462068,2.30196637851386,2.30187593840382,2.30169848627303,2.30265555363499,2.30298675366542,2.30387783319414,2.30355152684511,2.30331845072882,2.3039127281715,2.30452021640339,2.30559565441919,2.30544366901664,2.30531972624191,2.30602630056625,2.30669772197697,2.30768890461632,2.30693440835726,2.30704016573093,2.30717699865609,2.30850271546194,2.30942647933492,2.30890951173859,2.30839498991235,2.30930538532429,2.30914803530016,2.31001222541611,2.30924031926429,2.30865542209805,2.30871372175866,2.30941362738456,2.31015054490883,2.3097461855683,2.31021057954123,2.31012872018559,2.31065548567799,2.31124908210582,2.31098370183514,2.31064399042336,2.31152508982833,2.31196253838639,2.31261397675963,2.31190456480467,2.31143029959356,2.31186459819088,2.31195678522245,2.3126326775687,2.31216908872451,2.31185007463613,2.31219223320647,2.3132542486668,2.31507840714137,2.31464316741691,2.31369054204115,2.31300000505667,2.31352287193093,2.31458058151997,2.31421358317591,2.31397208371353,2.31479140396499,2.3154728993485,2.31651966521031,2.31583816430092,2.31582083319771
2.25641685116845,2.25619678846849,2.25741435874528,2.25763186760746,2.25692077060365,2.25930652429984,2.25872820116713,2.26060562377756,2.26060581203514,2.25925766811104,2.26220255938917,2.26099328823774,2.26270789475961,2.26282416374973,2.26300073604605,2.26478337781068,2.2658176647551,2.26566889938801,2.26682591162192,2.26797726455733,2.26830226974215,2.2681111979485,2.26801714169284,2.26920218083576,2.26852736092835,2.27012350456196,2.26883077874104,2.2714334250965,2.27107744539339,2.27165091121046,2.27095399936783,2.2730505249991,2.27165799232616,2.27413126974835,2.27298491328056,2.27546583144958,2.27385275812555,2.27648882694499,2.27619357421634,2.2758977781643,2.27571088423091,2.27587769695162,2.27750466457731,2.27851434519356,2.27844437064521,2.28061681174538,2.27994494628541,2.27902180561989,2.28114755572683,2.28004902071205,2.2817602712425,2.28095991251211,2.28264608480081,2.28275664352899,2.28126038905589,2.28280213708795,2.28190089898403,2.2844119060689,2.28445673620461,2.28399852080173,2.28555297482215,2.28524561267346,2.28558211988305,2.28691467745822,2.28564522005323,2.28694171085941,2.28718427341994,2.28783953810618,2.28926029281538,2.28825694973117,2.2911225273944,2.29146679936102,2.29263606343018,2.29164436125609,2.29148905930611,2.29087828749163,2.29005356384265,2.28990305948947,2.2913893161763,2.28996169470982,2.29123246768896,2.29066068458151,2.29302077276481,2.29368412201217,2.29258322632638,2.29375992408627,2.29264514090852,2.29442664052377,2.29525988780312,2.29507802778075,2.29465988127944,2.29484219042369,2.29464119974985,2.29679765376052,2.29717466131237,2.29710592437775,2.29681948465922,2.29744782813349,2.29819556996097,2.29634750949953,2.29792667699247,2.2970379326777,2.29884147776601,2.29966337596876,2.29989151222867,2.30027884461434,2.29951972818174,2.29957359946262,2.30117520561807,2.30000827404152,2.30122308307091,2.30087317943187,2.30148031935571,2.30233606522015,2.30133754021013,2.30200871975105,2.301970340983,2.30278069765454,2.30386996587935,2.30263567291726,2.30354615332182,2.30317074670257,2.3045454471377,2.30564078732716,2.30459516610514,2.3053318850114,2.30562923299715,2.3064313629836,2.30791637169597,2.30638352585134,2.30663396134611,2.30688761541231,2.30838854163062,2.31016277405044,2.30842485503976,2.3086875180057,2.30970992827404,2.3092314182327,2.3103124180529,2.30902882245116,2.30818130410764,2.30872583193067,2.30975938552886,2.3104643170471,2.309408954226,2.31070866781849,2.31081250413816,2.30989291313375,2.31147378191332,2.30986591354369,2.31079287305057,2.3104676984943,2.3113044217709,2.31291242282434,2.31106744967412,2.3112247804441,2.31085328008002,2.31073428062216,2.31003236945882,2.31045531975096,2.31057936869435,2.3112135109663,2.31239527497415,2.31607364744995,2.35063304169967,2.35087698700426,2.31215653369496,2.31270956917956,2.32299005710913,2.34501334870633,2.31417980462021,2.31420869166294,2.31575325383642,2.31694303288044,2.31525769457785,2.31582884159068
2.25622299994036,2.25678110105128,2.25742494700866,2.25772822866673,2.25844571723112,2.25846070174481,2.25996278256742,2.26045602204332,2.26111497927472,2.26165774916453,2.26115751755419,2.2626368006101,2.26240710885384,2.26355540184278,2.2637994400505,2.26508984196263,2.26551268710044,2.26637325976574,2.26712756003983,2.26777071620747,2.26785461101325,2.2680837699091,2.2687167706094,2.26898562504397,2.26946376218488,2.26905742664578,2.27051249498099,2.2707473381677,2.27182675814115,2.27185147151715,2.27274680747108,2.2730388151339,2.27393783464527,2.27457934630798,2.27532846449221,2.27512925510336,2.27590453603139,2.27594793688507,2.27657298176537,2.27621982610996,2.27655250193242,2.27662656526849,2.27810694061192,2.27895950194986,2.27939284454087,2.28021495280098,2.28016667403344,2.28078680010607,2.28120783837983,2.28175431436047,2.28124997593306,2.28250947032635,2.2823670903186,2.28323398876965,2.28332724415119,2.28294391097914,2.28395074412988,2.28431926879833,2.28517521446406,2.28506599253816,2.28539448927781,2.28577951066782,2.28641779555655,2.28701582551651,2.28731530447376,2.28697719491668,2.28829403912896,2.2883455756669,2.28941116056057,2.29001476169195,2.28988421686751,2.29181099725172,2.29143425807577,2.29210714976935,2.29176121306605,2.29167717701793,2.2914592205393,2.2917674672166,2.29201274018517,2.29196180943705,2.29143262794262,2.2928605350201,2.29334227302095,2.2946348822836,2.2949796855845,2.29506485039958,2.29603074120806,2.29618866495982,2.29670114986395,2.29575336664792,2.29553314542992,2.29545949093281,2.29615283314644,2.29700551367119,2.2973679669541,2.29729850359668,2.29834585868605,2.29839740708673,2.29859315934881,2.29813927362557,2.2977158601112,2.29909578790206,2.29947898402678,2.30082628256114,2.30061082550942,2.30094173135752,2.3006436868022,2.30125175437482,2.30200894501393,2.30188810926529,2.30166227475245,2.30222465242545,2.30256133047719,2.30322255525288,2.30283192171776,2.30261819686016,2.30349996619284,2.30404256788672,2.30482638737024,2.30452139051214,2.3042836971259,2.30494359370603,2.30541008348056,2.30614299547278,2.30587732581329,2.30596328492602,2.30704852805067,2.30783953542846,2.3089619988612,2.30820131661828,2.30807920375489,2.30841020004129,2.30960440665518,2.3106493558047,2.31001546963499,2.30938137021809,2.31014413670945,2.31063703439169,2.31158191439561,2.31111796685796,2.31051816665129,2.31059030131282,2.3109500607874,2.31155758742442,2.31085530874074,2.31151049684909,2.31105525671244,2.31185906972845,2.31229550505944,2.31203896559769,2.31177132244297,2.31256566213648,2.31325067190049,2.31440613367162,2.31326265325448,2.31215380999031,2.31084711812179,2.30869798545722,2.30642972152007,2.30499572352172,2.30587058487677,2.30943171683785,2.31539552834243,2.31813498268868,2.31944884355836,2.31967369226127,2.31866866264498,2.32065557500772,2.32720201547544,2.33106865677767,2.32527093076755,2.31859962903837,2.31792382714306,2.31881724979494,2.31801410370724,2.31750060281554
2.25683356973172,2.25723674818006,2.25709249308107,2.25828657454408,2.25767259124061,2.25984880772477,2.25891095575806,2.26146596902128,2.26183906364618,2.26158201795621,2.26284430893281,2.26114847728477,2.26360725343055,2.26356717188907,2.26410881939157,2.26512763911618,2.26568489449424,2.26583975695494,2.26752961134591,2.2669117161017,2.26766826989694,2.2673829084576,2.26876935415209,2.26912466516608,2.26767013502423,2.2701600404698,2.269171210366,2.27130557463932,2.27188902608668,2.27169500571771,2.27341630838866,2.27381779864213,2.27431329572739,2.27532790186484,2.27575479559627,2.27625892973597,2.27588642179801,2.27574467095122,2.2763985015994,2.27618631664581,2.27584124455245,2.27718777981026,2.2774468835241,2.27938370844895,2.27935060910221,2.27960425467346,2.28052618423634,2.28056720918868,2.28167052122771,2.28047028021911,2.28275186376545,2.2812731197559,2.28235500449312,2.28344730003197,2.28327593415835,2.28394675496664,2.28358435699767,2.28447426352865,2.28546921802688,2.28457332115588,2.28507413032255,2.28546263610117,2.28609326646967,2.28731324496963,2.28605564905507,2.28840311415123,2.28690837128159,2.28862270961972,2.28939444554005,2.28858321816659,2.29066409582101,2.28939043690686,2.29142146416096,2.29166717473032,2.29114503380188,2.29199805894291,2.29194847033164,2.29223680088558,2.2927351910843,2.29090141587972,2.29253925883628,2.29212669021885,2.29370181988775,2.29515235685524,2.29503581629004,2.29737645821786,2.29698453989648,2.29836110119142,2.29735023640242,2.29496411456943,2.29451568236782,2.29486522476404,2.29564926096123,2.29686571630871,2.2957627545853,2.29737405386035,2.29881000255649,2.29881865093238,2.29872903277289,2.29667584408455,2.29812435625245,2.2981558184924,2.30029303142447,2.30119957444835,2.30064162590936,2.30045037992086,2.301100423449,2.30066154309933,2.30230076871187,2.30139530158066,2.30117406183232,2.30179535052105,2.30231134610509,2.30380474711549,2.30191975853147,2.302942326151,2.30310723208703,2.30475711762904,2.30542355838843,2.30381124640552,2.3048363024749,2.30393988978584,2.30591897050597,2.3059925290832,2.30527274318749,2.30557919380286,2.30624582841331,2.30721140450712,2.30836813418056,2.30717416531652,2.3070642873107,2.30739205259535,2.30824703910648,2.30975099362139,2.30839299040014,2.308104753661,2.30857554686269,2.31071505163999,2.31181684874681,2.31155139456694,2.31102649756311,2.31082136103454,2.31092181050316,2.31174696355777,2.31094926279838,2.31049366615275,2.31103161509346,2.31144758031079,2.31301714837599,2.31177048746896,2.31224052765396,2.31216724447464,2.31328350647034,2.31525342082692,2.31282868758594,2.31382933923338,2.3502549524004,2.35013542786913,2.34321348189662,2.34862910796564,2.34981127893799,2.35001801728516,2.31829160488103,2.31905623104511,2.31899154339734,2.31942583051438,2.31895138196676,2.34870341773675,2.33501441711809,2.34827743480899,2.35703656617213,2.35674208329379,2.31741331018583,2.31986615607755,2.31812204820199,2.31764671181683
2.25675240528164,2.25726626216796,2.25803154175757,2.25840511228741,2.25913660277354,2.25907841655396,2.26063101352615,2.26111629587549,2.26223361347098,2.26293360377711,2.26258582067032,2.26348817390076,2.26379801750976,2.26460321312894,2.26473854732695,2.26579960661196,2.2661114558442,2.26721127237949,2.26768457128311,2.26824212106328,2.26773439672389,2.26898763578034,2.26893514053036,2.26941326021524,2.26960936924021,2.26937467346351,2.27107793299044,2.27144914298174,2.27253215900391,2.27303044819055,2.27320043137662,2.27441323647189,2.27458377808079,2.27561686484798,2.27595820014007,2.27611838792043,2.27616190532941,2.27641152782131,2.27696143803012,2.27690344591057,2.27781681659198,2.27794500290894,2.27904633089262,2.2796184468756,2.28027392355974,2.28011017421176,2.28127546100949,2.28146213715499,2.28215114552653,2.28235538848042,2.28199213521342,2.28286185426858,2.28294123489673,2.28434417246385,2.28492347785961,2.28484589198135,2.28504722355899,2.28576568106352,2.28623679007991,2.28642859517731,2.28569322419853,2.28682659735242,2.28684608183144,2.28777014225926,2.28817122039885,2.28783195222801,2.28921112233054,2.28878197160287,2.28968782261217,2.29018960326577,2.28987486629362,2.29138902742969,2.29116488656553,2.29212247901084,2.29208166377598,2.29237272662797,2.2928262391632,2.2931469405508,2.29351940999838,2.29365635642557,2.29299664914834,2.29442814902345,2.29483805213145,2.29617002796916,2.29654375865442,2.29684948077166,2.29808941868155,2.29831672186687,2.29819425245866,2.29694433410077,2.2961047722328,2.29630747113645,2.29659600910469,2.29721080721177,2.29717244830606,2.29724572699339,2.29900631993125,2.29889439486367,2.29957821734515,2.29897599195217,2.29896611695196,2.30016308802303,2.301365781683,2.3028653190862,2.30297742377027,2.30299740765455,2.30213042603854,2.30231174520094,2.30277668076186,2.30276204948196,2.30306860949323,2.30344808948809,2.30501934537613,2.30539060661968,2.30499449444337,2.30446072782841,2.30527233744605,2.30570554509483,2.30653420193936,2.30632939173305,2.30560454839945,2.30629199816387,2.3066338290629,2.30797099681259,2.30868387379192,2.31037588559745,2.31413516034953,2.31876457785657,2.32227280939644,2.3237210264786,2.32323361801898,2.32142986394103,2.31871574732591,2.31549541565264,2.31284609720727,2.31162662478847,2.31135299575394,2.31128269252392,2.3120911984271,2.31198800691612,2.31176898903646,2.31197135560366,2.31220810125657,2.3129158123893,2.31223422765548,2.31280280618072,2.312169330475,2.31310719049014,2.31379770045436,2.31379687678934,2.31348839703378,2.31438884094278,2.31536951877905,2.31684734664197,2.31618689454923,2.33927263902577,2.35049360342994,2.35023530847632,2.33693759449584,2.33146305298051,2.3287297172473,2.32266270872523,2.31761130700245,2.31943689995261,2.31994260116571,2.31976776811188,2.31911240415547,2.32191259565696,2.3299886134907,2.33767257160755,2.35485253739764,2.35535467811912,2.32027273263888,2.32127474826731,2.32014114939497,2.31898467507387
