2.33163226719223,2.33309913129975,2.33198350771019,2.33279858429281,2.33298734354644,2.3338880402911,2.3346706175045,2.33034998887648,2.33094037715459,0.138448511122109,2.33111809884025,2.33052153092077,2.33216522380374,2.28161256656936,2.27960021233926,2.27913593411305,2.27970271910091,2.2790593963773,2.27968689475117,0.138448511122109,2.27865739534083,2.27862696985008,2.27877840065205,2.27867128511956,2.2787346364,2.27888323957372,2.27914844481776,2.27956948015725,2.27958573218788,0.138448511122109,2.28013546967634,2.28092887183388,2.28000363403717,2.28041971138183,2.28020330307277,2.28105303445379,2.28090469629926,2.28153783451903,2.2815451879489,0.138448511122109,2.28154977970777,2.28398790684948,2.28272387950831,2.28359426475085,2.28348456579461,2.28501830524853,2.28599921230045,2.28729744902302,2.28716464705882,0.138448511122109,2.29359998283707,2.2909260884227,2.34770764514396,2.35353192993534,2.35033923493046,2.35276735124785,2.35390032919734,2.35462589330389,2.35643156710967,0.138448511122109,2.35621037843637,2.35646550572271,2.35598172751711,2.35584758867531,2.35611823934065,2.35664417895501,2.35600254551038,2.35673524608497,2.35624783858707,0.138448511122109,2.35607982492971,2.35690589827558,2.35766963712751,2.35900932755933,2.35818611242869,2.35748895605513,2.35740391719542,2.35808588211553,2.35816152517882,0.138448511122109,2.35697966898503,2.35457054065274,2.3539732717041,2.35423956357947,2.35489246863238,2.3556273840959,2.2917911890535,2.29113087552977,2.29148392652548,0.138448511122109,2.29019406632146,2.29014818740349,2.28979187638791,2.29059766966673,2.28946938357013,2.29006882396161,2.28991569247438,2.29045030383832,2.28981546424915,0.138448511122109,2.29023633799336,2.29000942153702,2.28969981618944,2.28884947276909,2.28937545605449,2.28885432778595,2.28931669096829,2.28940474665572,2.28982927178394,0.138448511122109,2.29044182025128,2.29008812833152,2.29030861126007,2.29003537160833,2.29042835062382,2.29016910076241,2.29193809859742,2.29101850325348,2.29127930685975,0.138448511122109,2.29158103181432,2.29159991172708,2.29232294861563,2.2925579172138,2.29297182123339,2.29389976628235,2.2945377487147,2.29478680016348,2.29471946060258,0.138448511122109,2.2946175005944,2.29552040491677,2.29669746506974,2.29684298561187,2.29706857322495,2.29866928164653,2.29887228269832,2.30206152660936,2.30262006116857,0.138448511122109,2.36652608917572,2.36926944582462,2.36844638308045,2.36834803869875,2.3687768304831,2.37026137153241,2.37051732878293,2.37141875276044,2.37201273105411,0.138448511122109,2.37269579804154,2.37317673838437,2.3736072086715,2.37328726164588,2.37398875260072,2.37359001271396,2.37464154314021,2.37515736777701,2.37499517823261,0.138448511122109,2.37550640990285,2.37582168816281,2.37704592074819,2.3774145712339,2.37781806025717,2.3835348078662,2.38224005038547,2.38267078215635,2.38503389649459,0.138448511122109,2.38443635356291,2.38599518840051,2.38942846258223,2.38930677778483
2.33093233153235,2.33101943781435,2.33157979785703,2.33151384444864,2.33239722908141,2.3322585445568,2.33295395721333,2.33000432924386,2.33537292371232,0.138455283964791,2.32924133458373,2.33115759071225,2.33179885048077,2.28072581086903,2.27916332773255,2.27893222926934,2.27798296856003,2.27824731704981,2.28293714345722,0.138455283964791,2.27772138440242,2.27812747240059,2.27876136161768,2.2785286224338,2.2783946584246,2.27885866194064,2.27897093559227,2.27916665375813,2.27926102534028,0.138455283964791,2.27985633669929,2.27925299633703,2.28117237160562,2.27970301898282,2.28035455438791,2.28001316956822,2.28109455879394,2.28127965233597,2.28167387648759,0.138455283964791,2.28215869973186,2.28189870109669,2.28269350212683,2.28276112588634,2.28391821567477,2.28468361909855,2.28666097140812,2.28674755679033,2.28859736831762,0.138455283964791,2.29025436527009,2.2906843044482,2.35201842497364,2.35163107099414,2.35219914323788,2.35236198594609,2.35447953830322,2.35503030515819,2.3557352954936,0.138455283964791,2.35592187190954,2.35671428488216,2.35440539163826,2.35522667736008,2.35584175989524,2.3552418087681,2.35531757668658,2.3552471274468,2.35551401575003,0.138455283964791,2.35580542590373,2.35591121867787,2.35644296264789,2.35677525766334,2.35685101247229,2.35670040625727,2.35755924399752,2.35742307805571,2.35627538033432,0.138455283964791,2.35605753639268,2.35546533986015,2.35376860206964,2.35464372564258,2.35457240303142,2.29371288751522,2.29182854890182,2.29140454124427,2.2897078587378,0.138455283964791,2.28992021456495,2.28908011380344,2.29002647742717,2.28874485182148,2.28893120100185,2.28894223988561,2.28941463217427,2.28876945261966,2.28904306053927,0.138455283964791,2.28909814137593,2.28974542598794,2.28986802579244,2.28898203069876,2.28859556183002,2.28901929720719,2.28902188254596,2.28934033978114,2.28923722222411,0.138455283964791,2.28991914264552,2.28986848693352,2.28975763548554,2.2903473675973,2.29025080656871,2.29062328140894,2.29059020802221,2.29103989886508,2.29096610753054,0.138455283964791,2.29108427677565,2.2914741582427,2.29212901811789,2.29200514631459,2.29266761227931,2.29357794278956,2.29369826836423,2.29400932087772,2.29397392611139,0.138455283964791,2.29456001569707,2.29481174348636,2.29566775317178,2.29613965714599,2.29694741560433,2.29785557364962,2.29875807256216,2.30324567363154,2.30273829005482,0.138455283964791,2.37126880097082,2.36852714521122,2.36819645556403,2.36808043775094,2.36853359622053,2.36892452777401,2.3698976793774,2.37115023859111,2.37191487116342,0.138455283964791,2.37139305103524,2.37200077974403,2.37178590590971,2.37196040670823,2.37245850169573,2.37274548960917,2.3739151696909,2.37332120270236,2.3735041783701,0.138455283964791,2.37449585413203,2.38054760353358,2.37515930222415,2.37653844334634,2.37805440218946,2.37932569076757,2.37970107543868,2.38275635772902,2.38279429784186,0.138455283964791,2.38401465406761,2.38451926333903,2.38681430092464,2.38714891783525
2.33064758787867,2.33118323742141,2.33073946174699,2.3312543424455,2.33151892099377,2.33238062443194,2.33284261419592,2.33016275700912,2.33018475594401,0.138501264622791,2.32858757026972,2.33229908081282,2.28045978496036,2.2799306417616,2.27932544184553,2.2786336979428,2.27812856437904,2.27823097506965,2.27784840654204,0.138501264622791,2.2774527419226,2.27768686679666,2.27809014089662,2.27834181952383,2.27845060050068,2.27861840177501,2.27867124413538,2.27882189406749,2.2791420129392,0.138501264622791,2.27922793522399,2.28012495786816,2.28014343019723,2.28030197678786,2.2796466922953,2.28038074840613,2.280882773242,2.28130522264255,2.28135709073738,0.138501264622791,2.28189760954163,2.28227352881454,2.28267454740321,2.28339833083034,2.28352550508319,2.28539106293009,2.28614439772613,2.28733412799518,2.2880351680531,0.138501264622791,2.29041096616967,2.35213908052814,2.35192220789521,2.35157736643395,2.35170974485847,2.35157752138822,2.35211106411348,2.3536563594279,2.35341277949554,0.138501264622791,2.35508938671555,2.3543016559418,2.3539028454732,2.35359758176823,2.3536257126931,2.35388189426487,2.35360232531308,2.35362265483674,2.35375276905372,0.138501264622791,2.35418446303985,2.35421943906507,2.35469018880429,2.35634339765005,2.35535063948591,2.35571400793903,2.35569449748252,2.3554955192444,2.35563386752358,0.138501264622791,2.35556130065621,2.35516221965192,2.35436869892021,2.35468864087963,2.35434896459463,2.29204230349304,2.29152516290839,2.29049170229261,2.2901243651762,0.138501264622791,2.2896453302044,2.28861362040719,2.28800916277702,2.28828977186821,2.28777494143455,2.28817098778649,2.28794585522879,2.2887829073999,2.28888586544537,0.138501264622791,2.28820320017735,2.28814912310644,2.28813526030978,2.28849532935681,2.28833529146406,2.28834081031497,2.28841201445488,2.28822059306505,2.28875102033267,0.138501264622791,2.28939523885344,2.28941869442144,2.28990159062609,2.2896515535687,2.29046313198545,2.28996317139015,2.29063819639962,2.29149533396844,2.29137311168965,0.138501264622791,2.29044695189604,2.29130455812724,2.29176715263573,2.29161044220714,2.29245247641803,2.29323189729268,2.29342949965916,2.29402719024528,2.29398203342604,0.138501264622791,2.29422796536494,2.29493274371524,2.2952977719372,2.29607215125022,2.29644441894257,2.29787662061773,2.30019597505123,2.30038382601567,2.30221897790134,0.138501264622791,2.36673725187219,2.36877884113505,2.36759021772717,2.36717193262692,2.36696756469063,2.3680422655075,2.36977946090202,2.37174881728457,2.36931534630402,0.138501264622791,2.37005333716908,2.37028355928189,2.37081902710543,2.37123758607151,2.37197931856688,2.37151839005556,2.3715304089632,2.37193181783461,2.37231985442591,0.138501264622791,2.37321754902154,2.37435551976325,2.37490086622268,2.37564905865425,2.37600659674003,2.37876849809074,2.37931259988887,2.37962993699624,2.38284246220866,0.138501264622791,2.38363710069541,2.38404316663466,2.38643447312936,2.38667008561598
2.32777702822998,2.32953597915713,2.33013448649188,2.33036949519692,2.33116585935006,2.33132575106128,2.33157599799884,2.33119027300247,2.33079024257525,0.138609060825924,2.3283401862772,2.32981315114398,2.28008316287499,2.28014076725787,2.27836398388968,2.27782331982413,2.27763285616556,2.27747980013255,2.27733101237702,0.138609060825924,2.2771025162298,2.27769691987665,2.27764902946344,2.27784071666277,2.27813548325934,2.2783631520689,2.27836183516771,2.27905634914058,2.2790085331405,0.138609060825924,2.27910550241793,2.27954447079647,2.2798901356793,2.27987774147428,2.28008476891654,2.27967511354457,2.28170882978006,2.28148237016662,2.281609585443,0.138609060825924,2.28180432019504,2.28285136892268,2.28324017200088,2.28328969915197,2.28463680358055,2.28531631256456,2.28649149683966,2.28753612481378,2.28919999880602,0.138609060825924,2.29069855093765,2.3524073159775,2.35194944723736,2.35119574565468,2.35122689883541,2.35208527633964,2.35218962656022,2.35248263746317,2.35375276154934,0.138609060825924,2.35433082358979,2.35315795681489,2.35311021424632,2.35299310823846,2.3529839696142,2.35278978794239,2.35333880159064,2.35362425896269,2.35318033913762,0.138609060825924,2.35363857743401,2.35350546888611,2.35383702174726,2.35404173295795,2.3546206792556,2.35475957715962,2.3556546034108,2.35584661697057,2.35524105157944,0.138609060825924,2.35502908621303,2.35483986998767,2.35568724182657,2.35558684432875,2.35412884328943,2.29110035059972,2.29057768597506,2.29059634374698,2.28999992778421,0.138609060825924,2.28980814483855,2.29025589943923,2.28901082548254,2.28752054950243,2.28783728431612,2.28771060787918,2.29111885032286,2.28814409260543,2.28830017016851,0.138609060825924,2.28845781545279,2.28806297978029,2.28786266550224,2.28860775832757,2.28856587125314,2.28871575074517,2.28813757144548,2.28845813359326,2.28923302468019,0.138609060825924,2.28910160619379,2.28944458124721,2.28941830429284,2.28934510748603,2.29018434956245,2.29426009795457,2.29056995760644,2.29093118970581,2.2903894307602,0.138609060825924,2.29054303905585,2.29088932060145,2.29125244179094,2.29123892084713,2.29278818215898,2.29312291052864,2.29338297547803,2.29429078531406,2.29382261474058,0.138609060825924,2.29455406654332,2.29503584220977,2.29527461621703,2.29568673068092,2.29638412214841,2.29713528509665,2.29777767577809,2.30003985121272,2.30151416219221,0.138609060825924,2.36824780142655,2.36593885094458,2.36601448930203,2.36646462967966,2.36611692549725,2.36775894354447,2.36811456886936,2.3685268907517,2.36874643279145,0.138609060825924,2.36938210498792,2.37008231238434,2.37034856586864,2.370658826842,2.37006013775496,2.37072159941045,2.37134371932879,2.37116613856276,2.37182022422379,0.138609060825924,2.37285443115295,2.37423877676296,2.37326484543286,2.37592598953522,2.37550025551027,2.37613076184046,2.37853173528262,2.38018212133187,2.38095015241243,0.138609060825924,2.38309405529953,2.38257313418861,2.38429972085235,2.38647011982917
2.32719020757378,2.32939646300832,2.32983520617095,2.33041346305212,2.33090181975257,2.33090797383566,2.33130471298106,2.33110969063505,2.33170262854769,0.138724494206934,2.33256628013913,2.28166846431612,2.27955110236514,2.280146449395,2.27796287380345,2.2777587707436,2.27743777110085,2.27755629959124,2.27743487255469,0.138724494206934,2.2776168589145,2.27766171381056,2.27772539241288,2.27756882573506,2.27786324397346,2.27832199718862,2.27857373738148,2.27905514961215,2.27860427755864,0.138724494206934,2.27915699542126,2.27963027495006,2.27999274329612,2.28032877764418,2.27982630225937,2.28003706851798,2.2813032768606,2.28170885053645,2.28134725467344,0.138724494206934,2.28197997095947,2.28238249298129,2.28296985602451,2.28364863545715,2.28429768804796,2.28663425494724,2.28675897603717,2.28833218156,2.2912386616015,0.138724494206934,2.2929007246088,2.35223994465954,2.35024827633403,2.35027535666444,2.35101401065559,2.35180766813706,2.3520362496785,2.35221987330018,2.35224964619049,0.138724494206934,2.3522676818042,2.35034196085041,2.35141393672561,2.35219257676454,2.35211840747771,2.3521452247663,2.35246785330516,2.35254570842475,2.35282852020553,0.138724494206934,2.35290422647309,2.35286480954474,2.35319099022048,2.35386922462933,2.35430329230824,2.35461040440683,2.35391271424041,2.35588161346476,2.35351101328717,0.138724494206934,2.35462618042548,2.35732684679336,2.35594444023314,2.35580452669416,2.29230555061387,2.29057131899449,2.29024575642779,2.29061427210438,2.28896219849252,0.138724494206934,2.28852082691266,2.28889148822941,2.28724116795534,2.2877546812272,2.28761105649166,2.28773966744213,2.28800427575265,2.28808701234664,2.28793332234617,0.138724494206934,2.28780270465711,2.28780446743124,2.28772296075189,2.28875591693859,2.28855335252354,2.28865157932948,2.28800029420659,2.28791712504856,2.2899396465437,0.138724494206934,2.28945654199818,2.28900902998684,2.28869241204904,2.28856455223633,2.28885521294751,2.28910729678884,2.29014798796814,2.28998458722192,2.29035466379615,0.138724494206934,2.29056264311659,2.29086694452133,2.29090090044737,2.2915177659852,2.29248570244716,2.29310687417754,2.29284344231256,2.29318075069825,2.29376953674553,0.138724494206934,2.29431365484969,2.29435108319193,2.29634276362618,2.29598439409302,2.29644301843568,2.29707268074629,2.29850952959411,2.29983714128791,2.30077765913761,0.138724494206934,2.3647393390147,2.3651408803583,2.36551417798543,2.36537910450316,2.36578552165455,2.3675950078388,2.36754862562274,2.36721676539559,2.36791482132702,0.138724494206934,2.3689482416948,2.36967153643973,2.36955334576947,2.36941406299223,2.36999329914041,2.37007967400418,2.3695968401275,2.36954018106662,2.37122345344487,0.138724494206934,2.37126470631369,2.37222291449964,2.37293022437965,2.37742819783821,2.37518208449906,2.3752028259043,2.37775095197891,2.37884778013165,2.38098964227292,0.138724494206934,2.38333037307163,2.38239189575303,2.38428531426581,2.38626851672606
0.138724494206934,0.138609060825924,0.138501264622791,0.138455283964791,0.138448511122109,0.138455283964791,0.138501264622791,0.138609060825924,0.138724494206934,0.138752615229823,0.138724494206934,0.138609060825924,0.138501264622791,0.138455283964791,0.138448511122109,0.138455283964791,0.138501264622791,0.138609060825924,0.138724494206934,0.138752615229823,0.138724494206934,0.138609060825924,0.138501264622791,0.138455283964791,0.138448511122109,0.138455283964791,0.138501264622791,0.138609060825924,0.138724494206934,0.138752615229823,0.138724494206934,0.138609060825924,0.138501264622791,0.138455283964791,0.138448511122109,0.138455283964791,0.138501264622791,0.138609060825924,0.138724494206934,0.138752615229823,0.138724494206934,0.138609060825924,0.138501264622791,0.138455283964791,0.138448511122109,0.138455283964791,0.138501264622791,0.138609060825924,0.138724494206934,0.138752615229823,0.138724494206934,0.138609060825924,0.138501264622791,0.138455283964791,0.138448511122109,0.138455283964791,0.138501264622791,0.138609060825924,0.138724494206934,0.138752615229823,0.138724494206934,0.138609060825924,0.138501264622791,0.138455283964791,0.138448511122109,0.138455283964791,0.138501264622791,0.138609060825924,0.138724494206934,0.138752615229823,0.138724494206934,0.138609060825924,0.138501264622791,0.138455283964791,0.138448511122109,0.138455283964791,0.138501264622791,0.138609060825924,0.138724494206934,0.138752615229823,0.138724494206934,0.138609060825924,0.138501264622791,0.138455283964791,0.138448511122109,0.138455283964791,0.138501264622791,0.138609060825924,0.138724494206934,0.138752615229823,0.138724494206934,0.138609060825924,0.138501264622791,0.138455283964791,0.138448511122109,0.138455283964791,0.138501264622791,0.138609060825924,0.138724494206934,0.138752615229823,0.138724494206934,0.138609060825924,0.138501264622791,0.138455283964791,0.138448511122109,0.138455283964791,0.138501264622791,0.138609060825924,0.138724494206934,0.138752615229823,0.138724494206934,0.138609060825924,0.138501264622791,0.138455283964791,0.138448511122109,0.138455283964791,0.138501264622791,0.138609060825924,0.138724494206934,0.138752615229823,0.138724494206934,0.138609060825924,0.138501264622791,0.138455283964791,0.138448511122109,0.138455283964791,0.138501264622791,0.138609060825924,0.138724494206934,0.138752615229823,0.138724494206934,0.138609060825924,0.138501264622791,0.138455283964791,0.138448511122109,0.138455283964791,0.138501264622791,0.138609060825924,0.138724494206934,0.138752615229823,0.138724494206934,0.138609060825924,0.138501264622791,0.138455283964791,0.138448511122109,0.138455283964791,0.138501264622791,0.138609060825924,0.138724494206934,0.138752615229823,0.138724494206934,0.138609060825924,0.138501264622791,0.138455283964791,0.138448511122109,0.138455283964791,0.138501264622791,0.138609060825924,0.138724494206934,0.138752615229823,0.138724494206934,0.138609060825924,0.138501264622791,0.138455283964791,0.138448511122109,0.138455283964791,0.138501264622791,0.138609060825924,0.138724494206934,0.138752615229823,0.138724494206934,0.138609060825924,0.138501264622791,0.138455283964791
2.32815916208753,2.32847486034705,2.32863519510348,2.32948476174043,2.33024227951627,2.33036478984189,2.33035094554558,2.33091262534796,2.33067265917194,0.138724494206934,2.33062596091876,2.33253278974133,2.28169739415537,2.27906488319936,2.27822306435935,2.27749685033779,2.27740262937246,2.27705401014595,2.2771524366909,0.138724494206934,2.27720050933537,2.2772813584455,2.27752268473503,2.27757473600262,2.27771163032387,2.27791997324783,2.27831875642486,2.27876290525251,2.27854775160265,0.138724494206934,2.27928920430811,2.27963873092522,2.27988659481938,2.28065742908904,2.28025581816599,2.28054290692683,2.28083214295113,2.28098716822667,2.28139379376731,0.138724494206934,2.2822147587396,2.28274683362625,2.28303435914765,2.28379140657505,2.28433219828514,2.28590318146867,2.28681627030371,2.28901668949294,2.34895525179296,0.138724494206934,2.34753391126311,2.3505269574091,2.34989344314006,2.35011330364608,2.35039671615266,2.35067794292367,2.35086807887564,2.3509383151707,2.35117677913411,0.138724494206934,2.35005581185355,2.35057281751718,2.35133714241816,2.35181945411232,2.35162962256819,2.35180853856424,2.35137833329748,2.35199938958664,2.35260530550037,0.138724494206934,2.3519783395893,2.35183367012369,2.35206037224229,2.35304058568597,2.35312850250234,2.35349142247152,2.35360255757655,2.35340600483364,2.3530390469013,0.138724494206934,2.35284994359976,2.35163423745153,2.35509903283762,2.29332430621927,2.29154107474844,2.2913410665235,2.28965779229629,2.2894910572533,2.28921988142542,0.138724494206934,2.28857451509396,2.28873796752216,2.28819405849912,2.28800915153974,2.2875453579467,2.28776496097322,2.2879825156966,2.2878448163995,2.28733946981012,0.138724494206934,2.28741375933677,2.28714459382717,2.28764528724783,2.28743097138233,2.28783038446725,2.28772608280633,2.28791207819726,2.28804391345645,2.28769292294982,0.138724494206934,2.28887932155977,2.2887601432425,2.28905132079642,2.28893850720689,2.28927864884228,2.28954582865784,2.28999166318138,2.28986003710337,2.29008948312905,0.138724494206934,2.2906449537481,2.29056651035698,2.29093149740164,2.29119195051401,2.29170470866526,2.29241812869328,2.29240822242063,2.29266749943433,2.2946229264049,0.138724494206934,2.29349137645841,2.29494106663672,2.29560948100318,2.29593760990435,2.29603593627153,2.29973473450369,2.29873421332808,2.30701745018616,2.30366159402994,0.138724494206934,2.36439722241214,2.36609686859431,2.36478765870002,2.36513969469268,2.36599062121745,2.36651889223356,2.36680633781658,2.36711841475205,2.36815552091613,0.138724494206934,2.36873807340966,2.36851160063693,2.36821676322242,2.36838408629115,2.36863979618993,2.36845595780821,2.36940265335847,2.37015452063889,2.37171494419456,0.138724494206934,2.37127161647993,2.3724971696279,2.37315028405743,2.37371989801184,2.3755942153309,2.37709161182359,2.37708082638932,2.37925174854367,2.37883634246367,0.138724494206934,2.3817254350506,2.38218591254707,2.3838064534915,2.38564627284827
2.32779041134007,2.32818521876988,2.32839636354405,2.3288585502614,2.32908497254129,2.32946056837911,2.32976085713703,2.33030206831144,2.33064329055949,0.138609060825924,2.33165647261586,2.33225924855892,2.27926920372144,2.27873445823968,2.27797858779489,2.2776657558374,2.27726865082197,2.27704140579075,2.27689657897459,0.138609060825924,2.27712609491897,2.27713907744904,2.27741310701733,2.27752018315088,2.27806592327061,2.27774671027517,2.27829510053178,2.27895301709241,2.27879104649303,0.138609060825924,2.27891783749825,2.27922399842274,2.27968939148391,2.27998592557138,2.280257985649,2.28061069633669,2.28129976032448,2.28117859399191,2.28132178825737,0.138609060825924,2.28193795076274,2.28251537322894,2.28514772066333,2.28402001166155,2.28412983996512,2.28536665836027,2.28817505263113,2.28882565015137,2.34660664710675,0.138609060825924,2.34718309708473,2.34855514945117,2.34916530208103,2.34979268757766,2.34996381507672,2.34963452783986,2.35141107752285,2.350384836499,2.35074277995273,0.138609060825924,2.35008096264526,2.35017918176704,2.35074038256063,2.35001231560006,2.35049230920984,2.35034804742903,2.35105989876112,2.35079284748977,2.3511491830325,0.138609060825924,2.3507654463188,2.35342553986073,2.3515312915182,2.35208608860972,2.35219685534184,2.35226918843656,2.35224975164317,2.35264555103492,2.35289253122556,0.138609060825924,2.35080827631081,2.3545987922772,2.35180047968391,2.35161568907104,2.29094481629108,2.29043459466044,2.28981003042503,2.29036409924895,2.2883312044542,0.138609060825924,2.28791899527168,2.28826731035443,2.28768397461291,2.28750076532102,2.28715380810264,2.28753316495264,2.2874911689654,2.2874137111998,2.2879280053245,0.138609060825924,2.28697063947486,2.28732139328778,2.28729400434956,2.28733091594178,2.28755246562811,2.28722338207878,2.28749044750439,2.28787485047641,2.2875920657625,0.138609060825924,2.28805266739741,2.28826986918468,2.28838748411984,2.28884350590978,2.28874959047177,2.28902808270467,2.28971512293878,2.28969074523829,2.28975638978028,0.138609060825924,2.29023381486916,2.29061073740241,2.29121411702267,2.29119034249963,2.29181747193648,2.29190696143352,2.29199370403185,2.29268723577068,2.29356448893924,0.138609060825924,2.29333432713886,2.29495797842908,2.29594530815025,2.29553757186842,2.29564684662172,2.29597858653063,2.29879799301468,2.29905188372029,2.30096054962475,0.138609060825924,2.36488303496134,2.36396834481025,2.36350284421827,2.36427616640032,2.36599762014336,2.36595254731298,2.36618250965694,2.36624360557649,2.36863689061316,0.138609060825924,2.36745097926495,2.36724976340894,2.36777864518186,2.36826238034092,2.36891737087323,2.36859128367985,2.36844290576495,2.36835187024072,2.368522235814,0.138609060825924,2.36947131107372,2.37324980482171,2.37236352833486,2.37308674085442,2.37360089589258,2.37407322568286,2.37441003357267,2.37587134319719,2.37834125953806,0.138609060825924,2.37896512452536,2.38234954305028,2.38414511765594,2.38496122051926
2.32738235912573,2.32744714320133,2.32810180098603,2.32836636442437,2.3288601242923,2.32874151840343,2.32909935186473,2.3294065947191,2.33014459826943,0.138501264622791,2.33107190149056,2.28067643723498,2.27943202479392,2.27872340288832,2.27772057844258,2.27730583762991,2.27703755049412,2.27694750991443,2.27685617458744,0.138501264622791,2.27666087741165,2.27701134020423,2.27728535059424,2.27757601467217,2.27784066411545,2.27794495491323,2.27811618838102,2.27864446929484,2.2786333068452,0.138501264622791,2.27886406948598,2.27940960471853,2.28016434372811,2.28053890466438,2.27963612386629,2.28025707119017,2.28061674809572,2.28117723305768,2.28109649991669,0.138501264622791,2.28202885988107,2.28261560725391,2.28313460837683,2.28410377781207,2.28418853847747,2.28727802735932,2.28745416639851,2.34727394128445,2.34691259464732,0.138501264622791,2.34675877947249,2.34791893594746,2.34897566569804,2.34979841037396,2.34943320392924,2.3495128115794,2.34756966373096,2.34864568046778,2.34870488500097,0.138501264622791,2.35021486561913,2.35014540840457,2.34900856268755,2.34944208120432,2.34899333932323,2.34988134633456,2.34920113808189,2.34990246783475,2.34936487330262,0.138501264622791,2.35047375343095,2.35109888975673,2.35172153627626,2.35131453171474,2.35130654006585,2.35141393559789,2.35138982769047,2.3533075281645,2.35024028285405,0.138501264622791,2.35166240926386,2.35119505274073,2.3498186366598,2.29199559541293,2.29017617621977,2.29013605185792,2.29006675138073,2.28769373906694,2.28781904306041,0.138501264622791,2.28774332120551,2.28746796893731,2.28716127146527,2.28714265498831,2.28695652552731,2.28741740464009,2.28782769969508,2.28694183048156,2.28693366073016,0.138501264622791,2.28708267906569,2.28682554985952,2.28729750364371,2.28730406905273,2.28723367555416,2.28724884664731,2.28733937912887,2.28762692298028,2.28766822616483,0.138501264622791,2.28811748721647,2.28808896558034,2.2873466769517,2.28891267520343,2.28798570558381,2.28908995197875,2.28963424083856,2.28930810436608,2.28955833923181,0.138501264622791,2.28920860849203,2.29017054610571,2.29032590262235,2.2921738010163,2.29216879208317,2.29260329714964,2.2920438555304,2.29224147266503,2.29472847216252,0.138501264622791,2.29374007522661,2.29281330710994,2.29511134503572,2.29515234180543,2.29478638834162,2.29534712889867,2.29687497274857,2.300036420512,2.30061293327549,0.138501264622791,2.36572035105302,2.36632721594406,2.36568791291403,2.36456921772008,2.36452812877742,2.36511319697957,2.36547449209415,2.36578581952755,2.36606170596067,0.138501264622791,2.36673653674028,2.36662939672591,2.36721455140793,2.36765977173043,2.36732632509131,2.36829079427567,2.36637978252493,2.36735974405773,2.36664918640868,0.138501264622791,2.36847486140442,2.37164071097244,2.36971229866516,2.37001412368591,2.37205398832681,2.37270766426131,2.37372178346658,2.37743296603632,2.37778146685824,0.138501264622791,2.37915615742625,2.38023292203345,2.38400133533909,2.38424087615646
2.32665893962911,2.32728213198075,2.32764232513247,2.32812063586107,2.32866805590987,2.32846265833553,2.32865522895037,2.329027284863,2.32984106476121,0.138455283964791,2.33363739866153,2.28019412881724,2.27996063740844,2.27809358868319,2.27736320696045,2.27684774864515,2.27740589420076,2.27689647794779,2.27673868168789,0.138455283964791,2.27663582107617,2.27685084283882,2.27735282859215,2.27752059393749,2.27801637113848,2.27784489710409,2.27780471355119,2.2783368055185,2.27863349796899,0.138455283964791,2.27897067902993,2.27871571180498,2.28034597057116,2.2804782919961,2.28024244661911,2.27956792526275,2.28045453227364,2.28070082398618,2.28130908120683,0.138455283964791,2.2820478458482,2.28332178297427,2.28332664666526,2.28392132268773,2.28523976160164,2.2871913696146,2.34829531013296,2.34769246068727,2.34671170831985,0.138455283964791,2.34730381623568,2.34737199971497,2.34953860122797,2.34914791871623,2.34931308473186,2.34836181720334,2.34821540086452,2.34835457430076,2.348345189915,0.138455283964791,2.34816430761813,2.34834675211222,2.34901608848354,2.34873564777806,2.34883437760342,2.34816022098832,2.34887122181555,2.34893786619074,2.3495566293781,0.138455283964791,2.35047000450067,2.35043390186729,2.35111015931615,2.35093193266509,2.35022726324751,2.35094341773244,2.35097028272558,2.35032873169479,2.35021610099981,0.138455283964791,2.35102196978195,2.35077306477155,2.34850896866611,2.29024607763133,2.29001927625643,2.28928911800613,2.28843671785124,2.28798153747239,2.28776405734769,0.138455283964791,2.28864301340772,2.28698265163399,2.28726926461367,2.28684873273268,2.28709503556324,2.28680820993105,2.28724346073601,2.28679096900028,2.28663316147274,0.138455283964791,2.28679125333721,2.28690743037418,2.28705513546764,2.28681593100645,2.28693545359519,2.2866098410542,2.28745297011857,2.28774996074005,2.28772773021744,0.138455283964791,2.28777726518412,2.28787197369896,2.28771181250182,2.28767393850362,2.28839451962953,2.28810951705605,2.29037857140835,2.2893894898117,2.28924813548077,0.138455283964791,2.2886445092183,2.28981049384421,2.29047108037482,2.29011756297279,2.2922260785294,2.29103220574495,2.29243727711204,2.29217885613122,2.29177875055613,0.138455283964791,2.29234135559808,2.29234617971538,2.29344409522675,2.29433916047574,2.29462343516046,2.29608825792307,2.29917273881994,2.30014871454866,2.30070060874286,0.138455283964791,2.36273947599322,2.36181267556187,2.36282535265828,2.36384501107778,2.36361729561567,2.36492475095177,2.36471927780366,2.36567257089254,2.36573341105577,0.138455283964791,2.36647420379795,2.36619536181963,2.36617056085052,2.36873945599953,2.36571458963467,2.36593111804101,2.36651657875086,2.36632591359303,2.36687889796259,0.138455283964791,2.36813762481025,2.37241588080398,2.36939527224152,2.36967861676492,2.37014604416383,2.37283901142027,2.373335081458,2.37777427073213,2.37727001079075,0.138455283964791,2.37965608941427,2.37972566147289,2.38015113385733,2.38292161784025
2.32597147022308,2.32619916708616,2.3270422588226,2.32740001030515,2.32794207373565,2.32795465941939,2.3279660593882,2.33105486540902,2.33194289573921,0.138448511122109,2.33248463548589,2.27969362272503,2.27901030639071,2.27804120255326,2.27709241956918,2.27753125631759,2.27834332073056,2.27778528313626,2.27673066162506,0.138448511122109,2.27676989255614,2.27690506245483,2.27702660053316,2.27747615752488,2.27774868674192,2.27796802089821,2.27787698441324,2.27816923055061,2.27867439174799,0.138448511122109,2.27905066901916,2.27944586382359,2.27918712980135,2.28206915615319,2.28021813355752,2.28108434821,2.28064123614609,2.28146833132672,2.28174946823674,0.138448511122109,2.28232616267722,2.2831283456142,2.28327853847854,2.28449849263422,2.28719647128058,2.28761466121508,2.34410645215485,2.34605419103536,2.34705359613438,0.138448511122109,2.34690531262488,2.34758494591673,2.34953424832377,2.34931156296816,2.34863423344337,2.34835446044383,2.3479079656035,2.34827377150167,2.34787322596295,0.138448511122109,2.3484243643913,2.34776260536293,2.34745586701475,2.3486418751608,2.34818775002512,2.34856843836366,2.34792077550252,2.34865003004141,2.34874183243129,0.138448511122109,2.34925344960316,2.34984229041185,2.35069758282784,2.3507289972094,2.3502128763206,2.349359804638,2.34872159648781,2.34885236183474,2.3496638365664,0.138448511122109,2.35098385058882,2.34727657510992,2.29155821590814,2.29039518185897,2.28965503289587,2.28908805333107,2.28834210140061,2.28768696850726,2.28746986451724,0.138448511122109,2.28688021363365,2.28673905057899,2.28668048820477,2.28670133931802,2.28659580876402,2.28678972438057,2.28660066416926,2.28673192602513,2.28658033765015,0.138448511122109,2.28675121300178,2.28659475639688,2.28677684832358,2.28692101520034,2.28648112205031,2.28693319108651,2.28713758291192,2.28759643660596,2.28749892604691,0.138448511122109,2.28780787987302,2.28724049550675,2.28675331915017,2.28764245713968,2.28728982214,2.28843708755534,2.2882041172047,2.2889047936271,2.28879549950831,0.138448511122109,2.28865631021277,2.29022710622106,2.28989157180249,2.29062455083621,2.290784627795,2.29173189377375,2.29129117703618,2.29218331769993,2.29128289394154,0.138448511122109,2.29215478092487,2.29251996256374,2.29290864991881,2.29280319480747,2.29513061829724,2.29583954847889,2.29963568582808,2.30205827535931,2.36320867534858,0.138448511122109,2.36252229378475,2.36187590499523,2.36200893039036,2.36215422133036,2.36410016078226,2.36404984775187,2.36491735711134,2.36509590568558,2.36569672249611,0.138448511122109,2.36568247810203,2.36561201979441,2.36586375373244,2.36631094604296,2.36531661222713,2.36523555035591,2.36539722829969,2.36637193637396,2.36737358290311,0.138448511122109,2.36760403591463,2.36799542330736,2.36776853388184,2.36906518022276,2.36977957364171,2.37159849019327,2.37311160035933,2.37514656957385,2.37727672494498,0.138448511122109,2.37671969161633,2.38057724750134,2.38101323104053,2.38115128794224
2.32736708373527,2.32617986692364,2.32641890240425,2.32667426991147,2.32700164086111,2.32674631567474,2.32837668839845,2.33184497069919,2.3314952096941,0.138455283964791,2.33216592794319,2.27896097313528,2.27820165380672,2.27725007593104,2.27757369024622,2.27727235411357,2.27965844351764,2.27692823909606,2.27665724738493,0.138455283964791,2.27678897462566,2.27721771833037,2.27720025143025,2.27768644965772,2.27755170521779,2.27755777467177,2.27814168609909,2.27798975521374,2.27818939535814,0.138455283964791,2.27899142389957,2.28007641109559,2.27949832442942,2.27955263301128,2.28039397998062,2.27988169357972,2.28052545073598,2.28104114908111,2.2817536809516,0.138455283964791,2.28263051580451,2.28322456735174,2.28368430545771,2.28708998994412,2.28727074955309,2.28835348424457,2.34343543243601,2.34694413724232,2.34685808195182,0.138455283964791,2.34615823461353,2.34640823969453,2.34938611977458,2.34925582249624,2.3487894501069,2.34767752970633,2.34755452890495,2.3468202041326,2.34713405105643,0.138455283964791,2.34618807687682,2.34600065045525,2.34669707065043,2.34648483349009,2.34760092974622,2.3468903419308,2.34755942674829,2.34766634437274,2.34813064106774,0.138455283964791,2.34909974036633,2.34910275875478,2.34919672844335,2.34954904441534,2.34712067373915,2.34710548509517,2.3484052794903,2.34848884762294,2.34654644093644,0.138455283964791,2.34760543290197,2.34858861752667,2.29224548514732,2.29028388383911,2.28875702221649,2.28849747167591,2.28780422357521,2.28772278334631,2.28707224884623,0.138455283964791,2.28673042344771,2.287108907549,2.28688334825223,2.28658537674986,2.28633249677104,2.28699152875821,2.28683534028746,2.28675219010223,2.28658891616105,0.138455283964791,2.28649810601553,2.28649728834619,2.29073775847792,2.28669629629675,2.28701552256047,2.28647194232809,2.28717919071317,2.28708646749538,2.28727116614373,0.138455283964791,2.28748196640245,2.28714634981397,2.28749084014849,2.28718652859613,2.28949871274405,2.28814111598379,2.28894668814115,2.28888013837056,2.28883518017536,0.138455283964791,2.28923295194766,2.28983716901352,2.29083035796558,2.28973282383455,2.2909703635821,2.29102538599821,2.2912530656702,2.29230672821192,2.29328778461285,0.138455283964791,2.29203664858228,2.29233442288301,2.29258225544761,2.29378617867392,2.29514053489241,2.29674075460071,2.29797361805214,2.29914201167544,2.3004238748293,0.138455283964791,2.36238278012486,2.36140270384514,2.36106846350639,2.3621835513707,2.36228177493866,2.36341120325339,2.36443433363509,2.36464506619783,2.36543388698403,0.138455283964791,2.36488357730678,2.36436050058089,2.36415931761464,2.36409504970315,2.36454690989915,2.36432377937231,2.36516239740914,2.36539698458182,2.37015024600004,0.138455283964791,2.36577541874076,2.36614267684134,2.36798820147189,2.36854660444832,2.36922101129022,2.36971156085698,2.37133068948308,2.37493778626069,2.37477882257953,0.138455283964791,2.37635143942233,2.37787790324939,2.38104115131583,2.38090298262532
2.32454317039093,2.32529565637119,2.32577828272463,2.32588943291345,2.32643179463587,2.32695577522532,2.32792304664309,2.32746942869988,2.32810314145893,0.138501264622791,2.28090705342874,2.27924351384133,2.27772393257751,2.27748888790941,2.27717327089882,2.27691938191515,2.27669004835498,2.27663829467866,2.27677813386836,0.138501264622791,2.27651156771064,2.2769556145886,2.27677118158567,2.27695599221578,2.2773194245537,2.27753514614667,2.27756998472566,2.27801852145543,2.27836337970819,0.138501264622791,2.27874586672624,2.27915454782344,2.27903977131256,2.2798462395738,2.28035083964748,2.28057187390277,2.28021441477878,2.28183540164059,2.28172520255128,0.138501264622791,2.28294529761939,2.2833096236388,2.28493703874921,2.28547313664367,2.28769151561888,2.29038792899084,2.3446017195358,2.34269415763238,2.3455007847118,0.138501264622791,2.34548826914107,2.34597504356434,2.34619605091666,2.34899394892713,2.3482131253135,2.3458220342509,2.34562488127134,2.34614066879787,2.34612474161367,0.138501264622791,2.34574529673612,2.34587301510589,2.34534025910162,2.34589064459081,2.34605567772211,2.34672307361753,2.34613930077217,2.34679381736276,2.34738714151001,0.138501264622791,2.34772386317298,2.34848215713127,2.34867914601811,2.34949701062235,2.34678143189659,2.34952654052444,2.34702728928039,2.34697105191528,2.34646631821154,0.138501264622791,2.34611839714358,2.34644702239015,2.29094403521006,2.29003713660962,2.2886575075039,2.28805793920283,2.28747207466775,2.28818735198252,2.28653959832664,0.138501264622791,2.28668012508389,2.28663927810915,2.28651770016764,2.28693866239781,2.28618575781672,2.28628086815832,2.28661944029976,2.28627427626635,2.2863588127141,0.138501264622791,2.28644336352138,2.28640806553507,2.2866224019613,2.28663091545479,2.28665678300437,2.28649626762588,2.28656800059961,2.28680347855805,2.28673090922844,0.138501264622791,2.28676829007754,2.28727295270159,2.28778220494784,2.28815119121064,2.28799946327242,2.28908751126035,2.28829631093279,2.28832437122202,2.28851152422056,0.138501264622791,2.28867679736434,2.28959436454021,2.2890450838867,2.28992513239092,2.28964425283582,2.29107529245112,2.29071895348303,2.29172261401447,2.29270423047831,0.138501264622791,2.29232853353117,2.29250619691741,2.29225441330409,2.29610789840101,2.29571866271613,2.29719895139625,2.29631020182052,2.29882171778915,2.30096451071166,0.138501264622791,2.36330602756679,2.35903430580131,2.36140587244829,2.36166171615007,2.3619402542835,2.36228405734555,2.36274166916423,2.36365812043909,2.36350145916829,0.138501264622791,2.36405515502126,2.3635937409846,2.36374210048354,2.36376953458436,2.36332282593542,2.36394138030775,2.36398095794225,2.36461844445248,2.36446146791218,0.138501264622791,2.36515228529921,2.36595004296368,2.36697405092388,2.36739386146511,2.36809310348146,2.36940494814152,2.37145610472051,2.37169151426543,2.37495404780808,0.138501264622791,2.37571171142647,2.37846598771832,2.37914553468591,2.37989255861372
2.32404212909883,2.32470085337747,2.32511341067544,2.32545143265238,2.32553356407689,2.32639027684682,2.32889054365598,2.32689773918942,2.32614378377879,0.138609060825924,2.28047047275759,2.27836250648945,2.27823786177143,2.2767418322415,2.27771767679413,2.276131261741,2.27624415133726,2.27647085002868,2.27633505411444,0.138609060825924,2.27667037783151,2.27681074485558,2.27701139033195,2.27681814631555,2.27709994279644,2.27728580152431,2.27766993437708,2.27793345649081,2.27828992193738,0.138609060825924,2.27869373819671,2.27874527246326,2.27878680361409,2.27930365462259,2.28014021845792,2.28020417921843,2.28045542888717,2.28105817024415,2.28186613712724,0.138609060825924,2.28286973820876,2.28319389417016,2.28478561920463,2.28576571327279,2.28811064136325,2.3396755200033,2.34211856545845,2.34293606244892,2.34343136959126,0.138609060825924,2.345230618297,2.34563121958642,2.34616323531655,2.34906206150995,2.34704368575238,2.3453726619269,2.34492049540946,2.34534053377005,2.34457461760511,0.138609060825924,2.34498555321196,2.34529866075352,2.34495811608199,2.34505555520159,2.34583852891135,2.34519516902616,2.34561788753949,2.34595592134206,2.34594777548984,0.138609060825924,2.34608629213437,2.34659051827892,2.34701461710191,2.34695632905664,2.34665989364369,2.34954113724479,2.34406195698924,2.34935527787508,2.34680075232096,0.138609060825924,2.3480124104664,2.29060986146583,2.2902551994167,2.28984813412038,2.28843770713699,2.28794950105525,2.28700861103335,2.28676062751204,2.28644365603639,0.138609060825924,2.28640852588161,2.28634805796681,2.28615922588522,2.28641037043514,2.28611227832916,2.28592062107479,2.28604566849145,2.2858275414886,2.28582914604145,0.138609060825924,2.28634996004415,2.2861396285336,2.28613811397591,2.28634217165134,2.28652653544558,2.28653077822617,2.28663038317633,2.28657573802085,2.28625564414559,0.138609060825924,2.28669211244601,2.28666610548671,2.28747766173558,2.28753070711561,2.28730038012266,2.28690525022054,2.28769101580185,2.28802226944007,2.28834473157668,0.138609060825924,2.28873451395405,2.28803639233155,2.28905397939848,2.28925559601292,2.28995074506809,2.29003748827685,2.29085861929319,2.2916071066735,2.29240084653776,0.138609060825924,2.29188740273658,2.29341364504578,2.29290847178059,2.29322887501014,2.2918838882251,2.29466295973604,2.29510457557489,2.30181402438996,2.3597429156142,0.138609060825924,2.35823970856148,2.35770916435393,2.36009001768425,2.3607388640239,2.36093737280683,2.36264377667479,2.36213535036444,2.36304074618212,2.36324618471618,0.138609060825924,2.36344929512566,2.36297872406056,2.36284051731043,2.363279606854,2.36357585202289,2.36424909784527,2.36388133445221,2.36387737539996,2.36420546079262,0.138609060825924,2.36499704044771,2.36626711667787,2.36686914032624,2.36749382121917,2.36808479405408,2.3687642505497,2.37097718465557,2.37518939194615,2.37492502956931,0.138609060825924,2.37622427274195,2.37768444613271,2.37907135019492,2.37970059884076
2.32360885460216,2.32425021175883,2.32504865779812,2.32531270483688,2.32555801811101,2.32599939183994,2.3260576454888,2.3279828728105,2.32863440933102,0.138724494206934,2.28023741153851,2.27871507871151,2.27772664921154,2.27673959809823,2.27698447956769,2.27645836687495,2.27621095323538,2.27625137922028,2.27637626423518,0.138724494206934,2.27660409165808,2.27670761538662,2.27661539973005,2.27688100606536,2.27740673065572,2.27743551146752,2.27771727179021,2.27810765492334,2.27821294731024,0.138724494206934,2.2786233766675,2.27852752172384,2.27883428802296,2.27919246401321,2.27975067620104,2.28036984598261,2.28099598324675,2.2807873309767,2.28176661769953,0.138724494206934,2.28295468098045,2.2836255701905,2.28417454094826,2.28622522943193,2.28797378542065,2.34188662858733,2.3416019358431,2.34183567848553,2.34211640126065,0.138724494206934,2.34518432236343,2.34532826959584,2.34588483642172,2.34011694006363,2.34537245726922,2.3450602625172,2.34482106979093,2.34511612753851,2.3447075336617,0.138724494206934,2.34445709184208,2.34440954861046,2.34455717330479,2.34502521819611,2.34646184955719,2.34620215015715,2.34477808822441,2.34532010288388,2.34558179463557,0.138724494206934,2.3457851445772,2.34591595455039,2.34620304816474,2.34639910284537,2.34629481043673,2.34594867704929,2.34401308108453,2.34456655428942,2.34534330183552,0.138724494206934,2.34438171341816,2.29093322901084,2.28936936103718,2.28945768753331,2.28724068822832,2.28806589430054,2.28668202895767,2.28678443646475,2.28635736868642,0.138724494206934,2.2866147648613,2.28598238353589,2.28622233313245,2.28678253610539,2.2857903680313,2.28620336960656,2.2857680079975,2.28582648133012,2.28594769197484,0.138724494206934,2.28635188107949,2.28636280822887,2.28596280819803,2.28619557037265,2.28661059509065,2.28632004820334,2.28546759248722,2.28580148355151,2.28588792066472,0.138724494206934,2.28652641909219,2.28676072783976,2.28701842377505,2.28741354727132,2.28674944530045,2.28713165800987,2.28753006843432,2.28820739991193,2.28818037629892,0.138724494206934,2.2867613212632,2.28856254157645,2.28902704611133,2.2898042421303,2.28987511722385,2.29028113102227,2.29025517899917,2.29384547647509,2.29040657920504,0.138724494206934,2.29168379370164,2.29266076420901,2.29303192954813,2.29371241904096,2.29417915910697,2.29346284154901,2.2951368614024,2.29876744967953,2.36014242682257,0.138724494206934,2.35829464447659,2.35827950696962,2.35829973455605,2.35988194975461,2.36086927938279,2.36183703609048,2.36159298738264,2.36166089946614,2.36177929053649,0.138724494206934,2.36204504813784,2.36226547009494,2.36229091836597,2.36271538578936,2.36314975444124,2.36204361908283,2.36281511761992,2.36323787204602,2.36297741137539,0.138724494206934,2.36352841966132,2.36374674406105,2.36677318389301,2.36589237297941,2.36682550689116,2.36852245722992,2.37057765433827,2.37163848294523,2.37570851690437,0.138724494206934,2.37467377916747,2.37580678400264,2.37758861001896,2.37803350241585
0.138724494206934,0.138609060825924,0.138501264622791,0.138455283964791,0.138448511122109,0.138455283964791,0.138501264622791,0.138609060825924,0.138724494206934,0.138752615229823,0.138724494206934,0.138609060825924,0.138501264622791,0.138455283964791,0.138448511122109,0.138455283964791,0.138501264622791,0.138609060825924,0.138724494206934,0.138752615229823,0.138724494206934,0.138609060825924,0.138501264622791,0.138455283964791,0.138448511122109,0.138455283964791,0.138501264622791,0.138609060825924,0.138724494206934,0.138752615229823,0.138724494206934,0.138609060825924,0.138501264622791,0.138455283964791,0.138448511122109,0.138455283964791,0.138501264622791,0.138609060825924,0.138724494206934,0.138752615229823,0.138724494206934,0.138609060825924,0.138501264622791,0.138455283964791,0.138448511122109,0.138455283964791,0.138501264622791,0.138609060825924,0.138724494206934,0.138752615229823,0.138724494206934,0.138609060825924,0.138501264622791,0.138455283964791,0.138448511122109,0.138455283964791,0.138501264622791,0.138609060825924,0.138724494206934,0.138752615229823,0.138724494206934,0.138609060825924,0.138501264622791,0.138455283964791,0.138448511122109,0.138455283964791,0.138501264622791,0.138609060825924,0.138724494206934,0.138752615229823,0.138724494206934,0.138609060825924,0.138501264622791,0.138455283964791,0.138448511122109,0.138455283964791,0.138501264622791,0.138609060825924,0.138724494206934,0.138752615229823,0.138724494206934,0.138609060825924,0.138501264622791,0.138455283964791,0.138448511122109,0.138455283964791,0.138501264622791,0.138609060825924,0.138724494206934,0.138752615229823,0.138724494206934,0.138609060825924,0.138501264622791,0.138455283964791,0.138448511122109,0.138455283964791,0.138501264622791,0.138609060825924,0.138724494206934,0.138752615229823,0.138724494206934,0.138609060825924,0.138501264622791,0.138455283964791,0.138448511122109,0.138455283964791,0.138501264622791,0.138609060825924,0.138724494206934,0.138752615229823,0.138724494206934,0.138609060825924,0.138501264622791,0.138455283964791,0.138448511122109,0.138455283964791,0.138501264622791,0.138609060825924,0.138724494206934,0.138752615229823,0.138724494206934,0.138609060825924,0.138501264622791,0.138455283964791,0.138448511122109,0.138455283964791,0.138501264622791,0.138609060825924,0.138724494206934,0.138752615229823,0.138724494206934,0.138609060825924,0.138501264622791,0.138455283964791,0.138448511122109,0.138455283964791,0.138501264622791,0.138609060825924,0.138724494206934,0.138752615229823,0.138724494206934,0.138609060825924,0.138501264622791,0.138455283964791,0.138448511122109,0.138455283964791,0.138501264622791,0.138609060825924,0.138724494206934,0.138752615229823,0.138724494206934,0.138609060825924,0.138501264622791,0.138455283964791,0.138448511122109,0.138455283964791,0.138501264622791,0.138609060825924,0.138724494206934,0.138752615229823,0.138724494206934,0.138609060825924,0.138501264622791,0.138455283964791,0.138448511122109,0.138455283964791,0.138501264622791,0.138609060825924,0.138724494206934,0.138752615229823,0.138724494206934,0.138609060825924,0.138501264622791,0.138455283964791
2.32400784465929,2.32472076096671,2.32435675206161,2.3247951629424,2.32534251979344,2.32572325903843,2.32569050719348,2.32586079083122,2.32708395448761,0.138724494206934,2.27923351945004,2.27807658850889,2.27701515543645,2.27710173504776,2.27730925021847,2.27645011504312,2.27634913435954,2.27631497444783,2.27626663597836,0.138724494206934,2.27644266213833,2.27651895741448,2.27703703979246,2.27688443540297,2.27744396908758,2.27780807836438,2.27767397046002,2.27750379388536,2.27832017608065,0.138724494206934,2.27880678865218,2.27877211666677,2.27904635270388,2.27949475937346,2.2798023831697,2.2804209616222,2.28090888552592,2.28141402815181,2.28206307663747,0.138724494206934,2.28315251903887,2.28377171201533,2.28616011667856,2.28729429642047,2.28883195102164,2.34040551933799,2.34187313766668,2.3421240865328,2.34336816505936,0.138724494206934,2.34581826522675,2.34519779178484,2.34581870672387,2.33998288665581,2.33946407051997,2.34365392409111,2.34401143956668,2.34509915551074,2.34286424148646,0.138724494206934,2.34317117070481,2.34327566657243,2.34366137494027,2.34584000751978,2.34354959064043,2.34379721805257,2.3452502659532,2.34474547096796,2.34494942535911,0.138724494206934,2.34551950690635,2.3456103392884,2.34870410788926,2.34707625676901,2.34506469016637,2.34508849818423,2.34547931925136,2.3453411226458,2.34481617215603,0.138724494206934,2.3469693633668,2.29025109948423,2.28874953055693,2.28820216263003,2.28886715354615,2.28753817305351,2.28704220708565,2.28588222327754,2.28599819713455,0.138724494206934,2.28584783880575,2.28635900797231,2.28633820236195,2.28620372789377,2.28538707024701,2.28538485590041,2.28558182701531,2.28558127461352,2.28571612699948,0.138724494206934,2.28534364942587,2.28545582511476,2.28581776093384,2.28574599264227,2.28594950295548,2.28613939826018,2.28557628706618,2.28585368332144,2.2858923836255,0.138724494206934,2.28602429722963,2.28674438185534,2.28684576495021,2.2899970667395,2.28711096948299,2.2878384772852,2.28756115539468,2.28784236205115,2.2881103420115,0.138724494206934,2.28853836207957,2.28892473603725,2.28904580310929,2.2897654690733,2.29006920378319,2.29014308350536,2.29020858722788,2.29040563587606,2.29058327976033,0.138724494206934,2.29168247160483,2.29203235212434,2.29234605364953,2.29288323444876,2.29344728859322,2.29492666048403,2.29484221826641,2.29514888203716,2.36220989732764,0.138724494206934,2.3591606606955,2.35897635432166,2.35820510250283,2.35996432720164,2.36073731790648,2.36123085981055,2.36153706664059,2.3618048843672,2.36214236865013,0.138724494206934,2.36181785476495,2.36197326285924,2.36209860996774,2.36164941019077,2.3613974647718,2.36220213739567,2.36185908171233,2.36267283212935,2.36253174089469,0.138724494206934,2.36447822781891,2.36405784052872,2.36432473474029,2.36493460269562,2.36916512558516,2.36928588294779,2.36945901346842,2.37148413533014,2.3729216232707,0.138724494206934,2.375434221692,2.37660682544664,2.37833984484436,2.37908224341233
2.32292237244691,2.32579066824505,2.32438808524422,2.32407893015892,2.32457543307025,2.32461810523458,2.32548643068997,2.32476894119575,2.32537394370819,0.138609060825924,2.27924026017659,2.27729868641173,2.27707607977342,2.27687797339981,2.27701961802585,2.27620091066084,2.27640012594596,2.27619415169583,2.27616026944535,0.138609060825924,2.27643435160179,2.27638687077893,2.27684697564982,2.27680336056591,2.2771089420481,2.27730871827443,2.27744739345016,2.27737784711267,2.27795686042847,0.138609060825924,2.27895312766697,2.27907126748248,2.2791715815092,2.27944980854533,2.28016206258098,2.28043095906023,2.28120400099763,2.28184409227731,2.2821322630597,0.138609060825924,2.28340877393797,2.28472885737957,2.28651070321071,2.33895459245533,2.33950348250763,2.33997773699154,2.34189051108197,2.34238221695582,2.34313524902116,0.138609060825924,2.34376720186048,2.34282343082199,2.34259096775588,2.33961985621681,2.33934279596242,2.34262573731722,2.3422669419449,2.34242732709813,2.34242307697172,0.138609060825924,2.34216388364506,2.34240659600935,2.34306737059442,2.34315613067654,2.34364655192481,2.3431190920974,2.34218028176572,2.34419139363232,2.34443752495165,0.138609060825924,2.34537387570166,2.34492292621597,2.34559827273719,2.34443010522315,2.3447863734342,2.34519371580857,2.34466670002762,2.3449675600421,2.34504956543636,0.138609060825924,2.34487029224202,2.29026383053891,2.28839202759853,2.288304539711,2.28784343468595,2.28745581967426,2.28660369393794,2.28630713839657,2.28637745651133,0.138609060825924,2.28585792866244,2.28555850096356,2.28553363813576,2.28570331573052,2.28548671595906,2.28552679251596,2.28588586816555,2.28574101619657,2.28533863756247,0.138609060825924,2.28493314962638,2.28502103454192,2.28559411084598,2.28533889782204,2.28710882352933,2.2859207556307,2.28549529396194,2.2854180439223,2.2855461078309,0.138609060825924,2.28646254014158,2.2861834550658,2.28619976721231,2.28635670125604,2.28686942044353,2.28710582804515,2.28696497529251,2.28712991986296,2.28743992080058,0.138609060825924,2.28862116945869,2.28821531930881,2.28906798952708,2.28930997541479,2.29027148651852,2.28962314726127,2.28997781976685,2.29036607823182,2.29096610144443,0.138609060825924,2.29138793526436,2.29224655236415,2.29298947614452,2.29295144629468,2.29326968568697,2.29379510728912,2.2958725106199,2.29674961028528,2.30039707415719,0.138609060825924,2.359185813712,2.35878224572203,2.35807778018682,2.3592806325033,2.36011591166318,2.36083960302815,2.36123977971725,2.36212303056791,2.36182225285046,0.138609060825924,2.36101633671444,2.36090954623545,2.36118286903521,2.36064346324451,2.3607883463646,2.36018286911396,2.36110820841134,2.36186559057268,2.36287164430453,0.138609060825924,2.36227131845573,2.36367911331829,2.36399184556058,2.36589675902226,2.36537607924624,2.36692256703866,2.36888190121165,2.37046294473945,2.37309407857465,0.138609060825924,2.37341764796227,2.37552504447319,2.37686586897093,2.37728917618634
2.32388828425846,2.32073176892097,2.32445504257144,2.3240433082322,2.32403386015229,2.32421101659172,2.32326475454731,2.32424670167698,2.32275247744138,0.138501264622791,2.27835221251386,2.27821621858443,2.27647718835603,2.27656076029794,2.27651165908792,2.27609730941024,2.27593678094078,2.27633332703487,2.27600931033906,0.138501264622791,2.27621615623516,2.27627269232347,2.27649820111528,2.27655297511149,2.27694608403008,2.27697335772934,2.27732963847521,2.27737435191156,2.27852408942334,0.138501264622791,2.27985469600269,2.27932446450256,2.27903290174355,2.27963368518082,2.27989319539067,2.28018109052242,2.28082471778467,2.28159072176959,2.28208316215165,0.138501264622791,2.2831882483764,2.28516601811961,2.28651448654433,2.33936453811533,2.3385663571732,2.3396139831501,2.34111525142152,2.34262939033015,2.34331818704022,0.138501264622791,2.34230584754755,2.34220762072358,2.34277715944924,2.34000406213238,2.33867498680085,2.33990941053951,2.34195531493854,2.34242820147431,2.34040690822646,0.138501264622791,2.34134322438253,2.34084526752911,2.34138899575646,2.34210404608626,2.34190132824701,2.34179956110291,2.3408549991739,2.34374007917768,2.34394068420211,0.138501264622791,2.34396770293894,2.343921646626,2.3433905922284,2.34365063500558,2.34418009093786,2.34495508178446,2.34473760259504,2.34498314241536,2.34476348633021,0.138501264622791,2.28981017417566,2.28941591688535,2.28847513317278,2.28729038624,2.28716027080287,2.28536903500597,2.28591753190438,2.28591769643915,2.28619283461859,0.138501264622791,2.2855844646081,2.2852919108513,2.28533180965225,2.28525439855948,2.28490286700083,2.2850117755753,2.28442858259651,2.28508943041643,2.28497351857339,0.138501264622791,2.28462982134214,2.28474021043119,2.28501462053191,2.28598502962258,2.2848942370206,2.28560093628596,2.28509991468216,2.28612631893568,2.28469882362511,0.138501264622791,2.2858720823676,2.28559339042281,2.28579134446159,2.28624482903878,2.28635756248763,2.2865482893956,2.2866192089261,2.28671793009821,2.28692930822886,0.138501264622791,2.28740825136958,2.28795987870149,2.28706356944493,2.28912121119665,2.28818472309559,2.28893359572558,2.28886599860521,2.28974092671487,2.29023329672308,0.138501264622791,2.29066033422377,2.2918387321576,2.29176025545212,2.29249114094095,2.29395556133822,2.29401070710515,2.29771167954729,2.2965110096438,2.29874617807662,0.138501264622791,2.35847422352946,2.35806272207918,2.3581657095735,2.35839017587928,2.36012377385867,2.36050316670745,2.36037996027479,2.36033130803727,2.36009883805936,0.138501264622791,2.36018450180908,2.36028643636728,2.36028425195875,2.36065743203547,2.35986130991515,2.3603346866665,2.36121295816862,2.36147460998022,2.36198401868542,0.138501264622791,2.36173329038494,2.36194033311292,2.36334795103993,2.36365352954954,2.36526614147797,2.36641916343678,2.36814822674378,2.37030860277711,2.37288782037429,0.138501264622791,2.37341715120548,2.37563091103872,2.37638233396641,2.377540122774
2.3227983668036,2.32510477235651,2.32462090154726,2.32367970434502,2.32415286841722,2.32470037974728,2.32521657959061,2.32496422926238,2.27888351166215,0.138455283964791,2.27837015073879,2.27708671703882,2.27657885890839,2.2754846050659,2.27658304611328,2.2755140767751,2.2760023898103,2.2762362317213,2.27622908168434,0.138455283964791,2.2762249674133,2.27619210281457,2.27639566584763,2.27631768939886,2.27669471953367,2.27677272386597,2.27751035584455,2.27738500429899,2.27761055498132,0.138455283964791,2.27843959549537,2.27871243451015,2.27843651162634,2.28011679426931,2.27993726246062,2.28014246033709,2.28054704465676,2.28176297424067,2.28238632417543,0.138455283964791,2.2838505602624,2.28505975539253,2.28712086108756,2.2892092087774,2.33811343705281,2.33932729968033,2.34041552886013,2.34215995786631,2.34176206351711,0.138455283964791,2.34189708515912,2.34181780762109,2.34369458262784,2.33966979731945,2.33920349803331,2.34117734105626,2.341441084295,2.34061956785438,2.33995413977815,0.138455283964791,2.34053112842964,2.34030546542313,2.34179205848331,2.34160488012315,2.34163546696558,2.34153470764198,2.34191713298326,2.34340567062182,2.34317032417338,0.138455283964791,2.34369301283072,2.34353464268515,2.34354068185873,2.34332029039784,2.34343344543318,2.34106104659245,2.34209452055248,2.3423751136734,2.34178265860129,0.138455283964791,2.28944468278695,2.28908779431937,2.2878000274987,2.28741775174226,2.28639176388719,2.28576546508483,2.28550166601305,2.28532693890091,2.2850427618988,0.138455283964791,2.28507046844928,2.28495073487439,2.28490276741613,2.28516745308069,2.28449613238012,2.28476534083601,2.28462396508192,2.28500432713169,2.28440564423578,0.138455283964791,2.2839617098838,2.2840137640259,2.28439577766131,2.28414127602926,2.28521208576561,2.28425628550137,2.28522081340086,2.28560266795206,2.28540897314301,0.138455283964791,2.2851942494703,2.28550918236563,2.28568002953477,2.2858626421944,2.28597642147469,2.28635638372952,2.28634059513411,2.28653106571191,2.28672355219649,0.138455283964791,2.28721777784547,2.28719255455179,2.28775388810307,2.28806471660801,2.28910079859064,2.28897459508678,2.2911800665123,2.28998326052611,2.29063192763527,0.138455283964791,2.29048067075025,2.29121406043714,2.29156973160458,2.29210870728138,2.29386036646315,2.29388643659561,2.29602615450689,2.29662876918164,2.30438064958337,0.138455283964791,2.35938481911416,2.35859680320607,2.35763234032152,2.35784544851436,2.35974764511005,2.36002622485075,2.35986492285749,2.36012084917054,2.36000132290188,0.138455283964791,2.35983559183786,2.35955814762234,2.36011069841335,2.35904487823537,2.3610686996858,2.35945345505665,2.35954006251721,2.35971544581177,2.36054621457618,0.138455283964791,2.36123842385675,2.36115757052573,2.36350296193385,2.36402816468144,2.36472715955477,2.36670595194471,2.36766076469821,2.37012983747917,2.37232082250964,0.138455283964791,2.37582985145286,2.37512436128703,2.37720395300194,2.37747037270563
2.32248368648603,2.32221480880543,2.32238539716198,2.32205891755308,2.32252062633816,2.3245403504623,2.32602845745661,2.32496916974813,2.27976909484071,0.138448511122109,2.27831351729134,2.27804945760268,2.27627474808001,2.27626521888175,2.27541778134319,2.27620982645456,2.27508822684622,2.27591655875691,2.27589416235866,0.138448511122109,2.2766380322644,2.27633414483956,2.27645494183117,2.27651842649121,2.27653307461229,2.27683809194167,2.27742945598553,2.27782837389438,2.27811807498408,0.138448511122109,2.27855624069157,2.27851421921452,2.27886423202716,2.27960186116449,2.27985470219839,2.28029577328014,2.28140836737833,2.2820919846647,2.28295432231434,0.138448511122109,2.28388669771583,2.28654842210981,2.2876456434959,2.33770564553084,2.33809983564597,2.3386127999555,2.33966162755935,2.34126629330941,2.34160462216331,0.138448511122109,2.34154665286799,2.3410954652456,2.34578088065869,2.34072558769984,2.33866811378849,2.34188995697224,2.3395789233897,2.33904517167856,2.3392819426999,0.138448511122109,2.34001717545011,2.33918893399633,2.34133731035328,2.34200370940882,2.34135776491595,2.34217427159719,2.34219603491493,2.34268617370215,2.34240510999174,0.138448511122109,2.34375342844078,2.34311696518459,2.34344922782845,2.34338081320758,2.34259903872699,2.34172388187136,2.33963714487085,2.34050719273788,2.34467695619348,0.138448511122109,2.2888171222516,2.28867025337859,2.28863355926257,2.28672618444106,2.29010007849567,2.28564783010385,2.28616553449083,2.28575900568191,2.28573594258219,0.138448511122109,2.28513253201179,2.28503164462961,2.28502589966266,2.284862924032,2.28480002982364,2.28450311081564,2.2847435382939,2.28490179842597,2.28470786462477,0.138448511122109,2.28446383362893,2.28440745656451,2.28350120463536,2.28527702745777,2.28456534896797,2.28472706006082,2.28458387926366,2.28575564082343,2.28548727451211,0.138448511122109,2.28510192156565,2.28510864291523,2.28543805411355,2.28596098368866,2.28602541352144,2.28641819846898,2.28623290563021,2.28663943565896,2.28677563028941,0.138448511122109,2.2872274427275,2.2875947711623,2.28816687843917,2.28876647763369,2.28825168068315,2.2893429607783,2.2890594644547,2.29090180272782,2.29037600141319,0.138448511122109,2.29061837561079,2.29154859252472,2.29224435361818,2.2923715873817,2.29303680741019,2.29376042067019,2.29589965572395,2.29611978229648,2.36263937149505,0.138448511122109,2.35661547693522,2.35654919684737,2.3576648971399,2.35766469612339,2.35813319086728,2.35899027026442,2.35928737275831,2.35970426261122,2.35952380488117,0.138448511122109,2.3586680162211,2.35956815123527,2.35891875891813,2.35996259362586,2.3597966252163,2.35990484759333,2.35944759922641,2.36020956241989,2.35949124530141,0.138448511122109,2.3601914754919,2.36060151570639,2.36151037317526,2.36346083939725,2.36464618925709,2.36662134293651,2.37019727173429,2.36999788647477,2.36998548881725,0.138448511122109,2.37098510807021,2.37501127469178,2.37476872722335,2.37595484651882
2.32169573255954,2.32229122033601,2.32271764169861,2.32263935808501,2.32242421837143,2.3241990388217,2.32586867522523,2.32573042949892,2.32186925317536,0.138455283964791,2.27832807736529,2.27707641436205,2.27746808005457,2.2755457968064,2.27557816483382,2.27493138739542,2.27529323288091,2.27541850207259,2.27628588458222,0.138455283964791,2.27664487666716,2.276512264203,2.27693806098169,2.27638806115603,2.27664830124791,2.27720741013049,2.27746637070703,2.27750635725154,2.27799052896637,0.138455283964791,2.27848107191623,2.27878830698327,2.27897539235047,2.2793213747085,2.27931834860114,2.28077692518461,2.28140729675165,2.2824503496119,2.28334940161157,0.138455283964791,2.28414702221928,2.28624994676484,2.33593663291053,2.33814225842118,2.3383128881106,2.3385475441928,2.3407544125773,2.34153291327639,2.34108068636115,0.138455283964791,2.33982074229916,2.33905732335838,2.3389142590772,2.33885158306845,2.33838406757688,2.33857711672811,2.33946997743387,2.33935181803571,2.33867885165579,0.138455283964791,2.33826592216282,2.33840568384496,2.34197645095949,2.33954845747358,2.33984416384679,2.34083132231234,2.34110151972565,2.34273685793819,2.34251006817889,0.138455283964791,2.34209902484857,2.3418859312548,2.34240632681094,2.34170779292611,2.34238557578539,2.34035849398632,2.34008438137965,2.34045917884067,2.29049518592389,0.138455283964791,2.28900540529314,2.28876237410404,2.28671952334121,2.28652226484628,2.28621881388041,2.28570759078112,2.28539638499997,2.28526413436337,2.28486927613437,0.138455283964791,2.28487779807064,2.28497468641144,2.28484674598913,2.28470496899774,2.28490159548995,2.28479206121739,2.28421640209883,2.28439043526321,2.28470525971964,0.138455283964791,2.28447649635278,2.28426444239386,2.28464341410868,2.28428010722002,2.28531603652196,2.28423748230894,2.28538308561264,2.28567998293985,2.28528001942364,0.138455283964791,2.28491214813606,2.28474614759845,2.28520960514484,2.2857410073562,2.28585405017153,2.28606773092096,2.28649088417038,2.28671694335033,2.28705970599145,0.138455283964791,2.2872568541665,2.28709157846604,2.2884557719132,2.28734141995294,2.28915493587691,2.28842997101566,2.28950942835214,2.28930075992761,2.29039706046587,0.138455283964791,2.29111985410078,2.29170271606747,2.29198108053462,2.29235602154823,2.29245417566203,2.29385380231266,2.2947622878015,2.29530272090925,2.35732587284503,0.138455283964791,2.35665412333418,2.35630593668037,2.35759469801532,2.35741537807277,2.35869890323821,2.3584205020271,2.35910175983215,2.36076277887199,2.35877841165179,0.138455283964791,2.35846086892212,2.35801740308961,2.35888384150244,2.35820895240782,2.35912620665366,2.35798085835046,2.35848559585569,2.35816697842261,2.35871212096884,0.138455283964791,2.35961892991156,2.36020015354994,2.36115848603275,2.36161699120227,2.36391812100645,2.3673629427607,2.36783832389487,2.37043013877165,2.36978517642626,0.138455283964791,2.37057290229982,2.37287523564313,2.3747112145485,2.37552749663057
2.32116342122596,2.32154715728988,2.32178759397454,2.32213877009107,2.32243284366666,2.32323352129633,2.32575886899435,2.32017133087999,2.2784776284887,0.138501264622791,2.27723974100664,2.27751996270185,2.27685908826368,2.27683334352682,2.27462373515251,2.27569024239991,2.27529841837976,2.27556782999149,2.27577675412234,0.138501264622791,2.27574457581194,2.27615838519004,2.27637084873558,2.27643733488676,2.27667564227671,2.27714174356663,2.2769653162294,2.27731840787431,2.27792450086067,0.138501264622791,2.27836292354562,2.27871801014338,2.27878292445932,2.27918922325085,2.27971340604069,2.28042580109746,2.28181257088664,2.28278385287801,2.28351804480821,0.138501264622791,2.28438463954337,2.28654895537899,2.33579976738293,2.3361190108998,2.33703283741081,2.33831730325483,2.33998333204215,2.33994543457398,2.34014587533541,0.138501264622791,2.34013201395177,2.3382980831502,2.33791126528165,2.33813369254019,2.33789453452772,2.33764873442498,2.33691822996318,2.33679384439571,2.33677438666219,0.138501264622791,2.33746106975938,2.3377771982806,2.33804311447094,2.33869987941115,2.3389749852408,2.34086271835392,2.33976960070339,2.34037762369264,2.34052626597281,0.138501264622791,2.34159572825635,2.34162749432851,2.34163991814329,2.34134665903786,2.34180507009822,2.34313432175344,2.33956567820775,2.34141287553365,2.28886279601081,0.138501264622791,2.28833391649028,2.28771649998784,2.2871274096846,2.28626521154023,2.28623084555805,2.28545551281764,2.28581247342859,2.28550270149935,2.28491369869076,0.138501264622791,2.28519057788315,2.28484353483919,2.28477775138852,2.28427453416266,2.28438847882271,2.28446461335309,2.28381745983802,2.28396106065135,2.28406838340289,0.138501264622791,2.28424413956942,2.28442266478796,2.28405721672813,2.28457636830007,2.28410128239119,2.28661376188664,2.28428486874911,2.28500125239819,2.28432152044231,0.138501264622791,2.28455374294631,2.28457657416594,2.28475303843619,2.28562010552179,2.28578036351532,2.28569690916556,2.28583991185724,2.28647513615644,2.28659574826803,0.138501264622791,2.28673852338745,2.28697657651924,2.2872194799149,2.28769705418994,2.28786118335725,2.2885038558257,2.28848066285744,2.2892868595694,2.28953401951243,0.138501264622791,2.29101441779509,2.29086572137109,2.2911746755023,2.29243622341308,2.29251962994593,2.29408219796275,2.29457937239424,2.29519087461342,2.3541797223742,0.138501264622791,2.35380293924542,2.35667577851948,2.35683600248443,2.35709160173678,2.35813666627165,2.35825720415736,2.35776053158557,2.35861107933119,2.35887139894555,0.138501264622791,2.35772236076235,2.35742539911557,2.35787697820971,2.3577982878237,2.35709627802108,2.35912126712065,2.35801457807516,2.35822360528985,2.35811421873196,0.138501264622791,2.35920225227238,2.35968088410615,2.36114576888723,2.36168025517912,2.36302589765685,2.36584459848732,2.36617572232485,2.36672672005306,2.36991956222616,0.138501264622791,2.37018609937661,2.37348922944655,2.37378104866747,2.37521566289869
2.32019174860076,2.32124646734859,2.32131129789752,2.32164815613626,2.3224731583055,2.32272811562053,2.32164093311575,2.28077950834982,2.27774126336647,0.138609060825924,2.27642345406672,2.27662183265006,2.27632904114533,2.27578517644971,2.27524142444662,2.27533068574276,2.27544724772068,2.27560811171475,2.27577295900498,0.138609060825924,2.27596391208832,2.27640884331597,2.27598767202845,2.27617200272944,2.27655528241062,2.27683034339266,2.27688084435252,2.277145048067,2.27765215440224,0.138609060825924,2.27765369510389,2.27863561076524,2.27929212341247,2.27960533383513,2.28001540861426,2.28075972114678,2.28149313992064,2.28228432629279,2.28404898625257,0.138609060825924,2.28710022513475,2.33534605590569,2.33612733232707,2.33627751313034,2.33752757389105,2.33828954679013,2.33927338204315,2.3396892033672,2.33985543223319,0.138609060825924,2.33967802805318,2.33777863834254,2.33769955754311,2.33711166235708,2.33695811380678,2.33670615026489,2.33673334051198,2.33629421787654,2.33604553927904,0.138609060825924,2.33668435828494,2.33745278752003,2.33773702344367,2.33821465026508,2.33835495228694,2.3387815904808,2.33922783260868,2.33944343318774,2.34013823169456,0.138609060825924,2.34081838833103,2.34112912271017,2.3406064215765,2.34057607626884,2.34086414215615,2.33896156419474,2.33961583955321,2.34209060457862,2.28817659826577,0.138609060825924,2.28782709441972,2.28745505986005,2.28685202925995,2.2862039260544,2.28514988171196,2.28517075405792,2.28451201038036,2.28548597025969,2.28490711522142,0.138609060825924,2.28459462051032,2.2845497957501,2.28446880999029,2.28480617663044,2.28433659569481,2.28461383452042,2.28460636374185,2.28430546962498,2.2842218229484,0.138609060825924,2.28431760851848,2.28487854875207,2.28482209175854,2.28391238537432,2.28437299587043,2.28450260458122,2.28473067372597,2.28454371938515,2.28397271388357,0.138609060825924,2.28459554750403,2.2845277936327,2.2851585411924,2.28546335135408,2.28548300836602,2.2853995122428,2.28554006596464,2.28608111739413,2.28652677914357,0.138609060825924,2.28682472171645,2.28690796419214,2.28736915811739,2.28732331238445,2.28827495287051,2.28816628276685,2.28878838211097,2.28870251571589,2.2903839438643,0.138609060825924,2.28922319892885,2.29142011685669,2.29161904171505,2.29199686160242,2.29346561977045,2.29419153524345,2.29451433248471,2.29515153231683,2.29802840006729,0.138609060825924,2.35440693711866,2.35643027499079,2.3570167050644,2.35630960747012,2.35783703872407,2.35734302986638,2.35737450024868,2.35799236590524,2.35847382188651,0.138609060825924,2.35758951894107,2.35686983200301,2.35757412613201,2.35705306551591,2.35761715479868,2.35734425961418,2.35766088203884,2.35856598887292,2.35857042139431,0.138609060825924,2.35832700300263,2.36142194941495,2.36031659589991,2.36057264742534,2.36249747572782,2.36926775330741,2.36721264817747,2.36696060157667,2.3677480901941,0.138609060825924,2.37043895733494,2.37156525498363,2.37315919129421,2.37472219277285
2.32032779477456,2.3207927886482,2.32119095000871,2.32161306106708,2.32252315733129,2.3233562104522,2.31959189463979,2.27806234447405,2.27724106886602,0.138724494206934,2.27629880720959,2.27506847074565,2.27492289892968,2.27558620190117,2.27519309997771,2.27514269747035,2.27517214977805,2.27511286072252,2.27570372165481,0.138724494206934,2.27636338050827,2.27607973545935,2.27628010255323,2.27635173159867,2.27684464658169,2.27715877869534,2.27706267541999,2.27737992984847,2.2778293012479,0.138724494206934,2.27837683794732,2.27842022366644,2.28011127757899,2.27982489643313,2.28016607385726,2.28076612236653,2.28143494986719,2.28339290063405,2.28470067895267,0.138724494206934,2.28629453579608,2.3356529832129,2.33555580078704,2.3368556418765,2.33737572746965,2.3378043936753,2.33916153126045,2.33837356993894,2.34011156032424,0.138724494206934,2.33889890659556,2.33854500073718,2.33593632711267,2.33647617140147,2.33721930088778,2.33518694981399,2.33542658208763,2.33557855002729,2.33583245894166,0.138724494206934,2.33579582504998,2.33714473334474,2.33735672181005,2.33815148618623,2.33817506350716,2.33842702114032,2.33911156701122,2.33931691947422,2.33982618427492,0.138724494206934,2.34013241061364,2.34067242307205,2.34019351820162,2.34043160873923,2.34044208676082,2.33962464422454,2.33927907806681,2.34147066002723,2.28857315892563,0.138724494206934,2.28770816205588,2.2871734654311,2.28664791408241,2.28652520104544,2.28505505025478,2.28467629358319,2.28482444353133,2.28498713656277,2.28550939807965,0.138724494206934,2.28451517913895,2.28429257806924,2.28427453901381,2.28473565400235,2.28469612495545,2.2841697607392,2.28397859570454,2.28405608227692,2.28415674950479,0.138724494206934,2.28416224113061,2.28458007377501,2.28371070442461,2.28376993095491,2.28370850264879,2.28425856878219,2.28422882104115,2.2841628215934,2.28425246933634,0.138724494206934,2.2844442464496,2.28417774912036,2.2849796354228,2.28515720075674,2.28490547201795,2.28498129572306,2.28550883971469,2.28580652695329,2.28666451634723,0.138724494206934,2.28755357543959,2.28705386844439,2.28730097643742,2.2874127659566,2.28919870808696,2.28879065738152,2.28832444247657,2.28904081100476,2.28964814436071,0.138724494206934,2.28940909430219,2.29225423096849,2.29158115912905,2.29240078744705,2.29342395709339,2.29331182319281,2.2975360873875,2.29648117661835,2.35729590946463,0.138724494206934,2.35512499972179,2.35391749647963,2.35569860384011,2.3556856220585,2.35600104209768,2.35713682201986,2.35769309638903,2.35738826993082,2.35679765126262,0.138724494206934,2.35735176252455,2.35675106165699,2.35657837676157,2.35673075950764,2.3568838561106,2.35689846323299,2.35627490936642,2.35677029035188,2.35947939688636,0.138724494206934,2.35835235269546,2.36010844131923,2.36027135062461,2.3604900179465,2.36281442163675,2.36461390681329,2.36599643175628,2.3678474486596,2.36804831402601,0.138724494206934,2.369794473052,2.37133392043468,2.37432273388743,2.3745435973916
0.138724494206934,0.138609060825924,0.138501264622791,0.138455283964791,0.138448511122109,0.138455283964791,0.138501264622791,0.138609060825924,0.138724494206934,0.138752615229823,0.138724494206934,0.138609060825924,0.138501264622791,0.138455283964791,0.138448511122109,0.138455283964791,0.138501264622791,0.138609060825924,0.138724494206934,0.138752615229823,0.138724494206934,0.138609060825924,0.138501264622791,0.138455283964791,0.138448511122109,0.138455283964791,0.138501264622791,0.138609060825924,0.138724494206934,0.138752615229823,0.138724494206934,0.138609060825924,0.138501264622791,0.138455283964791,0.138448511122109,0.138455283964791,0.138501264622791,0.138609060825924,0.138724494206934,0.138752615229823,0.138724494206934,0.138609060825924,0.138501264622791,0.138455283964791,0.138448511122109,0.138455283964791,0.138501264622791,0.138609060825924,0.138724494206934,0.138752615229823,0.138724494206934,0.138609060825924,0.138501264622791,0.138455283964791,0.138448511122109,0.138455283964791,0.138501264622791,0.138609060825924,0.138724494206934,0.138752615229823,0.138724494206934,0.138609060825924,0.138501264622791,0.138455283964791,0.138448511122109,0.138455283964791,0.138501264622791,0.138609060825924,0.138724494206934,0.138752615229823,0.138724494206934,0.138609060825924,0.138501264622791,0.138455283964791,0.138448511122109,0.138455283964791,0.138501264622791,0.138609060825924,0.138724494206934,0.138752615229823,0.138724494206934,0.138609060825924,0.138501264622791,0.138455283964791,0.138448511122109,0.138455283964791,0.138501264622791,0.138609060825924,0.138724494206934,0.138752615229823,0.138724494206934,0.138609060825924,0.138501264622791,0.138455283964791,0.138448511122109,0.138455283964791,0.138501264622791,0.138609060825924,0.138724494206934,0.138752615229823,0.138724494206934,0.138609060825924,0.138501264622791,0.138455283964791,0.138448511122109,0.138455283964791,0.138501264622791,0.138609060825924,0.138724494206934,0.138752615229823,0.138724494206934,0.138609060825924,0.138501264622791,0.138455283964791,0.138448511122109,0.138455283964791,0.138501264622791,0.138609060825924,0.138724494206934,0.138752615229823,0.138724494206934,0.138609060825924,0.138501264622791,0.138455283964791,0.138448511122109,0.138455283964791,0.138501264622791,0.138609060825924,0.138724494206934,0.138752615229823,0.138724494206934,0.138609060825924,0.138501264622791,0.138455283964791,0.138448511122109,0.138455283964791,0.138501264622791,0.138609060825924,0.138724494206934,0.138752615229823,0.138724494206934,0.138609060825924,0.138501264622791,0.138455283964791,0.138448511122109,0.138455283964791,0.138501264622791,0.138609060825924,0.138724494206934,0.138752615229823,0.138724494206934,0.138609060825924,0.138501264622791,0.138455283964791,0.138448511122109,0.138455283964791,0.138501264622791,0.138609060825924,0.138724494206934,0.138752615229823,0.138724494206934,0.138609060825924,0.138501264622791,0.138455283964791,0.138448511122109,0.138455283964791,0.138501264622791,0.138609060825924,0.138724494206934,0.138752615229823,0.138724494206934,0.138609060825924,0.138501264622791,0.138455283964791
2.32004705912322,2.3205311009967,2.32115465685297,2.32096271941417,2.32082154167457,2.31937402328291,2.32004757940869,2.27854170449438,2.27798737989657,0.138724494206934,2.27579914554989,2.27541418992575,2.27513089105687,2.27460276022756,2.27497889783056,2.27475358964317,2.27499519205656,2.27523079336987,2.27532733354749,0.138724494206934,2.2752916598027,2.27578444495648,2.27627704934538,2.2763022220741,2.27655095612754,2.27700895472868,2.27713279483608,2.27732204934948,2.27766064209057,0.138724494206934,2.27841148100858,2.27874915250607,2.27939793867201,2.28013085812624,2.28045160986081,2.28148423111358,2.28314604087729,2.28351368691321,2.28432509318711,0.138724494206934,2.28608303656481,2.33609155127336,2.3364612087337,2.33623491189779,2.33685348360253,2.33723405234475,2.33765370894575,2.33769215771782,2.33838837526476,0.138724494206934,2.33894871246235,2.33507694333963,2.33617478193941,2.33557793536685,2.33529577031491,2.3351182458056,2.33527033564404,2.33563939520973,2.33502267505107,0.138724494206934,2.33492768247759,2.33531507828926,2.33620581660461,2.33675216598728,2.33743496232763,2.33806256122471,2.33836048246681,2.33846258206118,2.33877991103812,0.138724494206934,2.33924711958187,2.33943795539312,2.34025191903333,2.340573458338,2.34121215144055,2.34069171342321,2.34303890696489,2.29011399546255,2.28874917809502,0.138724494206934,2.28704554678177,2.28667505595845,2.28608250610616,2.28562659890954,2.28469320859651,2.28460260084022,2.28440992024407,2.28439210166142,2.28506907133063,0.138724494206934,2.28428905935086,2.28432021513681,2.28445450212014,2.28458835213422,2.28453448661359,2.28401077709673,2.28412244928253,2.28396384067975,2.28394125005165,0.138724494206934,2.28371357223831,2.28341607608241,2.2835887308946,2.28350766396363,2.28354238030515,2.28448698758679,2.28410745181581,2.28382969262486,2.28363285205358,0.138724494206934,2.28386115229839,2.28417210924616,2.28430746386958,2.28426633172374,2.28447126180509,2.28513416276451,2.28574303956707,2.28639813085412,2.28629631221202,0.138724494206934,2.28626784131672,2.28659131053508,2.28725488391203,2.28759443662687,2.28732400862258,2.28744646374706,2.28793008504983,2.28872405549177,2.28913457365861,0.138724494206934,2.28997749961013,2.28950371303771,2.29014731657319,2.29065176344732,2.29277041571401,2.29348247397282,2.29416484801184,2.29527808487741,2.2996064870719,0.138724494206934,2.35576703054048,2.35353690984237,2.35567091729591,2.35566252687344,2.35656683687358,2.35620116191247,2.35648109945645,2.35631470950463,2.35657688285156,0.138724494206934,2.35692190465804,2.35655063140594,2.35614473828685,2.35600250572756,2.35604565235243,2.35610795573248,2.3560274826644,2.3563004675562,2.35730222051639,0.138724494206934,2.35850095780753,2.35814876974419,2.36073746452818,2.36020447433662,2.36216772860955,2.36474960606982,2.36454231775901,2.36802129906135,2.3676963402655,0.138724494206934,2.36896060076311,2.37092700500423,2.3727741272841,2.3728758884514
2.31941312846974,2.32025712902146,2.32108142369044,2.32086099444899,2.32126532306042,2.31865875387433,2.31963654714007,2.27776086152975,2.27805010222059,0.138609060825924,2.27903222870462,2.27542810320739,2.27497012753047,2.27458840761783,2.27454880287702,2.27463569509179,2.27502733426812,2.27491552763167,2.27498152702464,0.138609060825924,2.27528615849615,2.27590085761974,2.27624351820036,2.27640921911491,2.27645240615149,2.27685364695504,2.2773328229434,2.27755596001676,2.27753165273067,0.138609060825924,2.27825913887916,2.27810064659604,2.27948997398129,2.27920662529675,2.28062696843376,2.28149946152851,2.28337858950357,2.28368181052412,2.28459453067642,0.138609060825924,2.33524597514931,2.33495747377872,2.33479595667143,2.33589755194347,2.33632013466669,2.33645382806729,2.33599205108494,2.33688450591764,2.33599791623412,0.138609060825924,2.33581541182728,2.33445059085696,2.33475408643035,2.3347147705145,2.33481905409639,2.33479804798891,2.33506095267149,2.33502639304816,2.33439963874114,0.138609060825924,2.33430240280183,2.33480118125011,2.33518484775571,2.33612835013518,2.33650405549566,2.33853469802354,2.33818528878562,2.3384406584498,2.33861717986071,0.138609060825924,2.33872824543011,2.33882816930574,2.33942874718806,2.33993471601487,2.33944712044648,2.34110869333817,2.29124671887586,2.28781075834554,2.28820287160481,0.138609060825924,2.28701356920706,2.28640401632945,2.28589109166635,2.28512434125194,2.28521653370243,2.28443422920553,2.28453193096148,2.2843248026674,2.28454506146634,0.138609060825924,2.28445120089584,2.28390332493117,2.28397647732864,2.28451649844405,2.28399791860923,2.28362842201225,2.28384334437357,2.28381157204087,2.28367853107526,0.138609060825924,2.28352508033356,2.28364707744062,2.28360094362034,2.28342934035025,2.28349604410352,2.28391483627894,2.28422935335079,2.28368183671165,2.28367442147027,0.138609060825924,2.2838846067026,2.28389034584824,2.28447505608805,2.28435734298107,2.28433213571536,2.28439524105908,2.28560621728758,2.2856381321492,2.28583794529479,0.138609060825924,2.28643061628465,2.28629616619851,2.2868398915395,2.28770652670953,2.28748646059647,2.28748057307037,2.28758924649985,2.28808517852642,2.28867068860812,0.138609060825924,2.28932002945686,2.28972280816968,2.28998379222511,2.29145417044068,2.2917367534357,2.29304465640363,2.29455669202264,2.29496686015029,2.35536825535248,0.138609060825924,2.35568348686884,2.3561646078436,2.35529982035416,2.35537410600717,2.35571681553665,2.35590864003819,2.35652951884871,2.3560705431646,2.35602454362313,0.138609060825924,2.35629459643833,2.35639872351453,2.35580208928537,2.35589349252286,2.35573808631078,2.35608715695321,2.35583910755496,2.35614076101816,2.35671481117193,0.138609060825924,2.35750598398819,2.3577562769778,2.35822032184677,2.35984536866789,2.36405663743365,2.36491378140354,2.36501192770872,2.36571239782268,2.36685235455304,0.138609060825924,2.36860089380284,2.37091769435206,2.37257456649654,2.37298433420432
2.31903954997248,2.31967386388022,2.3193554711214,2.31885538372111,2.31861378846409,2.31829841381355,2.27892197320579,2.27840622429034,2.27598956020157,0.138501264622791,2.27554089382658,2.27506712553654,2.27500910965423,2.27484469091597,2.27478989003135,2.27441328431462,2.27469835008488,2.2748449876097,2.27501985772784,0.138501264622791,2.27515515959926,2.27568160977573,2.27615069648012,2.27625669504013,2.27641273944035,2.27735254794081,2.27773379233785,2.27792264607596,2.27767504821386,0.138501264622791,2.27843671576087,2.27843556290007,2.27877685575533,2.27958730517825,2.28008602253878,2.28161142832739,2.28312099799725,2.28404794342138,2.28425771579717,0.138501264622791,2.33319164988934,2.33438027687391,2.33474752602492,2.33490427254926,2.33550672855696,2.33488672284264,2.33543178271083,2.33445622588547,2.33393544856875,0.138501264622791,2.33423988744101,2.33393525320708,2.33350776504954,2.3329615337259,2.33298359312098,2.33302117859438,2.33275167133725,2.33284719118148,2.33318602881828,0.138501264622791,2.33350398882323,2.33375873406879,2.3348619558684,2.33522183309851,2.3363625491418,2.33597449537366,2.33771302320149,2.3380652160653,2.33822446906471,0.138501264622791,2.33817806069974,2.33806410863242,2.33859161594117,2.33767102012681,2.33719337550475,2.33983733019511,2.33696429644271,2.28828646147905,2.2878821148561,0.138501264622791,2.28679403619271,2.2862355401527,2.2856110416092,2.2853013950364,2.28432927688556,2.28419162205367,2.28354440505868,2.28427114897239,2.28377986618835,0.138501264622791,2.28406916003191,2.28398870912564,2.28386365572138,2.28355683960051,2.28371812955508,2.28392183288084,2.2838031741551,2.28388717777918,2.28330308812319,0.138501264622791,2.28306711101647,2.2833993922067,2.28357187995041,2.28373211002617,2.2837058828955,2.2834786084058,2.28337539001707,2.28352601491608,2.28377236844595,0.138501264622791,2.28331754975159,2.2834403092639,2.28393888294216,2.28466970353276,2.28436487467818,2.28509500391561,2.28482056862909,2.28562685334204,2.28563148665503,0.138501264622791,2.28580242314171,2.28592389277388,2.28636716938883,2.28704630094926,2.28691310219544,2.28730762725398,2.28764824366705,2.28789008024951,2.28796032190841,0.138501264622791,2.28967408261304,2.28969624790242,2.29034319701509,2.29156041005326,2.2919089889876,2.29266263539489,2.2939251033702,2.29514333059715,2.35123333940581,0.138501264622791,2.35180233432019,2.35459018627465,2.35503145984963,2.35474339348204,2.35527298354525,2.35552438568294,2.35517266066669,2.35545902159892,2.35526511342448,0.138501264622791,2.35627377145742,2.35586522726899,2.35552422762023,2.3556205191156,2.35584352455584,2.35565298827677,2.35568305271782,2.35576731517861,2.35653844628066,0.138501264622791,2.35659769048625,2.35723266326386,2.35761171063406,2.35941255637563,2.35986894829583,2.36353617078393,2.3642406866383,2.36634137525271,2.36772197482577,0.138501264622791,2.36862458091586,2.36968807397294,2.37127776053007,2.37149907751525
2.31895413579193,2.31932218487385,2.31946450035566,2.31925667142181,2.31822590627449,2.31859938371438,2.31885576702897,2.27858481939897,2.27566853141248,0.138455283964791,2.27560731842154,2.27563636173582,2.27504025780592,2.27467973151326,2.27456995154459,2.27458490012237,2.2745314045,2.27505109182375,2.27474578929357,0.138455283964791,2.2751835300098,2.27534387968103,2.27598802272551,2.27600011265447,2.2766586556925,2.27733001230994,2.27735389640539,2.27778279660057,2.27763617585717,0.138455283964791,2.2787106867848,2.27860894312557,2.2792320123384,2.27926066384861,2.28062627261116,2.28138914739313,2.28285634233808,2.28433976071095,2.33295113575079,0.138455283964791,2.33271728635522,2.33394863377518,2.33407149933085,2.33473728125879,2.33503385212763,2.33479443987599,2.33462363468838,2.33447933854279,2.33437436499002,0.138455283964791,2.33248525167466,2.33258686602411,2.33299846031728,2.33287897278855,2.33223879905571,2.33236926633147,2.33233323612371,2.33232866890229,2.33242263001998,0.138455283964791,2.33273889602402,2.3332717330347,2.33371800254115,2.33562190825508,2.33560817577886,2.3362774203977,2.33641611649485,2.33754498520602,2.337870400367,0.138455283964791,2.3378699495482,2.33798495820098,2.33807793819769,2.33771252866059,2.3358453060933,2.33597919766547,2.33692667861654,2.28746375654062,2.28708518699821,0.138455283964791,2.28643430398943,2.28613989634834,2.28566571002727,2.2844154106768,2.28492378617348,2.28360941424547,2.28380228814949,2.28395918001852,2.28403119852329,0.138455283964791,2.28353092719676,2.28351750835391,2.28325343710826,2.2832232374236,2.28344351838273,2.28405612537545,2.28377161502623,2.28324157377279,2.28320960416997,0.138455283964791,2.2830279388445,2.28314325142662,2.28358880823778,2.28378994130034,2.28336640286437,2.28339736518924,2.28294649476833,2.28323730774245,2.28340723602158,0.138455283964791,2.28329185197276,2.28335242677256,2.28407855130768,2.28342483813397,2.2849379357574,2.28463412013354,2.28707493513026,2.28691540592882,2.28609677772726,0.138455283964791,2.28571009389393,2.28577392192364,2.2864634772031,2.28689657650046,2.28699347323739,2.28701210610508,2.28717541685924,2.28783661148607,2.28768724376672,0.138455283964791,2.29161114812567,2.29074745515248,2.29089305587816,2.29126911337074,2.29153216997046,2.29283159446025,2.29457146347366,2.29591123290876,2.29801855184209,0.138455283964791,2.35608299774802,2.35548624696099,2.35536187483161,2.35514996282649,2.35529217069556,2.35568094669159,2.35504617314455,2.35556966991114,2.35504531108618,0.138455283964791,2.35426157720352,2.35407843122684,2.3534394617874,2.35339360458117,2.35287952428642,2.35365234745412,2.35540735776217,2.35582916724916,2.35577180959614,0.138455283964791,2.35603756449722,2.35629720305083,2.35751667293903,2.35919132055261,2.35966918756264,2.36275858998647,2.3649617487165,2.36533589048124,2.36756304116747,0.138455283964791,2.36876846581939,2.36940697088973,2.37140399450298,2.37152987578324
2.32100374180549,2.31965601229658,2.31926400026198,2.3195300665373,2.3203514641206,2.32173551667193,2.31589318228231,2.27705353935178,2.27665145668703,0.138448511122109,2.27530879510142,2.27485342933157,2.27469330677973,2.27423020674233,2.27457608552545,2.27446564465176,2.27443354059274,2.27456658211505,2.27449030416278,0.138448511122109,2.2753086206936,2.27525044537159,2.2756925846037,2.27609734938652,2.27642252531437,2.27698133064463,2.27752841991639,2.27798908580584,2.2776605930057,0.138448511122109,2.27916578096769,2.27877468794423,2.27910461477871,2.27999707173869,2.2805612435057,2.28234657514429,2.28242933313672,2.28474883855832,2.33233360772679,0.138448511122109,2.33307362188489,2.33334869858908,2.3342306358096,2.33409211752599,2.33677661721548,2.33374257963841,2.33368744848966,2.33342044742374,2.33427871697959,0.138448511122109,2.33279883704019,2.33234202362344,2.3323992124772,2.33182016771783,2.3318614507265,2.33163619247167,2.33153627832896,2.3318286196428,2.33216292169349,0.138448511122109,2.3324717066581,2.33267167474861,2.33364210852817,2.33363137242981,2.33531163435732,2.33497822641539,2.33624771657113,2.33668658134984,2.33743850234164,0.138448511122109,2.33731561243,2.33647740029304,2.33624896551607,2.33729451102864,2.33763939081792,2.33007922734638,2.28925217656305,2.28718799608451,2.2867822357263,0.138448511122109,2.28638792511447,2.28647075548968,2.28440020880255,2.28475177529174,2.28366997677579,2.28430458058211,2.28336928221025,2.28470519782517,2.28396275744608,0.138448511122109,2.28331770475467,2.28332208027686,2.28318840515879,2.28331375662787,2.28422044048733,2.28366084677619,2.28331260996364,2.28315282385574,2.28337022024664,0.138448511122109,2.28306990482617,2.28325189876513,2.28354722323942,2.28312110451177,2.28336695729228,2.28308931500041,2.28314946124422,2.28333905613789,2.28338925520007,0.138448511122109,2.2832722603595,2.28354885678155,2.28319279042977,2.28393876962169,2.28458101965771,2.28452912642237,2.2841627852624,2.2847453111389,2.28560161411425,0.138448511122109,2.28601967222173,2.28598912073376,2.28577873642979,2.28638490238214,2.28651013055067,2.2867276355245,2.28695653712286,2.28765021451141,2.28772922437726,0.138448511122109,2.29014874417776,2.29387121975224,2.29016634986342,2.29039186215886,2.29148723845901,2.29310823056523,2.29416696087625,2.29589235213265,2.35908372193758,0.138448511122109,2.35611815466132,2.35475491678835,2.35478284518044,2.35518922411205,2.35543253614299,2.35545293342078,2.35520849477831,2.35497434633829,2.35470030565255,0.138448511122109,2.35398167712789,2.35411781016844,2.35340953204275,2.35569440435267,2.3555082723212,2.3544526756084,2.35503439717019,2.35535597923862,2.35553552716815,0.138448511122109,2.3558952397725,2.35610954019589,2.35689286672401,2.35898519133874,2.35954379506519,2.36073643265124,2.36269336374284,2.36582845361253,2.36979765172248,0.138448511122109,2.36813241324895,2.36965224476691,2.37222602070978,2.3723321672876
2.31730503760108,2.31766902507861,2.31826480940678,2.31912921147531,2.32062302706569,2.32215910088717,2.31948239672654,2.27632800197737,2.27585325139083,0.138455283964791,2.27528922889919,2.27498151829492,2.27427147349286,2.27446357528746,2.27424623563706,2.27474941799105,2.27430034803999,2.27462567414129,2.27479548306125,0.138455283964791,2.27528551487819,2.27552337566046,2.27632709000417,2.27606734321961,2.27646893721685,2.27652393112586,2.27705297952758,2.27734544872104,2.27772526534236,0.138455283964791,2.27874787529597,2.27870797894241,2.2796543531927,2.28001577762115,2.28104481016414,2.28165468822576,2.28251794339676,2.28477291413937,2.33286325047037,0.138455283964791,2.33242511380475,2.33330197181599,2.33419812553404,2.33452092683768,2.33380095040251,2.33346142504916,2.33243942386993,2.3320973209626,2.33158879083336,0.138455283964791,2.33204191923036,2.33142984590482,2.33064989044305,2.33048897775583,2.33032814600245,2.33068050407316,2.33086501702321,2.3314064496774,2.33149713656986,0.138455283964791,2.33164196358606,2.33201959890147,2.33228413893527,2.33445150087282,2.33398320907332,2.33547161327074,2.33565605807838,2.33720088006727,2.33710630065312,0.138455283964791,2.33750094673672,2.33616900475637,2.33582194808013,2.33583300148585,2.33556428006181,2.33530940815423,2.28875927368183,2.2873533142549,2.28675617114305,0.138455283964791,2.28633573038677,2.28584082649413,2.28530874729883,2.2844639552014,2.28454399098574,2.28359435681934,2.28416976606894,2.28343849581445,2.28360158808151,0.138455283964791,2.28326665924899,2.28324569147803,2.28330221742776,2.28327950503879,2.28317364477749,2.2832473971809,2.28330256035053,2.28328560729487,2.28362181784311,0.138455283964791,2.28325402797881,2.28316921539063,2.28309721134457,2.28324056877097,2.28236173002103,2.28419043652976,2.28332299957163,2.28344011293169,2.28346729591967,0.138455283964791,2.28356240654573,2.28367477455759,2.28366101229533,2.28394907266484,2.2872421640152,2.28389895416021,2.28439454157371,2.28478784749943,2.28494358759582,0.138455283964791,2.28546791581895,2.28583540053635,2.285852878493,2.28604357321193,2.28675500588462,2.28680943584686,2.28725875614037,2.28765493645507,2.28816725310096,0.138455283964791,2.28872219127037,2.28939441104128,2.28964557969689,2.29058227078068,2.29110922626729,2.29423019031411,2.2941870279686,2.29725690615282,2.35137626340125,0.138455283964791,2.3538109218828,2.35405315299014,2.35458897300651,2.35465604673845,2.35447955563577,2.35485963083735,2.35507296772574,2.35453823901314,2.35394508864746,0.138455283964791,2.35363474422813,2.354250692712,2.35376985879549,2.35338760510859,2.35424122420361,2.35398725912856,2.35491156611779,2.3549214972629,2.35520446028562,0.138455283964791,2.35596650586984,2.3561744833673,2.35783367216251,2.3587137504986,2.3594002636132,2.36107547556873,2.36240884699577,2.36501632875611,2.36926453470943,0.138455283964791,2.36896330423256,2.36922362925635,2.37011835158975,2.37042538872929
