2.30426460130085,2.30554313903099,2.30669182527292,2.30765072857052,2.30911904924498,2.30993811247836,0,2.31009792969462,2.3112166502085,2.31184593049755,2.3118159647695,2.30568297909523,2.30652201948063,2.30872949478033,2.27413905603437,2.27344984428922,0,2.27334995852905,2.27158198057409,2.27211137510298,2.27134225474969,2.27166188918222,2.27162193487816,2.27250092956763,2.27171183206231,2.27280058684813,0,2.27252090671966,2.27261080390381,2.27274065539203,2.27298038121643,2.273319992801,2.2734398557132,2.27398922739412,2.27466845056326,2.27471839344334,0,2.27620669126984,2.27607683978162,2.27672609722271,2.27718557171948,2.27921325265087,2.28143071652659,2.28236964267216,2.32602970844132,2.32745807481171,0,2.32820721801297,2.32893638406219,2.32921606419066,2.33000516169598,2.32889642975812,2.3289463726382,2.32526058808803,2.3238721760217,2.32353256443713,0,2.32176458648217,2.32071578600041,2.32077571745651,2.31955711118247,2.31822863057225,2.3184983221247,2.31929740820604,2.31853827642876,2.31934735108612,0,2.31980682558289,2.31994666564712,2.32043610587194,2.32101544328092,2.32129512340938,2.32284335269198,2.32366241592535,2.32433165051847,2.32503085083964,0,2.32592982268115,2.32563016540065,2.32689871455477,2.32638929717792,2.32807736652475,2.32575002831285,2.32750801769179,2.28744383928867,2.28797323381755,0,2.2871042277041,2.28602546149429,2.28494669528448,2.28504658104465,2.28399778056289,2.28416758635518,2.28378802046654,2.28325862593765,2.28321867163359,0,2.28293899150512,2.28468699230805,2.2829889343852,2.28358824894621,2.2833485231218,2.28284909432097,2.28249949416038,2.28234966552013,2.28276918571283,0,2.2823296883681,2.28209995111971,2.28249949416038,2.28290902577707,2.28228973406403,2.28181028241523,2.28210993969573,2.28202004251158,2.28156056801481,0,2.28257940276852,2.28208996254369,2.28156056801481,2.28196011105548,2.28263933422462,2.28293899150512,2.282869071473,2.28266929995267,2.28302888868927,0,2.2830488658413,2.28319869448155,2.28364818040231,2.28321867163359,2.28360822609824,2.28419755208323,2.28470696946008,2.28473693518813,2.28628516447072,0,2.285256341141,2.28593556431014,2.28661478747928,2.28542614693328,2.28709423912808,2.2899709490209,2.29006084620505,2.28960137170828,2.29044041209369,0,2.34689584374028,2.34889355894363,2.34672603794799,2.34829424438262,2.34962272499285,2.3499523480014,2.34958277068878,2.35006222233758,2.34897346755176,0,2.34901342185583,2.35042181107419,2.34884361606354,2.34813442716635,2.34982249651318,2.34904338758388,2.34980251936115,2.35016210809775,2.35044178822622,0,2.35128082861163,2.3506715254746,2.35139070294781,2.35225970906127,2.35272917213405,2.35434732144876,2.35470691018537,2.35716409988548,2.36003082120229,0,2.35833276327944,2.35863242055994,2.35918179224086,2.3590219750246,2.35952140382543,2.35780336875055,2.35726398564565,2.35819292321521,2.30532339035862,0,2.30090843975923,2.29978971924535,2.29947008481282,2.29945010766078,2.29868098730749,2.29929029044451
2.30450432712525,2.30535335608667,2.30630227080826,2.30642213372046,2.30815015737136,2.31005797539056,0,2.3099081467503,2.31124661593655,2.31110677587231,2.31242526790652,2.30588275061556,2.30531340178261,2.30667184812088,2.27484824493156,2.27382941017785,0,2.27158198057409,2.27175178636637,2.27214134083103,2.27175178636637,2.27271068966398,2.27154202627002,2.27245098668754,2.27215132940704,2.27262079247983,0,2.27271068966398,2.27244099811153,2.27281057542415,2.27291046118431,2.27311023270465,2.273319992801,2.27451862192301,2.27453859907504,2.27497809641978,0,2.27567729674095,2.27634653133407,2.27768500052031,2.27750520615201,2.27924321837892,2.28014219022043,2.28215988257581,2.32598975413725,2.32656909154622,0,2.3279275378845,2.32874660111787,2.32944580143904,2.32832708092517,2.33010504745615,2.32815727513288,2.32450145631076,2.32444152485466,2.32403199323797,0,2.32295322702816,2.32115528334515,2.32152486065777,2.31957708833451,2.31888787658935,2.31904769380562,2.3184383906686,2.3189178423174,2.31977685985484,0,2.31976687127882,2.32020636862356,2.32031624295974,2.32095551182482,2.3214849063537,2.32219409525089,2.32304312421231,2.32489101077541,2.3253604738482,0,2.32586989122505,2.32669894303444,2.32701857746697,2.32821720658898,2.32703855461901,2.3263193771458,2.32608963989742,2.29035051490954,2.28749378216875,0,2.28735394210451,2.28600548434226,2.28508653534872,2.28504658104465,2.2847169580361,2.28374806616247,2.28343842030595,2.2826293456486,2.28488676382838,0,2.28350834033807,2.28267928852868,2.28264932280063,2.28338847742587,2.28327860308969,2.28247951700835,2.2825694141925,2.28275919713682,2.28248950558436,0,2.28216987115183,2.28345839745799,2.28211992827175,2.28276918571283,2.28213990542378,2.28197009963149,2.28266929995267,2.28197009963149,2.28169041950303,0,2.28270925425673,2.28230971121606,2.28279915144088,2.28173037380709,2.28184024814328,2.28174036238311,2.28227974548801,2.28321867163359,2.28360822609824,0,2.282869071473,2.28354829464214,2.28372808901044,2.28300891153723,2.28384795192264,2.28415759777916,2.28389789480272,2.28548607838939,2.28499663816456,0,2.28455714081983,2.28546610123735,2.28642500453496,2.28729401064841,2.2872840220724,2.28731398780045,2.2904504006697,2.29103972665469,2.34730537535697,0,2.3494728963526,2.34806450713424,2.347325352509,2.34894350182371,2.35002226803352,2.34939298774446,2.35017209667377,2.35040183392215,2.35022203955385,0,2.34968265644895,2.34982249651318,2.3528790007743,2.34845406159889,2.35021205097783,2.35134076006773,2.3501321423697,2.3501321423697,2.3498924165453,0,2.35071147977867,2.35110103424332,2.35228967478932,2.35193008605271,2.35372802973573,2.35385788122394,2.35439726432885,2.35761358580624,2.35808304887902,0,2.35875228347214,2.35866238628799,2.35961130100958,2.35887214638434,2.3596212895856,2.35778339159852,2.35768350583835,2.3050137445021,2.30233680612962,0,2.30030912519822,2.30042898811042,2.29823150138674,2.29782196977005,2.29915045038028,2.2970728265688
2.30482396155779,2.30571294482328,2.30669182527292,2.30758080853841,2.30877943766041,2.30977829526209,0,2.31056739276741,2.31069724425563,2.31124661593655,2.31125660451256,2.30515358456634,2.30499376735007,2.30655198520868,2.27369955868964,2.27216131798306,0,2.27214134083103,2.27181171782247,2.27138220905375,2.27156200342206,2.27175178636637,2.27182170639849,2.27163192345417,2.27242102095949,2.2728405411522,0,2.27250092956763,2.27240104380746,2.27265075820788,2.27297039264041,2.2732001298888,2.27410909030632,2.27401919312217,2.27491816496368,2.27464847341123,0,2.27566730816493,2.27605686262959,2.27701576592719,2.27741530896786,2.27916330977079,2.279882487244,2.28180029383921,2.3260796513214,2.32641926290597,0,2.32901629267032,2.32966555011141,2.32881652114999,2.32827713804508,2.32794751503653,2.32944580143904,2.3233327929168,2.32447149058271,2.32486104504736,0,2.32221407240292,2.32173462075412,2.32029626580771,2.32242383249927,2.31886789943732,2.31902771665359,2.31829855060436,2.31880796798122,2.31868810506902,0,2.31993667707111,2.31974689412679,2.32049603732805,2.32204426661064,2.32270351262774,2.32326287288468,2.32418182187822,2.32470122783109,2.3260796513214,0,2.3256601311287,2.32680881737062,2.328227195165,2.32764785775603,2.32825716089305,2.32724831471536,2.32697862316291,2.28940160018795,2.28755371362485,0,2.28748379359273,2.28674463896749,2.28569583848574,2.28517643253287,2.28468699230805,2.28414760920314,2.28386792907467,2.28313876302545,2.28093128772575,0,2.28124093358227,2.28303887726528,2.28312877444944,2.28321867163359,2.28339846600189,2.28343842030595,2.28299892296122,2.28246952843233,2.28281912859292,0,2.28204001966361,2.28222980260793,2.28239960840021,2.28205000823963,2.28270925425673,2.28212991684776,2.28219983687988,2.2822098254559,2.2827492085608,0,2.28225976833598,2.28173037380709,2.28242957412826,2.28185023671929,2.28210993969573,2.28260936849657,2.28203003108759,2.28228973406403,2.28307883156935,0,2.28294898008113,2.28245953985631,2.2835283174901,2.28412763205111,2.28504658104465,2.28469698088406,2.28400776913891,2.28492671813245,2.28426747211534,0,2.28502660389262,2.28509652392473,2.28713419343215,2.28683453615164,2.28866244556271,2.28923179439566,2.28968128031641,2.28978116607658,2.35112101139536,0,2.35076142265876,2.3495328278087,2.34761502121348,2.34851399305499,2.34888357036761,2.35003225660953,2.35076142265876,2.35060160544249,2.35091125129901,0,2.34992238227335,2.34871376457532,2.35185017744458,2.34986245081725,2.34987243939327,2.35006222233758,2.34988242796928,2.35027198243394,2.34981250793717,0,2.35090126272299,2.35028197100995,2.3529389322304,2.35284903504625,2.35396775556013,2.35501655604188,2.35571575636306,2.35712414558142,2.35793322023877,0,2.35930165515307,2.35905194075265,2.35881221492824,2.35881221492824,2.3594414952173,2.35691438548506,2.35841267188758,2.30364530958781,2.30124805134379,0,2.30050889671856,2.29883081594774,2.29831140999487,2.29899063316401,2.29741243815337,2.29764217540175
2.30475404152567,2.30458423573338,2.30535335608667,2.30523349317447,2.30822007740348,2.30947863798159,0,2.31093697008003,2.31110677587231,2.31084707289588,2.31164615897722,2.30487390443787,2.30524348175049,2.2752278108202,2.27333996995303,2.27235110092738,0,2.27193158073467,2.27118243753342,2.27189162643061,2.27196154646272,2.27246097526356,2.27303032409652,2.27221126086314,2.27179174067044,2.27262079247983,0,2.27282056400016,2.27272067824,2.27330001564897,2.27347981001727,2.27374950156972,2.27335994710507,2.27380943302582,2.27438877043479,2.27497809641978,0,2.27518785651613,2.27598694259747,2.27663620003856,2.27825434935327,2.27914333261876,2.28076148193347,2.2825094827364,2.32728826901943,2.32884648687804,0,2.32955567577522,2.32764785775603,2.32879654399795,2.32830710377313,2.32912616700651,2.32672890876249,2.32478113643923,2.32467126210304,2.32422177618229,0,2.32179455221022,2.32231395816309,2.32014643716746,2.32111532904108,2.32059592308821,2.3193373625101,2.31880796798122,2.32048604875203,2.31907765953367,0,2.32051601448008,2.32034620868779,2.32091555752075,2.32331281576476,2.32342269010095,2.32330282718875,2.32463130779897,2.32485105647134,2.32508079371973,0,2.32728826901943,2.32677885164257,2.32771777778815,2.32751800626781,2.32773775494018,2.32795750361255,2.32373233595747,2.2877035422651,2.28678459327156,0,2.28654486744716,2.28667471893538,2.28662477605529,2.28548607838939,2.28577574709387,2.28532626117312,2.28403773486696,2.27899350397851,2.27822438362522,0,2.27896353825046,2.28161051089489,2.28266929995267,2.2830488658413,2.28450719793974,2.28229972264005,2.2826293456486,2.28361821467426,2.28354829464214,0,2.28290902577707,2.2825694141925,2.28315874017749,2.28264932280063,2.28203003108759,2.28189019102336,2.2831087972974,2.28228973406403,2.28236964267216,0,2.28265931137665,2.28253944846445,2.28251947131241,2.28234966552013,2.28247951700835,2.28253944846445,2.28218984830386,2.28325862593765,2.28375805473849,0,2.28396781483484,2.28377803189052,2.28509652392473,2.28385794049866,2.2847169580361,2.28482683237228,2.28449720936373,2.28485679810033,2.28512648965278,0,2.28470696946008,2.28637506165487,2.28681455899961,2.2871042277041,2.28811307388179,2.28891215996313,2.28875234274686,2.29169897267179,2.35069150262664,0,2.3496526907209,2.34911330761599,2.34886359321558,2.34926313625625,2.34918322764811,2.35089127414697,2.35073145693071,2.34897346755176,2.35034190246605,0,2.34891353609566,2.34846405017491,2.35169036022831,2.35062158259452,2.34986245081725,2.34981250793717,2.35078139981079,2.34967266787293,2.34991239369733,0,2.35041182249817,2.35102112563519,2.35183020029255,2.35594549361144,2.35476684164147,2.35548601911467,2.35682448830091,2.35706421412532,2.35918179224086,0,2.36006078693034,2.35839269473554,2.3589620435685,2.35853253479978,2.3595014266734,2.35907191790468,2.35660473962855,2.30356540097968,2.30120809703973,0,2.29929029044451,2.29938018762867,2.29849120436318,2.2990405760441,2.2973724838493,2.29802174129039
2.30438446421305,2.30497379019804,2.30544325327082,2.30583280773548,2.30661191666478,2.30914901497303,0,2.31070723283164,2.31112675302435,2.31186590764958,2.31261505085084,2.31184593049755,2.30649205375258,2.27428888467462,2.27346982144125,2.273919307362,0,2.27171183206231,2.27174179779036,2.27194156931069,2.27116246038139,2.2727806096961,2.27189162643061,2.27211137510298,2.27198152361476,2.2728405411522,0,2.27263078105585,2.2726607467839,2.27300035836846,2.27347981001727,2.27339990140913,2.27345983286523,2.27375949014574,2.27405914742624,2.27561736528485,0,2.27520783366816,2.27595697686942,2.27659624573449,2.27792472634472,2.28015217879645,2.28098123060584,2.28249949416038,2.32766783490806,2.32982536732768,0,2.33069437344113,2.33195293401924,2.33095407641757,2.33207279693144,2.3281073322528,2.32764785775603,2.32497091938354,2.32350259870908,2.32336275864485,0,2.32221407240292,2.32027628865568,2.3209455232488,2.31960705406256,2.31977685985484,2.31948719115036,2.31991669991907,2.31910762526172,2.31931738535807,0,2.31966698551866,2.32095551182482,2.32122520337727,2.32162474641794,2.32246378680334,2.32328285003671,2.32460134207092,2.32501087368761,2.32608963989742,0,2.32646920578605,2.32723832613934,2.32821720658898,2.32808735510076,2.3286467153577,2.32977542444759,2.33009505888013,2.28813305103382,2.2878234051773,0,2.28769355368908,2.28773350799315,2.28586564427802,2.28493670670846,2.28429743784339,2.28437734645153,2.27777489770446,2.27745526327193,2.27783482916057,0,2.27752518330405,2.28206998539166,2.28278916286487,2.28372808901044,2.28389789480272,2.28353830606612,2.2827492085608,2.28324863736164,2.28324863736164,0,2.28357826037019,2.2827492085608,2.28260936849657,2.28213990542378,2.2823296883681,2.28230971121606,2.28247951700835,2.28236964267216,2.28290902577707,0,2.28213990542378,2.28231969979208,2.28261935707258,2.28203003108759,2.28246952843233,2.282869071473,2.2822098254559,2.28339846600189,2.28378802046654,0,2.28343842030595,2.28301890011325,2.28330856881774,2.28446724363568,2.28397780341086,2.28423750638729,2.28540616978125,2.28527631829303,2.28568584990972,0,2.28598550719022,2.28658482175123,2.28680457042359,2.28853259407449,2.28783339375332,2.28874235417084,2.29050034354979,2.34964270214488,2.34898345612778,0,2.34851399305499,2.3481643928944,2.34742523826917,2.34838414156677,2.34891353609566,2.34884361606354,2.34950286208065,2.34968265644895,2.34950286208065,0,2.34951285065666,2.35069150262664,2.3500122794575,2.34982249651318,2.35022203955385,2.34982249651318,2.34982249651318,2.35236958339745,2.34999230230547,0,2.35009218806563,2.35112101139536,2.35260930922185,2.35262928637388,2.35701427124523,2.35918179224086,2.35754366577412,2.35737385998183,2.35811301460707,0,2.35923173512095,2.35856250052783,2.35948144952137,2.35892208926443,2.35856250052783,2.35900199787256,2.30370524104391,2.30186734305683,2.30041899953441,0,2.29909051892418,2.29930027902053,2.29802174129039,2.29806169559446,2.29843127290708,2.29789188980217
2.30369525246789,2.30402487547645,2.30272636059427,2.30449433854923,2.30672179100097,2.30928885503727,0,2.31076716428774,2.31113674160036,2.31174604473738,2.31239530217847,2.31302458246753,2.31086705004791,2.27463848483521,2.27473837059538,2.27289048403228,0,2.27277062112008,2.27086280310088,2.27125235756554,2.27119242610944,2.27267073535991,2.2727806096961,2.2709926545891,2.27220127228713,2.27222124943916,0,2.27178175209442,2.2732600613449,2.27306028982457,2.27295041548838,2.27323009561685,2.27351976432134,2.2737395129937,2.27473837059538,2.27642643994221,0,2.27581713680518,2.27701576592719,2.27746525184795,2.27849407517767,2.27959281853951,2.2809013219977,2.28186022529531,2.32954568719921,2.33046463619275,0,2.32979540159963,2.330614464833,2.33034477328055,2.32784762927636,2.32748804053976,2.32680881737062,2.32503085083964,2.32451144488677,2.32396207320585,0,2.32181452936225,2.32193439227446,2.32519066805591,2.32039615156788,2.32038616299186,2.32104540900897,2.31996664279916,2.31869809364503,2.31955711118247,0,2.31983679131094,2.3211253176171,2.3215448378098,2.32264358117164,2.32287331842003,2.32352257586112,2.32486104504736,2.32621949138563,2.3260197198653,0,2.3260796513214,2.32636932002589,2.32708849749909,2.3279275378845,2.32836703522923,2.32767782348408,2.32403199323797,2.28789332520942,2.28759366792892,0,2.28733396495248,2.28684452472766,2.28660479890326,2.28469698088406,2.28542614693328,2.28572580421379,2.27692586874304,2.27644641709424,2.27613677123772,0,2.27580714822917,2.28058168756517,2.28230971121606,2.28296895723317,2.2832885916657,2.28305885441732,2.28330856881774,2.28260936849657,2.28336850027384,0,2.28276918571283,2.28294898008113,2.28229972264005,2.28225976833598,2.28235965409615,2.28184024814328,2.2823896198242,2.28213990542378,2.2824495512803,0,2.28295896865715,2.28208996254369,2.28234966552013,2.28281912859292,2.28227974548801,2.28249949416038,2.28249949416038,2.28299892296122,2.28371810043442,0,2.28468699230805,2.28353830606612,2.28364818040231,2.28396781483484,2.28490674098041,2.28412763205111,2.2851364782288,2.28529629544507,2.2853762040532,0,2.28542614693328,2.28717414773621,2.28713419343215,2.28823293679399,2.29038048063759,2.28971124604446,2.29071010364614,2.34821433577449,2.34776484985373,0,2.34693579804435,2.34685588943621,2.3470856266846,2.34775486127772,2.34761502121348,2.34843408444686,2.34846405017491,2.34939298774446,2.35094121702706,0,2.35106107993926,2.35098117133112,2.35051170825834,2.35060160544249,2.34876370745541,2.34962272499285,2.34908334188794,2.34948288492861,2.34991239369733,0,2.34967266787293,2.35426741284063,2.35399772128818,2.35519635041019,2.35805308315097,2.35618521943584,2.35679452257286,2.35842266046359,2.35893207784045,0,2.35931164372908,2.35907191790468,2.35907191790468,2.35913184936078,2.36002083262627,2.35533619047442,2.30240672616174,2.30107824555151,2.29991957073357,0,2.29774206116192,2.29819154708267,2.29838133002699,2.29812162705056,2.29818155850666,2.29914046180426
2.30518355029439,2.30451431570127,2.30454428142932,2.30491385874194,2.3120556905939,2.31116670732841,0,2.3110368558402,2.31144638745688,2.31202572486585,2.31237532502644,2.3118758962256,2.27568728531697,2.27287050688025,2.27241103238348,2.27285052972821,0,2.27220127228713,2.27186166070256,2.27154202627002,2.27333996995303,2.27204145507086,2.27189162643061,2.27171183206231,2.27295041548838,2.27179174067044,0,2.27236108950339,2.27208140937493,2.27287050688025,2.27299036979245,2.27306028982457,2.273319992801,2.27486822208359,2.27442872473886,2.27530771942833,0,2.27556742240477,2.27685594871093,2.27675606295076,2.27837421226547,2.27938305844316,2.28083140196559,2.28293899150512,2.33059448768097,2.33081423635333,0,2.33102399644968,2.33065441913707,2.32986532163174,2.32948575574311,2.32853684102152,2.32758792629993,2.32558022252056,2.32538045100023,2.32266355832368,0,2.32205425518666,2.32177457505819,2.32083564891261,2.32079569460855,2.31946721399832,2.32213416379479,2.32089558036871,2.32041612871991,2.32024632292763,0,2.32023633435161,2.32105539758498,2.32284335269198,2.32201430088259,2.32376230168552,2.32347263298103,2.32479112501524,2.3254803367604,2.3261995142336,0,2.32658906869825,2.32730824617146,2.3284069895333,2.32884648687804,2.32781766354831,2.32812730940483,2.32951572147116,2.28825291394602,2.28701433051995,0,2.28677460469554,2.28729401064841,2.28685451330368,2.28515645538083,2.28455714081983,2.27868385812199,2.28326861451367,2.27569727389298,2.27655629143042,0,2.27649635997432,2.28327860308969,2.2831687287535,2.28270925425673,2.28344840888197,2.28417757493119,2.28266929995267,2.28308882014537,2.28225976833598,0,2.28218984830386,2.28224977975996,2.28243956270428,2.28227974548801,2.28279915144088,2.28263933422462,2.28227974548801,2.28287906004902,2.28216987115183,0,2.28223979118395,2.28273921998478,2.28103117348592,2.28063163044525,2.2824495512803,2.28279915144088,2.2826892771047,2.28460708369991,2.28324863736164,0,2.28362820325027,2.28344840888197,2.2847768894922,2.2845371636678,2.28403773486696,2.28514646680482,2.28499663816456,2.28534623832515,2.28626518731869,0,2.28621524443861,2.28661478747928,2.28672466181546,2.28799321096959,2.28843270831432,2.29053030927784,2.29126946390308,2.3469657637724,2.34641639209148,0,2.34572718034632,2.34635646063537,2.34838414156677,2.34753511260535,2.34912329619201,2.34954281638471,2.34928311340828,2.3495927592648,2.3518002345645,0,2.35095120560307,2.35068151405062,2.35039184534614,2.34940297632048,2.34772489554967,2.3482243243505,2.34847403875092,2.34800457567814,2.34975257648107,0,2.35464697872927,2.35459703584918,2.35348830391132,2.35477683021748,2.35639497953219,2.35648487671634,2.35695433978913,2.35794320881479,2.36006078693034,0,2.3591418379368,2.35899200929655,2.35899200929655,2.35965125531365,2.35832277470342,2.35865239771198,2.30216700033733,2.30066871393482,2.29976974209332,0,2.29883081594774,2.29723264378507,2.29727259808913,2.2968331007444,2.29843127290708,2.29871095303554
2.30581283058344,2.30551317330294,2.30838988319576,2.30748092277824,2.31118668448045,2.31141642172883,0,2.31129655881663,2.31156625036908,2.31253514224271,2.31458280032614,2.31544181786358,2.31637075543313,2.27323009561685,2.27297039264041,2.27160195772612,0,2.27215132940704,2.2712323804135,2.27168186633426,2.27186166070256,2.27169185491027,2.27177176351841,2.27177176351841,2.27198152361476,2.27241103238348,0,2.27336993568108,2.27303032409652,2.27293043833635,2.27416902176242,2.27369955868964,2.27411907888234,2.27420897606649,2.27489818781164,2.27568728531697,0,2.27601690832552,2.27798465780082,2.27829430365734,2.27844413229759,2.27949293277934,2.28169041950303,2.28357826037019,2.33082422492935,2.33077428204927,0,2.33102399644968,2.33064443056105,2.33002513884801,2.32913615558252,2.32935590425489,2.32646920578605,2.32715841753121,2.32555025679251,2.32373233595747,0,2.32220408382691,2.32241384392326,2.32265356974766,2.32205425518666,2.32163473499395,2.32035619726381,2.32108536331303,2.32022634577559,2.32016641431949,0,2.32111532904108,2.32127514625735,2.32276344408384,2.32348262155705,2.32352257586112,2.32406195896602,2.32494095365549,2.32545037103235,2.32700858889096,0,2.32699860031494,2.328227195165,2.32806737794873,2.32841697810932,2.32813729798085,2.32868666966177,2.32936589283091,2.28799321096959,2.28739389640858,0,2.28703430767198,2.28724406776833,2.28696438763986,2.29049035497377,2.28678459327156,2.28365816897832,2.27526776512426,2.27527775370028,2.27450863334699,0,2.27541759376452,2.27632655418204,2.27753517188006,2.28318870590554,2.28343842030595,2.28203003108759,2.28397780341086,2.2823896198242,2.28218984830386,0,2.28259937992055,2.28245953985631,2.28245953985631,2.28270925425673,2.2825694141925,2.2826892771047,2.28278916286487,2.28257940276852,2.28309880872138,0,2.28290902577707,2.28260936849657,2.28222980260793,2.28167044235099,2.28156056801481,2.28315874017749,2.28343842030595,2.28315874017749,2.28418756350721,0,2.28422751781128,2.2848967524044,2.28410765489908,2.28457711797186,2.28578573566989,2.28451718651576,2.28474692376415,2.2856159298776,2.2853762040532,0,2.28620525586259,2.28659481032724,2.28719412488825,2.28832283397814,2.28932169157981,2.29018070911725,2.29184880131205,2.34723545532485,2.34618665484309,0,2.34608676908292,2.34796462137407,2.34981250793717,2.34896347897574,2.34863385596719,2.3493530334404,2.35279909216617,2.35045177680224,2.3528790007743,0,2.35122089715553,2.35056165113842,2.35032192531402,2.3504317996502,2.34821433577449,2.34847403875092,2.3480445299822,2.34882363891151,2.34988242796928,0,2.35311872659871,2.35399772128818,2.35911187220875,2.35823287751927,2.35791324308674,2.3566946368127,2.35760359723022,2.35946147236933,2.36015068411449,0,2.35918179224086,2.3594414952173,2.35856250052783,2.35905194075265,2.35935159803315,2.30395495544433,2.30192727451293,2.30175746872065,2.30070866823889,0,2.30063874820677,2.29867099873148,2.29808167274649,2.29766215255379,2.29765216397777,2.29812162705056
2.30531340178261,2.30681168818512,2.30742099132214,2.30855968898805,2.31045751843123,2.31113674160036,0,2.31141642172883,2.31271493661101,2.31209564489797,2.31324433113989,2.31484250330257,2.27426890752259,2.27364961580955,2.27203146649484,2.27189162643061,0,2.27144214050985,2.27168186633426,2.27175178636637,2.27208140937493,2.27168186633426,2.27217130655908,2.27126234614155,2.27202147791883,2.27235110092738,0,2.27274065539203,2.27396925024209,2.27304031267253,2.27519784509215,2.27237107807941,2.27450863334699,2.27411907888234,2.27523779939621,2.27556742240477,0,2.27517786794011,2.27653631427839,2.27729544605566,2.27932312698706,2.27977261290781,2.28045183607695,2.32990527593581,2.32996520739191,2.33088415638545,0,2.33074431632122,2.33171320819484,2.32994523023988,2.32968552726344,2.32885647545405,2.32836703522923,2.32646920578605,2.32472120498312,2.32502086226363,0,2.32335277006883,2.32334278149282,2.32224403813097,2.3215448378098,2.32014643716746,2.32049603732805,2.32123519195328,2.32061590024025,2.32102543185693,0,2.32108536331303,2.3218444950903,2.32253370683546,2.32374232453348,2.32324289573265,2.32650916009012,2.3254204053043,2.32626943426572,2.32797748076458,0,2.32770778921213,2.32837702380525,2.32832708092517,2.328826509726,2.32865670393372,2.32992525308784,2.28996096044488,2.28856255980254,2.28702431909596,0,2.28675462754351,2.287643610809,2.28661478747928,2.28707426197605,2.28296895723317,2.28372808901044,2.27457855337911,2.27828431508132,2.27426890752259,0,2.27489818781164,2.27638648563814,2.28011222449238,2.2832885916657,2.2833485231218,2.28355828321815,2.28434738072348,2.28377803189052,2.28260936849657,0,2.28305885441732,2.28235965409615,2.28329858024172,2.282269756912,2.28368813470637,2.28343842030595,2.2828091400169,2.2831087972974,2.28315874017749,0,2.28324863736164,2.28313876302545,2.28370811185841,2.28210993969573,2.28161051089489,2.28336850027384,2.28311878587342,2.28329858024172,2.28338847742587,0,2.28413762062713,2.28410765489908,2.28456712939585,2.28478687806821,2.28494669528448,2.28509652392473,2.28742386213663,2.28539618120523,2.28784338232933,0,2.28618527871056,2.28684452472766,2.28784338232933,2.28907197717939,2.29094982947054,2.29120953244697,2.29143926969536,2.35154053158806,2.34943294204853,0,2.3472654210529,2.34940297632048,2.34937301059243,2.34957278211276,2.35035189104207,2.34900343327981,2.35348830391132,2.35253938918973,2.352099891845,0,2.35099115990714,2.35056165113842,2.35036187961809,2.34945291920056,2.34808448428627,2.34900343327981,2.34821433577449,2.3503718681941,2.34993237084937,0,2.35355822394344,2.35446718436096,2.35487671597765,2.35850256907173,2.35695433978913,2.35720405418955,2.35774343729445,2.35898202072053,2.35864240913596,0,2.35934160945713,2.35904195217663,2.35813299175911,2.35889212353638,2.3577134715664,2.30552316187896,2.30187733163285,2.30045895383847,2.29832139857089,0,2.29838133002699,2.29786192407412,2.29836135287496,2.29812162705056,2.29717271232897,2.29918041610833
2.30500375592609,2.30597264779971,2.30765072857052,2.30797036300306,2.31024775833487,2.31083708431986,0,2.3119358276817,2.31362389702853,2.31153628464103,2.31259507369881,2.31317441110778,2.31429313162165,2.27280058684813,2.27194156931069,2.27251091814365,0,2.27192159215866,2.27200150076679,2.27127233471757,2.27216131798306,2.2714721062379,2.27171183206231,2.27148209481392,2.27245098668754,2.27242102095949,0,2.27273066681601,2.27216131798306,2.2727806096961,2.27253089529568,2.27415903318641,2.27553745667672,2.27423894179454,2.27445869046691,2.2757671939251,0,2.27649635997432,2.27693585731906,2.27659624573449,2.27858397236182,2.27900349255452,2.28133083076642,2.28313876302545,2.33183307110704,2.32884648687804,0,2.33501942685638,2.3301350131842,2.32977542444759,2.32956566435124,2.32933592710286,2.32761789202798,2.32602970844132,2.32500088511159,2.32496093080753,0,2.3236923816534,2.32238387819521,2.32272348977978,2.32203427803462,2.32089558036871,2.32250374110741,2.32081567176058,2.32135505486548,2.32207423233869,0,2.32217411809886,2.32156481496184,2.32220408382691,2.3233927243729,2.32427171906237,2.32516070232786,2.32690870313079,2.3260796513214,2.32760790345196,0,2.32795750361255,2.3284069895333,2.32933592710286,2.32942582428701,2.32905624697439,2.33038472758461,2.33124374512205,2.28816301676187,2.28702431909596,0,2.2869244333358,2.2857957242459,2.28696438763986,2.28711421628011,2.28277917428885,2.27931313841104,2.27927318410698,2.279882487244,2.27475834774741,0,2.27556742240477,2.27675606295076,2.28399778056289,2.28393784910679,2.28349835176205,2.28342843172994,2.283468386034,2.28362820325027,2.28407768917103,0,2.28294898008113,2.2826892771047,2.28285908289698,2.28355828321815,2.28291901435308,2.28335851169782,2.28324863736164,2.28284909432097,2.28319869448155,0,2.28269926568072,2.28376804331451,2.28439732360356,2.2833485231218,2.28246952843233,2.2831687287535,2.28266929995267,2.28289903720105,2.28366815755434,0,2.28445725505966,2.28463704942796,2.28424749496331,2.28455714081983,2.28479686664423,2.28605542722234,2.28557597557354,2.28765359938502,2.28750377074477,0,2.2856758613337,2.287044296248,2.28690445618376,2.2880631310017,2.28899206857126,2.2904504006697,2.35208990326898,2.35024201670589,2.34910331903998,0,2.34841410729482,2.35172032595636,2.34812443859034,2.3495927592648,2.34934304486438,2.35278910359015,2.35282905789422,2.3520399603889,2.35085131984291,0,2.35058162829045,2.34980251936115,2.34912329619201,2.34909333046396,2.34907335331193,2.3482842558066,2.35153054301204,2.35391781268004,2.35531621332239,0,2.3543073671447,2.35488670455367,2.35527625901832,2.35567580205899,2.35694435121312,2.35785331163064,2.35906192932866,2.35800314027089,2.35793322023877,0,2.35849258049571,2.35792323166276,2.35755365435014,2.35972117534577,2.35805308315097,2.30354542382764,2.3016675715365,2.30388503541221,2.29851118151521,0,2.29745239245743,2.29746238103345,2.29739246100133,2.29824148996276,2.29907054177215,2.29801175271437
2.30593269349564,2.30694153967333,2.30877943766041,2.30961847804582,2.31064730137554,2.31123662736053,0,2.31246522221059,2.31280483379516,2.3118159647695,2.31179598761747,2.30940871794947,2.27495811926775,2.27283055257618,2.27238106665543,2.27132227759765,0,2.27145212908587,2.27173180921434,2.27215132940704,2.27309025555262,2.27119242610944,2.27140218620579,2.27160195772612,2.2713522433257,2.27222124943916,0,2.27243100953551,2.2727806096961,2.2734398557132,2.27386936448192,2.27390931878599,2.27393928451404,2.27468842771529,2.27508797075596,2.27473837059538,0,2.27549750237265,2.27645640567026,2.27715560599143,2.27810452071302,2.27917329834681,2.28193014532743,2.3281073322528,2.32877656684592,2.32903626982235,0,2.33171320819484,2.33108392790579,2.33094408784155,2.33088415638545,2.32914614415854,2.32752799484383,2.32689871455477,2.3256601311287,2.32370237022942,0,2.32380225598958,2.32210419806674,2.32573005116081,2.32271350120376,2.32101544328092,2.32193439227446,2.32108536331303,2.32162474641794,2.32264358117164,0,2.32225402670699,2.32183450651429,2.32283336411596,2.32352257586112,2.32442154770262,2.32526058808803,2.32552029106446,2.32640927432995,2.32735818905154,0,2.32807736652475,2.32925601849472,2.32939585855896,2.33032479612851,2.32957565292726,2.33137359661027,2.33040470473665,2.28819298248992,2.28695439906385,0,2.28665474178334,2.28642500453496,2.28675462754351,2.28811307388179,2.28210993969573,2.27751519472803,2.27801462352887,2.27718557171948,2.27838420084149,0,2.27728545747964,2.27517786794011,2.28438733502754,2.28438733502754,2.28333853454579,2.28313876302545,2.28330856881774,2.28382797477061,2.28301890011325,0,2.28318870590554,2.28293899150512,2.28308882014537,2.28236964267216,2.28252945988843,2.28293899150512,2.28297894580918,2.2826892771047,2.28288904862503,0,2.28242957412826,2.28303887726528,2.28209995111971,2.28270925425673,2.28368813470637,2.28365816897832,2.2835283174901,2.28342843172994,2.28406770059501,0,2.28714418200816,2.28415759777916,2.28423750638729,2.28403773486696,2.28449720936373,2.28469698088406,2.28602546149429,2.28643499311098,2.28675462754351,0,2.28665474178334,2.28717414773621,2.28848265119441,2.28879229705092,2.28971124604446,2.29116957814291,2.34966267929691,2.3494728963526,2.34855394735906,0,2.34877369603142,2.34803454140619,2.34964270214488,2.35336844099912,2.35041182249817,2.35047175395427,2.35222974333322,2.35160046304416,2.34979253078513,0,2.34978254220912,2.35057163971444,2.3497725536331,2.34895349039973,2.34849401590296,2.34894350182371,2.35598544791551,2.35392780125606,2.35368807543166,0,2.35362814397556,2.35552597341874,2.3549666131618,2.35697431694116,2.3569343626371,2.35935159803315,2.35876227204816,2.35831278612741,2.35901198644858,0,2.35882220350426,2.35730393994972,2.35703424839727,2.3569343626371,2.35721404276557,2.30456425858135,2.3019072973609,2.29832139857089,2.29744240388142,0,2.29771209543387,2.29704286084075,2.29784194692209,2.29768212970582,2.29815159277861,2.29883081594774
2.30619239647208,2.30822007740348,2.30879941481245,2.30983822671819,2.31027772406292,2.30843982607584,0,2.31108679872028,2.3113365131207,2.3062623165042,2.30713132261765,2.30687161964122,2.30927886646125,2.27455857622708,2.27221126086314,2.27166188918222,0,2.27226120374323,2.2714121747818,2.27142216335782,2.27183169497451,2.27188163785459,2.2712323804135,2.27197153503874,2.27204145507086,2.2732600613449,0,2.27371953584167,2.27274065539203,2.27276063254406,2.27354973004939,2.27375949014574,2.2738593759059,2.2761867141178,2.27601690832552,2.27515789078808,0,2.27545754806858,2.27676605152677,2.2780346006809,2.27778488628048,2.28079144766152,2.28207997396768,2.32880653257397,2.32824717231703,2.32977542444759,0,2.33279197440465,2.33243238566804,2.33111389363384,2.33481965533604,2.32791754930848,2.32958564150328,2.32630938856979,2.32612959420148,2.32571007400878,0,2.32389215317374,2.32240385534724,2.32181452936225,2.3219044265464,2.32137503201752,2.32138502059353,2.32137503201752,2.32144495204964,2.32187446081835,0,2.32283336411596,2.32295322702816,2.32367240450137,2.3241119018461,2.32458136491889,2.32490099935143,2.32676886306656,2.32720836041129,2.32706852034706,0,2.32883649830202,2.32890641833414,2.32945579001506,2.32918609846261,2.32963558438336,2.3301949446403,2.33065441913707,2.28815302818585,2.28760365650493,0,2.28676461611953,2.28659481032724,2.28636507307886,2.28643499311098,2.28682454757563,2.29114960099087,2.27886365249029,2.28750377074477,2.28748379359273,0,2.28774349656917,2.28683453615164,2.28553602126947,2.28378802046654,2.28320868305757,2.28467700373203,2.28415759777916,2.28382797477061,2.28383796334662,0,2.28319869448155,2.28392786053077,2.28299892296122,2.282869071473,2.28338847742587,2.2827492085608,2.28337848884985,2.28424749496331,2.28287906004902,0,2.28303887726528,2.28320868305757,2.28281912859292,2.28277917428885,2.28314875160147,2.28367814613036,2.28404772344298,2.28383796334662,2.28361821467426,0,2.2847768894922,2.28494669528448,2.28411764347509,2.28532626117312,2.28586564427802,2.2844772322117,2.28679458184758,2.28660479890326,2.28803316527365,0,2.28659481032724,2.28813305103382,2.28731398780045,2.28846267404237,2.28962134886031,2.29061021788597,2.35038185677012,2.34800457567814,2.34857392451109,0,2.34835417583872,2.34936302201641,2.34922318195218,2.35036187961809,2.34945291920056,2.35220976618118,2.35280908074219,2.35123088573154,2.35144064582789,0,2.35254937776575,2.35058162829045,2.35073145693071,2.35682448830091,2.35523630471425,2.35040183392215,2.35349829248734,2.35325856666294,2.35473687591342,0,2.35569577921102,2.35719406561353,2.35618521943584,2.35673459111676,2.35748373431802,2.35760359723022,2.35899200929655,2.35924172369696,2.35905194075265,0,2.35937157518518,2.3601606726905,2.35971118676975,2.3571141570054,2.30334565230731,2.302566543378,2.30313589221096,2.29859109012334,2.29729257524117,0,2.29721266663303,2.29800176413836,2.30124805134379,2.29849120436318,2.29875090733961,2.29787191265014
2.30595267064768,2.30777059148272,2.30905911778888,2.3099081467503,2.31050746131131,2.30479399582974,0,2.3038750468362,2.30413474981263,2.3047740186777,2.30607253355988,2.30641214514445,2.30725118552985,2.27271068966398,2.27494813069173,2.27223123801518,0,2.27193158073467,2.27107256319724,2.27255087244771,2.27146211766189,2.27160195772612,2.27177176351841,2.27169185491027,2.27196154646272,2.27270070108796,0,2.27304031267253,2.27297039264041,2.27276063254406,2.27317016416075,2.27395926166607,2.27396925024209,2.27459853053114,2.27493814211571,2.27620669126984,0,2.27674607437474,2.27661622288652,2.27740532039185,2.27831428080937,2.2800622816123,2.28009224734035,2.28192015675141,2.32948575574311,2.33010504745615,0,2.33285190586075,2.33257222573228,2.33194294544322,2.32992525308784,2.32997519596793,2.32817725228492,2.33207279693144,2.32688872597876,2.32412189042212,0,2.32469123925507,2.32437160482254,2.32212417521877,2.32242383249927,2.32185448366632,2.3216047692659,2.32221407240292,2.32194438085047,2.32219409525089,0,2.32289329557206,2.322853341268,2.32366241592535,2.32467126210304,2.32482109074329,2.32540042815226,2.32705853177104,2.32751800626781,2.32757793772391,0,2.32853684102152,2.32998518454394,2.32917610988659,2.32935590425489,2.32907622412642,2.32992525308784,2.28871238844279,2.28821295964195,2.28724406776833,0,2.28690445618376,2.28691444475978,2.2869843647919,2.2856758613337,2.28672466181546,2.28875234274686,2.28115103639812,2.28774349656917,2.2875836793529,0,2.28659481032724,2.2856758613337,2.28550605554142,2.28411764347509,2.28413762062713,2.28423750638729,2.28404772344298,2.28416758635518,2.28389789480272,0,2.28245953985631,2.2828091400169,2.2826293456486,2.28324863736164,2.28370811185841,2.28360822609824,2.28296895723317,2.28331855739375,2.28293899150512,0,2.28335851169782,2.28279915144088,2.28283910574495,2.28360822609824,2.28522637541295,2.28428744926738,2.28365816897832,2.28373807758646,2.28395782625882,0,2.28433739214746,2.28481684379626,2.28451718651576,2.28458710654788,2.28580571282192,2.28625519874267,2.28630514162276,2.28652489029513,2.28637506165487,0,2.28709423912808,2.28729401064841,2.2905702635819,2.28976118892455,2.29119954387096,2.29135936108723,2.34333991067832,2.34874373030337,2.34803454140619,0,2.34887358179159,2.34906336473591,2.35042181107419,2.35422745853656,2.35655479674846,2.35413756135241,2.35389783552801,2.35167038307628,2.35176028026043,0,2.35085131984291,2.35064155974655,2.35041182249817,2.35590553930737,2.3547868187935,2.35551598484272,2.35397774413614,2.3540676413203,2.35505651034595,0,2.35495662458578,2.35549600769069,2.35686444260498,2.35816295748716,2.35865239771198,2.35916181508883,2.36196860494953,2.3596812210417,2.35965125531365,0,2.35972117534577,2.35990096971407,2.3597411524978,2.36041038709092,2.30361534385976,2.30161762865641,2.3000594107978,2.29899063316401,2.29882082737173,0,2.29863104442741,2.2977320725859,2.29815159277861,2.29783195834607,2.29808167274649,2.2973125523932
2.30757081996239,2.30788046581891,2.30866956332423,2.30919895785312,2.31114673017638,2.30524348175049,0,2.30389502398823,2.3038750468362,2.30462419003745,2.30785050009086,2.30472407579762,2.30551317330294,2.27253089529568,2.27397923881811,2.27183169497451,0,2.27127233471757,2.27064305442852,2.2712923118696,2.271532037694,2.27166188918222,2.27174179779036,2.27150207196595,2.27215132940704,2.27228118089526,0,2.27297039264041,2.27269071251195,2.27310024412863,2.27321011846482,2.27375949014574,2.27365960438557,2.27445869046691,2.27477832489944,2.27590703398934,0,2.27673608579872,2.27739533181583,2.27744527469591,2.27800463495285,2.27885366391427,2.28247951700835,2.32628941141775,2.33210276265949,2.33138358518629,0,2.33196292259526,2.33225259129974,2.33227256845178,2.3308541906574,2.32975544729556,2.32845693241338,2.32758792629993,2.3261995142336,2.32502086226363,0,2.32354255301315,2.32362246162128,2.32243382107529,2.32230396958707,2.32210419806674,2.32211418664276,2.32244380965131,2.32181452936225,2.32242383249927,0,2.32397206178187,2.3236324501973,2.32308307851638,2.32453142203881,2.32512074802379,2.32577000546488,2.32717839468324,2.3279874693406,2.32874660111787,0,2.32966555011141,2.32975544729556,2.33053455622486,2.32901629267032,2.33190299113916,2.32926600707074,2.33114385936189,2.29016073196522,2.28879229705092,0,2.28821295964195,2.28589561000607,2.28709423912808,2.28636507307886,2.28664475320733,2.28708425055206,2.28718413631223,2.28668470751139,2.28667471893538,0,2.28660479890326,2.28570582706175,2.28499663816456,2.28463704942796,2.28407768917103,2.28375805473849,2.28326861451367,2.28351832891409,2.28345839745799,0,2.28293899150512,2.2831687287535,2.28404772344298,2.2835283174901,2.28301890011325,2.28359823752222,2.28302888868927,2.283468386034,2.2827492085608,0,2.28315874017749,2.28353830606612,2.28364818040231,2.28338847742587,2.28345839745799,2.28418756350721,2.28355828321815,2.28405771201899,2.28472694661211,0,2.28396781483484,2.2853762040532,2.28540616978125,2.28529629544507,2.28521638683693,2.28647494741504,2.2857357927898,2.28725405634435,2.28750377074477,0,2.2903305377575,2.28813305103382,2.28931170300379,2.29011078908513,2.29274777315355,2.29248807017712,2.34653625500368,2.35420748138453,2.34829424438262,0,2.34930309056031,2.35046176537825,2.35004224518555,2.35314869232676,2.35542608765857,2.35298887511049,2.35266924067795,2.35149058870798,2.35285902362227,0,2.35075143408274,2.35030194816199,2.35432734429673,2.35385788122394,2.35423744711258,2.35482677309757,2.35439726432885,2.35617523085983,2.35604537937161,0,2.35524629329027,2.35594549361144,2.35955136955348,2.3588421806563,2.35808304887902,2.35852254622376,2.35991095829009,2.35996090117017,2.36101969022794,0,2.35934160945713,2.35983104968195,2.36127939320438,2.35673459111676,2.30240672616174,2.30068869108686,2.30024919374212,2.29793184410624,2.29862105585139,0,2.2975522782176,2.29662334064805,2.29666329495211,2.29789188980217,2.29782196977005,2.29909051892418
2.30689159679325,2.30755084281036,2.30799034015509,2.30901916348482,2.30769068287459,2.30523349317447,0,2.30488389301389,2.30337561803536,2.30418469269271,2.30525347032651,2.30463417861347,2.30672179100097,2.27295041548838,2.27208140937493,2.27116246038139,0,2.27152204911799,2.2712323804135,2.27137222047774,2.27088278025292,2.27208140937493,2.27150207196595,2.27162193487816,2.27140218620579,2.27233112377534,0,2.27211137510298,2.27309025555262,2.2729604040644,2.27297039264041,2.27352975289735,2.27416902176242,2.27444870189089,2.27613677123772,2.27447866761894,0,2.27625663414992,2.27640646279017,2.27701576592719,2.2785140523297,2.27990246439603,2.28076148193347,2.33303170022905,2.33361103763802,2.33234248848389,0,2.33295179162092,2.33238244278796,2.33142353949035,2.33196292259526,2.32930596137481,2.32905624697439,2.32880653257397,2.32738815477959,2.32586989122505,0,2.32394209605382,2.32348262155705,2.32276344408384,2.32203427803462,2.3231529985485,2.32222406097894,2.32231395816309,2.32385219886967,2.32272348977978,0,2.32330282718875,2.32433165051847,2.32457137634287,2.32498090795956,2.32567011970471,2.32629939999377,2.32779768639628,2.32883649830202,2.32842696668533,0,2.32969551583946,2.33006509315208,2.33040470473665,2.33195293401924,2.32851686386948,2.32971549299149,2.2896113602843,2.28805314242569,2.28825291394602,0,2.28774349656917,2.28657483317521,2.28673465039148,2.28640502738292,2.28645497026301,2.28680457042359,2.28654486744716,2.28678459327156,2.28658482175123,0,2.28566587275769,2.28494669528448,2.2850166153166,2.28443727790763,2.28373807758646,2.28428744926738,2.28348836318604,2.28337848884985,2.28359823752222,0,2.283468386034,2.28333853454579,2.28364818040231,2.28308882014537,2.28306884299334,2.28427746069136,2.2832885916657,2.28405771201899,2.282869071473,0,2.28332854596977,2.28315874017749,2.28335851169782,2.28381798619459,2.28341844315392,2.28434738072348,2.28326861451367,2.28364818040231,2.28481684379626,0,2.28463704942796,2.28548607838939,2.28470696946008,2.28527631829303,2.28564589560565,2.285256341141,2.28568584990972,2.28727403349638,2.28677460469554,0,2.28760365650493,2.28778345087323,2.2901507433892,2.28968128031641,2.29171894982383,2.34335988783035,2.34969264502496,2.34423888251983,2.35184018886856,0,2.35254937776575,2.35483676167358,2.35232962909338,2.35506649892197,2.35428738999266,2.35345833818327,2.35318864663082,2.35193008605271,2.3503718681941,0,2.35062158259452,2.35301884083854,2.35603539079559,2.35521632756222,2.35356821251946,2.35413756135241,2.35471689876138,2.35399772128818,2.35594549361144,0,2.35635502522813,2.35600542506754,2.35700428266922,2.35859246625588,2.3590819064807,2.35870234059206,2.35986101541,2.3596212895856,2.35982106110594,0,2.35954138097747,2.35977111822585,2.35911187220875,2.30195724024098,2.30141785713608,2.30040901095839,2.29896066743596,2.29778201546599,2.2974324153054,0,2.29967984490917,2.29815159277861,2.29758224394565,2.29758224394565,2.29885079309978,2.29889074740385
2.30689159679325,2.30768069429857,2.30843982607584,2.31078714143978,2.31117669590443,2.30537333323871,0,2.30409479550856,2.30246665761784,2.30254656622597,2.30480398440575,2.30780055721077,2.30794039727501,2.27336993568108,2.27220127228713,2.27096268886105,0,2.27145212908587,2.27116246038139,2.27176177494239,2.27131228902164,2.27140218620579,2.27151206054197,2.27286051830423,2.27152204911799,2.27226120374323,0,2.27244099811153,2.27316017558473,2.27312022128067,2.27341987856117,2.27321011846482,2.27386936448192,2.27467843913928,2.27541759376452,2.27517786794011,0,2.27560737670883,2.27607683978162,2.278094532137,2.27816445216912,2.2799424187001,2.28116102497414,2.33033478470453,2.33216269411559,2.33229254560381,0,2.33268210006846,2.3333013917815,2.33443010087139,2.33095407641757,2.32908621270244,2.3286467153577,2.32856680674957,2.32847690956542,2.326439240058,0,2.32491098792744,2.32384221029365,2.32391213032577,2.32311304424443,2.32420179903025,2.3230331356363,2.32609962847343,2.32240385534724,2.32365242734933,0,2.32380225598958,2.32402200466195,2.32458136491889,2.32563016540065,2.32581994834497,2.32593981125717,2.32857679532558,2.32851686386948,2.32848689814143,0,2.32982536732768,2.33039471616063,2.3308541906574,2.33262216861236,2.33157336813061,2.33173318534687,2.28826290252204,2.28890217138711,2.28942157733998,0,2.28694441048783,2.28825291394602,2.28713419343215,2.28600548434226,2.2859155871581,2.28649492456708,2.28505656962067,2.28617529013454,2.28497666101253,0,2.28604543864632,2.28467700373203,2.285256341141,2.28397780341086,2.28357826037019,2.28314875160147,2.28335851169782,2.28324863736164,2.2829290029291,0,2.28374806616247,2.28359823752222,2.28356827179417,2.28360822609824,2.2834084545779,2.28486678667635,2.28411764347509,2.28363819182629,2.28335851169782,0,2.28317871732952,2.28317871732952,2.28335851169782,2.2833485231218,2.28383796334662,2.28429743784339,2.28405771201899,2.28455714081983,2.28482683237228,0,2.28517643253287,2.28594555288615,2.28633510735081,2.2857357927898,2.28611535867844,2.28727403349638,2.28625519874267,2.287643610809,2.28730399922443,0,2.28723407919231,2.28814303960984,2.2880031995456,2.29180884700798,2.29044041209369,2.2925979445133,2.35437728717681,2.36020062699457,2.3542474356886,0,2.35254937776575,2.35613527655576,2.35469692160935,2.35565582490696,2.35500656746587,2.35088128557096,2.34986245081725,2.34930309056031,2.34957278211276,0,2.34946290777658,2.35286901219829,2.35446718436096,2.35494663600977,2.35537614477849,2.35521632756222,2.3552662704423,2.35500656746587,2.35543607623459,0,2.3593815637612,2.35714412273345,2.35685445402896,2.35760359723022,2.35960131243357,2.3599808783222,2.35952140382543,2.36052026142711,2.35940154091323,0,2.35851255764774,2.36083989585964,2.30296608641867,2.30264645198614,2.30090843975923,2.29953001626892,2.29770210685785,2.29868098730749,2.29880085021969,0,2.30036905665432,2.29810164989852,2.29814160420259,2.29841129575504,2.30100832551939,2.29807168417047
2.30727116268189,2.30774062575467,2.3094886265576,2.31064730137554,2.30625232792818,2.30926887788523,0,2.31099690153613,2.30279628062639,2.31134650169671,2.31166613612925,2.27386936448192,2.27458854195513,2.27307027840058,2.27216131798306,2.27262079247983,0,2.27243100953551,2.270333408572,2.27120241468545,2.27250092956763,2.27149208338994,2.27150207196595,2.27201148934281,2.27207142079891,2.27247096383958,0,2.27294042691236,2.27297039264041,2.27393928451404,2.2738593759059,2.27350977574532,2.27406913600226,2.27483825635554,2.275107947908,2.27542758234053,0,2.27536765088443,2.27817444074513,2.2777948748565,2.27915332119477,2.28100120775787,2.28189019102336,2.3314535052184,2.33144351664239,2.33223261414771,0,2.33256223715626,2.33317154029328,2.33281195155668,2.33304168880507,2.33265213434041,2.3288864411821,2.32806737794873,2.32952571004717,2.32764785775603,0,2.32569009685675,2.32457137634287,2.32368239307738,2.32307308994036,2.32405197039,2.32515071375184,2.32438159339856,2.32317297570053,2.3233327929168,0,2.32356253016518,2.32556024536853,2.32552029106446,2.32555025679251,2.32641926290597,2.32803741222068,2.32857679532558,2.3290063040943,2.32928598422277,0,2.32928598422277,2.33122376797002,2.33119380224197,2.33194294544322,2.33242239709203,2.33062445340902,2.33166326531476,2.28866244556271,2.28629515304674,0,2.28688447903173,2.28605542722234,2.28540616978125,2.28612534725446,2.28623522159064,2.28641501595894,2.28599549576624,2.28592557573412,2.28528630686905,0,2.28557597557354,2.28448722078771,2.28413762062713,2.28451718651576,2.28396781483484,2.28341844315392,2.28335851169782,2.28335851169782,2.28320868305757,0,2.28375805473849,2.28379800904256,2.28349835176205,2.28530628402108,2.28419755208323,2.2831087972974,2.28441730075559,2.28374806616247,2.28409766632306,0,2.28329858024172,2.28367814613036,2.2831687287535,2.28366815755434,2.28350834033807,2.28379800904256,2.28460708369991,2.28479686664423,2.28482683237228,0,2.28616530155852,2.2856758613337,2.285855655702,2.2850166153166,2.28675462754351,2.28656484459919,2.28581570139794,2.28689446760774,2.28767357653705,0,2.28811307388179,2.28873236559482,2.28966130316438,2.2905103321258,2.29213847001653,2.29321723622634,2.34574715749835,2.35339840672717,2.35365810970361,0,2.35357820109548,2.35432734429673,2.35564583633094,2.35467694445732,2.35341838387921,2.34852398163101,2.34877369603142,2.34905337615989,2.35016210809775,0,2.35574572209111,2.35546604196264,2.35537614477849,2.35495662458578,2.35585559642729,2.35632505950008,2.3570542255493,2.35672460254075,2.35650485386838,0,2.35625513946796,2.3572340199176,2.35788327735869,2.35913184936078,2.35954138097747,2.35971118676975,2.36001084405025,2.35959132385755,2.3601007412344,0,2.36042037566694,2.35964126673763,2.30558309333506,2.30265644056215,2.30033909092627,2.29917042753231,2.29857111297131,2.29815159277861,2.30032910235026,0,2.29878087306766,2.2979118669542,2.29766215255379,2.29830142141886,2.29882082737173,2.29808167274649
2.30694153967333,2.30758080853841,2.30879941481245,2.30939872937345,2.30758080853841,2.31080711859181,0,2.31066727852758,2.31101687868816,2.31161619324917,2.31101687868816,2.27398922739412,2.27402918169819,2.27283055257618,2.27262079247983,2.27173180921434,0,2.27078289449275,2.27148209481392,2.27116246038139,2.27149208338994,2.27157199199807,2.27185167212654,2.27242102095949,2.27216131798306,2.2730203355205,0,2.27299036979245,2.27281057542415,2.27301034694448,2.27316017558473,2.27363962723354,2.27428888467462,2.27405914742624,2.27497809641978,2.27514790221206,0,2.27648637139831,2.27663620003856,2.27766502336828,2.27784481773658,2.28014219022043,2.28106113921397,2.28323864878562,2.33092411068952,2.33156337955459,0,2.33249231712415,2.33410047786284,2.33499944970435,2.33382079773437,2.33581851293772,2.32924602991871,2.3278676064284,2.32975544729556,2.32605967416937,0,2.32547034818438,2.32466127352702,2.32654911439419,2.32469123925507,2.3239920389339,2.32313302139646,2.32425174191034,2.32431167336644,2.32552029106446,0,2.32464129637499,2.32496093080753,2.32538045100023,2.32564015397666,2.32682879452266,2.3276878120601,2.32844694383737,2.33321149459735,2.32987531020776,0,2.33099403072164,2.33202285405136,2.33162331101069,2.33247233997211,2.33215270553958,2.33218267126763,2.29013076623717,2.28748379359273,2.28711421628011,0,2.28718413631223,2.2872240906163,2.2855559984215,2.28703430767198,2.28510651250075,2.28524635256498,2.28518642110888,2.28524635256498,2.2854960669654,0,2.28500662674058,2.28469698088406,2.28449720936373,2.28410765489908,2.28522637541295,2.283468386034,2.28481684379626,2.28366815755434,2.28393784910679,0,2.28420754065924,2.28520639826092,2.28370811185841,2.28480685522025,2.28324863736164,2.28361821467426,2.28399778056289,2.28360822609824,2.28399778056289,0,2.28376804331451,2.28451718651576,2.28397780341086,2.28387791765069,2.28425748353933,2.28419755208323,2.28550605554142,2.28436735787551,2.28463704942796,0,2.28563590702964,2.28542614693328,2.2850765467727,2.28657483317521,2.28683453615164,2.28653487887114,2.28739389640858,2.28741387356061,2.28745382786468,0,2.28860251410661,2.29017072054123,2.29040045778962,2.29052032070182,2.29131940678316,2.29379657363531,2.34718551244476,2.35316866947879,2.35498659031383,0,2.35423744711258,2.35407762989631,2.35479680736952,2.3553861333545,2.35608533367568,2.34818437004644,2.34863385596719,2.34889355894363,2.35590553930737,0,2.35555593914679,2.35576569924314,2.3550265446179,2.35535616762645,2.35581564212322,2.35662471678058,2.35833276327944,2.35839269473554,2.35597545933949,0,2.35726398564565,2.36105964453201,2.35788327735869,2.35977111822585,2.36066010149134,2.35933162088112,2.35915182651281,2.35957134670552,2.35800314027089,0,2.35901198644858,2.35958133528153,2.30823006597949,2.3042346355728,2.30062875963076,2.29886078167579,2.30450432712525,2.29852117009123,2.29710279229685,0,2.29793184410624,2.29781198119404,2.29871095303554,2.29827145569081,2.29856112439529,2.29958994772502
2.30688160821723,2.30769068287459,2.30880940338846,2.30915900354905,2.31052743846334,2.31028771263894,0,2.31415329155742,2.31093697008003,2.31068725567961,2.27514790221206,2.27338991283312,2.27502803929986,2.27411907888234,2.27300035836846,2.27394927309006,0,2.2713522433257,2.27115247180537,2.27142216335782,2.27163192345417,2.27095270028503,2.27149208338994,2.27251091814365,2.27247096383958,2.27274065539203,0,2.27294042691236,2.27294042691236,2.2729604040644,2.2732600613449,2.27417901033844,2.27378945587379,2.27420897606649,2.27497809641978,2.2752877422763,0,2.27628659987797,2.27639647421416,2.27732541178371,2.27847409802564,2.27966273857163,2.28057169898915,2.32866669250974,2.32976543587158,2.33114385936189,0,2.33246235139609,2.33457992951164,2.33422034077504,2.33429026080716,2.33504939258443,2.32897633836625,2.32819722943695,2.32755796057188,2.32681880594664,0,2.32633935429784,2.32543039388031,2.32880653257397,2.32445151343067,2.32440157055059,2.3237523131095,2.32402200466195,2.32450145631076,2.32496093080753,0,2.32563016540065,2.32618952565758,2.32651914866614,2.3266190344263,2.32746806338773,2.32719837183528,2.32988529878378,2.33138358518629,2.33047462476876,0,2.33117382508994,2.33172319677086,2.33167325389077,2.33180310537899,2.33355110618192,2.33437016941529,2.32059592308821,2.29065017219004,2.28797323381755,0,2.28623522159064,2.28666473035936,2.28564589560565,2.28556598699752,2.28562591845362,2.28612534725446,2.28464703800398,2.28517643253287,2.28482683237228,0,2.28474692376415,2.28439732360356,2.28413762062713,2.28344840888197,2.28382797477061,2.28408767774704,2.28354829464214,2.28367814613036,2.2831087972974,0,2.28282911716893,2.28324863736164,2.28448722078771,2.28309880872138,2.28330856881774,2.28342843172994,2.28366815755434,2.28356827179417,2.28329858024172,0,2.28368813470637,2.28376804331451,2.28377803189052,2.28375805473849,2.28494669528448,2.28530628402108,2.28517643253287,2.28494669528448,2.28503659246863,0,2.28552603269345,2.28603545007031,2.28603545007031,2.28622523301462,2.29004086905302,2.28605542722234,2.28694441048783,2.28744383928867,2.28872237701881,0,2.2896113602843,2.29037049206157,2.29207853856043,2.29209851571246,2.29324720195439,2.35843264903961,2.35875228347214,2.3575336771981,2.3550265446179,0,2.35467694445732,2.35456707012113,2.35500656746587,2.35633504807609,2.34784475846187,2.34802455283017,2.35670462538871,2.35976112964983,2.3567545682688,0,2.35627511661999,2.35554595057077,2.35571575636306,2.35571575636306,2.35549600769069,2.35602540221958,2.3569343626371,2.35811301460707,2.35712414558142,0,2.35769349441437,2.36034046705881,2.36117950744421,2.35990096971407,2.35997088974619,2.35936158660917,2.35903196360061,2.35958133528153,2.35946147236933,0,2.35923173512095,2.35815296891114,2.30175746872065,2.30053886244661,2.29872094161156,2.30053886244661,2.29758224394565,2.29805170701844,2.29819154708267,0,2.29830142141886,2.29822151281072,2.29790187837819,2.29752231248955,2.29865102157944,2.29880085021969
2.30694153967333,2.30857966614008,2.30895923202871,2.30885934626855,2.3115762389451,2.31278485664313,0,2.31195580483374,2.31325431971591,2.31174604473738,2.27549750237265,2.2753476737324,2.27313020985668,2.27280058684813,2.27211137510298,2.27223123801518,0,2.27070298588462,2.27095270028503,2.27092273455698,2.2708128602208,2.27172182063832,2.27157199199807,2.27206143222289,2.27297039264041,2.27299036979245,0,2.27213135225501,2.27347981001727,2.27466845056326,2.27424893037056,2.27382941017785,2.27351976432134,2.27356970720142,2.27435880470674,2.27455857622708,0,2.27623665699789,2.27766502336828,2.2777948748565,2.27814447501708,2.27928317268299,2.28193014532743,2.28359823752222,2.32919608703862,2.3287665782699,0,2.33340127754167,2.33380082058234,2.33382079773437,2.33419037504699,2.33487958679215,2.33202285405136,2.33071435059317,2.32958564150328,2.32922605276667,0,2.32785761785238,2.32598975413725,2.32578998261692,2.32511075944778,2.32538045100023,2.32517069090388,2.32454141061482,2.32508079371973,2.3253005423921,0,2.32522063378396,2.32540042815226,2.32624945711368,2.32669894303444,2.32744808623569,2.3290662355504,2.32965556153539,2.33107393932977,2.33090413353748,0,2.33164328816272,2.33196292259526,2.33380082058234,2.33389071776649,2.33410047786284,2.33525915268078,2.28899206857126,2.28870239986677,2.28749378216875,0,2.28735394210451,2.28605542722234,2.28524635256498,2.28516644395685,2.28484680952431,2.28541615835727,2.28473693518813,2.2844772322117,2.28539618120523,0,2.28451718651576,2.28401775771492,2.28401775771492,2.28430742641941,2.28326861451367,2.28373807758646,2.28399778056289,2.28355828321815,2.28414760920314,0,2.28397780341086,2.28327860308969,2.28381798619459,2.28305885441732,2.28350834033807,2.28343842030595,2.28357826037019,2.2833485231218,2.28379800904256,0,2.28393784910679,2.28359823752222,2.28454715224381,2.28500662674058,2.28654486744716,2.28384795192264,2.28423750638729,2.28528630686905,2.28500662674058,0,2.28560594130159,2.28578573566989,2.28605542722234,2.28460708369991,2.28721410204028,2.28706427340003,2.28755371362485,2.28713419343215,2.28749378216875,0,2.28910194290744,2.28944155449201,2.29104971523071,2.29261792166534,2.29411620806784,2.35394777840809,2.35542608765857,2.35534617905044,2.35407762989631,0,2.35374800688776,2.35235959482143,2.35589555073136,2.35626512804398,2.3472654210529,2.34802455283017,2.34940297632048,2.35672460254075,2.35517637325815,0,2.35656478532448,2.35634503665211,2.35626512804398,2.35639497953219,2.35582563069924,2.35636501380414,2.35727397422167,2.35725399706963,2.3574138142859,0,2.35814298033512,2.3596812210417,2.35952140382543,2.36027054702669,2.36030051275474,2.36059018145922,2.35882220350426,2.35854252337579,2.36014069553847,0,2.3600408097783,2.35922174654493,2.30156768577633,2.29992955930959,2.29854114724326,2.29920039326036,2.29998949076569,2.29974976494128,2.29762219824972,0,2.29798178698632,2.29847122721114,2.29872094161156,2.29937019905265,2.2976122096737,2.29832139857089
2.30756083138637,2.30829998601161,2.309129037821,2.30943868367752,2.31130654739265,2.31198577056179,0,2.31254513081872,2.31355397699641,2.31530197779934,2.27432883897869,2.27414904461039,2.27374950156972,2.27181171782247,2.27204145507086,2.27171183206231,0,2.27182170639849,2.27091274598097,2.27116246038139,2.27286051830423,2.2713522433257,2.27250092956763,2.27191160358264,2.2730802669766,2.27183169497451,0,2.27287050688025,2.27295041548838,2.27414904461039,2.27317016416075,2.27395926166607,2.27313020985668,2.27383939875387,2.27426890752259,2.275107947908,0,2.27529773085231,2.27764504621625,2.27677604010279,2.27818442932115,2.27961279569154,2.2808413905416,2.28359823752222,2.28545611266133,2.3375964794687,0,2.33029483040046,2.33552884423323,2.3332414603254,2.33323147174938,2.33296178019693,2.33171320819484,2.33099403072164,2.328227195165,2.32777770924425,0,2.32724831471536,2.32657908012224,2.32654911439419,2.32524061093599,2.32455139919084,2.3241718333022,2.32477114786321,2.32508079371973,2.32512074802379,0,2.32604968559335,2.32598975413725,2.32621949138563,2.3278076749723,2.32812730940483,2.32969551583946,2.33023489894436,2.33095407641757,2.33192296829119,0,2.3333613232376,2.3329418030449,2.33279197440465,2.33397062637462,2.33589842154585,2.3350893468885,2.28922180581964,2.2895514288282,2.28667471893538,0,2.28659481032724,2.28613533583047,2.285256341141,2.28557597557354,2.28527631829303,2.28572580421379,2.2850166153166,2.28467700373203,2.28395782625882,0,2.28517643253287,2.28446724363568,2.28433739214746,2.28372808901044,2.28359823752222,2.28426747211534,2.28386792907467,2.28481684379626,2.28411764347509,0,2.28392786053077,2.28356827179417,2.28364818040231,2.28327860308969,2.28351832891409,2.28380799761857,2.28327860308969,2.28367814613036,2.28382797477061,0,2.28401775771492,2.28446724363568,2.28434738072348,2.28492671813245,2.2851364782288,2.28426747211534,2.28442728933161,2.28496667243652,2.28552603269345,0,2.28816301676187,2.28581570139794,2.28691444475978,2.28690445618376,2.28572580421379,2.28741387356061,2.2877035422651,2.28777346229722,2.2883028568261,0,2.28907197717939,2.28932169157981,2.29170896124781,2.29285764748974,2.35594549361144,2.35223973190923,2.35368807543166,2.35471689876138,2.35486672740163,0,2.35375799546378,2.34840411871881,2.34792466707,2.34755508975738,2.3565747739005,2.35745376858997,2.35558590487484,2.35852254622376,2.35724400849362,0,2.35688441975701,2.35624515089194,2.35689440833303,2.35598544791551,2.35600542506754,2.35808304887902,2.35841267188758,2.35770348299039,2.35745376858997,0,2.3589021121124,2.35878224920019,2.36046032997101,2.36057020430719,2.36093978161981,2.36006078693034,2.3602805356027,2.35874229489613,2.35766352868632,0,2.3568144997249,2.304953813046,2.30223692036945,2.30137790283201,2.29982967354942,2.30096837121533,2.29809166132251,2.29830142141886,2.29829143284284,0,2.29781198119404,2.29832139857089,2.29827145569081,2.29966985633315,2.30107824555151,2.29829143284284
2.30828000885958,2.30917898070108,2.31036762124707,2.31118668448045,2.31105683299223,2.31162618182518,0,2.31379370282082,2.31352401126836,2.31185591907357,2.2736795815376,2.27346982144125,2.2757671939251,2.27170184348629,2.27172182063832,2.27035338572403,0,2.27073295161267,2.2708128602208,2.27090275740495,2.2712923118696,2.27231114662331,2.27183169497451,2.27236108950339,2.27228118089526,2.2728405411522,0,2.27245098668754,2.2730802669766,2.27319014131278,2.27317016416075,2.27357969577744,2.27319014131278,2.27487821065961,2.27459853053114,2.27548751379663,0,2.27579715965315,2.27693585731906,2.27772495482438,2.27886365249029,2.28051176753305,2.28194013390344,2.28275919713682,2.33802598823742,2.33675743908329,0,2.337176959276,2.33763643377276,2.3334212546937,2.33494950682426,2.33439014656733,2.33160333385866,2.33095407641757,2.33487958679215,2.32887645260609,0,2.32755796057188,2.3257799940409,2.32694865743486,2.32708849749909,2.32659905727427,2.32504083941566,2.32546035960836,2.3261395827775,2.32704854319502,0,2.32599974271327,2.32783764070035,2.3279874693406,2.32779768639628,2.32917610988659,2.32972548156751,2.33032479612851,2.33083421350537,2.33249231712415,0,2.33161332243467,2.33311160883718,2.3327620086766,2.33301172307702,2.33334134608557,2.33437016941529,2.28893213711516,2.28851261692246,2.28796324524154,0,2.28714418200816,2.2871641591602,2.28541615835727,2.28499663816456,2.2850166153166,2.285855655702,2.28512648965278,2.28434738072348,2.28460708369991,0,2.28432740357144,2.28445725505966,2.28474692376415,2.28472694661211,2.28500662674058,2.28375805473849,2.28438733502754,2.2832885916657,2.28364818040231,0,2.28390788337874,2.28387791765069,2.28417757493119,2.28360822609824,2.28404772344298,2.28435736929949,2.28388790622671,2.28355828321815,2.28379800904256,0,2.28492671813245,2.28476690091618,2.28414760920314,2.28458710654788,2.2845970951239,2.28466701515601,2.28534623832515,2.28504658104465,2.28558596414955,0,2.28614532440649,2.28670468466343,2.28694441048783,2.28664475320733,2.28787334805739,2.2880031995456,2.28759366792892,2.28881227420296,2.28817300533789,0,2.28866244556271,2.2906901264941,2.29142928111934,2.35298887511049,2.35325856666294,2.35266924067795,2.35278910359015,2.35312871517472,2.354487161513,0,2.35574572209111,2.35328853239099,2.35921175796891,2.34827426723059,2.35895205499248,2.35543607623459,2.35686444260498,2.35973116392178,2.35715411130947,0,2.35704423697328,2.35688441975701,2.35656478532448,2.3566946368127,2.35661472820456,2.35789326593471,2.35673459111676,2.36003082120229,2.35836272900749,0,2.35836272900749,2.35903196360061,2.36030051275474,2.36239811371825,2.36036044421084,2.36095975877184,2.35984103825797,2.35793322023877,2.35698430551718,0,2.35761358580624,2.3040548412045,2.3016675715365,2.29965986775713,2.29842128433106,2.29797179841031,2.30092841691126,2.2992203704124,2.29882082737173,0,2.29821152423471,2.29845125005911,2.30039902238237,2.29827145569081,2.30030912519822,2.29882082737173
2.30782053436281,2.30854970041203,2.30959850089379,2.31053742703936,2.31116670732841,2.31198577056179,0,2.3113964445768,2.31278485664313,2.31491242333469,2.2736196500815,2.27275064396805,2.27171183206231,2.27219128371111,2.2708128602208,2.27186166070256,0,2.27170184348629,2.27130230044562,2.27184168355052,2.27222124943916,2.2714721062379,2.27214134083103,2.27236108950339,2.27203146649484,2.2729004726083,0,2.27319014131278,2.27378945587379,2.27295041548838,2.27323009561685,2.27330001564897,2.27450863334699,2.2749880849958,2.27517786794011,2.27562735386087,0,2.27584710253323,2.27645640567026,2.27778488628048,2.28002232730823,2.28035195031678,2.28165046519896,2.28330856881774,2.33884505147079,2.33782621671708,0,2.33728683361218,2.33673746193126,2.33540898132103,2.33460989523969,2.3330616659571,2.3325822143083,2.33018495606428,2.32995521881589,2.32928598422277,0,2.32943581286302,2.32862673820567,2.32793752646051,2.32690870313079,2.32801743506865,2.32659905727427,2.32546035960836,2.32558022252056,2.32665898873037,0,2.32814728655686,2.32711846322714,2.32819722943695,2.32877656684592,2.32884648687804,2.32998518454394,2.3306743962891,2.33222262557169,2.33368095767014,0,2.3337808434303,2.33374088912624,2.33331138035752,2.33370093482217,2.33252228285219,2.33207279693144,2.28977117750057,2.28797323381755,2.28743385071265,0,2.28706427340003,2.28702431909596,2.28730399922443,2.28601547291827,2.28494669528448,2.28460708369991,2.28526632971702,2.28512648965278,2.28448722078771,0,2.28456712939585,2.28446724363568,2.28412763205111,2.28380799761857,2.28433739214746,2.28395782625882,2.28364818040231,2.28359823752222,2.28351832891409,0,2.28397780341086,2.28342843172994,2.28367814613036,2.28354829464214,2.28428744926738,2.28522637541295,2.28359823752222,2.28383796334662,2.28387791765069,0,2.28437734645153,2.28388790622671,2.28499663816456,2.2856758613337,2.2847169580361,2.28534623832515,2.2856758613337,2.28469698088406,2.28642500453496,0,2.28613533583047,2.28618527871056,2.28671467323944,2.28689446760774,2.28757369077688,2.28730399922443,2.28786335948137,2.28939161161193,2.28906198860338,0,2.28916187436354,2.29059024073394,2.29192870992018,2.35195006320475,2.35074144550672,2.3519800289328,2.35147061155594,2.35445719578495,2.35445719578495,0,2.34875371887939,2.35854252337579,2.35740382570989,2.3572340199176,2.35831278612741,2.35627511661999,2.35814298033512,2.35843264903961,2.35782334590259,0,2.35798316311886,2.35719406561353,2.35790325451072,2.3573538828298,2.35692437406108,2.35738384855785,2.35808304887902,2.35970119819373,2.35966124388967,0,2.3595613581295,2.36061015861126,2.36075998725151,2.36121946174828,2.36323715410366,2.36018064984254,2.36104965595599,2.36080993013159,2.35652483102041,0,2.35733390567777,2.30415472696466,2.30107824555151,2.29912048465223,2.29949006196485,2.29935022190061,2.29938018762867,2.29867099873148,2.29868098730749,0,2.29825147853877,2.29770210685785,2.29882082737173,2.29839131860301,2.30037904523034,2.29884080452376
2.30721123122579,2.30714131119367,2.30926887788523,2.31131653596866,2.3113365131207,2.3110368558402,0,2.31182595334552,2.31228542784229,2.31236533645042,2.27363962723354,2.2728405411522,2.27178175209442,2.27180172924646,2.27127233471757,2.27134225474969,0,2.27074294018868,2.27114248322935,2.2714121747818,2.27133226617367,2.27179174067044,2.27176177494239,2.27231114662331,2.27300035836846,2.27300035836846,0,2.27445869046691,2.27283055257618,2.27332998137702,2.27365960438557,2.2732600613449,2.27531770800435,2.27455857622708,2.27507798217995,2.27629658845399,0,2.27703574307923,2.27626662272594,2.27741530896786,2.27910337831469,2.28038191604483,2.28088134484567,2.28175035095913,2.3360482501861,2.3362280445544,0,2.33674745050727,2.33691725629956,2.33812587399758,2.33386075203844,2.333001734501,2.33155339097857,2.33088415638545,2.33236246563593,2.32980539017564,0,2.32838701238127,2.32762788060399,2.32736817762756,2.32701857746697,2.32585990264903,2.32599974271327,2.32677885164257,2.32617953708157,2.32799745791661,0,2.32777770924425,2.32704854319502,2.32855681817355,2.32856680674957,2.32952571004717,2.33012502460818,2.33159334528264,2.33273204294855,2.33365099194209,0,2.33279197440465,2.33407051213479,2.3351492783446,2.33428027223114,2.33144351664239,2.33166326531476,2.3325822143083,2.29107968095876,2.28852260549847,0,2.28732397637646,2.2854361355093,2.28715417058418,2.2854960669654,2.28524635256498,2.2845970951239,2.28506655819668,2.28479686664423,2.28565588418167,0,2.28454715224381,2.28452717509178,2.28386792907467,2.28409766632306,2.28384795192264,2.28391787195476,2.28443727790763,2.28358824894621,2.28335851169782,0,2.28380799761857,2.28430742641941,2.28379800904256,2.28375805473849,2.28401775771492,2.28336850027384,2.28443727790763,2.28426747211534,2.28461707227593,0,2.28494669528448,2.2848368209483,2.28467700373203,2.28536621547718,2.28442728933161,2.28589561000607,2.28569583848574,2.28562591845362,2.28795325666552,0,2.28647494741504,2.28645497026301,2.28651490171911,2.28685451330368,2.28696438763986,2.28935165730786,2.28833282255416,2.28874235417084,2.28882226277898,0,2.29011078908513,2.29138932681528,2.29222836720068,2.34991239369733,2.34958277068878,2.35052169683435,2.35333847527107,2.3529389322304,2.35615525370779,0,2.35641495668423,2.34976256505708,2.35809303745504,2.35792323166276,2.35649486529236,2.35873230632011,2.35806307172699,2.35789326593471,2.35775342587047,0,2.3578333344786,2.35789326593471,2.3567545682688,2.35897203214451,2.35773344871844,2.35854252337579,2.35912186078476,2.35922174654493,2.35972117534577,0,2.35860245483189,2.36096974734786,2.36095975877184,2.36101969022794,2.361648970517,2.36072003294744,2.35981107252992,2.36005079835432,2.3047740186777,0,2.30374519534798,2.30159765150438,2.2994600962368,2.29930027902053,2.29907054177215,2.29879086164368,2.30041899953441,2.29792185553022,2.29813161562657,0,2.3000594107978,2.29810164989852,2.2997597535173,2.29962990202908,2.29959993630103,2.29990958215755
2.30787047724289,2.31047749558326,2.31086705004791,2.31083708431986,2.31162618182518,2.31088702719995,0,2.31049747273529,2.30985820387022,2.31116670732841,2.27299036979245,2.27315018700872,2.27250092956763,2.27166188918222,2.27283055257618,2.27151206054197,0,2.27181171782247,2.27157199199807,2.27227119231924,2.2714121747818,2.27132227759765,2.27068300873258,2.27176177494239,2.27212136367899,2.27244099811153,0,2.27300035836846,2.27297039264041,2.27358968435345,2.27359967292947,2.2738593759059,2.27404915885022,2.27452861049903,2.27566730816493,2.27542758234053,0,2.27554744525273,2.27657626858246,2.27748522899998,2.27902346970656,2.27961279569154,2.28135080791846,2.28282911716893,2.3355687985373,2.33623803313042,0,2.33654767898694,2.33725686788413,2.33700715348371,2.33414043216691,2.33858534849435,2.33391069491852,2.33216269411559,2.33187302541111,2.3305545333769,0,2.32983535590369,2.32784762927636,2.32819722943695,2.32707850892307,2.3278076749723,2.32809734367678,2.32869665823779,2.32717839468324,2.32758792629993,0,2.328227195165,2.32869665823779,2.32936589283091,2.33065441913707,2.32989528735979,2.3301949446403,2.33125373369807,2.33215270553958,2.33257222573228,0,2.33344123184574,2.33517924407265,2.33566868429747,2.33458991808766,2.33021492179233,2.33045464761673,2.33130367657815,2.33226257987576,2.28969126889243,0,2.28735394210451,2.28769355368908,2.28462706085195,2.28508653534872,2.28616530155852,2.2856758613337,2.28517643253287,2.28376804331451,2.28380799761857,0,2.2845371636678,2.28460708369991,2.28397780341086,2.28418756350721,2.28403773486696,2.28436735787551,2.28398779198687,2.28435736929949,2.28367814613036,0,2.28384795192264,2.28370811185841,2.28395782625882,2.28386792907467,2.28375805473849,2.28392786053077,2.28392786053077,2.28502660389262,2.28414760920314,0,2.28430742641941,2.28524635256498,2.28469698088406,2.2857957242459,2.28457711797186,2.28558596414955,2.28570582706175,2.28609538152641,2.28596553003819,0,2.28727403349638,2.28655485602318,2.28683453615164,2.28685451330368,2.287643610809,2.28795325666552,2.28880228562694,2.28835279970619,2.29013076623717,0,2.29077003510224,2.29165901836773,2.29296752182592,2.34858391308711,2.34841410729482,2.34862386739117,2.34907335331193,2.34916325049608,2.34966267929691,0,2.34928311340828,2.35653481959643,2.3571141570054,2.35730393994972,2.35910188363273,2.35804309457496,2.35868236344003,2.35897203214451,2.35789326593471,0,2.35816295748716,2.35825285467131,2.35803310599894,2.35811301460707,2.3593216323051,2.35924172369696,2.35922174654493,2.3589620435685,2.36133932466048,0,2.36255793093452,2.36190867349343,2.36228823938207,2.36227825080605,2.36223829650199,2.36111957598811,2.36069006721939,2.3600408097783,2.30431454418093,0,2.30373520677196,2.3026264748341,2.3002991366222,2.29933024474858,2.298980644588,2.29842128433106,2.29852117009123,2.29886078167579,2.2997597535173,0,2.29845125005911,2.29753230106557,2.29867099873148,2.29846123863513,2.29816158135462,2.29924034756443
2.30887932342058,2.31178599904145,2.31132652454468,2.31084707289588,2.31165614755323,2.31492241191071,0,2.31044752985521,2.30932880934133,2.31036762124707,2.31114673017638,2.27305030124855,2.2733799242571,2.27136223190172,2.27121240326147,2.27118243753342,0,2.27107256319724,2.27197153503874,2.27085281452487,2.2710525860452,2.27175178636637,2.27144214050985,2.27306028982457,2.27418899891446,2.27287050688025,0,2.27323009561685,2.27313020985668,2.27415903318641,2.27350977574532,2.27403917027421,2.27575720534908,2.27436879328276,2.27490817638766,2.27508797075596,0,2.27630657703001,2.27762506906421,2.27808454356098,2.27913334404274,2.27906342401062,2.28103117348592,2.28341844315392,2.33553883280925,2.33658763329101,0,2.33708706209184,2.33712701639591,2.33643780465076,2.33845549700614,2.33439014656733,2.33438015799131,2.33274203152456,2.33273204294855,2.33069437344113,0,2.33074431632122,2.32838701238127,2.32832708092517,2.32813729798085,2.32800744649263,2.3282871266211,2.32740813193163,2.32898632694227,2.32790756073246,0,2.32808735510076,2.32755796057188,2.32999517311996,2.32988529878378,2.3313336423062,2.33090413353748,2.33210276265949,2.33271206579651,2.33403055783072,0,2.33431023795919,2.3355687985373,2.33542895847307,2.33199288832331,2.33017496748826,2.33065441913707,2.29038048063759,2.29044041209369,2.28884223993101,0,2.28876233132288,2.28613533583047,2.28576575851785,2.28558596414955,2.28587563285404,2.2856758613337,2.28460708369991,2.28539618120523,2.2845371636678,0,2.28518642110888,2.2847169580361,2.28413762062713,2.28396781483484,2.28413762062713,2.28415759777916,2.28429743784339,2.28379800904256,2.28415759777916,0,2.28391787195476,2.28381798619459,2.28380799761857,2.28397780341086,2.28478687806821,2.28484680952431,2.28496667243652,2.28455714081983,2.28417757493119,0,2.28509652392473,2.28435736929949,2.28433739214746,2.28479686664423,2.28520639826092,2.2854960669654,2.28620525586259,2.28685451330368,2.28632511877479,0,2.28680457042359,2.28651490171911,2.28683453615164,2.28723407919231,2.28755371362485,2.28951147452413,2.2880631310017,2.28926176012371,2.29011078908513,0,2.290630195038,2.29353687065887,2.34745520399722,2.34626656345122,2.34689584374028,2.34819435862245,2.34831422153466,2.34932306771235,2.35909189505671,0,2.35870234059206,2.36231820511012,2.35832277470342,2.35960131243357,2.35897203214451,2.35975114107382,2.3595014266734,2.35770348299039,2.35785331163064,0,2.35827283182334,2.35791324308674,2.35806307172699,2.35886215780833,2.35909189505671,2.35931164372908,2.36012071838644,2.35994092401814,2.35983104968195,0,2.35999086689822,2.36256791951054,2.3621284221658,2.36204851355767,2.3614092446926,2.3626678052707,2.36051027285109,2.30468412149355,2.30482396155779,0,2.30300604072274,2.30116814273566,2.29882082737173,2.30021922801407,2.29964987918112,2.29880085021969,2.29846123863513,2.29857111297131,2.2989207131319,0,2.29820153565869,2.29813161562657,2.29964987918112,2.29808167274649,2.29867099873148,2.29908053034816
2.30899918633278,2.31088702719995,2.31119667305646,2.31104684441621,2.31160620467315,2.31201573628984,0,2.30848976895593,2.30855968898805,2.3096684209259,2.27336993568108,2.27316017558473,2.27139219762977,2.27183169497451,2.27085281452487,2.27230115804729,0,2.27120241468545,2.27065304300453,2.27145212908587,2.27289048403228,2.27156200342206,2.27205144364688,2.27243100953551,2.27347981001727,2.27402918169819,0,2.27317016416075,2.27438877043479,2.27323009561685,2.27338991283312,2.27459853053114,2.27472838201936,2.2752278108202,2.27550749094867,2.27587706826128,0,2.27593699971739,2.27689590301499,2.2776750119443,2.27941302417121,2.27960280711553,2.2803619388928,2.28222980260793,2.33842553127809,2.33678740481134,0,2.33611817021822,2.33594836442594,2.33651771325889,2.33708706209184,2.33611817021822,2.33437016941529,2.3336609805181,2.33185304825907,2.33451999805554,0,2.33197291117127,2.33193295686721,2.33063444198503,2.32920607561464,2.32960561865531,2.32794751503653,2.3285268524455,2.32859677247762,2.3284669209894,0,2.32903626982235,2.32944580143904,2.32992525308784,2.33142353949035,2.3314535052184,2.33189300256314,2.33272205437253,2.33322148317337,2.33414043216691,0,2.33522918695273,2.33570863860153,2.33628797601051,2.33513928976858,2.33245236282008,2.3309740535696,2.2903305377575,2.28927174869973,2.28875234274686,0,2.28727403349638,2.28683453615164,2.28676461611953,2.28640502738292,2.2847768894922,2.28484680952431,2.28565588418167,2.28539618120523,2.28480685522025,0,2.28423750638729,2.28434738072348,2.2845371636678,2.28436735787551,2.28445725505966,2.28416758635518,2.28421752923526,2.28412763205111,2.28407768917103,0,2.28399778056289,2.28406770059501,2.28427746069136,2.28440731217958,2.28448722078771,2.28460708369991,2.28431741499543,2.2848967524044,2.28428744926738,0,2.28644498168699,2.28574578136582,2.2857357927898,2.28491672955643,2.2856758613337,2.28610537010242,2.28660479890326,2.28658482175123,2.28893213711516,0,2.28736393068053,2.28808310815374,2.28715417058418,2.28741387356061,2.28790331378543,2.28847266261839,2.28971124604446,2.2897911546526,2.28939161161193,0,2.2927777388816,2.29250804732915,2.34721547817281,2.34678596940409,2.34653625500368,2.34672603794799,2.34778482700577,2.35860245483189,2.35784332305462,0,2.35853253479978,2.36083989585964,2.36189868491742,2.36042037566694,2.36009075265839,2.36069006721939,2.36026055845067,2.359261700849,2.36092979304379,0,2.35878224920019,2.35804309457496,2.35976112964983,2.35953139240145,2.35963127816162,2.35955136955348,2.36076997582752,2.36036044421084,2.36365667429636,0,2.36267779384672,2.36283761106299,2.36271774815079,2.362248285078,2.36191866206945,2.36172887912513,2.36163898194098,2.30468412149355,2.30280626920241,0,2.30129799422388,2.29944011908477,2.29966985633315,2.29812162705056,2.30040901095839,2.29822151281072,2.29828144426682,2.29748235818549,2.29865102157944,0,2.29830142141886,2.29845125005911,2.2992803018685,2.29991957073357,2.2992203704124,2.29914046180426
2.30973834095802,2.31105683299223,2.31209564489797,2.31027772406292,2.31170609043332,2.31425317731758,0,2.3113964445768,2.30781054578679,2.30904912921287,2.27271068966398,2.27324008419287,2.27264076963186,2.27299036979245,2.27072296303665,2.27162193487816,0,2.27244099811153,2.27116246038139,2.27213135225501,2.27227119231924,2.27243100953551,2.27191160358264,2.27265075820788,2.27363962723354,2.27303032409652,0,2.27371953584167,2.27369955868964,2.27356970720142,2.27415903318641,2.27383939875387,2.27421896464251,2.27479830205148,2.27509795933198,2.27550749094867,0,2.2762466455739,2.27673608579872,2.2777948748565,2.27871382385004,2.27898351540249,2.28044184750093,2.28308882014537,2.33707707351583,2.33591839869789,0,2.33668751905117,2.33693723345159,2.33623803313042,2.33679739338736,2.33415042074292,2.33476971245596,2.33459990666368,2.33469979242384,2.33274203152456,0,2.33000516169598,2.32982536732768,2.32978541302361,2.3303747390086,2.33015499033623,2.33253227142821,2.32849688671745,2.32931594995082,2.32998518454394,0,2.3301350131842,2.32936589283091,2.33170321961882,2.33182308253102,2.33179311680297,2.33369094624615,2.33261218003635,2.3334212546937,2.33505938116045,0,2.3355687985373,2.3358085243617,2.335389004169,2.33618809025034,2.33625801028245,2.33060447625698,2.29002089190098,2.29019069769327,2.28903202287533,0,2.28730399922443,2.28817300533789,2.2869244333358,2.28595554146217,2.28461707227593,2.28481684379626,2.28623522159064,2.28470696946008,2.28541615835727,0,2.28461707227593,2.28478687806821,2.28533624974913,2.28417757493119,2.28416758635518,2.28397780341086,2.28442728933161,2.28848265119441,2.2853762040532,0,2.28360822609824,2.28347837461002,2.28443727790763,2.28510651250075,2.28448722078771,2.28443727790763,2.28505656962067,2.28587563285404,2.28681455899961,0,2.28530628402108,2.28484680952431,2.28745382786468,2.28616530155852,2.28592557573412,2.28600548434226,2.28599549576624,2.28653487887114,2.28654486744716,0,2.28668470751139,2.28733396495248,2.28757369077688,2.28913190863549,2.28934166873185,2.28887220565906,2.28920182866761,2.29038048063759,2.29140930396731,0,2.29092985231851,2.29373664217921,2.34537758018573,2.34658619788376,2.34665611791588,2.34615668911504,2.35817294606317,2.35807306030301,2.35751370004607,0,2.35797317454284,2.36027054702669,2.36034046705881,2.3602206041466,2.35976112964983,2.36005079835432,2.35969120961772,2.35977111822585,2.35953139240145,0,2.36180878773327,2.3589620435685,2.35975114107382,2.35964126673763,2.36074001009948,2.36057020430719,2.36057020430719,2.36081991870761,2.36156906190886,0,2.36166894766903,2.36244805659834,2.36174885627717,2.36139925611658,2.36287756536706,2.36177882200522,2.35997088974619,2.30339559518739,2.30103829124744,0,2.30119810846371,2.3001193422539,2.29847122721114,2.29857111297131,2.29903058746808,2.29879086164368,2.29745239245743,2.29865102157944,2.29841129575504,0,2.29839131860301,2.29884080452376,2.30007938794984,2.29886078167579,2.29953001626892,2.29937019905265
2.31026773548691,2.31116670732841,2.31194581625772,2.31208565632195,2.3113365131207,2.31299461673948,0,2.31483251472656,2.30848976895593,2.30959850089379,2.31104684441621,2.27768500052031,2.27118243753342,2.27175178636637,2.27332998137702,2.27301034694448,0,2.27311023270465,2.27161194630214,2.27306028982457,2.2713522433257,2.27213135225501,2.27187164927857,2.27212136367899,2.27333996995303,2.27330001564897,0,2.27344984428922,2.27323009561685,2.27323009561685,2.2749880849958,2.27436879328276,2.2750480164519,2.27461850768318,2.2753476737324,2.27517786794011,0,2.27583711395722,2.27728545747964,2.27742529754388,2.27794470349675,2.27944298989926,2.28144070510261,2.28311878587342,2.33626799885847,2.33573860432958,0,2.33628797601051,2.33713700497193,2.33660761044304,2.3373567536443,2.3361681130983,2.33547890135315,2.33481965533604,2.33399060352666,2.33278198582863,0,2.33304168880507,2.33232251133186,2.3313336423062,2.32954568719921,2.32929597279879,2.32915613273456,2.3285268524455,2.32873661254185,2.32951572147116,0,2.32967553868743,2.32994523023988,2.3305545333769,2.3315134366745,2.33229254560381,2.33368095767014,2.33463986096774,2.33540898132103,2.33642781607474,0,2.33583849008975,2.33633791889059,2.33903483441511,2.33597833015399,2.33606822733814,2.3304946019208,2.29004086905302,2.28807311957772,2.28837277685822,0,2.28723407919231,2.28569583848574,2.28628516447072,2.28598550719022,2.28514646680482,2.28475691234016,2.28482683237228,2.28536621547718,2.28491672955643,0,2.28485679810033,2.2847768894922,2.2848967524044,2.28401775771492,2.28486678667635,2.28412763205111,2.28436735787551,2.28468699230805,2.28500662674058,0,2.28406770059501,2.28455714081983,2.28418756350721,2.28454715224381,2.28421752923526,2.28416758635518,2.28473693518813,2.28479686664423,2.28458710654788,0,2.2857357927898,2.28602546149429,2.28546610123735,2.2859155871581,2.28474692376415,2.28590559858209,2.28611535867844,2.28614532440649,2.28609538152641,0,2.28675462754351,2.28682454757563,2.28792329093747,2.28876233132288,2.28889218281109,2.28864246841067,2.28895211426719,2.28933168015583,2.29098978377461,0,2.29202859568035,2.29328715625846,2.34630651775529,2.35907191790468,2.34613671196301,2.35719406561353,2.35814298033512,2.35799315169487,2.3575936086542,0,2.35839269473554,2.35960131243357,2.35982106110594,2.36056021573117,2.3602206041466,2.36143921042065,2.3602805356027,2.36031050133076,2.35976112964983,0,2.36084988443566,2.36115953029218,2.36073002152346,2.36066010149134,2.36138926754056,2.36097973592388,2.36418606882525,2.36175884485318,2.362248285078,0,2.36303738258332,2.36371660575246,2.3615291076048,2.35997088974619,2.35965125531365,2.36020062699457,2.36038042136287,2.30312590363494,2.30224690894547,0,2.30027915947017,2.29930027902053,2.29853115866724,2.29867099873148,2.2991604389563,2.29831140999487,2.29820153565869,2.29768212970582,2.29931026759655,0,2.29827145569081,2.29756226679362,2.29876089591563,2.29978971924535,2.29833138714691,2.29819154708267
2.30920894642913,2.31046750700724,2.3113964445768,2.31148634176095,2.31174604473738,2.31295466243541,0,2.31341413693218,2.31472264039037,2.27353974147337,2.27304031267253,2.2730203355205,2.27306028982457,2.27162193487816,2.27285052972821,2.27272067824,0,2.27200150076679,2.2712923118696,2.27219128371111,2.27224122659119,2.27307027840058,2.27331000422498,2.27269071251195,2.27378945587379,2.27390931878599,0,2.27291046118431,2.27262079247983,2.27344984428922,2.27399921597014,2.27444870189089,2.27389933020997,2.27416902176242,2.27519784509215,2.27577718250112,0,2.27620669126984,2.27649635997432,2.27708568595931,2.27983254436391,2.2803619388928,2.28177032811116,2.28269926568072,2.33570863860153,2.33565869572145,0,2.33636788461864,2.33776628526098,2.3377163423809,2.33745663940446,2.33706708493981,2.33446006659944,2.33485960964011,2.33449003232749,2.3327020772205,0,2.3331815288693,2.33081423635333,2.33088415638545,2.33053455622486,2.32979540159963,2.32969551583946,2.33066440771308,2.32965556153539,2.32965556153539,0,2.33149345952247,2.33160333385866,2.33516925549663,2.33410047786284,2.33252228285219,2.3349095525202,2.33517924407265,2.33588843296984,2.33667753047516,0,2.33755652516463,2.33704710778778,2.33597833015399,2.33748660513251,2.33578854720967,2.33749659370853,2.29026061772538,2.28917186293956,2.28838276543424,0,2.28743385071265,2.28807311957772,2.28628516447072,2.28580571282192,2.28632511877479,2.28576575851785,2.2844772322117,2.28612534725446,2.28560594130159,0,2.28670468466343,2.28497666101253,2.28472694661211,2.28445725505966,2.28446724363568,2.28454715224381,2.28428744926738,2.28436735787551,2.28511650107677,0,2.28450719793974,2.28442728933161,2.28726404492036,2.2851964096849,2.28494669528448,2.28518642110888,2.28510651250075,2.28498664958855,2.28493670670846,0,2.28535622690117,2.28817300533789,2.28636507307886,2.2851964096849,2.28593556431014,2.28614532440649,2.28630514162276,2.28705428482401,2.28662477605529,0,2.28690445618376,2.28743385071265,2.28840274258627,2.2883028568261,2.28881227420296,2.28923179439566,2.29040045778962,2.29096980662257,2.29076004652622,0,2.29270781884949,2.29349691635481,2.35506649892197,2.35623516231593,2.35587557357932,2.35646489956431,2.3567545682688,2.35804309457496,2.36119948459624,0,2.35993093544212,2.35957134670552,2.36007077550635,2.36051027285109,2.35985102683399,2.35994092401814,2.36046032997101,2.36038042136287,2.3614092446926,0,2.36040039851491,2.36025056987465,2.35984103825797,2.36162899336496,2.36159902763691,2.36143921042065,2.36246803375037,2.3623681479902,2.36255793093452,0,2.36301740543129,2.36319719979959,2.36179879915725,2.36143921042065,2.36050028427507,2.36130935893243,2.30765072857052,2.30159765150438,2.30212704603327,0,2.30047893099051,2.29924034756443,2.29800176413836,2.29925033614045,2.29852117009123,2.29763218682574,2.29851118151521,2.29805170701844,2.29765216397777,0,2.29800176413836,2.29795182125827,2.29936021047663,2.29945010766078,2.29926032471646,2.29991957073357
2.30933879791735,2.31106682156825,2.3134241255082,2.31260506227482,2.31168611328128,2.31201573628984,0,2.3116961018573,2.31618097248882,2.27493814211571,2.27356970720142,2.27273066681601,2.27139219762977,2.27190161500662,2.27247096383958,2.27056314582038,0,2.27309025555262,2.27256086102373,2.27125235756554,2.27194156931069,2.27253089529568,2.27204145507086,2.27261080390381,2.27327004992092,2.27306028982457,0,2.27282056400016,2.27334995852905,2.27452861049903,2.27471839344334,2.27450863334699,2.27472838201936,2.27620669126984,2.27592701114137,2.27598694259747,0,2.27652632570237,2.27668614291864,2.27735537751176,2.27891359537037,2.27896353825046,2.28029201886068,2.28306884299334,2.33542895847307,2.33595835300195,0,2.33642781607474,2.33864527995045,2.3380759311175,2.33830566836589,2.33891497150291,2.33634790746661,2.33693723345159,2.33633791889059,2.33423032935106,0,2.33193295686721,2.33279197440465,2.33148347094646,2.3301949446403,2.33026486467241,2.33118381366595,2.3308541906574,2.33006509315208,2.33063444198503,0,2.33077428204927,2.33143352806637,2.33374088912624,2.33375087770225,2.33427028365512,2.33649773610686,2.33733677649226,2.33639785034669,2.33883506289477,0,2.33766639950081,2.33852541703825,2.3381957940297,2.33910475444722,2.33947433175984,2.34266068750918,2.29046038924572,2.28938162303591,2.28917186293956,0,2.28766358796103,2.28559595272557,2.28775348514518,2.28617529013454,2.28615531298251,2.28563590702964,2.2857357927898,2.28605542722234,2.28553602126947,0,2.28540616978125,2.28546610123735,2.28480685522025,2.28550605554142,2.28444726648364,2.2845970951239,2.28430742641941,2.28518642110888,2.28504658104465,0,2.28410765489908,2.28518642110888,2.28560594130159,2.285256341141,2.28473693518813,2.2853162725971,2.28524635256498,2.2856159298776,2.28560594130159,0,2.28602546149429,2.28625519874267,2.28577574709387,2.28597551861421,2.28677460469554,2.28702431909596,2.28663476463131,2.28717414773621,2.28733396495248,0,2.2871042277041,2.28828287967407,2.28807311957772,2.28827289109805,2.29109965811079,2.28866244556271,2.29076004652622,2.29178886985595,2.29172893839985,0,2.29340701917066,2.29463561402072,2.356874431181,2.3547268873374,2.35703424839727,2.35652483102041,2.35679452257286,2.35721404276557,2.36199857067758,0,2.3614691761487,2.36044035281897,2.36104965595599,2.36051027285109,2.35985102683399,2.3600408097783,2.36080993013159,2.36114954171616,2.36074001009948,0,2.36095975877184,2.36202853640563,2.36143921042065,2.36174885627717,2.36228823938207,2.3625479423585,2.36277767960689,2.36332705128781,2.36381649151263,0,2.36486529199439,2.36264782811867,2.36217836504588,2.36252796520647,2.36285758821502,2.36317722264756,2.30221694321742,2.30303600645079,2.30086848545516,0,2.29995952503764,2.29817156993064,2.29938018762867,2.29955998199697,2.29800176413836,2.2974324153054,2.2978519354981,2.29817156993064,2.29833138714691,0,2.29889074740385,2.2991005075002,2.29890073597986,2.29939017620468,2.30073863396694,2.30082853115109
2.31021779260682,2.31075717571173,2.31463274320622,2.3134840569643,2.31358394272446,2.3117560333134,0,2.31233537072237,2.31267498230694,2.31584136090425,2.27351976432134,2.27194156931069,2.27154202627002,2.27285052972821,2.2726008153278,2.27397923881811,0,2.27143215193384,2.27280058684813,2.27328003849693,2.27179174067044,2.27310024412863,2.2736795815376,2.27283055257618,2.2734997871693,2.27380943302582,0,2.27417901033844,2.27328003849693,2.273319992801,2.2736196500815,2.27420897606649,2.27550749094867,2.2758870568373,2.27496810784376,2.27545754806858,0,2.27655629143042,2.27798465780082,2.27747524042396,2.27900349255452,2.28008225876433,2.28117101355016,2.2821498939998,2.33779625098903,2.33963414897611,0,2.33889499435087,2.3373567536443,2.33724687930811,2.33895492580697,2.33782621671708,2.33705709636379,2.33751657086056,2.33471976957588,2.33553883280925,0,2.33252228285219,2.33430024938317,2.33446006659944,2.33167325389077,2.33205281977941,2.33114385936189,2.33108392790579,2.33116383651392,2.33102399644968,0,2.3313935737623,2.33269208864448,2.33259220288431,2.33314157456523,2.33450002090351,2.3354489356251,2.33582850151373,2.33701714205973,2.33788614817318,0,2.33859533707037,2.33857535991834,2.3385553827663,2.33936445742366,2.337176959276,2.33660761044304,2.29061021788597,2.28944155449201,2.28900205714728,0,2.28882226277898,2.28765359938502,2.28643499311098,2.28610537010242,2.28609538152641,2.28659481032724,2.28485679810033,2.28510651250075,2.2854361355093,0,2.28509652392473,2.28569583848574,2.28584566712599,2.28682454757563,2.28593556431014,2.28661478747928,2.28603545007031,2.28738390783257,2.28575576994184,0,2.28496667243652,2.28634509592682,2.28548607838939,2.28512648965278,2.28597551861421,2.28557597557354,2.28581570139794,2.28664475320733,2.28526632971702,0,2.28684452472766,2.28617529013454,2.28592557573412,2.28701433051995,2.28664475320733,2.28640502738292,2.28726404492036,2.28631513019877,2.28807311957772,0,2.28763362223298,2.28755371362485,2.2881829939139,2.28862249125864,2.28917186293956,2.2902106748453,2.29050034354979,2.29146923542341,2.29117956671892,0,2.29287762464177,2.35491667028172,2.35608533367568,2.35590553930737,2.35586558500331,2.35602540221958,2.35688441975701,2.36213841074182,2.36113955314014,0,2.36139925611658,2.36183875346132,2.36139925611658,2.36175884485318,2.36058019288321,2.36145918757268,2.36422602312932,2.36080993013159,2.36153909618081,0,2.36259788523859,2.36239811371825,2.3626678052707,2.36310730261544,2.36308732546341,2.36347687992806,2.36413612594516,2.3643958289216,2.36414611452118,0,2.36364668572035,2.3636766514484,2.36449571468177,2.36223829650199,2.36274771387884,2.30528343605456,2.30430455560492,2.30124805134379,2.29939017620468,0,2.30026917089415,2.29852117009123,2.29906055319613,2.297792004042,2.299579959149,2.29973977636527,2.29817156993064,2.29885079309978,2.29860107869936,0,2.29903058746808,2.29843127290708,2.29912048465223,2.29950005054087,2.30026917089415,2.30001945649374
