2.26209754420936,2.26109838010342,2.26138813769414,2.26175782841334,2.26210753585042,2.26300678354577,2.26364624857357,2.26418579719078,2.26523491950202,2.2648452455007,2.26481527057752,2.26633400001855,2.26611418391524,2.26683358207152,2.26759294679204,2.26754298858674,2.2682923616662,2.26770285484369,2.2685621359748,2.27030068151914,2.27082024685423,2.27067037223834,2.27069035552045,2.27111999608601,2.27161957813898,2.27262873388598,2.2733381404012,2.27374779768463,2.27387768901841,2.27512664415083,2.27472697850846,2.27564620948592,2.2759459587177,2.27680523984881,2.27783437887793,2.27840390241832,2.27810415318654,2.27785436216005,2.27915327549777,2.27996259842359,2.28042221391232,2.28049215539974,2.28007250647524,2.28189098514805,2.28189098514805,2.28166117740369,2.28290014089505,2.28283019940764,2.28391928828311,2.28726648803802,2.28427898736125,2.28450879510562,2.28583768336652,2.28562785890427,2.28610745767512,2.28794591963006,2.28773609516781,2.2885254348115,2.29152292712932,2.29009412245783,2.28962451532804,2.29207246738759,2.29353124698227,2.2990865994113,2.30058534557021,2.30533137507343,2.29946628177156,2.29788760248417,2.29740800371332,2.29799751053582,2.29689843001929,2.29601916560606,2.29766778638086,2.29378103800875,2.29629893155572,2.29455039437033,2.29159286861674,2.29589926591335,2.29509993462859,2.29603914888818,2.29655871422327,2.29635888140208,2.29693839658352,2.29744797027755,2.29771774458616,2.29768776966298,2.30187426726687,2.29870691705104,2.29873689197422,2.29900666628282,2.29939634028414,2.29914654925765,2.30060532885233,2.30066527869868,2.30088509480199,2.30095503628941,2.3007352201861,2.30345294655426,2.30240382424302,2.30237384931984,2.30306327255294,2.30214404157548,2.30267359855163,2.3038126456324,2.30426226948007,2.30473187660986,2.30525144194495,2.30490173450787,2.30489174286681,2.30491172614893,2.30623062276878,2.3064704221542,2.30677017138598,2.30717982866942,2.3074795779012,2.30767941072239,2.308119042929,2.30759947759392,2.30809905964689,2.30934801477931,2.31071686960445,2.30970771385745,2.31012736278195,2.310976652272,2.31049705350114,2.3112464265806,2.31157615073556,2.31508321674741,2.31249538171303,2.31329471299778,2.31324475479248,2.31283509750905,2.31324475479248,2.31384425325605,2.31430386874478,2.31407406100041,2.31552284895403,2.31829053352748,2.31605240593018,2.31621227218713,2.31728137778048,2.31728137778048,2.31829053352748,2.3176710517818,2.31849036634867,2.31728137778048,2.32012899548242,2.32019893696983,2.31962941342944,2.32284672185057,2.32248702277244,2.32558443150085,2.32522473242271,2.32275679708104,2.32256695590091,2.32363606149427,2.32357611164791,2.32439542621478,2.32431549308631,2.32470516708762,2.32498493303729,2.3254745234492,2.32773263432863,2.32665353709421,2.32691331976175,2.327123144224,2.32804237520147,2.3302005696703,2.32900157274317,2.32870182351139,2.33338790316825,2.32999074520805,2.32998075356699,2.33114977557094,2.33248865547291,2.33320805362918
2.26126823800143,2.2604888899988,2.2607087061021,2.26166790364381,2.26413583898548,2.26336648262391,2.26406589749807,2.26328654949543,2.2641558222676,2.26470536252587,2.26653383283974,2.26533483591261,2.2658044430424,2.26632400837749,2.26669369909669,2.26762292171522,2.26964123320922,2.26820243689666,2.26841226135891,2.26981109110723,2.27017079018536,2.27016079854431,2.27044056449397,2.27101008803436,2.27094014654694,2.27154963665156,2.27277860850187,2.27350799829921,2.27405753855748,2.2736578729151,2.27455712061045,2.27543638502367,2.27624570794949,2.27637559928326,2.27734478846602,2.28070197986198,2.27788433708323,2.27771447918522,2.27874361821434,2.27890348447129,2.27999257334677,2.27988266529511,2.28142137801826,2.28075193806728,2.28127150340237,2.28137141981296,2.28197091827653,2.28363952233345,2.28226067586725,2.28501836879965,2.28397923812947,2.28457873659303,2.28514826013342,2.28574775859698,2.28617739916254,2.28617739916254,2.2875662372698,2.28816573573336,2.28777606173205,2.28785599486052,2.28928479953202,2.29092342866576,2.29429061170278,2.28144136130038,2.28075193806728,2.28150131114674,2.28270030807386,2.28414909602748,2.28450879510562,2.28325983997319,2.28491845238905,2.28603751618771,2.29069362092139,2.29311159805777,2.29343133057167,2.29509993462859,2.29368112159816,2.29459036093456,2.29560950832262,2.29496005165376,2.2952697925266,2.29551958355309,2.29648877273585,2.29634888976102,2.29675854704446,2.29726812073848,2.29788760248417,2.29846711766561,2.29809742694642,2.29806745202324,2.29927644059143,2.29921649074507,2.29901665792388,2.29939634028414,2.30044546259538,2.30189425054899,2.30067527033974,2.30120482731589,2.30284345644964,2.30150457654767,2.30262364034633,2.30409241158206,2.30283346480858,2.30308325583506,2.30345294655426,2.30395252860723,2.30426226948007,2.30511155897012,2.30397251188935,2.30398250353041,2.30574103235686,2.30691005436082,2.30575102399792,2.30813902621112,2.30722978687472,2.30767941072239,2.30753952774756,2.30697000420717,2.3082189593396,2.30857865841774,2.30920813180448,2.30980763026804,2.31047707021902,2.31042711201373,2.31078681109187,2.31226557396866,2.31048706186008,2.31114651017001,2.31158614237662,2.31227556560972,2.31233551545608,2.31242544022561,2.31270520617527,2.31306490525341,2.31413401084677,2.31379429505075,2.31434383530902,2.31585257310899,2.31477347587457,2.31540294926131,2.31566273192886,2.31663192111162,2.31781093475663,2.31764107685862,2.31739128583214,2.3235061701605,2.31640211336726,2.3193196725566,2.31927970599237,2.32178760789828,2.32171766641086,2.32145788374332,2.32128802584531,2.32171766641086,2.3220274072837,2.32578426432204,2.32304655467176,2.3237259862638,2.32361607821215,2.32463522560021,2.32493497483199,2.32471515872868,2.32649367083726,2.3270731860187,2.32858192381868,2.32888167305046,2.32982088731004,2.32801240027829,2.32836210771537,2.32785253402134,2.32973096254051,2.33151946629014,2.32972097089945,2.33168932418815,2.33072013500539,2.33088000126234
2.26029904881867,2.26039896522926,2.25987939989417,2.261028438616,2.26119829651401,2.26137814605308,2.26348638231662,2.26498512847553,2.26349637395768,2.26360628200933,2.26508504488613,2.26414583062654,2.26504507832189,2.26481527057752,2.26636397494173,2.26651384955762,2.26785272945958,2.26744307217615,2.26828237002514,2.26916163443836,2.26953132515756,2.26936146725955,2.27030068151914,2.27032066480126,2.27084023013635,2.2712698707019,2.27235895957738,2.27278860014293,2.27351798994027,2.27374779768463,2.27373780604357,2.27444721255879,2.27522656056143,2.27723488041437,2.27554629307533,2.27653546554021,2.27653546554021,2.27831397764878,2.27852380211103,2.27852380211103,2.27881355970175,2.28051213868185,2.28028233093749,2.28470862792681,2.28088182940105,2.28271029971492,2.28165118576263,2.2821008096103,2.28255043345797,2.28281021612552,2.28390929664205,2.28735641280755,2.28625733229102,2.28488847746588,2.28441887033608,2.28588764157182,2.28508831028706,2.28638722362479,2.28728647132013,2.286926772242,2.29049378810021,2.29106331164059,2.27980273216664,2.27917325877989,2.27868366836798,2.27922321698519,2.27920323370307,2.27942304980638,2.27993262350041,2.28131146996661,2.28449880346456,2.28660703972809,2.2898543230724,2.29251209959421,2.29356122190544,2.29307163149353,2.29423066185642,2.29508994298753,2.2949500600127,2.29480018539681,2.29587928263123,2.29456038601138,2.29554955847627,2.2963289064789,2.29599918232394,2.29731807894378,2.29723814581531,2.2974379786365,2.29822731828019,2.29764780309874,2.29805746038218,2.29798751889476,2.29860700064045,2.29996586382453,2.30023563813313,2.30010574679936,2.30059533721127,2.30233388275561,2.30199416695959,2.30122481059801,2.3017443759331,2.30227393290925,2.30257368214103,2.30460198527609,2.3027035734748,2.30351289640062,2.30364278773439,2.3041823363516,2.30504161748271,2.30845875872502,2.30411239486418,2.305091575688,2.30515152553436,2.30493170943105,2.30567109086945,2.30663028841115,2.30604078158865,2.30678016302704,2.3074296196959,2.30776933549192,2.30812903457006,2.30829889246807,2.309128198676,2.30900829898329,2.31032719560313,2.31005742129453,2.31177598355675,2.3115162008892,2.31152619253026,2.31120646001636,2.31150620924814,2.31227556560972,2.31190587489052,2.31216565755807,2.31361444551168,2.31408405264147,2.31370437028121,2.31497330869576,2.3153330077739,2.31549287403085,2.31521310808119,2.31564274864674,2.31737130255002,2.31568271521098,2.31625223875136,2.31691168706128,2.31875014901622,2.31857029947715,2.31792084280829,2.31918978122283,2.32049868620161,2.32060859425327,2.3211181679473,2.32247703113138,2.323086521236,2.3223970980029,2.32275679708104,2.32301657974858,2.32287669677375,2.32359609493003,2.32333631226249,2.32403572713664,2.32469517544657,2.32617393832336,2.32635378786243,2.32633380458031,2.32895161453787,2.32747285166108,2.32777260089286,2.32721306899354,2.32849199904914,2.32893163125576,2.32994078700276,2.33058025203056,2.33061022695374,2.33054028546632
2.25806092122136,2.25878031937764,2.26024909061337,2.26104842189812,2.26118830487296,2.26142810425838,2.26205757764512,2.26199762779877,2.26295682534047,2.26418579719078,2.26382609811264,2.2644755547815,2.26542476068215,2.26391602288217,2.26569453499075,2.26625406689008,2.26677363222517,2.26685356535364,2.26763291335627,2.26796263751124,2.2693015174132,2.26901175982247,2.27332814876014,2.27035063972443,2.270950138188,2.27133981218932,2.27115996265025,2.27223905988466,2.27309834101577,2.27475695343163,2.2743972543535,2.27430732958396,2.27494679461176,2.27440724599456,2.27492681132964,2.27623571630843,2.27751464636403,2.27747467979979,2.27726485533755,2.27867367672692,2.27894345103553,2.27798425349382,2.27925319190837,2.28054211360503,2.28143136965932,2.28145135294144,2.28094177924741,2.28201088484077,2.28191096843017,2.28277024956128,2.28313994028048,2.28402919633477,2.28462869479833,2.28571778367381,2.28405917125794,2.28444884525926,2.28609746603406,2.28691678060094,2.28659704808704,2.28684683911352,2.28712660506318,2.2854480093652,2.28369947217981,2.28156126099309,2.280032539911,2.28002254826994,2.28069198822092,2.27885352626599,2.28050214704079,2.28559788398109,2.28531811803143,2.29012409738101,2.29130311102602,2.29368112159816,2.29300169000612,2.29321151446836,2.29352125534121,2.29439052811338,2.29372108816239,2.29474023555045,2.29498003493588,2.29522982596237,2.29484015196105,2.29511991791071,2.29609909873453,2.29587928263123,2.29635888140208,2.30198417531853,2.29863697556362,2.29819734335701,2.29799751053582,2.29816736843383,2.29858701735833,2.29889675823117,2.29921649074507,2.29983597249075,2.29968609787486,2.30039550439008,2.30028559633843,2.30062531213445,2.30134471029072,2.30149458490662,2.30120482731589,2.30192422547217,2.30199416695959,2.30304328927082,2.3031731806046,2.30414236978736,2.30354287132379,2.3045020688655,2.30435219424961,2.3044021524549,2.30804910144159,2.30586093204958,2.30587092369064,2.30548124968932,2.30617067292242,2.30618066456348,2.30706992061777,2.30735967820849,2.30878848287998,2.30750955282438,2.3081690011343,2.30786925190252,2.30891837421376,2.30892836585482,2.30920813180448,2.31047707021902,2.31011737114089,2.31138630955543,2.31307489689447,2.31165608386404,2.31131636806802,2.31223559904548,2.3135345123832,2.3132147798693,2.31311486345871,2.31260528976468,2.31287506407328,2.31526306628648,2.31519312479907,2.31577263998051,2.31586256475005,2.31611235577653,2.31756114373015,2.31719145301095,2.31852034127185,2.31682176229175,2.31929968927448,2.31901992332482,2.31962941342944,2.32046871127844,2.32058861097115,2.32022891189301,2.32258693918303,2.322077365489,2.32156779179497,2.32323639585189,2.32560441478297,2.32272682215786,2.32245704784926,2.32322640421083,2.32351616180156,2.32602406370747,2.32545454016708,2.32575428939886,2.32625387145183,2.32715311914718,2.32745286837896,2.32728301048095,2.32804237520147,2.32767268448227,2.32964103777097,2.33034045264513,2.32889166469152,2.32984087059216
2.2584206202995,2.25797099645183,2.25967956707298,2.26012919092066,2.2600692410743,2.26055883148621,2.26148805410474,2.26114833830872,2.26400594765171,2.26337647426497,2.26396598108747,2.26431568852455,2.26538479411791,2.26478529565434,2.26554466037486,2.26496514519341,2.26665373253245,2.26683358207152,2.26732317248343,2.2678727127417,2.26872200223175,2.26963124156816,2.26976113290193,2.26980109946617,2.27009085705689,2.27037062300655,2.27072033044363,2.27117994593237,2.27283855834823,2.27336811532438,2.27346803173497,2.27377777260781,2.2760958333336,2.27518659399719,2.2750367193813,2.27552630979321,2.27563621784486,2.27749466308191,2.27789432872429,2.278014228417,2.27761456277463,2.27891347611235,2.27975277396134,2.28059207181033,2.28148132786462,2.28063203837457,2.28127150340237,2.2825204585348,2.28189098514805,2.28155126935203,2.28170114396792,2.28244052540632,2.28285018268976,2.28304002386988,2.28331978981955,2.28516824341554,2.28506832700495,2.2862373490089,2.28610745767512,2.28809579424595,2.28689679731882,2.28785599486052,2.28832560199031,2.28785599486052,2.28241055048314,2.28081188791364,2.28191096843017,2.27985269037193,2.2854480093652,2.28344968115332,2.28829562706714,2.28991427291876,2.29141301907767,2.29257204944056,2.2919225927717,2.29315156462201,2.29286180703129,2.29274190733857,2.29446046960079,2.29411076216371,2.29437054483126,2.29482016867893,2.2945803692935,2.2952697925266,2.29496005165376,2.29498003493588,2.29607911545242,2.29794755233052,2.2965986807875,2.2966985971981,2.29752790340603,2.2973380622259,2.29813739351065,2.29817736007489,2.29883680838481,2.29901665792388,2.29909659105236,2.29962614802851,2.30006578023512,2.29971607279804,2.30026561305631,2.30057535392915,2.3004654458775,2.30129475208543,2.30136469357284,2.30152455982979,2.30188425890793,2.30245378244832,2.30297334778341,2.30507159240588,2.30439216081384,2.304082419941,2.30437217753173,2.3044021524549,2.30547125804826,2.30655035528268,2.30665027169327,2.30571105743369,2.30603078994759,2.30732970328531,2.30724977015684,2.30722978687472,2.30796916831311,2.30846875036608,2.30810905128794,2.30829889246807,2.30970771385745,2.3092281150866,2.30908823211177,2.30992752996076,2.31126640986272,2.31079680273293,2.31207573278853,2.31205574950641,2.31213568263489,2.31295499720176,2.31559279044144,2.31385424489711,2.31815065055265,2.31373434520439,2.31510320002953,2.31509320838847,2.31566273192886,2.31651202141891,2.31609237249441,2.31545290746661,2.3162422471103,2.31716147808777,2.31827055024536,2.31828054188642,2.31813066727053,2.31920976450495,2.3190998564533,2.32044872799632,2.31970934655792,2.3216577165645,2.32131800076848,2.32381591103334,2.3217576329751,2.32214730697642,2.32213731533536,2.32299659646647,2.32337627882672,2.32381591103334,2.32435545965055,2.32476511693398,2.32541457360284,2.32667352037633,2.32695328632599,2.3261639466823,2.32797243371405,2.32824220802266,2.33119973377624,2.32836210771537,2.32835211607431,2.3282322163816
2.25814085434984,2.25764127229686,2.25905009368624,2.2594297760465,2.26109838010342,2.26014917420278,2.26097848041071,2.26059879805045,2.26083859743588,2.26253717641598,2.26278696744246,2.2631966247259,2.2634663990345,2.26512501145036,2.2647952872954,2.2648452455007,2.26546472724638,2.26679361550728,2.26676364058411,2.26817246197348,2.26801259571653,2.26770285484369,2.26909169295095,2.26875197715493,2.26983107438934,2.26974114961981,2.27076029700787,2.27165954470322,2.27140975367673,2.27104006295753,2.27209917690983,2.27275862521975,2.27400758035218,2.27418742989125,2.27407752183959,2.27454712896939,2.27514662743295,2.27576610917863,2.27600590856406,2.27783437887793,2.27893345939447,2.27735478010708,2.27836393585408,2.27924320026731,2.27953295785803,2.27927317519049,2.28095177088847,2.28062204673351,2.28092179596529,2.28159123591627,2.28193095171229,2.28206084304606,2.28354959756392,2.28414909602748,2.28413910438642,2.28445883690032,2.28494842731223,2.28602752454665,2.28569780039169,2.28667698121551,2.2868768140367,2.28686682239564,2.28763617875721,2.28712660506318,2.28743634593603,2.28801586111747,2.28642719018903,2.2832098817679,2.28339972294802,2.28879520912011,2.28931477445519,2.29035390512537,2.29080352897305,2.2912831277439,2.29245214974785,2.2922423252856,2.29265198256904,2.29252209123527,2.29342133893061,2.29310160641671,2.29556954175839,2.29299169836506,2.29345131385379,2.29496005165376,2.29493007673058,2.29517986775707,2.29592924083652,2.29546962534779,2.29643881453055,2.29705829627624,2.29827727648549,2.2973380622259,2.29693839658352,2.29813739351065,2.29780766935569,2.29830725140866,2.29798751889476,2.2982972597676,2.30074521182716,2.29991590561923,2.30037552110796,2.29948626505367,2.30096502793047,2.30143463506026,2.30084512823775,2.30146460998344,2.30190424219005,2.30194420875429,2.30231389947349,2.30260365706421,2.30314320568142,2.30338300506684,2.30411239486418,2.30369274593969,2.30456201871185,2.30488175122576,2.30498166763635,2.30554119953568,2.30627058933301,2.30512155061118,2.30581097384428,2.30629057261513,2.30691005436082,2.30769939400451,2.30813902621112,2.30871854139257,2.3085386918535,2.30874851631575,2.31047707021902,2.30992752996076,2.30985758847334,2.31057698662962,2.31171603371039,2.31091670242564,2.31117648509318,2.31222560740442,2.31186590832628,2.3118858916084,2.31338463776731,2.31306490525341,2.31389421146134,2.31350453746003,2.31482343407987,2.31481344243881,2.31521310808119,2.31589253967323,2.31577263998051,2.31615232234077,2.31728137778048,2.31926971435131,2.31770102670498,2.31965938835262,2.31932966419766,2.31882009050363,2.31969935491686,2.31984922953275,2.32033881994466,2.32011900384136,2.32131800076848,2.32300658810752,2.32452531754856,2.32468518380551,2.32300658810752,2.32297661318435,2.324095676983,2.32577427268098,2.32443539277902,2.32537460703861,2.32632381293925,2.32671348694057,2.32693330304387,2.32725303555777,2.32687335319752,2.32849199904914,2.33073012664645,2.32760274299485
2.25723161501343,2.25717166516707,2.25953968409815,2.25836067045314,2.2601691574849,2.25994934138159,2.26066873953787,2.26008922435642,2.26101844697495,2.26169787856699,2.2624572432875,2.26313667487954,2.26364624857357,2.26551468545168,2.26425573867819,2.26438563001197,2.2668135987894,2.26589436781194,2.26672367401987,2.26672367401987,2.26673366566093,2.26741309725297,2.26820243689666,2.26891184341188,2.26947137531121,2.27070034716151,2.27045055613503,2.2706304056741,2.27092016326482,2.27164955306216,2.27262873388598,2.27317827414425,2.27335812368332,2.27354796486345,2.27400758035218,2.27677526492564,2.27539641845944,2.27746468815873,2.27565620112698,2.2763656076422,2.27805419498124,2.28062204673351,2.27822405287925,2.27763454605674,2.27873362657328,2.27964286590969,2.27955294114015,2.28041222227126,2.28044219719444,2.28238057555996,2.28238057555996,2.28175110217322,2.2831599235626,2.28361953905133,2.28375942202616,2.28429897064337,2.28423902079701,2.28515825177448,2.28505833536389,2.28699671372941,2.2875162790645,2.28695674716517,2.28669696449763,2.28689679731882,2.28810578588701,2.28743634593603,2.28501836879965,2.28781602829628,2.28816573573336,2.28931477445519,2.29111326984589,2.29094341194788,2.29111326984589,2.29116322805119,2.29078354569093,2.2940408206763,2.29211243395183,2.29200252590018,2.29195256769488,2.29242217482467,2.29372108816239,2.29414073708689,2.29492008508952,2.29635888140208,2.29550959191203,2.29501000985906,2.29535971729614,2.29587928263123,2.29575938293851,2.29523981760342,2.29619901514513,2.2966486389928,2.2966985971981,2.29754788668815,2.29884680002587,2.29803747710006,2.29880683346163,2.2997260644391,2.29852706751197,2.29896669971858,2.30007577187618,2.30025562141525,2.30118484403377,2.30066527869868,2.3007851783914,2.3010549527,2.30138467685496,2.30155453475297,2.30290340629599,2.30231389947349,2.30234387439667,2.30182430906158,2.30244379080726,2.3054612664072,2.30401247845359,2.30335303014367,2.30466193512245,2.30470190168669,2.30500165091847,2.30558116609991,2.30571105743369,2.30562113266415,2.30616068128136,2.30868856646939,2.30780930205616,2.30919814016342,2.30797915995417,2.30741962805485,2.30824893426278,2.3088584243674,2.30940796462567,2.30895834077799,2.30943793954885,2.31113651852895,2.3108267776561,2.31150620924814,2.31150620924814,2.31180595847993,2.31391419474346,2.31335466284414,2.3136344287938,2.31418396905207,2.31439379351431,2.31457364305338,2.31843041650232,2.31893999019635,2.31647205485467,2.31522309972224,2.31579262326263,2.31653200470103,2.31724141121625,2.31741126911426,2.31834049173278,2.32256695590091,2.3189499818374,2.32026887845725,2.31876014065728,2.32052866112479,2.32179759953934,2.32290667169693,2.32181758282146,2.32433547636843,2.32254697261879,2.3234562119552,2.3237259862638,2.32289668005587,2.32580424760416,2.32486503334458,2.32634379622137,2.32481507513928,2.32638376278561,2.32673347022269,2.3268533699154,2.32721306899354,2.33140955823849,2.3277626092518
2.25676200788364,2.25705176547436,2.2587903110187,2.25724160665449,2.25958964230345,2.25961961722663,2.25938980948226,2.26089854728223,2.26072868938422,2.26068872281998,2.26100845533389,2.26203759436301,2.26496514519341,2.26271702595505,2.26425573867819,2.26632400837749,2.26556464365698,2.26518496129672,2.26669369909669,2.26609420063313,2.26657379940398,2.26739311397085,2.26810252048607,2.26839227807679,2.27112998772707,2.26951134187544,2.26985105767146,2.27082024685423,2.270950138188,2.27087020505952,2.27255879239856,2.27186936916546,2.27266870045022,2.27451715404621,2.27414746332701,2.27479691999587,2.27435728778926,2.27555628471639,2.27605586676936,2.27623571630843,2.27619574974419,2.27766452097992,2.27802422005806,2.27797426185276,2.27822405287925,2.27822405287925,2.28042221391232,2.28059207181033,2.27993262350041,2.28108166222224,2.28249048361162,2.28129148668449,2.28222070930301,2.28259040002221,2.28300005730565,2.28390929664205,2.28410912946324,2.28338973130696,2.2865071233175,2.28568780875063,2.28476857777316,2.28637723198373,2.28726648803802,2.28739637937179,2.28733642952543,2.28763617875721,2.28772610352675,2.28824566886184,2.28924483296778,2.28980436486711,2.28914491655718,2.28901502522341,2.28975440666181,2.29044382989491,2.29119320297436,2.29111326984589,2.29194257605382,2.29218237543925,2.29205248410547,2.2926120160048,2.29368112159816,2.2933513974432,2.29467029406304,2.29498003493588,2.29487012688423,2.29343133057167,2.29574939129745,2.29772773622722,2.29515988447495,2.29520984268025,2.29593923247758,2.29691841330141,2.29548960862991,2.29604914052924,2.29739801207226,2.29762781981662,2.29782765263781,2.2977077529451,2.29826728484443,2.29863697556362,2.30016569664571,2.30038551274902,2.30011573844042,2.29983597249075,2.30058534557021,2.30028559633843,2.30031557126161,2.3017443759331,2.30154454311191,2.30187426726687,2.30202414188276,2.30329308029731,2.30370273758074,2.30288342301387,2.30295336450129,2.30350290475956,2.3034929131185,2.30432221932643,2.30459199363503,2.30478183481516,2.3047718431741,2.30529140850919,2.30498166763635,2.30557117445885,2.30686009615552,2.30616068128136,2.30751954446544,2.30803910980053,2.308119042929,2.30815900949324,2.30895834077799,2.30992752996076,2.31181595012099,2.30992752996076,2.31074684452763,2.31048706186008,2.31105658540047,2.31120646001636,2.31158614237662,2.31298497212494,2.31379429505075,2.31401411115406,2.31374433684545,2.31298497212494,2.31521310808119,2.31545290746661,2.31512318331165,2.3189999400427,2.31625223875136,2.3153330077739,2.3163921217262,2.31732134434472,2.31870019081092,2.31930968091554,2.31833050009172,2.31857029947715,2.31847038306655,2.32047870291949,2.32279676364528,2.32020892861089,2.32245704784926,2.32215729861748,2.3217076747698,2.32196745743735,2.32278677200422,2.32315646272342,2.32380591939228,2.32447535934326,2.32532464883331,2.32828217458689,2.32466520052339,2.33054028546632,2.32691331976175,2.32747285166108,2.32794245879087,2.32683338663328
2.25581280198299,2.2564522670108,2.25669206639622,2.25806092122136,2.25760130573263,2.25885026086505,2.25840063701738,2.26022910733125,2.26025908225443,2.26068872281998,2.26284691728882,2.26193767795241,2.2617678200544,2.26357630708615,2.2635663154451,2.26465540432057,2.26464541267951,2.26465540432057,2.26566456006757,2.26717329786754,2.26629403345431,2.26651384955762,2.26727321427814,2.2681924452556,2.26834231987149,2.26885189356552,2.27009085705689,2.2702107567496,2.27028069823702,2.27249884255221,2.27134980383038,2.27243889270585,2.27173947783169,2.27368784783828,2.27363788963298,2.27510666086871,2.27400758035218,2.27569616769122,2.27515661907401,2.27913329221566,2.27656544046339,2.27767451262098,2.27780440395475,2.27656544046339,2.27786435380111,2.2776944959031,2.27940306652426,2.28030231421961,2.28068199657986,2.28055210524609,2.27996259842359,2.2817810770964,2.28181105201958,2.28162121083945,2.28233061735467,2.28337973966591,2.2828401910487,2.2844388536182,2.28584767500758,2.28474859449104,2.28526815982613,2.28596757470029,2.2855479257758,2.2865071233175,2.28731644624331,2.28715657998636,2.28740637101285,2.28775607844993,2.28822568557972,2.28951460727638,2.28844550168303,2.28974441502075,2.29156289369356,2.29055373794656,2.29143300235979,2.29088346210152,2.29115323641013,2.2922922834909,2.2921923670803,2.29302167328824,2.29208245902865,2.29221235036242,2.29290177359552,2.29289178195446,2.29411076216371,2.29347129713591,2.29392092098358,2.29461034421668,2.29471026062728,2.29540967550144,2.29547961698885,2.29774771950934,2.29695837986564,2.29672857212128,2.29744797027755,2.2974379786365,2.29698835478882,2.29732807058484,2.29795754397158,2.29841715946032,2.29763781145768,2.29787761084311,2.29803747710006,2.29950624833579,2.30051540408279,2.300045796953,2.300045796953,2.30031557126161,2.30047543751856,2.30113488582848,2.30146460998344,2.30240382424302,2.30208409172912,2.30229391619137,2.30323313045095,2.30316318896354,2.30330307193837,2.30354287132379,2.30369274593969,2.30421231127477,2.30417234471054,2.30467192676351,2.30586093204958,2.30540131656084,2.30481180973834,2.30632054753831,2.30676017974492,2.30807907636477,2.30804910144159,2.30844876708396,2.30770938564557,2.30887840764952,2.30879847452104,2.30937798970249,2.31016732934618,2.30983760519122,2.31076682780975,2.31009738785877,2.31138630955543,2.31173601699251,2.31264525632892,2.31325474643354,2.31438380187325,2.31255533155938,2.31334467120308,2.31385424489711,2.31406406935935,2.31511319167059,2.31514316659377,2.31734132762684,2.31729136942154,2.31649203813679,2.31670186259904,2.31681177065069,2.31913982301753,2.31926971435131,2.31879011558045,2.31895997347846,2.31942958060826,2.31957945522415,2.32017895368771,2.3206485608175,2.3220274072837,2.32087836856187,2.32269684723468,2.32263689738833,2.32293664662011,2.32316645436448,2.32396578564923,2.32602406370747,2.3257442977578,2.32751281822532,2.32582423088628,2.32676344514586,2.32594413057899,2.32759275135379
2.2566221249088,2.25801096301606,2.25725159829555,2.25792103824653,2.25748140603991,2.25834068717102,2.25982944168888,2.25936982620014,2.25992935809947,2.25995933302265,2.2614980457458,2.26077864758952,2.26185774482394,2.26134817112991,2.26337647426497,2.26281694236564,2.26344641575238,2.26391602288217,2.26512501145036,2.26667371581457,2.26764290499733,2.26582442632452,2.26625406689008,2.26909169295095,2.26845222792315,2.26912166787413,2.26938145054167,2.27004089885159,2.27025072331384,2.27037062300655,2.27245887598797,2.2712698707019,2.27215912675619,2.27280858342505,2.27307835773365,2.27325820727272,2.27300841624624,2.27373780604357,2.27518659399719,2.27520657727931,2.27527651876672,2.27522656056143,2.27650549061703,2.27779441231369,2.27777442903158,2.27837392749514,2.2783339609309,2.27834395257196,2.27904336744612,2.2800824981163,2.27977275724346,2.28169115232686,2.2827402746381,2.28161121919839,2.28228065914937,2.28328981489637,2.28319989012684,2.28381937187252,2.28395925484735,2.28427898736125,2.28432894556655,2.28497840223541,2.28491845238905,2.28578772516122,2.28663701465127,2.28683684747246,2.28786598650158,2.28786598650158,2.28768613696251,2.28834558527243,2.28839554347773,2.28885515896646,2.28902501686447,2.289954239483,2.28898505030023,2.29063367107504,2.29147296892403,2.29184265964323,2.29182267636111,2.29202250918229,2.29227230020878,2.29254207451738,2.29262200764586,2.29246214138891,2.29353124698227,2.29316155626307,2.29326147267366,2.29338137236637,2.29418070365113,2.295000018218,2.29592924083652,2.29487012688423,2.29481017703787,2.29552957519415,2.29580934114381,2.29731807894378,2.29790758576629,2.29571941637428,2.29784763591993,2.29805746038218,2.29889675823117,2.29792756904841,2.29843714274244,2.29868693376892,2.29943630684838,2.30021565485101,2.29906661612918,2.30026561305631,2.29947627341262,2.2997760226444,2.30119483567483,2.30221398306289,2.3023838409609,2.30226394126819,2.30139466849602,2.30195420039535,2.30271356511586,2.30334303850261,2.30335303014367,2.30347292983638,2.30336302178473,2.30353287968274,2.30324312209201,2.30402247009465,2.30394253696617,2.30633053917937,2.30579099056216,2.30759947759392,2.30603078994759,2.30655035528268,2.30733969492637,2.30827890918596,2.30830888410913,2.30861862498198,2.30873852467469,2.30999747144817,2.30947790611308,2.31034717888525,2.30937798970249,2.31045708693691,2.31144625940179,2.31110654360577,2.31228555725078,2.31210570771171,2.3129450055607,2.31329471299778,2.31337464612625,2.31426390218054,2.31559279044144,2.31552284895403,2.31566273192886,2.31614233069971,2.31702159511294,2.31758112701227,2.31768104342286,2.31724141121625,2.31766106014074,2.32011900384136,2.3210182515367,2.31950951373673,2.31927970599237,2.32298660482541,2.32268685559362,2.32246703949032,2.32564438134721,2.32338627046778,2.32145788374332,2.32216729025853,2.32422556831677,2.32370600298168,2.3234062537499,2.32367602805851,2.3247351420108,2.32539459032072,2.3248350584214,2.32556444821873
2.24900849442154,2.25047726565727,2.25195602853406,2.25841062865844,2.25875034445446,2.25696184070482,2.2584206202995,2.25848057014586,2.26022910733125,2.25929988471273,2.25986940825311,2.26028905717761,2.26130820456567,2.26195766123453,2.26370619841993,2.26288688385306,2.26256715133915,2.26390603124112,2.2642057804729,2.2648452455007,2.26618412540266,2.26603425078677,2.26657379940398,2.26688354027682,2.26754298858674,2.26785272945958,2.26932150069532,2.27074031372575,2.26906171802777,2.26945139202909,2.2706803638794,2.27250883419327,2.27311832429789,2.27257877568068,2.27310833265683,2.27368784783828,2.27361790635086,2.27381773917205,2.27376778096675,2.27504671102236,2.2763156494369,2.27638559092432,2.27648550733491,2.27679524820775,2.2773747633892,2.27756460456933,2.27828400272561,2.27885352626599,2.2797128073971,2.27947300801168,2.27953295785803,2.27961289098651,2.28100172909377,2.28156126099309,2.28233061735467,2.28194094335335,2.28236059227785,2.28446882854138,2.28375942202616,2.28452877838774,2.2841191211043,2.2848085443374,2.2848085443374,2.28529813474931,2.28634725706055,2.28633726541949,2.28735641280755,2.28866531778633,2.28754625398768,2.28822568557972,2.28830561870819,2.28849545988832,2.28890511717176,2.29012409738101,2.29007413917571,2.29138304415449,2.29023400543266,2.29069362092139,2.29085348717834,2.29166281010416,2.29190260948958,2.29223233364454,2.29204249246441,2.29253208287632,2.29244215810679,2.2928817903134,2.29305164821141,2.29372108816239,2.29477021047363,2.29476021883257,2.29475022719151,2.2942606367796,2.29533973401402,2.29565946652792,2.29726812073848,2.29735804550802,2.29624897335042,2.29810741858748,2.29697836314776,2.29720817089213,2.2983472179729,2.29756786997027,2.298027485459,2.29805746038218,2.29891674151329,2.29958618146427,2.3004654458775,2.29941632356626,2.29998584710664,2.30023563813313,2.30150457654767,2.30097501957153,2.30074521182716,2.30097501957153,2.30135470193178,2.30214404157548,2.302064108447,2.30321314716883,2.30384262055558,2.30389257876087,2.30332305522049,2.30299333106553,2.3038626038377,2.30384262055558,2.30393254532511,2.30587092369064,2.30535135835555,2.30540131656084,2.30735967820849,2.30870854975151,2.30726975343895,2.30762945251709,2.30794918503099,2.31009738785877,2.30882844944422,2.30924809836872,2.30952786431838,2.31054701170644,2.31149621760708,2.30985758847334,2.31122644329848,2.31108656032365,2.31271519781633,2.3126252730468,2.31254533991832,2.31350453746003,2.31305491361235,2.3139541613077,2.31494333377258,2.31486340064411,2.31561277372356,2.31497330869576,2.31566273192886,2.3183105168096,2.31642209664937,2.31702159511294,2.31800077593676,2.31823058368113,2.31939960568508,2.3196394050705,2.31959943850627,2.31945955553143,2.32136795897378,2.32015897040559,2.32055863604797,2.32163773328239,2.32390583580287,2.32051866948373,2.3207984354334,2.32258693918303,2.32371599462274,2.32401574385453,2.32475512529292,2.32554446493662,2.32612398011806,2.32500491631941
2.24946810991027,2.25015753314337,2.25188608704664,2.25381447377111,2.25659214998563,2.25696184070482,2.25758132245051,2.25916999337896,2.26154800395109,2.25931986799485,2.26061878133257,2.26015916584384,2.26124825471931,2.26201761108089,2.26126823800143,2.26253717641598,2.26679361550728,2.2634663990345,2.2638360897537,2.26429570524243,2.2652149362199,2.26566456006757,2.26673366566093,2.26683358207152,2.26706338981589,2.26725323099602,2.26891184341188,2.26812250376819,2.26896180161718,2.26895180997612,2.26986104931252,2.27034064808337,2.2716895196264,2.27148968680521,2.27257877568068,2.27437727107138,2.27284854998929,2.27304838281048,2.27450716240515,2.27761456277463,2.27582605902499,2.275995916923,2.27612580825677,2.27665536523292,2.27717493056801,2.27858375195739,2.2781141448276,2.27822405287925,2.27894345103553,2.27890348447129,2.28010248139842,2.28092179596529,2.28080189627258,2.2817311188911,2.28112162878648,2.28160122755733,2.28267033315069,2.2824205421242,2.28381937187252,2.28343968951226,2.2842190375149,2.28422902915596,2.28489846910694,2.28667698121551,2.28430896228443,2.28594759141817,2.28718655490954,2.28648714003538,2.28758622055192,2.28766615368039,2.28973442337969,2.28836556855455,2.28893509209494,2.28917489148036,2.28866531778633,2.29001418932935,2.29009412245783,2.29080352897305,2.29179270143793,2.29178270979687,2.29115323641013,2.29143300235979,2.29140302743661,2.29182267636111,2.29207246738759,2.29183266800217,2.29313158133989,2.29388095441934,2.29462033585774,2.29598919068288,2.29387096277829,2.29473024390939,2.29601916560606,2.29515988447495,2.29562949160474,2.29628893991466,2.29641883124844,2.29550959191203,2.2957393996564,2.29602915724712,2.29610909037559,2.29642882288949,2.29795754397158,2.29994588054241,2.29893672479541,2.29902664956494,2.29927644059143,2.29880683346163,2.29833722633184,2.29991590561923,2.29906661612918,2.30024562977419,2.30080516167352,2.30145461834238,2.30166444280463,2.30236385767878,2.30278350660328,2.30245378244832,2.30481180973834,2.30320315552777,2.30311323075824,2.30239383260196,2.30326310537413,2.30351289640062,2.30362280445227,2.30464195184033,2.30533137507343,2.30635052246149,2.30623062276878,2.30641047230785,2.30636051410255,2.30723977851578,2.30705992897671,2.30820896769854,2.30864859990515,2.30782928533828,2.30818898441642,2.30988756339652,2.31016732934618,2.31172602535145,2.31215566591701,2.3116161172998,2.31114651017001,2.31247539843091,2.31248539007197,2.3128950473554,2.31391419474346,2.31364442043486,2.31415399412889,2.31505324182424,2.31532301613284,2.3193696307619,2.31555282387721,2.31662192947056,2.31845039978443,2.31724141121625,2.31801076757782,2.31901992332482,2.31983923789169,2.31925972271025,2.31852034127185,2.32033881994466,2.31867021588774,2.322077365489,2.32220725682277,2.32014897876453,2.31988919609699,2.32118810943471,2.32191749923205,2.32242707292608,2.32333631226249,2.32378593611016,2.32697326960811,2.32714312750612,2.32619392160548,2.32889166469152
2.25038734088773,2.25136652171156,2.25360464930886,2.25503345398036,2.25574286049558,2.25618249270219,2.25715168188495,2.2574114645525,2.25785109675911,2.25991936645841,2.26120828815507,2.26014917420278,2.25987939989417,2.26054883984515,2.26177781169546,2.26170787020804,2.26284691728882,2.2635163572398,2.26418579719078,2.26461543775633,2.264895203706,2.26507505324507,2.26664374089139,2.26727321427814,2.26684357371258,2.26805256228077,2.26745306381721,2.26813249540925,2.27009085705689,2.26904173474565,2.27046054777609,2.27049052269927,2.27030068151914,2.27343805681179,2.27120992085554,2.27143972859991,2.27226903480784,2.27179942767805,2.27746468815873,2.27379775588993,2.27388768065947,2.27662539030974,2.27605586676936,2.27538642681838,2.27652547389915,2.27680523984881,2.27750465472297,2.27768450426204,2.27844386898256,2.27916326713883,2.27984269873087,2.27925319190837,2.27999257334677,2.28078191299046,2.28076192970834,2.28134144488979,2.28280022448446,2.28192096007123,2.28277024956128,2.2835296142818,2.28308998207518,2.28483851926058,2.28476857777316,2.28508831028706,2.28484851090164,2.28569780039169,2.28631728213737,2.28657706480492,2.2862373490089,2.28753626234662,2.28882518404328,2.28802585275853,2.28813576081018,2.28900503358235,2.28806581932277,2.28901502522341,2.2902739719969,2.29003417261147,2.29103333671741,2.29011410573995,2.29051377138232,2.29045382153597,2.29169278502733,2.29156289369356,2.29159286861674,2.29173275159157,2.29307163149353,2.29334140580214,2.29338137236637,2.2938909460604,2.29433057826702,2.29533973401402,2.29395089590676,2.29496005165376,2.29386097113723,2.2953697089372,2.29510992626965,2.29779767771463,2.29769776130404,2.29660867242856,2.29579934950275,2.29670858883916,2.29589926591335,2.29723814581531,2.29819734335701,2.29812740186959,2.2982972597676,2.29837719289608,2.29897669135964,2.29991590561923,2.29948626505367,2.3001457133636,2.30016569664571,2.30026561305631,2.30025562141525,2.30460198527609,2.30561114102309,2.30138467685496,2.30310323911718,2.3028534480907,2.30341297999002,2.30316318896354,2.3028034898854,2.30288342301387,2.30504161748271,2.30473187660986,2.30479182645622,2.30474186825092,2.30500165091847,2.30526143358601,2.30595085681911,2.30686009615552,2.30829889246807,2.30761946087603,2.30786925190252,2.30841879216079,2.30847874200714,2.30861862498198,2.30918814852236,2.30950788103626,2.30982761355016,2.30987757175546,2.31110654360577,2.31065691975809,2.31111653524683,2.31110654360577,2.31286507243222,2.31508321674741,2.31502326690106,2.31580261490369,2.31365441207592,2.31430386874478,2.31511319167059,2.31541294090237,2.31815065055265,2.3176710517818,2.31721143629307,2.31619228890501,2.31707155331824,2.31842042486126,2.31857029947715,2.32062857753539,2.31881009886257,2.3194195889672,2.3203787865089,2.32044872799632,2.32052866112479,2.32091833512611,2.32293664662011,2.32366603641745,2.32562439806509,2.3234562119552,2.32360608657109,2.32982088731004,2.32679342006904,2.32566436462933
2.250936881146,2.25277534310093,2.25399432331018,2.25564294408498,2.25619248434325,2.25914001845578,2.25618249270219,2.2557128855724,2.25753136424521,2.25833069552996,2.2581508459909,2.26154800395109,2.26007923271536,2.26206756928618,2.26125824636037,2.2614980457458,2.26225741046631,2.26236731851797,2.26358629872721,2.2645255129868,2.26566456006757,2.26636397494173,2.26662375760927,2.26717329786754,2.26707338145695,2.26661376596822,2.26694349012318,2.26810252048607,2.26926155084896,2.26899177654035,2.2692515592079,2.26986104931252,2.27003090721053,2.27036063136549,2.27109002116283,2.27122990413766,2.27114997100919,2.27242890106479,2.27241890942373,2.27278860014293,2.27400758035218,2.27426736301972,2.27437727107138,2.27582605902499,2.27586602558923,2.27692513954153,2.27730482190178,2.27715494728589,2.27834395257196,2.27822405287925,2.27882355134281,2.27970281575604,2.27982271544876,2.27993262350041,2.28005252319312,2.28110164550436,2.28157125263415,2.28209081796924,2.28174111053216,2.2828401910487,2.2835296142818,2.28376941366722,2.28455875331092,2.28707664685789,2.28657706480492,2.28583768336652,2.28784600321946,2.28769612860357,2.28757622891086,2.2875662372698,2.28754625398768,2.28810578588701,2.28792593634794,2.2885254348115,2.2892648162499,2.28989428963664,2.29048379645915,2.29001418932935,2.29040386333067,2.29101335343529,2.29143300235979,2.29097338687106,2.29084349553728,2.29153291877038,2.29201251754124,2.2912831277439,2.29196255933594,2.29204249246441,2.29207246738759,2.29281184882599,2.29316155626307,2.29339136400743,2.29346130549485,2.29416072036901,2.29400085411206,2.29488011852529,2.29512990955177,2.29511991791071,2.29524980924448,2.29505996806436,2.29576937457957,2.29670858883916,2.29506995970541,2.29617903186301,2.29685846345505,2.29711824612259,2.29795754397158,2.29789759412523,2.29786761920205,2.29849709258879,2.29906661612918,2.29941632356626,2.30129475208543,2.29989592233711,2.30001582202982,2.30016569664571,2.30107493598212,2.30093505300729,2.30143463506026,2.30278350660328,2.3021140666523,2.3023838409609,2.3027535316801,2.3054113082019,2.3048717595847,2.30448208558338,2.30461197691715,2.30378267070922,2.30559115774097,2.30603078994759,2.30574103235686,2.30606076487077,2.30590089861382,2.3064204639489,2.30705992897671,2.30770938564557,2.30843877544291,2.30841879216079,2.30924809836872,2.31051703678326,2.30946791447202,2.30978764698593,2.31048706186008,2.31073685288657,2.31063693647598,2.31113651852895,2.31185591668522,2.31342460433155,2.3122555823276,2.3133146962799,2.31517314151695,2.3143738102322,2.31498330033682,2.31456365141232,2.31495332541364,2.31516314987589,2.31608238085335,2.3163421635209,2.31852034127185,2.31783091803875,2.31721143629307,2.31659195454738,2.31861026604138,2.31982924625063,2.32260692246515,2.31992916266123,2.32049868620161,2.32220725682277,2.3213379840506,2.32253698097773,2.32223723174595,2.32334630390354,2.32403572713664,2.3244653677022,2.32361607821215,2.32406570205982
2.25334486664132,2.25434403074726,2.25455385520951,2.25478366295387,2.25624244254855,2.25458383013269,2.25408424807972,2.2547037298254,2.25718165680813,2.25744143947568,2.25811087942666,2.25926990978955,2.25997931630477,2.25970954199616,2.26027906553655,2.26128822128355,2.26165791200275,2.26239729344114,2.26360628200933,2.26455548790998,2.26469537088481,2.26673366566093,2.26822242017878,2.26913165951519,2.26733316412449,2.26597430094041,2.26704340653377,2.26719328114966,2.26785272945958,2.26783274617746,2.26859211089798,2.26941142546485,2.26955130843968,2.27037062300655,2.27044056449397,2.27082024685423,2.27161957813898,2.2722790264489,2.27224905152572,2.27344804845285,2.2733880986065,2.27394763050582,2.27500674445812,2.27551631815215,2.27606585841042,2.27626569123161,2.27662539030974,2.27784437051899,2.27823404452031,2.2780641866223,2.27818408631501,2.27866368508586,2.27930315011367,2.27973279067922,2.27999257334677,2.28083187119576,2.28081188791364,2.28171113560898,2.28275026627916,2.28260039166327,2.2834796560765,2.28364951397451,2.284069162899,2.28484851090164,2.28890511717176,2.28608747439301,2.28684683911352,2.28616740752148,2.2861374325983,2.28619738244466,2.28806581932277,2.2871465883453,2.2885753930168,2.28899504194129,2.28895507537706,2.28973442337969,2.28902501686447,2.28959454040486,2.28989428963664,2.29026398035584,2.29077355404987,2.2906436627161,2.29065365435716,2.28983433979028,2.29035390512537,2.29168279338627,2.29227230020878,2.29138304415449,2.29202250918229,2.29194257605382,2.29177271815581,2.2940408206763,2.29284182374917,2.29319153118625,2.29402083739418,2.2943105949849,2.2943605531902,2.2946303274988,2.29642882288949,2.29483016031999,2.29547961698885,2.29543965042461,2.29525980088554,2.29561949996368,2.29618902350407,2.29666862227492,2.29804746874112,2.29688843837823,2.2979775272537,2.30164445952251,2.29814738515171,2.2990865994113,2.29885679166693,2.29963613966957,2.29927644059143,2.30064529541657,2.30018567992783,2.3010549527,2.30114487746954,2.30130474372649,2.30136469357284,2.30234387439667,2.30284345644964,2.30278350660328,2.30288342301387,2.30403246173571,2.30364278773439,2.30521147538072,2.30417234471054,2.30590089861382,2.3054612664072,2.30537134163767,2.30595085681911,2.30671022153963,2.30716983702836,2.30730972000319,2.3095978058058,2.30851870857138,2.30852870021244,2.30887840764952,2.31127640150378,2.30955783924156,2.31064692811703,2.31058697827068,2.31107656868259,2.31178597519781,2.31200579130111,2.31210570771171,2.3128450891501,2.31359446222956,2.31259529812362,2.31344458761367,2.3145936263355,2.31577263998051,2.3143738102322,2.31530303285072,2.31542293254343,2.31817063383477,2.31622226382819,2.31654199634209,2.31721143629307,2.31999910414864,2.31784090967981,2.31849036634867,2.31947953881355,2.32342623703202,2.32151783358967,2.32054864440691,2.3257442977578,2.32235713143866,2.32391582744393,2.32310650451812,2.32557443985979,2.32509484108894,2.32502489960153,2.32522473242271
2.25362463259098,2.25318500038437,2.25355469110357,2.25653220013927,2.25633236731808,2.2532749251539,2.25436401402938,2.25650222521609,2.25612254285583,2.25728157321873,2.25986940825311,2.25788107168229,2.25877032773658,2.26151802902792,2.26010920763854,2.26046890671668,2.26132818784779,2.26209754420936,2.26348638231662,2.26418579719078,2.26618412540266,2.26810252048607,2.26677363222517,2.26401593929277,2.2675529802278,2.26677363222517,2.26860210253904,2.26690352355894,2.26699344832847,2.26704340653377,2.26775281304899,2.26853216105162,2.26938145054167,2.27009085705689,2.27109002116283,2.27066038059728,2.27077028864893,2.27160958649792,2.2732881821959,2.27368784783828,2.27356794814556,2.27413747168595,2.27412748004489,2.27565620112698,2.2756761844091,2.27651548225809,2.27665536523292,2.27731481354284,2.27722488877331,2.27815411139183,2.27758458785145,2.27800423677594,2.27884353462493,2.27965285755075,2.2796628491918,2.27968283247392,2.28043220555338,2.28129148668449,2.28204085976394,2.2821507678156,2.28201088484077,2.2827402746381,2.28397923812947,2.28396924648841,2.28433893720761,2.28471861956787,2.28612744095724,2.2865071233175,2.28610745767512,2.28755624562874,2.28795591127112,2.28792593634794,2.28782601993734,2.28851544317044,2.28883517568434,2.28924483296778,2.28945465743003,2.2901740555863,2.28962451532804,2.29002418097041,2.29090344538364,2.29074357912669,2.29069362092139,2.29102334507635,2.29101335343529,2.29125315282072,2.29198254261806,2.29108329492271,2.29196255933594,2.29177271815581,2.29231226677302,2.29199253425912,2.29247213302997,2.29300169000612,2.29361118011074,2.29308162313459,2.2938909460604,2.29397087918888,2.29482016867893,2.29487012688423,2.29471026062728,2.29512990955177,2.29545963370673,2.2970682879173,2.29583931606699,2.29604914052924,2.29705829627624,2.2984471343835,2.29748793684179,2.29812740186959,2.29828726812654,2.29862698392256,2.29845712602456,2.29922648238613,2.29939634028414,2.29921649074507,2.30037552110796,2.30114487746954,2.30119483567483,2.30044546259538,2.30051540408279,2.30145461834238,2.30379266235028,2.30168442608674,2.30330307193837,2.30327309701519,2.30268359019268,2.3034929131185,2.30390257040193,2.30451206050656,2.30494170107211,2.30552121625356,2.30553120789462,2.30628058097407,2.30668024661645,2.30654036364162,2.3075295361065,2.3072098035926,2.30794918503099,2.30866858318727,2.30906824882965,2.30995750488394,2.30953785595944,2.31016732934618,2.30999747144817,2.31109655196471,2.31094667734882,2.31226557396866,2.31295499720176,2.31484341736199,2.31306490525341,2.31275516438057,2.31322477151036,2.31347456253685,2.3139042031024,2.31518313315801,2.31520311644013,2.31569270685204,2.31587255639111,2.31630219695666,2.3183604750149,2.31880010722151,2.31966937999368,2.31893999019635,2.3197393214811,2.32156779179497,2.3214878586665,2.3213379840506,2.32233714815654,2.32389584416181,2.32508484944788,2.32587418909158,2.32492498319093,2.32664354545315,2.32678342842798,2.33035044428619
2.25301514248636,2.2542840809009,2.25318500038437,2.2550234623393,2.2513565300705,2.25101681427448,2.25201597838042,2.25339482484662,2.25519332023731,2.2564522670108,2.25690189085847,2.25929988471273,2.2587903110187,2.25895017727565,2.25990937481735,2.26058880640939,2.2614480875405,2.26196765287559,2.26702342325165,2.26432568016561,2.26586439288876,2.26668370745563,2.26249720985174,2.26347639067556,2.26567455170863,2.26661376596822,2.26664374089139,2.26668370745563,2.2665438244808,2.26747304709932,2.26748303874038,2.26844223628209,2.26931150905426,2.27004089885159,2.27056046418668,2.27042058121185,2.27110001280389,2.27083023849529,2.27357793978662,2.2732881821959,2.27336811532438,2.27374779768463,2.2736079147098,2.27532647697202,2.27720490549119,2.27805419498124,2.27658542374551,2.27633563271902,2.27704503923424,2.2774247215945,2.27832396928984,2.27805419498124,2.27890348447129,2.2793431166779,2.27940306652426,2.27999257334677,2.28034228078384,2.28046218047656,2.2807719213494,2.28192096007123,2.28213078453348,2.28261038330433,2.28370946382087,2.28399922141159,2.28388931335994,2.28436891213079,2.28523818490296,2.28667698121551,2.28631728213737,2.28652710659962,2.28733642952543,2.28870528435057,2.28841552675985,2.28838555183667,2.28940469922473,2.28881519240222,2.28986431471346,2.28993425620088,2.29167280174522,2.29083350389622,2.29051377138232,2.29031393856114,2.29048379645915,2.28947464071215,2.2912831277439,2.29117321969224,2.29144299400085,2.2913330859492,2.29208245902865,2.29199253425912,2.29154291041144,2.29244215810679,2.29215240051607,2.29258204108162,2.292981706724,2.29370110488028,2.29417071201007,2.29400085411206,2.29420068693325,2.29417071201007,2.29459036093456,2.29546962534779,2.29512990955177,2.2959592157597,2.29619901514513,2.29638885632526,2.29650875601797,2.29702832135306,2.29785762756099,2.29679851360869,2.29763781145768,2.29792756904841,2.29804746874112,2.29854705079409,2.29887677494905,2.2993563737199,2.30083513659669,2.30045545423644,2.3000957551583,2.3004654458775,2.30055537064703,2.30224395798607,2.30163446788145,2.30259366542315,2.30310323911718,2.30299333106553,2.30367276265757,2.30281348152646,2.30352288804168,2.30369274593969,2.30368275429863,2.30423229455689,2.30435219424961,2.30512155061118,2.30594086517805,2.30614069799924,2.30690006271976,2.30712987046412,2.30820896769854,2.30807907636477,2.30894834913694,2.30889839093164,2.30898831570117,2.30892836585482,2.30935800642037,2.30998747980711,2.31052702842432,2.31178597519781,2.31235549873819,2.31191586653158,2.31303493033023,2.31361444551168,2.31512318331165,2.31463359289974,2.31452368484809,2.31550286567191,2.31641210500831,2.31461360961762,2.31702159511294,2.31793083444934,2.3186302493235,2.31757113537121,2.31950951373673,2.32268685559362,2.32048869456055,2.32646369591408,2.32162774164133,2.32327636241613,2.32980090402792,2.32672347858163,2.32822222474054,2.32824220802266,2.32931131361601,2.33029049443984,2.33230880593384,2.33224885608748
2.25180615391817,2.25265544340822,2.25318500038437,2.2547037298254,2.25213587807313,2.25168625422546,2.25238566909962,2.25415418956713,2.25614252613795,2.25715168188495,2.25825076240149,2.25912003517366,2.25821079583725,2.25875034445446,2.25936982620014,2.25920995994319,2.26129821292461,2.26161794543851,2.26338646590603,2.2651150198093,2.26678362386623,2.26339645754708,2.26329654113649,2.26385607303582,2.26591435109406,2.26494516191129,2.26564457678545,2.26453550462786,2.26562459350333,2.26666372417351,2.26715331458542,2.26799261243441,2.26876196879599,2.26916163443836,2.26913165951519,2.2695712917218,2.2702107567496,2.27202923542242,2.27238893450055,2.27272865029657,2.27171949454957,2.27707501415742,2.27314829922107,2.27421740481443,2.27386769737735,2.27544637666473,2.27603588348724,2.27625569959055,2.27658542374551,2.27733479682496,2.27748467144085,2.27780440395475,2.27881355970175,2.27918325042095,2.27933312503684,2.28004253155206,2.28089182104211,2.28099173745271,2.28100172909377,2.28158124427521,2.28349963935862,2.28278024120234,2.283060007152,2.28283019940764,2.28474859449104,2.28575775023804,2.28498839387647,2.28621736572678,2.286926772242,2.28838555183667,2.28797589455323,2.28898505030023,2.2892148580446,2.28896506701812,2.28918488312142,2.29019403886842,2.29035390512537,2.29132309430814,2.29126314446178,2.29201251754124,2.29119320297436,2.29317154790413,2.29083350389622,2.29112326148695,2.29028396363796,2.28903500850553,2.29106331164059,2.29144299400085,2.29098337851212,2.29113325312801,2.29088346210152,2.29170277666839,2.29209245066971,2.29139303579555,2.29239219990149,2.29272192405645,2.29329144759684,2.29321151446836,2.29383099621405,2.29281184882599,2.29457037765244,2.29386097113723,2.29523981760342,2.29644880617161,2.29516987611601,2.29511991791071,2.29602915724712,2.296009173965,2.29630892319678,2.29688843837823,2.29731807894378,2.29778768607357,2.29801749381794,2.29784763591993,2.29824730156231,2.29998584710664,2.299036641206,2.29961615638745,2.29877685853846,2.29956619818215,2.30081515331458,2.29981598920863,2.30109491926424,2.30150457654767,2.30156452639403,2.30167443444568,2.30182430906158,2.30288342301387,2.3024837573715,2.30374270414498,2.305091575688,2.30365277937545,2.30396252024829,2.30469191004563,2.30493170943105,2.30616068128136,2.30475185989198,2.30759947759392,2.30677017138598,2.30812903457006,2.30764943579921,2.30893835749588,2.30884843272634,2.30900829898329,2.31001745473029,2.31036716216737,2.31044709529585,2.31069688632233,2.31127640150378,2.31163610058192,2.3118359334031,2.31350453746003,2.31951950537779,2.31442376843749,2.31442376843749,2.31524308300436,2.31594249787852,2.31542293254343,2.31759111865333,2.31951950537779,2.31872017409304,2.31990917937911,2.32208735713006,2.32236712307972,2.4111128789694,2.32384588595652,2.32420558503465,2.32647368755514,2.42432182844994,2.42473148573338,2.41732767970836,2.42721940435717,2.42322274793341,2.42567069999296,2.42554080865919,2.42925769913329
2.25109674740295,2.25153637960957,2.25340481648767,2.25247559386915,2.25239566074067,2.2526854183314,2.25321497530755,2.25565293572604,2.25765126393792,2.25742145619356,2.2594797342518,2.25780113855382,2.25750138932203,2.25960962558557,2.2584206202995,2.25929988471273,2.25996932466371,2.26135816277097,2.26340644918814,2.26648387463444,2.25958964230345,2.26224741882525,2.2631466665206,2.2637361733431,2.26486522878282,2.26429570524243,2.26488521206494,2.26541476904109,2.26563458514439,2.26602425914571,2.26679361550728,2.26706338981589,2.26808253720395,2.26873199387281,2.2692016010026,2.26933149233637,2.26992099915888,2.27054048090456,2.2713198289072,2.27105005459859,2.27184938588335,2.27208918526877,2.27294846639988,2.27337810696544,2.27404754691642,2.27539641845944,2.27482689491905,2.2747169868674,2.27566619276804,2.2760458751283,2.27659541538657,2.27857376031633,2.27802422005806,2.27835394421302,2.27881355970175,2.27908333401036,2.27943304144744,2.28028233093749,2.28052213032291,2.28102171237588,2.28240055884208,2.28256042509903,2.28276025792022,2.28418906259172,2.28439888705396,2.28470862792681,2.28556790905792,2.2868768140367,2.28680687254928,2.28758622055192,2.28800586947641,2.28939470758367,2.2895845487638,2.29012409738101,2.29095340358894,2.29251209959421,2.2926120160048,2.29237221661937,2.2933014392379,2.29215240051607,2.29237221661937,2.29065365435716,2.28912493327507,2.28983433979028,2.28939470758367,2.28986431471346,2.28983433979028,2.29031393856114,2.2901740555863,2.2905937045108,2.2906436627161,2.29077355404987,2.29196255933594,2.29225231692666,2.29237221661937,2.29162284353992,2.29206247574653,2.2928817903134,2.29307163149353,2.29346130549485,2.29337138072532,2.29392092098358,2.2942606367796,2.29551958355309,2.29473024390939,2.29488011852529,2.29645879781267,2.29630892319678,2.29599918232394,2.29633889811996,2.2965986807875,2.29630892319678,2.29757786161133,2.29675854704446,2.29785762756099,2.29776770279146,2.29779767771463,2.29964613131062,2.2986669504868,2.29929642387355,2.29905662448812,2.29897669135964,2.30061532049339,2.30054537900597,2.30111490254636,2.30141465177814,2.30355286296485,2.30218400813971,2.30325311373307,2.30380265399134,2.30281348152646,2.30252372393573,2.30364278773439,2.30521147538072,2.30524145030389,2.30545127476614,2.30555119117674,2.30618066456348,2.30744960297802,2.307109887182,2.30704993733565,2.31021728755148,2.30748956954226,2.30919814016342,2.31043710365479,2.31172602535145,2.30952786431838,2.31083676929716,2.31236549037925,2.31286507243222,2.31169605042827,2.31217564919912,2.3143738102322,2.31389421146134,2.31471352602822,2.31477347587457,2.31490336720834,2.31726139449836,2.31675182080433,2.32203739892476,2.32185754938569,2.32144789210226,2.3233562955446,2.32580424760416,2.41496965241834,2.41503959390575,2.41990552310168,2.42349252224201,2.42322274793341,2.42469151916914,2.42301292347116,2.42638010650818,2.42562074178767,2.42527103435059,2.42941756539024,2.42888800841409
2.25038734088773,2.25171622914863,2.25251556043339,2.25270540161352,2.25240565238173,2.25366459915522,2.25458383013269,2.25605260136842,2.25703178219224,2.25572287721346,2.25666209147304,2.25716167352601,2.25685193265317,2.25790105496441,2.25781113019488,2.25762128901475,2.2601191992796,2.26053884820409,2.26110837174448,2.26009921599748,2.26129821292461,2.26183776154182,2.26239729344114,2.26353634052192,2.26370619841993,2.26391602288217,2.26421577211396,2.2652149362199,2.26513500309142,2.26586439288876,2.26672367401987,2.26815247869136,2.26884190192446,2.26801259571653,2.26862208582116,2.26912166787413,2.27010084869795,2.27046054777609,2.27069035552045,2.27079027193105,2.27180941931911,2.27221907660254,2.2729184914767,2.27376778096675,2.27443722091773,2.27426736301972,2.27480691163693,2.27522656056143,2.27497676953494,2.27659541538657,2.27662539030974,2.27690515625941,2.27771447918522,2.27809416154548,2.27846385226468,2.27947300801168,2.27968283247392,2.28025235601431,2.28012246468054,2.28093178760635,2.28149131950568,2.28244052540632,2.28350963099968,2.28377940530828,2.28429897064337,2.28474859449104,2.28599754962347,2.28635724870161,2.2875662372698,2.28831561034925,2.28892510045388,2.28997422276512,2.29007413917571,2.29204249246441,2.29315156462201,2.29393091262464,2.29517986775707,2.29671858048022,2.29650875601797,2.29535971729614,2.29407079559947,2.29200252590018,2.29142301071873,2.29124316117966,2.29034391348431,2.28967447353333,2.28993425620088,2.29085348717834,2.28996423112406,2.29001418932935,2.29073358748563,2.29107330328165,2.29121318625648,2.29148296056509,2.2912831277439,2.29171276830945,2.29144299400085,2.29253208287632,2.29425064513854,2.29304165657035,2.29331143087896,2.29382100457299,2.29358120518756,2.29438053647232,2.29429061170278,2.29442050303655,2.29580934114381,2.29520984268025,2.29496005165376,2.29587928263123,2.29564947488686,2.29694838822458,2.29681849689081,2.29689843001929,2.29639884796632,2.29806745202324,2.29756786997027,2.29811741022854,2.29813739351065,2.29869692540998,2.29873689197422,2.29924646566825,2.29982598084969,2.29989592233711,2.30116486075166,2.30122481059801,2.30136469357284,2.30186427562581,2.30398250353041,2.30240382424302,2.30237384931984,2.30365277937545,2.30293338121917,2.30410240322312,2.3054113082019,2.30462196855821,2.30598083174229,2.30584094876746,2.3062006478456,2.30633053917937,2.30686009615552,2.30677017138598,2.30820896769854,2.30923810672766,2.31017732098724,2.30876849959787,2.30920813180448,2.31045708693691,2.31020729591042,2.31424391889842,2.31250537335409,2.31195583309582,2.3132647380746,2.31468355110504,2.31571269013416,2.31587255639111,2.31612234741759,2.31885006542681,2.32044872799632,2.41641844037195,2.41636848216665,2.41940594104871,2.4156191090872,2.41538930134283,2.41303127405281,2.4124917254356,2.42186388474933,2.42169402685132,2.42294298198374,2.42430184516782,2.42425188696253,2.42535096747906,2.42538094240224,2.4257106665572,2.43008700534122,2.42926769077435
2.25032739104138,2.25302513412742,2.25138650499367,2.25250556879233,2.25291522607576,2.25385444033535,2.25548307782803,2.25447392208103,2.2564522670108,2.2550234623393,2.25627241747173,2.2563023923949,2.25794102152865,2.25749139768097,2.25819081255513,2.25966957543192,2.25986940825311,2.26113834666766,2.25983943332994,2.26000929122795,2.26134817112991,2.26215749405572,2.26209754420936,2.26276698416034,2.26320661636696,2.2634663990345,2.26401593929277,2.26466539596163,2.26609420063313,2.26542476068215,2.26788270438276,2.26693349848212,2.26751301366356,2.26793266258806,2.26846221956421,2.26891184341188,2.26942141710591,2.27064039731516,2.27025072331384,2.27066038059728,2.27118993757342,2.27172948619063,2.27134980383038,2.27377777260781,2.27379775588993,2.27446719584091,2.27433730450714,2.27425737137866,2.27571615097334,2.27615578317995,2.27659541538657,2.27686518969517,2.27725486369649,2.27759457949251,2.2790733423693,2.27879357641964,2.28018241452689,2.2800824981163,2.28052213032291,2.28174111053216,2.2815113027878,2.28270030807386,2.28393927156523,2.28428897900231,2.2848085443374,2.28603751618771,2.28641719854797,2.28729646296119,2.28848546824726,2.28932476609625,2.29112326148695,2.29279186554387,2.29260202436374,2.29398087082994,2.29619901514513,2.37247520299266,2.37364422499662,2.37391399930522,2.3742637067423,2.3751729460787,2.37609217705617,2.29477021047363,2.29142301071873,2.28897505865917,2.28877522583799,2.28827564378502,2.28976439830287,2.28904500014659,2.29012409738101,2.29033392184325,2.29089345374258,2.29006414753465,2.29121318625648,2.29228229184984,2.29230227513196,2.29228229184984,2.2916028602578,2.29149295220615,2.2918726345664,2.29310160641671,2.29450043616503,2.29414073708689,2.29402083739418,2.29382100457299,2.29386097113723,2.29433057826702,2.29452041944715,2.29477021047363,2.29502000150012,2.29559951668156,2.29565946652792,2.29925645730931,2.29585929934911,2.29645879781267,2.2973380622259,2.29723814581531,2.29824730156231,2.29808743530536,2.30058534557021,2.29874688361528,2.29911657433448,2.29887677494905,2.29989592233711,2.29956619818215,2.29989592233711,2.30102497777682,2.30076519510928,2.30122481059801,2.30176435921522,2.30223396634501,2.30318317224566,2.30330307193837,2.3034929131185,2.30458200199397,2.30568108251051,2.30548124968932,2.30550123297144,2.30634053082043,2.30634053082043,2.30842878380185,2.30696001256611,2.30702995405353,2.30827890918596,2.30856866677668,2.30874851631575,2.30834885067337,2.30987757175546,2.31044709529585,2.31311486345871,2.31098664391306,2.31148622596603,2.31260528976468,2.31479345915669,2.3152330913633,2.3169316703434,2.31768104342286,2.32046871127844,2.41267157497467,2.41704791375869,2.41599879144745,2.41715782181035,2.41638846544877,2.41772734535073,2.41957579894672,2.41948587417719,2.42225355875064,2.42242341664865,2.42206371757052,2.42257329126455,2.42366238014002,2.42462157768172,2.42524105942741,2.42530100927376,2.42542090896648,2.42696961333069,2.42741923717836
2.2495580346798,2.25089691458176,2.2505671904268,2.25184612048241,2.25646225865186,2.25274536817775,2.25250556879233,2.25349474125721,2.25395435674594,2.25513337039095,2.2564522670108,2.25683194937105,2.25722162337237,2.25591271839359,2.25772120542534,2.25866041968492,2.2587403528134,2.25884026922399,2.260858580718,2.26058880640939,2.26128822128355,2.26154800395109,2.2617678200544,2.26198763615771,2.26326656621331,2.26375615662522,2.26380611483052,2.26534482755367,2.2652149362199,2.2664938662755,2.26594432601723,2.26684357371258,2.26724323935496,2.26729319756026,2.26771284648475,2.26833232823043,2.26899177654035,2.26951134187544,2.27060043075092,2.27069035552045,2.27067037223834,2.27065038895622,2.2733381404012,2.27307835773365,2.27305837445153,2.27368784783828,2.27405753855748,2.27404754691642,2.27474696179058,2.27658542374551,2.27654545718127,2.27694512282365,2.27765452933886,2.27740473831238,2.27786435380111,2.27844386898256,2.27995260678253,2.28059207181033,2.28055210524609,2.28113162042754,2.28192096007123,2.28277024956128,2.28306999879306,2.28494842731223,2.2854480093652,2.28605749946983,2.28779604501416,2.28834558527243,2.2888451673254,2.2922922834909,2.29239219990149,2.29419069529219,2.29565946652792,2.29749792848285,2.37186571288804,2.37621207674888,2.37313465130259,2.37385404945886,2.3742637067423,2.37551266187472,2.37614213526147,2.29023400543266,2.28875524255587,2.28871527599163,2.29139303579555,2.28922484968566,2.28850545152938,2.28971444009757,2.28931477445519,2.28928479953202,2.29036389676643,2.29003417261147,2.2905937045108,2.29066364599822,2.29109328656377,2.29134307759026,2.29183266800217,2.29144299400085,2.29140302743661,2.29259203272268,2.29208245902865,2.29270194077433,2.29334140580214,2.29356122190544,2.29411076216371,2.29364115503392,2.29432058662596,2.29448045288291,2.295000018218,2.29529976744978,2.29467029406304,2.29537970057826,2.29633889811996,2.29588927427229,2.29571941637428,2.29651874765903,2.29660867242856,2.29745796191861,2.29737802879014,2.29799751053582,2.29825729320337,2.29842715110138,2.29933639043778,2.29957618982321,2.29996586382453,2.30018567992783,2.30023563813313,2.30033555454372,2.30114487746954,2.30191423383111,2.30268359019268,2.30231389947349,2.30287343137281,2.30244379080726,2.30350290475956,2.3047218849688,2.30433221096749,2.30463196019927,2.305091575688,2.30700997077141,2.30574103235686,2.3075794943118,2.30830888410913,2.3085886500588,2.30856866677668,2.30995750488394,2.30966774729321,2.31108656032365,2.30999747144817,2.31126640986272,2.31512318331165,2.3128950473554,2.31430386874478,2.31646206321361,2.31994914594335,2.41738762955471,2.41258165020514,2.41691802242492,2.41656831498784,2.41506956882893,2.41521944344482,2.41530936821435,2.41885640079045,2.41895631720104,2.42087471228445,2.42057496305266,2.42276313244467,2.4222635503917,2.42222358382747,2.42415197055193,2.42560075850555,2.42787885266709,2.42237345844336,2.42558077522343,2.42622024025123,2.42889800005515
2.24865878698446,2.2499776836043,2.2506171486321,2.25240565238173,2.25222580284266,2.25352471618039,2.25273537653669,2.25312505053801,2.25375452392475,2.25413420628501,2.25634235895914,2.25679198280682,2.25659214998563,2.25669206639622,2.25765126393792,2.25776117198958,2.25909006025048,2.25860046983857,2.25970954199616,2.26007923271536,2.26058880640939,2.26059879805045,2.26114833830872,2.26162793707957,2.26222743554313,2.26267705939081,2.26327655785437,2.26366623185569,2.26394599780535,2.26470536252587,2.26569453499075,2.26591435109406,2.26671368237881,2.26736313904767,2.26811251212713,2.26934148397743,2.26894181833506,2.26958128336286,2.26997095736418,2.27043057285291,2.27128985398402,2.27143972859991,2.27321824070849,2.27300841624624,2.27271865865551,2.27321824070849,2.2743972543535,2.27479691999587,2.27553630143427,2.27545636830579,2.27650549061703,2.2774247215945,2.27714495564483,2.27804420334018,2.27887350954811,2.28106167894012,2.27957292442227,2.28020239780901,2.28084186283682,2.28162121083945,2.28270030807386,2.28311995699836,2.28427898736125,2.28484851090164,2.28597756634135,2.28766615368039,2.28930478281414,2.28930478281414,2.29204249246441,2.2935712135465,2.2953697089372,2.29675854704446,2.29792756904841,2.37206554570923,2.37247520299266,2.3749531299754,2.37324455935424,2.37543272874625,2.37470333894891,2.37614213526147,2.3755426367979,2.37365421663767,2.28821569393866,2.28791594470688,2.28829562706714,2.28801586111747,2.28936473266049,2.28905499178765,2.28901502522341,2.28888513388964,2.28955457384062,2.28951460727638,2.29034391348431,2.29039387168961,2.29143300235979,2.29156289369356,2.29094341194788,2.29089345374258,2.29154291041144,2.29110327820483,2.2918726345664,2.29233225005514,2.29239219990149,2.29248212467103,2.29327146431472,2.29364115503392,2.29355123026438,2.29419069529219,2.29502999314118,2.29439052811338,2.29513990119283,2.29482016867893,2.29533973401402,2.2959592157597,2.29561949996368,2.29636887304314,2.29641883124844,2.29670858883916,2.29791757740735,2.29821732663913,2.29957618982321,2.2987668668974,2.29904663284706,2.29934638207884,2.29951623997685,2.29933639043778,2.30000583038876,2.30070524526292,2.30108492762318,2.30163446788145,2.30138467685496,2.3023838409609,2.30249374901256,2.30314320568142,2.30373271250392,2.30378267070922,2.30354287132379,2.30382263727346,2.30499165927741,2.30548124968932,2.30716983702836,2.30782928533828,2.30726975343895,2.30728973672107,2.30843877544291,2.3092281150866,2.30989755503758,2.31034717888525,2.31490336720834,2.31245541514879,2.31547289074873,2.31653200470103,2.31834049173278,2.4027698586848,2.4139205301071,2.41239180902501,2.41067324676279,2.41592884996004,2.4155191926766,2.41554916759978,2.41513951031634,2.41705790539975,2.41722776329776,2.41939594940765,2.41998545623016,2.42187387639039,2.42148420238907,2.42291300706057,2.42420192875723,2.42151417731225,2.4219438178778,2.42293299034268,2.42391217116651,2.42478144393868,2.42547086717177,2.4254408922486
2.24931823529438,2.24935820185861,2.24964795944934,2.25028742447714,2.25115669724931,2.25270540161352,2.25294520099894,2.25302513412742,2.25422413105455,2.25430406418302,2.25506342890354,2.25707174875648,2.25617250106113,2.25629240075384,2.25661213326775,2.25713169860284,2.25697183234588,2.25865042804387,2.25884026922399,2.25898015219883,2.25924992650743,2.26033901538291,2.26032902374185,2.26190770302923,2.26226740210737,2.26298680026365,2.26313667487954,2.26377613990734,2.2637861315484,2.26440561329409,2.26422576375502,2.2655346687338,2.26679361550728,2.26682359043046,2.26740310561191,2.26801259571653,2.26878195207811,2.26857212761586,2.26939144218273,2.27032066480126,2.27164955306216,2.27099010475224,2.27204921870453,2.27243889270585,2.27283855834823,2.27349800665815,2.27433730450714,2.27418742989125,2.27486686148329,2.27512664415083,2.27606585841042,2.2763156494369,2.27752463800509,2.27754462128721,2.27825402780243,2.27956293278121,2.28052213032291,2.28121155355601,2.28177108545534,2.28156126099309,2.28272029135598,2.28348964771756,2.28403918797583,2.2858177000844,2.28640720690691,2.29129311938496,2.29066364599822,2.29291176523658,2.29220235872136,2.2949001018074,2.34997402732687,2.35657850206714,2.35816717299559,2.37154598037414,2.37241525314631,2.37544272038731,2.37511299623235,2.37626203495418,2.37716128264953,2.37774079783097,2.36821876390136,2.37006721749735,2.28829562706714,2.28779604501416,2.28833559363137,2.2881557440923,2.28806581932277,2.28915490819824,2.28931477445519,2.28877522583799,2.28978438158499,2.2895845487638,2.28959454040486,2.29024399707372,2.29024399707372,2.29040386333067,2.29071360420351,2.29078354569093,2.29110327820483,2.29131310266708,2.29211243395183,2.29168279338627,2.29144299400085,2.29159286861674,2.29291176523658,2.29385097949617,2.29360118846968,2.2933513974432,2.29423066185642,2.29481017703787,2.2946802857041,2.29629893155572,2.29535971729614,2.29579934950275,2.29576937457957,2.29569943309216,2.29587928263123,2.29620900678619,2.29704830463518,2.29714822104577,2.2976078365345,2.30013572172254,2.29803747710006,2.29873689197422,2.29860700064045,2.29957618982321,2.29968609787486,2.29901665792388,2.30056536228809,2.30146460998344,2.30177435085628,2.30218400813971,2.30250374065362,2.30252372393573,2.30269358183374,2.30434220260855,2.30425227783901,2.30410240322312,2.30513154225224,2.30555119117674,2.30569107415157,2.30568108251051,2.30761946087603,2.30828890082701,2.30877849123892,2.31067690304021,2.31122644329848,2.31208572442959,2.31354450402426,2.31494333377258,2.39982232457227,2.40041183139477,2.40686643151915,2.41298131584751,2.40975401578532,2.41400046323557,2.4151495019574,2.41596881652428,2.41559912580508,2.41659828991102,2.4152993765733,2.41467989482761,2.41631852396136,2.41932600792024,2.42055497977054,2.42324273121553,2.41719778837458,2.4185466599176,2.41757747073484,2.42217362562217,2.42304289839434,2.42344256403671,2.42149419403013,2.42398211265392,2.42599043250686,2.42657993932937
2.24887860308776,2.24929825201226,2.24967793437252,2.25031739940032,2.25067709847846,2.25123663037778,2.25175619571287,2.25275535981881,2.25299515920424,2.25349474125721,2.25399432331018,2.25425410597772,2.25504344562142,2.25611255121478,2.25676200788364,2.25683194937105,2.25712170696178,2.2583706620942,2.2581508459909,2.25852053671009,2.25973951691934,2.26221744390208,2.26051886492198,2.26116832159084,2.26220745226102,2.26294683369941,2.26283692564776,2.26322659964908,2.26404591421595,2.26418579719078,2.26483525385964,2.26657379940398,2.26648387463444,2.26655381612186,2.26700343996953,2.26736313904767,2.26822242017878,2.26905172638671,2.26877196043705,2.26964123320922,2.27019077346748,2.27074031372575,2.27308834937471,2.27201924378136,2.27251882583433,2.27302839952836,2.27410749676277,2.27398759707006,2.27433730450714,2.27569616769122,2.27589600051241,2.27684520641305,2.27730482190178,2.27807417826336,2.27874361821434,2.27954294949909,2.28065202165669,2.28041222227126,2.28194094335335,2.28255043345797,2.28360954741027,2.28509830192812,2.28552794249368,2.28792593634794,2.28964449861016,2.28890511717176,2.29131310266708,2.29421067857431,2.34832540655207,2.36127457336507,2.35996566838628,2.3748532135648,2.36507139696764,2.37529284577142,2.37790066408792,2.37670166716079,2.37657177582702,2.37573247797803,2.37727119070118,2.37747102352237,2.3694877023159,2.37119627293706,2.28818571901548,2.28845549332409,2.28804583604065,2.2888451673254,2.28781602829628,2.28807581096383,2.28795591127112,2.28891510881282,2.28864533450421,2.28997422276512,2.28915490819824,2.29035390512537,2.29060369615186,2.28988429799558,2.29135306923131,2.2901740555863,2.29120319461542,2.29120319461542,2.29152292712932,2.29151293548827,2.29127313610284,2.29225231692666,2.29296172344188,2.29328145595578,2.29322150610942,2.29267196585116,2.29354123862332,2.29365114667498,2.2943105949849,2.295000018218,2.29461034421668,2.29520984268025,2.29492008508952,2.29553956683521,2.29684847181399,2.29643881453055,2.2970682879173,2.29685846345505,2.29736803714908,2.2974379786365,2.29784763591993,2.2979775272537,2.29858701735833,2.29884680002587,2.29923647402719,2.3000957551583,2.30055537064703,2.30143463506026,2.30159450131721,2.30019567156889,2.30132472700861,2.3021140666523,2.30234387439667,2.30478183481516,2.30367276265757,2.30316318896354,2.30475185989198,2.30507159240588,2.30602079830653,2.30640048066679,2.30780930205616,2.30879847452104,2.30889839093164,2.31095666898988,2.31199579966006,2.31442376843749,2.31585257310899,2.40318950760929,2.39652508302266,2.4003818564716,2.40058168929278,2.41206208487005,2.41214201799852,2.41297132420645,2.41349088954154,2.41679812273221,2.41555915924084,2.41539929298389,2.41491969421304,2.41682809765538,2.41506956882893,2.41563909236932,2.41918612494541,2.41799711965934,2.41788721160768,2.41757747073484,2.41949586581825,2.42321275629235,2.42234348352018,2.42033516366724,2.42606037399428,2.42079477915597,2.42611033219958,2.42463156932278
2.24862881206128,2.24921831888378,2.24920832724272,2.2513065718652,2.25114670560825,2.250936881146,2.2523656858175,2.25265544340822,2.25280531802411,2.25418416449031,2.2542840809009,2.25488357936447,2.25490356264659,2.25451388864527,2.2556129691618,2.25614252613795,2.25676200788364,2.25745143111674,2.25871037789022,2.25919996830213,2.25854051999221,2.26019913240807,2.25992935809947,2.26021911569019,2.26104842189812,2.26118830487296,2.26228738538949,2.26297680862259,2.26403592257489,2.26425573867819,2.26517496965566,2.26517496965566,2.26597430094041,2.26641393314703,2.26716330622648,2.2696212499271,2.26869202730857,2.26845222792315,2.26902175146353,2.26976113290193,2.27002091556947,2.27082024685423,2.27155962829262,2.27315829086213,2.2723289846542,2.27413747168595,2.27396761378794,2.27445720419985,2.27411748840383,2.27733479682496,2.27603588348724,2.27688517297729,2.27780440395475,2.27852380211103,2.27928316683155,2.28018241452689,2.28088182940105,2.28143136965932,2.28286017433082,2.2841690793096,2.28678688926716,2.28723651311484,2.28784600321946,2.28863534286315,2.29090344538364,2.29246214138891,2.36193402167499,2.35311140261953,2.37359426679132,2.37189568781122,2.37448352284561,2.37455346433302,2.37460342253832,2.37438360643501,2.37512298787341,2.37553264515684,2.37592231915816,2.37658176746808,2.37730116562436,2.37205555406817,2.37714129936741,2.28817572737442,2.28782601993734,2.28813576081018,2.28776607009099,2.28799587783535,2.28811577752807,2.28816573573336,2.28817572737442,2.287935927989,2.28950461563532,2.28957455712274,2.29014408066313,2.2881557440923,2.28971444009757,2.29124316117966,2.29030394692008,2.29078354569093,2.29068362928033,2.29089345374258,2.2908634788194,2.29230227513196,2.29152292712932,2.29212242559289,2.291972550977,2.29286180703129,2.29236222497831,2.292981706724,2.29310160641671,2.29467029406304,2.2938909460604,2.29422067021536,2.29434056990808,2.29482016867893,2.29496005165376,2.2945803692935,2.29610909037559,2.29582932442593,2.29589926591335,2.29665863063386,2.29698835478882,2.29755787832921,2.29782765263781,2.29734805386696,2.29795754397158,2.29804746874112,2.29879684182057,2.2993563737199,2.29987593905499,2.30028559633843,2.30087510316093,2.30120482731589,2.30116486075166,2.30176435921522,2.30226394126819,2.30221398306289,2.303073264194,2.30414236978736,2.30498166763635,2.30597084010123,2.30547125804826,2.3074296196959,2.30717982866942,2.30846875036608,2.30978764698593,2.31133635135013,2.31482343407987,2.31749120224273,2.40724611387941,2.407176172392,2.40662663213373,2.40859498542243,2.4088247931668,2.41126275358529,2.41238181738395,2.41265159169255,2.41308123225811,2.414240262621,2.41432019574947,2.41515949359846,2.41609870785805,2.41374068056803,2.41347090625942,2.41921609986858,2.41653834006466,2.41642843201301,2.41735765463153,2.41807705278781,2.41911618345799,2.4161586577044,2.41687805586068,2.42650000620089,2.42522107614529,2.41959578222884,2.42039511351359,2.41762742894014
2.24774954764805,2.24875870339505,2.24823913805996,2.24979783406523,2.25075703160693,2.25129658022414,2.25140648827579,2.25155636289168,2.25262546848504,2.2530551090506,2.25382446541217,2.25415418956713,2.25357467438569,2.2540143065923,2.25513337039095,2.25590272675253,2.25623245090749,2.25748140603991,2.25732153978296,2.25867041132598,2.25921995158425,2.25918997666107,2.26090853892329,2.26104842189812,2.26180778661864,2.2627769758014,2.26264708446763,2.26301677518683,2.26315665816166,2.26384608139476,2.26367622349675,2.2647952872954,2.2661241755563,2.26645389971126,2.26680360714834,2.26721326443178,2.26719328114966,2.2679726291523,2.26891184341188,2.27006088213371,2.26941142546485,2.27025072331384,2.27030068151914,2.27102007967542,2.27326819891378,2.27280858342505,2.2736079147098,2.27403755527536,2.27430732958396,2.27551631815215,2.27617576646207,2.27728483861967,2.27845386062362,2.27929315847261,2.27998258170571,2.28059207181033,2.28276025792022,2.2831599235626,2.28318989848578,2.28625733229102,2.28708663849895,2.28797589455323,2.29191260113064,2.2928817903134,2.36145442290413,2.36158431423791,2.37018711719006,2.37013715898476,2.37073665744833,2.37178577975956,2.37286487699398,2.37327453427742,2.37399393243369,2.37475329715421,2.37530283741248,2.3758623693118,2.37783072260051,2.37512298787341,2.37475329715421,2.37132616427083,2.36509138024976,2.2888951255307,2.28770612024463,2.29104332835847,2.28665699793339,2.28782601993734,2.28771611188569,2.28796590291217,2.28792593634794,2.2876161954751,2.28974441502075,2.28873525927375,2.28947464071215,2.28891510881282,2.28868530106845,2.28846548496514,2.28939470758367,2.29088346210152,2.29011410573995,2.28997422276512,2.29083350389622,2.29100336179423,2.29137305251343,2.29161285189886,2.29147296892403,2.29170277666839,2.29188262620746,2.29237221661937,2.29323149775048,2.29289178195446,2.29351126370015,2.29342133893061,2.29396088754782,2.29566945816898,2.29525980088554,2.2946303274988,2.29551958355309,2.29492008508952,2.29515988447495,2.29628893991466,2.29658868914645,2.29635888140208,2.29794755233052,2.29650875601797,2.29769776130404,2.29813739351065,2.29886678330799,2.29882681674375,2.29920649910401,2.30006578023512,2.30088509480199,2.30071523690398,2.30222397470395,2.30230390783243,2.30177435085628,2.30260365706421,2.30459199363503,2.30384262055558,2.30384262055558,2.30624061440984,2.30538133327873,2.30692004600188,2.30797915995417,2.31133635135013,2.31021728755148,2.31264525632892,2.40244013452983,2.40424862156159,2.40661664049267,2.40766576280391,2.40704628105822,2.40751588818802,2.40956417460519,2.41019364799194,2.41258165020514,2.41380063041438,2.41293135764222,2.41227190933229,2.41389055518392,2.41351087282366,2.41336099820777,2.4131311904634,2.41375067220909,2.41413035456934,2.41616864934546,2.41926605807388,2.42210368413475,2.41857663484078,2.41880644258515,2.42104457018246,2.41537930970177,2.42939758210812,2.41577897534415,2.42286304885527,2.42153416059437,2.4129113743601
2.24876869503611,2.24895853621624,2.24866877862552,2.24981781734735,2.25025744955396,2.2499776836043,2.24980782570629,2.25170623750758,2.25215586135525,2.25205594494465,2.25314503382013,2.25343479141085,2.25348474961615,2.25402429823336,2.25499348741612,2.25458383013269,2.25615251777901,2.25684194101211,2.25767124722004,2.25817082927301,2.25889022742929,2.25998930794583,2.25903011040412,2.26005924943324,2.26059879805045,2.26108838846236,2.26251719313386,2.26253717641598,2.26308671667424,2.26339645754708,2.26526489442519,2.263886047959,2.26594432601723,2.26555465201592,2.26589436781194,2.26619411704372,2.26704340653377,2.26763291335627,2.26838228643573,2.26933149233637,2.2706304056741,2.26936146725955,2.27057045582774,2.2716895196264,2.2725488007575,2.27284854998929,2.27396761378794,2.27391765558264,2.27472697850846,2.27579608410181,2.27720490549119,2.27785436216005,2.2783339609309,2.27921322534413,2.28052213032291,2.28180106037852,2.28295009910035,2.28461870315727,2.28547798428838,2.28798588619429,2.28895507537706,2.29050377974126,2.3599356934631,2.36024543433595,2.36053519192667,2.36197398823922,2.36681993415304,2.36915797816094,2.37027704195959,2.37032700016489,2.37239526986419,2.37309468473835,2.3738440578178,2.37472332223103,2.37726119906012,2.37736111547072,2.37588235259392,2.37320459279,2.38136776353554,2.37497311325752,2.37569251141379,2.28860536793998,2.28644717347114,2.28706665521683,2.28729646296119,2.28693676388306,2.2864571651122,2.2875662372698,2.28732643788437,2.28807581096383,2.28748630414132,2.28780603665522,2.28890511717176,2.28939470758367,2.2895845487638,2.28914491655718,2.28949462399426,2.29009412245783,2.28966448189227,2.29069362092139,2.28983433979028,2.29252209123527,2.29200252590018,2.29104332835847,2.29109328656377,2.29125315282072,2.29289178195446,2.29218237543925,2.29258204108162,2.29249211631209,2.292981706724,2.29420068693325,2.29370110488028,2.29372108816239,2.29452041944715,2.2946303274988,2.29454040272927,2.29512990955177,2.29486013524317,2.29569943309216,2.2959592157597,2.29642882288949,2.29704830463518,2.29769776130404,2.2977077529451,2.29816736843383,2.29822731828019,2.29877685853846,2.2993563737199,2.299036641206,2.30048542915962,2.30095503628941,2.30101498613576,2.30251373229468,2.30290340629599,2.30295336450129,2.3031232223993,2.30363279609333,2.30416235306948,2.30499165927741,2.30803910980053,2.30745959461908,2.30888839929058,2.31535299105602,2.40054172272855,2.40186061934839,2.4017107447325,2.40405878038146,2.40673654018538,2.40656668228737,2.40758582967543,2.4080354535231,2.41138265327801,2.40906459255222,2.40896467614163,2.40916450896282,2.4087248767562,2.40992387368333,2.412221951127,2.41290138271904,2.41231187589653,2.41239180902501,2.41483976108456,2.41586890011368,2.41526940165012,2.41648838185936,2.42113449495199,2.40949423311778,2.41467989482761,2.42287304049633,2.31797080101358,2.31884007378575,2.42088470392551,2.31928969763342,2.41805706950569,2.41466990318655
2.24676037518317,2.24723997395402,2.24839900431691,2.24913838575531,2.24943813498709,2.25083696473541,2.25148642140427,2.25092688950494,2.25102680591554,2.25206593658571,2.25277534310093,2.25282530130623,2.25329490843602,2.25418416449031,2.25441397223468,2.25593270167571,2.25661213326775,2.25625243418961,2.25674202460152,2.2576812388611,2.2581508459909,2.25844060358162,2.25890021907035,2.25985941661205,2.2608086225127,2.26081861415376,2.26090853892329,2.261867736465,2.26193767795241,2.26284691728882,2.26345640739344,2.26414583062654,2.26460544611527,2.26444557985832,2.26636397494173,2.26666372417351,2.2671333313033,2.26753299694568,2.26809252884501,2.26777279633111,2.26927154249002,2.27007087377477,2.27080026357211,2.27208918526877,2.27176945275487,2.27256878403962,2.27416744660913,2.27570615933228,2.27588600887135,2.27691514790047,2.27733479682496,2.27863371016269,2.27946301637062,2.2804022306302,2.28122154519707,2.28376941366722,2.28555791741686,2.28715657998636,2.28776607009099,2.2898543230724,2.3596659191545,2.36465174804315,2.35975584392404,2.35989572689887,2.36096483249222,2.36203393808558,2.36989735959934,2.36940776918743,2.37006721749735,2.37067670760197,2.37157595529732,2.37269501909597,2.37398394079263,2.37642190121113,2.37851015419255,2.3728349020708,2.3743136649476,2.37524288756612,2.37497311325752,2.37639192628795,2.28901502522341,2.28917489148036,2.28771611188569,2.28731644624331,2.28810578588701,2.28772610352675,2.28702668865259,2.28747631250026,2.28758622055192,2.2878859697837,2.28773609516781,2.28836556855455,2.28865532614527,2.28850545152938,2.28868530106845,2.28865532614527,2.28896506701812,2.29003417261147,2.28936473266049,2.28944466578897,2.29013408902207,2.29145298564191,2.29068362928033,2.29049378810021,2.29094341194788,2.29130311102602,2.29178270979687,2.2915529020525,2.29272192405645,2.29280185718493,2.29227230020878,2.29386097113723,2.29331143087896,2.29356122190544,2.29363116339286,2.29420068693325,2.29459036093456,2.29459036093456,2.29501000985906,2.29516987611601,2.29527978416766,2.29650875601797,2.2967485554034,2.29653873094115,2.29913655761659,2.29713822940471,2.30180432577946,2.29867694212786,2.30070524526292,2.30203413352382,2.29956619818215,2.30002581367088,2.30148459326556,2.30099500285364,2.3018442923437,2.30329308029731,2.3044521106602,2.30420231963372,2.30469191004563,2.30562113266415,2.30759947759392,2.30970771385745,2.31083676929716,2.40168076980932,2.40004214067558,2.40292972494175,2.40356918996955,2.40369908130332,2.40597717546487,2.40754586311119,2.40694636464763,2.40716618075094,2.4077157210092,2.40782562906086,2.40903461762905,2.40921446716811,2.40693637300657,2.40694636464763,2.41171237743297,2.41140263656013,2.41447007036536,2.41607872457593,2.41176233563826,2.41626856575606,2.4101037232224,2.40970405758003,2.40932437521977,2.31725140285731,2.3162922053156,2.31603242264806,2.31575265669839,2.31606239757124,2.31638213008514,2.31716147808777,2.31807071742418,2.31888004034999
2.24665046713151,2.24802931359771,2.24744979841627,2.24915836903743,2.24873872011293,2.24934821021755,2.25026744119502,2.25086693965858,2.25113671396719,2.25170623750758,2.25203596166254,2.25276535145987,2.25345477469297,2.25310506725589,2.25526326172473,2.25514336203201,2.2557628437777,2.25624244254855,2.25761129737369,2.25694185742271,2.25797099645183,2.25927990143061,2.2584206202995,2.25986940825311,2.25986940825311,2.26096848876965,2.260858580718,2.26192768631135,2.26313667487954,2.26295682534047,2.26391602288217,2.26411585570336,2.26421577211396,2.26510502816824,2.26570452663181,2.26684357371258,2.26640394150597,2.2671333313033,2.26833232823043,2.26968119977345,2.26982108274829,2.27027070659596,2.27086021341846,2.27261874224492,2.27310833265683,2.27366786455616,2.2754064101005,2.27518659399719,2.27603588348724,2.27743471323556,2.27867367672692,2.27988266529511,2.28150131114674,2.28201088484077,2.28404917961689,2.28478856105528,2.28754625398768,2.29144299400085,2.36130454828824,2.36070504982468,2.36231370403524,2.36231370403524,2.36117465695447,2.3609948074154,2.36120463187765,2.36262344490809,2.37078661565362,2.37008720077946,2.37027704195959,2.37038695001125,2.37181575468274,2.37240526150525,2.37223540360724,2.37181575468274,2.3725151695569,2.37115630637282,2.37173582155427,2.37191567109334,2.37464338910256,2.37175580483639,2.36593067809875,2.28766615368039,2.28657706480492,2.2865071233175,2.28710662178106,2.28694675552411,2.28743634593603,2.28780603665522,2.28690678895988,2.28723651311484,2.28763617875721,2.28822568557972,2.28873525927375,2.28828563542608,2.28879520912011,2.28865532614527,2.28892510045388,2.28906498342871,2.28892510045388,2.29000419768829,2.289954239483,2.29106331164059,2.29072359584457,2.29041385497173,2.29097338687106,2.29170277666839,2.29115323641013,2.29309161477565,2.2922922834909,2.29178270979687,2.29291176523658,2.2926120160048,2.29272192405645,2.29271193241539,2.29337138072532,2.29349128041803,2.29412075380477,2.2942606367796,2.29516987611601,2.29476021883257,2.29524980924448,2.29579934950275,2.29666862227492,2.29671858048022,2.29679851360869,2.29773772786828,2.29805746038218,2.29837719289608,2.29816736843383,2.29869692540998,2.30051540408279,2.30033555454372,2.30015570500465,2.30091506972517,2.3014246434192,2.302064108447,2.30283346480858,2.30465194348139,2.30484178466152,2.30662029677009,2.30951787267732,2.31253534827726,2.40188060263051,2.39908294313387,2.40251007601725,2.40163081160402,2.40236020140136,2.40403879709934,2.40558750146355,2.40508791941058,2.40550756833507,2.40726609716153,2.40769573772708,2.40664661541585,2.4067065652622,2.40859498542243,2.40842512752442,2.40794552875357,2.40626693305559,2.40501797792316,2.40651672408207,2.41195217681839,2.41611869114017,2.40977399906744,2.31524308300436,2.31425391053948,2.31367439535804,2.3132647380746,2.31466356782292,2.31520311644013,2.31449370992491,2.31531302449178,2.31593250623746,2.31969935491686,2.31695165362552,2.3186802075288
2.24706012441495,2.24714005754343,2.24752973154474,2.24894854457518,2.24926827708908,2.24920832724272,2.25040732416985,2.25116668889037,2.25089691458176,2.2513565300705,2.25151639632745,2.25213587807313,2.25296518428106,2.25344478305191,2.25467375490222,2.25483362115917,2.25535318649426,2.25546309454591,2.25682195772999,2.25717166516707,2.25779114691276,2.25777116363064,2.25955966738027,2.25877032773658,2.25985941661205,2.26031903210079,2.26161794543851,2.26138813769414,2.26226740210737,2.26307672503318,2.26342643247026,2.26339645754708,2.26432568016561,2.26528487770731,2.26543475232321,2.26642392478809,2.26697346504635,2.26680360714834,2.26818245361454,2.26890185177082,2.2706304056741,2.27089018834164,2.27102007967542,2.27326819891378,2.27236895121844,2.27419742153231,2.27477693671375,2.2763156494369,2.27762455441568,2.27816410303289,2.27973279067922,2.282050851405,2.28326983161425,2.28558789234003,2.28653709824068,2.28915490819824,2.35912637053729,2.36048523372137,2.36108473218494,2.36351270096237,2.36353268424449,2.36418214091335,2.36367256721932,2.36422210747759,2.36267340311338,2.3719256627344,2.36902808682717,2.36966755185497,2.37029702524171,2.37043690821654,2.37014715062582,2.37193565437546,2.37124623114236,2.37124623114236,2.3721454788377,2.37121625621918,2.37301475160987,2.37263506924961,2.37508302130917,2.37222541196618,2.28809579424595,2.28749629578238,2.28740637101285,2.28779604501416,2.28680687254928,2.28689679731882,2.28740637101285,2.28787597814264,2.28773609516781,2.28731644624331,2.28819571065654,2.28834558527243,2.28800586947641,2.2875662372698,2.28792593634794,2.28828563542608,2.28881519240222,2.28850545152938,2.28841552675985,2.28951460727638,2.2896345069691,2.28975440666181,2.29030394692008,2.29024399707372,2.29121318625648,2.29112326148695,2.29084349553728,2.29143300235979,2.29217238379819,2.29190260948958,2.29221235036242,2.29246214138891,2.29258204108162,2.2928817903134,2.29334140580214,2.29320152282731,2.29380102129087,2.29447046124185,2.2945803692935,2.29691841330141,2.29553956683521,2.29537970057826,2.2956394832458,2.29621899842725,2.29695837986564,2.29750792012391,2.2987169086921,2.29860700064045,2.298027485459,2.29929642387355,2.29957618982321,2.29907660777024,2.30065528705763,2.30144462670132,2.30173438429204,2.30264362362845,2.30407242829994,2.30525144194495,2.30687008779658,2.30952786431838,2.30993752160182,2.40000217411134,2.40051174780537,2.4013410540133,2.40140100385966,2.40201049396428,2.40269991719738,2.40406877202252,2.40382897263709,2.40368908966226,2.40378900607286,2.40487809494833,2.40767575444497,2.40677650674962,2.40758582967543,2.40592721725957,2.40472822033244,2.40629690797877,2.40590723397745,2.40637684110724,2.40921446716811,2.41194218517733,2.40567742623308,2.31341461269049,2.31330470463884,2.31396415294876,2.31265524796998,2.31327472971566,2.31195583309582,2.31263526468786,2.31320478822824,2.31369437864016,2.31584258146793,2.31546289910767,2.31521310808119,2.317031586754
2.2468003417474,2.24777952257123,2.24783947241758,2.24797935539242,2.24858884549704,2.24958800960298,2.24949808483345,2.25011756657913,2.25013754986125,2.25078700653011,2.25142647155791,2.2516762625844,2.25287525951153,2.25261547684398,2.25323495858966,2.25386443197641,2.25499348741612,2.25567291900816,2.2557628437777,2.2566720831141,2.25693186578165,2.25785109675911,2.25849056178691,2.25841062865844,2.25963960050875,2.25984942497099,2.26067873117893,2.26172785349016,2.26231736031267,2.26231736031267,2.26335649098285,2.26364624857357,2.26397597272853,2.26672367401987,2.2658044430424,2.26678362386623,2.26768287156157,2.26774282140793,2.26822242017878,2.26912166787413,2.26946138367015,2.27143972859991,2.27189934408864,2.27305837445153,2.27369783947934,2.27539641845944,2.27706502251636,2.27690515625941,2.28059207181033,2.28110164550436,2.2834296978712,2.28425900407913,2.28571778367381,2.29024399707372,2.35872670489492,2.3609448492101,2.35999564330946,2.35967591079556,2.36328289321801,2.36334284306436,2.36377248362992,2.36244359536902,2.36647022671596,2.36537114619942,2.36425208240077,2.36494150563387,2.36956763544438,2.36846855492784,2.37047687478078,2.36848853820996,2.37003724257417,2.37116629801388,2.3698573930351,2.37089652370528,2.37009719242052,2.37019710883112,2.3711363230907,2.37159593857944,2.36414217434912,2.36362260901403,2.28837556019561,2.28718655490954,2.28658705644598,2.28663701465127,2.28707664685789,2.28670695613869,2.28573776695593,2.2861873908036,2.28661703136915,2.28712660506318,2.28657706480492,2.2871965465506,2.28791594470688,2.28792593634794,2.28769612860357,2.28777606173205,2.2882057022976,2.28841552675985,2.28794591963006,2.28880520076116,2.29016406394524,2.289954239483,2.29044382989491,2.29011410573995,2.29043383825385,2.29026398035584,2.29080352897305,2.29080352897305,2.29125315282072,2.29130311102602,2.29201251754124,2.2923422416962,2.29215240051607,2.2923422416962,2.29269194913328,2.29406080395841,2.29363116339286,2.29366113831604,2.29434056990808,2.29459036093456,2.29582932442593,2.29547961698885,2.29520984268025,2.29615904858089,2.29621899842725,2.29713822940471,2.29892673315435,2.29846711766561,2.29824730156231,2.29873689197422,2.29853705915303,2.29926644895037,2.30077518675034,2.30166444280463,2.302064108447,2.3027535316801,2.30442213573702,2.30700997077141,2.31165608386404,2.39681484061339,2.40005213231664,2.40135104565436,2.40056170601067,2.40074155554974,2.40098135493516,2.40272989212056,2.40274987540268,2.4030895911987,2.40421864663841,2.4039988305351,2.40249009273513,2.40378900607286,2.40245012617089,2.40755585475225,2.40397884725298,2.40507792776952,2.40651672408207,2.40654669900525,2.40598716710593,2.40616701664499,2.31213568263489,2.31132635970908,2.31110654360577,2.31046707857797,2.31596248116064,2.31246540678985,2.31212569099383,2.31190587489052,2.31140629283755,2.3118858916084,2.31578263162157,2.31307489689447,2.31338463776731,2.31487339228517,2.31461360961762,2.31506323346529
