2.21919025367477,2.21968994525115,2.22041949495266,2.22113905082264,2.22216841546997,2.22301789114981,2.22387736066118,2.22494670063462,2.22488673764546,2.22596607145043,2.22687551011943,2.22739518935887,2.22811474522885,2.22826465270176,2.22965379528408,2.23373127854731,2.230713141426,2.23146267879057,2.23241209278568,2.23381122919953,2.23324158080246,2.23365132789509,2.23474065553159,2.235070451972,2.23619975493461,2.23657952053266,2.23671943417404,2.23834842871303,2.23864824365885,2.23927785504509,2.23980752811604,2.24047711482839,2.24157643629642,2.24199617722057,2.24287563439499,2.24314546784624,2.24413485716746,2.24511425265716,2.2453840861084,2.24668328420698,2.24703306831044,2.24786255632722,2.2486520690179,2.24988131029578,2.25086070578548,2.25193004575892,2.25368896010777,2.25463837410288,2.25601752285368,2.25879580801833,2.26126428440563,2.30868501500371,2.30882492864509,2.30957446600965,2.31137335568461,2.31140333717919,2.31153325698905,2.30953449068354,2.30873498416134,2.30912474359092,2.30891487312884,2.30762566886179,2.30756570587262,2.30710598962236,2.30734584157902,2.30757569970415,2.30809537894358,2.30845515687857,2.30879494715051,2.30992425011312,2.31059383682546,2.31142332484225,2.31222283136445,2.31338211582164,2.31441148046897,2.3151110486759,2.31622036397546,2.31712980264446,2.31855892055289,2.31919852577066,2.31857890821595,2.31970821117856,2.32016792742882,2.31892869231941,2.27973288506848,2.27726440868119,2.27612511188705,2.27566539563678,2.27510574107124,2.27567538946831,2.27584528460428,2.27636496384371,2.27626502552843,2.27588525993039,2.27599519207719,2.2767247417787,2.27641493300135,2.27746428531174,2.27717446419744,2.27804392754033,2.2785036437906,2.27829377332852,2.27939309479655,2.28082221270498,2.28097212017789,2.28124195362914,2.28285096050507,2.28371043001644,2.28619889406679,2.3309812531416,2.32655398577491,2.32634411531283,2.3277132702321,2.33731734233005,2.32757335659072,2.33436916202943,2.33307995776238,2.33074140118494,2.33003183914649,2.32966206737997,2.32928230178192,2.32868267189027,2.32939223392873,2.32890253618388,2.32885256702624,2.32932227710803,2.33006182064107,2.32999186382038,2.33061148137508,2.33208057460963,2.33313992075154,2.33410932240971,2.33440913735554,2.33675768776451,2.33531857602454,2.33591820591619,2.33599815656842,2.33600815039994,2.33636792833493,2.29126576665124,2.2896167844492,2.28822764186687,2.2870383759151,2.28648871518109,2.28584910996332,2.28598902360471,2.28534941838695,2.28487970830516,2.28550931969139,2.2849696527889,2.28454991186475,2.28452992420169,2.28446996121253,2.28438001672878,2.28437002289725,2.28425009691892,2.2840602141199,2.28427008458198,2.28404022645684,2.28390031281546,2.28334065824992,2.28470981316919,2.28375040534255,2.28508957876723,2.28411018327754,2.28404022645684,2.28470981316919,2.28441999205489,2.28470981316919,2.28455990569627,2.28547933819681,2.28523948624015,2.28552930735444,2.28515953558793,2.28586909762638,2.28755805515453
2.21901036470728,2.21961998843046,2.22044947644724,2.22147884109457,2.22213843397539,2.22265811321482,2.22356755188383,2.22425712625923,2.22499666979226,2.22581616397752,2.22575620098835,2.22838457868009,2.22800481308204,2.22885428876188,2.22928402351757,2.23061320311073,2.23128278982307,2.23116286384474,2.23222220998666,2.23281184604678,2.23297174735122,2.23380123536801,2.23462072955326,2.23513041496117,2.23596989680948,2.23635965623905,2.23734904556027,2.2383384348815,2.23888809561551,2.23917791672981,2.2400473800727,2.23995743558896,2.24138655349739,2.24246588730236,2.24315546167776,2.24322541849846,2.24388501137927,2.24536409844534,2.24504429583646,2.2464734137449,2.24711301896266,2.24750277839223,2.24848217388193,2.25008118692633,2.25102060708992,2.25244972499836,2.25405873187429,2.25618741798965,2.25744664076212,2.25788636934933,2.26033485807357,2.30763566269332,2.30704602663319,2.30900481761259,2.30965441666187,2.3097743426402,2.30931462638994,2.31014411440672,2.30858507668843,2.30860506435149,2.30799544062831,2.30692610065486,2.30791548997609,2.30676619935042,2.30725589709527,2.30771561334554,2.30768563185095,2.30838520005788,2.30883492247662,2.3096644104934,2.31163319530432,2.31131339269544,2.31221283753292,2.31358199245219,2.31478125223549,2.31564072174686,2.31652017892128,2.316780018541,2.31827909327012,2.31744960525334,2.31592054902963,2.31794929682972,2.3200879767766,2.31665009873114,2.27940308862807,2.27687464925161,2.27604516123483,2.27527563620721,2.27484590145153,2.27525564854415,2.27535558685943,2.27543553751165,2.27533559919637,2.27546551900623,2.27656484047426,2.27575534012053,2.27638495150676,2.27720444569202,2.2772344271866,2.27761419278465,2.27796397688811,2.27905330452461,2.2791232613453,2.2794130824596,2.28048242243305,2.28488970213668,2.28273103452674,2.28459988102238,2.28667859798011,2.33019174045093,2.3302916787662,2.3270236958567,2.33328982822446,2.33445910651318,2.33409932857819,2.33564837246495,2.33057150604897,2.33050154922828,2.3301817466194,2.32958211672775,2.32862270890111,2.32850278292278,2.32859272740652,2.32862270890111,2.32828291862917,2.32854275824889,2.32916237580359,2.33105120996229,2.33053153072286,2.33220050058796,2.33274016749044,2.33342974186584,2.33468896463831,2.33589821825314,2.33462900164914,2.33635793450341,2.33556842181273,2.33396940876833,2.33530858219302,2.33527860069843,2.28902714838908,2.2880177714048,2.28679852395844,2.28619889406679,2.28531943689237,2.28696841909441,2.28512955409334,2.28497964662043,2.28488970213668,2.28473979466377,2.28501962194654,2.28453991803322,2.2845698995278,2.2846798316746,2.2842800784135,2.28380037450018,2.28434004140267,2.28391030664699,2.28354053488047,2.28419013392976,2.28430006607656,2.28389031898393,2.28389031898393,2.28382036216324,2.28379038066866,2.28431005990809,2.28443997971794,2.28427008458198,2.28457989335933,2.28402023879379,2.28446996121253,2.28483973297904,2.28556928268055,2.2849696527889,2.28756804898606,2.28782788860577
2.21903035237033,2.21960999459893,2.22001974169156,2.22223837229067,2.2216687238936,2.22256816873107,2.22274805769857,2.22390734215576,2.22472683634102,2.22580617014599,2.22651573218444,2.22747514001109,2.22874435661508,2.22848451699536,2.22914410987618,2.23000357938755,2.22990364107227,2.23093300571961,2.23172251841028,2.2319124012093,2.23283183370984,2.23349142659065,2.23412103797689,2.23546021140157,2.23601986596711,2.23661949585877,2.23729907640264,2.23813855825095,2.23882813262635,2.23894805860468,2.23977754662146,2.24032720735548,2.24154645480183,2.24170635610627,2.24335533830831,2.24327538765609,2.24430475230343,2.24475447472217,2.24606366665227,2.2464734137449,2.24703306831044,2.24794250697944,2.24902184078442,2.24962147067607,2.25061085999729,2.25254966331363,2.25406872570581,2.25539790529897,2.25711684432171,2.26028488891593,2.26215373541158,2.30801542829136,2.3085750828569,2.30887489780273,2.30934460788452,2.30952449685202,2.31016410206978,2.30979433030326,2.30808538511205,2.30751573671499,2.3072658909268,2.30705602046472,2.30676619935042,2.30671623019278,2.30678618701348,2.30732585391596,2.30796545913372,2.30812536043816,2.30891487312884,2.30924466956925,2.30999420693381,2.311153491391,2.31188304109251,2.31306231321276,2.31432153598523,2.31583060454588,2.31629032079615,2.31711980881293,2.31776940786222,2.31799926598735,2.31576064772519,2.31719975946515,2.31542085745325,2.3130423255497,2.3127125291093,2.27676471710481,2.27653485897968,2.27601517974025,2.27487588294611,2.27541554984859,2.27463603098945,2.27474596313625,2.27605515506636,2.275745346289,2.27571536479442,2.27617508104469,2.2762150563708,2.27673473561023,2.2774143161541,2.27783405707825,2.27804392754033,2.27891339088323,2.27922319966058,2.2799927246882,2.28095213251484,2.28202147248828,2.28384034982629,2.28486971447363,2.32940222776025,2.33322986523529,2.33193066713671,2.33290006879488,2.33286009346877,2.33288008113183,2.33319988374071,2.33001185148343,2.32956212906469,2.32993190083121,2.32895250534151,2.32874263487944,2.32876262254249,2.32772326406363,2.32774325172668,2.32787317153654,2.32810302966167,2.32836286928139,2.32886256085777,2.32930228944498,2.33004183297801,2.33217051909338,2.33281012431114,2.3329800194471,2.33338976653973,2.33392943344222,2.33542850817135,2.33472893996442,2.33569834162259,2.33356965550723,2.33470895230136,2.28986663023739,2.28843751232895,2.28738816001856,2.28721826488259,2.28632881387665,2.28592906061554,2.2856592271643,2.28489969596821,2.28513954792487,2.28649870901261,2.28578914697416,2.28483973297904,2.28473979466377,2.28440000439183,2.284459967381,2.28313078778784,2.28416015243517,2.28431005990809,2.28431005990809,2.28449994270711,2.2840602141199,2.28486971447363,2.28413017094059,2.2841701462667,2.28401024496226,2.28400025113073,2.28394028814157,2.28358051020658,2.28462986251697,2.28459988102238,2.28452992420169,2.28489969596821,2.28463985634849,2.28510956643029,2.28531943689237,2.28560925800666,2.28607896808846
2.21896039554964,2.22004972318614,2.21986983421864,2.22127896446402,2.22194855117637,2.22273806386704,2.22306786030745,2.22400728047104,2.22508661427601,2.22568624416766,2.22657569517361,2.22703541142387,2.22834460335398,2.22916409753924,2.22975373359936,2.22953386930575,2.2302034560181,2.2315126479482,2.23241209278568,2.23275188305762,2.23287180903595,2.23405108115619,2.23668945267946,2.23521036561339,2.23596989680948,2.23624972409225,2.23703923678292,2.23799864460956,2.23841838553372,2.23954768849633,2.24019728754562,2.2407369544481,2.24119667069837,2.2422260353457,2.24285564673194,2.24337532597137,2.24424478931426,2.24476446855369,2.24601369749463,2.24662332121781,2.24717298195183,2.24823232809374,2.24926169274108,2.25026107589383,2.25122048372047,2.25255965714516,2.25433855915706,2.25685700470199,2.25759654823503,2.25971524051886,2.26406255723333,2.30765565035637,2.30839519388941,2.3088649039712,2.30936459554758,2.30938458321063,2.3092646572323,2.30853510753079,2.30838520005788,2.3079554653022,2.3070860019593,2.30698606364403,2.30754571820957,2.30641641524696,2.30652634739376,2.306796180845,2.30738581690513,2.30776558250317,2.30830524940566,2.30929463872688,2.31008415141756,2.31080370728754,2.31149328166294,2.31309229470734,2.31355201095761,2.31523097465423,2.31586058604046,2.31709982114988,2.3171098149814,2.31679001237252,2.31804923514499,2.31745959908487,2.31067378747768,2.31318223919109,2.27798396455117,2.2762150563708,2.27576533395206,2.27580530927817,2.27445614202195,2.27522566704957,2.27556545732151,2.27520567938652,2.27611511805552,2.27589525376192,2.2759252352565,2.27597520441414,2.27667477262106,2.27698458139841,2.27720444569202,2.27761419278465,2.27786403857284,2.27938310096502,2.27996274319362,2.28056237308527,2.28106206466164,2.28222134911884,2.28338063357603,2.28509957259876,2.33033165409231,2.3300018576519,2.33153091387561,2.33219050675643,2.33241037105004,2.33262024151211,2.32984195634746,2.33072141352188,2.33035164175537,2.3297819933583,2.32882258553166,2.32788316536807,2.32701370202518,2.32759334425377,2.32715361566656,2.32743344294933,2.32783319621043,2.32756336275919,2.32822295564001,2.32933227093956,2.32977199952677,2.33162085835936,2.33261024768059,2.33269019833281,2.3335596616757,2.33370956914861,2.33402937175749,2.33495879808955,2.33351968634959,2.33416928539888,2.29130574197735,2.28945688314476,2.28865737662256,2.28799778374174,2.28668859181164,2.2861289372461,2.28577915314263,2.28523948624015,2.28463985634849,2.2850396096096,2.28479975765294,2.28477976998988,2.28469981933766,2.28440999822336,2.28437002289725,2.28414016477212,2.2839502819731,2.28569920249041,2.28402023879379,2.28408020178295,2.28358051020658,2.2837703930056,2.28349056572283,2.28364047319574,2.2839502819731,2.28407020795143,2.28402023879379,2.28444997354947,2.28399025729921,2.2839502819731,2.28437002289725,2.28444997354947,2.2843500352342,2.28470981316919,2.2847497884953,2.28469981933766,2.2851495417564,2.28559926417514
2.21882048190825,2.21954003777824,2.22006971084919,2.22118901998028,2.22175866837734,2.22229833527983,2.22336767525328,2.22433707691144,2.22476681166713,2.22607600359723,2.22627588022778,2.22700542992929,2.22881431343577,2.22903417772938,2.22993362256686,2.2314027158014,2.23045330180629,2.23110290085557,2.2311128946871,2.23321159930788,2.23310166716108,2.2340910564823,2.23479062468923,2.23543022990699,2.2356500942006,2.23635965623905,2.23700925528834,2.23770882349527,2.23870820664802,2.23970758980077,2.24010734306187,2.24069697912199,2.24169636227475,2.24193621423141,2.24276570224819,2.24350524578123,2.24424478931426,2.24529414162465,2.2460736604838,2.24640345692421,2.24684318551142,2.24837224173513,2.2491617544258,2.24992128562189,2.25137039119338,2.25295941040626,2.25392881206443,2.25582764005466,2.25819617812668,2.26048476554648,2.26252350717809,2.30815534193275,2.30868501500371,2.30905478677022,2.30921468807466,2.30906478060175,2.30952449685202,2.30931462638994,2.30772560717706,2.30715595878,2.30736582924207,2.30636644608932,2.30651635356223,2.30629648926863,2.30637643992085,2.30583677301836,2.30644639674154,2.30728587858985,2.30849513220468,2.3087549718244,2.3099542316077,2.31048390467866,2.31125342970628,2.31252264631027,2.31360198011525,2.31486120288771,2.31596052435574,2.31622036397546,2.31715978413904,2.31762949422084,2.31654016658434,2.31930845791746,2.30910475592786,2.31051388617324,2.27715447653438,2.27585527843581,2.27478593846236,2.27451610501112,2.27483590762,2.27466601248403,2.27445614202195,2.27538556835401,2.27600518590872,2.27548550666929,2.27607514272941,2.27682468009397,2.27699457522994,2.27685466158856,2.27754423596396,2.27760419895312,2.27776410025756,2.27822381650783,2.27953300843793,2.28056237308527,2.28118199063997,2.28173165137399,2.28423010925587,2.28547933819681,2.33086132716327,2.33010179596718,2.33036163558689,2.33142098172881,2.33181074115838,2.33078137651105,2.3300018576519,2.32952215373858,2.32957212289622,2.32854275824889,2.32984195634746,2.32876262254249,2.32717360332962,2.32631413381825,2.32652400428033,2.32659396110102,2.32653399811185,2.32697372669907,2.32783319621043,2.32892252384693,2.32985195017899,2.33032166026078,2.33180074732686,2.33208057460963,2.33335978504515,2.33360963083334,2.33389945194764,2.33486885360581,2.33266021683822,2.3339594149368,2.33301999477321,2.28922702501963,2.2884175246659,2.28830759251909,2.28648871518109,2.28555928884903,2.28528945539778,2.28488970213668,2.28465984401155,2.28538939371306,2.28560925800666,2.28544935670222,2.28454991186475,2.28312079395631,2.28371043001644,2.28400025113073,2.28412017710906,2.28466983784308,2.28391030664699,2.28394028814157,2.28374041151102,2.28390031281546,2.28387033132088,2.2839502819731,2.28613893107762,2.2839502819731,2.28380037450018,2.2833706397445,2.28376039917407,2.28487970830516,2.28469981933766,2.28455990569627,2.28472980083224,2.28499963428349,2.28473979466377,2.28466983784308,2.28517952325098,2.28522949240862
2.21886045723436,2.22021961832211,2.22072930373001,2.2214888349261,2.22165873006207,2.22265811321482,2.22363750870452,2.22396730514493,2.22611597892334,2.2258461454721,2.22617594191251,2.22692547927707,2.22765502897858,2.22912412221313,2.22923405435993,2.23063319077378,2.22977372126241,2.23118285150779,2.23248204960637,2.23237211745957,2.23313164865566,2.23350142042218,2.23406107498772,2.23505046430894,2.23606983512475,2.23660950202724,2.23704923061445,2.23779876797901,2.23874818197413,2.23962763914855,2.24030721969242,2.24063701613283,2.24093683107865,2.24218606001959,2.24297557271027,2.24361517792803,2.24410487567288,2.24512424648868,2.24543405526604,2.24689315466905,2.24764269203362,2.24853214303957,2.24969142749676,2.25004121160022,2.25144034801408,2.2525396694821,2.2544984604615,2.25613744883201,2.25881579568139,2.26097446329133,2.26226366755838,2.31301234405512,2.30898482994953,2.30914473125397,2.31052388000477,2.30960444750424,2.30965441666187,2.30892486696037,2.30711598345388,2.30738581690513,2.30618655712183,2.30609661263808,2.30655632888834,2.30597668665975,2.3069760698125,2.30624652011099,2.30694608831792,2.30723590943222,2.30840518772093,2.30890487929731,2.30933461405299,2.31041394785797,2.31136336185308,2.31210290538612,2.31310228853887,2.31450142495272,2.315510801937,2.31741962375876,2.31632030229073,2.31514103017048,2.31458137560494,2.31570068473602,2.31040395402644,2.31165318296738,2.31254263397333,2.2765448528112,2.27501579658749,2.27554546965845,2.27434620987515,2.27442616052737,2.27466601248403,2.2750557719136,2.2754555251747,2.27548550666929,2.27531561153332,2.27623504403385,2.27630500085454,2.27731437783882,2.2775242483009,2.27771413109992,2.27816385351866,2.27841369930685,2.2798128357207,2.28047242860152,2.28113202148234,2.28262110237994,2.28425009691892,2.3293822400972,2.32977199952677,2.32970204270608,2.33073140735341,2.33199063012588,2.3320705807781,2.33151092621256,2.32928230178192,2.33013177746176,2.32892252384693,2.32795312218876,2.3274234491178,2.3266239425956,2.32659396110102,2.32601431887242,2.32604430036701,2.32604430036701,2.32626416466061,2.32652400428033,2.32763331957988,2.32822295564001,2.32976200569524,2.33053153072286,2.33114115444604,2.33148094471798,2.33277014898503,2.33327983439293,2.33317989607765,2.33311993308849,2.33303998243627,2.33451906950234,2.29026638349849,2.2901964266778,2.28800777757327,2.28614892490915,2.28618890023526,2.2858391161318,2.28460987485391,2.28481974531599,2.28475978232682,2.28459988102238,2.28520950474556,2.28481974531599,2.28438001672878,2.28470981316919,2.28431005990809,2.28412017710906,2.28391030664699,2.28364047319574,2.28376039917407,2.28346058422825,2.28361049170116,2.28367045469032,2.28329068909228,2.28340062123908,2.28407020795143,2.28346058422825,2.28313078778784,2.28294090498882,2.28373041767949,2.28434004140267,2.28284096667354,2.28454991186475,2.28441999205489,2.28516952941945,2.28500962811501,2.28449994270711,2.28551931352292,2.28501962194654
2.21898038321269,2.21984984655559,2.22027958131127,2.22150882258916,2.22234830443747,2.22241826125816,2.22312782329661,2.22439703990061,2.22527649707503,2.22592609612432,2.22644577536375,2.22720530655984,2.22775496729386,2.22918408520229,2.22937396800131,2.23015348686046,2.23035336349101,2.23171252457875,2.23210228400833,2.23292177819358,2.23361135256898,2.23414102563994,2.23312165482413,2.2349605198252,2.23629969324989,2.23729907640264,2.23749895303319,2.23760888517999,2.23851832384899,2.23934781186578,2.24002739240965,2.2404071580077,2.2407369544481,2.24260580094375,2.24297557271027,2.24376508540094,2.24419482015662,2.24494435752119,2.24595373450547,2.24648340757643,2.24724293877252,2.24800246996861,2.24960148301301,2.2500312177687,2.25178013828601,2.2532992006782,2.25473831241816,2.25696693684879,2.25911561062721,2.26102443244897,2.30851511986774,2.30957446600965,2.3094445461998,2.30941456470521,2.31030401571116,2.31051388617324,2.31009414524909,2.30810537277511,2.30719593410611,2.30681616850806,2.30587674834447,2.30541703209421,2.30550697657795,2.30607662497502,2.30635645225779,2.3064663844046,2.30652634739376,2.30725589709527,2.30833523090024,2.30850512603621,2.30908476826481,2.3098442994609,2.31119346671711,2.31200296707084,2.31289241807679,2.31444146196356,2.31525096231729,2.3152909376434,2.31576064772519,2.31577064155672,2.3147112954148,2.31470130158327,2.31449143112119,2.31336212815858,2.27795398305658,2.27580530927817,2.2749458397668,2.27553547582693,2.27445614202195,2.27426625922293,2.27474596313625,2.27484590145153,2.27500580275597,2.27548550666929,2.27544553134318,2.27598519824566,2.27667477262106,2.27679469859939,2.27724442101813,2.27798396455117,2.27802393987728,2.27834374248616,2.27876348341031,2.2803924779493,2.28253115789619,2.28311080012478,2.28483973297904,2.286638622654,2.3297819933583,2.33073140735341,2.3305814998805,2.33152092004409,2.3313810064027,2.32965207354844,2.32948217841247,2.32853276441736,2.32852277058583,2.32664393025866,2.32659396110102,2.3262241893345,2.32646404129116,2.32592437438868,2.3258244360734,2.32624417699756,2.32610426335617,2.32621419550297,2.32728353547642,2.32815299881931,2.32899248066762,2.32971203653761,2.33083134566869,2.33176077200075,2.33288008113183,2.33243035871309,2.33291006262641,2.33211055610421,2.3335596616757,2.33426922371415,2.28994658088961,2.2883475678452,2.28877730260089,2.28695842526288,2.28591906678402,2.28664861648553,2.2847497884953,2.2848597206421,2.28458988719086,2.28473979466377,2.28423010925587,2.28455990569627,2.28460987485391,2.28425009691892,2.28440999822336,2.28419013392976,2.28423010925587,2.28393029431004,2.28376039917407,2.28383035599477,2.28352054721741,2.28521949857709,2.28452992420169,2.28389031898393,2.28381036833171,2.2846798316746,2.28408020178295,2.28352054721741,2.28422011542434,2.28437002289725,2.2833706397445,2.28412017710906,2.28404022645684,2.2845698995278,2.28484972681057,2.28486971447363,2.28475978232682,2.2856592271643
2.2193101796531,2.21972992057726,2.22044947644724,2.22133892745319,2.2221784093015,2.22251819957344,2.22336767525328,2.22420715710159,2.22570623183071,2.2257362133253,2.22593608995585,2.22707538674999,2.22854447998453,2.22907415305549,2.22981369658852,2.23044330797476,2.23105293169794,2.23109290702405,2.23161258626348,2.23279185838373,2.23395114284092,2.23345145126454,2.23487057534145,2.23488056917298,2.23601986596711,2.23661949585877,2.23694929229917,2.23780876181054,2.24009734923034,2.23909796607759,2.23981752194757,2.24050709632297,2.24112671387768,2.24243590580778,2.24300555420485,2.24334534447679,2.2444746474394,2.24472449322758,2.24566391339117,2.24674324719614,2.24713300662572,2.2484721800504,2.25016113757855,2.25170018763379,2.25132042203575,2.25247970649294,2.25470833092358,2.2570069121749,2.2588557710075,2.26049475937801,2.31097360242351,2.30890487929731,2.30958445984118,2.31049389851019,2.30892486696037,2.30919470041161,2.30949451535743,2.30938458321063,2.30790549614456,2.30583677301836,2.30565688405087,2.30582677918683,2.30574682853462,2.30579679769225,2.30603664964891,2.30556693956712,2.30619655095335,2.30673621785584,2.30765565035637,2.30850512603621,2.30907477443328,2.30996422543923,2.31042394168949,2.3116232014728,2.31276249826693,2.3138018567458,2.31473128307785,2.31483122139313,2.31335213432706,2.31549081427395,2.31467132008869,2.31415164084926,2.31487119671924,2.27766416194229,2.27722443335508,2.27589525376192,2.27618507487621,2.27491585827222,2.27439617903279,2.27490586444069,2.27441616669584,2.27482591378847,2.27510574107124,2.27562542031067,2.27554546965845,2.27674472944175,2.27691462457772,2.27700456906147,2.27750426063785,2.27783405707825,2.27795398305658,2.2785036437906,2.28011265066653,2.28062233607443,2.28105207083011,2.2829708864834,2.28482973914752,2.32792314069418,2.3300018576519,2.32974201803219,2.33103122229924,2.33120111743521,2.33038162324995,2.32981197485288,2.32882258553166,2.32798310368334,2.3280030913464,2.32661394876407,2.3270936526774,2.3258244360734,2.32596434971479,2.32543467664383,2.32515484936106,2.32489500974134,2.32579445457882,2.32676385623699,2.32677385006851,2.3274934059385,2.3284028446075,2.32970204270608,2.33129106191895,2.33193066713671,2.33260025384906,2.33294004412099,2.33255028469142,2.33330981588751,2.33200062395741,2.33267021066975,2.28945688314476,2.28789784542647,2.28712832039885,2.2864587336865,2.28696841909441,2.28557927651208,2.28522949240862,2.28497964662043,2.28454991186475,2.28431005990809,2.28441999205489,2.284459967381,2.28457989335933,2.28448994887558,2.28367045469032,2.28439001056031,2.28410018944601,2.28318075694548,2.283550528712,2.28426009075045,2.28383035599477,2.28410018944601,2.28452992420169,2.28424010308739,2.28339062740756,2.28314078161937,2.28443997971794,2.28405022028837,2.2840602141199,2.2838803251524,2.2842800784135,2.28401024496226,2.28429007224503,2.28426009075045,2.28448994887558,2.28472980083224,2.28502961577807,2.28573917781652
2.21893041405506,2.21984984655559,2.22033954430044,2.22130894595861,2.22219839696456,2.22249821191038,2.22283800218232,2.22392732981882,2.2253364600642,2.22517655875976,2.22618593574404,2.22738519552734,2.22832461569092,2.22935398033826,2.23017347452352,2.23001357321908,2.23088303656197,2.23124281449696,2.23145268495904,2.23314164248719,2.23327156229705,2.23373127854731,2.234161013303,2.23493053833062,2.23618976110308,2.23657952053266,2.23700925528834,2.23810857675637,2.23957766999091,2.23897804009926,2.24001739857812,2.24037717651311,2.24181628825308,2.24201616488363,2.24335533830831,2.24300555420485,2.24420481398815,2.2454940182552,2.2458937715163,2.24644343225032,2.24755274754987,2.2488719333115,2.25028106355688,2.25258963863974,2.25204997173726,2.25350907114027,2.25534793614134,2.25724676413156,2.25932548108929,2.26167403149826,2.3094445461998,2.30899482378106,2.30961444133577,2.31042394168949,2.30914473125397,2.3088649039712,2.30972437348257,2.30740580456818,2.30652634739376,2.30562690255628,2.30546700125184,2.30549698274643,2.30539704443115,2.30532708761046,2.30536706293657,2.30545700742032,2.30572684087156,2.30662628570904,2.30746576755735,2.30968439815646,2.30881493481356,2.30990426245006,2.31071376280379,2.31167317063043,2.31349204796844,2.3140217210394,2.31597051818727,2.31401172720787,2.31323220834873,2.31371191226205,2.31574066006213,2.31481123373007,2.31392178272413,2.31427156682759,2.27726440868119,2.27605515506636,2.27469599397861,2.27584528460428,2.27475595696778,2.27434620987515,2.2747259754732,2.27467600631556,2.27526564237568,2.27551548816387,2.27647489599051,2.27622505020232,2.27739432849104,2.27777409408909,2.27760419895312,2.2778140694152,2.27837372398074,2.27965293441626,2.28002270618278,2.28053239159068,2.28181160202621,2.28354053488047,2.28527946156626,2.32902246216221,2.32907243131984,2.33081135800563,2.33146095705492,2.33126108042437,2.33155090153867,2.32958211672775,2.32874263487944,2.32885256702624,2.32735349229711,2.32652400428033,2.32608427569312,2.32568452243202,2.32514485552953,2.32470512694232,2.32486502824676,2.32498495422509,2.32554460879063,2.32596434971479,2.32679383773157,2.32725355398184,2.3285127767543,2.32962209205386,2.33052153689133,2.33136101873965,2.33252030319684,2.33280013047961,2.33220050058796,2.33215053143032,2.33191067947366,2.33187070414755,2.28986663023739,2.28822764186687,2.28708834507274,2.28667859798011,2.28613893107762,2.28540938137611,2.28508957876723,2.28448994887558,2.2848597206421,2.28457989335933,2.28448994887558,2.28416015243517,2.28369044235338,2.28409019561448,2.28375040534255,2.28381036833171,2.28391030664699,2.28354053488047,2.28310080629326,2.28415015860365,2.28354053488047,2.28399025729921,2.28476977615835,2.28418014009823,2.28334065824992,2.28367045469032,2.28343060273366,2.28381036833171,2.28385034365782,2.28322073227159,2.28426009075045,2.28425009691892,2.28447995504405,2.28471980700071,2.28444997354947,2.28473979466377,2.28493967129432,2.28562924566972
2.21919025367477,2.2197099329142,2.22012967383836,2.22138889661083,2.22172868688276,2.22250820574191,2.22369747169368,2.22436705840603,2.22505663278143,2.22560629351544,2.22673559647805,2.22696545460318,2.2286044429737,2.22854447998453,2.22931400501215,2.22994361639838,2.23038334498559,2.23096298721419,2.23152264177973,2.23123282066543,2.23286181520442,2.23412103797689,2.23640962539669,2.23560012504296,2.23648957604891,2.23650956371196,2.23665947118488,2.23772881115832,2.23845836085983,2.23851832384899,2.23962763914855,2.24057705314366,2.24146650414961,2.24218606001959,2.24300555420485,2.2434952519497,2.24426477697732,2.24494435752119,2.24533411695076,2.24674324719614,2.24804244529472,2.24932165573024,2.24983134113815,2.25120049605742,2.25208994706337,2.25415867018956,2.25509809035315,2.25733670861531,2.26013498144302,2.2627433714717,2.29392412583756,2.31009414524909,2.31023405889047,2.31084368261365,2.30863504584607,2.30859507051996,2.30787551464998,2.30710598962236,2.3059966743228,2.30601666198586,2.30575682236614,2.3060666311435,2.30487736519172,2.30475743921339,2.3053770567681,2.30528711228435,2.3054869889149,2.30673621785584,2.30838520005788,2.30676619935042,2.30910475592786,2.31277249209846,2.30905478677022,2.30698606364403,2.3096644104934,2.3145314064473,2.31040395402644,2.31604047500796,2.31272252294082,2.31399173954482,2.31414164701773,2.31409167786009,2.31316225152803,2.27635497001218,2.27647489599051,2.27496582742986,2.27467600631556,2.27445614202195,2.27438618520126,2.27437619136973,2.2745460865057,2.27495583359833,2.27541554984859,2.27535558685943,2.27579531544664,2.27676471710481,2.27696459373536,2.27695459990383,2.2772344271866,2.27789402006742,2.27806391520339,2.2790133291985,2.28007267534042,2.28064232373749,2.28232128743411,2.28398026346768,2.28540938137611,2.32672388091088,2.33110117911993,2.33121111126673,2.33174078433769,2.33067144436425,2.33141098789728,2.32895250534151,2.32778322705279,2.32792314069418,2.32627415849214,2.32606428803006,2.32545466430688,2.32533473832855,2.32464516395315,2.32418544770289,2.32471512077385,2.32505491104578,2.32543467664383,2.3254246828123,2.32628415232367,2.32732351080253,2.32768328873752,2.32929229561345,2.33010179596718,2.33075139501647,2.33191067947366,2.33208057460963,2.33222048825101,2.33079137034258,2.33148094471798,2.29044627246598,2.28897717923144,2.2878378824373,2.28718828338801,2.28596903594165,2.28600901126776,2.28534941838695,2.2846798316746,2.28492967746279,2.28458988719086,2.28427008458198,2.28409019561448,2.28448994887558,2.28383035599477,2.28376039917407,2.28357051637505,2.28370043618491,2.28365046702727,2.28318075694548,2.28455990569627,2.28370043618491,2.28438001672878,2.28420012776128,2.28374041151102,2.28283097284201,2.28318075694548,2.283550528712,2.28343060273366,2.28323072610311,2.28397026963615,2.28414016477212,2.28411018327754,2.28397026963615,2.28415015860365,2.28431005990809,2.28442998588642,2.28453991803322,2.28504960344112,2.2851495417564
2.21882048190825,2.21910030919102,2.22037951962655,2.22083923587681,2.22192856351331,2.22250820574191,2.22280802068773,2.22430709541686,2.22479679316171,2.22557631202086,2.22626588639626,2.22656570134208,2.22769500430469,2.22837458484856,2.22902418389785,2.22979370892547,2.23024343134421,2.23121283300238,2.23224219764971,2.23256200025859,2.2334714389276,2.23354139574829,2.23362134640051,2.23622973642919,2.23618976110308,2.23717915042431,2.23711918743514,2.23734904556027,2.23781875564207,2.23922788588745,2.23977754662146,2.24249586879695,2.24096681257324,2.24219605385112,2.24300555420485,2.2436051840965,2.24382504839011,2.24494435752119,2.245603950402,2.2464734137449,2.24757273521293,2.24830228491444,2.24986132263273,2.25052091551354,2.25225984219933,2.25349907730875,2.25557779426647,2.25778643103405,2.26090450647064,2.26331301986877,2.30978433647173,2.31058384299393,2.30956447217813,2.30962443516729,2.30786552081845,2.30781555166081,2.3057768100292,2.30735583541055,2.30736582924207,2.30544701358879,2.30515719247449,2.30510722331685,2.3049073466863,2.30495731584394,2.30504726032769,2.30506724799074,2.30552696424101,2.30605663731197,2.30699605747555,2.30759568736721,2.30826527407955,2.31054386766782,2.30721592176916,2.31289241807679,2.31300235022359,2.31134337419003,2.31583060454588,2.30994423777617,2.30804540978594,2.30889488546578,2.30903479910717,2.31085367644518,2.31298236256054,2.27779408175214,2.27582529694122,2.27463603098945,2.27462603715792,2.27442616052737,2.2742562653914,2.27422628389682,2.27469599397861,2.27468600014709,2.27565540180525,2.27550549433234,2.275745346289,2.27656484047426,2.27647489599051,2.27689463691467,2.27805392137186,2.27767415577381,2.27773411876298,2.27961295909015,2.28034250879166,2.28085219419956,2.28274102835827,2.2847497884953,2.3270236958567,2.33005182680954,2.32973202420066,2.33019174045093,2.33110117911993,2.33075139501647,2.33077138267952,2.32958211672775,2.3276033380853,2.32708365884587,2.32599433120937,2.32519482468717,2.32463517012163,2.32458520096399,2.32397557724081,2.32363578696887,2.32383566359942,2.32392560808317,2.3244452873226,2.32512486786647,2.32597434354631,2.326404078302,2.32815299881931,2.32937224626567,2.32983196251594,2.33076138884799,2.33090130248938,2.33121111126673,2.33123109892979,2.33115114827757,2.33046157390217,2.28905712988366,2.2885274568127,2.28776792561661,2.28649870901261,2.28677853629538,2.28531943689237,2.28528945539778,2.28453991803322,2.28472980083224,2.28430006607656,2.28373041767949,2.28409019561448,2.28358051020658,2.2834805718913,2.28320074460853,2.28360049786963,2.28354053488047,2.28363047936422,2.28300086797798,2.2834805718913,2.28325071376617,2.2830808186302,2.28373041767949,2.28299087414645,2.28367045469032,2.28262110237994,2.28339062740756,2.28288094199965,2.28342060890214,2.28432005373961,2.28317076311395,2.28341061507061,2.2833706397445,2.28405022028837,2.28340062123908,2.28443997971794,2.28463985634849,2.28464985018002,2.28545935053375
2.21889043872895,2.2197099329142,2.22049944560488,2.22045947027877,2.22174867454582,2.22260814405718,2.22310783563356,2.22362751487299,2.22494670063462,2.22537643539031,2.22615595424945,2.2273352263697,2.22729525104359,2.22846452933231,2.22950388781117,2.22948390014812,2.23037335115407,2.23136274047529,2.23175249990486,2.23245206811179,2.23316163015024,2.23406107498772,2.2354702052331,2.23579000784198,2.23609981661933,2.23656952670113,2.23662948969029,2.2370692182775,2.23825848422928,2.23945774401258,2.24001739857812,2.24127662135059,2.2412066645299,2.24203615254668,2.24288562822652,2.24346527045512,2.24412486333593,2.24511425265716,2.24543405526604,2.24671326570156,2.24775262418042,2.24861209369179,2.24991129179037,2.25136039736186,2.2525396694821,2.25423862084178,2.25600752902215,2.25789636318085,2.26009500611691,2.30384800054439,2.31058384299393,2.30957446600965,2.30905478677022,2.30979433030326,2.308974836118,2.30798544679678,2.30764565652484,2.30455756258284,2.30631647693168,2.30495731584394,2.30483738986561,2.30486737136019,2.30453757491978,2.30575682236614,2.30547699508337,2.30524713695824,2.30546700125184,2.30622653244794,2.30681616850806,2.30811536660664,2.30883492247662,2.30674621168737,2.31266255995166,2.31247267715263,2.31267255378319,2.31389180122954,2.31393177655565,2.31355201095761,2.30865503350912,2.31300235022359,2.31067378747768,2.3097743426402,2.31241271416347,2.27666477878953,2.27612511188705,2.27513572256582,2.27470598781014,2.27431622838057,2.27450611117959,2.27453609267417,2.27475595696778,2.27477594463083,2.27582529694122,2.27605515506636,2.27616508721316,2.27620506253927,2.27638495150676,2.27724442101813,2.2775242483009,2.277924001562,2.27868353275809,2.28004269384584,2.28033251496013,2.2813019166183,2.28287094816812,2.28558927034361,2.32733350463406,2.32977199952677,2.32979198718983,2.33044158623911,2.33045158007064,2.32996188232579,2.32947218458094,2.328582733575,2.32668390558477,2.32590438672562,2.32660395493255,2.32534473216008,2.32436533667038,2.32392560808317,2.32365577463193,2.32368575612651,2.32439531816497,2.32384565743095,2.32425540452358,2.32503492338273,2.32547465196994,2.32624417699756,2.32761333191683,2.32899248066762,2.32987193784205,2.33051154305981,2.33099124697313,2.330401610913,2.33089130865785,2.33161086452783,2.33139100023423,2.28993658705808,2.28949685847087,2.28829759868757,2.28650870284414,2.28510956643029,2.2857691593111,2.28473979466377,2.2846798316746,2.28473979466377,2.28423010925587,2.28398026346768,2.28427008458198,2.28426009075045,2.28438001672878,2.28365046702727,2.28399025729921,2.28341061507061,2.28385034365782,2.28305083713562,2.2833706397445,2.28338063357603,2.28344059656519,2.28288094199965,2.28309081246173,2.28264109004299,2.28299087414645,2.28343060273366,2.28341061507061,2.28331067675533,2.283190750777,2.28334065824992,2.28431005990809,2.28353054104894,2.28399025729921,2.2836604608588,2.28479975765294,2.28454991186475,2.28482973914752,2.28487970830516
2.21956002544129,2.22053942093099,2.22034953813196,2.22156878557832,2.22213843397539,2.22265811321482,2.22371745935674,2.22497668212921,2.2247568178356,2.22582615780904,2.22658568900514,2.2262458987332,2.22734522020123,2.22836459101703,2.22906415922396,2.23010351770282,2.23041332648018,2.2311128946871,2.2316925369157,2.23293177202511,2.23578001401045,2.23419099479758,2.23430092694438,2.23524034710797,2.23591992765184,2.23612979811392,2.23680937865779,2.23727908873958,2.23854830534358,2.23932782420272,2.24021727520867,2.24079691743727,2.24215607852501,2.24203615254668,2.24288562822652,2.24326539382457,2.24381505455858,2.24516422181479,2.24583380852714,2.2473828524139,2.24793251314792,2.24925169890955,2.25019111907314,2.25141036651949,2.25258963863974,2.25406872570581,2.25605749817979,2.25710685049018,2.26038482723121,2.26426243386388,2.30566687788239,2.30839519388941,2.30867502117218,2.30855509519385,2.30861505818301,2.30860506435149,2.30799544062831,2.30651635356223,2.30549698274643,2.30486737136019,2.30521715546366,2.30414781549021,2.30455756258284,2.30387798203897,2.30503726649616,2.30524713695824,2.30553695807254,2.30655632888834,2.30735583541055,2.30833523090024,2.30895484845495,2.31088365793976,2.31169315829349,2.31201296090237,2.312422707995,2.31329217133789,2.31313227003345,2.31398174571329,2.31452141261578,2.31194300408168,2.3137318999251,2.31090364560281,2.27894337237781,2.27642492683287,2.27531561153332,2.27480592612542,2.27447612968501,2.27461604332639,2.27429624071751,2.27436619753821,2.27483590762,2.27509574723971,2.27524565471263,2.2753455930279,2.27629500702302,2.27636496384371,2.27663479729495,2.27713448887133,2.27747427914326,2.27813387202408,2.2786135759374,2.27929315648127,2.28032252112861,2.2817016698794,2.28376039917407,2.28553930118597,2.32712363417198,2.3296021043908,2.33002184531496,2.33023171577704,2.33259026001753,2.32980198102135,2.33028168493467,2.32812301732473,2.32614423868228,2.32605429419853,2.32525478767633,2.32488501590981,2.32421542919747,2.32283628044667,2.32315608305555,2.32315608305555,2.32326601520236,2.32363578696887,2.32413547854525,2.32439531816497,2.32541468898077,2.32614423868228,2.32769328256905,2.32912240047748,2.32954214140164,2.32983196251594,2.33061148137508,2.33076138884799,2.33037162941842,2.33043159240759,2.33016175895634,2.33025170344009,2.2892170311881,2.28769796879592,2.28595904211013,2.28622887556137,2.28508957876723,2.28501962194654,2.28492967746279,2.28438001672878,2.28402023879379,2.28403023262532,2.2845698995278,2.28392030047851,2.28386033748935,2.2837703930056,2.28386033748935,2.28362048553269,2.283550528712,2.28290092966271,2.28321073844006,2.28344059656519,2.28338063357603,2.28281098517896,2.2828609543366,2.28322073227159,2.28311080012478,2.2828609543366,2.283550528712,2.28341061507061,2.28373041767949,2.28398026346768,2.28351055338589,2.28354053488047,2.2841701462667,2.28479975765294,2.28437002289725,2.28455990569627,2.28488970213668,2.28542936903917
2.21945009329449,2.21976989590337,2.21983985272406,2.22082924204529,2.22278803302468,2.22439703990061,2.22341764441091,2.22402726813409,2.22459691653116,2.22592609612432,2.22625589256473,2.22719531272831,2.22805478223968,2.22910413455007,2.2291141283816,2.23040333264865,2.23038334498559,2.23110290085557,2.23192239504083,2.23274188922609,2.23294176585664,2.23426095161827,2.23437088376507,2.23494053216214,2.2354702052331,2.23647958221738,2.23783874330512,2.23717915042431,2.23849833618594,2.23998741708354,2.23994744175743,2.24034719501853,2.24126662751906,2.2418262820846,2.24247588113389,2.2433853198029,2.24453461042856,2.24505428966799,2.24639346309268,2.24720296344641,2.24752276605529,2.2482523157568,2.25026107589383,2.25128044670964,2.25261962013432,2.25425860850484,2.25641727611478,2.2587858141868,2.260854537313,2.304617525572,2.30683615617111,2.30694608831792,2.30807539128053,2.30853510753079,2.30878495331898,2.30731586008444,2.30621653861641,2.30593671133364,2.30515719247449,2.30460753174048,2.30482739603408,2.304617525572,2.30438766744687,2.30467748856117,2.304617525572,2.30560691489323,2.30652634739376,2.30583677301836,2.30719593410611,2.30820531109038,2.30913473742244,2.31029402187964,2.31169315829349,2.31188304109251,2.31244269565805,2.31332215283247,2.31349204796844,2.31403171487093,2.31530093147492,2.31370191843052,2.31438149897439,2.31286243658221,2.2780339337088,2.27650487748509,2.27497582126138,2.27555546348998,2.27413633941307,2.27466601248403,2.27445614202195,2.27421629006529,2.27489587060916,2.27471598164167,2.27442616052737,2.27579531544664,2.27589525376192,2.2768346739255,2.27665478495801,2.2773043840073,2.27772412493145,2.27775410642603,2.27815385968713,2.27913325517683,2.28023257664486,2.28192153417301,2.2841701462667,2.28689846227371,2.32981197485288,2.33045158007064,2.3297819933583,2.32987193784205,2.32977199952677,2.32927230795039,2.3282929124607,2.32758335042224,2.32673387474241,2.32527477533939,2.32535472599161,2.32406552172456,2.32298618791959,2.32329599669694,2.32264639764765,2.3232460275393,2.32455521946941,2.32345589800138,2.32359581164276,2.32474510226843,2.3254246828123,2.32623418316603,2.32792314069418,2.3285127767543,2.32915238197206,2.3298919255051,2.33062147520661,2.33055151838592,2.33126108042437,2.32926231411887,2.32958211672775,2.28956681529156,2.2881277035516,2.28792782692105,2.28595904211013,2.28633880770817,2.28510956643029,2.28511956026182,2.28492967746279,2.28434004140267,2.28472980083224,2.2841701462667,2.28440999822336,2.28398026346768,2.28358051020658,2.283550528712,2.28360049786963,2.28352054721741,2.28293091115729,2.28384034982629,2.28325071376617,2.28295089882034,2.28280099134743,2.28367045469032,2.28346058422825,2.28354053488047,2.28302085564104,2.28323072610311,2.28342060890214,2.28309081246173,2.28343060273366,2.28277100985285,2.2843500352342,2.28400025113073,2.2839502819731,2.28378038683713,2.28426009075045,2.28443997971794,2.28458988719086,2.28492967746279
2.21958001310435,2.21927020432699,2.220179642996,2.22066934074084,2.22190857585026,2.22327773076953,2.22241826125816,2.22461690419422,2.22481678082477,2.22559629968391,2.22646576302681,2.22739518935887,2.22877433810966,2.2286044429737,2.22946391248506,2.22989364724075,2.23040333264865,2.23296175351969,2.23143269729598,2.23311166099261,2.23315163631872,2.23389117985175,2.23422097629216,2.23492054449909,2.23582998316809,2.23612979811392,2.23677939716321,2.23807859526178,2.23868821898496,2.23981752194757,2.23962763914855,2.24043713950228,2.24110672621462,2.24223602917723,2.24295558504721,2.24398494969455,2.24543405526604,2.24558396273895,2.2460736604838,2.24709303129961,2.24802245763167,2.24883195798539,2.25031104505147,2.25119050222589,2.25327921301514,2.25474830624968,2.2563872946202,2.25891573399666,2.26132424739479,2.30369809307147,2.30647637823612,2.30699605747555,2.30771561334554,2.30814534810122,2.31012412674367,2.30728587858985,2.305886742176,2.30717594644305,2.30535706910504,2.30435768595229,2.3042877291316,2.30466749472964,2.30427773530007,2.30476743304492,2.30429772296312,2.30483738986561,2.30528711228435,2.30560691489323,2.30654633505682,2.30782554549234,2.30917471274855,2.30946453386285,2.31129340503239,2.31227280052208,2.31262258462555,2.31316225152803,2.31316225152803,2.31339210965317,2.31388180739802,2.31393177655565,2.31484121522466,2.31611043182865,2.27707452588216,2.27639494533829,2.27548550666929,2.27571536479442,2.27404639492932,2.27397643810863,2.27415632707613,2.27478593846236,2.27478593846236,2.27499580892444,2.27481591995694,2.27473596930472,2.27529562387026,2.27591524142497,2.27635497001218,2.27705453821911,2.2772344271866,2.27765416811076,2.27811388436103,2.27960296525863,2.28156175623802,2.28194152183606,2.28368044852185,2.3305814998805,2.33113116061451,2.32968205504302,2.32984195634746,2.32939223392873,2.32940222776025,2.33002184531496,2.32826293096612,2.32704368351976,2.32636410297589,2.32506490487731,2.32419544153441,2.32424541069205,2.32389562658859,2.32272634829987,2.32252647166932,2.32246650868015,2.3226663853107,2.32361579930582,2.32377570061026,2.32485503441523,2.3258244360734,2.32630413998672,2.32775324555821,2.32805306050404,2.32863270273263,2.32980198102135,2.33050154922828,2.33080136417411,2.33011178979871,2.32997187615732,2.32876262254249,2.28851746298117,2.28795780841563,2.28731820319787,2.28601900509929,2.28535941221848,2.28521949857709,2.28461986868544,2.28477976998988,2.28446996121253,2.28439001056031,2.28453991803322,2.28387033132088,2.28380037450018,2.28391030664699,2.28324071993464,2.28350055955436,2.28331067675533,2.28302085564104,2.28318075694548,2.28309081246173,2.28290092966271,2.28272104069521,2.28264109004299,2.28313078778784,2.28198149716217,2.28264109004299,2.28306083096715,2.28283097284201,2.28365046702727,2.2836604608588,2.28335065208144,2.28306083096715,2.28440999822336,2.28423010925587,2.28798778991021,2.28472980083224,2.2845698995278,2.28471980700071,2.28579914080569
2.21927020432699,2.21963997609351,2.22001974169156,2.22067933457237,2.22248821807885,2.22244824275274,2.2230878479705,2.22357754571535,2.22489673147699,2.22579617631446,2.22673559647805,2.22623590490167,2.22713534973915,2.22854447998453,2.22916409753924,2.22959383229492,2.23000357938755,2.23103294403488,2.23135274664376,2.23214225933444,2.23352140808523,2.23367131555815,2.23355138957982,2.23435089610202,2.23583997699962,2.23618976110308,2.23648957604891,2.23799864460956,2.23851832384899,2.23969759596924,2.23974756512688,2.24045712716533,2.24075694211116,2.2422959921664,2.24328538148762,2.24342529512901,2.24434472762954,2.24536409844534,2.24645342608184,2.24668328420698,2.24889192097456,2.24971141515982,2.25016113757855,2.25165021847615,2.25226983603086,2.2547882815758,2.25675706638672,2.25973522818192,2.26386268060278,2.30620654478488,2.30621653861641,2.30611660030113,2.30869500883523,2.30925466340077,2.30741579839971,2.308065397449,2.30585676068142,2.30677619318195,2.30455756258284,2.3042177723109,2.30417779698479,2.30390796353355,2.30391795736508,2.30436767978382,2.30442764277298,2.3045075934252,2.30504726032769,2.30541703209421,2.30590672983906,2.30816533576427,2.30847514454163,2.30971437965104,2.3112234482117,2.31206293006001,2.31223282519597,2.31376188141968,2.31332215283247,2.31365194927288,2.31428156065912,2.31439149280592,2.31560074642075,2.31696990134002,2.27813387202408,2.27611511805552,2.27515571022888,2.27535558685943,2.27569537713137,2.27408637025543,2.27411635175002,2.27415632707613,2.27408637025543,2.27480592612542,2.27503578425055,2.2758153031097,2.27742430998563,2.2758153031097,2.2764349206644,2.27729439017577,2.27725441484966,2.27721443952355,2.27875348957879,2.27956298993251,2.28099210784095,2.28213140463509,2.28398026346768,2.33173079050616,2.3312710742559,2.33057150604897,2.33015176512482,2.32970204270608,2.32878261020555,2.32836286928139,2.32808304199862,2.32572449775813,2.32579445457882,2.32472511460537,2.32346589183291,2.32331598435999,2.32235657653335,2.32248649634321,2.32238655802793,2.32408550938761,2.32258643465848,2.32246650868015,2.32399556490386,2.32452523797482,2.32505491104578,2.3262241893345,2.32707366501434,2.3278931591996,2.32901246833068,2.32955213523317,2.32987193784205,2.32965207354844,2.32959211055928,2.32852277058583,2.32992190699968,2.28869735194867,2.28760802431217,2.2874381291762,2.28693843759982,2.28537939988153,2.28547933819681,2.2845698995278,2.28472980083224,2.28430006607656,2.28455990569627,2.28490968979974,2.28460987485391,2.28381036833171,2.28347057805977,2.28340062123908,2.28343060273366,2.28312079395631,2.28285096050507,2.28270105303216,2.28267107153757,2.28249118257008,2.28254115172772,2.28301086180951,2.28275102218979,2.28274102835827,2.2828609543366,2.28226132444494,2.28285096050507,2.28375040534255,2.28275102218979,2.28288094199965,2.28292091732576,2.28358051020658,2.28362048553269,2.28414016477212,2.28376039917407,2.28447995504405,2.28465984401155,2.28694843143135
2.21900037087575,2.21924022283241,2.22006971084919,2.22077927288765,2.22171869305123,2.22253818723649,2.22307785413898,2.22396730514493,2.22489673147699,2.22539642305336,2.22608599742876,2.22661567049972,2.22701542376082,2.22768501047316,2.2289342394141,2.22955385696881,2.22997359789297,2.23053325245851,2.23143269729598,2.23198235803,2.23297174735122,2.23322159313941,2.23538026074935,2.2356500942006,2.23504047047742,2.23738902088638,2.23674941566862,2.23768883583221,2.23867822515343,2.23968760213771,2.24003738624118,2.24029722586089,2.24061702846977,2.24231597982945,2.24311548635165,2.24445465977634,2.24449463510245,2.24690314850058,2.24655336439712,2.24707304363655,2.24812239594694,2.24948155703468,2.2507607674702,2.25193004575892,2.25315928703681,2.25488821989107,2.2573666901099,2.25888575250208,2.26146416103618,2.30350821027245,2.3055969210617,2.30625651394252,2.30722591560069,2.30633646459474,2.30768563185095,2.30720592793763,2.30674621168737,2.3049073466863,2.304617525572,2.30391795736508,2.30400790184883,2.30371808073453,2.30416780315327,2.30373806839758,2.30422776614243,2.30451758725673,2.30486737136019,2.30582677918683,2.30623652627946,2.30765565035637,2.30869500883523,2.30939457704216,2.31149328166294,2.3120229547339,2.31269254144624,2.31377187525121,2.31556077109464,2.3137318999251,2.31518100549659,2.31685996919322,2.31618038864934,2.3142016100069,2.27638495150676,2.27776410025756,2.27589525376192,2.27495583359833,2.27391647511947,2.27457606800028,2.27452609884265,2.27413633941307,2.27435620370668,2.27461604332639,2.27471598164167,2.2751257287343,2.27633498234913,2.27628501319149,2.27627501935996,2.27703455055605,2.27645490832746,2.27808390286644,2.27852363145365,2.28038248411777,2.281371873439,2.28198149716217,2.28375040534255,2.3329800194471,2.33135102490812,2.33019174045093,2.33010179596718,2.33012178363023,2.32873264104791,2.32763331957988,2.32713362800351,2.32635410914436,2.32534473216008,2.32379568827331,2.32333597202305,2.32330599052847,2.32248649634321,2.32239655185946,2.3216470144949,2.3228462742782,2.32217668756586,2.3225564531639,2.32270636063681,2.32365577463193,2.32459519479552,2.32604430036701,2.32732351080253,2.32763331957988,2.32876262254249,2.32950216607553,2.32953214757011,2.32986194401052,2.33044158623911,2.3285127767543,2.32963208588539,2.28839753700284,2.28720827105107,2.28593905444707,2.28622887556137,2.28552930735444,2.28438001672878,2.28460987485391,2.28449994270711,2.28384034982629,2.28448994887558,2.28440999822336,2.2839502819731,2.28413017094059,2.28371043001644,2.28328069526075,2.283190750777,2.28318075694548,2.28312079395631,2.28299087414645,2.28364047319574,2.28230129977106,2.28330068292381,2.28266107770605,2.28270105303216,2.28287094816812,2.28307082479867,2.28278100368438,2.28283097284201,2.28379038066866,2.28281098517896,2.28365046702727,2.28329068909228,2.28357051637505,2.28371043001644,2.28470981316919,2.28497964662043,2.28494966512585,2.2858391161318,2.2852594739032
2.21924022283241,2.2199997540285,2.22018963682752,2.22077927288765,2.22133892745319,2.22258815639413,2.22320777394883,2.22416718177548,2.22480678699324,2.22525650941198,2.2258461454721,2.22680555329874,2.22692547927707,2.22776496112538,2.23006354237671,2.2299136349038,2.23004355471366,2.23064318460531,2.23200234569305,2.2332915499601,2.23386119835717,2.23313164865566,2.2354702052331,2.23516039645575,2.23649956988044,2.23716915659278,2.2377587926529,2.23791869395734,2.23896804626773,2.23965762064313,2.23978754045299,2.24085688042643,2.2418962389053,2.24235595515556,2.24332535681373,2.24417483249357,2.24522418480396,2.24645342608184,2.24641345075573,2.2471629881203,2.24837224173513,2.24991129179037,2.25086070578548,2.25196002725351,2.25370894777082,2.25596755369604,2.2572967332892,2.2594753885622,2.26267341465101,2.30352819793551,2.30520716163213,2.30642640907849,2.30724590326374,2.30767563801943,2.3073758230736,2.30738581690513,2.30582677918683,2.30544701358879,2.3045775502459,2.30379803138675,2.30345824111481,2.30396792652272,2.30355817943009,2.30444763043604,2.30432770445771,2.30466749472964,2.30449759959368,2.30554695190406,2.305886742176,2.3073758230736,2.30866502734065,2.30956447217813,2.31055386149935,2.31196299174473,2.31321222068567,2.31379186291427,2.31430154832217,2.31371191226205,2.31542085745325,2.31632030229073,2.31611043182865,2.31642024060601,2.27716447036591,2.27544553134318,2.27463603098945,2.27409636408696,2.27361666017364,2.2738565121303,2.27406638259238,2.27409636408696,2.27464602482098,2.27466601248403,2.27484590145153,2.27469599397861,2.27517569789193,2.27631499468607,2.27593522908803,2.27665478495801,2.27794398922506,2.27732437167035,2.27889340322017,2.28013263832958,2.28220136145578,2.28278100368438,2.28529944922931,2.32865269039569,2.3278232023789,2.3289824868361,2.32939223392873,2.32932227710803,2.32897249300457,2.32813301115626,2.32764331341141,2.32509488637189,2.32460518862704,2.3238256697679,2.32329599669694,2.32241653952252,2.32225663821808,2.32251647783779,2.32148711319046,2.32253646550085,2.32210673074516,2.3223365888703,2.32256644699543,2.32361579930582,2.32452523797482,2.32578446074729,2.32653399811185,2.32777323322127,2.3285127767543,2.33014177129329,2.33044158623911,2.32882258553166,2.32799309751487,2.32927230795039,2.28948686463934,2.28831758635062,2.2872582402087,2.28696841909441,2.28630882621359,2.28553930118597,2.28477976998988,2.28437002289725,2.28490968979974,2.28426009075045,2.28416015243517,2.28359050403811,2.28409019561448,2.28364047319574,2.28386033748935,2.28369044235338,2.28329068909228,2.28314078161937,2.28250117640161,2.2833706397445,2.28292091732576,2.28359050403811,2.28322073227159,2.28289093583118,2.28244121341244,2.283190750777,2.28259112088535,2.28266107770605,2.28261110854841,2.28237125659175,2.28328069526075,2.28383035599477,2.2836604608588,2.2837703930056,2.28426009075045,2.28327070142922,2.28454991186475,2.28538939371306,2.28536940605,2.28522949240862
2.21956002544129,2.21980987122948,2.22048945177335,2.22145885343152,2.22178864987193,2.2231578047912,2.22463689185727,2.22437705223755,2.22647575685833,2.22571622566224,2.22609599126029,2.22859444914217,2.22848451699536,2.22970376444172,2.22931400501215,2.230713141426,2.23068315993142,2.23161258626348,2.23193238887236,2.2330716856665,2.23365132789509,2.23429093311285,2.23522035944491,2.2356500942006,2.23648957604891,2.23743899004402,2.23748895920166,2.23789870629429,2.23836841637608,2.2397175836323,2.24001739857812,2.2408069112688,2.24154645480183,2.24324540616151,2.24303553569943,2.24364515942261,2.24484441920591,2.2457838393695,2.24637347542962,2.24726292643557,2.24833226640902,2.24925169890955,2.25008118692633,2.25178013828601,2.25354904646638,2.25640728228325,2.25710685049018,2.25974522201345,2.26306317408058,2.3030185125276,2.3045775502459,2.30665626720362,2.30684615000264,2.30720592793763,2.30802542212289,2.30666626103515,2.30493732818089,2.30456755641437,2.30419778464785,2.30379803138675,2.30314843233746,2.30355817943009,2.30333831513648,2.30358816092467,2.30386798820744,2.30444763043604,2.3057068532085,2.30600666815433,2.30701604513861,2.30712597728541,2.30842517538399,2.30899482378106,2.31052388000477,2.31188304109251,2.31270253527777,2.31392178272413,2.31498112886604,2.31572067239908,2.31577064155672,2.31642024060601,2.31714979030751,2.31911857511844,2.27815385968713,2.27582529694122,2.27487588294611,2.27397643810863,2.27349673419531,2.27380654297266,2.27432622221209,2.27428624688598,2.27429624071751,2.2752356608811,2.27479593229389,2.27532560536485,2.27583529077275,2.27602517357177,2.27686465542008,2.27818384118172,2.27834374248616,2.27854361911671,2.27965293441626,2.27973288506848,2.28207144164592,2.28302085564104,2.28471980700071,2.32762332574835,2.3268038315631,2.32881259170013,2.32929229561345,2.32917236963512,2.32884257319471,2.32820296797695,2.32685380072073,2.32682381922615,2.32420543536594,2.32350586715902,2.32285626810973,2.3234259165068,2.32236657036488,2.32107736609783,2.3215370823481,2.32165700832643,2.32128723655991,2.32259642849001,2.32310611389792,2.32330599052847,2.32432536134427,2.3255346149591,2.32654399194338,2.32770327640057,2.32886256085777,2.32937224626567,2.32976200569524,2.33080136417411,2.33036163558689,2.32979198718983,2.29015645135169,2.28911709287282,2.28662862882247,2.2867485548008,2.28549932585986,2.2851495417564,2.28482973914752,2.28475978232682,2.28468982550613,2.2842800784135,2.2842800784135,2.2842800784135,2.28426009075045,2.28361049170116,2.28335065208144,2.28284096667354,2.28330068292381,2.28262110237994,2.28265108387452,2.28331067675533,2.28302085564104,2.28303084947256,2.28251117023313,2.28270105303216,2.28281098517896,2.2830808186302,2.28294090498882,2.28258112705383,2.28289093583118,2.28276101602132,2.28340062123908,2.28307082479867,2.2836604608588,2.28364047319574,2.28437002289725,2.28407020795143,2.2843500352342,2.28490968979974,2.2846798316746,2.28562924566972
2.21899037704422,2.21975990207184,2.2206893284039,2.22101912484431,2.22099913718125,2.22301789114981,2.22356755188383,2.22426712009075,2.22512658960212,2.22569623799919,2.22794485009288,2.2277349796308,2.22884429493036,2.2287143751205,2.22956385080034,2.23001357321908,2.23030339433337,2.23155262327431,2.23222220998666,2.23204232101916,2.23315163631872,2.23373127854731,2.2369592861307,2.23574003868434,2.23621974259766,2.23731906406569,2.23736903322333,2.23893806477315,2.23968760213771,2.23893806477315,2.23958766382244,2.24072696061658,2.24157643629642,2.24314546784624,2.24359519026497,2.24353522727581,2.24434472762954,2.24556397507589,2.24631351244046,2.24764269203362,2.24834226024055,2.24981135347509,2.25118050839436,2.2525396694821,2.25411869486345,2.25547785595119,2.25743664693059,2.25959531454053,2.30252881478275,2.30245885796206,2.30538705059962,2.30672622402431,2.30776558250317,2.30682616233959,2.30665626720362,2.30680617467653,2.30573683470309,2.30447761193062,2.30328834597885,2.3033083336419,2.30303850019066,2.302798648234,2.30273868524483,2.30393794502813,2.30387798203897,2.30451758725673,2.30504726032769,2.30578680386072,2.30594670516517,2.30746576755735,2.30839519388941,2.30936459554758,2.31107354073878,2.31188304109251,2.31252264631027,2.3135120356315,2.31440148663745,2.31395176421871,2.31421160383842,2.31465133242563,2.31491117204535,2.27746428531174,2.27724442101813,2.27593522908803,2.2753455930279,2.27428624688598,2.27388649362488,2.27388649362488,2.27409636408696,2.27406638259238,2.27411635175002,2.27481591995694,2.27460604949487,2.27495583359833,2.27587526609886,2.27585527843581,2.27688464308314,2.27705453821911,2.27819383501324,2.27841369930685,2.27857360061129,2.28036249645472,2.28153177474344,2.28291092349423,2.28534941838695,2.32634411531283,2.32762332574835,2.32812301732473,2.32916237580359,2.32867267805874,2.32820296797695,2.32786317770501,2.32658396726949,2.3249149974044,2.32415546620831,2.32316607688708,2.32174695281017,2.32155707001115,2.32167699598948,2.32123726740227,2.32113732908699,2.32130722422296,2.32210673074516,2.32278631128903,2.32269636680529,2.32296620025653,2.3246251762901,2.32557459028521,2.32740346145475,2.32715361566656,2.32799309751487,2.32902246216221,2.32985195017899,2.32991191316816,2.32850278292278,2.32638409063894,2.2894368954817,2.28758803664911,2.28712832039885,2.28671857330622,2.28631882004512,2.28510956643029,2.28473979466377,2.28490968979974,2.28492967746279,2.28376039917407,2.28497964662043,2.28398026346768,2.2839502819731,2.28389031898393,2.28412017710906,2.28375040534255,2.28322073227159,2.28305083713562,2.28302085564104,2.28281098517896,2.28252116406466,2.28258112705383,2.28291092349423,2.28273103452674,2.28341061507061,2.28243121958091,2.28276101602132,2.28212141080356,2.28236126276022,2.28283097284201,2.28267107153757,2.28320074460853,2.28275102218979,2.2833706397445,2.2838803251524,2.28373041767949,2.28383035599477,2.28460987485391,2.28468982550613,2.28500962811501
2.21928019815852,2.21960999459893,2.22024959981669,2.22231832294289,2.22186860052415,2.22353757038924,2.22376742851438,2.2242471324277,2.22466687335185,2.22562628117849,2.22670561498347,2.22750512150567,2.2274451585165,2.22966378911561,2.2295138816427,2.23052325862698,2.23024343134421,2.23143269729598,2.23211227783985,2.23216224699749,2.23309167332955,2.2342709454498,2.23714916892972,2.23563010653754,2.23624972409225,2.23681937248932,2.23760888517999,2.2378287494736,2.23891807711009,2.23969759596924,2.24032720735548,2.24070697295352,2.24110672621462,2.2429855665418,2.24328538148762,2.24414485099899,2.24405490651524,2.24543405526604,2.24571388254881,2.24730290176168,2.24851215537651,2.24971141515982,2.2503610142091,2.25232979902003,2.2540287503797,2.25544787445661,2.25780641869711,2.26053473470412,2.30441764894145,2.30422776614243,2.30539704443115,2.30796545913372,2.30825528024802,2.30779556399776,2.3060666311435,2.30595669899669,2.30473745155034,2.30513720481144,2.30398791418577,2.30317841383204,2.30300851869607,2.30298853103302,2.30263874692956,2.30347822877787,2.30402788951188,2.3047974145395,2.3051971678006,2.30536706293657,2.30601666198586,2.30716595261152,2.30832523706871,2.308974836118,2.31036397870033,2.31140333717919,2.313332146664,2.3138018567458,2.31418162234384,2.31437150514286,2.31338211582164,2.31516101783354,2.3172897039489,2.27665478495801,2.27517569789193,2.27495583359833,2.2739664442771,2.27405638876085,2.27395645044558,2.27346675270073,2.2737465799835,2.27424627155987,2.27508575340819,2.27459605566334,2.27489587060916,2.27510574107124,2.27540555601707,2.27547551283776,2.27616508721316,2.27681468626245,2.27748427297479,2.27804392754033,2.27933313180738,2.28082221270498,2.28205145398287,2.28287094816812,2.32467514544774,2.32510488020342,2.32625417082908,2.32728353547642,2.32766330107446,2.32726354781336,2.3270936526774,2.32730352313947,2.32736348612864,2.32588439906257,2.32311610772944,2.32303615707722,2.32197681093531,2.32147711935893,2.32133720571754,2.32087748946728,2.32087748946728,2.32098742161408,2.32114732291852,2.32184689112545,2.32235657653335,2.3230261632457,2.32378569444179,2.32507489870884,2.32648402895422,2.32685380072073,2.32797310985182,2.32812301732473,2.32933227093956,2.32997187615732,2.32951215990706,2.32939223392873,2.28949685847087,2.28778791327966,2.2871483080619,2.28624886322442,2.28622887556137,2.2846798316746,2.28463985634849,2.28493967129432,2.28415015860365,2.28399025729921,2.2840602141199,2.2852594739032,2.2837703930056,2.28328069526075,2.2830808186302,2.28357051637505,2.28296089265187,2.28278100368438,2.28225133061342,2.28272104069521,2.28419013392976,2.28192153417301,2.28269105920063,2.28247119490702,2.28245120724397,2.2826810653691,2.28226132444494,2.2826810653691,2.28365046702727,2.28299087414645,2.28277100985285,2.28333066441839,2.28349056572283,2.28240123808633,2.28363047936422,2.28405022028837,2.2842800784135,2.28450993653864,2.28400025113073,2.28479975765294
2.21877051275062,2.21980987122948,2.21994978487086,2.22101912484431,2.22224836612219,2.22327773076953,2.2234476259055,2.22410721878631,2.2247568178356,2.22612597275487,2.22686551628791,2.22774497346233,2.22828464036481,2.22926403585451,2.22936397416979,2.23039333881712,2.23117285767627,2.23093300571961,2.23263195707929,2.23254201259554,2.23317162398177,2.23425095778674,2.2357600263474,2.23611980428239,2.23610981045086,2.2376488605061,2.23810857675637,2.23795866928345,2.23872819431107,2.23930783653967,2.24016730605103,2.24117668303531,2.24221604151418,2.24302554186791,2.24409488184135,2.24437470912412,2.24494435752119,2.24569389488575,2.24646341991337,2.24715299428877,2.24811240211541,2.24942159404552,2.25102060708992,2.25298939190084,2.25457841111372,2.25655718975617,2.2575865544035,2.26095447562827,2.30103973388515,2.30342825962023,2.3051971678006,2.30899482378106,2.30798544679678,2.30836521239482,2.30694608831792,2.3053770567681,2.30547699508337,2.30481740220256,2.30374806222911,2.30256879010886,2.30230895048915,2.30275867290789,2.30280864206552,2.30352819793551,2.30368809923995,2.30423775997396,2.30492733434936,2.30538705059962,2.30636644608932,2.30731586008444,2.30866502734065,2.30974436114562,2.31068378130921,2.31239272650042,2.31263257845708,2.31323220834873,2.31348205413691,2.31276249826693,2.31302233788665,2.31318223919109,2.31396175805024,2.27794398922506,2.27486588911458,2.2742562653914,2.2744361543589,2.27375657381503,2.27409636408696,2.27451610501112,2.27399642577169,2.27424627155987,2.27760419895312,2.27484590145153,2.2755254819954,2.27506576574513,2.27558544498456,2.27573535245748,2.27619506870774,2.27688464308314,2.27794398922506,2.27817384735019,2.27856360677976,2.28017261365569,2.28180160819468,2.32340592884374,2.32352585482207,2.32403554022997,2.32605429419853,2.3266239425956,2.32685380072073,2.32690376987837,2.32670389324782,2.32735349229711,2.32626416466061,2.3269137637099,2.32360580547429,2.32229661354419,2.32187687262003,2.32080753264659,2.32052770536382,2.32052770536382,2.32059766218451,2.3204477547116,2.32068760666826,2.32129723039143,2.32245651484863,2.32323603370777,2.3238256697679,2.32487502207829,2.32607428186159,2.32684380688921,2.3270236958567,2.32780321471585,2.32918236346665,2.32872264721638,2.32816299265084,2.32740346145475,2.28900716072602,2.28959679678614,2.28810771588854,2.28596903594165,2.28627884471901,2.28470981316919,2.28472980083224,2.2842800784135,2.28425009691892,2.28434004140267,2.28470981316919,2.28405022028837,2.28344059656519,2.28379038066866,2.28358051020658,2.28332067058686,2.28256113939077,2.28360049786963,2.28265108387452,2.28296089265187,2.28261110854841,2.282281312108,2.28215139229814,2.28280099134743,2.28231129360258,2.2821713799612,2.28248118873855,2.28277100985285,2.28295089882034,2.28263109621146,2.28305083713562,2.28305083713562,2.28300086797798,2.28383035599477,2.28311080012478,2.28430006607656,2.28459988102238,2.28438001672878,2.28461986868544,2.28483973297904
2.21896039554964,2.21978988356642,2.22053942093099,2.2228679836769,2.22295792816065,2.22248821807885,2.22350758889466,2.22430709541686,2.22552634286322,2.22606600976571,2.22630586172237,2.22747514001109,2.22825465887023,2.22837458484856,2.22950388781117,2.22985367191464,2.23119284533932,2.23199235186152,2.23226218531277,2.23269192006845,2.23283183370984,2.23417100713452,2.23500049515131,2.23566008803212,2.23640962539669,2.2375389283593,2.23865823749038,2.23892807094162,2.23938778719189,2.24007736156729,2.24059704080672,2.24127662135059,2.24210610936737,2.24234596132403,2.24318544317235,2.24402492502066,2.24536409844534,2.24602369132616,2.24755274754987,2.24753275988682,2.24871203200706,2.25020111290466,2.25149031717171,2.25280950293335,2.25421863317873,2.25668710956602,2.25921554894249,2.26198384027561,2.30255879627734,2.304617525572,2.30521715546366,2.30608661880655,2.30706601429625,2.30776558250317,2.30571684704003,2.3053770567681,2.30440765510993,2.30425774763701,2.30350821027245,2.30417779698479,2.30291857421233,2.30298853103302,2.30276866673941,2.30308846934829,2.30375805606064,2.30467748856117,2.30510722331685,2.30566687788239,2.30619655095335,2.30714596494847,2.30890487929731,2.30998421310228,2.31124343587475,2.31218285603834,2.31246268332111,2.31356200478913,2.31466132625716,2.31270253527777,2.31243270182653,2.31597051818727,2.3144214743005,2.27548550666929,2.27544553134318,2.27560543264762,2.27368661699433,2.27347674653226,2.27376656764655,2.27388649362488,2.27419630240224,2.27423627772835,2.27451610501112,2.27435620370668,2.27481591995694,2.27549550050081,2.27541554984859,2.27608513656094,2.27670475411564,2.27696459373536,2.27823381033935,2.27956298993251,2.27928316264974,2.28182159585773,2.28230129977106,2.32442529965955,2.32293621876195,2.32357582397971,2.32595435588326,2.32747341827544,2.32703368968823,2.32676385623699,2.32612425101923,2.32649402278574,2.3253147506655,2.32544467047535,2.32658396726949,2.32218668139738,2.32140716253824,2.32068760666826,2.32047773620618,2.32101740310866,2.32041777321701,2.32017792126035,2.32094744628797,2.32112733525547,2.32251647783779,2.3230261632457,2.32355583631665,2.32467514544774,2.32597434354631,2.32642406596505,2.32758335042224,2.32758335042224,2.32855275208041,2.32867267805874,2.32868267189027,2.32975201186372,2.28846749382353,2.28805774673091,2.28736817235551,2.28621888172984,2.28558927034361,2.2849696527889,2.2852594739032,2.28455990569627,2.28471980700071,2.28441999205489,2.28431005990809,2.28432005373961,2.28386033748935,2.28382036216324,2.28361049170116,2.28264109004299,2.28333066441839,2.28342060890214,2.28248118873855,2.28266107770605,2.28251117023313,2.28270105303216,2.28267107153757,2.28262110237994,2.2819914909937,2.28243121958091,2.28332067058686,2.28233128126564,2.28343060273366,2.28296089265187,2.28315077545089,2.28306083096715,2.28304084330409,2.28333066441839,2.28372042384796,2.28372042384796,2.2840602141199,2.284459967381,2.28491968363127,2.28475978232682
2.21870055592992,2.21997976636545,2.22099913718125,2.22180863753498,2.22234830443747,2.22312782329661,2.22637581854306,2.22404725579715,2.22532646623267,2.22599605294501,2.22683553479332,2.22702541759235,2.22830462802787,2.22914410987618,2.22947390631659,2.22970376444172,2.23065317843684,2.23161258626348,2.23259198175317,2.23269192006845,2.23343146360149,2.23444084058577,2.235070451972,2.23593991531489,2.23663948352182,2.23647958221738,2.23828846572386,2.23966761447466,2.23880814496329,2.23962763914855,2.24027723819784,2.24140654116045,2.24162640545405,2.24183627591613,2.2433853198029,2.2444746474394,2.24504429583646,2.24581382086408,2.2464734137449,2.24792251931639,2.24912177909969,2.25004121160022,2.25182011361212,2.25321925002597,2.25578766472855,2.25633732546256,2.25864590054542,2.2997505296181,2.30006033839546,2.30552696424101,2.30629648926863,2.30595669899669,2.30744577989429,2.30880494098204,2.3063964275839,2.30877495948745,2.30413782165868,2.3034882226094,2.30299852486455,2.30260876543497,2.3025088271197,2.30256879010886,2.30256879010886,2.30292856804385,2.30317841383204,2.30391795736508,2.30473745155034,2.30534707527351,2.30664627337209,2.30745577372582,2.30851511986774,2.3093745893791,2.31130339886392,2.31239272650042,2.31256262163638,2.31280247359304,2.31573066623061,2.31336212815858,2.31346206647386,2.31330216516942,2.31469130775174,2.27521567321804,2.27531561153332,2.27368661699433,2.27395645044558,2.27428624688598,2.27383652446725,2.27407637642391,2.27455608033723,2.27413633941307,2.27455608033723,2.27515571022888,2.27450611117959,2.27504577808208,2.27570537096289,2.27650487748509,2.2776341804477,2.27625503169691,2.27801394604575,2.27859358827435,2.27971289740543,2.28097212017789,2.28176163286857,2.32271635446834,2.3214671255274,2.3240455340615,2.32383566359942,2.32550463346452,2.32604430036701,2.32738347379169,2.32649402278574,2.32610426335617,2.32558458411674,2.32510488020342,2.3226663853107,2.32291623109889,2.322046767756,2.32092745862492,2.32063763751062,2.32060765601604,2.32002801378744,2.31987810631453,2.31980814949383,2.32088748329881,2.32256644699543,2.32337594734916,2.32290623726737,2.32509488637189,2.32588439906257,2.32671388707935,2.32741345528628,2.32808304199862,2.32859272740652,2.32857273974347,2.32876262254249,2.32426539835511,2.28854744447575,2.28811770972007,2.28731820319787,2.28696841909441,2.28500962811501,2.28518951708251,2.28482973914752,2.28472980083224,2.28420012776128,2.28381036833171,2.2842800784135,2.28418014009823,2.28372042384796,2.28324071993464,2.28367045469032,2.28369044235338,2.28290092966271,2.283190750777,2.28291092349423,2.28230129977106,2.28288094199965,2.28249118257008,2.28272104069521,2.28250117640161,2.28264109004299,2.28218137379272,2.28224133678189,2.28296089265187,2.28212141080356,2.28236126276022,2.28336064591297,2.28333066441839,2.28442998588642,2.28311080012478,2.28318075694548,2.28365046702727,2.28441999205489,2.28447995504405,2.28494966512585,2.28477976998988
2.21927020432699,2.21934016114769,2.22075928522459,2.22117902614875,2.22272807003551,2.22325774310647,2.22391733598729,2.22425712625923,2.2250466389499,2.22587612696668,2.22683553479332,2.22752510916872,2.22821468354412,2.22873436278355,2.22930401118062,2.22976372743089,2.23062319694225,2.23161258626348,2.23199235186152,2.23265194474234,2.23323158697094,2.23361135256898,2.23360135873746,2.23510043346658,2.23620974876614,2.23664947735335,2.23787871863123,2.23885811412093,2.24029722586089,2.2407369544481,2.24046712099686,2.24147649798114,2.24225601684029,2.24257581944917,2.24366514708567,2.24339531363442,2.24496434518424,2.2456739072227,2.24682319784836,2.24748279072918,2.24874201350165,2.25006119926328,2.25173016912837,2.25347908964569,2.25503812736398,2.25723677030004,2.25956533304595,2.26116434609035,2.30609661263808,2.30647637823612,2.30604664348044,2.30632647076321,2.30662628570904,2.30730586625291,2.30718594027458,2.3042877291316,2.30913473742244,2.30389796970202,2.30278865440247,2.30237890730984,2.30234892581526,2.30253880861428,2.30223899366846,2.30297853720149,2.30379803138675,2.3042177723109,2.30458754407742,2.30526712462129,2.30592671750211,2.3073758230736,2.30820531109038,2.30993424394465,2.31156323848363,2.31226280669056,2.31244269565805,2.31326218984331,2.31547082661089,2.31408168402857,2.31343208497928,2.31520099315965,2.31560074642075,2.2754555251747,2.27468600014709,2.27391647511947,2.27367662316281,2.27324688840712,2.27382653063572,2.27405638876085,2.2739664442771,2.27415632707613,2.27442616052737,2.27497582126138,2.2750557719136,2.27548550666929,2.27559543881609,2.27623504403385,2.27611511805552,2.27674472944175,2.27826379183394,2.27925318115516,2.27971289740543,2.28092215102026,2.28433004757114,2.32116731058158,2.32304615090875,2.32339593501221,2.32931228327651,2.32644405362811,2.32693375137296,2.32748341210697,2.32632412764978,2.32608427569312,2.32454522563788,2.32328600286541,2.32228661971266,2.32184689112545,2.32096743395103,2.32000802612438,2.32018791509188,2.31984812481994,2.31999803229286,2.32004800145049,2.32020790275493,2.32103739077172,2.3218668787885,2.32290623726737,2.32317607071861,2.32416546003983,2.3259343682202,2.32646404129116,2.32724356015031,2.32821296180848,2.32855275208041,2.32758335042224,2.32876262254249,2.32343591033832,2.28855743830728,2.28752807365995,2.2870383759151,2.28591906678402,2.28527946156626,2.28600901126776,2.2845698995278,2.28492967746279,2.28419013392976,2.28413017094059,2.28385034365782,2.28404022645684,2.28354053488047,2.28361049170116,2.28362048553269,2.28340062123908,2.28290092966271,2.28358051020658,2.28252116406466,2.28253115789619,2.28269105920063,2.28262110237994,2.28238125042328,2.28310080629326,2.2828609543366,2.28224133678189,2.2826810653691,2.28305083713562,2.28267107153757,2.28247119490702,2.28269105920063,2.28275102218979,2.28316076928242,2.28363047936422,2.28383035599477,2.28425009691892,2.28409019561448,2.28434004140267,2.28492967746279,2.28465984401155
2.21916027218019,2.21950006245213,2.22044947644724,2.22124898296944,2.22239827359511,2.22256816873107,2.22345761973702,2.22430709541686,2.22487674381393,2.22630586172237,2.2266456519943,2.22707538674999,2.22825465887023,2.22873436278355,2.22927402968604,2.22986366574616,2.23062319694225,2.23185243822014,2.23237211745957,2.23325157463399,2.23629969324989,2.23475064936312,2.23492054449909,2.23544022373852,2.23624972409225,2.23704923061445,2.23737902705486,2.23880814496329,2.23951770700175,2.23977754662146,2.24092683724713,2.24151647330725,2.24318544317235,2.24257581944917,2.24343528896053,2.24365515325414,2.2450942649941,2.24633350010351,2.24683319167989,2.24804244529472,2.24902184078442,2.24991129179037,2.25217989154711,2.25336915749889,2.25514805951079,2.25814620896904,2.25903565997499,2.26320308772197,2.3033083336419,2.30662628570904,2.3027286914133,2.30535706910504,2.3066862486982,2.30616656945877,2.30610660646961,2.30610660646961,2.30405787100646,2.30276866673941,2.30225898133151,2.30372807456606,2.30227896899457,2.30225898133151,2.30266872842414,2.30305848785371,2.30270870375025,2.3035981547562,2.30464750706659,2.30517718013755,2.30583677301836,2.30698606364403,2.30822529875344,2.30913473742244,2.31125342970628,2.3122428190275,2.31145330633683,2.31392178272413,2.3137318999251,2.31332215283247,2.31447144345814,2.31560074642075,2.31745959908487,2.27550549433234,2.27587526609886,2.27340678971156,2.27365663549975,2.27311696859726,2.27301703028199,2.27418630857071,2.27413633941307,2.27444614819043,2.27424627155987,2.27464602482098,2.27521567321804,2.27556545732151,2.27605515506636,2.27645490832746,2.27816385351866,2.27800395221422,2.27848365612754,2.27845367463296,2.27956298993251,2.28115200914539,2.28315077545089,2.32672388091088,2.32610426335617,2.32477508376301,2.32710364650892,2.32722357248725,2.32770327640057,2.32793313452571,2.32644405362811,2.32666391792171,2.32455521946941,2.32277631745751,2.32254645933237,2.32100740927714,2.32082752030964,2.31972819884161,2.31965824202092,2.31974818650467,2.31974818650467,2.31940839623273,2.32046774237465,2.32145713169587,2.32162702683184,2.32258643465848,2.32400555873539,2.32482505292065,2.3257145039266,2.32645404745963,2.32735349229711,2.32773325789516,2.32796311602029,2.3285127767543,2.32918236346665,2.29060617377042,2.28874732110631,2.28756804898606,2.28681851162149,2.28552930735444,2.2846798316746,2.28390031281546,2.28541937520764,2.28523948624015,2.284459967381,2.2846798316746,2.28375040534255,2.28349056572283,2.28321073844006,2.28379038066866,2.2837703930056,2.28321073844006,2.28320074460853,2.28284096667354,2.28291092349423,2.28266107770605,2.28254115172772,2.28227131827647,2.28235126892869,2.28293091115729,2.28196150949912,2.28232128743411,2.282281312108,2.28251117023313,2.28253115789619,2.28270105303216,2.28305083713562,2.28224133678189,2.28273103452674,2.28320074460853,2.28387033132088,2.28394028814157,2.28408020178295,2.284459967381,2.28592906061554,2.28547933819681
2.21893041405506,2.2219585450079,2.22063935924626,2.22095916185514,2.22211844631234,2.22321776778036,2.22339765674786,2.22408723112326,2.22616594808098,2.2267555841411,2.22648575068986,2.22750512150567,2.22820468971259,2.22894423324563,2.22926403585451,2.23032338199643,2.23142270346446,2.23269192006845,2.23247205577484,2.23269192006845,2.23323158697094,2.2346706987109,2.23502048281436,2.23603985363017,2.23617976727155,2.23766884816916,2.23726909490805,2.23871820047954,2.23927785504509,2.23967760830619,2.24094682491018,2.24179630059002,2.24250586262847,2.24317544934082,2.24430475230343,2.24404491268371,2.24639346309268,2.24633350010351,2.24792251931639,2.24775262418042,2.24879198265928,2.25092066877465,2.25186008893823,2.2536989539393,2.25496817054329,2.25770648038183,2.26109438926966,2.30382801288133,2.30367810540842,2.30404787717494,2.30814534810122,2.30455756258284,2.30609661263808,2.30637643992085,2.30538705059962,2.30470747005575,2.30394793885966,2.30338828429412,2.30230895048915,2.30214904918471,2.30247884562512,2.30276866673941,2.30299852486455,2.30255879627734,2.30350821027245,2.30392795119661,2.3049073466863,2.30516718630602,2.30618655712183,2.30742579223124,2.30856508902538,2.30996422543923,2.30983430562937,2.3093745893791,2.31250265864722,2.31326218984331,2.31378186908274,2.31356200478913,2.31389180122954,2.31911857511844,2.31670006788878,2.27593522908803,2.27463603098945,2.27419630240224,2.27392646895099,2.27330685139629,2.27347674653226,2.27389648745641,2.27383652446725,2.27397643810863,2.2742562653914,2.27497582126138,2.2753455930279,2.27496582742986,2.27580530927817,2.27666477878953,2.27705453821911,2.27764417427923,2.27776410025756,2.2787235080842,2.28102208933553,2.28164170689024,2.28328069526075,2.32477508376301,2.32425540452358,2.32723356631878,2.32936225243414,2.33019174045093,2.32852277058583,2.32805306050404,2.32727354164489,2.32518483085564,2.32309612006639,2.32297619408806,2.32159704533726,2.32132721188602,2.3208475079727,2.32003800761897,2.31984812481994,2.31931845174899,2.32017792126035,2.32024787808105,2.3210673722663,2.3209574401195,2.3217569466417,2.32248649634321,2.32343591033832,2.32468513927926,2.32559457794827,2.32644405362811,2.32743344294933,2.32812301732473,2.327313516971,2.32700370819365,2.32944220308636,2.28797779607869,2.28854744447575,2.28770796262744,2.28647872134956,2.2857691593111,2.28527946156626,2.28532943072389,2.28462986251697,2.28440999822336,2.28431005990809,2.28438001672878,2.28353054104894,2.28306083096715,2.28316076928242,2.28353054104894,2.2837703930056,2.283190750777,2.28325071376617,2.28262110237994,2.28248118873855,2.28293091115729,2.28200148482523,2.28243121958091,2.2827909975159,2.28292091732576,2.28222134911884,2.28232128743411,2.28260111471688,2.28249118257008,2.28303084947256,2.28261110854841,2.28342060890214,2.28266107770605,2.28282097901049,2.28334065824992,2.28362048553269,2.2847497884953,2.28501962194654,2.28458988719086,2.28540938137611,2.28542936903917
2.2194900686206,2.22105910017042,2.22042948878418,2.22169870538818,2.22243824892122,2.22296792199217,2.22361752104146,2.22490672530851,2.2266456519943,2.22649574452139,2.2269354731086,2.22766502281011,2.22820468971259,2.22891425175105,2.22945391865353,2.2304932771324,2.23096298721419,2.23166255542112,2.23255200642707,2.23277187072067,2.23353140191676,2.23421098246063,2.23559013121143,2.23575003251587,2.23613979194544,2.23701924911987,2.23747896537013,2.23825848422928,2.23952770083327,2.23935780569731,2.2409168434156,2.2418962389053,2.24237594281862,2.24302554186791,2.24376508540094,2.24456459192314,2.24559395657048,2.24644343225032,2.24734287708779,2.24823232809374,2.24921172358344,2.25031104505147,2.253409132825,2.254318571494,2.2547882815758,2.25780641869711,2.26090450647064,2.30430771679465,2.30477742687645,2.30841518155246,2.30858507668843,2.30732585391596,2.30894485462342,2.30536706293657,2.30528711228435,2.30455756258284,2.30447761193062,2.30302850635913,2.3031984014951,2.30214904918471,2.30228896282609,2.30234892581526,2.30299852486455,2.30274867907636,2.3030185125276,2.30367810540842,2.3046874823927,2.30518717396907,2.30622653244794,2.30728587858985,2.30840518772093,2.30960444750424,2.30901481144411,2.31106354690725,2.31332215283247,2.31313227003345,2.31383183824038,2.31315225769651,2.31440148663745,2.31345207264233,2.27738433465952,2.2774143161541,2.27426625922293,2.27394645661405,2.27324688840712,2.27355669718448,2.27423627772835,2.27299704261893,2.27371659848892,2.27407637642391,2.27440617286431,2.27536558069096,2.27531561153332,2.27542554368012,2.27561542647914,2.27669476028412,2.27662480346342,2.27753424213243,2.27777409408909,2.27911326751378,2.28109204615623,2.28223134295036,2.28394028814157,2.32460518862704,2.32705367735129,2.32818298031389,2.32866268422722,2.32838285694445,2.32831290012375,2.32737347996017,2.32694374520448,2.32583442990493,2.32336595351763,2.322046767756,2.32080753264659,2.32074756965742,2.31987810631453,2.32002801378744,2.31963825435787,2.31944837155884,2.31954830987412,2.31983813098842,2.32032782873326,2.32118729824463,2.32144713786435,2.32260642232154,2.32351586099054,2.32454522563788,2.32561456561132,2.32700370819365,2.32736348612864,2.32873264104791,2.32751339360155,2.32727354164489,2.32842283227056,2.28826761719298,2.28811770972007,2.28722825871412,2.28627884471901,2.28579914080569,2.28614892490915,2.28550931969139,2.28473979466377,2.2850396096096,2.28458988719086,2.28410018944601,2.2840602141199,2.28397026963615,2.28382036216324,2.28356052254352,2.28488970213668,2.28376039917407,2.2830808186302,2.28265108387452,2.28280099134743,2.28274102835827,2.28321073844006,2.28219136762425,2.28202147248828,2.28192153417301,2.28289093583118,2.28235126892869,2.28259112088535,2.28227131827647,2.28201147865676,2.28309081246173,2.28304084330409,2.28347057805977,2.28368044852185,2.28289093583118,2.28402023879379,2.28401024496226,2.28410018944601,2.28468982550613,2.28463985634849,2.2846798316746
2.2190903153595,2.2202895751428,2.22194855117637,2.2225781625626,2.22214842780692,2.22273806386704,2.22369747169368,2.22506662661295,2.22605601593418,2.22534645389572,2.22654571367903,2.22772498579927,2.22839457251162,2.22851449848995,2.23092301188808,2.23012350536588,2.23050327096392,2.23182245672556,2.23234213596499,2.23275188305762,2.23356138341134,2.23457076039562,2.23473066170006,2.23600987213559,2.23643960689127,2.23712918126667,2.23689932314154,2.23854830534358,2.23934781186578,2.24027723819784,2.24106675088851,2.24157643629642,2.24270573925902,2.24305552336249,2.24367514091719,2.24461456108078,2.24516422181479,2.24628353094588,2.2471629881203,2.24848217388193,2.24984133496967,2.25075077363868,2.25254966331363,2.25395879355901,2.25543788062508,2.25748661608823,2.30332832130496,2.30482739603408,2.30603664964891,2.30722591560069,2.30826527407955,2.30791548997609,2.30724590326374,2.30912474359092,2.30448760576215,2.30406786483799,2.30412782782716,2.30257878394039,2.30220901217387,2.30215904301624,2.30195916638569,2.30224898749998,2.30202912320638,2.30270870375025,2.30329833981037,2.30346823494634,2.30472745771881,2.30513720481144,2.30562690255628,2.30698606364403,2.30870500266676,2.30990426245006,2.31015410823825,2.31237273883736,2.313332146664,2.31249266481569,2.31364195544135,2.31366194310441,2.31357199862066,2.31388180739802,2.27526564237568,2.27463603098945,2.27442616052737,2.27468600014709,2.27375657381503,2.27354670335295,2.27411635175002,2.27336681438545,2.273566691016,2.27407637642391,2.27450611117959,2.27449611734806,2.27469599397861,2.27529562387026,2.27607514272941,2.27580530927817,2.27637495767524,2.27728439634424,2.27813387202408,2.27860358210587,2.28077224354734,2.28164170689024,2.28545935053375,2.33001185148343,2.32735349229711,2.32746342444391,2.32826293096612,2.32843282610208,2.32745343061239,2.32689377604685,2.32844281993361,2.32700370819365,2.32112733525547,2.32029784723868,2.32068760666826,2.3206676190052,2.32027785957563,2.31942838389579,2.31926848259135,2.31908859362385,2.31976817416772,2.31991808164064,2.32009797060813,2.32061764984756,2.3213571933806,2.32288624960431,2.32365577463193,2.32469513311079,2.32589439289409,2.32658396726949,2.3278232023789,2.32895250534151,2.32972203036913,2.3270936526774,2.32828291862917,2.288817277927,2.28887724091616,2.28640876452887,2.28602899893082,2.28536940605,2.28540938137611,2.28511956026182,2.28434004140267,2.28437002289725,2.28444997354947,2.28471980700071,2.2841701462667,2.2839502819731,2.28349056572283,2.28342060890214,2.28364047319574,2.28274102835827,2.28344059656519,2.2826810653691,2.28321073844006,2.28287094816812,2.28310080629326,2.28269105920063,2.28304084330409,2.2818815588469,2.28234127509717,2.28203146631981,2.28231129360258,2.28234127509717,2.28200148482523,2.28290092966271,2.28361049170116,2.28372042384796,2.28317076311395,2.28342060890214,2.28360049786963,2.28400025113073,2.28429007224503,2.28464985018002,2.28452992420169,2.28469981933766
2.21915027834866,2.22016964916447,2.22117902614875,2.2219585450079,2.22230832911136,2.22305786647592,2.223267736938,2.22534645389572,2.22562628117849,2.22661567049972,2.2273352263697,2.22779494261997,2.22823467120718,2.22905416539243,2.23010351770282,2.23003356088213,2.23059321544767,2.23165256158959,2.23193238887236,2.23377125387342,2.23424096395522,2.23442085292271,2.23513041496117,2.23612979811392,2.23625971792377,2.23668945267946,2.23726909490805,2.23877816346871,2.23958766382244,2.2396476268116,2.24077692977421,2.24238593665014,2.24250586262847,2.24316545550929,2.2434952519497,2.24468451790147,2.24563393189659,2.24639346309268,2.24769266119126,2.24871203200706,2.24988131029578,2.25095065026923,2.25201999024267,2.25405873187429,2.25534793614134,2.25901567231194,2.26058470386176,2.30251882095123,2.3053070999474,2.30653634122529,2.30790549614456,2.30636644608932,2.30647637823612,2.30484738369714,2.30419778464785,2.30404787717494,2.30326835831579,2.30257878394039,2.30273868524483,2.30211906769013,2.30204911086943,2.30262875309803,2.30240888880442,2.30266872842414,2.30320839532662,2.30426774146854,2.30477742687645,2.30541703209421,2.30566687788239,2.30682616233959,2.30854510136232,2.30943455236827,2.31074374429837,2.31222283136445,2.31272252294082,2.31318223919109,2.3131122823704,2.31246268332111,2.31366194310441,2.31456138794189,2.27527563620721,2.2761450995501,2.27366662933128,2.2734567588692,2.27303701794504,2.27426625922293,2.27354670335295,2.27432622221209,2.27442616052737,2.27361666017364,2.27436619753821,2.27461604332639,2.27479593229389,2.27531561153332,2.27548550666929,2.27597520441414,2.27641493300135,2.27733436550188,2.27774411259451,2.27964294058473,2.28052239775916,2.28179161436315,2.28397026963615,2.32744343678086,2.32834288161834,2.32733350463406,2.32818298031389,2.32932227710803,2.32778322705279,2.32693375137296,2.32676385623699,2.32549463963299,2.3218668787885,2.3208475079727,2.31966823585245,2.31995805696675,2.32000802612438,2.31938840856968,2.31948834688495,2.31908859362385,2.31918853193913,2.31936842090662,2.31944837155884,2.32073757582589,2.32232659503877,2.3226663853107,2.32369574995804,2.32590438672562,2.32568452243202,2.32689377604685,2.3278232023789,2.3288025978686,2.33179075349533,2.32516484319258,2.32660395493255,2.3298919255051,2.28716829572496,2.28719827721954,2.28647872134956,2.28511956026182,2.28526946773473,2.28470981316919,2.28472980083224,2.28472980083224,2.28444997354947,2.28393029431004,2.28422011542434,2.28353054104894,2.28375040534255,2.28305083713562,2.2836604608588,2.28303084947256,2.28311080012478,2.28259112088535,2.28267107153757,2.28249118257008,2.28260111471688,2.28274102835827,2.28262110237994,2.28248118873855,2.28265108387452,2.28236126276022,2.282281312108,2.28221135528731,2.28245120724397,2.28203146631981,2.28232128743411,2.28294090498882,2.28316076928242,2.28280099134743,2.28321073844006,2.28436002906572,2.28489969596821,2.28429007224503,2.28434004140267,2.2850396096096
2.21926021049546,2.2199997540285,2.22131893979013,2.22301789114981,2.22261813788871,2.22322776161189,2.22373744701979,2.22465687952033,2.22575620098835,2.2259560776189,2.22690549161402,2.22771499196775,2.2284245540062,2.22915410370771,2.22961381995797,2.230713141426,2.23088303656197,2.23171252457875,2.23214225933444,2.23285182137289,2.23348143275912,2.23464071721632,2.23513041496117,2.23617976727155,2.23625971792377,2.23715916276125,2.23715916276125,2.23860826833274,2.23921789205592,2.23976755278993,2.24002739240965,2.24162640545405,2.24225601684029,2.24317544934082,2.2437151162433,2.24409488184135,2.24541406760298,2.24653337673406,2.24693312999517,2.24830228491444,2.24932165573024,2.2509406564377,2.25287945975404,2.25437853448317,2.25634731929409,2.25777643720252,2.30122961668418,2.30147946247236,2.30471746388728,2.30623652627946,2.30804540978594,2.30674621168737,2.30652634739376,2.30465750089812,2.30389796970202,2.30358816092467,2.30385799437591,2.30285861122316,2.30236891347831,2.30191919105958,2.3020391170379,2.30216903684776,2.30269870991872,2.30216903684776,2.30314843233746,2.303708086903,2.30458754407742,2.30503726649616,2.30702603897014,2.30725589709527,2.30802542212289,2.30957446600965,2.31131339269544,2.31207292389153,2.31221283753292,2.31390179506107,2.31336212815858,2.31321222068567,2.31352202946302,2.31419161617537,2.27702455672453,2.27419630240224,2.27333683289087,2.27317693158643,2.27299704261893,2.27330685139629,2.27360666634211,2.27390648128794,2.27500580275597,2.27399642577169,2.27416632090765,2.27481591995694,2.27520567938652,2.27587526609886,2.2756354141422,2.27582529694122,2.27631499468607,2.27689463691467,2.27785404474131,2.27893337854628,2.28030253346555,2.28253115789619,2.28524948007167,2.32406552172456,2.32737347996017,2.32835287544986,2.32927230795039,2.32893251767846,2.32730352313947,2.32616422634534,2.32616422634534,2.32435534283886,2.32208674308211,2.32113732908699,2.32059766218451,2.31995805696675,2.31960827286328,2.31934843324357,2.31908859362385,2.31910858128691,2.31900864297163,2.31942838389579,2.31941839006426,2.32007798294508,2.32145713169587,2.322956206425,2.32356583014818,2.32450525031177,2.32569451626354,2.32663393642713,2.32729352930795,2.32952215373858,2.32763331957988,2.32846280759667,2.31955830370565,2.28962677828073,2.28784787626883,2.28722825871412,2.28574917164805,2.28488970213668,2.28495965895738,2.28441999205489,2.28458988719086,2.28459988102238,2.28407020795143,2.28493967129432,2.28443997971794,2.28357051637505,2.28402023879379,2.28330068292381,2.28338063357603,2.28331067675533,2.28277100985285,2.28242122574939,2.28260111471688,2.28202147248828,2.28273103452674,2.28238125042328,2.28193152800454,2.28166169455329,2.282281312108,2.28219136762425,2.2817716267001,2.28269105920063,2.28455990569627,2.28273103452674,2.28241123191786,2.28282097901049,2.28299087414645,2.28367045469032,2.28391030664699,2.28455990569627,2.28401024496226,2.28433004757114,2.28471980700071,2.28518951708251
2.21939013030532,2.21990980954475,2.22070931606696,2.22124898296944,2.22199852033401,2.22291795283454,2.22393732365034,2.22418716943853,2.22655570751055,2.22701542376082,2.22879432577272,2.2272252942229,2.22826465270176,2.22846452933231,2.22937396800131,2.2312927836546,2.23087304273044,2.23214225933444,2.23261196941623,2.23313164865566,2.23370129705273,2.23391116751481,2.23548019906463,2.23610981045086,2.23664947735335,2.23691931080459,2.23797865694651,2.23890808327857,2.23969759596924,2.24042714567075,2.24124663985601,2.24173633760086,2.24304552953096,2.24329537531915,2.2444046906187,2.244694511733,2.2458937715163,2.24721295727794,2.24713300662572,2.24849216771346,2.24994127328495,2.25167020613921,2.25279950910182,2.25435854682011,2.25631733779951,2.25978519733955,2.30316842000052,2.3034882226094,2.3051971678006,2.30664627337209,2.3066862486982,2.30746576755735,2.30542702592573,2.30445762426756,2.30424775380549,2.30317841383204,2.30258877777192,2.30248883945664,2.30171931442902,2.3021090738586,2.30205910470096,2.30212906152165,2.30229895665762,2.30253880861428,2.30302850635913,2.30352819793551,2.30471746388728,2.3050872356538,2.3064663844046,2.30662628570904,2.30823529258497,2.30921468807466,2.31137335568461,2.31225281285903,2.3128224612561,2.31256262163638,2.31348205413691,2.31269254144624,2.3135120356315,2.31340210348469,2.27720444569202,2.27386650596183,2.27378655530961,2.27338680204851,2.27277717832533,2.27320691308101,2.27371659848892,2.27406638259238,2.27382653063572,2.27429624071751,2.27441616669584,2.27437619136973,2.27506576574513,2.27542554368012,2.27565540180525,2.27631499468607,2.27710450737675,2.27745429148021,2.27875348957879,2.27921320582905,2.28094213868331,2.28221135528731,2.28505959727265,2.32903245599373,2.32855275208041,2.32940222776025,2.32801308517793,2.32763331957988,2.32758335042224,2.32653399811185,2.32693375137296,2.32463517012163,2.32199679859836,2.32223665055502,2.32005799528202,2.31964824818939,2.31955830370565,2.31912856894996,2.31927847642288,2.31932844558051,2.31988810014605,2.32019790892341,2.32069760049978,2.3211773044131,2.32182690346239,2.32379568827331,2.32406552172456,2.32504491721425,2.32667391175324,2.32683381305768,2.32743344294933,2.32793313452571,2.32639408447047,2.32710364650892,2.32823294947153,2.28904713605213,2.28843751232895,2.28819766037229,2.28624886322442,2.28600901126776,2.2847497884953,2.28461986868544,2.28505959727265,2.28437002289725,2.28453991803322,2.28484972681057,2.28413017094059,2.28396027580462,2.28403023262532,2.28317076311395,2.28305083713562,2.28389031898393,2.28263109621146,2.28360049786963,2.28353054104894,2.28376039917407,2.28316076928242,2.28233128126564,2.28244121341244,2.28309081246173,2.28300086797798,2.28238125042328,2.28233128126564,2.28230129977106,2.28315077545089,2.28260111471688,2.28290092966271,2.28380037450018,2.28344059656519,2.28342060890214,2.28419013392976,2.28437002289725,2.28430006607656,2.28453991803322,2.28469981933766,2.28499963428349
