1.45126000035636,1.4723228905328,1.73129,1.48644762129482,1.47871706804368,1.43061736902417,1.38132000000077,1.44218931677841,1.44762608852257,1.50793502474685,1.70720999999997,1.57343890834167,1.52425000004056,1.50140328717887,1.42604418761726,1.4347614849571,1.44421926565807,1.52219043572749,1.58217356706846,1.60905353926248,1.70581999999999,1.55729267273752,1.48552823779876,1.47532137471735,1.41194000000041,1.485087161439,1.5031507667871,1.54115399400958,1.67146999941695,1.68462782050517,1.76870999999969,1.56602727604891,1.38198038277592,1.38965857407381,1.3910180341987,1.41389389388899,1.5061189427829,1.50306337278994,1.49939894231197,1.53003576564849,1.61344999999951,1.47088285582773,1.46103029887126,1.39899987639512,1.31940000000044,1.40322027043814,1.44563817406299,1.42726423997142,1.42015108450394,1.40041214758287,1.37355102901779,1.37182212000578,1.34335999989049,1.42253068281648,1.5848800002652,1.54972384030038,1.73472,1.51572012532197,1.51272363594758,1.43000023025989,1.40730366733483,1.40659669003383,1.4387640855081,1.48535515362304,1.5814400000001,1.7336164091531,1.74533999999984,1.65620855701299,1.58931999999997,1.3664506102463,1.30269774188472,1.238841130265,1.23101999971915,1.28028123951997,1.30021998188462,1.42593330436798,1.53709,1.4492242657436,1.21042275714833,1.21148417157144,1.2059959260101,1.26013017807806,1.29561501467227,1.34946103748775,1.55381,1.38688191990768,1.22657901138295,1.21353719356741,1.17118000000062,1.23046574373047,1.2469547655463,1.3306835468531,1.52234999999983,1.45822842649539,1.62423,1.34187275179778,1.3086073537154,1.34245686799526,1.4777250087849,1.47523230742006,1.76227,1.55054059250491,1.50983766136719,1.50131506926186,1.4995796186398,1.49935324992299,1.61727151487078,1.60820527805025,1.87899733960505,1.8805768993344,1.90347058929744,1.51433996431951,1.41661084862907,1.39822469485891,1.36879999962553,1.39213649440634,1.4596652769811,1.51934677029088,1.63710000005192,1.67369185437894,1.79655999999997,1.61915652505109,1.61715650219006,1.4601498743021,1.46018167304949,1.45843010601498,1.45891184781047,1.52786629877022,1.56073000089853,1.52840943521114,1.45285000000082,1.49433163279217,1.49484204724506,1.51760451174021,1.54321995331119,1.57267754990521,1.85146,1.80821464208385,1.8065329260568,1.53178587500438,1.5412108994468,1.49766002375314,1.48107149901589,1.51357444640771,1.51241989326075,1.5130831457672,1.51101778770323,1.511193280425,1.50871693516003,1.52580712146377,1.53255314466975,1.58939984283455,1.70071101376865,1.69716404080966,1.8597,1.64399611561826,1.6233362381872,1.62425946912042,1.62536948205794,1.64740783064571,1.68242118984195,1.71088399567221,1.72532456522548,1.74853583486987,1.76091251785491,1.75863329030345,1.78584999685776,1.82150979162739,2.01773938439813,2.0204859179221,2.02602209286746,2.022288687654,2.02710080310051,2.00465441699223,2.00873911163896,1.8707407570613,1.84141999884744,1.87317127381817,1.88551304714674
1.4718657826074,1.48461194372639,1.53536973942968,1.49031279660123,1.45629021934852,1.43076857542444,1.43069697974929,1.45483867770117,1.45665903527054,1.52170034612636,1.63780710765346,1.60475281740904,1.56612137143507,1.51887938168165,1.50657597746187,1.45778943239751,1.45679483451541,1.51720953391491,1.5592730401509,1.60808202284594,1.60672413512283,1.56228301383928,1.52286587119759,1.4672965174688,1.45320002432906,1.47009999557081,1.47920846064148,1.53400262510467,1.63650068057484,1.66824097612739,1.70245737205377,1.56672321256769,1.38528510481287,1.38806618564516,1.38947646104757,1.40790004778313,1.45208671925779,1.46995050312372,1.4904483336198,1.47868556437226,1.45033594107704,1.42405710902182,1.40053994745331,1.38289862085836,1.3584372041888,1.38960599399274,1.42599408116042,1.41238517919048,1.40304932410967,1.3943757000097,1.37182410424006,1.37115949098807,1.38933848380371,1.41929507241574,1.47000187867447,1.530983105221,1.56606776423425,1.51767548564815,1.5156994924383,1.4401026705295,1.40664852252371,1.40655633713656,1.42416984692775,1.46795071568624,1.53174904305672,1.73262534892233,1.73372798953388,1.65553681775815,1.62113417970156,1.37241157656533,1.28132699744924,1.2418091721482,1.24187444755496,1.28656388033016,1.3378172797031,1.41811334552957,1.44758343966918,1.44778995024565,1.29923630591454,1.21381933876445,1.21108530574553,1.26279151930829,1.28849188558826,1.3461560169787,1.38349003729532,1.38197589192231,1.21360839797608,1.20770758991509,1.20014008513671,1.22837268643025,1.2540204972568,1.32470745550545,1.32429750943424,1.32431890726549,1.32627032239022,1.31804725012485,1.31346821236636,1.34110558280896,1.40482748785607,1.45190801418254,1.60736242532676,1.57269651435816,1.50504332142653,1.50049325191964,1.49868697971603,1.49780052684974,1.59791300586949,1.60059953937845,1.71289837001703,1.68199687547852,1.64269912591899,1.49992598112339,1.42123717550457,1.39872431402971,1.38994762592134,1.38963617139256,1.45687912413416,1.51729109212025,1.62771026500281,1.6457347563875,1.67917417265523,1.58717014204282,1.53856483818047,1.45940819441592,1.45800465632466,1.45693085147272,1.48826571983283,1.52878542978174,1.53102349183858,1.5316238039844,1.49369444607049,1.49372154557115,1.49438338548124,1.51271852299968,1.54316496023712,1.57004840558648,1.81483183999487,1.81132847949388,1.80821464202078,1.52822318359179,1.52195142448314,1.49317735379071,1.48781173770212,1.51393281185769,1.51494926386149,1.5188155666275,1.5233906703788,1.52691130595244,1.52957967991729,1.53126166086885,1.53206702071591,1.60300104180885,1.69716830247263,1.69459347594898,1.69308220479563,1.6425148664193,1.63726940480983,1.6371901774153,1.63695141294281,1.64734152321891,1.69311172832924,1.7175865765395,1.72426853468616,1.75073879528979,1.75790825090653,1.75704320716322,1.80910164635137,1.83599433056629,2.02021791512826,2.02226678659037,2.02239395205857,2.02435789853827,2.02400976375285,2.00410730533133,2.00660464256622,1.87565350675327,1.87785968100987,1.87813700344187,1.88157756538878
1.51353670078643,1.52684843954536,1.71653,1.49283871705067,1.44507948683906,1.4313347746466,1.43082812966386,1.4609564414115,1.46883876294404,1.53401868650319,1.69557259607995,1.68513282559664,1.74415999999973,1.53804218755234,1.53462754922688,1.46014958501336,1.43502000000072,1.51210221678568,1.53226799435234,1.60890876484863,1.60736125189784,1.56811816554289,1.56769956039144,1.45982280878833,1.42754266461184,1.4506052348213,1.45816416156833,1.52368478376669,1.61409883325003,1.64605263345889,1.80603,1.56763393055917,1.35922804105228,1.35803506494254,1.34630044646701,1.39874950096538,1.43305000000015,1.45121037289104,1.51537000073942,1.47116909204436,1.36147231306414,1.35302574550662,1.30806043402451,1.3311908225334,1.33975125081048,1.37186751032491,1.46415999999946,1.40046379556646,1.37103895662986,1.36566223510658,1.28501000000042,1.36095968205477,1.4119827608442,1.4160779543025,1.42018704862117,1.51882759787902,1.63912,1.52036571909801,1.52203746722371,1.45114043423527,1.34737000000051,1.40665215299537,1.4199523682472,1.45332664743373,1.47533999999995,1.72937365894591,1.74036999999962,1.70460228283465,1.72746999999955,1.3777663194226,1.27374795191983,1.24488793606261,1.24317662131061,1.29348130507001,1.37135176146275,1.40846853441214,1.67404,1.44711899551074,1.66165,1.21703131847906,1.19869999999524,1.26492396213591,1.28019151731628,1.34267437806399,1.54034,1.37674867378444,1.2048459833092,1.20379780515843,1.19378469687721,1.22679625049695,1.26137453157477,1.32404460851183,1.32124836968104,1.32398720555584,1.32793018473571,1.31028448814626,1.29485800744348,1.3248998908724,1.32935146790986,1.43888003081134,1.71825,1.59370215996731,1.50340136836175,1.49895095981244,1.49660802724811,1.49578002841449,1.59292482180144,1.59797417533218,1.86942,1.66095592486766,1.5946499998496,1.48769889146981,1.42644630385226,1.39910408861222,1.36747999948893,1.38758314603616,1.45406533871188,1.51505953473093,1.60323999967804,1.62393304961461,1.79,1.55501184519448,1.4609890580372,1.45926439183078,1.41554000000071,1.45585735163012,1.50672997853563,1.52879371016344,1.79288,1.53583623172137,1.49333709170712,1.49232088461019,1.48903542203885,1.50543473321775,1.54305243970259,1.567590691099,1.82245587043943,1.81483183930922,1.84869999999998,1.52571514469797,1.47941272941243,1.48334138756398,1.45939999990956,1.5278644149892,1.63789996941964,1.57797954647566,1.52585876796028,1.53377062652009,1.54042384698789,1.53639516736966,1.53208709929304,1.61192868551301,1.71318916345591,1.69207946205055,1.69264645207026,1.64195532343948,1.63791432499652,1.63734770034337,1.63726605823963,1.64784621364984,1.70354872261177,1.72225635869191,1.72322852987383,1.75198892577395,1.7562089998698,1.75544491971038,1.82073999996097,1.85247982749359,2.03752187095873,2.02774075317401,2.0536297146041,2.02990871590557,2.0426156892189,2.00502875177129,2.00967545366133,1.87777370962382,1.88410100533089,1.87874364681646,1.8609400526621
1.47097643920607,1.53495225262747,1.54378802938136,1.49953856038004,1.44481412227237,1.43243078422533,1.4316546622336,1.45977530241134,1.47328033110457,1.54097491615888,1.67631465263628,1.67842071641995,1.69828724154463,1.54135638082938,1.50516321523671,1.46950860592387,1.47064324733767,1.50708484135879,1.53144853143475,1.61014962673424,1.60932410269745,1.57417651081616,1.49764618318408,1.45199050956501,1.4372965197426,1.44409743064992,1.47125729467426,1.51192504592337,1.60553962235328,1.62655427966931,1.6446767652552,1.56863311139455,1.35803797098349,1.35613673767261,1.3515286893127,1.38135531246394,1.41288902805904,1.43842678169817,1.46449520719094,1.46455560064705,1.41694377525926,1.34685816793868,1.31827476897863,1.32633951348524,1.33114014971004,1.35983402406509,1.39199277626667,1.39354594649997,1.38164758285879,1.36264254224096,1.32440810732783,1.34301219543247,1.37020741321109,1.40410367631042,1.40996159269816,1.49330339830399,1.4940943816887,1.49352661238932,1.49142169470583,1.46219922944537,1.37867345985595,1.39442658393843,1.40446742933894,1.43705818790311,1.53174807783003,1.72456790074933,1.72179285735355,1.69789986456768,1.68796704041735,1.38191946102274,1.28446983507652,1.24781336982981,1.24815422417532,1.30126646928324,1.3677659069116,1.39769052005102,1.43350719276246,1.4010310211629,1.30708073859611,1.22853928651493,1.2281855043906,1.26658350993581,1.28746473961647,1.33906171689185,1.37100313292562,1.36894339785501,1.20327105711501,1.20228030553579,1.19883233762736,1.22573574397168,1.23722500840811,1.32293959113654,1.32217323565257,1.32146592883628,1.30957868434176,1.30491288002303,1.30278817704822,1.32355110907677,1.32474801218294,1.42501339330526,1.64874839328507,1.61850714561731,1.56930661656169,1.49502429368924,1.49481909616708,1.49399970674952,1.58274172746967,1.58445818683612,1.62106699496228,1.64257540026323,1.62319761577076,1.47367615989225,1.40326730975924,1.39913486981435,1.38216771247043,1.38641827805567,1.46541188018873,1.51276567468138,1.5579341778295,1.55696921442696,1.52305250610353,1.51357641898559,1.47370937258092,1.45815862912419,1.45210635500494,1.45679000350856,1.48617968568167,1.52797443252945,1.5404832744089,1.53969546554837,1.49337600294443,1.49257292360074,1.49122475093611,1.49721842814963,1.55435594136891,1.56563391157592,1.69032168013701,1.66917022258973,1.58856002372229,1.52431393825187,1.48351192288167,1.48706566212769,1.490149719592,1.53599826752546,1.62796409455791,1.62163463910322,1.61538646822122,1.60673449483298,1.59546149922049,1.60865197022991,1.61828164135999,1.61978161384186,1.69010394401396,1.69015550547154,1.69020949642043,1.63762985378881,1.63754509523118,1.63727039629985,1.63722858960742,1.6484200763272,1.67573469710318,1.73422579933591,1.73575716334968,1.75234925660601,1.75314970286562,1.75399708082464,1.85257054893826,1.87352250988838,2.03128047767569,2.02714019696646,2.03290389014057,2.02608200158059,2.0227614429144,2.00412895237449,2.00374347042805,1.87774224317872,1.8786575303724,1.87789233196185,1.89011786480061
1.44122695927958,1.54008749208924,1.70034,1.50903191739544,1.44425100657217,1.43352979620342,1.42528253501252,1.45861286666059,1.48966997666872,1.54460741413196,1.67553889442781,1.67631380827558,1.75296999999987,1.54415197469308,1.4704615562239,1.46945169875479,1.47243099140888,1.50280588763752,1.53061879207919,1.61143304255263,1.66299999999989,1.57899656179455,1.42482993860651,1.40891921746864,1.37755018273499,1.43918942951537,1.48557922196609,1.50029854026134,1.59726088654851,1.61126472591645,1.68007999999956,1.56959745001298,1.3305450271246,1.32813743477163,1.30164001723888,1.36691114947678,1.39304999997477,1.41972506695565,1.46430409108929,1.46449390582844,1.78837,1.34151565921244,1.25304999962755,1.28887528191918,1.28856480724781,1.34777268940943,1.39058232571011,1.3952255079738,1.41253000141618,1.35808955796075,1.29658333481986,1.31715113372619,1.31867314337387,1.3960809896431,1.4010523971337,1.4939794169226,1.49573931664742,1.49420486553886,1.48353419006761,1.47266691360039,1.36242610338067,1.36270917813994,1.31966000000044,1.42219910626283,1.72023160036826,1.72115318864188,1.7178163606975,1.68805446326859,1.6688500915367,1.38482721585412,1.30079943891537,1.25019352956075,1.22918000000076,1.30974454418361,1.36420768039518,1.38655196759186,1.65222,1.37807963066384,1.23818726951139,1.22886795472179,1.22738071278672,1.26787008683211,1.29302960518737,1.33553226857004,1.66193,1.35938316184281,1.2023473481887,1.20261169939416,1.16040000000048,1.22512529854478,1.22258754390451,1.32243530613605,1.36844000006648,1.31882405058866,1.29632439803602,1.30122794012928,1.27420999986927,1.31801647440284,1.31640515009503,1.41064590259373,1.72485498878496,1.7165163835779,1.71613387758291,1.49195929349996,1.43601000000027,1.48771233193704,1.56400999912781,1.57751175720261,1.59891999964083,1.66177311814203,1.88674,1.45928039458079,1.39985049429279,1.39831326452695,1.37159001699587,1.38696910416526,1.48023386069915,1.51065818859322,1.55821622062086,1.55497265688094,1.48753872293125,1.48546636502156,1.48212502366064,1.45785673670318,1.42502999947914,1.45958349836946,1.46368485454313,1.52653922826658,1.54190479976856,1.54199370831307,1.47715845329669,1.47695392135759,1.47650417475926,1.48968842101918,1.56500885103264,1.56424008834332,1.78311,1.66330883700826,1.52762525813232,1.52406096028954,1.47401489722728,1.49101678498872,1.49274401535017,1.54440648046688,1.6871400008161,1.66430655339316,1.74785,1.62241440496645,1.57841742422932,1.61502815859727,1.63566926404421,1.63605582520472,1.69123541161011,1.68927353408664,1.68879032170243,1.63262043473635,1.57278636329074,1.58121314727056,1.58779492934618,1.64783353820908,1.64569043942534,1.74227081426214,1.74453514033912,1.75140744165873,1.7501711821681,1.75454746182255,1.92005896440717,1.92303374753771,2.03254113811939,2.02789431903131,2.1831,2.02249621944353,2.0223518427574,2.00454686863152,1.9823195933712,1.87619873001345,1.82722999917253,1.87518082088465,1.89690906755645
1.44485477726984,1.54231008698339,1.543384798675,1.52038012790706,1.43836915795641,1.43260695400389,1.4299691823608,1.45856665350783,1.52500397326852,1.54886868536924,1.62444672409124,1.6239293697536,1.62362735039827,1.54584630738079,1.52713700475005,1.4662228614591,1.46866347708772,1.49798458449438,1.52294010056003,1.61236014300601,1.61263713748347,1.58210976925523,1.40891291950134,1.40185725581022,1.39014200941127,1.42431579840543,1.45978675705827,1.48955919606922,1.54673658026823,1.61141341482453,1.61032368383983,1.57058114864785,1.33308565155167,1.3260335640508,1.31582219729969,1.34821887054713,1.36846542437884,1.40438317592728,1.45473419894555,1.44540473054323,1.44037518040159,1.33738230754636,1.26948048009309,1.28800006811592,1.28709314573109,1.3321139209315,1.35565375989109,1.40157433141101,1.40192168165709,1.35099620003013,1.30743527750594,1.31461109880535,1.31713329003336,1.38894591120648,1.45227330601872,1.49330008593656,1.49408988942842,1.49352103111804,1.49056986734636,1.48256728388906,1.43225274079545,1.36298833384159,1.35836570415566,1.40513253225236,1.44214016569109,1.66760106814407,1.66877636022345,1.66765950997799,1.46761855480669,1.38651641804613,1.27606214559184,1.25253194549667,1.25232060586617,1.31848271432861,1.35245315831139,1.37580266914547,1.42664706780786,1.36627571065614,1.23376971201516,1.22961931179881,1.22887918531432,1.26891141433953,1.29888410750648,1.33237366339296,1.33829159876774,1.34895415562212,1.29476844840614,1.23075572202398,1.23033916767623,1.22742364079953,1.22425769175961,1.32098699282216,1.32097004675969,1.31894123525836,1.30884190480367,1.30703504273187,1.29716086697704,1.31639286548346,1.31489584913061,1.395285536199,1.71698688564107,1.71730069293223,1.71747577037764,1.48985866399005,1.48603488221998,1.48668418465041,1.52608163717207,1.55394063902071,1.63956710694363,1.67848079535073,1.70126072921887,1.44562370379007,1.39841703019157,1.39564207919792,1.3919916819172,1.38950569091416,1.46967388328602,1.5090398553799,1.55175015028061,1.55196066113523,1.50786492911022,1.48379338200838,1.48451358594612,1.45859677837968,1.45931807007072,1.4592552779331,1.49922260109874,1.52473131602266,1.54293793231888,1.54343348560009,1.47723198754228,1.47709705958496,1.47690584381477,1.48428892668815,1.53167453739905,1.56251271593706,1.64032389829829,1.65280091512535,1.58696069821513,1.52166183809003,1.48833803466767,1.49313117788346,1.49472503257111,1.55138480133587,1.63495837565479,1.64804114810171,1.67225571248774,1.64973273162454,1.63778571172102,1.6263556361908,1.63085973525531,1.63671884929103,1.68900743862371,1.68821251642689,1.68779508337826,1.6231493367545,1.57448701590523,1.57651868784816,1.60401959648594,1.65405426599166,1.69446518407839,1.74728900390994,1.7498907303524,1.75318306382218,1.75499492630885,1.75692063274581,1.82500740330766,1.92411293692617,2.01690052233616,2.01680644580209,2.01585792095253,2.01402924915518,2.01696999258906,2.00553383831116,1.97301380951063,1.87548440413223,1.87104301830673,1.87285243477228,1.8813560184966
1.44848258919558,1.54366668254599,1.70188,1.53091391445806,1.40992121105172,1.4159611648833,1.41055216602062,1.45994348633481,1.56024311090653,1.56258277251162,1.62536505177889,1.62415194736135,1.62372528203286,1.55073537407784,1.55120732059954,1.46212613073738,1.45755604943847,1.49250127405962,1.5149121982111,1.61282098099501,1.74888,1.58369864948992,1.38256605025485,1.37564226425841,1.35628150429777,1.41323033410064,1.42663000077255,1.47967412388593,1.51068997938065,1.61348167450777,1.66539999999979,1.57153000405443,1.33567851380834,1.32427903821364,1.28672498323765,1.28969623906366,1.27469999930942,1.39022475188094,1.50914999999978,1.4403999757266,1.43139392978522,1.33474023701817,1.26203559162378,1.28663292726862,1.28372687924329,1.31752078085477,1.33964999966053,1.40752389904226,1.41646659424794,1.34318087997612,1.24267000000029,1.29590895927493,1.29429605510696,1.38130443385364,1.51108003016561,1.52488316590818,1.60682000001264,1.59090490985854,1.59997998147355,1.49232118455808,1.50469941495633,1.36343758693893,1.30829000000035,1.38412529634324,1.37442040719477,1.66403458013885,1.7132,1.66411172375821,1.41594000000033,1.38722869779174,1.25740370500353,1.25494516370094,1.23610999953964,1.32681141980195,1.34099882194381,1.36600306466588,1.60333,1.36369721947043,1.2060835648562,1.20590931195771,1.1848799998729,1.26981751656771,1.30602511187314,1.3297704696463,1.32759760638719,1.37734673323847,1.65268,1.23454299685381,1.23276614085722,1.23012671496855,1.22265948505706,1.31922818789511,1.32346712261674,1.3489194304386,1.4206800000648,1.34028682339679,1.28722147599249,1.31428053245095,1.31094059184223,1.37734337719065,1.71716119216346,1.71824306111559,1.72107718781793,1.4883981659132,1.48598522564988,1.4826034845962,1.39926000000025,1.52167841372053,1.84665,1.7012607130437,1.84513,1.43336640706504,1.39017331044436,1.39277480502828,1.3918819505287,1.39034042840775,1.45977584133976,1.50816218442986,1.5684000013055,1.54867347978524,1.5241038036283,1.48211787208411,1.48849636283599,1.45950929249685,1.45986899589283,1.45981238646935,1.52687283704313,1.52372637189603,1.57136000060142,1.54475228080184,1.43100999996354,1.44041198213783,1.44488914314288,1.46851538982797,1.47201905270834,1.56130402959733,1.62017005517752,1.65855254128738,1.79553,1.52099487021086,1.48173982780218,1.4958362105656,1.49820696110776,1.55818711127859,1.60948608612704,1.63536723869871,1.71917999999945,1.66648041257956,1.6936000004364,1.62165946092757,1.5848499998173,1.63718118764873,1.72644000010232,1.7085609135449,1.7165366143836,1.61116473785809,1.55683001476322,1.57370065974681,1.62995998453897,1.65854171318083,1.80927998578439,1.76790120375488,1.76976202994732,1.76707866965675,1.76711609716968,1.76198160613801,1.79261002793566,1.92505783893779,2.02038158830302,2.01772005474195,2.01793192097512,2.01314622867143,2.04887092944093,2.00891792051451,1.96528502888328,1.87525926071363,1.84389745855315,1.87034825228626,1.88437612735687
1.45160093767219,1.5478038177385,1.55146179061788,1.53930655583623,1.47125079835706,1.46904837558977,1.46434225085783,1.46298574803909,1.56253972944827,1.56416988789486,1.62446121400433,1.62394385500719,1.62364183099184,1.54985232472285,1.5497516352492,1.46024131407472,1.46060858496671,1.48509282919543,1.51676944944747,1.61311437718592,1.613273616486,1.58421694392965,1.37565074282248,1.3736477953494,1.36742392970743,1.39746809838757,1.40334006872288,1.46760776926533,1.49989349143188,1.61413397228744,1.61415362903759,1.57214787390886,1.39023879908713,1.32270457066178,1.29467440205857,1.29245181996443,1.29043988516216,1.37941245624162,1.40001226347468,1.40852630596455,1.4263777366422,1.33134116671688,1.28512902797206,1.28655233095736,1.2859811351161,1.30187698830682,1.32103083124734,1.41193199523151,1.41608485877882,1.33560776255087,1.29952008555108,1.29732655218087,1.29557127399228,1.37342671720899,1.52526304796039,1.53237206640165,1.58404896939888,1.58446152289037,1.57014920087613,1.47197479818717,1.43001555380415,1.36365840707419,1.36368195512036,1.39060163963034,1.39269043739429,1.65800258289447,1.65393281015703,1.65804714752709,1.44948373890978,1.39004231587234,1.27815991914973,1.27895457664162,1.27926011815721,1.33166092878679,1.34294073908992,1.35774782324276,1.42203414514309,1.36181424872138,1.20590282143269,1.20510165688962,1.20199327114739,1.27063430364444,1.30890046221452,1.34018329837153,1.37724900124234,1.41069337630583,1.44715906682173,1.23652887003556,1.23238696244389,1.23027297088102,1.22568780354036,1.3170077427587,1.33374170899351,1.36948407931461,1.38299623102774,1.35725374797269,1.33854568888843,1.33735034857344,1.33509164576244,1.35519344948576,1.40925709039371,1.45184353555574,1.49236420273965,1.48656985305739,1.48467737293881,1.48070305096829,1.47544957700165,1.48251477274276,1.48935499209855,1.47808919215685,1.4617854480494,1.42275629724644,1.39206829896907,1.39246740032501,1.39132324540067,1.39013669474493,1.48344475123695,1.5081312334916,1.53993911744508,1.54463350533219,1.52902749915755,1.47393268852517,1.47327453728264,1.45937572709801,1.45991707446547,1.46005846103437,1.49957569798345,1.51705236496613,1.5466883539472,1.54556104757126,1.49669331645842,1.4379889711623,1.44040573730058,1.46564461569835,1.48952921184295,1.56060994401022,1.64715195990902,1.66167937151425,1.70090474674606,1.52281321504719,1.51384913845433,1.51783749648992,1.51948310286834,1.56391195898147,1.61418662231313,1.61905192286744,1.61800955655526,1.61764076458822,1.61725754195806,1.61606482563845,1.61490702438901,1.63791010004326,1.66708013509078,1.66101424902234,1.63031803387438,1.59451234396999,1.56453041676467,1.57150818631588,1.60138138142608,1.66157480676114,1.7934553270177,1.76679352339437,1.76721224469908,1.76626477308073,1.76497848997996,1.76311505370364,1.80718109168739,1.92609801087409,1.9262908065546,1.78734717457154,1.78734717457154,1.78734717457154,1.96564126295548,1.96592178935028,1.89522901802217,1.87528123223418,1.86798335238012,1.86872305023797,1.88120566450363
1.45472013818276,1.55150141028174,1.77388,1.54593274411391,1.47342613848962,1.47190997607714,1.46139493585457,1.46624368132006,1.56871491771794,1.56674287651053,1.685029394513,1.67957100087249,1.6920200006865,1.54915590413931,1.54813398561554,1.46002736782985,1.46257851494635,1.47854281610338,1.51864692074948,1.61297477948224,1.73702,1.58403759132631,1.3404700218305,1.35351201327777,1.33934001127849,1.38486608285625,1.38976136151964,1.45396516945066,1.49053002055701,1.61263453099546,1.6121032767384,1.59976020186177,1.58973535229816,1.3210046671722,1.29659749622473,1.29475244008698,1.28812922648398,1.36955512801069,1.38823982992385,1.39640422716137,1.44331998880845,1.3269997340199,1.28229548510595,1.26261051729097,1.23512047076335,1.26188716731673,1.25936641406827,1.41390163416137,1.42834999999943,1.33504566130805,1.30158785446231,1.29801537513738,1.29492868012493,1.36699622931049,1.56158254937842,1.56523125551978,1.58307379827585,1.58422114446078,1.54782071466618,1.4595303783699,1.3743281562713,1.36281141908324,1.31650000000056,1.39281756034138,1.39371814324964,1.65258866333395,1.64579544579476,1.65261560756609,1.46880000003141,1.39418249495803,1.27618302646078,1.27812443997052,1.27838628062905,1.33309105720942,1.34482924859119,1.35181410968987,1.62364,1.35771730827872,1.20604501649521,1.20591271433118,1.19831155145387,1.27131340486648,1.31170358226867,1.35026230874913,1.47890000008978,1.44380745565067,1.62346,1.24549198407058,1.25149876041662,1.23403879380628,1.22299275024984,1.31443641689986,1.3445191669883,1.38290212482784,1.57386,1.3704632538153,1.33973632158644,1.3382615658325,1.33162624130984,1.33791523224714,1.31533999948511,1.42486622980464,1.49636033994247,1.44759433695671,1.41297336569534,1.44293202241388,1.46900391313762,1.47642819234442,1.51469996237111,1.46955200644222,1.40727983534425,1.41457185378113,1.36793960078654,1.36976302377931,1.35480348549848,1.38940423743555,1.49650044550341,1.50878066598987,1.53485932308723,1.57014223183144,1.73185,1.467287947426,1.46422118863617,1.45924322419421,1.43977210162277,1.46097417894561,1.47992487010675,1.51158765445873,1.59634000067611,1.54855765261527,1.50930000040795,1.4358563465518,1.41733000000052,1.46357970238893,1.51999000120729,1.56034377766306,1.68275131124005,1.68216610938255,1.76639999999976,1.52696138152971,1.50947301797876,1.51952200675699,1.52049522124331,1.56801932160246,1.67230999999938,1.62224779095312,1.57607005726278,1.58091419933907,1.54891000000074,1.61349938998236,1.6129554948625,1.63952437866543,1.68608998060059,1.65461373669549,1.57020723112856,1.57265272792039,1.54836511879035,1.56913332790073,1.57988485307698,1.66372249622978,1.9105,1.76653505908365,1.76786622383886,1.75974346148945,1.74045185439373,1.75651082133783,1.81663923559056,1.92674923811272,1.97187,1.78734717457154,0.00415668,1.78734717457154,2.09678,1.96647181019598,1.79401999903571,1.82333798157949,1.79020999938283,1.86428752855822,2.02403
1.46812574698862,1.55397251830544,1.57605434970708,1.5541253462828,1.4734356396793,1.47343028070713,1.47371629173824,1.47104097940074,1.56843547650366,1.56752519057479,1.63941784752004,1.67656918036118,1.67822026056907,1.54773256137554,1.5162409753198,1.45903902633837,1.4600008643565,1.47279593369654,1.55547098312455,1.61234260259487,1.61858712751902,1.58325702164097,1.37870276823994,1.37908514652485,1.37921778357379,1.38387847645712,1.38485657094164,1.44086848364906,1.47132243830935,1.61008323966849,1.60977107102823,1.60646340284958,1.39088128468394,1.31898386669854,1.30850587320393,1.30659492336518,1.30573041708959,1.35805015062845,1.38289198491018,1.3879248315617,1.41118707926336,1.32165773074984,1.26320091508125,1.25276385660288,1.24216940052528,1.26420060507235,1.32952947873423,1.4129619579717,1.415866693877,1.33415372882438,1.30009800416261,1.29843060163566,1.29681220314273,1.36025501771798,1.41646468448889,1.5679197623651,1.58408675661659,1.58453314739354,1.56957011446098,1.44630456817363,1.37994104518191,1.36234698650686,1.3622648497032,1.3971462393043,1.44475868003881,1.65378885225024,1.65127638612117,1.65380753654645,1.50989446142814,1.39812411047274,1.33932395759857,1.32649240724828,1.31022019403588,1.33633918641094,1.34790042972261,1.35073000416459,1.34989204453424,1.34917462253668,1.26319948497205,1.25856114017783,1.25705502637079,1.2717120601906,1.32189581034252,1.3616577649488,1.44646815558313,1.42684850070826,1.41199611262266,1.24150854877949,1.23885202017564,1.23761716033572,1.23860509870753,1.31186116338986,1.37370152752087,1.39711460458679,1.40809532263221,1.38811897427247,1.34759494666001,1.33922295044699,1.3398014040768,1.3427266166354,1.34533278442528,1.37833659707124,1.38636841027283,1.39498458903364,1.40321075610426,1.417942542322,1.42043164161447,1.42569118838994,1.43967590029452,1.43927530267634,1.42970414869886,1.42139126435579,1.3697695344531,1.37072429083624,1.37283293013819,1.38959517882465,1.5036082727875,1.5097780438574,1.56034531240104,1.5844695113715,1.62971944588118,1.46305950666404,1.460220365792,1.45699214493833,1.45019292781058,1.46190178792904,1.47110000961635,1.50667237235467,1.56793177393159,1.55159713628636,1.53508369217105,1.43688269419302,1.43872138624796,1.46210708947078,1.49042135482054,1.56036769618877,1.6696097219482,1.68143081420036,1.70694599856912,1.53258668715813,1.53212112231871,1.5421007656122,1.54460436434343,1.56969454054057,1.63056239639746,1.6259729778551,1.58091372631161,1.58295343032596,1.59189406819612,1.61069791286951,1.63192632024823,1.64244207158111,1.66460076411956,1.64909017354313,1.57413752118445,1.57436482507595,1.56026330832034,1.56623135340918,1.57315110541057,1.66583872155852,1.80767940915267,1.75987248309463,1.75684644799687,1.75507007448967,1.74927744258547,1.7546350628625,1.84828409641187,1.9267084220728,1.92739370796106,1.78734717457154,1.78734717457154,1.78734717457154,1.9668060769794,1.96721863988993,1.83078496161479,1.82875116056875,1.82746578721778,1.86072719745119,1.89476678328476
1.48210999965479,1.56269844444119,1.66091999999967,1.56690323924146,1.43640000000053,1.47515049974359,1.47692696267452,1.47430300538179,1.56970994477677,1.56841980620896,1.61409001987035,1.67232040024199,1.75706,1.54931325843838,1.44967657734966,1.44792994468291,1.43860558428559,1.4717264550898,1.61803924948958,1.61177210475056,1.68898999999998,1.58201999993595,1.37738100539345,1.37779961211735,1.37748976181059,1.37594370766862,1.36537314212792,1.42999670874207,1.44847999973617,1.60693278138551,1.68987,1.61735614968557,1.31246743775191,1.31663553179233,1.32208129695534,1.30593356410028,1.30375220697799,1.34621851677623,1.36837003787013,1.38050223695364,1.50457,1.31555248419241,1.23469441035148,1.23518432154611,1.23608506787847,1.2671465699308,1.40274715564425,1.40861612484937,1.53112,1.33221325652131,1.21436000000049,1.25977669646481,1.2652210455546,1.35710862655349,1.36490000000034,1.56913154355804,1.61053999999938,1.58985853813392,1.59327349086776,1.43365045973614,1.39959752235111,1.36164772434779,1.36260894316455,1.39980259514535,1.70949,1.67752161600751,1.69312,1.67539323196788,1.67589991506653,1.40315180632878,1.35406000094711,1.33868840233033,1.28438999937068,1.34120836970608,1.65315,1.35405971534915,1.34044673435564,1.34857860856102,1.26569581598228,1.25775508392443,1.25359217023226,1.27163510705232,1.33226277478451,1.37341254843968,1.57852,1.40622286531624,1.39259999958373,1.24047726877594,1.23798677127259,1.23846315095736,1.2389478754028,1.30959288342282,1.48404999999975,1.43740468983257,1.4364113580098,1.3995403823298,1.35736745583685,1.33878519454774,1.33823843518642,1.34397677531426,1.34910300441578,1.3678574780714,1.36554881308913,1.38411940125624,1.39434464857993,1.38106128855541,1.35774770705636,1.42375207397863,1.44004406008062,1.43855641551379,1.83785,1.42775170702952,1.33704999931776,1.36943444474271,1.37422199846616,1.39000420601137,1.51220248032264,1.51100607194115,1.5932351065522,1.59860125332776,1.72737999999998,1.46048472748998,1.44331788358167,1.44041430883707,1.43638242095378,1.46261143618672,1.46519800077984,1.50241667836782,1.62814627528296,1.62823091159605,1.62897536619409,1.43866394379558,1.44253170306583,1.4609253927138,1.45916553256829,1.56047108761231,1.65475880453494,1.68044863536238,1.88327,1.538165323565,1.52815748979137,1.54460467065317,1.54658600029575,1.57087884342734,1.63917818429606,1.62940220156126,1.57132298010805,1.58711991015955,1.59971702250521,1.60797889839031,1.64942752112472,1.64656269216686,1.69559999999911,1.64218315287393,1.57728800952523,1.57537909766033,1.51943000000089,1.56301332590484,1.55802859796187,1.66831687619552,1.99244,1.75773084984011,1.73368118475454,1.72637540459389,1.68153999900621,1.74376423945693,1.92101913396977,1.92457286543825,1.92612858745606,1.92144664115317,2.05286420890862,2.03171877963785,2.07414,1.96820221233417,1.83335734608561,1.82835521641406,1.82661606310082,1.85430579746844,1.8799001265716
1.52482780467787,1.57898326684812,1.60939326376457,1.58589436303568,1.55032167007275,1.47676018013166,1.47600196570299,1.47547607597882,1.54125893086807,1.55283403181582,1.6364816081387,1.66763841071701,1.66956683818854,1.55201071101198,1.44791533800339,1.44607750608796,1.44233507383983,1.4642719846567,1.50051286674462,1.53557301879563,1.57978553019358,1.58068905835695,1.43201922949716,1.37644038442661,1.37600316976389,1.37380926351598,1.36988135104014,1.41980437952501,1.49860951492698,1.60196628639514,1.62779055932881,1.62399902846949,1.38613267234972,1.3129267574221,1.30999712366194,1.30631179234091,1.30548747377863,1.33518208438644,1.34089502690421,1.33346599039729,1.3209291220388,1.30852361741286,1.23513545336706,1.2349438342145,1.26865521316898,1.27258811708044,1.38441994908532,1.36124382413812,1.3466010178914,1.32912459726575,1.24935995955936,1.25618319402766,1.27729770756153,1.35480022267443,1.39546708481117,1.56873347087818,1.56997094154921,1.55992535244439,1.47076467379852,1.42377248996454,1.38314040325201,1.36062993885282,1.36099338535554,1.40278235217138,1.47216296310064,1.67446590518624,1.67753612624498,1.67405320131452,1.50504424081021,1.4090943199162,1.39227869521045,1.3407065309049,1.33713352231917,1.34650597459706,1.35789225277531,1.35654471792289,1.35684634244408,1.35524113483766,1.26374757393124,1.25861825155566,1.25711413983446,1.27091772618859,1.32900323687562,1.38510937107472,1.42662373191382,1.39414981141666,1.31874526667052,1.23981221825646,1.23885508954738,1.23714851077688,1.25936618046098,1.3077733351195,1.36606816954571,1.43778641245057,1.43740503393256,1.41085647756429,1.39490457535639,1.33937931569723,1.33955059384923,1.34574662501995,1.36398024637339,1.37038851764266,1.37299434870927,1.37666213790725,1.37099204129978,1.3685754244678,1.36687647215507,1.40650480290315,1.43344153708238,1.4362795913271,1.49768731688323,1.43333540348897,1.3622278682919,1.36664541441085,1.36773246827552,1.39028558185884,1.44717421180388,1.49713272118046,1.59848924295251,1.60316661527146,1.65587773441848,1.45951952839942,1.44150016589988,1.43983870226404,1.43826257712236,1.46284225973415,1.46347294077071,1.49884288926937,1.62779352247532,1.62790471449569,1.62820806793851,1.43844187734075,1.43976015732284,1.46143188851977,1.46633124611386,1.56036231557709,1.66608403173254,1.67921069509443,1.71187552925933,1.54373595769544,1.54667886793399,1.54760864475112,1.5566464989852,1.57247299359852,1.63313851099439,1.63239902568506,1.59029438272646,1.590779385928,1.59418116091183,1.60556301960617,1.64883845767237,1.64836014528877,1.63628814872364,1.63391917945109,1.57528401438351,1.57526723439468,1.55304250787251,1.58880765792326,1.6207345063509,1.67116222650938,1.72059872619583,1.7531726168149,1.74625363084619,1.71881965255368,1.71275876651268,1.72977098974466,1.7542799260209,1.79001906067883,1.92301555345213,1.92054691924544,2.00705416859256,2.0104435170944,2.01389766277088,1.96742194553854,1.87356982082595,1.82577393693195,1.82534981564136,1.8497155503563,1.87048342837098
1.63788997211671,1.62636298684112,1.68970598663833,1.69133523535623,1.79003,1.47782304145082,1.45350000000088,1.47681288355689,1.48124298495105,1.54761666031062,1.64905636019608,1.66031662171871,1.70964999999959,1.55516518799039,1.38041067176475,1.39035494679422,1.39246976229053,1.40723839940097,1.42488996468112,1.5069633631668,1.6126100004359,1.58525559435426,1.68184,1.37490124482365,1.31643388231577,1.33643115655586,1.34313571139398,1.41257634501908,1.5880655783818,1.59546470031063,1.6787886380526,1.66616727229519,1.6659370628155,1.30942248011142,1.28506861841437,1.2862640767159,1.28623956357563,1.32406534269734,1.35391912222351,1.32630500078368,1.31136494278446,1.30056107070692,1.23597165215822,1.23483830872683,1.29043373266195,1.28572204921364,1.41252999999957,1.34565563465435,1.33352000598451,1.3250105540209,1.20569000000051,1.25358730919378,1.29512994826717,1.35153152061979,1.41545000006103,1.56561018572533,1.6823,1.56017933677983,1.42635000040662,1.41447728138074,1.32887999880603,1.35236719393059,1.31774000000058,1.40726135954375,1.41316377913338,1.66559596034852,1.69172,1.66682275965622,1.45343000000034,1.41610425542023,1.43735651970397,1.34481482298684,1.3338926901441,1.35163432469643,1.35890381698291,1.40857577207227,1.6364,1.36166773119499,1.23813002167369,1.24109544784024,1.21007999953634,1.26952073984132,1.32577507097327,1.39690873284395,1.58791,1.37978935346467,1.21353999956084,1.23032566037515,1.22203062493893,1.23484871835418,1.2821399783896,1.30637883478181,1.30526394819678,1.45178515068999,1.57547999999991,1.42706215818452,1.43373655322028,1.33946750740862,1.31755000000076,1.3487217806755,1.65189,1.59706137268697,1.74135,1.4323456586223,1.35373972728193,1.35133492430863,1.32303999968115,1.39079370945493,1.42955402240062,1.43652679625696,1.65753,1.43797451854662,1.35707082930496,1.35287760210079,1.32890000403711,1.38295270636517,1.39039387708891,1.49102490836977,1.63006601609081,1.61341818156511,1.72761999999999,1.45944943582148,1.42384858128156,1.42296900195818,1.38556000000087,1.46245612612513,1.46175277630772,1.49584611283764,1.75964,1.65851798905164,1.7564,1.43871015442593,1.42981999938752,1.46166714363157,1.47536409990331,1.55968329433385,1.67617448721741,1.6777592814535,1.79682,1.54663665206939,1.54663209010278,1.54828548677559,1.56273026705068,1.57483960162495,1.65166000089125,1.63416598438982,1.58966684166817,1.59086346050647,1.59182071195896,1.60377273436489,1.66506997692745,1.64975504760523,1.62296153913983,1.61998697914327,1.57285142101406,1.57434314330228,1.52605999977028,1.58986438749836,1.65479999990245,1.67446709627665,1.67811819610001,1.77420756580802,1.99617,1.70961323570344,1.64481999902871,1.69886437504902,1.70903999475589,1.75568921925938,1.92519452998945,1.92093002474091,2.00355818765984,2.01369875640776,2.01977031075315,1.96396184550669,1.95333772272551,1.8240894070081,1.82402526474443,1.84456066111954,1.84715718974483
1.57463091163865,1.61842995247675,1.6919907716168,1.69341915467838,1.71719953225004,1.48031135390696,1.46808997969543,1.47409265707811,1.51526479748771,1.54574538470591,1.60635675211106,1.60692158923231,1.60778861015572,1.55811752140935,1.38291313170694,1.38796539531925,1.39036080285189,1.4010209179911,1.40817850149744,1.48115821754906,1.55452251199174,1.56582281541772,1.60453504909059,1.37286796960508,1.32693555094804,1.33390218234454,1.33643721265782,1.40534596621944,1.44294039740676,1.53156993630545,1.66827399865562,1.66723316331871,1.66696080125062,1.30663454796809,1.28639641015492,1.28686688153652,1.28698201858104,1.31350342592013,1.33346379081031,1.31948609099678,1.31084761262341,1.29192271255197,1.23496192360282,1.23403285728618,1.27069447411169,1.28199669004865,1.32037026743794,1.31866215587369,1.31781002671993,1.32006228107118,1.24450382287466,1.25143415912412,1.26991182078513,1.34677021016239,1.45678922501831,1.56079344978792,1.5633211995181,1.56019023597715,1.41045228249446,1.40478494237396,1.35063952907595,1.36411007953192,1.37785899386066,1.42611567136604,1.47216286073841,1.64957898402131,1.64983975457191,1.6512421149092,1.47690790471605,1.40704916394484,1.39565898824895,1.35048101913031,1.35345403395744,1.35373384201225,1.3939381782184,1.42932094787942,1.47173232846601,1.36557281815579,1.24177470596292,1.2431909941139,1.22358391103351,1.26758677301004,1.37033139803654,1.40907461359164,1.44344175942512,1.36556960519478,1.247548566261,1.23475466434636,1.23092836547379,1.23344864778572,1.25834919253387,1.32580390411849,1.36606867977908,1.47951306139693,1.50903851151221,1.42032486330099,1.41626658290174,1.33983130140527,1.34074136643571,1.35244622232549,1.42539539061221,1.59447737827927,1.59706137169366,1.45541228285264,1.37991540064287,1.34985151175756,1.34715296078153,1.372158190683,1.3924892718047,1.4361838120772,1.44216371580896,1.4415034655641,1.35287863970225,1.34843443479773,1.34440421214433,1.37594793907224,1.40722715916233,1.48473974666078,1.59572607106516,1.601966811634,1.63026971671338,1.45960415244958,1.42296395263446,1.42155478993401,1.42108782974003,1.46224333839765,1.46479040060922,1.4929903637857,1.54860893720552,1.52424598462699,1.50888999539538,1.44074619861128,1.43699399549469,1.46151165354798,1.48320318623665,1.55808989828014,1.60063474057098,1.60048766677101,1.57421807707154,1.54752801917297,1.54826437918791,1.54843851493551,1.55836991631343,1.57762556872896,1.63569465938081,1.63571222354331,1.60733959370594,1.60500461282325,1.59929975942678,1.60284704681181,1.65088885099586,1.6507178915424,1.633609857982,1.6172231402803,1.60837502111604,1.6052038480815,1.60336541576236,1.60544000928115,1.67670692381324,1.69952445884976,1.73442375175876,1.78799101069532,1.80163418243332,1.69756717676572,1.66940094142986,1.68698832197825,1.69971556637762,1.72715094464078,1.92317608586776,1.92047406497404,2.00389817356118,2.01507225979458,2.01811162934281,1.97089159839728,1.88794803822582,1.82267306630925,1.82300331489621,1.83197976887908,1.83491166499638
1.5400499735279,1.6097748434536,1.69948260064937,1.69804876556795,1.77210999999965,1.48468801874811,1.4674200121269,1.47210689732232,1.54448564779831,1.54519825113062,1.60625454085069,1.60708403548752,1.6091152514077,1.56040080327358,1.38114304268715,1.37498747071911,1.33391999994951,1.37640685241155,1.37885647571656,1.45706236630915,1.53751999917162,1.55452239186088,1.68798,1.37085468656217,1.27884860340066,1.28750558931433,1.28356872934043,1.38611980568407,1.3897823655128,1.51509882451222,1.67012286147622,1.66836136750629,1.66827183601494,1.3050872718787,1.25692271303286,1.27342192007497,1.27273510738258,1.30417294503058,1.39450999999953,1.32040873594567,1.31025439666474,1.28326784485439,1.23530863913057,1.23295572700158,1.22477000453565,1.28024792244073,1.32206330326481,1.31814924688475,1.31409160170345,1.31750788518556,1.22671587060015,1.24971654166908,1.26003190848079,1.34100877296478,1.54733592434884,1.55456936281729,1.66131,1.5592054538585,1.36702002144533,1.38920370321361,1.31215000000042,1.37689472507672,1.39498549218662,1.43810563338488,1.6605299999994,1.64840428329711,1.64373211972999,1.64756304964586,1.49857000013569,1.39923132477961,1.34361402557308,1.35011517593748,1.35732729131576,1.35759255857645,1.41597000010492,1.44760679077982,1.63056,1.36793292492691,1.24342420901108,1.24554836683344,1.21540258900737,1.26541856423414,1.44081996646628,1.4263919540467,1.56173,1.35193890694755,1.26322283088529,1.24219578334891,1.21449000077056,1.23316266703327,1.23371516762818,1.34138639054114,1.5679758519684,1.57020067846469,1.57216234986738,1.41643389050259,1.40826765625836,1.34020917763818,1.34251459576195,1.35707988258278,1.36301381770132,1.58746704235701,1.73187,1.48081729368521,1.40497000037639,1.34927076273187,1.32529900189359,1.33667195407745,1.33687437951567,1.434787996833,1.45149130284047,1.44498231431578,1.34092457285963,1.34027626004504,1.34040426854515,1.36934125515174,1.43566000062843,1.47762622133217,1.57494999927605,1.59225709173274,1.68876999999975,1.45785098483898,1.41415540002279,1.41861382916702,1.42008165868467,1.46112364664437,1.46786915777276,1.49008494543492,1.58058000024507,1.5090834929522,1.44117909685132,1.44339051372252,1.42343999938948,1.46097919278038,1.49455135824641,1.55538823637047,1.61400707241076,1.59951011738293,1.54173678979694,1.53966968329762,1.50120000000096,1.54794309410205,1.55421001877604,1.58064136408464,1.63837898481175,1.63701395816395,1.61396714435979,1.60759703306058,1.58570306567719,1.60271509979256,1.65043649387801,1.65088784240912,1.71700999999983,1.61501102764624,1.61312900747168,1.60562686974735,1.59769659110194,1.60769819522472,1.71669001168399,1.72881150995871,1.99465,1.96747154301686,1.97509773504113,1.68523116822507,1.64030465115949,1.63822022792724,1.63196723218543,1.70602914418498,1.92592288866495,1.92066782853699,2.06266,2.01693839139612,2.02583186415588,1.97730881239656,1.84858584628136,1.82090162612344,1.75899000000135,1.80432621485671,1.80307267093472
1.52736462012282,1.60103722118152,1.70137916251237,1.70067647079476,1.72687761683117,1.49119003898068,1.47078663173397,1.47079768028934,1.51627628143632,1.53987298590927,1.60610146259393,1.6066722460557,1.60753357517936,1.56192294627124,1.38951216891381,1.37056192188537,1.36576923306136,1.37366512877273,1.3818460949657,1.41866645219298,1.41895646764808,1.41874747844867,1.40753700344931,1.36935220014478,1.29411518248585,1.29063522088119,1.28612253489719,1.38284606298367,1.41508837182634,1.49935987800141,1.53303582835276,1.50126194847727,1.40230495037551,1.3051215531162,1.26433573828221,1.27398229632065,1.27426687030313,1.29612524529597,1.2991499393033,1.32037634060238,1.31548173916067,1.27352802597003,1.23241913776432,1.2302335293699,1.26105152877037,1.28016833084854,1.31078962867884,1.31700194148148,1.31613183823285,1.31768837595803,1.23485978421925,1.24806345283036,1.24843733846987,1.33496553090205,1.37934228078349,1.51622220427405,1.55405864326055,1.55658360951256,1.42773420895213,1.40998233629858,1.39200746070757,1.39180735897692,1.39189124112146,1.4503056276356,1.63488186649466,1.63767238062249,1.64229029894343,1.64512417008436,1.54053719086431,1.39265200069332,1.34718287706395,1.3501858334211,1.35403127987746,1.36111091683528,1.436110914006,1.46748252449502,1.48953867757989,1.3694055221294,1.25059327952478,1.24945387493578,1.22466551695978,1.26339920822507,1.40890051897761,1.41613911948754,1.42975364950662,1.33935369782522,1.26219258640904,1.24817358853428,1.23475009894775,1.24679530532501,1.2538195876836,1.35609823989855,1.56930752060644,1.56993153516517,1.57138960696271,1.39812632262713,1.38386933728195,1.33947299167228,1.34027277683604,1.36185132289487,1.42525182621948,1.58033705768398,1.5845248891139,1.50924673634956,1.44952096055726,1.34963582784559,1.33066701920994,1.3351112464328,1.33662278987784,1.43233063371056,1.44947443636129,1.44761019066656,1.39685311361726,1.3363451939785,1.33848133617949,1.3636342417532,1.40585708609477,1.46915119019493,1.54471879551951,1.52338551594825,1.48755634763408,1.44959008167625,1.41640602612029,1.41829032878199,1.41939235257615,1.45909444467199,1.47496770540725,1.48711089903621,1.4957800463478,1.49265508571003,1.45381648267003,1.44768480288623,1.43645398235111,1.46011651526143,1.50156743823267,1.55165857270373,1.59433568223538,1.59664881486438,1.55932558942073,1.53789248298076,1.53448359404971,1.54600691293477,1.56437867468449,1.58379130062256,1.63831210239192,1.63773089854049,1.61603509637052,1.61089373865855,1.60300553048681,1.60309168305281,1.63073513425009,1.6194419921336,1.61384777283367,1.61308369556868,1.61127340692225,1.60727678502004,1.60595097660122,1.60956566963979,1.67622769078421,1.74195359034415,1.92928152544503,1.92530641636452,1.92294127357487,1.67370378836707,1.63850748088379,1.63694904960183,1.63465755665104,1.69172740398635,1.73437402380948,1.91666298562563,2.00025127638709,1.99808175483287,1.99772418876686,1.98199416195538,1.84693520729054,1.82036837685785,1.81583620792621,1.80535117201122,1.80536126504803
1.51656406125961,1.59239745261864,1.70472890629366,1.70437392681993,1.74403000057409,1.49965905658619,1.47152831558877,1.47034071213738,1.49669237538859,1.5335032214499,1.63373447793751,1.62408641456627,1.71442,1.56280544290275,1.40016189890926,1.36708765097473,1.34400999863693,1.37025036490967,1.38469600249773,1.41891056076396,1.41842507757459,1.41898763045293,1.38749999832235,1.36863528713346,1.29699873660864,1.29411351685329,1.28340497422297,1.3800523741086,1.44140876388189,1.48407890276864,1.6553,1.47461067356887,1.35362003107361,1.3066747995168,1.23364000000083,1.27453973870205,1.27598922198623,1.2944296075388,1.29453428208582,1.3247206293391,1.51953,1.26438859434566,1.19551000000071,1.22619154727109,1.27706995220632,1.28125582850901,1.30566252117141,1.31784096310839,1.36031000089177,1.31925966368273,1.20668999972915,1.24626106209425,1.24141517540524,1.32838087004419,1.32525134328092,1.51478238226096,1.54991496966434,1.55470426327544,1.44959999973942,1.42240691367351,1.39142536034879,1.39080961826054,1.38786035410622,1.46233539189883,1.6266388560067,1.63488102248473,1.66577000032844,1.65193512776918,1.65765542279335,1.38683397471579,1.29145001826258,1.32006573403809,1.32284659592985,1.36289983065815,1.46123999999069,1.47886459539185,1.53753000080445,1.36981689545008,1.26423336187587,1.25296817314131,1.21661008382543,1.26192008216127,1.39346006935912,1.40890365668443,1.44990000052345,1.32540449992797,1.2612472479911,1.25385584275334,1.21595999925043,1.25374528060957,1.26757780248616,1.37022388335776,1.58033123794296,1.58055851850291,1.57968460342667,1.39217761494817,1.29949843853284,1.29831618760559,1.28621325443439,1.36569618727437,1.55255045068427,1.57307386163005,1.58591000062576,1.54303134529024,1.61908,1.35027957513581,1.31707345309656,1.31984936932582,1.30291001427216,1.42919245353688,1.45661260961566,1.4484129852583,1.72629,1.32918700845819,1.29489000000047,1.34892868283541,1.35327989217688,1.45918342132865,1.58713999999964,1.50595379837671,1.4268747268676,1.41719734272908,1.36984516482879,1.38468781501675,1.38559467449373,1.45643036336665,1.48302827504919,1.48416239721603,1.50294941299724,1.48974054573339,1.45810005489044,1.44806319727006,1.42939376184982,1.4589827299622,1.50852263775195,1.54728837835967,1.59070243423521,1.59433610073007,1.85097,1.53645937605237,1.50740999930904,1.54346208426948,1.57819426064291,1.5870599040491,1.67620001603602,1.68919108017073,1.82439,1.61120523706083,1.6030497007903,1.60363694180593,1.64470905841481,1.61386870144708,1.59641152628027,1.60493701588621,1.58922104669986,1.60599073579202,1.60414614810173,1.61271382313816,1.61623011938695,1.75998661843406,1.93957644730955,1.92806620893945,1.92582218733285,1.66317583941599,1.56651602868514,1.57724069348585,1.57614656537791,1.67898823233162,1.68025975976391,1.91592709190716,2.00681745873724,2.00116286293666,2.00175648818884,1.98426479917345,1.84530584619764,1.82131310648439,1.82322999903203,1.80180553693536,1.76293739515605
1.52729193743326,1.58352742745491,1.70804509182876,1.70865158803937,1.71143509503391,1.50956861166713,1.47010608610522,1.46964766548899,1.48717171744617,1.52432680441942,1.58373183763942,1.60064491879441,1.62349366505559,1.56322275533057,1.3798788718158,1.36433335584687,1.36159869094381,1.36611903610629,1.41017879490625,1.41864961183707,1.41894172356655,1.41872743375179,1.40783013822495,1.36868154392629,1.32899310578478,1.31889195504318,1.31310244216421,1.37795200813256,1.43097183215801,1.47026478347799,1.49229021288798,1.45890784129593,1.36714222084,1.30925524645627,1.2752199903969,1.27377835108623,1.2747362049644,1.29375648953968,1.30700370903471,1.32795115314055,1.37778776218457,1.25668521753841,1.22312148042924,1.22289511918091,1.25508521838634,1.28288894543663,1.31036827870171,1.3193728320429,1.33724334656762,1.32018227774133,1.22378981208597,1.24881478591328,1.25044735112194,1.32757767345993,1.36825603376824,1.51532841227285,1.55373748776063,1.55589146396607,1.46516757526792,1.43897498424176,1.39190967792585,1.39125245737054,1.39016800937724,1.47579935300685,1.60091221894739,1.61121093441543,1.64016182517331,1.6459013788985,1.65088429161346,1.37902225819702,1.30355297341186,1.31686692963842,1.32724866606251,1.36503433541881,1.47771669515962,1.48936506689978,1.50925683547404,1.36928127838169,1.26399181535997,1.25526020421363,1.23765264776776,1.26133288621273,1.31545806430324,1.30979897878749,1.30690285668909,1.30509122531862,1.28033513527789,1.27364493851097,1.26144079914232,1.27125923206625,1.33172942812253,1.38377921057645,1.5027909626448,1.579809148714,1.5801603741178,1.38169459818607,1.298320807732,1.29638219025504,1.29163788246089,1.36832367947773,1.55205313600788,1.56536482030939,1.57117069616811,1.53096032839541,1.4102417576567,1.35090713449959,1.31984296229099,1.32176933647744,1.32320605388405,1.42483418351826,1.42808848440942,1.43372949898961,1.4875411481374,1.32339309516502,1.3201401327218,1.34500632407393,1.36904567646621,1.4480989456603,1.49240041527757,1.49418708992234,1.4707123387578,1.40895529985065,1.37686449436776,1.3842162615222,1.3840998322532,1.45349037676782,1.47759510377773,1.48118896620578,1.48167286968738,1.48646061468099,1.47089249046065,1.44767609510804,1.44720114258571,1.45750833335858,1.49349474122805,1.54287655092596,1.55632589437558,1.56318873196842,1.57611925765145,1.53532937584958,1.53504898652286,1.54128068098997,1.57546198223458,1.5904607482998,1.69058857030529,1.69618479763974,1.73912235040667,1.61315140111624,1.60393642000644,1.60474510753214,1.60656631721728,1.60825300077049,1.60915942813709,1.61030875826108,1.61131152935072,1.62179637878269,1.63416011321209,1.65013497111146,1.70980296592573,1.77109386868841,1.93581691310698,1.93065301412527,1.92649033875135,1.64514020593094,1.57866681440381,1.57765792046287,1.57644443950318,1.67021016435804,1.7344253684611,1.9056205798576,1.92618951767453,1.97108884321725,1.98315927661071,1.98480549324598,1.88551370573807,1.81339200457075,1.79945357561157,1.79477781863502,1.78273123904656
1.53501895790692,1.57503822195232,1.71189809476726,1.71081849097743,1.71548045252551,1.52014140457541,1.42471999962559,1.45967248825224,1.45860807992597,1.51453561637125,1.5632099989694,1.58227263913242,1.67539999999962,1.5633059797214,1.3403099993987,1.35941727376065,1.35877167432412,1.36142938569068,1.45023908284347,1.4409459565446,1.59666999999964,1.53897894609585,1.6601,1.36924712938422,1.34575408234079,1.32514777514736,1.30673544215877,1.37590400101525,1.42039136284754,1.45565360613691,1.55934999999989,1.44170580820846,1.38079874708034,1.31213171106416,1.27706032766912,1.27097337540867,1.26451753680929,1.29225620045398,1.33079850644153,1.32985992471705,1.53743,1.251338903826,1.21556431741768,1.21975610582414,1.24753795025474,1.28454876125849,1.31438544470492,1.32060646364216,1.53008,1.32017013622153,1.20707999969336,1.24943151987754,1.25142120215749,1.32575965710209,1.3943,1.5162102902126,1.56523000071471,1.55751628526815,1.48099000026322,1.45597220048839,1.36839117787299,1.37594483056895,1.36043000292364,1.48953748160187,1.581619998922,1.60853064428887,1.62678401079291,1.64011929305295,1.67579999999962,1.37206180107565,1.2640000000005,1.31293986109548,1.33174758772121,1.36804224171718,1.5905668691124,1.58597842730141,1.61727000016279,1.38176933038922,1.26382814345558,1.2579834746702,1.21549999976924,1.26193767074847,1.32125689997449,1.30679748471523,1.30396642730265,1.30386687755684,1.29180883312263,1.2803633262209,1.24768091578682,1.27531708318626,1.41769900700912,1.41796965534011,1.45773000000025,1.59328685981559,1.63451999999983,1.37008432885727,1.22637045136684,1.24067538480773,1.2437944685932,1.37071914309625,1.55063410516556,1.55879214083036,1.67612,1.52332661311801,1.35249867574689,1.35168146990871,1.3049402690651,1.32320601908027,1.32378719118204,1.41934628552567,1.40718795629967,1.43327948811956,1.61019,1.32076704769202,1.29189000000047,1.34175923877445,1.38869122782845,1.43671558680674,1.49094817740372,1.49633760998455,1.57875,1.40289069143491,1.35711999990809,1.38330049840064,1.38282332594758,1.45058795908052,1.47033880237116,1.4805211664397,1.47700040641544,1.48772376834118,1.49330802893994,1.447611561105,1.44747194782336,1.45569917754931,1.48179563642276,1.53901807094409,1.54196798459458,1.55532627227379,1.59141777378068,1.53467514740755,1.50657999957708,1.53983463468383,1.57277030343939,1.5939691008547,1.71194747957466,1.71147338326448,1.84516,1.61709329757083,1.55816000000056,1.58712525207182,1.5560200000006,1.60895986762495,1.60952586336616,1.61071728148171,1.61296197550739,1.63238115192793,1.65244474561224,1.65084494087438,1.9524,1.93223932117009,1.94114343081947,1.93433910051895,1.97959,1.62617449322789,1.5789332131938,1.5775372371778,1.57497908544381,1.66017347678727,1.87579078358844,1.87683481800196,1.87886278214933,1.96431847015014,1.98678,1.98713139355274,1.98685,1.80674488776241,1.71398227006238,1.7355451168528,1.73552928640301
1.54069875971089,1.56693059564741,1.60969249594993,1.65859862398571,1.65876687039955,1.53047657896714,1.45527345587253,1.45890522595371,1.45967248936891,1.49826376791873,1.55551152201488,1.56775471590469,1.60841424453299,1.56259680943523,1.42382565486611,1.35936452579736,1.35838698811097,1.35679277613688,1.41787063326965,1.43374309834925,1.53897888430287,1.53583449194482,1.43542906562639,1.37003636580493,1.3436975339317,1.331113235318,1.31522035158567,1.37239443003821,1.39978128457838,1.44142030917511,1.47909151856828,1.42361637561876,1.38099972077914,1.31458610366283,1.28447933439025,1.2685300659825,1.26660506575601,1.2899482360012,1.29387684227825,1.2919337240255,1.25994535254294,1.24668283896011,1.2161356116235,1.21743049177921,1.23785016435284,1.28585118126616,1.2948521726593,1.32122647224825,1.37605388945799,1.31915843492126,1.24811937794064,1.24825371053357,1.26846676476397,1.3239494474353,1.42051254062753,1.51644712245562,1.55769517545822,1.55783841479525,1.50343998449496,1.45653301487148,1.4543461454381,1.46179180440929,1.46566665174673,1.5042326734132,1.57382131600768,1.60634064385941,1.60654138691004,1.57115722813796,1.40612185242399,1.36573881136817,1.29692535045256,1.30849768052941,1.31892434110627,1.37132363939526,1.58380277575738,1.58377059310892,1.60790501766475,1.39537761057657,1.28409647538009,1.27921306831488,1.26085653268557,1.263986042313,1.2902235460014,1.30030197954899,1.30158242574143,1.30258624355843,1.29537569113832,1.29259730087361,1.28895284623071,1.29052655584057,1.3551952764488,1.41783766324612,1.50901624887686,1.60174810555338,1.60490058099442,1.36154720993271,1.23271579144432,1.23784819744206,1.24066956511006,1.37315204967434,1.43638788297013,1.55518121489513,1.55790654794671,1.51981986847204,1.36830022587141,1.36482105972237,1.32132022584146,1.33266189758788,1.3440655178018,1.42389596183616,1.42799926400398,1.43140540515515,1.40174544504809,1.32061016805359,1.31848474618137,1.3393003456356,1.39838638555251,1.42614245371874,1.49475574909248,1.49807997489558,1.50375915372506,1.3991880587918,1.388605936934,1.38968180252377,1.42195119468972,1.44795097512412,1.46468580986797,1.48338929871518,1.48619442329899,1.48858023212779,1.49103532012925,1.44846883952727,1.44976925546729,1.45367297696614,1.50829293252645,1.53597846853359,1.53551676205557,1.5304266883108,1.53159185930245,1.53497232547053,1.53931807348401,1.53898488534238,1.5556106353322,1.59742643305305,1.71052398080504,1.71072609041383,1.72989473157991,1.62773066023565,1.62882329879879,1.62899177908259,1.63133824216345,1.63460559705747,1.63845970554737,1.64243596447283,1.64605065213677,1.64894122246201,1.65021488320393,1.6494896563952,1.88009730839223,1.88159360672978,1.88783433114202,1.84997027298208,1.66166679637231,1.60743191099739,1.57883112218085,1.57786076964431,1.57638228001423,1.653122640307,1.79899737341576,1.81170366449732,1.91853304890119,1.93950818226801,1.93969200415863,1.91637357517903,1.90128935274838,1.80112959585888,1.72479690905319,1.73574867063263,1.73608379918874
1.54565363999517,1.55892442195972,1.56823998825987,1.65851043224466,1.65898216581733,1.53969405912126,1.45006087659429,1.43945734902602,1.41819206507554,1.48294610861801,1.53503999954273,1.55279084352941,1.72512,1.55970143494484,1.55744776637376,1.34304063947149,1.28811000000031,1.35094894565794,1.39205279911481,1.42639204426826,1.63034,1.53162797062851,1.37287620173829,1.37085144118215,1.34175288825062,1.33652826712784,1.30600002357746,1.36806463769551,1.38279214146055,1.42790122838649,1.60189,1.40520408852067,1.38122282023998,1.31613188344551,1.29422131648399,1.26281616375515,1.20770999978821,1.28702268384598,1.29632277246081,1.28880481365524,1.22855132778433,1.23131008541358,1.16769000000074,1.21617296858695,1.21388178830392,1.2865213998836,1.28105391804594,1.32127629881353,1.54192,1.31735917550986,1.24865280096315,1.2475810106261,1.28827975717398,1.32204537074681,1.46138999988411,1.51560024367538,1.62649999999979,1.56549132720361,1.70305,1.45848552138192,1.44484513995314,1.4656726229202,1.47168057165176,1.52104824116632,1.54682001630137,1.60462308675508,1.60578321670621,1.57075902735348,1.35577990100688,1.35320041459182,1.2748299996033,1.30421934766508,1.31226234241363,1.37520823878958,1.58299584977883,1.58260778197165,1.61982999999952,1.42060097382523,1.29448768871679,1.28405211213117,1.25796253963059,1.26550352863459,1.26457559673738,1.29965723972459,1.2991227299874,1.30886767775613,1.34660454984548,1.30866067029744,1.28554096674879,1.29148465207793,1.29223361232482,1.41709929960689,1.6098399999996,1.6047216506655,1.68158,1.35263621665128,1.22872052334281,1.23473870160892,1.23183357835554,1.37616685192662,1.3798188551474,1.55121532101805,1.66321,1.51440670548949,1.37627055541281,1.36836520513054,1.30964001790099,1.34423715782769,1.35984992957208,1.42893431242218,1.65502,1.45896806888568,1.32769488688032,1.32359203910074,1.31006000000109,1.33756596948773,1.4082018320609,1.41746516497771,1.50279750801467,1.50064407822585,1.50967883735176,1.39752756720703,1.38836541812847,1.39192770476264,1.4408601644929,1.44573221284818,1.45563460851414,1.4854979022739,1.63964995665392,1.63451038892466,1.69293,1.44942889456806,1.4523706290105,1.45159045378851,1.53314345748083,1.53376217645066,1.58325000117039,1.52457063352802,1.51606604236934,1.53261766222817,1.54573764771201,1.53715134096861,1.52960005884201,1.60051064551678,1.70869308151476,1.70986032174067,1.7703499999996,1.62785916322586,1.63081049418877,1.62794749895065,1.70737693052233,1.70703742491587,1.72260711072411,1.66028662665895,1.65224402688164,1.65034831513288,1.64910644427337,1.64824354249068,1.88190784681826,1.88009977488767,1.89788142554931,1.84742270211784,1.57449558965014,1.57328131680654,1.55965000260145,1.57527832163674,1.5755609027041,1.64567803657345,1.77147999961981,1.79639771377118,1.9405948885286,1.94007456019372,1.94064392413632,1.89727171244107,1.86977999810815,1.79348900307556,1.68674000000087,1.73595080191092,1.73714929593859
1.54495157476415,1.55153034014645,1.59686124198085,1.65857140968835,1.65850467344136,1.5471185529761,1.43931414863057,1.4360502015236,1.42811802603621,1.46497027159135,1.49465503872123,1.53139108027529,1.5604243761855,1.56041194473865,1.4055884757794,1.33935016050262,1.33772634161884,1.34655154394781,1.39426284602702,1.41927038265288,1.50932981575592,1.51476941744457,1.43561518290653,1.36961558237231,1.34830794236625,1.34873756049759,1.34916074000158,1.36378975874182,1.38427906426691,1.41117366303472,1.46034830849079,1.3953943016975,1.35148514010859,1.31662082209728,1.26943703005493,1.25713188945233,1.24303913670695,1.28388661046408,1.28297550869248,1.28506938589054,1.25533032463996,1.23302215370154,1.20196815910827,1.21799629788228,1.21752071773293,1.29173926432682,1.29403722528227,1.32107032468183,1.37729838227164,1.31520480381552,1.24708124952721,1.2463764784935,1.28073850601444,1.32008068036339,1.42685808307817,1.51359229568095,1.53499182325213,1.5356402784637,1.50647786414278,1.46211207824039,1.45903898733744,1.48152919113491,1.5139703209421,1.53747261448997,1.57069733216703,1.60141201168712,1.60006330067745,1.57009714771201,1.35318432714306,1.35071142711418,1.29575488916595,1.30024207862353,1.33350467339345,1.37869672744558,1.5074216206431,1.5391746869987,1.5566562939421,1.45226986380346,1.35757742363902,1.28745958104376,1.27573600844973,1.27286593186577,1.26850623661269,1.30361008291742,1.30676770466783,1.31314782834254,1.32563540126073,1.31965528233348,1.30795328128656,1.31406972479462,1.31613568112472,1.41571692353297,1.42838294234808,1.42498011188086,1.36906938854489,1.34439712506251,1.2567942487104,1.26824779381992,1.27521639823556,1.39779758612254,1.43638824884792,1.54981036666762,1.5511539985607,1.51532951371227,1.4152218955045,1.38890347941849,1.38558702651372,1.38164209224367,1.3722242659971,1.434082116906,1.52055004176148,1.48775982491153,1.41467682618894,1.33895301466639,1.33590330392117,1.3363879359981,1.40802214096236,1.41157154167637,1.44271848406519,1.47002471543134,1.48246180853323,1.39730196236793,1.396713304725,1.39507357954991,1.42143161549696,1.44403882378146,1.45680979806578,1.49121094886174,1.627233610962,1.63048247440135,1.63429134680589,1.4487230415879,1.45006776413707,1.44964029602009,1.53197509885112,1.53239833946508,1.5585772628378,1.5215705201094,1.52096022723344,1.52531185786033,1.52816926691356,1.53147553291942,1.57590933020273,1.6027932066593,1.64011994207708,1.66070332778544,1.67160237658867,1.62617415841828,1.6269819354376,1.62510082748167,1.70670531005743,1.70659671164395,1.71485001970884,1.67091522764331,1.65149039337512,1.64963974376031,1.64765933178717,1.64640660204494,1.76175085852958,1.82379577884963,1.84194907470493,1.84354049759986,1.5732830176674,1.57221977973887,1.56855654448331,1.57360132815749,1.5752881482148,1.63855861919294,1.67068453506421,1.78626354486264,1.8895258619577,1.90450703750001,1.91723100247837,1.8608783955784,1.80555473435061,1.78439622979251,1.7669169743359,1.73539960037469,1.73586685440377
1.54474630462243,1.54946279812252,1.6201252154032,1.65891293867016,1.6986599999997,1.55245922312904,1.40585113741074,1.41036519027856,1.4106030713061,1.43682064190502,1.44406653737861,1.52024636809673,1.56007119204961,1.56116587318584,1.32153407142403,1.31830024430628,1.28539000000064,1.34370593481128,1.39646879852917,1.41295507346075,1.49978264632863,1.52246555700171,1.62349,1.3683958026657,1.34768907546365,1.34854333979313,1.34954503562089,1.35960289827697,1.38576014106681,1.393939363162,1.55101,1.38707423092824,1.31586578245771,1.31621853863775,1.25296196507183,1.25131126168947,1.19075000000081,1.28110619548906,1.2812944324328,1.28224901417081,1.26067451014048,1.23608251542876,1.1896000325506,1.21948075135516,1.21943287130978,1.29530779869031,1.30768965582397,1.32108329815031,1.51059,1.31319272604915,1.19302,1.24532311229494,1.27277298949413,1.31826754914112,1.40776999998244,1.5105502401611,1.53359437962336,1.53535683011368,1.48202186421225,1.47045651639876,1.45546249006619,1.48844175158082,1.58018999964454,1.56239561067048,1.59426666369655,1.59853622641699,1.59789876654366,1.56939434505431,1.33799148117191,1.34499265302778,1.27377999996837,1.29722991552763,1.36753000066365,1.38122333082333,1.47635434237292,1.52359956470235,1.60041999999958,1.51453885257287,1.56081999999984,1.29228943396698,1.27896577964409,1.27573612624868,1.25756275426816,1.36426515079052,1.56855,1.39499984330567,1.35029999930132,1.33532781719543,1.29957984141017,1.31613119331585,1.31686596135891,1.4138159811231,1.43386961156683,1.42041125505828,1.32469356915433,1.32477757027081,1.2449121095614,1.27530266418519,1.29132656986804,1.40348674880083,1.48456857172287,1.54760097387207,1.60348999999984,1.51599402193588,1.43998300399014,1.39710398825149,1.39601643452497,1.38725144024262,1.35978947907298,1.43867178806306,1.59854786681941,1.6006409501282,1.64862999999971,1.33924392303289,1.29246000000032,1.33605264382012,1.40811562379471,1.39997339748897,1.38885720454438,1.45256440963992,1.5802,1.39784529254728,1.39842401000328,1.3969907530535,1.38325050096468,1.44295357105858,1.45796176916739,1.49644783105293,1.62520986576278,1.62723471893316,1.63920073550055,1.44813116711447,1.42732000000069,1.44811938506896,1.5303483780628,1.53144036927761,1.60654999999916,1.519918093932,1.50601500006238,1.50708829635025,1.474120000001,1.52839616397596,1.61507254134273,1.60364626807655,1.60392436668436,1.65661502464998,1.69940000121219,1.62498662226512,1.62168322728995,1.62190367297512,1.70609484688825,1.70650125873489,1.93904,1.68127402994422,1.6330240388056,1.64908125137325,1.64501441339116,1.64522239435638,1.72205999983836,1.81957588658191,1.89921,1.84177989717623,1.55161556050369,1.56202225815981,1.51664000000067,1.55072984792113,1.55020369618792,1.62992927780732,1.61093880418246,1.77931843727638,1.85863072624298,1.88484199275723,2.00457,1.85788030536921,1.75797553105171,1.76576112022991,1.77827862950925,1.73512013667774,1.73554582589711
1.5243166433398,1.53430130809719,1.61237918801089,1.65956133809658,1.65926750925987,1.555597804431,1.41733210503938,1.4130158106624,1.41254743078094,1.43015031163296,1.45230281381866,1.51464823252542,1.56175315010172,1.56204889296864,1.39556245404183,1.31599080131593,1.30823511081358,1.34214044867752,1.37835910918329,1.40797254943129,1.51392104507299,1.52998534107723,1.54075251711508,1.36735233925745,1.35819613501603,1.34816182791519,1.35072542265273,1.35513373000844,1.36434319622031,1.38256031615763,1.3840846133233,1.38170919114027,1.31562267338125,1.31578943286348,1.25130434197421,1.24940750576688,1.23321723838639,1.27933686643532,1.28016704645254,1.28155020169941,1.26606379244292,1.24015588476341,1.23582897548405,1.23311412529292,1.22715555500413,1.29668661063906,1.30065778799821,1.32177919513342,1.38068006689997,1.31171954310368,1.24505995086072,1.24502602133021,1.2780589527812,1.31684305388055,1.37172146263303,1.50687905484072,1.53523232906476,1.5358869105478,1.51309290712691,1.51316615679153,1.51252953006954,1.51108088937892,1.52841412460804,1.54990130813567,1.57819373901504,1.59995874801319,1.59943457550223,1.5688807331956,1.35989530625912,1.357561984915,1.28719874313144,1.29492624272878,1.33779689656256,1.38246710628834,1.46991535524672,1.52303864767494,1.53198462814963,1.51532527695171,1.38500627762234,1.30145167176646,1.29936964931233,1.30342699769745,1.36727439479629,1.40120772986458,1.46810116123045,1.43083622669008,1.39612950695838,1.34065865621913,1.32330096418717,1.32195891372058,1.31974045721845,1.41162292346804,1.41957018120922,1.41760747619191,1.32613927246421,1.32559626252093,1.30356251172548,1.30221545949134,1.2975778869007,1.40690303214805,1.47584561766212,1.54492845636287,1.54579241608838,1.51680677614956,1.43489094495485,1.39809368110635,1.39692487317714,1.39672071952669,1.41399539755479,1.44488755024091,1.60064221894529,1.60239553861819,1.60678397534149,1.34006180633012,1.33602946767541,1.33581505199522,1.37656313524406,1.38532399217772,1.39884902768822,1.4336090976635,1.48184073336071,1.39812916449584,1.39806297201772,1.39753876479216,1.4028833449926,1.44252778031709,1.46697518352502,1.5015566200753,1.59233658766951,1.5779534619888,1.5287750018073,1.44948062077252,1.44608035951746,1.44724132429662,1.50750331938261,1.51764880903037,1.56344408778593,1.51939181699567,1.51023855680097,1.50782076190887,1.50349119141303,1.52562944548692,1.5665420907885,1.59883931921216,1.60231793153421,1.65601073030055,1.65855964038977,1.62492514310206,1.62032389983806,1.62027478017019,1.66255190160559,1.70697485803943,1.71676792867035,1.68759761430269,1.65490582299122,1.65159077600977,1.64686289651459,1.64529600021281,1.7577423002318,1.81309051795777,1.83953414397306,1.84043404258245,1.64223444811684,1.60612696762185,1.55036552504866,1.55109019003408,1.55168491371649,1.63562766026995,1.67068270315696,1.76645651200069,1.855914075874,1.85514081496776,1.85598452100364,1.85127147968559,1.79717021391524,1.73519198657739,1.72388410928114,1.71510748786955,1.70224564954323
1.47221211306265,1.52754221078987,1.60350556434018,1.66072147902962,1.71931,1.55774029287301,1.4206031418307,1.39871298138122,1.34421000000046,1.42411964170952,1.46138720031996,1.50803111974437,1.65212,1.5699287558746,1.61701999999996,1.3144954006889,1.26618000000018,1.34150472739113,1.36328002208364,1.40454717122993,1.53913300625895,1.5352423647656,1.59584999999969,1.36667134712572,1.37146519733083,1.3455801019543,1.28889000000084,1.33814665956748,1.33630974677405,1.38020724260539,1.38771648357005,1.37931452135251,1.31521135906961,1.31549645893292,1.24127015004349,1.24538678956839,1.20882999935723,1.27687093504401,1.30693402720902,1.30509860830601,1.38725999999987,1.24476570888036,1.23893065380701,1.23551553023457,1.21335621813066,1.29552387617285,1.29274938672992,1.32345070979616,1.54014,1.31097899883471,1.24597504858825,1.24517982834667,1.28259964428195,1.31590564485623,1.3153481680481,1.50313392924168,1.66391260545476,1.66171590849558,1.69644999999963,1.51860220735627,1.51266368924747,1.50848643599824,1.46155000125553,1.54048790992334,1.56221266361841,1.60117446517005,1.59990768873606,1.56867410343881,1.36485015555697,1.36124118540774,1.28507181440136,1.29326516075191,1.29212249738154,1.38240608864278,1.46391992404358,1.52151796112408,1.59696999999985,1.51632551745035,1.3297826538722,1.312242574949,1.27397000000069,1.30650183990485,1.45049462671753,1.43441096450667,1.54134999999995,1.45941216093364,1.4600596782596,1.34166520858984,1.3230708966163,1.32153567724674,1.31861914682092,1.40934710644371,1.46804999999985,1.41396546983471,1.32866958552314,1.32672956860533,1.30316652227131,1.30356265677241,1.26960001416569,1.40878793306537,1.46718533333245,1.5414186968754,1.6143899999999,1.51702970957025,1.42950615259539,1.40013371840888,1.35993999999051,1.39703208651967,1.43163714412399,1.45220302415303,1.61218680559031,1.61122450511898,1.61107867616683,1.34184261325066,1.33615844730885,1.33507926750416,1.33010724059984,1.37424115257817,1.40651115386167,1.41647639557126,1.5889,1.3984058293269,1.38764282962408,1.39157472852285,1.40899970584554,1.44275906269471,1.47604849574032,1.50724726317226,1.62730999999948,1.56800669299957,1.45664560362923,1.45240053361691,1.42341999991595,1.44813767952455,1.49134998754252,1.5106893756031,1.61768999999947,1.51633398735994,1.51694889044242,1.51067896438545,1.49938544349118,1.52347445476374,1.53288610882413,1.59590611119975,1.60033493089634,1.65407283039722,1.66482211469426,1.62561574280626,1.57092000000088,1.59822591806638,1.58859194718482,1.70811329982491,1.75729999999909,1.69162724257737,1.65675075213559,1.65490572086251,1.61313000000069,1.64623658867595,1.7886475740796,1.80325594860472,1.85693999775374,1.84523729949431,1.88992,1.63254317537336,1.54957442747403,1.55146213408639,1.553649328027,1.64224374326362,1.73760000502146,1.75267151244934,1.85503695921479,1.85526384067398,1.85852191839629,1.84077761631077,1.82388304347531,1.69011197812608,1.64553550129543,1.63960037574534,1.63078851247748
1.470994605294,1.5222703651215,1.568435919467,1.66169403435617,1.66248391936336,1.55897077653606,1.47215251690873,1.39233859836417,1.38544625469764,1.41850191269599,1.44519235099071,1.50262788979113,1.52930513302574,1.49740730928087,1.39456413994042,1.3135057635934,1.3098809407035,1.3416072358085,1.37947145990696,1.40252055156378,1.50410033108341,1.5090028297002,1.51842259391678,1.36171123821444,1.36012758742484,1.34409318351866,1.34312972486503,1.34179596817758,1.35796037543943,1.37729309302946,1.37559000771803,1.37708972040177,1.33513342934112,1.3188969858357,1.29803443351057,1.29076392023259,1.26983792519324,1.27573858327354,1.29194429277571,1.30341455241311,1.32620050600921,1.24918075582749,1.24043121425484,1.23577466384852,1.22919279228147,1.30562334017191,1.30738368560518,1.32611997748092,1.38683399941568,1.31095557732907,1.24527418424248,1.24515389244717,1.26677592453128,1.32934149908353,1.37602036285748,1.49979967289743,1.6617194116303,1.66151525281944,1.65430170034058,1.52818118181432,1.50544388241415,1.50475478870979,1.47741973853895,1.52967646222147,1.53944107760008,1.60268886261048,1.60183014143225,1.56871647871918,1.37136811109613,1.36445560054897,1.31754312382087,1.33206448613313,1.34839589118195,1.38129280387087,1.45280219008921,1.51800786351336,1.52011534439796,1.51695752506192,1.33274422768772,1.32702580579124,1.32733798671828,1.32737504021636,1.41835454886888,1.4225448993942,1.45685451481221,1.45861641239493,1.45941213765328,1.34376935192395,1.3322453587371,1.33768278870106,1.33958522898374,1.40693557834097,1.40581740265431,1.40714154215549,1.38662163508464,1.38465000760289,1.37588021687748,1.38741411506588,1.39152643500844,1.41144306213335,1.49531382702077,1.53611619793085,1.54653684432764,1.51611445090746,1.41962447250833,1.40196709353157,1.39420931079908,1.39808663267081,1.43399344421879,1.45841407977114,1.61077302920372,1.61033180193289,1.61021775500037,1.34471491275312,1.34406373040848,1.33363586435882,1.33323264900486,1.35388638820432,1.35711905703754,1.3632092553181,1.38404580024014,1.38651007891625,1.38837241250101,1.390252616627,1.40118497096522,1.44357373084264,1.49846680540898,1.51391889182733,1.56933930956555,1.56014283699215,1.48343358654621,1.47655352268955,1.44967923501838,1.44925535209789,1.47284431674108,1.504646667548,1.56283855152904,1.5159691040152,1.51525958018225,1.51336072217517,1.51362472348475,1.5217207691284,1.54151949478218,1.58974213507887,1.590474742617,1.6520220790903,1.65055340198719,1.62660310690467,1.60211084544636,1.60430006639627,1.61420869668531,1.71011546185505,1.70891347993165,1.69719937462384,1.69464898548336,1.69126936792834,1.65481906353821,1.65095996665257,1.72292738110881,1.76938084657834,1.81915497475366,1.8303657711984,1.84332128702894,1.66045465991428,1.61329391749221,1.61660026733149,1.61829636936849,1.64837109795742,1.69472325591865,1.74257384117935,1.8534942118919,1.85390954197972,1.85520255223126,1.7624245033993,1.66972853868425,1.6612264809498,1.63930203231431,1.63684734365748,1.63193304510204
1.44746628988092,1.51509414368739,1.53585002483391,1.6613824849968,1.69314999999978,1.55951438159917,1.5787400000731,1.38498816395376,1.33380999965558,1.41303172929693,1.43198558557987,1.49728433935698,1.62415,1.48286707606779,1.3264985665895,1.31215839103741,1.30679118495716,1.33133849754111,1.39640998424883,1.40134662175039,1.49294370896744,1.50410511218411,1.52929430896646,1.3577352230891,1.28452000000048,1.34400613737348,1.34669337897355,1.34357888832544,1.36572580356901,1.37476798198877,1.37574322117843,1.37482082059102,1.35225430571197,1.31903114916025,1.3091832234328,1.29727624467496,1.25709309773588,1.27595042273148,1.27715480811941,1.30203689789458,1.35481000052232,1.25307922268808,1.25388854016759,1.24203023313643,1.22132566011878,1.30765636310161,1.30920287345623,1.3295582859516,1.53746,1.31150233649352,1.23318999968924,1.24577041905314,1.24700681395775,1.33672935053386,1.45085158379269,1.49715833780414,1.6743937063647,1.66283295329984,1.64978727940562,1.53684194784386,1.49349746321491,1.49963161212066,1.45522999984089,1.50553336241741,1.50632283834065,1.60377892120883,1.64512999999984,1.56886418427738,1.38459997637308,1.36699196571522,1.29521999932257,1.34496242856437,1.3717633971091,1.37956000066391,1.43562001497468,1.51043608591611,1.53326000013576,1.51690854558253,1.33615958713814,1.32732548095007,1.32681587940806,1.32767980109885,1.41297052373097,1.41471322997995,1.45496074552531,1.49952344717999,1.59272999999961,1.34683324642344,1.31525322748908,1.33926260340281,1.34710327174458,1.40409911294689,1.40232058318256,1.40561659832265,1.38970185307273,1.38686754897612,1.35915367882158,1.39128636908666,1.39658990085559,1.41534615875222,1.52087931474257,1.52950576290459,1.68152,1.51396076880921,1.40900235063496,1.40308457480237,1.36797999915473,1.3999153965389,1.43638092189363,1.4627756573105,1.71920999999983,1.65680217126181,1.74432,1.3489944259323,1.35648540309494,1.3325312156109,1.33305440220443,1.35329634148562,1.35221784066861,1.36213832235606,1.38101308315144,1.37898302602328,1.37724931119259,1.38282394192246,1.39512438584666,1.44482378783833,1.52637027021145,1.52583717018574,1.64804,1.55286404631173,1.5076359427525,1.48608229439629,1.43147001790407,1.44915483479582,1.46211365344317,1.50012824340796,1.64745,1.50496026651519,1.47019198337044,1.49986751303849,1.51361989138652,1.52005435823198,1.55035118301731,1.57499806866067,1.5777141234413,1.65080341319501,1.6476773138994,1.6269930587885,1.59837254087092,1.60646331955838,1.62461055304548,1.71422827213273,1.71661644592949,1.73706112447787,1.93077,1.71658458398245,1.66067302857123,1.65481637003214,1.62983000000049,1.76251818347916,1.7958299997794,1.81449271565197,1.89222,1.69228062167538,1.61009070888676,1.61835424202232,1.62006556422598,1.65282068551415,1.65854789479345,1.7319201309378,1.97145,1.89141264310288,1.94437,1.76064050242758,1.54201776887801,1.54096725485914,1.50565003083191,1.53961437783167,1.55652995760918
1.44175366732067,1.50327052225144,1.54869086043746,1.66075637548642,1.66052189785635,1.50259084296988,1.41962943897214,1.37647883072044,1.36526455137115,1.40604430830722,1.42920164529859,1.49534554162798,1.49814396181367,1.48429457289641,1.3319044390862,1.31093926645847,1.31067294123526,1.32168031035823,1.36668532020559,1.39936981556695,1.43629856791051,1.46306921514608,1.48588113101219,1.35498796199208,1.33424602438504,1.34356864926996,1.3461991235831,1.3453339233496,1.37101754346305,1.37428907816786,1.37400001475785,1.37526991968626,1.35162827432746,1.31908050322979,1.30777123273985,1.30594797706927,1.30382958996652,1.30201835495095,1.30113461910546,1.30118795977068,1.29478648830622,1.25566086574417,1.25498019269853,1.25670966622868,1.27517493065239,1.31276512247137,1.32054368024091,1.33344595548532,1.3973918483344,1.31245951639896,1.26638264040704,1.27490887150461,1.2796965059404,1.34412295101117,1.46106706922092,1.49527767515782,1.67014980319346,1.666106780448,1.66103429007932,1.54609295126419,1.49949570311788,1.50008265339526,1.50182594684416,1.50448031880037,1.54705796806266,1.60350524001494,1.60468807324694,1.56898384505589,1.43175321808684,1.37000741577242,1.36817409120059,1.36107953583082,1.36563649806208,1.37769015693582,1.46742475924389,1.50146870896899,1.51576307636416,1.51620162460729,1.32870840394869,1.32724544380172,1.32767554012276,1.32769907872468,1.39877052788211,1.40754519092463,1.49478944401091,1.52382360129383,1.54318305438914,1.35257381641354,1.35220918309028,1.35129946487868,1.34940688028167,1.40213432884441,1.40434460391463,1.40572611158829,1.40626905328934,1.40604842734283,1.40560492572437,1.40866573363884,1.41857668588987,1.42079196330705,1.50556004263266,1.50822925964825,1.51438235678732,1.51075178984955,1.41717648451133,1.40416580526599,1.39690126642623,1.40246447222857,1.42168288858751,1.46840845428918,1.59751292965598,1.63530481555494,1.65255164532271,1.34651755991284,1.34658356573297,1.33208466907054,1.33238055313349,1.35288563052539,1.35234772884759,1.35671577787549,1.36142992965313,1.36623591110232,1.37108738614285,1.38074890945481,1.38434070506525,1.44631837563733,1.52610950986612,1.525748413086,1.55068562841547,1.5476897948635,1.51402089413077,1.49476294763051,1.44686654581701,1.44783040338182,1.45571791039246,1.48577543169186,1.48661664206499,1.48606946637088,1.4791303286576,1.49079689450393,1.49982499936446,1.51825763318461,1.53179469051494,1.57237802844943,1.61397097035666,1.65111067466958,1.65001176386829,1.62653832590269,1.60787137704489,1.60817683131786,1.63101265337315,1.71864204368758,1.72223930736104,1.75972490891744,1.78894317884436,1.74826140379593,1.72270118591626,1.69812435661204,1.68777849140785,1.75160876065082,1.76349960603411,1.8061141443629,1.81781325523986,1.73342607216483,1.70142883059174,1.68483950016801,1.66441025703074,1.67199563848343,1.67908190606164,1.72109629114041,1.77601574760401,1.79766139245597,1.82403563667441,1.75730736739801,1.53968277046604,1.53947038763195,1.52203807070557,1.53233888317918,1.53972052103704
1.42097659001305,1.48950275504445,1.56097997300127,1.66037555734068,1.70850999999985,1.47300803158552,1.31715101698443,1.31656641926065,1.27526000000026,1.39806623130006,1.42639360789445,1.49339604667302,1.56133999999973,1.48659135250408,1.34364326586658,1.30976876847493,1.31076748008726,1.30728888314608,1.30729630484129,1.39406369340378,1.39576619621771,1.44264308438531,1.6557,1.35342715673532,1.32227845293167,1.34274795723987,1.34893688483523,1.34621135605282,1.37297481404958,1.375338445402,1.4232300010035,1.37610033108765,1.35099027557083,1.31893033625746,1.29633037372708,1.30836235145583,1.31411219381236,1.3645124861142,1.49585999999982,1.36357483921389,1.26083988461714,1.25841461570697,1.21235000000062,1.25831293561262,1.28614139128934,1.31683630256933,1.33866359458438,1.33749134497331,1.65516,1.31373821789568,1.25719716072611,1.27968421644264,1.29248586382283,1.35114010932294,1.47133837205219,1.49408181628001,1.68941633972101,1.70132871858416,1.72003822542599,1.55665746260095,1.49853194113293,1.5006858196918,1.50152852078645,1.50336299982834,1.59789656757408,1.60097788967915,1.61141506338873,1.61916907887024,1.72948,1.37751186031329,1.37975311017318,1.35654925907326,1.29453000000035,1.37610044362414,1.48085147580642,1.49454229393991,1.5410899999993,1.51576872102942,1.32434828962733,1.3152676542324,1.28889002569065,1.3065465184131,1.38172999960669,1.40154405664116,1.63695735972409,1.62550034090856,1.71576,1.35752805203689,1.35411955737702,1.35174767127478,1.32802093527783,1.39909793749395,1.45467002880175,1.46398183374225,1.68173,1.44613278064988,1.4049586017172,1.41341972538366,1.43816842232968,1.43219220580698,1.49652911673525,1.50554768271594,1.52320108052809,1.50668621836707,1.43305947134841,1.40466350040939,1.37209999930672,1.40569943231878,1.40926614483822,1.47518114911875,1.55528999982479,1.62505018263966,1.70979999999975,1.34410925817892,1.3155776891715,1.31352869125669,1.28077999990587,1.35370234556008,1.3479217972971,1.34914618187579,1.34464248399316,1.34439692449748,1.3350935244534,1.37686698790434,1.37523419439061,1.44787345791773,1.5264591765712,1.52570971864365,1.56490997394466,1.53901829315145,1.51890649154705,1.5012191405675,1.43933517238499,1.44686512816444,1.41660000000061,1.48667971709506,1.48947168352387,1.48693393573705,1.46769774886969,1.46681308184225,1.46732683875193,1.51622117461007,1.5247747034198,1.56971248598658,1.70441000129603,1.6773224090805,1.78932,1.62493338726229,1.60714622631026,1.6099646610232,1.65597288682387,1.72272660804467,1.73066525287712,1.77769516669718,1.93646,1.77148032594203,1.73557000018049,1.70246179952431,1.66242999919831,1.7329621642599,1.73846599727574,1.79475072967033,1.9148371146784,1.89675937246362,1.8698300933553,1.68565250396211,1.65313978088819,1.67783411702554,1.68822866020228,1.71092333949196,1.75181999978975,1.7761072076294,1.8937,1.75270785532436,1.5351435934533,1.53778977357487,1.48723999921419,1.49927471029486,1.48644999957181
1.42767431362834,1.47406377479016,1.59378000374624,1.66008357986883,1.65998599616284,1.46101757539298,1.31647133874283,1.31586083910502,1.31120664921762,1.389732710608,1.44187161141815,1.49067854972373,1.4968129527389,1.48899331214221,1.34365537527157,1.30817265340349,1.30752491336011,1.30457376649464,1.32600957644375,1.39242738665317,1.39870746146566,1.40139647645353,1.40288956421185,1.35281816951967,1.33763665229195,1.34142317912945,1.34321845305741,1.34460604254913,1.35634523496997,1.37836979167538,1.3921900156439,1.38228551741135,1.36722572461444,1.31828888929741,1.31165296482392,1.3096886825609,1.37682318813133,1.40234157628185,1.43260407859374,1.39776266355926,1.34083461934948,1.2945682351544,1.25919040352513,1.26162454832599,1.28171670527332,1.32297045862877,1.33953693902691,1.34010889517682,1.32756679783081,1.31530729301395,1.30530871534325,1.3152942221263,1.32696947044547,1.35730963435592,1.42919155697126,1.49344957724637,1.70131540342927,1.70411220462491,1.71124882391756,1.56796072015998,1.51300917605321,1.4991622601036,1.50194695269239,1.50243411422656,1.54458773167854,1.58432733022719,1.61916840881329,1.62411091185318,1.62898538445291,1.37502438108182,1.36332704114384,1.3516818538407,1.34626595951498,1.37512830714968,1.47899469463526,1.48952940875736,1.51513238222596,1.51508611039347,1.32644203046572,1.30347591869562,1.30097585032038,1.30346196869585,1.35500012533124,1.39665926939539,1.60809490996208,1.61457550147712,1.64370833923713,1.36455486472024,1.35980146738578,1.35204712624681,1.33503235663033,1.39520120564463,1.42725836858701,1.4734088087923,1.50734258249501,1.47119988785803,1.42248913515495,1.4220686289401,1.42630133310517,1.4265723950955,1.46676139815202,1.49896795850438,1.49944107809573,1.50194552198124,1.41633815791067,1.40524918147617,1.40379114607527,1.40940380103507,1.4653474957874,1.48337776302339,1.58342105952534,1.61551538110189,1.61580629702008,1.34335986969249,1.3135290223355,1.31172908449596,1.30732615635604,1.35456493711822,1.35207932689084,1.3493104447318,1.34487532171998,1.34319837220652,1.33925112966358,1.37708733981761,1.38218061066224,1.44934588529768,1.50479738874222,1.51308951369096,1.51967856216889,1.53551439944863,1.52954140102768,1.50284939752656,1.47233684978374,1.47609474272299,1.4777727323998,1.48614721889805,1.48699701075842,1.48640386576921,1.47308906411609,1.46578266129453,1.46627632388825,1.51388134750774,1.51762015546602,1.56682200254014,1.67942554343311,1.66103755074898,1.64008914742437,1.62244829171647,1.61215444022201,1.61157828332187,1.65678314603946,1.72598304715713,1.76765579487629,1.80310925514637,1.83413744194298,1.78844905173846,1.76527164780767,1.71887653245797,1.71873271533177,1.7236512885057,1.73043645288507,1.78161890439416,1.9091826744417,1.90463797462275,1.89675936600215,1.68822101482174,1.68345871243288,1.68479810669589,1.68635448045249,1.70226088974259,1.74867747085694,1.74846999675748,1.74798707191697,1.74712979944169,1.59748292905507,1.55328061729937,1.49824380147731,1.50270132975498,1.5268174003089
1.43801927788636,1.4571319480985,1.70188999999978,1.65999085827286,1.71039999999983,1.45095707527778,1.31640343727446,1.31709651259014,1.30543058778474,1.38175083152432,1.45571997868434,1.48738398676252,1.61053,1.49080094491347,1.34367728963089,1.30773805040355,1.29210263784227,1.29987319699487,1.3415250180485,1.3901681350818,1.46743999999935,1.40237238612073,1.40416011039291,1.35284885588952,1.3333277541987,1.33049930453729,1.31601241864363,1.33784906855773,1.34949048196751,1.37994338008248,1.53432,1.40092573297575,1.40860590657424,1.31704417071375,1.31526113150511,1.31038042290343,1.45290307383141,1.44414830224968,1.58582477564033,1.5831137273272,1.5815081410996,1.31166212955658,1.25766321572018,1.26883803674071,1.27868905654854,1.33165230213607,1.35928200962069,1.34344373961347,1.31916383506932,1.31714230177757,1.28872004356839,1.32281373386799,1.34608233224363,1.36324037009715,1.3782800002904,1.4932889321185,1.72073918787823,1.72085355307839,1.73387951937131,1.57937431823852,1.52099442738147,1.49593043601335,1.45664999947335,1.46403298293863,1.465949143195,1.57786095682047,1.68067999999984,1.62898411014249,1.63679528141517,1.3723117675248,1.30897999943252,1.33634220787508,1.33917056075096,1.37509391350889,1.47632523203753,1.48464054302404,1.55457999999957,1.51424157130829,1.32806675299214,1.29531686763866,1.27355120587934,1.28336757752396,1.28178294358945,1.39348521584559,1.59581144095331,1.60814558841488,1.7309,1.37454699847819,1.38402740858526,1.3527300795741,1.32310999933731,1.3907948570061,1.40518771487184,1.48355601829101,1.73488,1.49046725912416,1.42298279491097,1.42200376384195,1.39857999926114,1.4217999004544,1.44389751010246,1.49840624524427,1.49659726401939,1.49946970152525,1.41007281714825,1.40754287809196,1.40248777430356,1.41357366828528,1.50851822258326,1.49349366957971,1.68481,1.61580629702041,1.61656121503388,1.34440801349125,1.29571649858392,1.30403614838308,1.3024926179526,1.35879326809279,1.4156399999991,1.3511341080159,1.34449348594619,1.34458625643783,1.30595000000101,1.37573299170384,1.3888906685333,1.45064025796922,1.48323897668911,1.50080331051517,1.49572755216355,1.53654036030074,1.56612920463248,1.5022453520184,1.4579600267689,1.49272658437861,1.58554000089676,1.56435182927666,1.64327,1.554388166343,1.55212198207915,1.46487277189203,1.46171985381885,1.51127661794116,1.51083065471058,1.56328968441926,1.78403,1.64336723512072,1.61965816991692,1.61966355548247,1.58616999934717,1.61249810990521,1.65758889529397,1.72809748935649,1.93353999024943,1.92587946306481,1.93030909795015,1.84942206697739,1.84363365203382,1.71942620868408,1.71552017545277,1.72006417600626,1.69369019701915,1.76761433354684,1.92753999999981,1.91341783489551,1.93613999999995,1.69331571697223,1.68155900319567,1.68442853180691,1.68549635694102,1.69689453918368,1.75563000061461,1.71261797914003,1.61412000000028,1.73999641870734,1.73316189500706,1.56037264740302,1.48906001102806,1.51182620845088,1.54989642207299
1.42916331282887,1.44262237984304,1.4940766463694,1.54152376078138,1.57211131233783,1.4407013446097,1.31625289475301,1.31914552469591,1.32162060107022,1.37449855842663,1.4119958039885,1.48412572437174,1.49609381360197,1.49163583108989,1.32385656376321,1.30762749101583,1.29565450735525,1.29674415183734,1.32782711304055,1.38627350404836,1.39871671801317,1.40161783378172,1.40274793439453,1.35315793892559,1.33050856123266,1.32778016270394,1.32196528061388,1.3329842872125,1.33636722343789,1.38010095020452,1.3861604786038,1.38539604852014,1.38474476789708,1.31542363912265,1.310607843297,1.30806723181412,1.40472915669063,1.43840228785668,1.54557634155844,1.58231116355109,1.58171039045331,1.3234982479349,1.2929996871004,1.29441475723878,1.29472526877056,1.34083967293817,1.35173283963258,1.34657351713168,1.34457177216021,1.34232331484148,1.33911629510892,1.33697289706249,1.34106847562015,1.36637104986329,1.43540051674977,1.49355818053637,1.71840976389009,1.72115529660888,1.72737359068759,1.59034276299655,1.52825923774696,1.49249642741614,1.46251479854674,1.46310834834862,1.48490608872341,1.57063374381582,1.5862130028283,1.58110824979122,1.5784814261419,1.36970650340162,1.32586132500895,1.33310985001578,1.35527902710518,1.3760255422861,1.46004361996873,1.47068551861384,1.51306150096284,1.51323109083727,1.38098969641716,1.2886410724413,1.27957010000441,1.28535347214647,1.29282081471325,1.39078733037328,1.40484924088931,1.4054403751042,1.37878541197256,1.37140821836711,1.36993481518069,1.35437100161892,1.34174089216609,1.38643537874742,1.40318282371335,1.49713398486496,1.53001365403567,1.51080663405648,1.48225617078953,1.42091829042384,1.40650285766371,1.41837743960283,1.46573221410979,1.49900440019183,1.49856068437265,1.49921501745115,1.44665259083596,1.41624165242919,1.412629090451,1.41908608958693,1.47585203498091,1.48049132013852,1.50802073214182,1.48994528410171,1.4318303362949,1.34640652452169,1.30036930876043,1.30440009428316,1.30768565316327,1.3617911162033,1.37890015128394,1.35192535642351,1.34526465958053,1.34552895886073,1.34663839332115,1.37327773126443,1.37860426881355,1.45170106777128,1.47330367896547,1.50394806249096,1.51709137425787,1.54470888101984,1.55560500764505,1.50145320356761,1.50034351753929,1.50100399990865,1.52919193046648,1.55113075982227,1.56065934155528,1.55542605705351,1.51435452828027,1.46453198416615,1.46329516788241,1.50921647735808,1.50914934512129,1.55878591775934,1.67325210847572,1.63207224265075,1.61804892776056,1.61727352354108,1.61505132807575,1.61418975215067,1.63903322299332,1.72899084829124,1.89499355024149,1.89605738405422,1.8986363531218,1.8536951520575,1.75546865579012,1.71979463404771,1.72016452181906,1.72067238683178,1.72156858879938,1.75348465729697,1.88838150860157,1.90034033769207,1.91016843783449,1.70114344605732,1.69992064087488,1.68527119188398,1.68573428852681,1.69649323061416,1.70208032629672,1.70858974659269,1.71574353993403,1.73885687775108,1.73649526163083,1.56470835949766,1.52534186658103,1.5247682738611,1.53408928224037
