2.22910158676255,2.22910342667861,2.2298983176846,2.23124764221749,2.23232391212613,2.2332928796926,2.23381295113031,2.23422544678012,2.23427601519725,2.23518759543488,2.23537690737118,2.23553550164512,2.23573760892353,2.23595922860813,2.23636369956386,2.23697827447411,2.23756383358443,2.23798314529457,2.23873180936063,2.23911019021276,2.23961027155257,2.2400553810902,2.24037083680302,2.24057077051046,2.24111483531083,2.24147104386601,2.24240547710409,2.24334116821461,2.24482054576304,2.2453278426602,2.24617365602856,2.2469936876691,2.24792258733131,2.24795364379368,2.24854287666987,2.2494193139724,2.25117773045202,2.25294985410122,2.25398705245196,2.26753045114503,2.27762474286752,2.28359048653886,2.29387920671163,2.30548677578371,2.3152449000151,2.3204335738605,2.33078266447042,2.3467382330314,2.34767767926531,2.34886565856645,2.34883534611141,2.34826584211619,2.34751158689413,2.34804286629178,2.34822732827214,2.3485710832074,2.34847132165129,2.34875192409767,2.34843952718315,2.34893566361003,2.34868193285442,2.34886666324494,2.3487181815447,2.34921346656581,2.34927941583529,2.34970013307943,2.34934235618093,2.34969259443785,2.34879321939638,2.34910452981729,2.34847649310185,2.34862085276888,2.34826270986941,2.34886606704063,2.34883162237311,2.34931853794919,2.34853455010688,2.34918757258613,2.34869095186914,2.34942452585903,2.34935407493642,2.34941700180799,2.34883848288024,2.34923119246652,2.34913081927914,2.34988364272945,2.34970066857553,2.35027049163351,2.34985829027641,2.35078988799216,2.350684902766,2.35122718111259,2.35096791318169,2.35165371502594,2.3518699146756,2.35253957002169,2.35240896293495,2.35311006392726,2.35325810860748,2.35337214960477,2.3531519991739,2.35360039864796,2.35346933076772,2.35411691679358,2.35391418307757,2.35390128380116,2.35346593849129,2.35287954000452,2.35230786383641,2.35247258558638,2.35255659681733,2.28390218368996,2.28353749847721,2.28330531261427,2.28267838963879,2.28255703055251,2.28230004245356,2.28245049431677,2.28218758648928,2.28252533181087,2.28253105582932,2.28278172857873,2.28266269836162,2.28280303362697,2.28296928986975,2.28318537223081,2.28301369771521,2.28343527809877,2.2834039279433,2.28379666733056,2.28372260686088,2.28395713013428,2.28392730767065,2.28418140398117,2.28420950497597,2.28457150095136,2.28484609051238,2.28557079602379,2.2856677910939,2.28618301927561,2.28638935006457,2.28655968083916,2.28647810104858,2.28668161052021,2.28687239788719,2.28732360993784,2.28750179350464,2.28788521465374,2.28815169157171,2.28894109934921,2.28911911437949,2.28959538748712,2.2896367960262,2.28993143782032,2.29022783314378,2.29085475944492,2.29154008910776,2.29264993621074,2.29344159694132,2.29490386014732,2.29713071561392,2.29866931515086,2.31920908199098,2.33227049629884,2.35071765253399,2.37379676693311,2.37482760045809,2.37716980427414,2.37843839519577,2.37931595370204,2.37968523037073,2.37987451543334,2.37933170166067,2.38059127466122,2.38189859591962,2.38260117491821
2.22850569841029,2.22735840177441,2.22887412913179,2.23146392118037,2.23317599960397,2.23306628566745,2.23390828406711,2.23359992350856,2.23366456775715,2.23474487999004,2.23546648252489,2.23537920804617,2.2356631711091,2.23583656507063,2.23612177326781,2.23702874169458,2.23718045826526,2.2375593703879,2.23880526995784,2.23931868555885,2.23930972146194,2.24007129922813,2.24007832132182,2.24008670721707,2.24072313975676,2.2416127786197,2.24159478362489,2.24375084969087,2.2451360403113,2.24566931483181,2.24643204998081,2.24692890921473,2.24802004980586,2.24789367730992,2.24866320766838,2.24993468735414,2.25218237876667,2.25522169533164,2.25530358448786,2.34283892730414,2.34341571038004,2.34827622837915,2.34843844861563,2.34990196177868,2.34958098449226,2.34977790140194,2.35056817164341,2.34698089712984,2.34844831197049,2.34909707105509,2.34993010536671,2.34865248468502,2.34789147599107,2.34826563890897,2.34877852436154,2.34836611705004,2.34894943630857,2.34805365024412,2.34820006311989,2.34832380531093,2.34853678303122,2.34805586775363,2.34822611099703,2.34836706412306,2.34945569272829,2.3486002670148,2.34992841703448,2.34850347607713,2.34898160254442,2.34799918931906,2.34872296417677,2.34765538354674,2.34774709934489,2.34790976111367,2.349115697386,2.3477199038826,2.34841222074086,2.34712416961964,2.34901819579772,2.34795956700585,2.35003956231081,2.34911545379373,2.34858725309111,2.34854111064388,2.34898852958149,2.34818073674496,2.35013694240485,2.34833855786442,2.3497254042176,2.34924513948676,2.35137507821552,2.35064405058224,2.35043389712324,2.35059154799481,2.35175524839415,2.35140768032197,2.3519325079359,2.35134386717576,2.35436266601225,2.35212973077781,2.35305164162564,2.35348788445889,2.35267912551492,2.35261623271193,2.35275563118172,2.35270558847731,2.35303040109819,2.35220959658456,2.35264057399726,2.35380200518505,2.35441976258796,2.28406696906112,2.28364895292727,2.2834353377181,2.2830197108437,2.28214411609492,2.28279526708207,2.28225558985892,2.28236016539759,2.28199187814635,2.2828111921955,2.28242686726681,2.28251534751658,2.28227628445697,2.28315883260134,2.28281519354144,2.2831218453815,2.28269570029581,2.28347705285694,2.28358803945551,2.28368477844807,2.28358653423059,2.28379816367247,2.28394320105124,2.28432856259868,2.28387242967894,2.28472739864293,2.28480863890423,2.28559481239077,2.28573065181648,2.28692300408053,2.28662325616368,2.28650754213098,2.28640150041933,2.28712733570032,2.28718382469563,2.28789562102252,2.28736790542979,2.28836561888611,2.28904950191494,2.28925520569638,2.2895962899494,2.28975365307236,2.29000472919477,2.29056261758785,2.29082128714271,2.29225112324928,2.29334396929476,2.29365554988611,2.29482519002611,2.29761527949279,2.30022437752182,2.33149669184229,2.37315330665307,2.3742808612778,2.37451427076511,2.37507814087138,2.37698495745497,2.37858442220247,2.37879037734034,2.38015929180764,2.37992303094596,2.37871661272353,2.38027174450323,2.38231249902442,2.38178264569872
2.22603979147159,2.22547360952982,2.22648473620707,2.22853986449379,2.23031126755503,2.23198528722914,2.23290884032356,2.23365628915019,2.23381692611848,2.23459410540269,2.23489629652646,2.23526994192321,2.23553122121097,2.23581711022474,2.2362581491261,2.23679045437087,2.23709398917901,2.23746629939474,2.2382903427812,2.23870813712155,2.23916110193829,2.23972480906956,2.24011311759514,2.24043587092942,2.24128825725407,2.24200967030268,2.24336748138334,2.24488701935835,2.24683419974814,2.24759509489794,2.26158280447269,2.27192117170973,2.27748921075609,2.28433255848472,2.29539914981521,2.3067162360669,2.3138167201421,2.31843582998964,2.32923488971865,2.34417183433997,2.34437871668094,2.3469906545415,2.3471860150577,2.34816964999651,2.34866700502075,2.34918886395209,2.34918691963193,2.34812230687067,2.34827111627255,2.34904240326019,2.34899354149051,2.3484134104441,2.34794340547876,2.34811704983105,2.34810173393385,2.34811963893723,2.34771823634555,2.34757550820345,2.34714111800228,2.34759019375949,2.34737083752245,2.34744294364798,2.34724433834552,2.34779218363098,2.34801560116259,2.34891583869479,2.34828401623291,2.34837312664404,2.34740991324123,2.34800193601908,2.3472818092655,2.34717363422148,2.34664230749883,2.34708997816985,2.34707306019176,2.3475028977842,2.34675026063079,2.34732899558324,2.34705375772717,2.34782468520302,2.34755015323793,2.34784251166259,2.3473675550035,2.34790739746608,2.34773249659238,2.34814924293504,2.34766149261682,2.34819782014763,2.34785046098194,2.3489226596822,2.34917501825014,2.34955688434432,2.349206359476,2.34989829782672,2.35048365730734,2.35178800584219,2.35106594015487,2.35151369800558,2.35156063663452,2.35185378309702,2.35162602884477,2.35208053086722,2.35139660172187,2.35136486858745,2.35143836553197,2.35152081428104,2.35130843287918,2.35082703433491,2.35043562980059,2.32816744660429,2.30887687065172,2.2842244230655,2.28352591780222,2.28304550079725,2.28262274990604,2.2824268524111,2.28207838989074,2.28221812181983,2.28178529466611,2.28201280664066,2.2820574684908,2.28231369381815,2.28239220475348,2.28275569143082,2.28263352412447,2.28270270696121,2.282555142716,2.28295698603749,2.2829165048757,2.28338704481227,2.28333825410937,2.28349395988687,2.28348201904434,2.28375145245681,2.28383297518551,2.28419797524964,2.28428277387619,2.28485269550841,2.28509836398146,2.28572990231783,2.28612836233917,2.28649928613826,2.28634037947083,2.28648595531761,2.28674055810222,2.28723642934174,2.28735727692114,2.28776159471262,2.28823917746488,2.28891717076267,2.28918002098386,2.28971840275461,2.28967455411961,2.28997236409043,2.29036832822831,2.29140870333587,2.29232937056843,2.29382741883623,2.29499707730756,2.29672450925876,2.29802595092998,2.32496927523952,2.34720030304981,2.3729385917235,2.37381149359763,2.37464425766175,2.37546739808744,2.37694261189477,2.37778195368304,2.37841546941535,2.37832336072116,2.37814135692924,2.37741592037811,2.37868118466962,2.37977994940114,2.38050849485247
2.22088294164264,2.22009817338639,2.22360158074383,2.22560806633345,2.22798330290983,2.23102108101096,2.2328193268348,2.23335739331774,2.23423365559026,2.23416683859754,2.23486064272438,2.23490698262778,2.23541555256832,2.23565507243706,2.23616975142177,2.2370234591918,2.23659734434902,2.23722590417314,2.23781975735201,2.23838631204854,2.23870300782547,2.23981963005094,2.24013693986641,2.24079996072308,2.24134764034396,2.24252369505264,2.24360352160507,2.24535008835187,2.24739364726576,2.24851736329896,2.34261354928434,2.34410182766631,2.34372211738805,2.34561710407745,2.3474279289128,2.34710456851073,2.34844935338686,2.34904832156342,2.34836037794355,2.34794522424853,2.34682611702558,2.34740214966011,2.34737482806414,2.34793130757088,2.34874905724319,2.34892725855439,2.34961605376937,2.34792144331776,2.34860612829639,2.34948319688822,2.34928475961491,2.34789013818038,2.347900905074,2.34777113851311,2.34836703013973,2.34708629086964,2.34766248285225,2.34601836950993,2.34677305779713,2.3463951557684,2.34723355106481,2.34672294756988,2.3466400075901,2.34667747434884,2.34813386940052,2.34836351100635,2.34903152370512,2.34634480269636,2.34744589116225,2.34687413741004,2.34763575004111,2.34624474398884,2.34609428037179,2.34586562743883,2.3469926932091,2.34602848714967,2.34692612993075,2.34543443605525,2.34719580521788,2.34631701938242,2.34687420830548,2.34648925679303,2.34665661516414,2.34714144344202,2.3482576110913,2.34662088598312,2.34730405348614,2.34602524408264,2.34769014497193,2.34702427762581,2.34920624631477,2.34839894400548,2.34844188183502,2.34863623086384,2.35060162729996,2.35216707337232,2.35173111219728,2.34968963288893,2.35113648271917,2.35021960470474,2.35145216790291,2.35141376557402,2.35066148972656,2.35005290297635,2.35051969532317,2.350258321436,2.35078408914307,2.35093553324276,2.3508059718027,2.28521471598176,2.28499878502998,2.28394538985764,2.28332024090365,2.282759730553,2.28348069769684,2.28223312766019,2.28240527238169,2.28151792292127,2.28195655474236,2.2811394626001,2.28209506253377,2.28192241433074,2.28249199641441,2.28329486609479,2.2828599852217,2.28178337173917,2.28272824444191,2.282397574762,2.28313251442342,2.28269060566741,2.28372441290325,2.28316874824391,2.28337163512566,2.28338928117827,2.28390945566012,2.28389842004678,2.28451732232355,2.28409010258161,2.28538224405455,2.28505264627907,2.28621924720726,2.28656923373144,2.28633912066801,2.2861838322597,2.28686139049993,2.28691319101822,2.28752053369844,2.28715875371825,2.28887951580897,2.2884831149412,2.28955352991266,2.29021040387595,2.28978242215528,2.2897330127149,2.29045897913123,2.29170215297727,2.29264043127014,2.29362001676344,2.29487174150172,2.29693459545017,2.29717665843775,2.3723974316697,2.37114018686647,2.37345692712362,2.37493813963943,2.37534923915914,2.37667797214545,2.37717669841373,2.37852287510611,2.37847709705384,2.37829075938271,2.37808035086504,2.37688840447412,2.37852024253073,2.3794791506093,2.37975432093973
2.21912316521353,2.21990087520861,2.22173474888223,2.22329623144874,2.22556427168991,2.23033886128006,2.23200215682101,2.23331532088868,2.23378209843321,2.23441976026273,2.23468024391645,2.235122829758,2.23536387038245,2.23564400131928,2.23589552250141,2.23635955056886,2.23673168452888,2.23714884763827,2.2377502178687,2.23814939198983,2.2386941690932,2.23944479376423,2.24020837859528,2.24108116788778,2.24220868429825,2.24333909562117,2.24507783309652,2.24686401639965,2.248606195591,2.29382281516024,2.34174159215346,2.3424647116154,2.34294260141012,2.34465029144545,2.34618826232805,2.34725944594562,2.34789808440443,2.34824569449983,2.34780202146956,2.34760073697051,2.34739863023004,2.34768097085104,2.34766130066183,2.34809324597422,2.34830404310705,2.34861061310472,2.34840952236968,2.34822946147826,2.34811052714436,2.34887686400578,2.34864311920169,2.34774164798324,2.34740469752536,2.34717796299754,2.34681786270804,2.34655492389562,2.34613224387635,2.34595463165239,2.34610986138463,2.34590815075901,2.34582194234758,2.34586321813662,2.34566344297188,2.34623367372827,2.34624307683947,2.3469732212115,2.34637990130892,2.34662526936145,2.34627861947285,2.34710897674845,2.34615438584046,2.34586416385334,2.3451388902802,2.34539791293212,2.34530768174833,2.34590724588259,2.34531016612876,2.3458217670676,2.34546059641764,2.34582447002608,2.34521010822522,2.3453995069005,2.34515486024861,2.34581008633312,2.34572976548801,2.34613188056654,2.34567779689327,2.34620076519799,2.34584174764708,2.34671339073865,2.34680651838987,2.34694516544924,2.34710033882099,2.34822973180943,2.34861824490203,2.34988836248858,2.3492361965283,2.34964606765043,2.34933175949634,2.35012421081559,2.35001803533288,2.35078160721899,2.34984793041267,2.34953575224266,2.34949862951976,2.34956447080801,2.34928185966678,2.3486329962287,2.34803011415413,2.31683772592637,2.28504548654494,2.28425242088797,2.28306146837752,2.28242529028958,2.28224554911937,2.282130664433,2.28178822324478,2.28187019998128,2.28139274150427,2.28154358207568,2.28153296794995,2.28188094915358,2.28201173714647,2.28241848576994,2.28230064373223,2.28230543117859,2.282091480293,2.28253119416424,2.28258559252591,2.28303184730102,2.28309066640417,2.28319826460507,2.28316630489828,2.28344531752208,2.28369743195066,2.28427188233802,2.28426186497041,2.28463558938823,2.28485226234798,2.28541645768697,2.28568964690077,2.28610028098223,2.28604842039201,2.28629370918248,2.28650925246879,2.28692051567765,2.28703908216643,2.287530853749,2.28799182110053,2.28855196851236,2.2888786108819,2.28948742963145,2.28948327169441,2.28992612473735,2.29077885924739,2.29215588096729,2.29357037851803,2.29522100483827,2.29622976108873,2.32028323568926,2.34248698684872,2.37153072019606,2.37143947392422,2.37350138019686,2.37452823468877,2.37537084492174,2.37582718024642,2.37647594650942,2.37666098994965,2.37708838824079,2.37666073563613,2.37636407538028,2.37558113956178,2.37675945283186,2.37766714111945,2.37850207457062
2.21707857078869,2.21829219729254,2.21996369824144,2.21995524972645,2.22225758659849,2.23086284861515,2.23234715584191,2.23328115680628,2.23407592878381,2.23417757393642,2.23504011996038,2.23510872759411,2.23534261774742,2.23563898288771,2.23532313850025,2.2359721543056,2.23654506130209,2.23712283677611,2.23760168280503,2.23804907341308,2.23839986670497,2.2393741002041,2.24027323708372,2.24137956114139,2.24217273133589,2.24331139524646,2.24479416501196,2.24771707058189,2.24988472547502,2.34154573147779,2.3419219913745,2.3427249368694,2.34283147832892,2.3447277303441,2.34616431721204,2.347485508257,2.3483227713916,2.34776723865331,2.34767365281108,2.3473076874118,2.3483423210409,2.34813895373047,2.34803047455762,2.34803979875264,2.34852091940137,2.34791917136377,2.34842006512896,2.34761795034743,2.3479388767478,2.3484291713229,2.34932292443201,2.34625206342497,2.34650839081023,2.34581012462368,2.34569865079318,2.34519266393859,2.34543527994066,2.34455038153232,2.34701537350382,2.34450481911508,2.34538347624735,2.34506633830265,2.34504734304281,2.34563580764068,2.34577904566906,2.34467465640317,2.34583857113263,2.34473129031698,2.34692162877507,2.34682999925363,2.34629066140292,2.34511004255528,2.34465460814175,2.34450094217408,2.34516566182717,2.34475497720029,2.34549386916356,2.3443788353123,2.34590030554677,2.34409379055062,2.34495845974637,2.34397401630399,2.3441968690078,2.34441366708406,2.34498487994013,2.34420893537639,2.34607384407696,2.344463330219,2.34577711176259,2.34487227144224,2.34666646247538,2.34467794194567,2.34628395679086,2.34776863908247,2.34803953108743,2.34724641832156,2.34867483573833,2.34759621138418,2.34935655070026,2.34874659735131,2.349836976816,2.35123785351086,2.34955927007936,2.34863678480668,2.34894430500938,2.34889435484952,2.34961660119488,2.34798476484823,2.34759652284415,2.34835306514896,2.28374743898891,2.28375157673909,2.28276454177091,2.28204391409804,2.28264105294243,2.2816167727718,2.282388828408,2.28142490154917,2.2816889815943,2.28093212764877,2.28167798354918,2.28155391488137,2.28178272031192,2.28160061319193,2.28261290852397,2.28195350662757,2.28216371367244,2.28171080109032,2.28300654200523,2.28268207775064,2.28339215241398,2.28293488337061,2.2831499718638,2.28314981298347,2.28404461326933,2.28429312732978,2.28482347312715,2.28417314545328,2.28517618298972,2.28513027451188,2.28590374000283,2.28573790122417,2.2859412122266,2.28612932148391,2.28674768627619,2.28641928883793,2.28721972329418,2.28695267536341,2.2880180641731,2.28809921742296,2.28870825869426,2.28922662032977,2.28942512357764,2.28977795621226,2.29134166061201,2.29189539472277,2.29384306512636,2.29506584718598,2.29650673758272,2.36443882550646,2.37244456918904,2.3735475703087,2.37287989784787,2.3756204804337,2.37498343829299,2.3750446582959,2.37578016386635,2.37566413447185,2.37600513199049,2.3763290753364,2.37666298824111,2.37624897595413,2.37505719426052,2.37640759215828,2.37788158955985,2.3777326738081
2.21723807316065,2.2183942945867,2.21983685628364,2.22081651611707,2.22249617266924,2.23061926598107,2.23172395774245,2.23306768215107,2.23343659190793,2.23407672044428,2.23433324789033,2.23478291558891,2.23500619109897,2.23523641679787,2.23547431630843,2.23593667600982,2.23645332184524,2.23686085220579,2.2373527247133,2.2378048266728,2.2384501018214,2.23937383158878,2.24038668875159,2.24154151807485,2.24285908716226,2.24412406623776,2.24528394176534,2.27824537223622,2.30053393827253,2.33943739659574,2.34037601701588,2.3415747185655,2.34244497700098,2.34456624178382,2.34629839941121,2.34778579236765,2.34815854084454,2.34832911266074,2.34794270117762,2.3481600410626,2.34837434491104,2.34840758377272,2.34800207252573,2.34878072149701,2.3490903487734,2.34873032298493,2.34839003968779,2.34843939107166,2.34763301347454,2.3482018980686,2.34850670457457,2.34735411101709,2.34589448915192,2.34505181189403,2.34489268269727,2.34480161961582,2.34411329075034,2.34402676806119,2.34429621204895,2.34377516393469,2.34328370464733,2.34328588456118,2.34356564137287,2.34430703463049,2.34454443524737,2.34490393731791,2.34461362735298,2.34526107032119,2.34470338216741,2.3451555545419,2.34421989214201,2.34398040661058,2.34345737582402,2.34383747770753,2.34384700560813,2.34453001781109,2.34414044748494,2.34439747328172,2.34384151630042,2.34401402305522,2.34350215007861,2.34325763139924,2.34283684743328,2.34323465764306,2.34317998044577,2.34400708844648,2.34401403914392,2.34471590468373,2.34423701312533,2.34484193968481,2.34470227544645,2.34494910473268,2.34514052885513,2.34619911989525,2.34631188343612,2.34703830804842,2.3469281349481,2.34776147340887,2.34756191684134,2.3484386762558,2.34835508716235,2.34905663433315,2.34839039461165,2.34839958468074,2.3483152116245,2.34828245271102,2.34754736395985,2.34688502977733,2.34608481260471,2.31517748717599,2.28414430944033,2.28345105618803,2.28238863005633,2.281959873122,2.28166463181085,2.28159496736191,2.28127830618158,2.28149530769447,2.28113375969121,2.28134028515559,2.28127041675603,2.28157424787676,2.2815858484717,2.28189891497034,2.28213340229248,2.2823892865161,2.28201758257449,2.28236936169007,2.28251631016632,2.28300575592724,2.28292281187977,2.28312379092521,2.28304959883097,2.28331014223956,2.28359251081048,2.28408148510781,2.28407916621759,2.28451003471702,2.28471373183417,2.28527648147924,2.28535347234274,2.28561639737703,2.28562117092158,2.28592041598668,2.28631975663206,2.28676596742652,2.28697038609654,2.28759360779471,2.28775538862294,2.288373512782,2.28870287098341,2.28922497817999,2.28938648238543,2.29026579811415,2.29169656293969,2.29318381396916,2.2946103284902,2.29564806131786,2.33094287984373,2.36678079075749,2.36962273234227,2.37139727532282,2.37216156476139,2.37374879941976,2.37398821017421,2.37446601419231,2.37456853959161,2.37490882733847,2.37508431489509,2.37544821880452,2.37492871152985,2.37473141689982,2.37388523942024,2.37494115801722,2.37576690364006,2.37654900589081
2.21649726092853,2.21808252429743,2.22011076461041,2.22029389419414,2.2229903418825,2.23036131111584,2.23215940180594,2.23279736481933,2.23366042321303,2.23337263913327,2.23425598213827,2.23418835844041,2.23476386642279,2.23475638685359,2.23538545740245,2.23594669666453,2.23629545893968,2.23665154864712,2.23698473114111,2.23758648180289,2.23827418368608,2.23953393289715,2.24035404314146,2.24135172749665,2.24232627352053,2.24375494940591,2.24493050602667,2.33191515491424,2.33314184239144,2.33766436721469,2.34171425579927,2.34257879163746,2.34293504058414,2.34548268288299,2.34772021938232,2.34873187718387,2.34942291898025,2.34873418789137,2.34881726180667,2.34814237561611,2.34934977059129,2.34904144165304,2.347835849105,2.34985935589554,2.35111483995639,2.34869844776565,2.34933391987321,2.34969236776795,2.34763639878053,2.3479601312011,2.34864273546878,2.34850269154798,2.34505496081815,2.34336892113642,2.34421010124338,2.34426412950114,2.34279089330214,2.34268298859261,2.34323030428508,2.34263226159137,2.34136759352535,2.34100137797188,2.34228564870664,2.34261687926938,2.34499293718395,2.34368943451949,2.34510168483108,2.344456518215,2.34420425971582,2.34277411050767,2.34355957866696,2.34241898647146,2.3427195123324,2.34287472308782,2.34388343849382,2.34339605853904,2.34474981902695,2.34282192836179,2.3436582664532,2.34264472693348,2.34379368233669,2.34205070361982,2.34200896518013,2.34179898687934,2.34259544374109,2.34253282989128,2.34401815211758,2.3435778756186,2.34439367993294,2.34342529661095,2.34451258362312,2.34453864961237,2.34457693096574,2.34475799260863,2.34627174884957,2.34533259813166,2.34728735189718,2.34613942866861,2.34771013210894,2.34681757852056,2.34827482225069,2.34754415563031,2.34765051263923,2.34808483117816,2.34825635612994,2.34816600450063,2.34714908957733,2.34793820881324,2.34692890224174,2.28496508391097,2.28333686917466,2.28257396033275,2.28207728895453,2.28211115364124,2.28207255859093,2.28099562716459,2.28127239507065,2.2806906564555,2.28155143633465,2.28078452141367,2.28159764442935,2.28135382846359,2.28162475218688,2.2817807410332,2.28266545960588,2.28230812611022,2.28256687834748,2.2818315983926,2.28309827785238,2.28277138389808,2.28319052971431,2.28313003978185,2.28312033753183,2.28305981431917,2.28382429077028,2.28341243470812,2.28411407423175,2.28389722149781,2.28510589086591,2.28495782082243,2.2855060668364,2.28538869515752,2.28548553228695,2.28529690993669,2.28664310377931,2.28653708824009,2.28735126516099,2.28769939405898,2.2880624158845,2.288211652411,2.28935922662477,2.289617538166,2.28954439243818,2.29017945190891,2.29215185943762,2.29292408933216,2.29429356654656,2.29534244857466,2.36935254114334,2.36900967153445,2.36981919570908,2.37174230113915,2.37164888095533,2.37289453969826,2.3732405905175,2.37365440086928,2.37450603038137,2.37406256990786,2.37560040481339,2.37530829021388,2.37452069381314,2.3749476976883,2.37358767966479,2.37478310369886,2.37551488605414,2.37559919094783
2.21727818660528,2.21835498768706,2.22172580186928,2.22430052569725,2.22627256014199,2.22983039260924,2.23126339971476,2.23281830920806,2.23312259294707,2.2336402857429,2.23399612516739,2.23469195646115,2.23480866199119,2.23496794565113,2.23536300045601,2.23559872237965,2.23597647994568,2.23639286846202,2.23681046595687,2.23743720691548,2.23832438840539,2.23927952290439,2.24025818540667,2.24137791799199,2.24274283226405,2.24373010890275,2.24446361401254,2.33255638119184,2.33338786462384,2.33571402441263,2.33900802717972,2.34167429125225,2.34232445086361,2.34319200222473,2.34423132554378,2.34570231734279,2.3466148619333,2.34751246198568,2.34778880255995,2.34815615264454,2.34721474848498,2.34716217110182,2.34599946914599,2.34708908689379,2.34794722599497,2.3481625179868,2.34790164119411,2.34814986030609,2.34792026841694,2.34829456236675,2.34873113934411,2.34612156523663,2.34366035551003,2.34323364972005,2.34298156461652,2.34359131681428,2.34302498335716,2.34286343648136,2.34298614967117,2.34244290855155,2.34122712684525,2.34102807776893,2.34144804130681,2.34221958533229,2.34276731236261,2.34295862815743,2.34269924758692,2.34334295506311,2.34237874031185,2.34261521044028,2.3422525966629,2.34222471888693,2.34179001328643,2.34214720200444,2.34219233640387,2.34279817411839,2.34252718821141,2.34236522556908,2.34164976824727,2.3419028010256,2.34150021190011,2.34143131186412,2.34101516898479,2.34143117614184,2.34139394800386,2.34206146936441,2.34203265875239,2.34287139274652,2.34250391408656,2.34321706155275,2.34338517708283,2.34366825160703,2.34345323348411,2.34416510409188,2.34452111766466,2.34541432715717,2.34547247329039,2.34649891561748,2.34629444104431,2.34741497700261,2.34690906338222,2.34690683795867,2.34645732288765,2.346818779392,2.34648913232132,2.34625982686718,2.34545351944712,2.3453005474646,2.34472739035487,2.28481225877684,2.28371345135064,2.28257750586017,2.28155700177096,2.28127704097158,2.28103268314542,2.28093443918508,2.28063204878124,2.28111454141375,2.28088931455826,2.28111419829265,2.2810797148553,2.28140547006233,2.2813825907557,2.28173135445866,2.28207299113982,2.28249426287692,2.28222019411746,2.28246692043216,2.28252713694187,2.28282574212525,2.2827198531006,2.28299187674436,2.28293159420558,2.28318662596818,2.28326152876421,2.28360302075126,2.28361546472063,2.28413494100299,2.28432747864583,2.28490499700125,2.28501615822508,2.28540140710548,2.28540315455844,2.2857118007701,2.28613738008482,2.28668050756263,2.28702016707204,2.28768769459972,2.28787196798657,2.28861924181055,2.28887428491619,2.28919610327802,2.28947049526724,2.29068916021251,2.29259234704346,2.29414552385819,2.29526016681071,2.33064029479632,2.36690524643969,2.36741162836547,2.3684154770205,2.36980228506607,2.3703353266821,2.37151306931567,2.37214619918064,2.37277822482063,2.37285280713139,2.3733490434402,2.37358189424048,2.37378082869823,2.37384323280895,2.37342648724251,2.37243995205144,2.37330593775949,2.37391185641288,2.37472303100508
2.21700677732184,2.21769199600346,2.22395501021518,2.2275678436858,2.22905848978936,2.23026688684763,2.23194265663648,2.23247411020385,2.23373027737433,2.23297583845264,2.2342867802142,2.23523076768847,2.23493739521299,2.23483903605457,2.23554077576244,2.23514308708433,2.23551830844771,2.23619215590379,2.23634465710559,2.23717156130417,2.23838529767328,2.23912134932437,2.23994443623771,2.24100580610993,2.24303980264209,2.24343513811372,2.24384395308275,2.33344271954907,2.3351469269319,2.24640248521862,2.33803634905516,2.3465860895056,2.34263499271222,2.34119942621074,2.34119366650869,2.34290313412855,2.3443470014218,2.34625444260211,2.34722394568505,2.34923908238887,2.34564409815548,2.34771571140852,2.30465559109184,2.25527201716107,2.34700342408282,2.34801745654541,2.34685023028693,2.34724722784291,2.34796651571635,2.25755881127065,2.33787744223857,2.26071630104706,2.30494947695784,2.3440222148577,2.34183751456858,2.34416777104845,2.3432282624341,2.34262572770229,2.34371286216842,2.34304304447605,2.34058648470774,2.34029646103543,2.34063473933132,2.34116741587888,2.34230721231964,2.34062699400122,2.34162015799738,2.34150164094571,2.34177073506556,2.34116872859593,2.34252636776855,2.34181733541815,2.34134490666431,2.34114677913963,2.34181059516131,2.34128201304551,2.3425764607925,2.34027527485324,2.34105334452934,2.34003081154884,2.34073906113636,2.34057670952978,2.34046518808929,2.3408899566974,2.34144714296722,2.34037443235247,2.34172101233918,2.3410092954102,2.34208901713107,2.34159831048651,2.34415071829547,2.3426317123412,2.34277514848574,2.34316589963213,2.3444260499895,2.34411643224345,2.34559055547238,2.34538488801726,2.34644190845972,2.34744542391903,2.34715747607466,2.34604175748883,2.34550363819631,2.34618823876071,2.34521520505639,2.34474940689889,2.34422167693692,2.34432862624572,2.34491347382919,2.28394408558366,2.28263727868538,2.28190406459825,2.28114332370324,2.28058757926763,2.28131570663277,2.28009149857682,2.28080505747531,2.28073260182712,2.28134424361595,2.28043520191643,2.28133250629409,2.28125918467359,2.28131266759144,2.28118376411476,2.28245125871169,2.28221468761125,2.2827994043287,2.28186877278283,2.2831597355078,2.28213479077896,2.28290854191116,2.28271732729054,2.28293814031358,2.28310038341976,2.28332587757956,2.28316742090888,2.28382507492154,2.28351468974307,2.28438148137051,2.28436106114968,2.28514462090956,2.285427789862,2.2854932967385,2.28568776590465,2.28632134038957,2.28619939799958,2.28742380055664,2.28716711581982,2.28817543472913,2.2889006168048,2.28936725657223,2.28922977590541,2.28956419749488,2.29052556604938,2.29247973500645,2.29376600168989,2.29549669557759,2.36594544248318,2.36656614883776,2.36783481657043,2.3688760043156,2.36994020496056,2.36970004836312,2.3708988945425,2.37209437322713,2.37224310842579,2.37234302614792,2.37271836908941,2.37319231560044,2.37226865997049,2.37520146041242,2.37355047845781,2.37212202392663,2.37316960690765,2.37373138028253,2.37434069935491
2.22224498313079,2.22327236095254,2.22515808977916,2.22742745750158,2.22857510471759,2.23011131643468,2.23100010956042,2.23229534304591,2.23259086578209,2.2331363366295,2.23350372344708,2.23421998257234,2.23455150380183,2.23494309399515,2.23500370569188,2.23513201615978,2.23556221069945,2.23602130609719,2.2364510631829,2.2370481558232,2.23780976072347,2.2385419478378,2.23942714651026,2.24041974720693,2.24166275782723,2.24254813261583,2.2432565874089,2.24398812383922,2.24540306712602,2.24628764334615,2.26406878537071,2.27010270971867,2.27051091817077,2.26952868654438,2.2701064469236,2.27252310472486,2.27476037441547,2.27516459305954,2.27356688903674,2.27108381430544,2.26941647037671,2.26950401258561,2.27053156604313,2.25197607468193,2.24881003246117,2.24700327236454,2.24612842848397,2.24669734569822,2.24837822468157,2.25343086752269,2.25500771434885,2.25742265058178,2.27882287213398,2.2832850284474,2.29272159951423,2.30305824472156,2.31307130909391,2.31908276409373,2.32905906694077,2.34089057343355,2.34030167742455,2.34025220087055,2.34019554198089,2.34118038874265,2.34162354419864,2.34118901111011,2.34033409095283,2.34079877756223,2.34023107483706,2.34071264700122,2.34062804166059,2.34081799130005,2.3403489365712,2.34061251499869,2.34036988004427,2.34081757272891,2.34023615581918,2.33989234417972,2.33929395335747,2.33952853370676,2.33919071042247,2.33944187559203,2.33908090513102,2.33946944174104,2.33938253267499,2.3398458459685,2.33973788562932,2.34053048447484,2.34038510823292,2.34120702165682,2.34137783682823,2.34154992347088,2.34148667427612,2.34227190809097,2.34272380043496,2.34392778212139,2.34424270822913,2.34526434829189,2.34510861961766,2.34595928613213,2.34435338979099,2.34403659946811,2.3432437370373,2.34306693028896,2.34254076839348,2.34258881080783,2.34211849212132,2.34157997469936,2.33942813940222,2.28441588530173,2.28344562621976,2.28198808225581,2.28091941598778,2.28067460493043,2.28072729032487,2.28058654559379,2.28026244923461,2.28071348343262,2.28057904794192,2.2807716842043,2.28068260755134,2.28109296560563,2.28102373774691,2.28129224811792,2.28150405375806,2.28195194392385,2.28184137388843,2.28218224393345,2.2821535676056,2.28242648865248,2.28239215820257,2.28269677873219,2.28268750778646,2.28296351913982,2.28298977504084,2.28340381873272,2.28337186912705,2.28376674385321,2.28391247666058,2.28449023830491,2.28467794857667,2.28509752300374,2.28521301640873,2.28563614491449,2.2860112804723,2.2865337771403,2.28689200741713,2.28743763756772,2.28782230805041,2.28874034838871,2.28891330293608,2.28930082843179,2.28990309165198,2.29156722237963,2.29367467472116,2.29516243171602,2.33034924758747,2.36511954536315,2.36560150396948,2.36667001438081,2.36768924167946,2.36843846612768,2.3685308859439,2.36964415505475,2.37047530200936,2.37108135820421,2.37137272964906,2.3720697027,2.37250398391114,2.37307426428997,2.37334292998204,2.37231542641229,2.37098936538016,2.37151217864058,2.37219505178967,2.37317561764189
2.22500913549906,2.22591616759871,2.22638474351137,2.22746576592357,2.22898423220011,2.22927104606035,2.23106232751133,2.23167562238302,2.23256328010854,2.23230815849026,2.23330388600258,2.23302427590746,2.23423658237145,2.2352846127246,2.23441912155184,2.23488706705565,2.23543689101178,2.23598323198661,2.2362608282412,2.23693955361645,2.23730906651479,2.23796107183802,2.23875145157881,2.23947201846901,2.23997845839302,2.24149742006971,2.24174992892628,2.24237588532705,2.24287655288816,2.2431969501211,2.24373029849467,2.24447426953929,2.24512765903611,2.24492299822803,2.24495897289023,2.24599458982516,2.2466275890271,2.24718696499347,2.24749001746953,2.24841024877118,2.24951221987815,2.25042671033893,2.25163529494857,2.25144966325909,2.25112680521528,2.25054908327543,2.25176755526445,2.25277313174288,2.25428662285996,2.25546895722616,2.25542599510684,2.2574600693423,2.25914538544055,2.25897262418266,2.25965997557041,2.26114698194456,2.26259211152493,2.26464438927015,2.26578811468625,2.34122204475128,2.34096769141205,2.34157358595075,2.34085614760151,2.34234151802119,2.34252087380499,2.3410331976787,2.33949986895527,2.33911906889171,2.33958330296415,2.33916192566524,2.34013291493263,2.33996512813243,2.33981638192588,2.34005261552044,2.34002128400873,2.33968500738027,2.33992328885595,2.33768120880684,2.33897812847225,2.33790501942573,2.33884811883016,2.33836410266809,2.33815235373237,2.33793255273743,2.33863508054924,2.33809642672807,2.33926189342993,2.33877617789207,2.34012225514045,2.3396443918338,2.34050098158365,2.34010185668859,2.340649645525,2.34103450664137,2.34230784363498,2.3426060205188,2.34485915534602,2.3438387148659,2.3454372079727,2.34491773710628,2.34223414279042,2.34188711869263,2.34127939789297,2.34020143839331,2.33984118664688,2.34082012590734,2.34197014728451,2.34156941575685,2.33671733016031,2.28373547582596,2.28349049573934,2.28136368613199,2.28077953149143,2.28051533310452,2.2817010577648,2.28018791173983,2.28053817027865,2.27974153830677,2.28106206881795,2.28011243002198,2.28067128840561,2.28085431157993,2.28094108202136,2.28095157197228,2.28136927709286,2.28108803246221,2.28187646909459,2.28144490658166,2.28228812172161,2.28187451739994,2.28257583186245,2.28251819410658,2.28266202375314,2.2826750564753,2.28317132675795,2.28311630042794,2.28372601353378,2.2830629841079,2.28424826299266,2.28403260313807,2.28488850548706,2.28468956998188,2.28511660315766,2.28528544211687,2.28640220924261,2.28615862821628,2.28729889960049,2.28690864325748,2.28815375095763,2.28899486649521,2.28969455127733,2.2900349027289,2.29068392401736,2.29181851427569,2.29417062097444,2.29629546390552,2.3661895015314,2.36630779163532,2.36675964126997,2.36738856896412,2.36824837350996,2.36862806289983,2.36803025375396,2.36930525913345,2.3704589494088,2.37018995749744,2.37160460854998,2.37145642703682,2.37320525517102,2.3739911138725,2.37428996019367,2.37233524510588,2.37047239506145,2.3707636208519,2.37186994053158,2.3731068779716
2.22535895975203,2.2262392191348,2.22691182831182,2.22793499053998,2.22879469437457,2.22993301906563,2.23075718079831,2.23205502827459,2.23247254457363,2.23282388989618,2.23284841972241,2.23333223583277,2.2337806890157,2.23417669463533,2.23437650063716,2.23461314747083,2.23520889079462,2.23567285923268,2.23637161305825,2.23677294252226,2.23729329187355,2.2377005291395,2.23828585278499,2.2388424851141,2.23956946848606,2.24039962409818,2.24090274861114,2.24128842312962,2.24179727664105,2.24206452915428,2.24270639331579,2.24368460426158,2.24446369494412,2.24439566286124,2.24455994482632,2.24509997814042,2.2458709455866,2.24630168083598,2.24697448465411,2.24777437231264,2.24881252565581,2.24994540866651,2.25114794429076,2.25121602986499,2.25126294165871,2.25153192752165,2.25217522732863,2.25282001773291,2.2537663107749,2.25505342904545,2.25637009376223,2.25755024880076,2.25851532546658,2.25875560171633,2.25927595442687,2.26049168291711,2.26183995360997,2.26368676712613,2.26493342750109,2.2777354446083,2.28988214474975,2.30328614428679,2.31636520514078,2.32710339412017,2.33759054700497,2.33851184898559,2.33820533299797,2.33863160972448,2.33824484959696,2.33879305212378,2.33870518320952,2.33907281726893,2.33868499824006,2.33890897038483,2.33856079316199,2.33868420315626,2.33785403185328,2.3378060558488,2.33735008969975,2.33771209655834,2.33731876355315,2.33733089100462,2.33692089693128,2.33717416575457,2.33712598632151,2.33769715369201,2.33765517957249,2.33848174795723,2.33845557950948,2.33918851008436,2.33916617393764,2.33959901623081,2.33965725078159,2.34043180343313,2.34085269022348,2.34205428550168,2.34239464058063,2.34334820405181,2.34324186029088,2.34340251974427,2.34108522964303,2.34028905558421,2.33963488260212,2.33933632827278,2.33918123702737,2.33895555228747,2.33831252629354,2.33846400021595,2.3125349882783,2.28389387336647,2.28315377079802,2.28168113286361,2.28060892311863,2.28050611584653,2.28056528528663,2.28057586430071,2.28006643759115,2.28026254489874,2.28004899813394,2.28032347120446,2.28014361434297,2.28052045137506,2.2805313971261,2.28084059632491,2.28090108771409,2.28122688650301,2.28116070789916,2.28170307660648,2.2816392446243,2.28209846332423,2.2821066087097,2.28248465515317,2.28244435681775,2.28267582100151,2.28277475734726,2.28326406930532,2.28325520875195,2.28366394784995,2.28376908656645,2.2842578910809,2.28441913016316,2.28476878718689,2.28500988734284,2.28555519505589,2.2859980558385,2.28655248472614,2.28678654732457,2.28735822172972,2.28783569782294,2.2889205642483,2.28974767623928,2.29068631310139,2.29169289073852,2.29267314518808,2.29409945318445,2.32966435812383,2.36426114914093,2.36476441234711,2.36548062662712,2.36644440279218,2.36700470561364,2.36721233001217,2.36685174316755,2.3678743423361,2.36876246783952,2.36937109529461,2.36964957224525,2.37051622453904,2.37148266227643,2.37281514600875,2.37227384005418,2.37090595795299,2.36938839316824,2.3696778564942,2.37022414995585,2.37098363692231
2.22567327755822,2.22651092023652,2.22732647614507,2.22788228759252,2.22932881002267,2.22960733036909,2.23139334261619,2.23181227017829,2.23384430201763,2.23247096028378,2.23288349779266,2.23310552882108,2.23348326450597,2.23325310753227,2.23416739463118,2.2342351201426,2.23474206550892,2.23545954228491,2.23640387034883,2.23683736998977,2.23724111989496,2.23753086505978,2.23787433062633,2.23822859153097,2.23854238808466,2.23969875994423,2.23959923099614,2.24071368886536,2.24115543636692,2.24078276127865,2.24083767315609,2.24198665378514,2.24300556450912,2.24276193487126,2.24305331271452,2.24414585355814,2.24500086544281,2.24559687626165,2.24596124218225,2.24722281810595,2.24743911075826,2.24840283250452,2.24960982547953,2.24998032825354,2.24992788818808,2.25116023379992,2.25145385695323,2.2525992931799,2.25299147854597,2.25451710430767,2.25522937169009,2.25636295190528,2.25715584575485,2.25756332037129,2.25842642731439,2.25930288825224,2.26051837722319,2.2616989314414,2.26343141879385,2.26578034482588,2.26675219770503,2.26821652012856,2.270319153703,2.27045041580511,2.33715813901642,2.33748644818985,2.33774824466319,2.33755736101077,2.3374142773692,2.33765004340631,2.33812207495159,2.33854838227408,2.33803674028847,2.33783882227056,2.3383779525878,2.33698088479354,2.33725116427388,2.33627840513434,2.33717241806221,2.33658875589423,2.33716494108989,2.33614477136585,2.33617759257741,2.33612157936212,2.3368166673262,2.33617174543652,2.33751793412425,2.33690531071768,2.33835767844259,2.3377476053585,2.33920466582229,2.33890443993564,2.33918243540877,2.33957656234674,2.34052312757025,2.34051861738928,2.34178394885695,2.34165284999654,2.34324623813175,2.3425400413373,2.34023952626405,2.33794814931042,2.33837942422167,2.33817140604312,2.33918536613921,2.33799968014496,2.33656628270712,2.33810109013947,2.28969875799136,2.28221926131728,2.28221285597611,2.2811489353801,2.28050614087422,2.28036661527363,2.28086729455396,2.28036034906854,2.28048689681133,2.27963511130598,2.28012540175868,2.27970127180374,2.28019703696626,2.27999657157588,2.28036297195728,2.28047326962032,2.28121041499589,2.28059939828797,2.2812708152204,2.28114178659788,2.28190226927262,2.28161857529372,2.28230701504662,2.28239144022591,2.28246362076214,2.28238856091195,2.28291762359272,2.28290644210877,2.2836424219835,2.28332258139021,2.28418616393954,2.28379525070614,2.28470160182607,2.28454744624361,2.28510533266274,2.28552941749941,2.28641154003525,2.28634930803195,2.28722148878492,2.28708851632952,2.28847960661353,2.2891686298295,2.2912312657477,2.291543848778,2.29246166169508,2.29288857698356,2.29454185141627,2.36291392519231,2.36414929803312,2.36506530043606,2.36601277816604,2.36653281473669,2.36733046027509,2.36726024984013,2.36632490569349,2.36746520576971,2.36885325618047,2.3689023537321,2.36871837121202,2.36931755524573,2.37094648924786,2.37341801852402,2.37253934916085,2.37058874205079,2.36885606463282,2.36947463883808,2.36976984642059,2.36995029715575
2.22607221137208,2.22690805115501,2.22748081541547,2.22827403032166,2.22892917576191,2.22997813423478,2.23059391673076,2.23172608922389,2.23219685740028,2.23290907065235,2.23279979001153,2.23331269248144,2.23354069465749,2.23377734800236,2.23456891178703,2.23456338852472,2.23497025082243,2.23527341885294,2.23598739616913,2.23630964776157,2.23693256962822,2.23732857951166,2.2377200372844,2.23800395109657,2.23842833523495,2.23885654853949,2.23945507892437,2.23992044919321,2.2404612653952,2.24057171416709,2.24102169091278,2.24159853429389,2.24222056135924,2.24237345869706,2.24291898825924,2.24357045255247,2.24446075603778,2.24491611338423,2.24586459643803,2.24637124315246,2.24710240659232,2.24768056009129,2.24843660071741,2.2488855197615,2.24959224736035,2.25021389916269,2.25122661226979,2.25191520124576,2.25288436711677,2.25360567950372,2.25455911428615,2.25529470337192,2.25593281889327,2.25671215905373,2.25741814999381,2.25871878990341,2.25976414202374,2.26133684944542,2.2627402270305,2.26463423500159,2.26643012695906,2.26873527127975,2.27043913223754,2.27115091875128,2.30529589292511,2.33620944617004,2.33577567412966,2.33601836818015,2.33601195345644,2.3366733352002,2.33683661738334,2.33729492745945,2.33690784249366,2.33701353738281,2.33670474135444,2.3365950416307,2.33586061280666,2.33611669704329,2.33578735087983,2.33614369623057,2.33560706914489,2.33554809386333,2.33518642399768,2.33553403238757,2.33556224000874,2.33613075876556,2.33610830168206,2.33694982195475,2.3369568236531,2.33771277670827,2.33796563773227,2.33831338616643,2.33829257448979,2.33896289778059,2.33916047030789,2.34004209774791,2.34032138741398,2.34142095071817,2.34134296856984,2.34138600502059,2.33939030180989,2.33822665475381,2.33756239987614,2.33724786719694,2.33718052609969,2.33662603468494,2.33598406153844,2.33651658459242,2.28679224385871,2.2842932116769,2.2828305901331,2.28131513112974,2.28030660497777,2.28023372094708,2.2801233490909,2.28026832804877,2.27988542232849,2.28016910278861,2.27993218681558,2.28006555869547,2.27974221969844,2.27999625033447,2.28004782441561,2.28039496911759,2.28052516319226,2.28091532982009,2.28098905326045,2.28162841546947,2.28166327086934,2.28203812049055,2.28205000827186,2.28231856345315,2.28229356511964,2.28257035825474,2.28265387413366,2.28308588715087,2.28312700687164,2.28371967768074,2.28374525816574,2.28427539645344,2.28458806603742,2.2849070917975,2.28502438322623,2.28547828829386,2.2858249418574,2.28651545357035,2.28691156963356,2.28797437853721,2.28881537481128,2.29017906038741,2.29163916430021,2.29268725546351,2.31280786679104,2.32536865566249,2.34115541485748,2.36246004821279,2.36319244307013,2.36437640203387,2.3652568141535,2.36591038001152,2.36594010561066,2.36568841774264,2.3651241691332,2.36606850262328,2.36689078162316,2.36765398217498,2.36773723466005,2.36841581594774,2.36917405137817,2.37019939621906,2.36985863986519,2.36888087726563,2.36751801066284,2.36784238200891,2.36818061582581,2.36861600507742
2.22659002027761,2.22710773339611,2.22766851915461,2.22807326313004,2.22918359117381,2.22945021643091,2.23073153909978,2.23076681669255,2.23173421097185,2.23295874546921,2.23305237293999,2.23324718238055,2.23364857091444,2.2338579775865,2.235413458433,2.23501158293317,2.23460557918673,2.23533875258208,2.23524699336001,2.23608606834808,2.2364196001561,2.23744981777124,2.2375474359662,2.23794630779238,2.2379259898267,2.2384187423048,2.23886380399395,2.23965024162845,2.23963283756114,2.24059644602098,2.24080632402917,2.24141549890025,2.24158901483689,2.24187550677655,2.2419960528445,2.24342945917609,2.24327038144192,2.24447285087304,2.24521288078439,2.24615119412919,2.24650932698135,2.24753349365064,2.24768960054714,2.24837734695354,2.24871757067123,2.25008035606878,2.25020926826522,2.25206634209842,2.25193085020755,2.25341907407713,2.25379022895157,2.2551848591487,2.25533533039574,2.25615504726118,2.25681365981875,2.25771080922162,2.25940463055807,2.25999454855111,2.26215770535607,2.26318156657831,2.26605836356629,2.26868805278939,2.26964589451102,2.27048521094839,2.27264194668769,2.33714727611574,2.33578745732807,2.33529245646206,2.33533208051815,2.33536136899863,2.33609655234591,2.33656834279862,2.33623813399846,2.33610145374325,2.33655499941863,2.33518832050981,2.3357558573731,2.33446101742876,2.33601440785757,2.33486842056836,2.33536692358845,2.33465653229541,2.33463321673955,2.33466480552552,2.33557130656903,2.33494704702717,2.33614782270771,2.33572061024395,2.33710882024232,2.33648122561672,2.33842505439619,2.33753393843982,2.33788970825118,2.33824963207211,2.33893694007486,2.33843531677507,2.34037050360493,2.34024523234803,2.34163675051845,2.34057984971898,2.33942007440768,2.33742765531447,2.33708024037742,2.33594455190801,2.33630285372147,2.3359196383059,2.33626756649634,2.33794499353407,2.28328423302963,2.28256631183992,2.28280686866412,2.28099412901898,2.28026564827348,2.28011356606248,2.28046992296633,2.27950490259679,2.28021338563394,2.27964437629144,2.28095330137273,2.27959413875586,2.27985044395197,2.27964102306193,2.27997704773737,2.28003113387589,2.28062026710154,2.28039589972074,2.28157556644591,2.28130186064563,2.28252110325187,2.28166701579823,2.28257824546357,2.28205653130139,2.28233827849692,2.28250250750615,2.28300645213647,2.28260331804105,2.2833857453717,2.28337805406137,2.2841293358589,2.28390756220316,2.28544290524547,2.28502871398437,2.28512446467414,2.28511340410878,2.28589645039414,2.28614576080269,2.28748588559812,2.28839084176592,2.28995595344203,2.29008168914668,2.2913864877773,2.29277161869052,2.32522313197029,2.36297195574487,2.36378497334178,2.36368622551258,2.36433471235355,2.36504237993314,2.36575040685409,2.36605336745304,2.3659056441184,2.36541910605361,2.36460327478319,2.36576225592782,2.36654823306875,2.36710937524,2.36774036813551,2.36727465780476,2.36871305116361,2.3683043664958,2.36933142868378,2.36853103063772,2.36683368279087,2.36735310969284,2.36781805692871,2.36798521239667
2.22610822939202,2.22699869692157,2.22744077637408,2.22805583788868,2.22844123001508,2.22936041641136,2.22994742673868,2.23118231696492,2.231637924695,2.23271697929525,2.23271768261728,2.23340874338447,2.23375053418537,2.23425821823779,2.23533113939078,2.2350118947695,2.23530459796613,2.23512685649844,2.23551373055295,2.23578393312203,2.23652588976055,2.23694002812053,2.23732464468265,2.23755834562018,2.23792869564501,2.23818575769277,2.2387660222797,2.23917451832262,2.2397009338129,2.24021174002584,2.24079604952589,2.24105918826966,2.24129548014559,2.24151321648048,2.24216811535666,2.24275838210504,2.24357638286158,2.24404167230373,2.24503969124848,2.24555995110298,2.24636248205426,2.24692574304295,2.2474151566199,2.24790763437967,2.24873450408121,2.24924187596869,2.25033137535654,2.25096789307366,2.25200840096739,2.25258664297578,2.25349131875526,2.25411687398316,2.2547309884649,2.25558021244185,2.25630343079842,2.2575227313149,2.25856256590912,2.26001965207591,2.26127539862442,2.26339682870733,2.26479309295201,2.26680508982858,2.26840688034329,2.27031895441293,2.27222408692212,2.30377075858245,2.33316590528427,2.33341890120224,2.33381826571841,2.33458542972263,2.33512410796602,2.33564100004173,2.33521961764455,2.33523889353993,2.33492855760137,2.33481323206311,2.33408698330106,2.33434884680538,2.33400854888858,2.33430674696608,2.33386951146493,2.33392191571224,2.33367185473505,2.33415229846181,2.33431826176718,2.33491598866015,2.33494436660332,2.33595777718053,2.33618641161386,2.33707164384934,2.33692660612873,2.33716705534703,2.33717680358376,2.33796790388329,2.33812561594602,2.33867057911205,2.33893731017588,2.33999913627727,2.340018022444,2.34020539127756,2.33896635553512,2.33808562888843,2.33712255776905,2.33642125900995,2.33605793597573,2.33578714969925,2.335581320583,2.33611373358093,2.28380418977703,2.283015381517,2.28195765833089,2.28077908140842,2.2799703296804,2.28002254134901,2.2798846826251,2.27984791580129,2.27963850455684,2.28004238490099,2.2798785046363,2.27995025921909,2.279592269578,2.27981382604282,2.27978398665162,2.28007278239393,2.2802388625049,2.2807508895098,2.28093935170271,2.28155550257774,2.28155533458788,2.28187281160799,2.28201684733887,2.28214888550497,2.28215280902765,2.28247636216387,2.2825056297274,2.28292275472985,2.2830384686449,2.28363811290435,2.28373887002148,2.28437706992403,2.28471812146903,2.28494940344162,2.28500942471626,2.28542704076501,2.28576826073157,2.28665620330939,2.28754658406856,2.28920809424548,2.29042161817397,2.29191115684205,2.29278937780395,2.31781070537425,2.338177285055,2.36191514266506,2.36264832430544,2.36330172769541,2.36394274360612,2.36463225786527,2.36494280347758,2.36512462997503,2.36468339194127,2.36421729374548,2.36359202631506,2.36440973696629,2.3650060181504,2.36573358656466,2.36566278250855,2.366418834942,2.36671137149356,2.36709999560315,2.36692242636089,2.36647584164336,2.36547659496276,2.36600584875322,2.36664638766916,2.36709324089052
2.2259418218543,2.22680766331212,2.2273297296968,2.22751428527149,2.22824096934539,2.22823237163757,2.23000048602314,2.23080512695977,2.23237653026777,2.23231842207626,2.2326585634512,2.2333604315755,2.23371595757842,2.23429787038711,2.23616105648041,2.23514563759848,2.23559559664902,2.23525986572166,2.23498598773708,2.23580155767065,2.23636683521907,2.23681678284419,2.23702922740544,2.23728859071585,2.23767659543292,2.23814367647479,2.23827722186388,2.23915476308064,2.23928802753042,2.24035154064364,2.2409310160551,2.24126001694465,2.24116047886287,2.24142662698605,2.2417934736369,2.24290800033979,2.24308082105841,2.24418394885175,2.24418606792632,2.24573703471234,2.24585537745219,2.24726924595489,2.24726652490481,2.2481549061975,2.24810267961415,2.24932361172477,2.24932127217457,2.25107879892087,2.25105891617032,2.25277733160633,2.25274156098111,2.25387248832495,2.2543563080523,2.25502950295244,2.25623842599941,2.25650935773324,2.25865990961242,2.25907881643444,2.26106980663623,2.26392488409921,2.26456586298306,2.26609659560664,2.26741209623298,2.2695611205187,2.27274657908067,2.27356620778925,2.33321021919307,2.33288795216725,2.33354813425182,2.33370143566882,2.33484283257961,2.33546722386722,2.33459092971801,2.3341865210623,2.33478363011001,2.33338964684462,2.33372160319326,2.33272827067648,2.33368540362172,2.33271209673627,2.33368759782175,2.33286745298608,2.33312875811234,2.33333662688755,2.33443304258519,2.33369761226371,2.33506876312662,2.33486770838059,2.33691158219789,2.33699982911529,2.33681834555113,2.33646465171031,2.33682542821707,2.33774764828489,2.33871791577084,2.33748552492582,2.33897927131927,2.33872739621073,2.34046550776934,2.3396281174201,2.33978056137162,2.33821994051558,2.33741748241103,2.33647066100535,2.33649012291123,2.33663382577594,2.33657489550217,2.33720647882667,2.28282190460463,2.28206100171899,2.28107595723784,2.28015593881623,2.27977732594991,2.27991788902828,2.28045177281036,2.27912368426715,2.28004042700558,2.2794278970632,2.28015358518666,2.27945065633335,2.27989387656165,2.27968334603679,2.27980936874899,2.27974091775244,2.28053897021961,2.28029436468534,2.28129324173622,2.2810296515146,2.28169387018464,2.28111193163936,2.28250067052161,2.28189008360749,2.28217292022112,2.28228414027258,2.28261216182282,2.28244867755487,2.28357458724532,2.28304539996373,2.28417807904676,2.2840480871813,2.28510011476117,2.28459882226477,2.28506922304601,2.28548939768817,2.28614856714245,2.28663373626404,2.28818388692716,2.28952911489007,2.29039775360722,2.29158005076803,2.29296453769849,2.36110005564989,2.35955554337875,2.36195489986895,2.36289103405732,2.36365683144736,2.36418393978587,2.3645528448273,2.36495986770022,2.36499593082583,2.36469556923575,2.36423708788525,2.3631586637932,2.36421861351475,2.36487281124833,2.36520279622946,2.36428200938028,2.36583317373854,2.36614744116681,2.36644150310002,2.36634875115021,2.36595901838494,2.36483372357348,2.36569295939734,2.36691834104226,2.36686100548572
2.22545635454071,2.22640701910505,2.22695595648552,2.22761569456104,2.22785741032559,2.22862739260385,2.22914424805963,2.23048270261909,2.23092293541055,2.23183807120463,2.23220685775727,2.23296677375309,2.23326348276331,2.23365331108299,2.2346504454445,2.23466892908632,2.23526337961346,2.23494536051535,2.23520447152612,2.23544356693095,2.23619642431398,2.23655790958617,2.23690022117295,2.23709033488118,2.23766183662656,2.23831863965301,2.23872394279749,2.23884662579208,2.23927877242925,2.23977922735878,2.24046127736725,2.24086327985224,2.24115173967056,2.24138217248796,2.2419859251989,2.24244868578546,2.24337418409082,2.24373135264382,2.24454828748518,2.24510291905741,2.24593827646196,2.24645090344118,2.24701288938641,2.2474276529345,2.24828800644617,2.2488086505299,2.24988679908964,2.2502350146769,2.25131834268457,2.25179040544845,2.25264790950314,2.25324992670364,2.25405114976206,2.25486269131672,2.25554120168783,2.25657519184686,2.25758727032671,2.25904350720703,2.26022204469017,2.26230892253231,2.26333152234661,2.26518288485046,2.26652136825548,2.26905352773626,2.27193819399378,2.27421254850874,2.33201000482501,2.33177781089855,2.33225925752921,2.33288245990212,2.33322233224072,2.33368194030696,2.33338610628965,2.3335295000127,2.33307141663988,2.3331209134492,2.33249793128297,2.33270050449933,2.33223368754162,2.33254073507244,2.33217478032919,2.3323471123668,2.33226590946708,2.33287743771557,2.33309947247376,2.33362666365249,2.33362900212885,2.33471118073964,2.33478070109631,2.3356345585333,2.33527233791605,2.33557582982642,2.33559798788114,2.33637427589326,2.33670294255133,2.33733298510397,2.33785564367408,2.33887376838457,2.33897170456617,2.33933577406574,2.3386624406214,2.33820046310495,2.33756688318421,2.33719317701251,2.33668299267733,2.33607976360184,2.33508509783102,2.31040791400818,2.28380760688661,2.28272786843706,2.28117346165438,2.27995332503023,2.27927153808124,2.27936096423137,2.27930670641409,2.2794199989957,2.27934869472488,2.27966605887465,2.27936227529168,2.27968879866866,2.27961152340643,2.27976157800629,2.27963317994005,2.27984655306216,2.2800298109821,2.28063578472772,2.28061448330384,2.28104641192746,2.28098251910968,2.28144213790205,2.2816343726764,2.28192619033559,2.28201367462851,2.28241781973994,2.28241767943675,2.28276817288389,2.28284794346323,2.28336759448133,2.28355303514152,2.28405731345285,2.28428372074494,2.28476990090138,2.28492575289818,2.2854377037237,2.28600254178108,2.28716821831711,2.28848942735837,2.29029329594948,2.29163604511565,2.2927471580079,2.3230097734659,2.35849090789807,2.35867006293588,2.36066780351916,2.36187856203547,2.36306939109893,2.36370774456363,2.36411760554035,2.36362718600289,2.36337027176619,2.3629924998798,2.36260166435461,2.3620205801322,2.36273537706334,2.36315391506943,2.36346699159597,2.36341986738579,2.36430964330998,2.36446639835946,2.36522260843303,2.36542490853235,2.36461532447475,2.36372478282671,2.36434586397237,2.3651189467362,2.3655920094687
2.22529268194558,2.22584149853526,2.22677575432983,2.22736116651119,2.22804716552288,2.22786957587333,2.22898587740385,2.22944191762971,2.23048759919486,2.23062422438164,2.23235699161936,2.23245110209647,2.23277104664925,2.23256639877383,2.23371373832971,2.23427786749285,2.23507295973271,2.23486452548455,2.23463845739173,2.23527768840515,2.23589503038931,2.23662536117725,2.23671664927145,2.2367068796254,2.23724714693389,2.23916422825036,2.2389559075692,2.23869681828877,2.23871386866243,2.23948065746592,2.23998149090404,2.240880575037,2.24107010754609,2.2414941846934,2.24159504591282,2.24256735110892,2.24307688695341,2.24399104975215,2.24400983873754,2.24522818836601,2.24557858548127,2.24619798243177,2.24657837528101,2.24709192082843,2.24755988366039,2.24933951746857,2.24937926522748,2.25045806853879,2.25047865962433,2.25186972543823,2.25179409683375,2.25305192420927,2.25374472626298,2.25451138771936,2.25523889977604,2.2556667361858,2.25733953577236,2.25806049621862,2.25991422997873,2.2611804974597,2.26303874287265,2.2655775319267,2.2663122732135,2.26726385883669,2.26954781624146,2.27557463323443,2.33353391443,2.33112846612324,2.33195056808391,2.33203828780799,2.33208559642673,2.33252830030643,2.3325678992675,2.33294934440276,2.33251187312299,2.3318371476842,2.33274579591175,2.33119584550163,2.33234418393105,2.3312382459347,2.33192827570713,2.33143169957218,2.3318467941905,2.33215996966308,2.33326427526636,2.3322815338443,2.33344221425196,2.33341566760439,2.33417981352897,2.33375884983601,2.3348285001913,2.33438741420011,2.3347604571823,2.33486767930369,2.33618061982413,2.33557175122263,2.33849987835696,2.33786921681355,2.33941989339112,2.33845763567988,2.33887524323147,2.33768188750152,2.33782051075934,2.33811963059443,2.33813378154827,2.33794435164641,2.33573692644987,2.28376487862953,2.28312310015978,2.28177167104538,2.28064570705257,2.27921164997399,2.27893490106102,2.27871924876859,2.27920195940848,2.27867021250132,2.27982516062938,2.27897610192384,2.27949275320025,2.27907400928506,2.28021686591026,2.27957865143899,2.27963669909921,2.27950515347597,2.28009189024945,2.28050907932111,2.28084879506591,2.28020607508422,2.28111725777802,2.28093540472921,2.28166999894141,2.28170192465151,2.28205719555656,2.28248835751873,2.28287800304112,2.28224860764064,2.28306403348339,2.28266373220514,2.28398059531578,2.28325042305642,2.28419145235284,2.28486435080019,2.2849808999299,2.28524477442127,2.28630295180616,2.28712156885916,2.28891040637014,2.28952268660049,2.29128715146398,2.29249645027948,2.35536255721277,2.35681013517809,2.35811246701908,2.36068821395154,2.36067049735588,2.36244731644307,2.36348409595537,2.36449115261383,2.36272007661282,2.36225047406193,2.36238024914909,2.36215478341666,2.36137940788049,2.36242315448947,2.3629854218689,2.36208679452794,2.36306853838548,2.36329117467194,2.36371432451333,2.36456568246954,2.36707173248829,2.36426566257753,2.36310811140059,2.36397764022636,2.36475576052894,2.36483784745117
2.22493006157235,2.22575456072401,2.22632714747421,2.22701447693714,2.22741926148296,2.22826204428591,2.22857740619871,2.22976840718424,2.22982231325965,2.23074037954081,2.23127305153049,2.23203242928239,2.23254634921178,2.23303291958741,2.23321600118283,2.2334956021191,2.23404078165595,2.23417697889268,2.23462279494792,2.23509594609135,2.23584051643932,2.2365923647429,2.23676818749012,2.23682370989519,2.23739343849851,2.23818194113901,2.23849446778123,2.23850591138384,2.23887769564746,2.2393655373753,2.24000518486792,2.24056767646621,2.24102177874171,2.24131307360898,2.24182955766607,2.24217296394929,2.24311592599105,2.24364399297885,2.24438291295175,2.24479657800343,2.24557386550339,2.2459636120121,2.24658550816663,2.24697816560927,2.24794895162118,2.24842416742703,2.2493929540179,2.24966742873701,2.25078866286983,2.25117696326066,2.25203994831913,2.25264826831444,2.25351079513833,2.25429658657258,2.254978788582,2.25599408027945,2.25696156301961,2.25823776201893,2.25928235821531,2.26090374831025,2.26239357298872,2.26445392123413,2.26604851825425,2.26825051618446,2.2703332167969,2.30080132694934,2.32897989427139,2.32909376870214,2.32979686424331,2.33066777387116,2.33089567980472,2.33137516325675,2.33126256018629,2.3315715666433,2.3312757481732,2.33166837437853,2.33116236134154,2.33128389115975,2.33079715149234,2.33123976065675,2.33069524063816,2.3310783007188,2.33113133549812,2.33197570677186,2.33212837895057,2.33240931211286,2.33211702389037,2.33289480938953,2.33279835016739,2.33358758401558,2.33348284368421,2.33385671002549,2.33385959895542,2.33450731138371,2.33489361224823,2.33578564783746,2.33623182126542,2.33715623150678,2.33727719343787,2.33790942444435,2.33767640231883,2.33777529618875,2.33761288062161,2.33767620548622,2.33751411495935,2.33709206572192,2.33602439136405,2.28408914273959,2.2831760512842,2.28182962774701,2.28036224654552,2.27931654921564,2.2786668263448,2.27867526203776,2.27867874222304,2.27905465277641,2.27893761063037,2.27924927922428,2.27906631559299,2.27939893079601,2.2793969526278,2.27956449834489,2.27945687651171,2.27965160804592,2.27977720107389,2.28038305990034,2.28034557181666,2.28070542504442,2.28077429689988,2.28129105637255,2.28126106962191,2.28152656280931,2.28168451817062,2.28215490215728,2.28223254631313,2.28260199590848,2.28266154507692,2.28314809673552,2.2832625331993,2.28372787431242,2.2838611915731,2.28446592765365,2.28478895603274,2.28554247778454,2.28649458207925,2.28790148518554,2.28953882117751,2.29115960037556,2.29229558884643,2.32262056513656,2.35388387343689,2.35509948563624,2.35656812480346,2.35817518169402,2.36068774068158,2.36147205348787,2.36178863675836,2.36194095104664,2.36154202575997,2.36114477341012,2.36090905928481,2.36066177172092,2.36021956506718,2.36105706526473,2.36166819022274,2.36184861831055,2.36213204022816,2.36271727967345,2.36266065940162,2.36325903107055,2.36352467598458,2.36265493135588,2.36190381419439,2.36251677583577,2.36315580371641,2.36380017191245
2.22488789299665,2.22533452289709,2.22607319001869,2.22616415793973,2.22748126138205,2.22775287649808,2.22885034060382,2.22956982529838,2.22982661288431,2.22990621439745,2.23100770910879,2.23122322329424,2.23246727521788,2.23378550508269,2.2324819802727,2.23271799855069,2.2330262034204,2.23353179489788,2.23416674370198,2.23498330792223,2.23553988040696,2.23727089312326,2.23679991777276,2.23655864610288,2.23707871701367,2.23802132497913,2.23791086171851,2.2383429397624,2.23848679435342,2.23947330591551,2.23981164524717,2.24055630443024,2.24089252123532,2.24133001867533,2.24150064325993,2.24214956413764,2.2424427433676,2.24420289220511,2.24395432842694,2.24499104040269,2.24519016264817,2.24604257278746,2.24640179125565,2.24708999543151,2.24752650491994,2.24865512832493,2.24823218250924,2.24988877084179,2.2500436875652,2.25151425016247,2.25145016685583,2.25262450881535,2.25325552703789,2.25394004378704,2.2549506042625,2.2555575040843,2.25730113000263,2.25760753992622,2.25929406261396,2.26020014750746,2.26248113214555,2.26413561950763,2.26594914187717,2.26796296257279,2.27097296907165,2.32716848570509,2.32785809555054,2.32770737646757,2.32930094524789,2.32935401198033,2.33026551777061,2.33048424879294,2.33040283123159,2.33022899542781,2.33103862399261,2.33065691673648,2.33127181636698,2.32978481135413,2.3306818178881,2.33039109640825,2.33034540757611,2.33038553325723,2.33075735731322,2.33180967782629,2.33269310674719,2.33126838527743,2.33209964222726,2.33104628018987,2.33287573819765,2.33253979188432,2.33343650675547,2.33309594135732,2.33346434810352,2.33380580602829,2.33490462195862,2.33469500043814,2.33576743418579,2.33516190156983,2.33684114707444,2.3366020044218,2.33764630592757,2.33745575593817,2.33757082582406,2.33769485847147,2.33812348629397,2.3386190345503,2.33771303961072,2.28276223075151,2.28172389063156,2.28053145220446,2.27986248437083,2.2790512915171,2.27861646920647,2.27835877360721,2.27891420522149,2.27874237010944,2.27911071347036,2.2785396506072,2.27960913952136,2.2788650251297,2.27947304173617,2.27931903534493,2.27947806207437,2.2794238262388,2.27992632387681,2.27987073870057,2.28073962807399,2.28022148407724,2.28128222223704,2.28115565450122,2.28150996869971,2.28102303454359,2.28150285865188,2.28175685224125,2.28228761640324,2.28217273237451,2.28319140197245,2.28266797383757,2.2835270000387,2.28347900796464,2.28401992139502,2.28403866503111,2.28482986024763,2.28587789203435,2.2869237576148,2.28801073073053,2.28928776861527,2.29069906241806,2.29217447331422,2.35296662635437,2.35340441561396,2.35463727800578,2.3551689585092,2.35571129180719,2.36040912215923,2.3608275305674,2.36063813694434,2.36007545731597,2.36107519258148,2.3602641726426,2.36047586940856,2.36032395604395,2.35970616848263,2.36072220696698,2.36214982309697,2.3613704676346,2.36227402337216,2.36246919856272,2.36242924827129,2.36220064610556,2.36256859957791,2.36172565640633,2.36109751711794,2.36207676319452,2.36231996336228,2.36294802188811
2.22463374699178,2.22532617724882,2.22583607831998,2.22648434393199,2.22696103646967,2.22784998626322,2.2282920941618,2.22954874184236,2.22987282663304,2.23054044584338,2.23053946476437,2.2312520399161,2.23194418582295,2.2326716657996,2.23273821965705,2.23280143882432,2.23303478206998,2.23355479134658,2.23424164691384,2.23488682577999,2.23558839317063,2.23652330964376,2.23661893450869,2.2366187666775,2.23700125574443,2.23741517118901,2.23789828308516,2.2382253859616,2.23877059193478,2.23925882396357,2.23982082070768,2.24037345994957,2.24086628744405,2.24118490400861,2.24174492874693,2.24206719142544,2.24292533911386,2.24344929988556,2.24424300783153,2.24467045024748,2.24537968357871,2.24581078223951,2.24643303430567,2.24685122392262,2.24772526192204,2.24792307765685,2.24880822402392,2.24920439833127,2.2503051797234,2.25084564900858,2.25182502757934,2.25234548312672,2.25314186871575,2.25387935779313,2.25462169892863,2.25564330669425,2.25663961194907,2.25782536680095,2.25884917425739,2.26035253716213,2.26194920197168,2.26371778041043,2.26558100996547,2.26785804194588,2.26971177988271,2.32590735711237,2.32621189159211,2.32715946083832,2.32804074394998,2.32908494793816,2.32922296724879,2.32961652216556,2.32934668225749,2.32956021197931,2.32947083171579,2.33006790627972,2.329455679933,2.32961067113874,2.32901443074314,2.32947038020356,2.32888812110008,2.32927072883024,2.32928828521868,2.33005309073453,2.33020216458058,2.33065055968955,2.3304226181264,2.33104120738323,2.33106123657279,2.33205799670052,2.33216476501286,2.33271376174748,2.33274044524479,2.33347752882111,2.33383386792134,2.33480723910628,2.33485345842817,2.3355977953669,2.33572916515463,2.33666270441591,2.33684780388134,2.33731762797185,2.3371440198181,2.33704169368122,2.33680005383105,2.33693846398742,2.33661182021741,2.28292875814427,2.28181790006305,2.28058155239985,2.2793632544189,2.2788725461425,2.27844513920189,2.27851816987294,2.27850700089846,2.27895879151043,2.27869879653135,2.27904875462576,2.27894183704753,2.27914569953304,2.27906782251433,2.27945403839879,2.27937050794031,2.27955635980952,2.27960725224363,2.27999360464824,2.27999999751311,2.28046673372153,2.28053599406018,2.28102233879281,2.28094021032001,2.28111985983744,2.28122963956502,2.2816231519133,2.28183819617838,2.28246378770268,2.28267291265776,2.2831819079307,2.283326225518,2.28386921457869,2.28399123794443,2.28434179607286,2.28478864459536,2.28593345595591,2.28731339328657,2.28903316489062,2.29079260359659,2.29206466594512,2.32153685452168,2.35139887468059,2.35222753852146,2.35369785230917,2.35505274357797,2.35597772406379,2.35863297459505,2.35953153663444,2.36001349240488,2.35982413716587,2.35975709214197,2.35950142871432,2.35927258475986,2.35902780393203,2.35872348540965,2.35965622525433,2.36043188221328,2.36087692229285,2.36118840015698,2.36181487965475,2.36136836102634,2.3612318919829,2.3608853622919,2.36052932158964,2.35994985740801,2.36056374297193,2.36106316333646,2.36107153783605
2.22490063140179,2.22490360525294,2.22577106231462,2.22618036251926,2.22716545363327,2.22695022868292,2.2284993693172,2.22877793908614,2.23115109570687,2.2304768382946,2.2304592106682,2.23061618797655,2.23158388300167,2.23198456615693,2.23321678922266,2.23251844602062,2.23288887585606,2.23321278221294,2.23447525450057,2.23462291892473,2.2355314839497,2.23653975362866,2.23647478179791,2.23636523577114,2.2367063096774,2.23701991613201,2.23766693244105,2.2382238110768,2.23871881403907,2.23931058300149,2.23958079045937,2.24042516710528,2.24078002131649,2.241195921132,2.24152554362597,2.24237170196022,2.24266124607631,2.24349170724676,2.24381616274098,2.24502040646234,2.24511150623727,2.24591685527811,2.24625576974509,2.24695832232641,2.24729950801934,2.24814370350306,2.24800109229148,2.24967824221944,2.24932957372774,2.25125899414876,2.25155548531295,2.25245002804524,2.25295795105548,2.2536696654704,2.25441951487085,2.25515329625726,2.25658795624438,2.25740519710771,2.25891737269962,2.25996639535081,2.26232136131134,2.26344148966989,2.26526815035388,2.26713792156547,2.26851984934757,2.32670960481355,2.32685626950787,2.32690912432761,2.32837087972106,2.32846467638996,2.3290519654133,2.32883028971657,2.32876876602219,2.32854988672789,2.32896763987774,2.32886295391993,2.32924904922679,2.32791572618226,2.32870252013817,2.32769952776545,2.3283001201793,2.32782983246302,2.32821454641748,2.32821416892754,2.3292689712373,2.32881638720624,2.33032598783694,2.32937380766912,2.33066185246123,2.33064700792283,2.33224926825682,2.3322179948815,2.33244463338383,2.33288990466447,2.33396134611722,2.33405768636338,2.33555983542789,2.33453943904666,2.33606006163756,2.33582598497704,2.3372118912644,2.3370328966172,2.3368854566843,2.33691734245206,2.33646103210652,2.33797978185394,2.33747129235584,2.28182492904069,2.28086539874468,2.27959907629062,2.27868885548068,2.27861519616872,2.27850088381215,2.27842160915297,2.27870628482467,2.27874879110715,2.27909438567687,2.27861400119212,2.27937377614842,2.27858319545695,2.2792106074861,2.27958827483408,2.27947837794729,2.2794138619591,2.27984770753635,2.27953001627068,2.28002344814404,2.27991128797978,2.28059983054742,2.28048602937054,2.2810122344393,2.28088457881156,2.2811603728175,2.28123674679641,2.28193869547495,2.28212659116583,2.28316426406744,2.28278054970556,2.284002238074,2.28369815493727,2.28469761602327,2.28445884196856,2.28498429584931,2.28603331803127,2.28755382569683,2.28863602757398,2.29069921514995,2.29227000908653,2.35101689828769,2.35154260773654,2.35282127318303,2.35409401432945,2.3549839049859,2.35578686034417,2.35692199347286,2.35872110927826,2.36061336244014,2.35949684943771,2.35934245355155,2.35894628066629,2.35903754124785,2.35866928713406,2.35831146804986,2.35937813118862,2.36024161580286,2.36027214241462,2.36114151437531,2.36185853542046,2.36137899811693,2.36027579112573,2.36054102730651,2.36029073997246,2.35943153839113,2.36014842626849,2.36086092639786,2.35927649399701
2.22439207329337,2.2250123070661,2.22552722722176,2.22620717320125,2.22662636132187,2.22747829968598,2.22801812564202,2.22912493230462,2.22967016016491,2.23020536216832,2.23010303485185,2.2308011389615,2.23131137833383,2.2319050474894,2.23237988965658,2.2326779108781,2.2328747679093,2.23355078818713,2.23403669976008,2.2346816462258,2.23526849668385,2.2360567034223,2.23628259194916,2.23646492231261,2.23695129838889,2.23717515292625,2.23777833968242,2.23826531724221,2.23888200282474,2.23926641045306,2.23978608950728,2.24030889547678,2.24082509314605,2.24121663187939,2.24185961388743,2.24211701031823,2.24293211824264,2.24328819923405,2.24411073664453,2.24449133726976,2.24518231171225,2.24565888678536,2.24624940162422,2.24660096953125,2.2473898370745,2.24765781044103,2.24856085811973,2.24899450473129,2.25009005562436,2.25066748444817,2.25169168764665,2.25209300144211,2.25280991107725,2.25347725358942,2.25422757297527,2.25523390348566,2.25612688208013,2.25734670545663,2.25843278429026,2.25996211079769,2.26135665452424,2.26300553547092,2.26480703237707,2.26690101965933,2.26944202506168,2.32530202476228,2.32552978458448,2.32648229146175,2.32708581859803,2.3279493112611,2.32789853452835,2.32830312491887,2.32794097504024,2.32813505072289,2.32775678072144,2.32811851661233,2.32754071558022,2.3278746078644,2.32730957226776,2.32760640391998,2.32708179795355,2.32721568060143,2.32708763855354,2.32760874961547,2.32780030239233,2.32868460287204,2.32861770216951,2.32958403178971,2.32957452925113,2.33053707032447,2.33078723255818,2.33147598519885,2.33154107323473,2.33233292583729,2.3327790758524,2.33383153119411,2.33396412293172,2.33477211268641,2.33474513052695,2.3356176260622,2.33578656470112,2.3364187004296,2.33606523145835,2.33556453417268,2.33491640323325,2.33513769786418,2.31070820994755,2.28258816021463,2.28127635206975,2.28025127520817,2.2792488695107,2.27897196742371,2.27847653883754,2.2784730845314,2.2783648501748,2.27883547872051,2.27863177549155,2.27893681958818,2.27870800984069,2.278935151824,2.27885661285182,2.27930764457483,2.27922443411434,2.27938449183993,2.27943870952142,2.2797634132906,2.27977140895605,2.28031154486484,2.28024580860595,2.28061574544843,2.28063348106304,2.28094933570506,2.28100027923074,2.28133380163159,2.28159149270076,2.28223669125264,2.28253059454749,2.28315291389028,2.28337687773062,2.28395179842824,2.28421041037517,2.28472033719767,2.28517117260877,2.28653813403309,2.28846767031102,2.29017467700183,2.29143048954401,2.32038905080952,2.34984031577812,2.35054054970824,2.35203759286115,2.35370246904163,2.35483141723576,2.35594036147697,2.35683633218991,2.35792038744097,2.35838753910048,2.35839991680946,2.35818485608625,2.35810812411968,2.35786661517289,2.35778522188022,2.35734258197015,2.35798478682322,2.35860529893839,2.35939099932634,2.35962074335145,2.36016251903657,2.35978559754715,2.3597390590482,2.35930183650756,2.35903784998709,2.35842716260132,2.35889396558812,2.35911106945588,2.35861292155736
2.22449223753021,2.22462561203749,2.22542902956352,2.22569878252598,2.22678465180582,2.22687515232488,2.22854442648458,2.22834729840071,2.22978332562478,2.22919090531863,2.23007805043825,2.23045585655401,2.23121549664256,2.23153743193546,2.23222974896201,2.2323728961569,2.23295455572947,2.23344182227067,2.23399091945437,2.23431714235379,2.2352189649629,2.23589116212148,2.23614065595588,2.23628605542902,2.23731773377378,2.23718979320426,2.23767110679233,2.23847908500526,2.23892199885022,2.2394043238619,2.23975684210429,2.24036241458227,2.2407729137118,2.24136877703178,2.24190345719099,2.24219724410422,2.24261209099707,2.24365238242254,2.24379492501924,2.24458238305772,2.2447526382987,2.24580485445603,2.24607563379807,2.24659767804412,2.24671494008421,2.24816272859076,2.24773578976613,2.24949843248409,2.24958340151525,2.25114511670101,2.25134754362318,2.25208902785201,2.25255932751045,2.25313088804492,2.25406429899682,2.25498894335685,2.25595670721011,2.2568217078821,2.25834312053695,2.25982686777761,2.2611552410511,2.26270064368056,2.26431233444785,2.26637034951788,2.27029543288107,2.32583995820734,2.32626503753193,2.32577801349031,2.32754401851021,2.32663127386898,2.32784481789846,2.32780638538356,2.32760314817964,2.32757078288408,2.32763006464367,2.32639677488089,2.32737274549495,2.32637367941755,2.32752371406768,2.3263838111566,2.32707128582674,2.32614279727129,2.32646364381161,2.3266049865142,2.32751529786602,2.327552190814,2.32834287099014,2.32844200253627,2.32995409738706,2.32926907474277,2.33071116855833,2.33069366399507,2.33104885557445,2.33145017470364,2.33282412873455,2.33268740625432,2.33405101396134,2.33368270299877,2.33480374479784,2.33440251309805,2.33528758008861,2.33585042323793,2.33542405741203,2.33489384188017,2.3344025786688,2.33538901943784,2.28197611302516,2.28144956165519,2.27999034732682,2.27964379011423,2.27987693473698,2.27953859449153,2.27870706535911,2.27826256871392,2.27847520739426,2.2784889990173,2.27903085757049,2.27843702640098,2.2789490697205,2.27850791442491,2.27895280284005,2.27911141194403,2.27919924536786,2.27906911219932,2.27962696515415,2.27938260824812,2.28016970906769,2.28016162560503,2.28063935778578,2.28016567800681,2.28082887985728,2.28090122854791,2.28103334638333,2.28110684630473,2.28177253480304,2.28171255965868,2.28281155511023,2.2827128045893,2.28362920186738,2.28366258106364,2.2845620009981,2.28531444283557,2.2855820650953,2.28666532300748,2.28860933227662,2.2899465664159,2.29120528419685,2.35104301137366,2.35060742881735,2.35106693870434,2.35274060443505,2.35415723715039,2.35487009730811,2.35601181760614,2.35703259115619,2.35742417473275,2.35735699625458,2.35722912418026,2.35771949053802,2.3572916423477,2.35747294050948,2.35777214492434,2.35676258164586,2.35694992514819,2.35787181111762,2.35866144724042,2.35907276530593,2.35889852107657,2.35915558508678,2.35925555579192,2.3590379161523,2.35866689014928,2.35795906566475,2.35873601391001,2.35854867357687,2.35837989894009
2.22414208889855,2.22473924116716,2.22522796931292,2.22585573208968,2.22637092337169,2.22718956417155,2.22758418360344,2.22852090596032,2.22877011394094,2.22948770849732,2.22982761281886,2.23057258645245,2.23101054519358,2.2315667547705,2.23193537130806,2.23253545247199,2.23288070662011,2.23356216022134,2.23376515589438,2.23440303348077,2.23487477592987,2.23561221235784,2.23594304129148,2.2362661428311,2.23680375215767,2.23707042735285,2.23767055313281,2.23808565922842,2.2387061143472,2.23916137650495,2.23971706274483,2.24025055283828,2.2407194680845,2.24106659916954,2.24168849901278,2.24190898863288,2.24264976982159,2.24309872046108,2.24390644770836,2.24430605598781,2.24518962952821,2.24563581439029,2.24617431139669,2.246512252749,2.24730782356465,2.24765374236,2.2485159200785,2.24886292037182,2.24995221265977,2.25043617134939,2.25138564542249,2.25181355530613,2.25247291198194,2.25309482090639,2.25412634423698,2.25514701867479,2.25587798812221,2.25693409915957,2.25806734900691,2.25951767213884,2.26074678954886,2.26242022353739,2.26433797003519,2.26645384912498,2.26922156896419,2.32425106014641,2.32468934273656,2.32556821134699,2.32605097079424,2.32685711270435,2.32676442532935,2.32698080886555,2.32658675623791,2.32682067634909,2.32627151770781,2.32632428568222,2.32581007827404,2.32627482166508,2.32586895932929,2.32611881688415,2.3256347742027,2.32572126769059,2.32555402457365,2.326115887286,2.32634706778931,2.32728791772201,2.32727935203905,2.32836645209123,2.32836143293529,2.32913455245619,2.32934492615787,2.33001261664342,2.33009793338177,2.33088832645835,2.33150103031623,2.33249495057956,2.33251281716941,2.3333977882534,2.33330488400595,2.33409329295002,2.33418244727714,2.33479428648082,2.33411287505507,2.33299924610828,2.33194339563413,2.33200021870079,2.30734439356112,2.28182467941098,2.28055318173272,2.27978217545583,2.27903612163711,2.27891485294569,2.27845553740391,2.27854538101969,2.27855622425,2.27860044221466,2.27829224367335,2.27857333306983,2.2783718400947,2.27869059471481,2.27867441808968,2.27910430663606,2.27908377513766,2.27931902547172,2.27948604924514,2.2798082930555,2.2797917633832,2.28039108541796,2.28029392606852,2.28055035028095,2.28046383458699,2.28081159071983,2.28085332779367,2.28116746292558,2.28152784069727,2.28220163622287,2.28237116153396,2.28301438120903,2.2833379068242,2.28410869402487,2.28455954659633,2.28528388651835,2.285903599181,2.28757716588421,2.2895452704099,2.29077692710411,2.31983223956581,2.34896287496642,2.34982152601792,2.35110415737377,2.35254661521038,2.35381838843087,2.35444646499655,2.35535613198764,2.35588130485187,2.35642209377809,2.356169083371,2.35641202333751,2.35631363492641,2.3564261276644,2.3560216876916,2.35611584621734,2.35561383416264,2.35607247009674,2.35658938063137,2.35748284310888,2.35769696406743,2.35824911109148,2.35826844954297,2.35836256701563,2.35801363121166,2.35754196443862,2.35686731350515,2.35706339266487,2.35698049261895,2.35625405038671
2.22442743742507,2.22435859952236,2.22519570710388,2.22533908585964,2.22677095565625,2.22650546241499,2.2276367230042,2.2277099699873,2.22885512766911,2.22878398454001,2.23030604312653,2.23026568435396,2.23097688364945,2.23127887695992,2.23207848772236,2.23217900908087,2.23328786262401,2.23327706256653,2.23389689964539,2.23396505136445,2.2348356352026,2.23539819956231,2.23579501822406,2.23603544664912,2.23644331471296,2.2368375198233,2.23753860878778,2.23777260621724,2.23831482946913,2.23912199227166,2.23947811284152,2.24035915863162,2.24057029615159,2.24086558548099,2.24121022590945,2.24198102254288,2.2419420719089,2.24320971057037,2.24338618579271,2.24447046975869,2.24535807382048,2.24588719580339,2.24606990321037,2.24674883197461,2.2470791474082,2.24823536234619,2.24797845731558,2.24931418326137,2.24915943363084,2.25076404760475,2.2508481355656,2.2519754464081,2.25225508893238,2.25262707902013,2.2543964472424,2.25527139254371,2.25595789590335,2.25652567079961,2.25824922186302,2.25946105564528,2.26101755604295,2.26244891118595,2.26418657550537,2.26597659444741,2.26840273619549,2.32424561253735,2.32549645824849,2.32489133318482,2.32640847976791,2.32602949486108,2.32710282868154,2.32590855576082,2.32604195401057,2.32607865960181,2.32618565695111,2.32484328732385,2.3257820936278,2.32463357504628,2.32608222594214,2.32459607183711,2.32552247143029,2.3248054450831,2.32506732677651,2.3252012775456,2.32636337052599,2.3259753726116,2.32762636456697,2.3269978723229,2.32847459542256,2.32764498890091,2.32937585495279,2.32922532702055,2.3295894569937,2.32980684552227,2.3316543808806,2.33139235866401,2.33250262020134,2.33188122403952,2.3332325140564,2.33272559424285,2.33391457515107,2.33391146395964,2.33303043054423,2.33128573512266,2.33023246650828,2.33184337758152,2.33220091456878,2.28036600761498,2.27952276452262,2.2788882657212,2.27856901684365,2.27862749105569,2.27840338869309,2.27851786389906,2.27960609900317,2.27796653589864,2.27831420173517,2.27785091622071,2.27862177765193,2.27813386465177,2.27892158675356,2.27910180982808,2.27918516714707,2.27924424467707,2.2800647919337,2.27963657148557,2.27998930443177,2.28015557712932,2.28078534290612,2.28034590550262,2.28053744935768,2.28065343582411,2.2808651863313,2.28080611057154,2.28184284933414,2.28226138303268,2.28264481388012,2.28250156841977,2.28380740945622,2.28422212071108,2.2855854677549,2.28590397142674,2.28634761344177,2.28761330108701,2.2893927913747,2.29059074313429,2.3490071573506,2.34837422233893,2.35127805336958,2.35204260125106,2.35322984439925,2.35413712540627,2.3542842092841,2.35497231809539,2.3556365810383,2.35556147410229,2.355680156666,2.35516935556467,2.35593647869753,2.35549470911084,2.35523290485593,2.35530903841572,2.35493567059231,2.35538788630996,2.3560765717867,2.35643295213583,2.35726808361481,2.35745040266837,2.35854984955478,2.35738447909567,2.35815814254817,2.35692499268342,2.35619190060239,2.35619990125818,2.35638457749273,2.35434057978526
2.22399576291087,2.22465527280039,2.22522296349481,2.22594402924042,2.2266148771811,2.22714223735685,2.22710574178644,2.22783355260182,2.22809162998516,2.22888140469045,2.22949987468478,2.23053178301073,2.23077822243796,2.23113031227956,2.23141314570797,2.2321064891363,2.23260635277903,2.2334187694984,2.23362799381408,2.23418101225908,2.23456018784618,2.23522384965051,2.23561105509914,2.23599273723275,2.23652865445608,2.23686270659481,2.23744182816508,2.23783967255289,2.23843894917242,2.23894288163999,2.23951257891653,2.24008976756173,2.24051877260804,2.24077141242082,2.24125943413178,2.24156187274464,2.242180148297,2.2426323521663,2.24339185618668,2.24376304183687,2.24477931904025,2.24540118400358,2.24598636841938,2.24635638479393,2.24720711350899,2.24747960833023,2.2483246042313,2.24859510658662,2.24965573238396,2.25010005663963,2.25104648232242,2.25159028674849,2.25222497647884,2.25279573512535,2.25388305585179,2.25492546602834,2.25575347334072,2.25675741890039,2.2579220045203,2.25934766396766,2.26085521829525,2.26250602280015,2.26412041847118,2.26556383723359,2.29511866372506,2.32227496225674,2.32308375412503,2.32440355678989,2.32491675537487,2.32586989224242,2.32565825631832,2.32547669664452,2.32503702916836,2.32525239505897,2.32480797897252,2.32495832878703,2.32438080285264,2.32473806878576,2.32427273556177,2.32449929233257,2.32412772985902,2.32435439961752,2.32422189911466,2.32482307631834,2.32510513169249,2.32595510969202,2.32600460984869,2.3269292074816,2.32693191273976,2.32781036821042,2.32799407455022,2.32864256622993,2.32879245063494,2.32964871846916,2.33023497762235,2.33119750598448,2.33123613277741,2.33198508353292,2.33186685181206,2.33268893057231,2.33260489753048,2.33244858193087,2.331813589495,2.3304615460727,2.32924621102983,2.32933891212978,2.30509955582871,2.28115994787277,2.28049000594605,2.27913043001952,2.27805703505077,2.27808565311449,2.27783582164524,2.27800901828643,2.27812688623949,2.27814805458657,2.2779175739772,2.27815154146658,2.27801630827072,2.27845306502004,2.27851253004095,2.27896457479225,2.27899610198517,2.27931240931405,2.27953526110133,2.27997149057738,2.27975509455831,2.2801432764964,2.28008127909431,2.28038541328367,2.28035997509876,2.28080364360057,2.28088082237695,2.28124812599078,2.28162075120023,2.28237871848142,2.28257552409976,2.28328505778092,2.28368097954012,2.28447640597329,2.28504419346962,2.28578597266268,2.28672187605664,2.28850083734166,2.28993085997814,2.31903032223955,2.34843760406054,2.34889722589595,2.3503076400221,2.35171146986446,2.3525670387883,2.35365771532981,2.35367419190529,2.3542916107095,2.35439796500727,2.35482722770309,2.35434212613014,2.35470493688294,2.35439610789956,2.35471646739614,2.35423002599216,2.35423658494405,2.35388769480954,2.35450350400749,2.35492997248637,2.3557574735835,2.35611349939592,2.3567917821699,2.35663923090998,2.3565858904058,2.35629573937644,2.35591455394308,2.35537222307068,2.35549626249892,2.35539100621867,2.35406412563744
2.22433700759501,2.22443386072043,2.22539956863047,2.22582815712454,2.22770589053747,2.22694946645718,2.22733446949254,2.22677698144992,2.22833073043272,2.22778792467939,2.22940278221085,2.23085502363824,2.23077498024629,2.23050048507203,2.2310740734531,2.23135332479025,2.23253651058469,2.23316359520689,2.23391666290924,2.23378569322581,2.23464169492415,2.23494027584815,2.23548767279986,2.23579250185113,2.23670128635781,2.23686176671633,2.23720606138468,2.23799161419146,2.23831169640933,2.23900290417671,2.23931385445989,2.24012557381014,2.2404261060809,2.24081765072537,2.24082869277429,2.24170639194353,2.241541666378,2.24276940313715,2.24273748488455,2.24333415078543,2.24388348579513,2.24546262711388,2.24571620967063,2.2462536670615,2.24665739858523,2.24773767367333,2.24743273698797,2.24889071885009,2.24902138575737,2.25042007510787,2.25056124405133,2.25177946983234,2.25207888420858,2.25245871476162,2.2535522590935,2.25455879333823,2.25576832634135,2.25652937308333,2.2580590317881,2.25935131162446,2.26165755978192,2.26305164383672,2.26426523042274,2.26573493218615,2.32092411742511,2.32185727123746,2.32340340024493,2.32379520777672,2.32511206283709,2.32475655958431,2.32589849992454,2.32439693413495,2.32449096988376,2.32430835471719,2.3247088062941,2.32382815002871,2.32455064369165,2.32325867677474,2.32428206150782,2.32301697714294,2.32401299581839,2.32351204570947,2.32377918073823,2.32399698737821,2.32518173380957,2.32472090898844,2.32604407818569,2.32536406877863,2.32703240807184,2.32671507334257,2.32802543711683,2.32784516236787,2.32844243564766,2.32903770148456,2.33032069576683,2.33000068531979,2.33169657577298,2.33070462724362,2.33190201887727,2.33172262854426,2.33263734994043,2.33010005637659,2.33087099848357,2.3298022019828,2.32939082496868,2.33034101157075,2.28078554147855,2.27993563261711,2.28150707708215,2.27824387069123,2.27756750614951,2.27774326933333,2.27753077707276,2.27712914389629,2.27773333805847,2.27748541813783,2.27840584731325,2.2774854700046,2.27818853757957,2.27807257409062,2.27868570948114,2.27879501187441,2.27899998194407,2.27905734563164,2.27970750937161,2.27997310252179,2.28016651851963,2.27935950880256,2.28025807222448,2.27977397745911,2.28062039202087,2.28092411016622,2.28106930352787,2.2813181778184,2.28186880248345,2.28215519421062,2.28315967805322,2.28336209564304,2.2844138850158,2.28456259383657,2.28579385668127,2.28627982775972,2.28733551999036,2.28901733898741,2.2900878766476,2.35015655281834,2.35025818852287,2.35037352609537,2.3515304486958,2.351495451704,2.35245749538604,2.35401328135543,2.35347530531971,2.3539488430124,2.35420699847976,2.35388613994853,2.35390662269501,2.35355569550903,2.35400775253094,2.35363815677335,2.35423086687464,2.35350443171477,2.35335484321019,2.35389217825546,2.3547057665021,2.35471119675937,2.35611966494779,2.35596437758785,2.35605090048237,2.3552499809531,2.35566907450131,2.3551913941582,2.35496452401249,2.35526207812125,2.35603552586648,2.3539304406426
2.22388695343122,2.22487513738868,2.22548181678451,2.2262416095064,2.22680854946865,2.22692086736482,2.22667720944926,2.22731856535222,2.22769115418687,2.22840959692489,2.22896067957672,2.23006923050648,2.23037961686674,2.23076579365149,2.23106509783514,2.23195808349357,2.23227025231888,2.23309262197275,2.23343958578344,2.23408959627358,2.23444361461245,2.23499228504248,2.23540197650167,2.23585136111416,2.23650027468712,2.23704445784668,2.23754936927819,2.23778948455348,2.23828394164768,2.23878717047912,2.23933184442846,2.23987561004132,2.24042662848283,2.24076462921471,2.24116941216534,2.24152448442036,2.24213980666397,2.24264614490076,2.24306925484943,2.24339231211861,2.2443539138178,2.24502085218179,2.24567485024191,2.24606305563371,2.2469303745941,2.2472080792491,2.2480620273237,2.24837694817828,2.24944858738303,2.24979051432152,2.25080047270208,2.25147831774556,2.25214002359891,2.25270156324469,2.25356700719122,2.25458760890262,2.25551909688726,2.25658931662558,2.25789812125093,2.25947752628298,2.26111302985988,2.26278549922828,2.26409858069428,2.26544992714862,2.31971313195048,2.32073518066509,2.32184202339988,2.32358227070329,2.32393360760653,2.32475548449167,2.32439564293091,2.32418325608292,2.32367807453014,2.32383271879153,2.32346162276785,2.32373117516167,2.32320793843865,2.32354044408479,2.32292272785658,2.32307125358607,2.32273987387553,2.32306432009515,2.32290245506905,2.32344822411125,2.32370289833133,2.32450338545087,2.32450896672942,2.3254461917467,2.3255158717479,2.32654590200499,2.32678571657932,2.32725427337262,2.32763801732542,2.32872766255737,2.32875760449993,2.32980277414124,2.33001128179828,2.33088666560996,2.33077523272506,2.33153605932893,2.33133839459391,2.33099975322661,2.33056883420373,2.32943320683141,2.32852758842393,2.30721747878403,2.28199019983636,2.2809596894799,2.27972178560404,2.27831117878435,2.27736929338917,2.27732914145147,2.27716203493153,2.27731567698845,2.277338437064,2.27770791781739,2.27762682987726,2.27799439623514,2.27783209086219,2.27840339416206,2.27841054235959,2.27892436610991,2.27881728090531,2.27900169792355,2.27922141445185,2.27973062471852,2.27959571724798,2.27985009527164,2.27973422972503,2.28014812742342,2.28031129313122,2.28080634517501,2.28087082425289,2.28123995313769,2.28153997679305,2.28227855080911,2.2826234288929,2.28344978118746,2.28382354220218,2.2846844615749,2.28554476780734,2.28679567290214,2.28802882612028,2.28953824506608,2.29084214304271,2.34919175765017,2.34928413236663,2.34998402576951,2.35056521550604,2.35144288298801,2.35175784044324,2.35245376769144,2.35232626267837,2.35303190494675,2.35316305177486,2.35320355867452,2.35265204620027,2.35310835125881,2.35263089376765,2.35312609980497,2.35268258901812,2.35267340992881,2.35232492900997,2.35292913928778,2.3532331244967,2.35397229942657,2.35420780951843,2.35497084472938,2.35474231714391,2.35505203082858,2.35477305803857,2.35479633297262,2.35434403580802,2.35440731880456,2.35425719867553,2.35339520234161
2.22392347809381,2.22508207389189,2.2257099948716,2.22608662329565,2.22745141261666,2.22587450047785,2.22662524464974,2.22649737622225,2.22820792270001,2.22785288764091,2.2290680146525,2.22935639577931,2.23021380538737,2.23054270503773,2.23124433219489,2.23221453612764,2.23248493250568,2.23242769019935,2.23362597146141,2.23384809146986,2.23473513926541,2.23477349195553,2.23533903350649,2.23570852749752,2.23629019825931,2.23749704847251,2.23783255088489,2.23763128339898,2.23789119036097,2.23884241586861,2.23911652370208,2.23977837180787,2.24041992051784,2.24102306344485,2.24089331748529,2.2419694991806,2.24180383680365,2.24363672206715,2.24244801414674,2.24373913018666,2.24440039572286,2.24510106404232,2.24549816533276,2.2461557321268,2.24655261608479,2.24767139530271,2.24743936503289,2.24888996962529,2.24887990515834,2.24996284544611,2.25029838816046,2.25185285517186,2.25211524640229,2.25267237406516,2.25352539659455,2.25452810899596,2.25546092343508,2.25622256561217,2.25811142955611,2.25984484651401,2.26149059992756,2.26340955809135,2.26436105086453,2.26602475469338,2.32032271531737,2.3208378285782,2.3223311065164,2.32319861378032,2.32427026238662,2.32379283049034,2.3244593660934,2.32340453264381,2.32331140353051,2.32314469214325,2.32338063003197,2.32252823247878,2.32341926573295,2.3224586357096,2.3232072840389,2.32170002933136,2.32261482457972,2.32238572552043,2.32242756349648,2.32243401720155,2.32355782646301,2.32307844754995,2.32456550065992,2.3239750058496,2.32555819751407,2.32519641153642,2.32719954274709,2.32602048467874,2.32728064325683,2.32873376854096,2.32807284619247,2.32848074815324,2.33012497015698,2.32976480479014,2.33112117710256,2.33036007754956,2.33131599808041,2.33048679641965,2.33079209588032,2.32970585763118,2.32937277662785,2.28183878655508,2.28106634913327,2.27944905121434,2.27844845025595,2.27742962267373,2.27767223684977,2.27689302296257,2.27708056296074,2.27714931279037,2.27759233043781,2.27726695841182,2.2777595128229,2.27767864806425,2.27810161059375,2.27820595664047,2.2786154006369,2.2792080657317,2.27882942711926,2.27845323230839,2.27941751672749,2.27906661004684,2.27997495365146,2.27939518599631,2.28001496402903,2.27971159194153,2.28063529192324,2.28068544533957,2.28084630278244,2.28084807148081,2.28164791847808,2.28190645938175,2.28280952968021,2.28318820210567,2.28423935058303,2.28483836163966,2.28650510617801,2.28796534249508,2.2888896711982,2.29025974129814,2.29185451089282,2.34954954561528,2.35011897875812,2.34962866972919,2.35083994650388,2.35072430507195,2.35182212613147,2.35138015873858,2.35162043431089,2.35229000258249,2.35400213631884,2.35146629580998,2.35271631948757,2.35157279255831,2.3526212533708,2.35187589300066,2.35254342795697,2.35179526645093,2.35177127631135,2.35200973342972,2.35290528609522,2.35243429793102,2.35366938112308,2.35346777269592,2.35472643512731,2.35426095015656,2.35492203736578,2.35465983925745,2.3540059136684,2.35403130497497,2.3539391295197,2.3539530475686
