2.30597043379566,2.306878714819,2.30744992250407,2.30774687240876,2.30811495084783,2.30835079812712,2.30791458594413,2.30795377602518,2.30708329472668,2.30681823964034,2.30619185159863,2.30601009154251,2.30556290133777,2.30548977430827,2.30517901474639,2.30516618527333,2.30524726818293,2.30553697285284,2.30575709996895,2.30617128143582,2.30650292052393,2.30698441611483,2.30764736373825,2.30857674464362,2.30886610743837,2.30944501397485,2.31011470809113,2.31091873356995,2.3116522312169,2.31265753520419,2.31336706861041,2.314373360562,2.31485822146152,2.3154096922176,2.31583226846216,2.31632365108725,2.3154846755794,2.31374720710753,2.31445213046483,2.31381577468154,2.31689351517434,2.27642649509541,2.27541351629309,2.27453621606697,2.27382754277573,2.27333085559802,2.2734287655491,2.27306481143875,2.27324767914504,2.27268562481087,2.27334252405914,2.27304330227659,2.27386934832477,2.2738857816542,2.27438320199867,2.27412477523184,2.27487077478458,2.27493216181682,2.27542183259517,2.27542715421989,2.27596606488387,2.27598942805105,2.27670749006312,2.2768937826442,2.27760060158049,2.27804688733683,2.27875199717047,2.27965501143772,2.28070622738694,2.28164043650772,2.29205751798604,2.32669027360624,2.328020282197,2.32951639232852,2.32943161707969,2.33013214389027,2.32978295743093,2.32977922574413,2.32870160910632,2.32654901764095,2.32803482164359,2.32849307911344,2.32840312389326,2.32853826935861,2.32760140347752,2.32703941379758,2.32662602244108,2.32645479498655,2.32639284117444,2.32674074156136,2.32647269589969,2.32673012249846,2.32672005486218,2.32712032358176,2.32726025222232,2.32748746471909,2.32833304344323,2.32908555956622,2.33020219919565,2.33153576919466,2.33190142961976,2.33278475747969,2.33266168557074,2.33278073932377,2.33303118313822,2.33321624647959,2.33282330413534,2.33215552584076,2.33296563510229,2.33290785030301,2.29124415636275,2.28669251580888,2.28596983519015,2.28539668959129,2.2848411427942,2.28448269953548,2.28406332305158,2.28331530408737,2.28336366533761,2.28320610507421,2.28329040291778,2.28316451877519,2.28317918700909,2.28285006241747,2.28295051917537,2.28281738129432,2.28277471555251,2.28260087968703,2.28249742296359,2.28217148810685,2.28227394909729,2.28206818345438,2.28215955032455,2.28180220176867,2.28209435545838,2.28181330950142,2.28246152144129,2.28298081273559,2.28264236026891,2.2822474129454,2.28235052074101,2.28206822118168,2.28268966513761,2.28286745015358,2.28303668414146,2.28289501467395,2.28278144656084,2.2824920422658,2.28279747086098,2.28291752279918,2.28318717884891,2.28330142419663,2.2835586999799,2.28357534163845,2.28416219895376,2.2844634335902,2.28482367661266,2.2847470245792,2.28543952711516,2.28571975167301,2.28598408771337,2.28580341400283,2.28658046700465,2.28666240702772,2.2873910930904,2.2874819246765,2.28843001721238,2.28938307757631,2.289702098052,2.29055956426869,2.29209731420045,2.29365078405253,2.3263478924568,2.34958925659723,2.34950744644961,2.35036567847656
2.30556897378273,2.30604250913407,2.30708214003364,2.30713636229833,2.30775702294551,2.30746618161258,2.30764617655044,2.30717197419197,2.30689381512117,2.30611585597,2.3058939892088,2.30503739470308,2.30526385955117,2.30492144514463,2.30499166226175,2.30471885372722,2.30505385376319,2.30523466201762,2.30551150860538,2.3056964375693,2.30633453002661,2.30688712131717,2.30743505744892,2.30790654395704,2.30853420428757,2.30907548669753,2.3098858707519,2.31072890090283,2.31143404895462,2.31210176664643,2.31314040755099,2.31419140942435,2.31456399936626,2.31518958425018,2.31526391450138,2.31562911013193,2.31474133178054,2.31352610759896,2.31339401219305,2.3128995370263,2.31340787263915,2.31147754918557,2.27530314345044,2.27472820809739,2.27370163548143,2.27355735501686,2.27315838996483,2.27334355495875,2.27303498824043,2.27327352040493,2.27321423852201,2.27371440299091,2.27373614238594,2.27430092232035,2.27435524124811,2.27517763233216,2.27481357922661,2.2751259024289,2.27521333016974,2.27563773696882,2.27583030912716,2.27645329111385,2.27692308541248,2.27811401292189,2.277915215099,2.27832931708787,2.27904607533865,2.27971299217666,2.28132675648403,2.28187896507442,2.30016503998603,2.32779307524011,2.32815764707961,2.32900175776362,2.32948003399367,2.32988185936889,2.32987181558629,2.33020220928947,2.32919875952582,2.32895019361683,2.32822597909938,2.32795849820834,2.32782642599923,2.32758155657867,2.32708421483447,2.32643086362903,2.32626830362095,2.32588473781102,2.3259272081014,2.32558386548929,2.32596191033608,2.32578233957431,2.32634442951056,2.32636025526393,2.32712864968908,2.32745429253579,2.32847048790753,2.32932692882208,2.33013181379875,2.33086986869349,2.33150372731966,2.33203100682294,2.33215257228524,2.33214349542399,2.33234809590828,2.33240679011837,2.33204739793776,2.33177893368304,2.33020112450706,2.28837310291507,2.28741979422588,2.28651011211757,2.28576792506627,2.28500914258202,2.28476930588812,2.28502405171273,2.28402380997071,2.28330841280983,2.28322631956339,2.28310240325262,2.2833367185205,2.28373571179869,2.28324470653907,2.2831099864108,2.28279478790863,2.28277185553845,2.28246559075112,2.28227326146532,2.28219247420401,2.28221456797514,2.28198503906953,2.28204660868324,2.28195233813769,2.28228275021994,2.28196986622444,2.28201329626873,2.28201940272718,2.28214196052164,2.28210755646685,2.28215805950282,2.28209585088558,2.28221185594113,2.28233367805459,2.28246040473344,2.28269186345113,2.28290740361575,2.2826833935714,2.28256132987248,2.28269894840368,2.28293681854651,2.28302875102856,2.2832925470305,2.28341406603859,2.28380006718692,2.28393639045046,2.28429729112012,2.28469341078253,2.28544138272418,2.28531636092672,2.28560092460006,2.2857733393257,2.28641300342278,2.28644266137452,2.28711279575646,2.28720027303872,2.28765969930194,2.28796696174644,2.28829527421593,2.28955386986436,2.2911452790294,2.2920427789007,2.29243912424172,2.33330510349624,2.34731675073265,2.34860911822836,2.35009100122931
2.30562121588035,2.30662110692919,2.30709609948251,2.30761797781966,2.30751499783043,2.30770742763057,2.30713719038922,2.30699471442102,2.3062689372108,2.30594287562146,2.3053322003136,2.30510673259487,2.30480718468858,2.30493501536314,2.30466417757158,2.3048405247451,2.30470075447903,2.30478709931618,2.30514099093367,2.30555705231935,2.30604913552933,2.30667764994167,2.30712477225521,2.30769366878807,2.3082176315439,2.30872576333238,2.3096307143354,2.31047009578551,2.31128205159636,2.31214633600928,2.31296242478981,2.31385587240737,2.31424682200975,2.31457846597768,2.31480916081827,2.3147780944377,2.31458626577584,2.31448528658712,2.31296874546709,2.31094003068199,2.31146025234563,2.27660372739882,2.27536845542901,2.27390416432033,2.27355259600456,2.27316349568679,2.2731190117383,2.27281748193347,2.27314711344413,2.27300764143956,2.27346891435964,2.27354072499727,2.27396987468487,2.27425248058738,2.27446953074858,2.27449894534546,2.27494259194247,2.27512119789494,2.27540973797586,2.27542550257919,2.27596908813602,2.2761639855736,2.27695734400786,2.27750360512977,2.27793688537878,2.27836379674537,2.27920650279011,2.28046007896218,2.28192629619283,2.28388560586178,2.30922152501871,2.32769973682815,2.32797613423808,2.32873130236756,2.32933544536985,2.32958021389675,2.32991197210832,2.32994378649115,2.32931404847613,2.32855170182526,2.32816239035803,2.32774821114889,2.32721227047672,2.32670741580076,2.32619025297614,2.3259084930783,2.32539249581894,2.32524593610873,2.32506016851887,2.32518130002535,2.32522557061514,2.32570772879896,2.32573971932956,2.32631008854248,2.32670348256318,2.32765518573594,2.32810452952183,2.3289691795901,2.32960032099415,2.33042360837726,2.33088139561968,2.3313457679505,2.33164497599095,2.33177305649221,2.33184531225287,2.33153094483274,2.33158284063662,2.33169667771267,2.32881500840102,2.28816876329555,2.28757144527189,2.2868644989178,2.28576765079701,2.28470455865307,2.28455231883585,2.28417196052289,2.28387313287776,2.2834320524798,2.28326454492664,2.2831095589384,2.28340728515019,2.28379925832801,2.28335383426389,2.28284510441197,2.2828294561335,2.28246983691862,2.28246067862812,2.28210988179228,2.28222707616592,2.28205047617204,2.28197968454219,2.28139575032623,2.28197669542093,2.28201882801482,2.28214289043217,2.28182756979166,2.28206235359828,2.28176184528177,2.28207225299415,2.28198867578902,2.28221741564293,2.28226367025466,2.28242074512029,2.28230211653121,2.2827030109736,2.28274646729362,2.28271429822055,2.28247269236033,2.2826553357397,2.28280317496502,2.28288137191908,2.2828054204724,2.28329981974679,2.283582285043,2.28387740508558,2.28394887437709,2.28468124736397,2.2851146147839,2.28538304766787,2.28537861619957,2.28581522449869,2.2859106951702,2.28652301241111,2.28672328741722,2.28740672069895,2.28793460322924,2.28803779246585,2.28795280726156,2.28943794142836,2.29060395894287,2.29198866577715,2.29281063465819,2.33860065444393,2.34558696390772,2.34784750816657,2.35034033878331
2.30630526643398,2.30702550148328,2.30742900775226,2.30747805359848,2.30765851066883,2.30733781381077,2.30716569498063,2.30658111911963,2.30621268057622,2.30554870436834,2.30533250073215,2.30474471814766,2.30471728118791,2.30422022795707,2.30441969005274,2.3041814242499,2.30447181917491,2.30441916287868,2.30496900801521,2.30530958250384,2.30587748041305,2.30632108846537,2.30690806353921,2.3073495339125,2.30802305193697,2.3086427179964,2.30946739491139,2.31036635922123,2.31108808735932,2.31193286820533,2.31271091252242,2.31361026985821,2.31388633860523,2.31440102735859,2.31433305754847,2.31466104851786,2.31391934002253,2.31308176347888,2.31312808866285,2.31376187122371,2.30872216015635,2.27611532271046,2.27490935306484,2.27392322402961,2.27323555143167,2.27319880582363,2.27290955509905,2.27310487684879,2.27302276088421,2.27360429273774,2.27334933779718,2.27383011546048,2.27371647947571,2.27407208795494,2.27416414710842,2.27452588917103,2.2747178281018,2.27526494974926,2.27534049025254,2.27597524309509,2.27593191045723,2.27640202109829,2.27678809093777,2.27740071809113,2.2779040922795,2.27868337160542,2.27950895008093,2.28064165721407,2.28200460291672,2.28295006204143,2.31736561299389,2.32762812259772,2.32815608939418,2.32898217508349,2.32938787292645,2.32980720180532,2.32978637722548,2.3300123615624,2.3290757088705,2.3284622325173,2.32778936410762,2.32754724704905,2.32669094332918,2.32607642707267,2.3256197639627,2.32507652236335,2.32493850932973,2.3245363295634,2.32473600381616,2.3245748652682,2.3249012481556,2.32481614766386,2.3254345553492,2.32557993857407,2.32650943955087,2.32712499690441,2.32802186509303,2.32888095119185,2.3294073428694,2.32980579882217,2.33054766381202,2.33109413662476,2.33130111317604,2.33141147032708,2.33139700034775,2.33137715846248,2.33111729666668,2.33147564585983,2.3254912821332,2.28841913732557,2.28740989241364,2.28661213764857,2.28556941480285,2.28510285745042,2.28447135532322,2.28431872591289,2.28376629889395,2.28338350987486,2.28322170927035,2.28312291086345,2.28326070541479,2.28356258258735,2.28315562736671,2.28313996826089,2.28273768178947,2.28283336939929,2.28238823938845,2.28228845940076,2.28211298551784,2.2822753123502,2.28190941533164,2.28200503953271,2.28188243009098,2.2821473959476,2.28214442501255,2.28242778390141,2.28218575989682,2.28233644040583,2.28198643094131,2.28204870082551,2.28205410014852,2.28240259744042,2.28233039205428,2.28258567585223,2.28271913139531,2.28336912490813,2.28274817568758,2.28266290213603,2.28252264076919,2.28244843091687,2.28272573673189,2.2830031578319,2.28310592409823,2.28341673434961,2.28364794359392,2.284188490543,2.28449301280919,2.28533097383596,2.28514699441877,2.2855770841462,2.28550222414094,2.28582291665108,2.2861914219312,2.28696873796662,2.28720489736694,2.28777799905522,2.288158064468,2.28898517213996,2.2895828124722,2.29067502335844,2.29209111287241,2.29377861533908,2.34168422545919,2.34231654052076,2.34767771760532,2.35015419756013
2.30695902428126,2.30745633769696,2.30754541367139,2.30776696634506,2.30750905534476,2.30774987030718,2.30669454503663,2.30618429240159,2.30553997516876,2.30530909939403,2.30483019850139,2.30493861729886,2.30437446759297,2.30437026787631,2.30412797236234,2.30417018133844,2.30427855026555,2.30471027069189,2.30478512523583,2.30523317926693,2.30561933595054,2.30631368844193,2.30666416668428,2.3072301692001,2.30782243284078,2.30850208650089,2.3092645698856,2.31005615842356,2.31083390919611,2.31161132614519,2.31240403863755,2.31320862691465,2.31342982717402,2.31363498533125,2.31366652801446,2.31349808383024,2.31343571951958,2.31278426049094,2.3129379141279,2.31257148066266,2.30417136451937,2.27496179427829,2.2743721769691,2.27347683199358,2.27319950938286,2.2728412376677,2.27297891197254,2.27265946610002,2.27305922991858,2.27291537887899,2.27330461410759,2.27311503433766,2.27366875237536,2.27364960422916,2.27422424017139,2.27428695023945,2.27483463143046,2.27484670951606,2.27544413041798,2.27546083101993,2.27606003374901,2.27615705437359,2.27684348086096,2.27724620713321,2.27786174834919,2.27863984856849,2.27934083385787,2.28026755351485,2.28161249356635,2.28271827416301,2.32330167901805,2.32770532218782,2.32830096441986,2.32903830569546,2.32933248906732,2.32961717897384,2.32971449803148,2.33016044820327,2.32906263747547,2.32856721038526,2.32743205890582,2.32650290444189,2.32594827431365,2.32527077524116,2.32475426036488,2.32407869733774,2.32415519491155,2.3243076039018,2.32412048947979,2.32433262517681,2.32432281478612,2.32469663185539,2.32493143153632,2.32556361973647,2.32598687172079,2.3268204205888,2.32740037816478,2.32828424540371,2.3289037248604,2.32974645471283,2.33016813222775,2.33076318877172,2.33102129466222,2.33137670883226,2.33115765158139,2.33061033964508,2.33061495819694,2.33014249628835,2.31887820951317,2.28785980292261,2.28705966056183,2.28601871277747,2.2852975977974,2.28466862514642,2.28425729746073,2.28384757425632,2.28362790552731,2.28336452224801,2.28317621736794,2.28296579357003,2.28308631314635,2.28311466852999,2.28294742692648,2.28255212377715,2.28264380674201,2.28246786774761,2.28244747535863,2.28219333246084,2.28216754213356,2.28177760322672,2.28197151502883,2.28179009836893,2.28204415140043,2.2819955711035,2.28250544967356,2.28290274209488,2.28261246237015,2.28216270005269,2.2822318641632,2.28190327448441,2.28214900789115,2.28203514488816,2.28238039946894,2.28258022963698,2.28258663992641,2.28256220044426,2.28246767127749,2.28218567761581,2.28249066368524,2.282691472303,2.28278279158338,2.28284305626779,2.28301426878212,2.28297603495144,2.28351268318608,2.28382636045229,2.28426800169202,2.28448524260596,2.28490584877546,2.28495321164169,2.2854940732799,2.28567954722608,2.28624175807987,2.28636247868969,2.28731252094898,2.28821377596846,2.28837343276694,2.28928219362797,2.28952504901608,2.29013584189847,2.29156519625224,2.29263777549689,2.34266841264227,2.34485092741821,2.34689519909223,2.34930826031281
2.30733009647351,2.30748460681762,2.30777595280743,2.30739510791001,2.30749255212977,2.30718274800573,2.30653218599348,2.30554984668415,2.30532741214891,2.30462703490519,2.30453392833209,2.30394690530787,2.30411778543758,2.30394996419267,2.30402577669181,2.30398423370678,2.30407374309785,2.30403894636381,2.30445670203641,2.3047322246246,2.30526958164927,2.30567079589677,2.30638508557199,2.30702159396572,2.30761008975213,2.30820061177809,2.30900634974057,2.30978028646517,2.31051421655513,2.31120847324507,2.31201661326003,2.31280171679027,2.31283025382927,2.31298774821471,2.31292781993078,2.31314605225194,2.31313344052512,2.31311164554445,2.31305720911586,2.31324256293358,2.29795287771816,2.27473487372194,2.273932241344,2.27346314733255,2.27295204809903,2.2731726018147,2.27280311002153,2.27293441573472,2.27280764759834,2.2730370138157,2.27307129689688,2.27337628970419,2.27347333371532,2.27378887500914,2.27407645161237,2.27461978053816,2.2747141235984,2.2751327172938,2.27528802985012,2.27578825857307,2.2759538603647,2.27647062154583,2.27678567656989,2.27722706644761,2.27784833961734,2.27874589196778,2.27935847563975,2.28002020266062,2.28354677774429,2.32535499364098,2.32698758390408,2.32787039278254,2.32854484846022,2.32894723532871,2.32917949335732,2.32910788659862,2.32901007205883,2.32883608085058,2.32799842106154,2.32705450638531,2.32653734275722,2.32584260883654,2.32534270844635,2.32461652143851,2.32437757979365,2.32386766638173,2.32379238841334,2.32337622522524,2.32365867694737,2.32354126803435,2.32393852801486,2.32394836115454,2.32462729797636,2.32495293148066,2.32563754745523,2.32593285675117,2.32701490771593,2.32774392009341,2.32862563534437,2.3293991762142,2.3299325663943,2.33046016833813,2.33073352272362,2.33094763813932,2.33086797945188,2.33033116677516,2.33042584193564,2.3304977918049,2.30993182775797,2.28707861518094,2.28641098040497,2.28586838629439,2.2848543528447,2.28436797553997,2.28394816109319,2.28363489283285,2.28343664856668,2.28332622259512,2.28312650119379,2.28296059014564,2.28288742406568,2.28278500899117,2.28264611857086,2.28269288803815,2.28238877337088,2.28237122746643,2.28227792630546,2.28262309895055,2.28210302867162,2.28209422580268,2.28191170142275,2.28214827513038,2.28198496814926,2.28223993434802,2.28234051981497,2.28290613911703,2.28238918052125,2.28244222530155,2.28199683495798,2.28204029902311,2.28195294283406,2.28229647441058,2.28215067828735,2.28222215149959,2.2821956515952,2.28211237024667,2.28220882171807,2.28226039175443,2.2824030575659,2.28260366951233,2.28266335715748,2.28280985144022,2.28287942366009,2.28308772428055,2.28327031510712,2.28352335961734,2.2838543559824,2.28406611129126,2.28450569690757,2.28495235898646,2.28517373301728,2.28559501169482,2.28599021181981,2.28664474735837,2.28683900691021,2.28731824575897,2.28761164765437,2.28830763995235,2.28907481123581,2.28983938148335,2.29487921646243,2.34147768274095,2.34234808313928,2.34177424203693,2.34659829075181,2.34893766018955
2.30756181582196,2.30776759351508,2.30801374642731,2.30763363216235,2.30731657351152,2.30690646569351,2.30609198507115,2.30550958949424,2.3049278529591,2.30458052350753,2.30416925755777,2.30385596354225,2.30377371048077,2.3037154164715,2.30370560790096,2.3037905906461,2.30378353700244,2.30382774874999,2.30413702794273,2.304403347652,2.30493874208875,2.30539411192159,2.30609791196126,2.30690947677265,2.30739624946575,2.30805421685617,2.30886875392445,2.30958625995691,2.31035288383015,2.31132519027275,2.31175821351698,2.31253150075402,2.31232075634929,2.31198967877517,2.31221843385902,2.31209030494011,2.31286079709033,2.31301159566846,2.31291206853328,2.31217163874588,2.29103697136014,2.27503503822461,2.2736329360364,2.27321937471208,2.27275156176823,2.27294967352139,2.27283121181488,2.27266017496395,2.27285779360927,2.27288967896626,2.27314006666621,2.27329428864196,2.27369813987624,2.27409813109748,2.27434045216959,2.27455978738168,2.27493025505358,2.27528554778799,2.27549900966556,2.27575489722634,2.27609442809611,2.27641843833701,2.27690368536699,2.27765809909757,2.27788582576594,2.279187886936,2.27958003065476,2.28067189464107,2.28662672764445,2.32523328964269,2.32683082731341,2.32764634994871,2.32885222341509,2.32940365325357,2.32923209484619,2.32905900225437,2.32857940445188,2.32810196707166,2.32737896998703,2.32657592843845,2.32602125232891,2.32556108243903,2.32491081463045,2.3244878947915,2.32399076573729,2.3238109622155,2.32335663033916,2.32323112537016,2.32312294323003,2.32324982000861,2.32344721132606,2.32389245426988,2.32418023764035,2.32477979975836,2.32521754033931,2.32595762164566,2.32659393774516,2.32741019702655,2.32816200549679,2.32899627374825,2.32952139857653,2.33014396339281,2.33040410148978,2.33053583704541,2.33078863686914,2.33021892803571,2.33031389404872,2.32981009762141,2.30091625351766,2.28692172478404,2.28591385134722,2.28522189666279,2.28438149564583,2.28413728141959,2.2837277628304,2.28337018719362,2.28327609388756,2.28305816251906,2.28308207853162,2.2831912434817,2.28284078079979,2.28257873436012,2.28242951644649,2.28208024461446,2.28220044365289,2.2821406456634,2.28207096533155,2.28178548872246,2.28193838233308,2.28185733237053,2.28181752578429,2.28150935864991,2.28187261842817,2.28199407536326,2.28219017736912,2.28227225475726,2.28231168741592,2.28229775105781,2.28203595060626,2.28174962253612,2.28182419174844,2.28173303257045,2.28198081799586,2.28215953835511,2.28206705814338,2.28186886153562,2.28213059752174,2.28226887581799,2.282416320159,2.2825841908609,2.28266053779541,2.2827208511296,2.28282197536035,2.28278912280124,2.28323389674941,2.28351080365017,2.28389923559846,2.28427203581715,2.28453002462451,2.2847522268706,2.28516320054527,2.2853443209771,2.28602263020102,2.28657674506162,2.28678931135788,2.28701021348591,2.28737025434904,2.2880432496291,2.28897882966677,2.28983086377866,2.29521086964497,2.34239879799493,2.34282716560121,2.34299343723503,2.34685773652259,2.35003895325347
2.30779131231533,2.30813646076226,2.3084876929967,2.30826147414845,2.30747706198436,2.30656266236354,2.30587539828519,2.30517173439145,2.30479307271477,2.30432433896818,2.30411395929584,2.30384392441406,2.30370628239681,2.30356629827923,2.30356579158857,2.30354201296091,2.30363893541979,2.30373194841715,2.30399888651652,2.30430113285518,2.30480981776828,2.30533096432302,2.30580255962027,2.30628973040825,2.30705606498169,2.3079236834915,2.30881649915944,2.30980314529637,2.30996865687035,2.31021009032496,2.31117748308319,2.31207025691217,2.31187815527934,2.31170798557508,2.31166374857908,2.31191783938606,2.3124002465012,2.31267303781081,2.31249520378188,2.31209598418565,2.28452235116487,2.27399877667747,2.2731422709268,2.27263234736534,2.27238545513132,2.27258310537274,2.27265816049725,2.27275540624402,2.27283498617937,2.27297873366915,2.27314663690158,2.27338944454971,2.27365249738122,2.27401339026625,2.27429687059009,2.27466069974622,2.27486171444231,2.27513809579235,2.27537247004456,2.27569385615722,2.27603294385296,2.2763990672389,2.27680331370053,2.27722961332423,2.27766968678227,2.27859041856036,2.27962597193865,2.2805762834191,2.29216944681741,2.32592959637078,2.32717890827633,2.32833112170161,2.32925654034992,2.32941447196507,2.32915085238446,2.32870772353662,2.32815408133264,2.32752808185104,2.32682281362987,2.32604331884792,2.32551655451188,2.32495493265921,2.32451738386354,2.32403473409899,2.3236932814797,2.32331772766123,2.32309229279455,2.32283030433684,2.32290359487185,2.32292837751018,2.32326497588289,2.32353174669552,2.32395567030745,2.3243214939882,2.3249685059693,2.32557648413295,2.32636885718714,2.32711410517613,2.3278928347724,2.32859901078229,2.32921992996553,2.32978423135668,2.33016930334809,2.33045740735231,2.33073670653372,2.33045807743967,2.33045845716806,2.33014845666644,2.29397023551084,2.28629887763059,2.28547306098013,2.28470336107687,2.28400799421035,2.28375124167024,2.28352673165833,2.28332867493959,2.28318343202765,2.28307309228345,2.28296229696132,2.28288777723843,2.28266051733217,2.28247446310003,2.28228448238416,2.28214454963983,2.28202101014418,2.2819580395727,2.2818785261462,2.28185725162413,2.28180271682205,2.28182029182439,2.28181079159245,2.28188417444429,2.28185597977495,2.28190958962116,2.28195301573543,2.28203271076834,2.2819710099998,2.28192881793596,2.28176792447808,2.28168553561991,2.28167258420945,2.28173982866493,2.28180693916908,2.28190681854011,2.28198886453624,2.28208895844225,2.28212824870119,2.28223260390534,2.28233623162763,2.28251175401463,2.28258157443125,2.28270955811702,2.28280877969577,2.28298481273778,2.28323753549941,2.28356386843951,2.28380024673313,2.28409935794724,2.28439109729836,2.28473674431192,2.28516066567784,2.28560644903407,2.28597722992432,2.28631306980191,2.28659872734612,2.28691074946532,2.28724329461004,2.28800425828748,2.28896793050493,2.28960790163655,2.29699475501241,2.34300305764449,2.34367221506349,2.34483737136757,2.3476236801982,2.34976632921804
2.30790154830888,2.3081951692396,2.30853020032401,2.30924525134791,2.30739393542383,2.30630486823726,2.30550684366255,2.30498708054206,2.30449834830812,2.30434248613571,2.30393719148414,2.30396543211848,2.30356672713704,2.30349682284997,2.30338897948374,2.30337420083352,2.303471035222,2.3035848800092,2.30383523556696,2.30408454162322,2.30469728209885,2.30538033838005,2.30554054766055,2.30542214280774,2.30669461111198,2.30773792303626,2.3087736381292,2.31079607570079,2.309609152368,2.30834630527373,2.31075359843023,2.31271063227175,2.31155969628828,2.31117774893713,2.31088257549602,2.31093975639461,2.31142037148234,2.31136119709526,2.31166245648595,2.31118203457063,2.27942544901581,2.27400408040724,2.27318922404252,2.27276254906766,2.27245603875498,2.27250570943545,2.27266270170989,2.27264001600867,2.27285257724305,2.27291935130142,2.27316804257715,2.27334790057688,2.27362974774122,2.2738186170782,2.2743005355987,2.27476512737547,2.27483207184754,2.27482689094853,2.27526809721373,2.27544819407897,2.27597932295297,2.27634321466097,2.27686494736546,2.27732384212168,2.27788868398606,2.2788368341993,2.28005596863171,2.28130006831573,2.30031501538119,2.32581176277306,2.32735090896589,2.32881924326803,2.32919643632592,2.3293704708985,2.32888688660489,2.3285980479748,2.32780668732874,2.32721679406075,2.32632046281307,2.32549286248514,2.32496281706242,2.32454720068663,2.32403277178941,2.32383284445815,2.32325378200622,2.32311917032269,2.32265410940266,2.32258782256607,2.32250159088349,2.32280015983063,2.32293124036373,2.32348266076542,2.3235937865778,2.3240101364125,2.32460763637349,2.3253457611978,2.32610802271242,2.32701725836101,2.32767976624921,2.32846090934382,2.32900630002757,2.329695633921,2.32978697959128,2.32988514694249,2.33007928925594,2.32986579582633,2.33043796743148,2.3304308402614,2.2898409548197,2.28639854553882,2.28543441658324,2.28502161314208,2.28405578265639,2.28386545088202,2.28347781909795,2.28319531330522,2.28312639964876,2.28303798165765,2.28288085659513,2.2827034448,2.28254147579723,2.28226097558003,2.28222854981789,2.28205768574442,2.28193706743778,2.28162968095202,2.28179456856542,2.28179590798885,2.28176764898996,2.28163023833264,2.28189645960085,2.28218984731988,2.28191679205011,2.28168689588483,2.28183189679234,2.28175182233117,2.28176624113909,2.28149174263078,2.28156850560409,2.28136641012316,2.28158844474315,2.2815958618314,2.28171656593021,2.28161009748496,2.2819989431687,2.28225884777089,2.28219805978003,2.28206203061755,2.28230864123767,2.28246145184563,2.28254531276863,2.28265987074905,2.28282572647287,2.28301657231538,2.28328987951497,2.28359812228549,2.28375839888986,2.28384731576082,2.28431677040505,2.28454194041324,2.2852195541124,2.28594627612546,2.2860043929636,2.28618943689575,2.28670160527964,2.28728648957005,2.28753563018217,2.28833331364347,2.28909626679947,2.28958129132946,2.30091772851431,2.34349471636603,2.34417603664128,2.34477792698645,2.34788328005427,2.35023944994912
2.3078631869736,2.30767311436432,2.3079204342532,2.30747765170124,2.30685812325361,2.30546186486215,2.30537439269431,2.30461986228154,2.30453532142448,2.30385317365421,2.30383283917733,2.30329647993517,2.30333500134322,2.30318341091874,2.30331392178628,2.30323643747842,2.30343715383036,2.30342013508946,2.3037537762151,2.30401128251378,2.30454905950998,2.30497254145487,2.30554403609587,2.30605681915785,2.30649081307709,2.30641652023934,2.30763009079684,2.3071802135101,2.30921767054783,2.31051579910944,2.31069927495305,2.31073783345798,2.31035549104886,2.30885197054319,2.30947298567478,2.30864893713724,2.30983676766339,2.30962438872179,2.31045695562071,2.31040093259374,2.27642186318347,2.27475973793382,2.273391981958,2.27285296694127,2.27252598368443,2.27277742170965,2.27262845189935,2.27271720051448,2.27278754744928,2.27298531666282,2.27307599186032,2.27333591913651,2.2735471913287,2.27391118883327,2.27418062399214,2.27462611624476,2.27466929013667,2.27496413061756,2.27518670910473,2.27569963725078,2.27596947086854,2.27641621656915,2.27704155696761,2.27797905859811,2.278485144023,2.27940813619237,2.28089033600336,2.28224106080012,2.30978392633634,2.32690569783435,2.32770897580483,2.32818342519002,2.32894104672819,2.32892442732254,2.32864031233043,2.32791014637043,2.32764334072619,2.32691818783337,2.32615472817405,2.32506569684452,2.3247362564326,2.32415299480843,2.32368722470982,2.32294495809724,2.32281121188588,2.32247093553087,2.32227101452537,2.32186747905222,2.32218330507383,2.32220704563112,2.32261384164526,2.32278478151937,2.32331142415706,2.32373171567435,2.32441900906637,2.32503778337494,2.32590688508416,2.32662760290202,2.32748065473385,2.32825418659835,2.32878104041423,2.32924860536729,2.32941133410858,2.3292193736913,2.32954160267763,2.32929062047091,2.33073953783632,2.33115816625362,2.28810723996162,2.2862691535168,2.28542175153192,2.28476502674517,2.28408469502697,2.28372950639859,2.28339772677843,2.28310588245826,2.28297732218555,2.28297154153256,2.28269041065103,2.28259459168701,2.28237767791929,2.28232085653806,2.2820991132427,2.28204098705257,2.28180834081707,2.28180339377309,2.28162940034725,2.28174505027888,2.28157641618353,2.28171618792234,2.28165762261365,2.282017508049,2.2816373790713,2.28159605907553,2.28166542545032,2.28201130926011,2.28164358764532,2.2815843111138,2.28143769531675,2.28163408239257,2.2814084125626,2.28156600957696,2.28159060903089,2.28203831728482,2.28192225036098,2.28226964414998,2.28205007967393,2.28207100959072,2.2821504347437,2.28237270043554,2.28235622645931,2.28252430215281,2.28269029255006,2.28300334496508,2.28316756247424,2.28338093268187,2.28368502839476,2.28409622049899,2.28442151944969,2.2848797942453,2.28528303444238,2.2856486396915,2.28608683769973,2.2865242543434,2.28708321966184,2.28794494088369,2.28817438440549,2.28898788512553,2.28962632920543,2.29011284207439,2.30619211650843,2.34525476577458,2.34513471679429,2.34539619381597,2.34833226860094,2.35055356625614
2.30718769224988,2.30727731699801,2.30704813615507,2.30690302273794,2.30638953830729,2.30636367131722,2.30517396156646,2.30469656617865,2.30432309719184,2.30421997128608,2.30362660515068,2.30313566910411,2.30298393042,2.30303348004326,2.30324607984625,2.30389554677689,2.30349417416183,2.30345220409495,2.30371800023531,2.30402470265464,2.30455259909142,2.305128094076,2.30572558104347,2.30637750503043,2.30701551535246,2.30766239052918,2.30845145933724,2.30923210942757,2.3098774733188,2.31046387496044,2.31110583882679,2.3117362086636,2.31061447818734,2.30870880949863,2.30979037144282,2.30928887665195,2.31005643428895,2.30906041058433,2.31059436425632,2.31297261997935,2.27529136826755,2.27432735995816,2.27363275700106,2.27285712559438,2.27276740570496,2.27255436237345,2.27275504958309,2.27285248346571,2.27293970915337,2.27299661408068,2.27316668059269,2.27320438036832,2.2736924804298,2.27397315838102,2.27431488399784,2.27437696149675,2.27481676934946,2.27486477290914,2.27546815303117,2.27561720231344,2.27627869839672,2.2764474410884,2.27736462723661,2.27807306595693,2.279127874755,2.28060283440047,2.28158508476579,2.28251859487343,2.31714254117034,2.32788450747913,2.32791798448764,2.32829903208134,2.32841384849633,2.3286785425253,2.32822350879713,2.32832243604515,2.32744697691632,2.32716637729218,2.32580245047193,2.32488608373089,2.324258762351,2.32413916422545,2.32317498215575,2.32267148867216,2.32221705311522,2.32200973169829,2.32176236991796,2.32170949858206,2.32182606010305,2.32217580653851,2.3222312317135,2.3224631502118,2.32288438232072,2.32331703042381,2.32411530028739,2.32494726024623,2.32576943934568,2.32665691771208,2.32732797422464,2.32802049071051,2.3285029147694,2.32911647247462,2.32896865552199,2.32895339783702,2.32863920050088,2.32859254938102,2.328290537851,2.28816692993311,2.28766042782187,2.28688190657711,2.28545410680496,2.28477925331927,2.28404400734122,2.28369482987331,2.28337697039283,2.28302889252286,2.2829426381135,2.28259917622232,2.2826266053521,2.28219294257461,2.28242303976358,2.28212769388844,2.28224466658804,2.28198091119706,2.28194039121146,2.28157495306498,2.28170157052254,2.28142830722817,2.28164406516192,2.28140094938681,2.28162269478709,2.28128948557634,2.28165370946364,2.28141483678596,2.28182147350843,2.28173121539443,2.28173081510672,2.28124042477137,2.28150311588612,2.28118163573273,2.28154880471772,2.28136275262382,2.28168492022077,2.28144498755743,2.28193490970962,2.28191732932176,2.28225682689583,2.28242506455372,2.28231338080873,2.282075300671,2.28230309878074,2.28214130362207,2.28270483098423,2.28294394950311,2.28327374891004,2.28342563883762,2.28372203875807,2.28386771154117,2.28455149637855,2.28534357445655,2.28535521369969,2.2856458863704,2.28597237586543,2.2865283092484,2.28700247408717,2.28782603678732,2.28822408594838,2.28920822718473,2.28990574235987,2.29067483670424,2.31162228176842,2.34488397325891,2.34563271301777,2.34762836988069,2.34873638189291,2.35079061114041
2.30653279783103,2.30629637218718,2.30677066611796,2.306494450425,2.30638733630866,2.30568832629286,2.30531030175644,2.30437395277897,2.3048073219196,2.30567326978958,2.30405880634611,2.30308258379554,2.30293556329339,2.30254194218678,2.30304742641146,2.30336058328683,2.30338932815729,2.30337877635077,2.30373419207917,2.3041474350132,2.30452796841722,2.3050673715724,2.30576083539764,2.30664393075566,2.30730078460628,2.3084298315802,2.30892617914674,2.31017441247337,2.31022402143415,2.31082844314354,2.31113096045236,2.31176647924872,2.31125121658905,2.31132159680806,2.31113869827336,2.31184987842731,2.31102714854762,2.3110421011735,2.30885804543495,2.27593150066174,2.27491437368679,2.27440992397508,2.27345502782629,2.27349034042136,2.27269906620591,2.27257397676699,2.27258091531496,2.27280293749555,2.27277926288537,2.2729289629915,2.27300585043959,2.27327328505619,2.27358875846511,2.27428510604315,2.27418268756159,2.27453092594691,2.27466473239948,2.27523557745609,2.27538754466543,2.27612267844335,2.2762937423151,2.27727797924581,2.27738084417913,2.27825508058257,2.27941439271746,2.28105190912888,2.28225581102834,2.28334755260608,2.32214119456435,2.3287293678467,2.32835010577154,2.3280961868645,2.32837924315479,2.32787095205716,2.32808630919866,2.32769113410218,2.32746472004681,2.32734358535231,2.32579269697646,2.32428074533358,2.32402254858346,2.32329667881907,2.32282838221219,2.32184485361246,2.32185832837706,2.32134375139557,2.32147387786356,2.32115662061985,2.32164120783568,2.32179321843139,2.32206250578948,2.32194159166718,2.32278809988291,2.3231734178306,2.32404630932871,2.32464463794462,2.3257368636582,2.32682047512785,2.32728670472855,2.3278075962412,2.32831002589173,2.3286119657604,2.32877038332336,2.32839114318377,2.32826058029525,2.32785617836994,2.32769095607174,2.28881667417688,2.2877035722133,2.2861692199482,2.28532398566825,2.28433735870799,2.28394447756682,2.28351284025143,2.28331869366971,2.28323394698381,2.28286180247481,2.28279485411142,2.28261943318396,2.28288268244529,2.28253942774685,2.28275781455499,2.28223424315131,2.28220815191969,2.28177561547085,2.28176688675434,2.28148558737327,2.28167542908989,2.28143707728757,2.28176691066433,2.28137202040978,2.28147621569102,2.28148611718946,2.28199483883385,2.28168591532307,2.28201698849789,2.28153894410995,2.28181562232986,2.2813302802577,2.28159601716381,2.28135102240201,2.28173619435831,2.28148998165741,2.28184832423054,2.2816866924928,2.28213472571353,2.28197953149404,2.28222972444697,2.28206902368925,2.28220310368043,2.28218680606725,2.28253269717145,2.28266491498577,2.28307948491469,2.28325712764518,2.28358629460349,2.28368254542733,2.28383118587097,2.28439908166575,2.28495063515332,2.28520306308873,2.2853128996252,2.28586797226691,2.28613268127801,2.28701192205687,2.28759604158236,2.28830860342829,2.28918665348079,2.29007099844365,2.29072836650045,2.31662725482921,2.34373403801114,2.34548628263186,2.34792137235588,2.34834860251678,2.34869213569854
2.30549023780718,2.30605132800736,2.30603563930275,2.30659943362368,2.30581405948021,2.30591136754852,2.30487817186342,2.30461215620972,2.30401692131343,2.30371673840392,2.30318121472795,2.30290116460466,2.30255138538285,2.30271400556126,2.30273227395339,2.3030289938987,2.30315117855444,2.30346117414184,2.30362267384741,2.3039207490497,2.30434506612407,2.30474002361717,2.30574205211723,2.30670818559493,2.30741599440708,2.30807137468471,2.30910745975557,2.30994875042876,2.31047972940592,2.31084874813572,2.31128689525522,2.31151548085117,2.31170890032583,2.31172074213816,2.31193375868287,2.31174172096421,2.31199033323691,2.31224348724055,2.30602772497714,2.27425502229851,2.27448269285519,2.27357388044231,2.27335850616068,2.27284907247869,2.27268906561885,2.27234089481928,2.27260459709391,2.27279066965014,2.27280505335526,2.27287907106701,2.2730220818466,2.27310272189882,2.27354276234686,2.27382885231328,2.27415092961781,2.27423548845175,2.27472402645868,2.27498210099867,2.27547909265647,2.27576457087551,2.27634462480406,2.27644327335736,2.27740011446395,2.27793791764875,2.27939460834028,2.28068390263056,2.28238232650591,2.2836504918327,2.32504802879049,2.32886123653125,2.32838143313093,2.32864659485529,2.32807920495084,2.32817420907258,2.32752678771072,2.32746312654072,2.32643706806703,2.32573177072822,2.32480509342933,2.32419765059257,2.32334085494845,2.32301747062685,2.32221626089233,2.3220018143805,2.32140813474258,2.32134564406557,2.32109581159695,2.32130541267783,2.32126056048744,2.32171347585896,2.32175945785961,2.32235438762642,2.32270052515511,2.3236390657908,2.32391474084934,2.32459174660755,2.32551587961811,2.32664875504264,2.32707250903218,2.32769430761519,2.32804927136376,2.32855995883086,2.32845458679851,2.32860514960066,2.32776359364977,2.32744571377989,2.32531690679799,2.28779342368178,2.2870029437549,2.28600816945838,2.28500883632648,2.2844465242862,2.28390055188762,2.28359282589358,2.28325156219858,2.28288091280855,2.28284157243111,2.28248775176593,2.28267848265064,2.2825820910243,2.28261992262139,2.28249050342669,2.28229248980344,2.28174122087971,2.28187172506949,2.28151838579283,2.2815622113009,2.28113112310363,2.28144018070654,2.28123927899615,2.28141671909225,2.28115634678425,2.28163021762055,2.28177215430222,2.28174989324974,2.28137060226257,2.28149026363953,2.28108268938331,2.28131754486388,2.28101716521557,2.28137968662614,2.28148992644114,2.28154864251022,2.2812810459431,2.28164438430212,2.28141217940852,2.28191326527319,2.28196873850435,2.28209678967316,2.28173916930141,2.28230076957344,2.28239754354944,2.28280424223528,2.28290892382431,2.28339239240446,2.28375128896428,2.28384108012331,2.28368957345647,2.28448538976278,2.2848662378003,2.2851612278605,2.28530426787118,2.28582835462989,2.28657690895608,2.28687777815165,2.28804435527186,2.28767882843902,2.28747073938943,2.28968915459773,2.29104716268695,2.32133043478669,2.34333731532577,2.34498771117092,2.34673225708176,2.34776030751588,2.3484775053881
2.30530177526018,2.30537047096707,2.30577963647193,2.30523066106506,2.30555641928947,2.30500512911522,2.30483836379694,2.30403823247757,2.30373926114784,2.3028924605649,2.30274920910181,2.30196389536238,2.30230613106023,2.30218915795123,2.30248808026364,2.30254146965381,2.30293560302094,2.30323092997092,2.30348743723315,2.30372146463873,2.30424105573341,2.30475496840097,2.30565893297921,2.30674095893968,2.30730745217675,2.30815070652811,2.30904772418696,2.3102710237538,2.31046965363198,2.31093564848583,2.31125244119799,2.31183573605429,2.31191850884302,2.31238508459286,2.31248200584317,2.3127113959018,2.31247482039489,2.31260178569355,2.30083909162451,2.27445558610212,2.27396043131865,2.2734378397397,2.27286934747986,2.27292769018099,2.27255643629558,2.27253603647757,2.27248049468594,2.27252921768225,2.27256987876675,2.27273706391362,2.27289259759989,2.27323712592668,2.27337495142802,2.27368036412261,2.27394828431229,2.27443136056252,2.27454214210672,2.27498824035861,2.27525620770571,2.27590946057231,2.27619733840071,2.27704007531375,2.27735817471104,2.27819156920087,2.2792244338999,2.28010651295707,2.28315750109148,2.32889506975531,2.32874201371923,2.32890720619477,2.32847096287174,2.32791635010528,2.32805759588066,2.3274396484427,2.3274436710611,2.32695657113751,2.3261302439263,2.3247147992984,2.32454537465374,2.32376482891619,2.32315205141959,2.32201018868371,2.32192151139593,2.32127965857049,2.32117704744391,2.32068945604657,2.32092826903467,2.32084285986365,2.32104973792738,2.32090349944992,2.32157821178088,2.32206396709383,2.32259880318248,2.32317757105302,2.32381740785354,2.32445146108561,2.3253564540956,2.32612452763635,2.32681368758038,2.32734523844535,2.32783298504004,2.3281093007948,2.32832020153642,2.32806155530436,2.32769036545871,2.32726118056083,2.32090185676113,2.28692751306049,2.28670860124714,2.28565933026993,2.28506391623703,2.28457079911162,2.28388485724973,2.28323480860766,2.28314759714571,2.28303745880536,2.2827755969942,2.28278238179564,2.2825217443516,2.28265312698613,2.28236685251946,2.28231911613557,2.28216126481469,2.28230373202656,2.28177457131943,2.28180174104435,2.28134442997834,2.2814649181956,2.28117514106289,2.28144833891374,2.28112732115296,2.28132531702752,2.28132565809694,2.28193026117495,2.28135618373563,2.28135329293148,2.28108583610317,2.28128874555102,2.28099203649666,2.28110543346144,2.28099500627093,2.28113974785295,2.28118698057231,2.28161711404259,2.28141362592968,2.28160682952843,2.28174420991181,2.28226637963802,2.28204213922563,2.28236412353045,2.2822507358724,2.28272216156555,2.28278272438887,2.28326050987328,2.2833818482001,2.28363111159959,2.28402074441053,2.28478247374471,2.28477416599056,2.28535042406461,2.28531638827972,2.28552264897907,2.28583066677117,2.28604412595219,2.28654960944105,2.2867522119157,2.28770833832002,2.28893451552557,2.290044903996,2.29139736727218,2.32621299354127,2.34413352715663,2.34518363958988,2.34680654305613,2.34757452008672,2.34820583853162
2.3049193876067,2.30564445207192,2.30526166880333,2.30524278166035,2.30506082071388,2.30526606139414,2.3043735031195,2.30403597596478,2.30318412585755,2.30283009380796,2.30225511363392,2.30207395345753,2.30192581563398,2.30210298085471,2.30216471599638,2.30248292299677,2.30261950705827,2.30292566591902,2.30327258258428,2.30378986401286,2.30409808510274,2.30458625945993,2.30550714288784,2.3065291453457,2.30720480991382,2.30787437213979,2.30909288620941,2.31038783879477,2.31062721758957,2.31086737150632,2.31136337036908,2.31154849078068,2.31216990671958,2.31235664961846,2.31339228587662,2.31421982196261,2.31358484925303,2.31300421901739,2.2937089898231,2.27381889418242,2.27382121432879,2.27306568781385,2.27283759729757,2.27233078569845,2.27264940071395,2.27295417229411,2.27262824793051,2.27234118167247,2.27258251800997,2.27264891607587,2.27292643262715,2.27301304152981,2.27343904844682,2.2736355379999,2.27408408488672,2.27416869948317,2.27466598841714,2.27460238945602,2.27534922274372,2.27542650521415,2.27629957151164,2.27657492678019,2.27747606869218,2.27825526249913,2.27935948652512,2.28036271274,2.28676063489917,2.32833935970743,2.32810935070661,2.32834232230232,2.32814818942945,2.3284185612002,2.32772839525343,2.32753160618337,2.32685825779844,2.32649802760576,2.3255201171048,2.32470713120461,2.3240256977646,2.32376672174995,2.32264839640668,2.32209531502221,2.32141471348166,2.32108655540686,2.3206839666139,2.32050929071562,2.32050521904731,2.32078677992196,2.3206201363166,2.32078594054072,2.32103816468805,2.32140307069953,2.32202769310675,2.32264775241403,2.32345027440934,2.32437541857359,2.32520355216662,2.32628924026348,2.32666695006274,2.32728101023412,2.32763444789877,2.32808016328076,2.32811581283607,2.32810797773407,2.32752651997861,2.3272603785399,2.31539570354879,2.28716498515074,2.28618480750789,2.28542319314935,2.28469402602826,2.28428729132564,2.28383181342574,2.28337251309449,2.28321586000459,2.28300676906273,2.28283118777096,2.28250597149173,2.28248242705695,2.28213324328821,2.28240965075499,2.28238109907683,2.28232170366224,2.28204974808399,2.28186047668473,2.28127528816444,2.28139181238969,2.28094635357546,2.28119902592363,2.28088975832932,2.28117320316817,2.28085976645964,2.28127115247298,2.28103324613502,2.28125514411632,2.28087036679357,2.28110622553751,2.2807637469094,2.28109514058462,2.28093121096661,2.2810918426377,2.28083210639085,2.28122829343858,2.28112260119235,2.28158972834215,2.28166717561391,2.28185692825132,2.28169274044988,2.28209422261443,2.28210859140918,2.28226617007715,2.28193211774209,2.28284637892839,2.28342824996024,2.28357641712024,2.28370793595209,2.28411061028129,2.28455797124967,2.2847270141244,2.28482729768887,2.28522118278353,2.28553759655229,2.28568866613522,2.28592968431793,2.28605983978922,2.28625388926524,2.28690336059002,2.28756913340044,2.28929805424628,2.29063779423975,2.33146274300157,2.34500385846025,2.34527773624494,2.34640087056001,2.34739345699172,2.34847271168228
2.30492955647286,2.30487434599686,2.30522894617909,2.30500430904808,2.30510865063263,2.30498848885202,2.30429976419146,2.30331647768133,2.30306052592705,2.30239465806372,2.3021328826191,2.30153899931088,2.30173353143926,2.30165834536179,2.30192313610437,2.30191423550446,2.30238313199947,2.30257345162676,2.303040375292,2.30322624080798,2.30387706726571,2.30418630269753,2.30521172402192,2.30603765129885,2.30690709133905,2.30777926825501,2.30873846376577,2.30973330475855,2.31043198664933,2.31134037142026,2.31143891656833,2.31185376593548,2.31239736620268,2.31311867183878,2.31378833618991,2.31446079666439,2.31430731441924,2.31383137601129,2.2858560780454,2.27408392391408,2.27358789825974,2.27337611605493,2.27261927505795,2.27242118473679,2.27237436344429,2.27257445837642,2.27239341757104,2.27240088750659,2.27244900201096,2.272707624872,2.27279944728833,2.27304578339611,2.27328395747811,2.27366744804264,2.27398806140867,2.27467680988144,2.27462173758187,2.27490097874813,2.27529588421078,2.27587398579407,2.27625640383551,2.27696531003325,2.27740422579236,2.27848773584533,2.27936494451994,2.28052174622815,2.29332248733589,2.3269114948755,2.32727227460069,2.32730883666828,2.32786003139319,2.32778349250814,2.32764321161033,2.32711618315102,2.32678720310554,2.32593165659463,2.32550799960823,2.3245688072983,2.32381224087615,2.32255090838389,2.32224314784588,2.32139780885721,2.32111325894811,2.32048005726263,2.32038804736435,2.31998972230414,2.320161390926,2.31995218716068,2.32022635712227,2.32004055830367,2.32074311454244,2.32102968060145,2.3217446468279,2.32200536883174,2.32315154865683,2.3238899937837,2.32489019780687,2.32559616574451,2.32633584418379,2.32680750085768,2.32747924337241,2.3278647066489,2.32818477981423,2.3278517410421,2.32750632624633,2.32746966383126,2.30986421232467,2.28649728686985,2.28586260068255,2.28513597114513,2.28463531288518,2.28447921223883,2.28390302531876,2.28350164204603,2.28316111289687,2.28294334083113,2.28269187814814,2.28263657975252,2.28236065554864,2.28230368927755,2.28228609752781,2.28243094219442,2.2821193946558,2.28204538745337,2.2816592518682,2.2817208876595,2.28121514453223,2.28117297708557,2.28095801551204,2.28104435570839,2.28098232546918,2.2812776415299,2.28104027038842,2.2811985425927,2.28094019630503,2.28098853514177,2.28091762497158,2.28119498944502,2.28092973171819,2.2810884895588,2.28083821450361,2.28099944923195,2.28099300025077,2.28141581920018,2.28138950987158,2.28176688344765,2.28161578484844,2.28177920291913,2.28190812164977,2.28229449750439,2.28224514799305,2.28246851712799,2.28281234216529,2.28352215069158,2.28345807946207,2.2837575488493,2.28388993343047,2.28419954496371,2.28453774319682,2.28502464313789,2.2852180029439,2.28552339415599,2.28570099197197,2.28581754545634,2.28604578554334,2.28651267847413,2.28697401602394,2.28791140133604,2.2891605439699,2.29053546654715,2.33620298021182,2.34387473126951,2.34502987801969,2.34559243249249,2.3472895554096,2.34783439191254
2.30491775363557,2.30507817953075,2.30507030323203,2.30508366126449,2.30475955322747,2.30463282316662,2.30385328884601,2.30321948623433,2.30253583859066,2.30198184410168,2.3017231437282,2.30158155531338,2.30149291396444,2.30148927287336,2.30170566858386,2.30199779238143,2.30222881743059,2.30252148422043,2.30298075728417,2.30353342304814,2.30393426783426,2.30446920987973,2.30517238927594,2.30581822640733,2.30679476299242,2.30760493253013,2.3086299037782,2.30948678858524,2.31035861947095,2.31107174117075,2.31154522347172,2.31193952738211,2.31273268996797,2.31361808529606,2.31420321668299,2.31480370193245,2.31525925856433,2.3153796593628,2.27929338511904,2.27422070224713,2.27333672924437,2.27293734698479,2.27242330390701,2.27192522991893,2.27224556741043,2.27233226573472,2.27231884619424,2.27207478504313,2.27242128398636,2.27255153272766,2.27284981664847,2.27307716426424,2.27338158494319,2.27368572806356,2.27399922211717,2.27421780195503,2.27484768689033,2.2755014942007,2.27576759682997,2.27617862139933,2.27652223942256,2.2771642818734,2.27743594306298,2.27859981752034,2.27948206716124,2.28075385804891,2.30186981806398,2.32577551926503,2.32643925963789,2.32672967585085,2.32739966698935,2.32755150366583,2.32720152114373,2.32713436260403,2.32663767472698,2.32691413942734,2.32547350606077,2.32490681394325,2.32352556816113,2.32260083038168,2.32180004926817,2.32113862100989,2.32066153340427,2.32029031771399,2.31999191147881,2.31977280645442,2.31981289806068,2.31991299279787,2.31991712547412,2.31991624259692,2.32053399818922,2.32123085102151,2.3216415679385,2.32230263985156,2.32307442741707,2.32405735498608,2.32480143110126,2.32576803261273,2.32625648128506,2.32704548314047,2.32747477387797,2.32816425210359,2.32837216284432,2.32832308966915,2.32682031653099,2.32412277328415,2.30459721845478,2.28678637340501,2.28548421014872,2.28485999308059,2.28427842610147,2.28432828904281,2.28380141505372,2.28337490185968,2.28316071327691,2.28291088888634,2.28264537294725,2.28225120012048,2.28232610319667,2.28220245674419,2.28237018075685,2.28249423459468,2.28213251586218,2.28167080007204,2.28152566190864,2.28100660337687,2.28116938883956,2.28099975612736,2.28103566159481,2.28087965096491,2.28104759054662,2.28109170023625,2.28101387079508,2.28074831806996,2.28092295070347,2.28085114582679,2.28094390269378,2.28087953489584,2.28092958508784,2.28080488488007,2.28090452488607,2.28078696764252,2.28098159709792,2.28091613946149,2.28135798472203,2.28165184183927,2.28164361705828,2.28154880116398,2.28192874084526,2.28220691372416,2.28232068188213,2.28243808559839,2.28274859334223,2.28294356756768,2.28326287501577,2.28335859443061,2.28372588922266,2.28396773121958,2.2843753829441,2.28470982189127,2.28510353089514,2.28551842385409,2.28559291734785,2.28589403317441,2.28568402387944,2.28580799078131,2.28658669071862,2.28912994232094,2.28844474044511,2.29076008587898,2.33887235986609,2.34254145204941,2.34513968399829,2.34654806286748,2.34786150693685,2.34863385666173
2.30522788340427,2.30531804180872,2.30521505620329,2.30489911333535,2.30465562221501,2.3042639766436,2.30371693160379,2.30303062957077,2.30250551302974,2.30188593501588,2.30169468940204,2.30144756029568,2.30142886483397,2.30138461979094,2.30167085161509,2.30192154628821,2.30224656007213,2.30252014523325,2.30299867995144,2.30344398406272,2.30399291831003,2.30454488830094,2.30524557145844,2.30596616308808,2.30681470662639,2.30767222724083,2.30859229824016,2.30951757418966,2.31030556615896,2.31107824764489,2.31159512566413,2.3121597820776,2.31269892289272,2.31329705616452,2.31387209217293,2.31419184632892,2.31418609527674,2.29406180751401,2.27599254883406,2.27344739482441,2.27288865346817,2.27267974544182,2.27235959432285,2.27220755826686,2.27223811725077,2.27229530309897,2.27229540281597,2.27233466211199,2.27245948358731,2.27265297276945,2.27280232833542,2.27302434028614,2.27328607109267,2.27363281256571,2.27393117115446,2.27430012278426,2.27478889637465,2.27536283474375,2.27573336107343,2.2761866975294,2.27642924558685,2.27682800303725,2.27729854167347,2.2783991263096,2.27944353399592,2.28045759170507,2.31024342501633,2.3250515780445,2.32590818347351,2.32660548064274,2.3271534601425,2.3270842705075,2.32687254914024,2.32653849964706,2.3262301441249,2.32582682582775,2.32505747050092,2.32416420621201,2.32333482080221,2.32239828595485,2.32175979774348,2.32100687599077,2.32054645140275,2.32002336553783,2.31985204208671,2.31964218773473,2.31972087437339,2.3197299286315,2.31994647448444,2.32012124984358,2.32058851565512,2.32102858257496,2.3216432091716,2.32222828485694,2.32310607897316,2.32394269433465,2.32472207816711,2.32544574400394,2.32606581137933,2.32668433653061,2.32735887666921,2.32801103987862,2.32841738443179,2.32815944812274,2.32686373029154,2.32520157894935,2.29936706821754,2.28616074047258,2.28525790500413,2.28456167511503,2.28411161438614,2.28406081292664,2.28372481147009,2.28338972818312,2.28310503383722,2.28288307236942,2.28258910874455,2.28237667267675,2.282354839497,2.28240300070161,2.28231114671946,2.28227959238172,2.28200591875792,2.28182313538488,2.28152813734985,2.2813254406388,2.28118668905216,2.28113612213046,2.2810235947052,2.28100382733273,2.2809661656501,2.28100872702773,2.28091474223162,2.28089985281056,2.2808873683598,2.28095687420455,2.2808962271666,2.28089785452268,2.28083940464608,2.28085115538474,2.28081022628828,2.28085886711818,2.28092726360518,2.28106012386854,2.28123712863059,2.28143381173027,2.28149435760982,2.28161614290183,2.28184868029622,2.28215451548954,2.28223275538117,2.28238234923834,2.28265290667398,2.28296879333736,2.28316173034656,2.28337291566503,2.28357558315772,2.28385213224472,2.28421148058719,2.28459723887031,2.28500665121651,2.2853472276592,2.2854739641457,2.28549718770073,2.28563787766129,2.28582575268489,2.2858414498234,2.2859071586384,2.28559722430267,2.31410194509109,2.3392459068549,2.3438417609337,2.34591893646751,2.34770573169341,2.34866796238601,2.34918839655873
2.30523208843233,2.30556125276774,2.30526165189638,2.30500144073832,2.30457075961818,2.30438740773181,2.30357363975258,2.30305830689311,2.30235811536947,2.30185700508353,2.30151484233941,2.30145402213186,2.30123392380886,2.30130565550075,2.30151430501976,2.30214079820992,2.30216392728173,2.30265478324186,2.30291989539519,2.30355072382024,2.30395599967653,2.30469837542284,2.30525877301482,2.30613063669224,2.30683653510335,2.30774801583443,2.30860764192068,2.30968644618248,2.31038213359517,2.3112786543334,2.31171667543328,2.31226118725878,2.31241535231237,2.31246632952266,2.31294494551352,2.31294999259402,2.3127344938948,2.27546709758884,2.27491119521299,2.27445379239682,2.27320697583272,2.27294556469248,2.27250544650283,2.27233723325231,2.27232835242275,2.27216080770378,2.27236029039353,2.27237093219355,2.27255495519264,2.27266704442043,2.27280838378997,2.27277606395521,2.27321617658692,2.27351470198216,2.27385381565075,2.2741865611363,2.27471789171183,2.27517798514105,2.27573385114926,2.27623538734701,2.27656190136083,2.27701239971688,2.27771004144113,2.27900005209108,2.27980597395691,2.2809118843157,2.31659464751782,2.3236883289467,2.32508801659812,2.32606831630701,2.32648569869659,2.32665172120931,2.32633499733901,2.32634501326916,2.32576955192269,2.32549784086048,2.32459986251516,2.32378887322621,2.32301418799543,2.3223625999511,2.32156565775548,2.32098645147376,2.32027338746958,2.31969096476056,2.31953891933917,2.31950727361356,2.31944764870612,2.31964987579172,2.31977580109005,2.32035267026254,2.32045903160945,2.32099196409081,2.32147119837229,2.32221860734128,2.32302383830357,2.32416151588087,2.32463730719665,2.32543066760548,2.32586965276472,2.32648062922632,2.32710686707008,2.32788672019307,2.32813384399516,2.32819780175493,2.32649407616161,2.32450009976061,2.29431384897923,2.28668707182064,2.28547167268992,2.28509650610745,2.2844022759435,2.28451137016577,2.28380725205019,2.28327924847981,2.28308821164326,2.28279170803049,2.28259480152139,2.28216101242956,2.28246203848381,2.28257965733199,2.28237290846523,2.28204775345637,2.2819906290949,2.28185605866717,2.28161350236195,2.28138787898366,2.28129409800235,2.28110638673921,2.2810958281721,2.28094593369168,2.280978029951,2.28083054961236,2.28091028982418,2.28085491471936,2.28093341167755,2.28100725432483,2.28093539134442,2.28083304809453,2.28084080011066,2.28072485615075,2.28081895140508,2.2806957710535,2.28095225827985,2.28106884259734,2.28121142145107,2.28123862405229,2.28141241141175,2.28144815782027,2.28183579275629,2.28216173641098,2.28223715804982,2.28202304136027,2.28265173083587,2.28300587386857,2.28317731413405,2.28322982229564,2.28350746086632,2.28348804847612,2.28414229117849,2.28437411358722,2.28502674884596,2.28544432390319,2.28552040277957,2.28534266274766,2.28602923590825,2.28714864617058,2.28595906538034,2.28421898357732,2.28402974793418,2.34533360930425,2.34385889189822,2.34225983592794,2.34602911805916,2.3488046898013,2.34915721672436,2.3493694133
2.30542790865493,2.30571738805152,2.30554725137369,2.3052645236341,2.30462303729444,2.30374943164428,2.30347082744018,2.30296624124532,2.30238797200138,2.30151928002691,2.30155046530531,2.30112438564616,2.30131119528942,2.30099915599778,2.30151295778734,2.30150843822231,2.30219419076081,2.30234098246128,2.30304018446501,2.30332080247249,2.30404731499437,2.30444031483279,2.3053179263727,2.30585765284605,2.3069146472162,2.30771512058727,2.3085587986738,2.30927210294866,2.3102860652621,2.31144737361974,2.31166623853599,2.31222057807763,2.31201074208635,2.31179053231925,2.3121175105393,2.31227033752029,2.30935486568271,2.27487402206259,2.27439326893834,2.27390989314563,2.27292119898559,2.27258551074976,2.27236511949192,2.272576733996,2.27238425540088,2.27258681238872,2.27240863191852,2.27249975542924,2.27251522417385,2.27279780319376,2.27276116536321,2.27305380663755,2.27308047598164,2.27345357575521,2.27364445132107,2.27417526428828,2.27450980280566,2.27519339215687,2.27548477812401,2.27611653775044,2.27652372347753,2.2774478632185,2.27811183053549,2.27947634967066,2.28007973873599,2.28107939242092,2.31976108084117,2.32327985015804,2.32434011959041,2.32480649934972,2.32569633032735,2.32564963855036,2.32579174864623,2.32557443229613,2.32539910602695,2.32510398536508,2.32441683438349,2.32366207554238,2.32294737098052,2.32192396888298,2.3215035582814,2.32090765911747,2.32013472123969,2.31947477384728,2.31935393977175,2.31913748352761,2.31921495520501,2.319077432677,2.31947657811388,2.3196145328992,2.32023847943877,2.32062422946868,2.32138360197831,2.32207569335754,2.32291788027019,2.32383941100646,2.32444653583012,2.3251199345539,2.32571358933195,2.32629603229552,2.32686019409818,2.32706604744339,2.3275276890676,2.32733179140428,2.32597055552472,2.3241276799155,2.29013192775293,2.2862042677153,2.28557784523738,2.28520001904669,2.28444158284915,2.28415785085119,2.28358761429998,2.28323131392278,2.28295339680725,2.28294307426484,2.28259138616056,2.28272342539034,2.28247013479929,2.28272469800095,2.28219776741322,2.28205181241105,2.28166275253657,2.28154947124105,2.28135881195246,2.28150877207589,2.28118789719563,2.28140172899168,2.28099161193492,2.28108431357074,2.28083394414126,2.28103776166212,2.28069739643337,2.28080247391786,2.28069320974624,2.28099791569842,2.28074576566868,2.28090161668008,2.28070542880909,2.2808635867263,2.28082444238511,2.28114451113053,2.2809907117878,2.28116491968737,2.2812323807119,2.28158063886253,2.28138615959207,2.2813084742768,2.28168428888634,2.28211828578949,2.28221947933606,2.28274260787612,2.28266010407471,2.28305980743207,2.28305301005497,2.28344692332099,2.28339871611346,2.28376885572603,2.28420838096132,2.28515709125205,2.28512014355613,2.28568174826141,2.28580993656366,2.28656362539272,2.28647092090597,2.28676103358134,2.28717878412191,2.28756747032052,2.28587786588227,2.29063864696292,2.34300251916648,2.34205904240662,2.34578324393316,2.34878925040035,2.34913550459388,2.34989347974009
2.3051328040152,2.30562890577216,2.30546139838385,2.30611116999455,2.30447299109817,2.30355826893163,2.30316903168666,2.3032997330689,2.30222167691997,2.30188432554877,2.3013331683406,2.30150576466422,2.30102968850395,2.30134506733971,2.30115693422025,2.30176218188593,2.30186696850127,2.30279656984153,2.30270832808112,2.30343340476879,2.30375958061956,2.30484331854118,2.30517333568519,2.30610434429056,2.30686853405373,2.30804469836215,2.30843337324112,2.308752026372,2.31005794886224,2.31102121596311,2.31144198400465,2.3116381812967,2.31173954601535,2.31130863543036,2.31177935995598,2.31201521816882,2.3051914306214,2.27507786206925,2.2743264087882,2.27329092832545,2.27287247533843,2.27235503915167,2.27232068389825,2.27213388557447,2.272431353261,2.27269432076558,2.27258762582654,2.27241026575017,2.27266244656433,2.27264163094991,2.27292966043019,2.27286415468435,2.27321700775143,2.27301000049117,2.27371652444579,2.27368048713804,2.27463494806178,2.27487868927718,2.27568008622706,2.27580779705344,2.27679333672164,2.27718240479271,2.27841957518831,2.27914421808597,2.28049431506188,2.3212281704415,2.32125481897622,2.32224501980549,2.32378105679037,2.324687370149,2.32520648339376,2.32544510231613,2.32517724795737,2.32500200098269,2.32480187583544,2.32473263264285,2.32405018320263,2.32371867541297,2.3229870272052,2.32318247016048,2.32142391448499,2.3204072187353,2.3196966124816,2.31909995909176,2.31899528155877,2.31905059466588,2.31881783193615,2.31880424394471,2.31905864194181,2.31945454415632,2.31992108548679,2.32056240527394,2.32106533663676,2.32171816768646,2.32252820236451,2.32333712306454,2.32412521411999,2.32488847815907,2.3254883189993,2.32622006293999,2.32668464442727,2.32761039528389,2.32693764309151,2.32658362724824,2.32561327023902,2.32520701777743,2.28756445230991,2.28637197116655,2.28565995167583,2.28558043422914,2.28451803267062,2.28387497393031,2.28360095869157,2.28305559157476,2.28303450852461,2.28262974606612,2.2826285876885,2.28220241805238,2.28255274805672,2.28257644045152,2.2823273849065,2.28181086584039,2.28180214128483,2.28139130866026,2.28144537016197,2.28095960481895,2.28123592934615,2.28099365587223,2.28111269014914,2.28070361957852,2.28100733411902,2.28085343400611,2.28082970431832,2.28033304398152,2.28076426198338,2.28046723895196,2.28082576909061,2.28045623633092,2.28084735186914,2.28073382873779,2.28096410505781,2.28085993351738,2.28103711551819,2.28094116815208,2.28121253882618,2.2812033491775,2.28148794719574,2.28158536582632,2.28189179644924,2.28212266303546,2.28239642390715,2.28247709084644,2.28280607091136,2.28269738664808,2.28314886951716,2.28311742398231,2.28359080003952,2.28366658994466,2.28442884066464,2.28477005800386,2.28511143240403,2.28487805797776,2.28586351214786,2.28668823684589,2.28675702300746,2.28708070908154,2.28840901723089,2.28955331453027,2.29838617525005,2.34360816670449,2.34375827461399,2.34472416587457,2.34610911417539,2.34717186118608,2.34844276338523,2.34980955527905
2.30487966300614,2.30502797234913,2.3051372514207,2.30466541084437,2.30416408935147,2.30319022336514,2.30293691491543,2.30238188381852,2.30201619671024,2.3011791136077,2.30136863478701,2.30100376295444,2.30113230631477,2.30053069446869,2.30124117398033,2.30095391774166,2.30197412947359,2.30206598900818,2.30276761757818,2.30268399217379,2.30373472162959,2.30402543688886,2.30523793991841,2.30587178159218,2.30700324348361,2.30789949745571,2.30875173834012,2.30972051327756,2.31025540253107,2.31097329457461,2.31121224770603,2.31140715824887,2.31149046586921,2.31137507159385,2.31165322652242,2.31207197209277,2.30112413150452,2.27444055976277,2.2740114566807,2.27349864941114,2.27261632660938,2.27235859497593,2.27201909247728,2.27195257343884,2.27209987424293,2.27236465151564,2.27240752747429,2.27269769132459,2.27257531755371,2.2727803326405,2.27283101577461,2.27318374060695,2.27314631821374,2.27354899422892,2.27366114903992,2.27439135578059,2.27454498151928,2.27531109562155,2.27561762520767,2.27662418433659,2.27682111397049,2.27780542427798,2.27858419228362,2.27941661550728,2.2819627398471,2.32148733113952,2.32159494848092,2.32183996877474,2.32358825623412,2.32476070571519,2.32522808184882,2.32532672467905,2.32507196113621,2.32437193628157,2.32460129143777,2.32426692071975,2.3236751076867,2.32273527950789,2.32227007299226,2.32152724880567,2.32071966868547,2.31958438614557,2.31933132196982,2.31881339134951,2.31877868575533,2.31842397709191,2.31860172318213,2.31827666330985,2.31891822560712,2.31914395975808,2.3198221495389,2.32016884037766,2.32096145189453,2.32143190708816,2.32242257591797,2.32316825054484,2.32398278674721,2.32457427185205,2.32529675231205,2.32577788706625,2.32625346033734,2.32608003958939,2.32626184459723,2.32543144172049,2.32515838603676,2.32404386580004,2.28667520085728,2.28589356609348,2.28539188508443,2.28460993548873,2.28419601417435,2.28379122220936,2.28336873859463,2.28326862466871,2.28283833310528,2.28289324683622,2.28240464857741,2.28225788976768,2.28224527229607,2.28253044369175,2.28199829592286,2.28178481959553,2.28158780572146,2.28167572846034,2.28126355447099,2.28121345485873,2.28094237096785,2.28100474103015,2.28085396326917,2.28114870828213,2.2807046630298,2.28075155961757,2.28047963461737,2.28065219632679,2.28059915618534,2.28113269707743,2.2806830111912,2.28091236134961,2.28063345324718,2.28097462803217,2.28078642559663,2.28107593377492,2.28087351365675,2.28100443821811,2.28111304572821,2.28152898120176,2.28143004264896,2.28166343475741,2.28172902751118,2.282033669682,2.28213763132269,2.28249569225718,2.28257328728129,2.28313866853923,2.28288969791966,2.28302918492523,2.28334513235013,2.28395643050909,2.28423394618869,2.28493543361881,2.28495892747944,2.28529597000174,2.28562044181496,2.28594578264232,2.28670634086565,2.28732003967767,2.28936098078452,2.29119998635092,2.30447549331828,2.34351893622092,2.34410761097744,2.34576155814518,2.34617400576029,2.34655575119576,2.34763441596535,2.34798160500345
2.30450559537936,2.30501809653951,2.30476441490747,2.30498743097381,2.30378999740206,2.30310356465872,2.30239397050807,2.30206298650153,2.30149171314017,2.30132963310874,2.30088776308694,2.30096433509987,2.30068013180436,2.30108496486038,2.30092664122824,2.30168355931603,2.30161797122818,2.30240192485339,2.30233768453487,2.30283353608394,2.30335939817027,2.30439549544925,2.30495788885718,2.30605399799183,2.30669930909635,2.30779256347047,2.30852771647936,2.30972596867675,2.31016905900954,2.31089868619409,2.31119800616106,2.31124220188749,2.31184517401572,2.3120248313443,2.31226464460806,2.3128859743649,2.29711367584882,2.27445117256159,2.27387322023551,2.27282154334959,2.2724663513872,2.27193461819901,2.27196541938469,2.27179762594576,2.27209032313932,2.27227250134706,2.27242113489699,2.27239141746537,2.27266208939063,2.27262062459338,2.27303986373891,2.27310527074707,2.27339189462002,2.27323775882103,2.27387301590559,2.27393544001251,2.27474331422766,2.27505744372135,2.27581329993949,2.27619256221527,2.27713812380633,2.27767757433243,2.27894933834425,2.27961636312333,2.2848787362195,2.32371018087487,2.32242034919369,2.32200629379447,2.32368932058888,2.32468516607976,2.32490078041893,2.32463373107008,2.32468547684584,2.32469320308677,2.32435334119282,2.32455085126269,2.3232434982616,2.32256878670317,2.32161465130827,2.32097234951017,2.320136518709,2.31939820088731,2.31887541673156,2.31852865205838,2.31837317657785,2.31858461703767,2.31827194478338,2.31840578244648,2.31855182707345,2.31895845924301,2.31945587369696,2.32022129114072,2.32064862301726,2.32135820124183,2.32215583892584,2.32314620193679,2.32382329332159,2.32474419628784,2.32509084438663,2.32560632350925,2.32596313021711,2.3263933632649,2.32610808014324,2.32621335653606,2.32528379626995,2.2871724565804,2.28654558249009,2.28580440006997,2.28517566900158,2.28470631548656,2.28412972347715,2.28355029528587,2.28340355435195,2.28282126424742,2.28292607348985,2.28243813533201,2.28260532767498,2.28230724688381,2.2823743968567,2.28199207159055,2.28204660294185,2.28161484625969,2.28181424126539,2.28161911053594,2.28154217134407,2.28094666234593,2.28117360732533,2.28078981602878,2.28102138341318,2.28077676108401,2.28077741299694,2.28029005412613,2.28056516570813,2.28030648259214,2.280783435603,2.2808381314968,2.28081698535533,2.28035404398012,2.28064988513521,2.28043815258173,2.28076073171188,2.28070000385918,2.2809130712828,2.28077238081095,2.28117365186163,2.28117984083503,2.28147405562111,2.28151180885815,2.28175568274816,2.28180789474414,2.28217095045575,2.28215691521385,2.28268397611222,2.28260647389132,2.28313808675874,2.28311156030636,2.28364663476363,2.28386548131306,2.28446996447541,2.28483557315199,2.28523580282797,2.28557119865575,2.28592728907804,2.28638651317232,2.28713957128096,2.28770482257404,2.29013948536179,2.29234422079051,2.3123572060646,2.34357798047973,2.34445377018835,2.34568711460773,2.34624616868196,2.34636495060396,2.34738212973274,2.34770915900596
2.30470409770072,2.30430211976966,2.30453451416164,2.30419209147449,2.30345149308888,2.30226991565044,2.30211863942038,2.30138740048337,2.3014183521948,2.30090119879289,2.30101660659642,2.30053951606749,2.30088514498297,2.30047766014497,2.3011835891293,2.30110482334061,2.30184594288898,2.301909814867,2.30262993237434,2.3026981292329,2.30364519373417,2.30396927837151,2.30515627954503,2.30577805271269,2.30670714196328,2.30693707050632,2.30835017250138,2.3090794427166,2.30996437921723,2.31044163655135,2.31122325963561,2.31204789928623,2.31198567729477,2.31225380705039,2.31238624016268,2.31293211523933,2.29293961853058,2.27419015086184,2.27343558553547,2.27265673205863,2.27213538200711,2.27214371227236,2.27182785730409,2.27182000316382,2.27189306743593,2.27220449890919,2.27223877641273,2.27265123562704,2.27255604996926,2.27294825645205,2.27299268591374,2.27364746328604,2.27339338776758,2.27381323215368,2.2739015238651,2.27464727309479,2.27470564705833,2.2753374515831,2.27571805566519,2.2767028887071,2.27704995882185,2.27816667580421,2.27887391217233,2.27958370889875,2.28918101556216,2.32216930812525,2.32276691450919,2.32289580214832,2.32453088419359,2.32560180472575,2.32567431405762,2.32545955997612,2.32516571113956,2.3245194806934,2.32427269628619,2.3237656858606,2.32266837263994,2.32146374130973,2.32095795206747,2.32024199525832,2.31976655424771,2.31913043099341,2.31869322241,2.31804106569445,2.31817713472506,2.31788493716203,2.31817304084574,2.3180074473634,2.31863831846645,2.31884187040269,2.31951502402774,2.31971909019966,2.32070668456961,2.32121125654103,2.32223484406316,2.32284623925608,2.32379146158136,2.3244535012229,2.32502886798568,2.32530997507933,2.32591889572981,2.32615477181497,2.32613261437332,2.32624896919177,2.3246349527572,2.28750858506629,2.28671910884438,2.28578543442767,2.28518029895029,2.28470900979747,2.28404058518591,2.28367961285234,2.28331754465434,2.28337173711431,2.28285753309995,2.28287496778741,2.28253579487013,2.28269505781921,2.28223560353946,2.2822699486876,2.28191207176101,2.28208812256094,2.28173476190743,2.28202375974714,2.28150115867864,2.28175259590452,2.28120230045349,2.28138308348197,2.28091056490042,2.28099063934721,2.28063429869041,2.28073716784478,2.28048754118581,2.28072597405869,2.28060528176178,2.28103835900611,2.2805604641758,2.28058399965039,2.28044011614927,2.28066907550799,2.2805856990967,2.28070102833928,2.2808050079338,2.28120045931079,2.28116687748282,2.28168850614045,2.28133335366081,2.2813635662585,2.28157371510001,2.28191187010436,2.28215200114049,2.28258860119907,2.28262639105407,2.28312792095383,2.2830450231126,2.28370811754479,2.28347601560708,2.28392748754542,2.28414954552955,2.28485798280828,2.28491278203914,2.28531717279211,2.28584719939387,2.28676127799894,2.28759256751305,2.28954186212543,2.29040831044086,2.29221470458109,2.32063656357577,2.34403776044559,2.34492821577437,2.34594433278756,2.34647036213057,2.34669811310906,2.34755456441881,2.34830178534199
2.30509849337722,2.30473459876317,2.30431463792786,2.30379331760171,2.30307594589714,2.30244217512194,2.30184579105012,2.30138121854036,2.30110169553197,2.30117814377777,2.30068992520403,2.30079477893511,2.30058867807013,2.30103571195907,2.30083917587186,2.30132058231089,2.30140510512107,2.30208303941801,2.30236395863522,2.30332491279321,2.30345413864362,2.30422465349013,2.30496802183799,2.3062898763974,2.30669337666843,2.30766575406003,2.30837277662506,2.30943296868174,2.31001960187583,2.31071356931246,2.31134738091442,2.31187711079657,2.31218968040011,2.31206742339758,2.31287131728652,2.31407865591042,2.2883666927655,2.27414381712595,2.2732850982842,2.27193117058848,2.27204839672393,2.27195083589551,2.27190342840278,2.27169114171347,2.27192669604553,2.27191422330934,2.27223901723804,2.27225623856601,2.27268948692392,2.2726813271955,2.27319328164649,2.27317713586433,2.27360471110329,2.27353212403592,2.27417128196805,2.27429889975618,2.27499916667781,2.27514625551986,2.27598095090627,2.27637560593974,2.27727081438859,2.27779828072129,2.27909470170446,2.27970230287143,2.29428012380993,2.323722728291,2.32411254060514,2.32488277925716,2.32552207398763,2.3263866119343,2.32602636005713,2.32626874224763,2.32531617630639,2.32498918344383,2.3239150034871,2.32281112737517,2.32185054865163,2.32056781143789,2.32027016711886,2.31987022938144,2.31929691279416,2.31860751219508,2.31836833196852,2.3180775092623,2.31794344718063,2.31789430428517,2.31795549097464,2.31816817538792,2.31853083875098,2.31930424447805,2.3194396179045,2.32005090173634,2.32071985143068,2.32179245541363,2.32235050836779,2.3233260103729,2.32381750827831,2.32446543813769,2.32500551465654,2.32554687265206,2.32579737016527,2.32588284603307,2.32587079860672,2.32578189163987,2.32236369847698,2.28691097831185,2.28631828530159,2.28602103092069,2.28502263171889,2.28455242205205,2.28410306099699,2.28351551631139,2.28344870492594,2.28307960960652,2.28300862610234,2.28260650574664,2.28271281675389,2.28241166016985,2.28236396456472,2.28174934852615,2.28206659523408,2.28180365195452,2.28190801365587,2.2814080708606,2.28162888130849,2.28125367347727,2.28140801752931,2.28119079656832,2.28111994040566,2.28051618942179,2.28089613421082,2.28072893875088,2.28078456416508,2.28039048019662,2.28075141990937,2.28068780054245,2.2806802624126,2.28024377746439,2.28064209806824,2.28058965820376,2.28080491482835,2.28071585328543,2.28090928731,2.28074416041464,2.28106995358879,2.28093622565982,2.28127364603348,2.28104357664725,2.28177081055417,2.28201475535054,2.28254153048402,2.28297895085322,2.28292468145476,2.28265462225254,2.28314818816896,2.28309664668233,2.28357510367665,2.28342012312572,2.28428004415218,2.28442676458338,2.28499801902894,2.28499854106527,2.28588425246204,2.28664275956186,2.28742422073938,2.28817653486671,2.28956999921921,2.29014575930824,2.32834043767769,2.34563962318204,2.34576314763337,2.34647725894328,2.34689952591317,2.34736562816373,2.34773212790268,2.34828552097359
2.30588188896969,2.30620441500758,2.30468462341497,2.30356701129588,2.30307148214127,2.30247873614893,2.30197830765752,2.30146629237541,2.30114933537078,2.30066024744054,2.30073932107179,2.30039183284479,2.30079152185494,2.30079096332427,2.30105270836931,2.30090095582926,2.30159895510186,2.3017994409001,2.302563034466,2.302846242368,2.30364885699623,2.3040877346316,2.30506688615699,2.30572870870014,2.3067875406003,2.30753488714935,2.30852071697552,2.30927550671067,2.31014093523295,2.31098988449309,2.31141597261601,2.31203306602324,2.31220349057618,2.31219576151174,2.31253121315064,2.31236298787487,2.28337905107135,2.27494488806446,2.27307531355086,2.27213617612208,2.27174652212101,2.27184706933371,2.27174220638798,2.27188081303381,2.27179109778571,2.27190547237223,2.27203762527286,2.27238198291039,2.27261184791688,2.27325087968583,2.27313419023881,2.27359654192046,2.27345434936991,2.27378313515385,2.27404778050998,2.27477850512332,2.27487860778293,2.27560761521673,2.27573562596338,2.2765184852497,2.27708709365084,2.27858454210175,2.27923143904292,2.2804114164825,2.29969441746008,2.32503632079548,2.32521111298309,2.32586044829862,2.3262783557272,2.32655570347361,2.32623567910197,2.32577660624901,2.32541339586616,2.32483287224575,2.3240008971198,2.32270806217675,2.32156134810303,2.31981803161579,2.3197881941086,2.31944249248594,2.31903607091888,2.31837794398855,2.31825154012069,2.31789776334227,2.31789692532768,2.31771168779991,2.31796435486046,2.3179794611755,2.31841747607075,2.31848935032695,2.31928478664642,2.31968460450687,2.32068761033167,2.32136549517856,2.32230302316134,2.32295964277095,2.32384430243366,2.32469647509111,2.32513210231134,2.32540329674303,2.32594129106154,2.32568279043303,2.32595562457814,2.32576536981539,2.31856474031764,2.28606960300178,2.2858057212765,2.28520339571151,2.28468593361229,2.28453013027348,2.28396859720763,2.28383738636919,2.28330282785244,2.28309227505285,2.28286778374776,2.28296899860415,2.28265696253405,2.2827379852597,2.28233858069788,2.28237337182519,2.28194680603565,2.28191681316245,2.28175910318191,2.28204583259965,2.28143579733914,2.28127879020698,2.28107820298821,2.28117097239837,2.28095234230205,2.28111999128072,2.28077018072156,2.28084586365929,2.2805988707964,2.28074857957326,2.28042848445734,2.28041850466656,2.28037226630191,2.28063742288339,2.28051499710487,2.28083161600623,2.28071022987659,2.28096499190096,2.28091805154869,2.28116089807368,2.28105726246605,2.28115659086204,2.28139530095128,2.28206565957055,2.28193769252677,2.28250150150078,2.28233477701177,2.28269428680022,2.28264893401807,2.28294783925883,2.28292066543029,2.28315105235609,2.28334534496978,2.28380298156135,2.28417100072738,2.28492790071407,2.28488050438349,2.28520290121659,2.28565536975073,2.28656116843218,2.28705338190625,2.28883201656718,2.28887234990424,2.28990985790253,2.33463955650556,2.34577334827608,2.34622195926455,2.34649878767291,2.34720942128191,2.34719544211782,2.34772634356313,2.34778969357476
2.30559872894605,2.30540881759761,2.30433853271861,2.30347838274633,2.30284602559614,2.30246121656267,2.30173971719604,2.3012510156584,2.30085120310711,2.30058130271926,2.30048302997788,2.30063406001798,2.30052532552344,2.30071601323182,2.30077982166489,2.30111913527232,2.3013418647286,2.30185291649125,2.30232381460638,2.30312380855719,2.30344494345151,2.30402594799425,2.30487916746813,2.3058870836582,2.30671678136322,2.30780423095875,2.30856535211556,2.30966911417708,2.31019872237243,2.31101031437175,2.31143322861281,2.31178374362558,2.31236730311151,2.31180450356026,2.31264749007784,2.31207491251842,2.27853268079152,2.27330664986244,2.27244355033678,2.27210699153209,2.27158250134517,2.27158160910513,2.27171712385448,2.27178682885479,2.27181767403955,2.27162937241283,2.27200113891897,2.27216933521884,2.27252453271485,2.27284199984953,2.27298296687483,2.27300590153515,2.27341246400979,2.27369386823287,2.27409656117927,2.27446985878663,2.27487723017093,2.27510250122679,2.27572944918495,2.27621124546752,2.27705597487798,2.27843269848532,2.2792787383491,2.2802241574468,2.30539582362462,2.32533264446351,2.32584274862164,2.32652117129997,2.32665290989342,2.32647863920913,2.32619062934573,2.32599147286822,2.32533039168282,2.32499971295634,2.32420860167332,2.32408425299348,2.32164932556712,2.31956821996057,2.31943248736069,2.31917305788436,2.31885958949288,2.31874876263447,2.31819292848395,2.31783793780081,2.31773540399689,2.31775208384233,2.31781300951569,2.31806943144042,2.31826687389369,2.31865269515779,2.3191362825255,2.31977668680466,2.32061437350926,2.32170276547396,2.32227277764454,2.32314326359257,2.32377613623899,2.32457289604008,2.32528303920636,2.32621410584675,2.32643282631852,2.32653976896827,2.32615557507551,2.32549795617471,2.31424737480376,2.28641804713045,2.28555018113741,2.28530859884884,2.28434399689482,2.28395240668827,2.28378173012285,2.28342783191532,2.28324222474133,2.2828454525146,2.2828622886611,2.28261039160988,2.28269466650432,2.28260694806962,2.28240217870661,2.28211746539408,2.28206503889492,2.28185532986646,2.28183621102889,2.28164574244633,2.28138640414269,2.28085363290842,2.28112143016903,2.28112169235417,2.2811350560338,2.28109914705758,2.28101018597216,2.28092845739979,2.28081246782786,2.28061237647996,2.28052083234737,2.28016801577555,2.28042404233861,2.28037357124793,2.28056897970549,2.28056458462459,2.28076111154773,2.28082502376338,2.28098753259471,2.28119200166125,2.28115025505231,2.28119737265096,2.2813915789984,2.28153971025772,2.28180865857622,2.28188025672256,2.28221287879182,2.28217089281258,2.28261847190667,2.28281250333668,2.28301557344645,2.28299973694919,2.28358492451116,2.28394599463005,2.28441796274907,2.28480705163247,2.28503385452628,2.28517066043466,2.28564786782682,2.28639879200348,2.28662061986697,2.28760570398604,2.287818714778,2.34494599801462,2.34735958795141,2.34582391023223,2.34663775001782,2.34764280503069,2.3477493146879,2.34763448239578,2.34792956343959,2.34808875201314
2.30521143002545,2.30476107205899,2.30402996501868,2.30325107288721,2.3026434702697,2.30205412232907,2.3015866874455,2.30109026874954,2.30082722486955,2.30050796755351,2.30051815308077,2.30045474630102,2.30057536836846,2.30060694043747,2.3008467807725,2.30101723208142,2.3014556174128,2.3018239226455,2.30240393277109,2.30288690195592,2.3035161104481,2.3040911226252,2.30497253728723,2.30582015261542,2.3067636649647,2.3076367635045,2.3085551186599,2.30940925638973,2.31012528538142,2.31083678925279,2.31140917957129,2.31200663490959,2.31257202693724,2.31263051284944,2.31294921506559,2.31286238902258,2.27491740063224,2.27278530198048,2.27193096693937,2.27154024113401,2.27127738900034,2.27143651064193,2.27164043749527,2.27187148258054,2.27190787392518,2.27199328610975,2.27207954798837,2.27222068124037,2.27247782768123,2.27273353801216,2.27293037197718,2.27310954631957,2.27337318499528,2.27366939678581,2.27398977093134,2.27436596612421,2.27478097328992,2.27521401871214,2.27565654666863,2.27621704223588,2.27692070065125,2.27824865831317,2.27925104315295,2.28013890968517,2.31136651772845,2.32601434591588,2.32623030951563,2.32656055064323,2.32688573786066,2.32662151862848,2.32627755886343,2.3258000410067,2.32533972932333,2.3248193125482,2.32410783328318,2.32316603167148,2.32165212626258,2.32001780769819,2.31943448001309,2.31887288184791,2.31866440677836,2.3184002268125,2.31813148263254,2.31781320982897,2.31776971277523,2.31765161271396,2.31785221958815,2.31794924666806,2.31830531293901,2.31857742590465,2.31921541581294,2.31978921075439,2.32069711246437,2.32148563179942,2.32231466201045,2.32302852499129,2.32385194890244,2.32462943915036,2.32541677798998,2.32616536636391,2.32667565520848,2.32669361909255,2.32617077105021,2.325295657443,2.31055814411243,2.28637914765969,2.2855065356793,2.28478789666278,2.28419419113105,2.28400214544654,2.28373994058032,2.28346715138486,2.28322181693334,2.28302188836072,2.28292531663649,2.28289423328913,2.28268428884747,2.28253789616929,2.28232381934167,2.28217517087214,2.28207051565031,2.28199727861183,2.28181441313228,2.28165837753027,2.28140231716943,2.28121816156421,2.28116337629953,2.28117984565219,2.28104781175253,2.2809856839881,2.28089797674061,2.28090557929012,2.28076173038636,2.28069754999506,2.28054549787181,2.28049347916813,2.28047425825417,2.28055931024696,2.28055022543681,2.28062719395859,2.28071114874625,2.28085355856548,2.28087411704341,2.28095667012553,2.2810186162359,2.28117906689824,2.28131201158239,2.28151455326472,2.28172621626608,2.28195133265424,2.28218864493369,2.28243555373492,2.28260341870311,2.28281794801864,2.28310576254568,2.2834628853625,2.28373274485635,2.28408400052883,2.28440859468622,2.28479344197905,2.28496842957612,2.28517973184664,2.28544461935132,2.28591359718286,2.2863004718973,2.28744596874633,2.28767890115572,2.31460731058852,2.34901941392193,2.34645815392366,2.34682243477626,2.34774618018518,2.34800127214848,2.3478288444824,2.34801751203775,2.34819839771635
2.30495072459631,2.30454301571501,2.30373923880599,2.30308765778947,2.30233128345493,2.30181063970713,2.30132761224547,2.30107123408448,2.30067415503056,2.30054642463986,2.30040025069163,2.3005837728255,2.30048322747668,2.30074614994003,2.30077174540925,2.30110113882432,2.30141777427654,2.30207192597025,2.30235979285974,2.30294852663391,2.30346760686473,2.30421686916938,2.30494267490834,2.30605009839715,2.30672282319737,2.30776980178405,2.30851682541423,2.30951082166135,2.31008498131367,2.31087242143203,2.31127272712392,2.31150170001247,2.31210987843097,2.31139992745513,2.31249218502935,2.31281999717533,2.27347762346957,2.27334549701731,2.27205175984237,2.27174471746327,2.27135818365491,2.27142634965062,2.27166964378002,2.27202854944696,2.27204359460465,2.27224186677855,2.27217256088367,2.27213334913578,2.27244779613161,2.27268528963981,2.27290888700259,2.27304252343615,2.27335594555971,2.27346436782614,2.27389919507703,2.27408197941393,2.27472221169984,2.27521847876653,2.2757912339356,2.27648026326548,2.27731927310985,2.27889289408984,2.27969045592917,2.28060471158509,2.31713542983063,2.32684800136575,2.32633884724527,2.32614468968439,2.32676068739436,2.32659258216172,2.32620786577342,2.32591095196361,2.32527258247934,2.3251982925303,2.32404446563011,2.32312493516517,2.32161083614044,2.31963857829544,2.31925780470521,2.31845229929857,2.31835279843456,2.31823994658997,2.31793330225499,2.31779497119323,2.31761045765408,2.31761080783629,2.31770207341167,2.31794349782008,2.31817401685396,2.31849676420282,2.31912760369903,2.31985426991532,2.32064689377375,2.32163833771325,2.32224492610638,2.32316033366891,2.32384970186718,2.3249817504298,2.32539459822435,2.32623268177672,2.32646776610131,2.32667176029801,2.32579093540583,2.32413902343558,2.30804279540692,2.28748328255596,2.28595395725995,2.28535139440926,2.28451166391069,2.28457725183006,2.28386923800681,2.28345445863323,2.28322194763066,2.28301920080769,2.28302820386957,2.28326147376162,2.282736540394,2.28241848408438,2.28230499931962,2.28209467616069,2.28219157757929,2.28207492358543,2.28193469638456,2.28162408753572,2.28150030644791,2.28130461762491,2.28130860470789,2.281169785254,2.28106581838677,2.28070077526872,2.28084742792137,2.28081354319505,2.28078110162354,2.28063855277536,2.28065346830126,2.28044493241275,2.28061498306467,2.28058873284686,2.28060728978739,2.28048248159336,2.28076057873756,2.28084386460521,2.28084211759131,2.28062503568304,2.28092858888919,2.28105831320305,2.28127922297367,2.28142687523992,2.28172875908648,2.28190947780946,2.28227320780864,2.28266209626698,2.28266075209925,2.28260817378644,2.28329209746996,2.2837547463002,2.28395895776076,2.28407053701206,2.28449736867642,2.28467568229818,2.285079030231,2.28504604413383,2.28574072869345,2.28648055165635,2.2871470972967,2.28926828908241,2.28909096755795,2.29021922211409,2.3504120389339,2.34516757978844,2.34665315073607,2.34795821790311,2.34770774005791,2.34711573021986,2.34781373811193,2.34800306117139
2.3046378671488,2.30435964792806,2.30346351948177,2.30249983565755,2.30209452340423,2.30129715265121,2.30126904957043,2.30087410327993,2.30077698163741,2.30034515015473,2.30047916419995,2.30020192690806,2.30049513236613,2.30041671979744,2.30080938828359,2.3008769706444,2.30145220890078,2.30170621375922,2.30242793483226,2.30283287310321,2.3035776911911,2.30398296359491,2.30496403379635,2.30543902875185,2.30678057995984,2.30763724169841,2.30857935023598,2.30913950859045,2.31001865022207,2.31055415553155,2.31113877649499,2.31164058317932,2.31163362449441,2.31129569885621,2.31170093711036,2.27559962816115,2.27376270294747,2.27300231784189,2.27187501318501,2.27174966984088,2.271296393204,2.27133436451271,2.27144344350876,2.27170979559281,2.27183432533073,2.2720866668928,2.27208663031344,2.27230559337495,2.2723624964319,2.27273927618023,2.27278190188881,2.27316216696709,2.27326812771968,2.27378925910802,2.2737949689355,2.27420510198336,2.27463246928818,2.27530917795873,2.27581908166791,2.27666068405125,2.27746696856229,2.27888494147727,2.27987160170307,2.28085956712774,2.32169758512189,2.32528933997553,2.32606648115615,2.32663821606914,2.32699074365143,2.32716695347175,2.32625661229061,2.3252541916159,2.3250013040177,2.32437050199422,2.32407551934124,2.32408722182922,2.32228538479438,2.32124670652343,2.31972362139965,2.31847092159493,2.31826963400878,2.31792408037251,2.31783306624796,2.3175034159962,2.31763321619845,2.3174629553825,2.3178016420014,2.31784644850048,2.31833062658394,2.31842073023862,2.31933041402917,2.31972869481136,2.32080797244528,2.32143516868888,2.32225089929786,2.32252402447219,2.32376206685069,2.32459803054912,2.32522242048914,2.32548208758266,2.32598730998943,2.32574210981977,2.32575779256726,2.32565541977144,2.30663264768094,2.28750843880527,2.28630952036945,2.28551495161204,2.28472668233237,2.28425648666652,2.28380280667648,2.2833030388977,2.2831779872766,2.28300273653338,2.28286991865154,2.2826884320471,2.28250594713735,2.28227649434932,2.2822977186448,2.28256222426153,2.28239761350331,2.28295899124729,2.28200987098143,2.2816554592128,2.28141960825292,2.28151324576583,2.28132836665903,2.28166215752889,2.28107514102221,2.28096659275706,2.2807337383123,2.28084080202153,2.28064374501382,2.28086451914919,2.28057351983536,2.28072666538469,2.28050366385498,2.28068386899427,2.28048667322693,2.28061494990506,2.2807416056415,2.28123874773058,2.28077440878074,2.28057000516329,2.2807999568868,2.28118038836816,2.28118087203183,2.28133901772071,2.28177072142397,2.28255181431327,2.28229011753873,2.28235092847854,2.28263289438183,2.28301608024095,2.28336656202413,2.28398963178764,2.28398816070284,2.28438374078079,2.28451462982104,2.28508361902969,2.28520401433558,2.28579012732114,2.28611277253553,2.28721202197798,2.28759386181257,2.28922451079288,2.28967674084475,2.29106931023898,2.35128025392372,2.34636309224575,2.34659431637269,2.34703856083875,2.34731161623518,2.34699514837743,2.3478658114196,2.34833985000663
2.30426101808008,2.30385163292012,2.30310506406739,2.30245470020007,2.30183354280016,2.30157882283959,2.30097470375655,2.30095365593399,2.30047845265592,2.30067586367738,2.30026335569066,2.30048428532208,2.30028217612394,2.30056966669202,2.30066326751461,2.30118934070511,2.30132624439802,2.30186333403319,2.30231851839389,2.3031555423051,2.30352090081202,2.30427780975757,2.30489573889926,2.30576964327312,2.30667265488284,2.30773604005246,2.30855761657408,2.3096695501016,2.3100760122963,2.31069498359644,2.31100285344398,2.31102536733473,2.31138064806851,2.31086468512768,2.31127160262354,2.31103999761923,2.27352928130962,2.27265109893236,2.27202673371401,2.27165247212554,2.27138904200591,2.27106804044587,2.27135322690842,2.27137897912386,2.27179037031395,2.27206296781102,2.27214894251436,2.27205300104856,2.27242525427716,2.27236294804596,2.27287175166612,2.27291212800971,2.27339974915491,2.27340722123326,2.27396334787379,2.27389429331556,2.27486909271402,2.27510013399468,2.27616191580413,2.27668519539903,2.27798456353876,2.27908269711707,2.28039850426425,2.28185666459191,2.32413681066565,2.3239271600239,2.32581758894615,2.32710004216808,2.32686335930954,2.32651147304755,2.32606497968526,2.32591027179372,2.3248251092315,2.32434192562998,2.32350466377603,2.32284913344128,2.32196348842462,2.32153919779283,2.31969096210562,2.31825477559622,2.31805880729064,2.31783816067507,2.31767237505482,2.31762376957159,2.31756715376002,2.31773257377968,2.31776622695476,2.31800245292648,2.31845346146073,2.31919161190727,2.31962663853583,2.32043501603931,2.3210289950698,2.32189736149736,2.32250620550267,2.32332733139986,2.32385072370852,2.32443886395257,2.32511945681248,2.32599715966178,2.32565373510491,2.32551479124952,2.32546805820901,2.32584142075209,2.30595598960439,2.28710093865723,2.28622418689258,2.28562079555195,2.28477511739889,2.28438847116234,2.28383119496218,2.28327759870902,2.28324746592695,2.28311137496964,2.28285759962694,2.282398262403,2.28248106167577,2.28230142562375,2.28225625918261,2.28186711420988,2.2821922641135,2.28208277142253,2.28197166465182,2.28146749607371,2.28158733506845,2.28126614554064,2.28144196426451,2.28110805520471,2.28123051061652,2.2808344381213,2.28088703370166,2.28036128937277,2.28073246442029,2.28045809842866,2.28085324342951,2.28091369188922,2.28082216262642,2.28046433836632,2.28072636384412,2.28054078154236,2.28095998854767,2.28089285204097,2.28102451193382,2.280645751721,2.28098786998994,2.28080416624583,2.28126010876805,2.2812698718109,2.28170459915702,2.28175725635989,2.28217253600992,2.28220117861714,2.28286288632461,2.28330653446674,2.28385238183771,2.28445387726788,2.28429153944136,2.28382806435456,2.28481495462926,2.28513343845434,2.28573034509668,2.28583255095759,2.28652570144287,2.28677645990806,2.28805937885986,2.28902668067558,2.2901388085811,2.29148377427754,2.3501937844237,2.34672892900072,2.34620819200386,2.34631020941473,2.34705588860804,2.34737817418521,2.34802466380955,2.34874387156069
2.30390139642672,2.30336032296193,2.30289300193954,2.30227179699952,2.30180748311757,2.3009450598877,2.30093611729867,2.30024895608913,2.30050052726659,2.300094725339,2.30035460059328,2.29998841293341,2.30037468042978,2.30021142361295,2.30075918055154,2.3009242373999,2.30143715885037,2.30156647899983,2.30249463123058,2.30296581807423,2.30380193714004,2.30406807110042,2.30537769930882,2.30625376711025,2.30721937597509,2.30784942183531,2.30892352673834,2.3095882085792,2.31029109790853,2.31076700776036,2.31100524930962,2.3109304159437,2.3113892251542,2.31170372470374,2.31069152222996,2.27369739056053,2.27317642282579,2.27250040532446,2.27181288577326,2.27177535406208,2.2713449449201,2.27120876109581,2.27124554971873,2.27135729531047,2.27161225627962,2.27185662223967,2.27197819883322,2.27227797240043,2.27232338826346,2.27276912623387,2.27272862203581,2.27309639282407,2.27325560188752,2.27376905487964,2.27390803224211,2.27454316800154,2.27494651585921,2.27627432315444,2.27627103868199,2.27737564989906,2.27810911767842,2.27941213591974,2.28027071503385,2.28106645848539,2.32486762032488,2.32624769366045,2.32640193055657,2.32676006231127,2.32698437132934,2.32689746473583,2.32600495350827,2.32473007618953,2.32447074274578,2.32363029399054,2.32312416975875,2.32226405565661,2.32147079379948,2.32027354848111,2.3195226922288,2.31839056709372,2.31817058416852,2.31769528692099,2.31770895548941,2.31740908372692,2.31764585665356,2.31748455612686,2.31794705628513,2.31802292542521,2.31875108654942,2.31907491375727,2.32002239547799,2.32063844474563,2.32140156141111,2.32181749902157,2.32285352754941,2.32354278010305,2.32417212428112,2.32455233808772,2.32518698945356,2.32531042789336,2.3254251722661,2.32483219048834,2.32516366882115,2.32585178809037,2.30553173597509,2.28657858363991,2.28614495935902,2.28528634129253,2.28478042116173,2.28453240690067,2.28389150819599,2.28359577635988,2.28336972507131,2.28338195652498,2.28296839236424,2.28277876650179,2.28256785132885,2.28260037575224,2.28231967023509,2.28230588178269,2.28203560107378,2.281939986157,2.28172522715706,2.28176949420833,2.28145472495736,2.28161518020893,2.28126419407699,2.28131912706713,2.2810520088205,2.2812523211848,2.28074180529964,2.28080199832059,2.28058232965933,2.28086804936081,2.28059809661259,2.28069291883565,2.28056625836461,2.28070217019196,2.28060876132495,2.28091881135067,2.28089886592369,2.28139432677438,2.28105762771615,2.281243326728,2.28112396543159,2.28146804638674,2.28137815772627,2.28166707767673,2.28170877632439,2.28205417194877,2.28212957427489,2.28253870848425,2.28284335210806,2.28345528699206,2.28361121358157,2.28408398837429,2.28403694924279,2.28450034751083,2.28481619267116,2.2855377643168,2.28578269080924,2.28647492319759,2.28663751293505,2.28741384003883,2.28820708442354,2.28950966309489,2.29001094400532,2.29109127378453,2.34788180324805,2.34551491584055,2.34615792669639,2.34652601397139,2.34749574952585,2.34820931524514,2.34835164150384,2.34855946038565
