2.2205674175436,2.22160683590711,2.22248634375316,2.22299605852758,0,2.223915544003,2.22443525318476,2.22586445343459,2.22614429684016,0,2.22655406754116,2.2279133069396,2.22778337964416,2.22907265819122,0,2.22975227789044,2.22973228907576,2.23114150051091,2.23191106987621,0,2.23205099157899,2.23284054975897,2.23361011912426,2.23417980034273,0,2.23617868181103,2.23574892229535,2.23682831828823,2.2365084972533,0,2.23755791002416,2.23947683623373,2.23910704316209,2.23987661252739,0,2.24028638322839,2.24218532062328,2.24334467187489,2.24345461035565,0,2.24348459357767,2.24461396160726,2.245513458268,2.24653288781683,0,2.24720251310871,2.24797208247401,2.2493912883165,2.25088045501039,0,2.25316917429159,2.25390876043487,2.25511808372319,2.25883600325423,0,2.26134459949695,2.30476030498846,2.30510011483807,2.30340106559001,0,2.30628944931171,2.30707900749169,2.30620949405298,2.30525003094819,0,2.30473032176643,2.30437052310214,2.30356097610748,2.30218174789435,0,2.30252155774396,2.30228169196776,2.30209179822828,2.3023616472265,0,2.30249157452194,2.30264149063206,2.3033011215166,2.30421061258468,0,2.30476030498846,2.30533998061427,2.30614952760893,2.30726890123118,0,2.30968754780782,2.31223612167991,2.30931775473619,2.31232607134598,0,2.31251596508547,2.31376526600316,2.31385521566923,2.31385521566923,0,2.31458480740516,2.31569418662007,2.27677596443224,2.27635619932389,0,2.2739975191913,2.2745771948171,2.27262828538551,2.27338786034346,0,2.27290812879107,2.27353777645359,2.27425737378218,2.27434732344825,0,2.27467713889052,2.27418741293079,2.27538674181177,2.27625625525048,0,2.27569656843935,2.27657607628541,2.2768159420616,2.2769358749497,0,2.27809522620132,2.27925457745293,2.27984424748608,2.28203302269387,0,2.28372207753458,2.32317000331152,2.32386961182542,2.32756754254178,0,2.32803727968683,2.32780740831798,2.32851701123922,2.32705782776736,0,2.32739763761697,2.32451924830262,2.32332991382898,2.32288016549861,0,2.32158089254422,2.32104119454777,2.32000177618426,2.3194820670025,0,2.31957201666857,2.31978189922275,2.3197719048154,2.32017168110906,0,2.32077134554955,2.3213610155827,2.32177078628371,2.32277022701786,0,2.32376966775201,2.32526882885323,2.32572857159094,2.32657809621497,0,2.32707781658205,2.32763750339317,2.32919663093845,2.32868691616403,0,2.32955642960274,2.32709780539673,2.28786975658131,2.28684033262513,0,2.28654050040489,2.2855810373001,2.28513128896974,2.28417182586495,0,2.28458159656595,2.28443168045583,2.2837020887199,2.28378204397863,0,2.28367210549788,2.28415183705027,2.28366211109054,2.28321236276017,0,2.28363212786851,2.28307244105739,2.28268265917107,2.28209298913792,0,2.28250275983892,2.28281258646651,2.28244279339487,2.28228288287741,0,2.28259270950499,2.28221292202602,2.28243279898753,2.28260270391233,0,2.28232286050677,2.2819930450645,2.28280259205917,2.28189310099109,0,2.28304245783536,2.28248277102424,2.28303246342802,2.28389198245939,0,2.28434173078976,2.28419181467964,2.28421180349432,2.28461157978798,0,2.28455161334393,2.2850013616743,2.28481146793481,2.28513128896974,0,2.28589086392769,2.28697025992057,2.28705021517931,2.28824954406029,0,2.28818957761624,2.28931894564583,2.29104797811591,2.29177756985184,0,2.3486657364397,2.34559745338586,2.34909549595539,2.34949527224905,0,2.34983508209866,2.34975512683993,2.34987505972803,2.35148415931001,0,2.35129426557052,2.35035479128042,2.34978511006195,2.35005495906017,0,2.34840588184882,2.34926540088019,2.34934535613893,2.34956523310044,0,2.35159409779077,2.35042475213181,2.3510244165723,2.35274345463504,0,2.35404272758943,2.35539197258054,2.35613155872381,2.36041915947332
2.22067735602435,2.22157685268509,2.22295608089822,2.22324591871112,0,2.2240354768911,2.22434530351868,2.22631420176496,2.22664401720723,0,2.22648410668977,2.22743357538721,2.22822313356719,2.22890275326641,0,2.22946244007754,2.23113150610357,2.2310915284742,2.23196104191291,0,2.23238080702126,2.2330404379058,2.2334502086068,2.2341498171207,0,2.23545908448244,2.23601877129357,2.2358588607761,2.23678834065886,0,2.23794769191048,2.23789771987377,2.23900709908868,2.23985662371271,0,2.24080609241015,2.24176555551493,2.24170558907088,2.24277499065643,0,2.2435145767997,2.24470391127334,2.24547348063863,2.24677275359303,0,2.24744237888491,2.24839184758235,2.24976108138814,2.25112032078659,0,2.25352897295589,2.25488821235433,2.2566372336391,2.25826632203576,0,2.26141456034834,2.30228169196776,2.30781859363496,2.30618950523829,0,2.3088879952205,2.30650932627322,2.30554986316844,2.30492021550592,0,2.30461038887834,2.30555985757578,2.30415064614063,2.30331111592394,0,2.30244160248523,2.30217175348701,2.30247158570725,2.30304126692572,0,2.30232166959713,2.30285137318623,2.30352099847811,2.30434053988012,0,2.30510011483807,2.30540994146566,2.30629944371905,2.30737883971193,0,2.30873807911038,2.31161646842473,2.30830831959469,2.31227609930927,0,2.31249597627079,2.3130056910452,2.31327554004342,2.31302567985989,0,2.31438491925833,2.31457481299782,2.27805524857195,2.27436731226293,0,2.27354777086093,2.27361773171232,2.27323794423334,2.27312800575259,0,2.27241840283134,2.27381761985915,2.27378763663712,2.27450723396571,0,2.27449723955837,2.27451722837306,2.27532677536772,2.27492699907406,0,2.27553665792189,2.27641616576794,2.27673598680287,2.27724570157729,0,2.27815519264536,2.27928456067495,2.28045390633391,2.28255273187563,0,2.28433173638242,2.32525883444589,2.3255986442955,2.32864693853466,0,2.32874688260808,2.32890679312554,2.32828713987037,2.32548870581475,0,2.32537876733399,2.32288016549861,2.32197067443054,2.32147095406346,0,2.32137100999004,2.3200117705916,2.31962198870528,2.31967196074199,0,2.31926219004099,2.31925219563364,2.31944208937313,2.3198918377035,0,2.32031160281185,2.32096123928904,2.32145096524878,2.32287017109127,0,2.32377966215935,2.3246591700054,2.32584850447904,2.32711779421141,0,2.32782739713266,2.3271877550628,2.32681796199117,2.32652812417826,0,2.32740763202432,2.28715015925272,2.28742000825094,2.28651051718287,0,2.28655049481223,2.28545111000467,2.28610074648186,2.2845915909733,0,2.28463156860266,2.28439170282647,2.28469153504671,2.28424178671634,0,2.28422179790166,2.28337227327763,2.2832923180189,2.28316239072346,0,2.28262269272702,2.2830524522427,2.28322235716751,2.28240281576551,0,2.28197305624982,2.28242280458019,2.28256272628297,2.28277260883714,0,2.28271264239309,2.28192308421311,2.28224290524804,2.28187311217641,0,2.28222291643336,2.2821129779526,2.2830524522427,2.2826426815417,0,2.28290253613258,2.28294251376195,2.28397193771812,2.28357216142446,0,2.28428176434571,2.28366211109054,2.28492140641557,2.28490141760088,0,2.2848814287862,2.28466155182469,2.28504133930366,2.28598081359376,0,2.28569097578086,2.28631062903603,2.28591085274237,2.28760990199043,0,2.28902910783292,2.28987863245695,2.29053826334149,2.29476589764695,0,2.34645697241723,2.34747640196606,2.34794613911111,2.34810604962858,0,2.34925540647285,2.34982508769132,2.34989504854271,2.3496751715812,0,2.34777623418631,2.34952525547107,2.349025535104,2.34868572525439,0,2.34828594896073,2.34822598251668,2.34927539528754,2.34982508769132,0,2.34981509328398,2.35325316940946,2.35453245354917,2.35383284503526,0,2.35443250947575,2.35648136298076,2.3583203339316,2.35878007666931
2.2212670260575,2.22175675201723,2.22255630460456,2.2232659075258,0,2.22434530351868,2.2252647889941,2.22589443665662,2.2262742241356,0,2.22641414583838,2.22761347471936,2.22813318390112,2.23089164032737,0,2.23049186403371,2.23011207655474,2.23107153965952,2.23147131595318,0,2.23253072313138,2.23282056094428,2.23364010234629,2.23452960459968,0,2.23536913481637,2.23605874892293,2.2363885643652,2.2372780666186,0,2.23740799391404,2.23922697605019,2.23929693690158,2.23983663489802,0,2.24111591903774,2.24190547721771,2.24232524232606,2.24316477254274,0,2.24369447613184,2.245103687567,2.24533355893585,2.24626303881861,0,2.24762227821706,2.24893154557879,2.25011088564509,2.25092043263975,0,2.25338905125311,2.25429854232118,2.25735683096769,2.25837626051652,0,2.30396075240114,2.30466036091504,2.30632942694108,2.30737883971193,0,2.30850820774152,2.30792853211572,2.30692909138157,2.3091278609967,0,2.30439051191682,2.30401072443785,2.30411066851126,2.30242161367055,0,2.30207180941359,2.3018819156741,2.30189191008145,2.30211178704296,0,2.30208180382093,2.30255154096599,2.30309123896243,2.30403071325253,0,2.30469034413707,2.30536996383629,2.30614952760893,2.30702903545498,0,2.30889798962784,2.30974751425187,2.31054706683919,2.31232607134598,0,2.3140650982234,2.31309564071128,2.31397514855733,2.31244600423408,0,2.31388519889125,2.31370529955911,2.27551666910721,2.27508690959152,0,2.27410745767205,2.27475709414925,2.27361773171232,2.2737576534151,0,2.27420740174547,2.27344782678751,2.27362772611966,2.27413744089408,0,2.27461717244647,2.27451722837306,2.2745771948171,2.27543671384847,0,2.27527680333101,2.27619628880643,2.27667602035882,2.27672599239553,0,2.27796529890588,2.27885480115927,2.2813434085873,2.28162325199287,0,2.28514128337708,2.3260084149965,2.32818719579695,2.32753755931976,0,2.3280772573162,2.32780740831798,2.32708781098939,2.32614833669929,0,2.32955642960274,2.32625827518004,2.32084130640095,2.32102120573309,0,2.3204215412926,2.32041154688526,2.32007173703565,2.31930216767035,0,2.31910227952352,2.31927218444833,2.3193621341144,2.31954203344655,0,2.32033159162653,2.32070138469816,2.32195068561585,2.32317999771886,0,2.32358976841986,2.32543873377804,2.32601840940385,2.32666804588104,0,2.32792734120607,2.32928658060452,2.32789735798405,2.32681796199117,0,2.32762750898583,2.28823954965295,2.28723011451145,2.28646054514616,0,2.28601079681579,2.28540113796796,2.28533117711657,2.28463156860266,0,2.28434173078976,2.28425178112368,2.2844716580852,2.28421180349432,0,2.28345222853636,2.28379203838597,2.28298249139131,2.28345222853636,0,2.28310242427941,2.28369209431256,2.28280259205917,2.28323235157485,0,2.28273263120777,2.28273263120777,2.28255273187563,2.28221292202602,0,2.28210298354526,2.28171320165894,2.28197305624982,2.28246278220955,0,2.28193307862045,2.28174318488097,2.28279259765182,2.28248277102424,0,2.28324234598219,2.28311241868675,2.28287255291056,2.28277260883714,0,2.28385200483002,2.28407188179154,2.28413184823559,2.28484145115683,0,2.28468154063937,2.28508131693303,2.28557104289276,2.28601079681579,0,2.28666043329299,2.2863506066654,2.28732006417753,2.28845942661446,0,2.28907907986963,2.28959878905139,2.2921773461455,2.3457273806813,0,2.34708662007974,2.34999499261612,2.34957522750778,2.34864574762502,0,2.35051470179788,2.34953524987841,2.35027483602169,2.35004496465283,0,2.34968516598854,2.35002497583815,2.34886562458653,2.34863575321768,0,2.34978511006195,2.34897556306729,2.34982508769132,2.35031481365105,0,2.34966517717385,2.35065462350066,2.35436254862436,2.35409269962614,0,2.35439253184639,2.35542195580256,2.35943970755385,2.35875009344728
0,0,0,0,0,0,0,0,0,0,0,0,0,0,0,0,0,0,0,0,0,0,0,0,0,0,0,0,0,0,0,0,0,0,0,0,0,0,0,0,0,0,0,0,0,0,0,0,0,0,0,0,0,0,0,0,0,0,0,0,0,0,0,0,0,0,0,0,0,0,0,0,0,0,0,0,0,0,0,0,0,0,0,0,0,0,0,0,0,0,0,0,0,0,0,0,0,0,0,0,0,0,0,0,0,0,0,0,0,0,0,0,0,0,0,0,0,0,0,0,0,0,0,0,0,0,0,0,0,0,0,0,0,0,0,0,0,0,0,0,0,0,0,0,0,0,0,0,0,0,0,0,0,0,0,0,0,0,0,0,0,0,0,0,0,0,0,0,0,0,0,0,0,0,0,0,0,0,0,0,0,0,0,0,0,0,0,0,0,0,0,0,0,0,0,0,0,0,0,0,0,0,0,0,0,0,0,0,0,0,0,0,0,0,0,0,0,0,0,0,0,0,0,0,0,0,0,0,0,0,0,0,0,0,0,0,0,0,0,0,0,0,0,0,0,0,0,0,0,0,0,0,0,0,0,0,0,0,0
2.22130700368687,2.22228645560633,2.22247634934582,2.22299605852758,0,2.2237956111149,2.22539471628954,2.22560459884372,2.22725367605506,0,2.22708377113026,2.22751353064594,2.22845300493604,2.22902268615451,0,2.23004211570334,2.23012207096208,2.23118147814028,2.23160124324862,0,2.23337025334807,2.23355015268021,2.23425975560146,2.23429973323083,0,2.23562898940725,2.23630860910647,2.23646851962393,2.23738800509935,0,2.23760788206087,2.23910704316209,2.23961675793651,2.23996656219346,0,2.24097599733495,2.24228526469669,2.24260508573162,2.24326471661616,0,2.24344461594831,2.24477387212473,2.24618308355988,2.24670279274164,0,2.24789212721528,2.24822194265755,2.2500409247937,2.25161004674632,0,2.25271942596123,2.25416861502574,2.25710697078415,2.25919580191852,0,2.30111234630881,2.30404070765987,2.30528001417022,2.30708900189903,0,2.30763869430281,2.30657928712461,2.30559983520514,2.30488023787656,0,2.30360095373684,2.30388079714241,2.30267147385408,2.30275142911282,0,2.30239163044852,2.30217175348701,2.30215176467232,2.30234165841181,0,2.30219174230169,2.30291133963028,2.30351100407077,2.30449045599024,0,2.30467035532238,2.30599961149881,2.30600960590615,2.30775862719091,0,2.30872808470304,2.310307201063,2.31127665857512,2.31237604338269,0,2.31257593152952,2.3133654897095,2.31392517652062,2.31250597067813,0,2.31395515974265,2.27774542194436,2.27499695992545,2.27509690399886,0,2.2735177876389,2.27342783797283,2.27332789389942,2.27443727311432,0,2.2738775863032,2.27423738496749,2.27424737937483,2.27425737378218,0,2.27426736818952,2.27453721718774,2.27511689281355,2.27545670266316,0,2.27552666351455,2.27595642303023,2.27637618813858,2.27766546668563,0,2.27844503045827,2.27959438730254,2.28152330791945,2.2826426815417,0,2.28456160775127,2.32783739154,2.32770746424456,2.32776743068861,0,2.32792734120607,2.32861695531264,2.32717776065546,2.32658809062231,0,2.3264881465489,2.32467915882008,2.32026163077514,2.32000177618426,0,2.32016168670172,2.31999178177692,2.31999178177692,2.31938212292908,0,2.3193621341144,2.31906230189416,2.31978189922275,2.31971193837135,0,2.32023164755311,2.32165085339561,2.32260032209305,2.32333990823632,0,2.32399953912086,2.32574856040562,2.32621829755068,2.32715777184078,0,2.32907669805035,2.32815721257493,2.32875687701542,2.32703783895268,0,2.29004853738176,2.28859934831724,2.28736004180689,2.28701023754994,0,2.28622067936996,2.28538114915327,2.28520124982113,2.28475150149076,0,2.28522123863581,2.28492140641557,2.2841118594209,2.2831723851308,0,2.28407188179154,2.28345222853636,2.2837020887199,2.28328232361156,0,2.28328232361156,2.2828825473179,2.28287255291056,2.28360214464649,0,2.28234284932146,2.28240281576551,2.28250275983892,2.28279259765182,0,2.28225289965538,2.28213296676728,2.28203302269387,2.2824727766169,0,2.28225289965538,2.28285256409587,2.28278260324448,2.28225289965538,0,2.28280259205917,2.28269265357841,2.28298249139131,2.28332230124092,0,2.28398193212546,2.28491141200822,2.28446166367786,2.28456160775127,0,2.28522123863581,2.28508131693303,2.28658047803426,2.28590085833503,0,2.28610074648186,2.28663045007096,2.28806964472814,2.28816958880156,0,2.28966874990278,2.29194747477665,2.29182754188855,2.29308683721358,0,2.34423821398742,2.35022486398498,2.34842587066351,2.34770627333492,0,2.34964518835917,2.34989504854271,2.35032480805839,2.35034479687308,0,2.349845076506,2.34930537850956,2.34990504295005,2.3484958315149,0,2.34846584829287,2.34894557984527,2.349845076506,2.35103441097964,0,2.35137422082925,2.35283340430111,2.35346305196363,2.35265350496896,0,2.354732341696,2.35833032833894,2.3590899032969,2.35826036748755
2.22038751821145,2.22168679116584,2.22257629341924,2.22293609208353,0,2.22522481136474,2.22527478340145,2.22597439191535,2.22726367046241,0,2.22734362572114,2.22746355860924,2.22849298256541,2.22914261904261,0,2.22972229466842,2.23048186962637,2.23135138306508,2.2321009636157,0,2.23287053298099,2.23317036520124,2.23405986745463,2.23466952630246,0,2.23562898940725,2.23619867062571,2.23653848047532,2.2370382008424,0,2.23773780935631,2.23892714382995,2.23978666286131,2.24095600852027,0,2.24194545484708,2.24199542688379,2.24296488439591,2.24343462154097,0,2.2439243475007,2.24499374908624,2.24636298289203,2.24673277596366,0,2.24825192587957,2.24850178606311,2.25035075142129,2.25166001878303,0,2.25334907362374,2.2546883242075,2.25654728397302,2.26023522028204,0,2.30125226801159,2.30387080273506,2.30547990231705,2.30778861041294,0,2.30663925356866,2.305829706574,2.30547990231705,2.30441050073151,0,2.30386080832772,2.30264149063206,2.30314121099913,2.30219174230169,0,2.30217175348701,2.30194188211815,2.30194188211815,2.30256153537333,0,2.30250156892928,2.30286136759357,2.30319118303584,2.30385081392038,0,2.30469034413707,2.30524003654085,2.30655929830993,2.30692909138157,0,2.30883802318379,2.3102372402116,2.3108868766888,2.31169642368347,0,2.31249597627079,2.31361534989303,2.3130056910452,2.31560423695399,0,2.31273584204698,2.31413505907479,2.27496697670342,2.27341784356549,0,2.27336787152878,2.27253833571944,2.27283816793968,2.27312800575259,0,2.27344782678751,2.27400751359864,2.27423738496749,2.27427736259686,0,2.27409746326471,2.27429735141154,2.27504693196216,2.27516686485025,0,2.27603637828896,2.2765261042487,2.27710577987451,2.27761549464892,0,2.27875485708585,2.27879483471522,2.28122347569921,2.28207300032324,0,2.32649814095624,2.32538876174133,2.32820718461164,2.32832711749973,0,2.32845704479517,2.3277174586519,2.32692790047192,2.32686793402787,0,2.32591846533043,2.32265029412976,2.32147095406346,2.32123108828726,0,2.32005174822097,2.31968195514933,2.31981188244477,2.31920222359694,0,2.3196019998906,2.31913226274555,2.31942210055845,2.31983187125945,0,2.32028161958982,2.32103120014043,2.32195068561585,2.32338988027303,0,2.32379965097403,2.32491902459628,2.32633823043877,2.32607837584789,0,2.32776743068861,2.32723772709951,2.3273076879509,2.32794733002076,0,2.290348369602,2.28926897360912,2.28883921409344,2.28723011451145,0,2.28584089189098,2.28489142319354,2.28499136726696,2.28495138963759,0,2.28449164689988,2.28386199923737,2.28422179790166,2.28377204957129,0,2.28425178112368,2.28351219498041,2.28350220057307,2.28295250816929,0,2.28321236276017,2.28256272628297,2.28314240190878,2.28323235157485,0,2.28280259205917,2.28225289965538,2.28237283254348,2.28214296117463,0,2.28262269272702,2.28296250257663,2.28359215023914,2.2819430730278,0,2.28205301150855,2.28254273746829,2.28231286609943,2.28172319606628,0,2.2823528437288,2.28259270950499,2.28290253613258,2.28373207194193,0,2.28455161334393,2.28351219498041,2.28422179790166,2.28461157978798,0,2.28484145115683,2.28523123304315,2.28559103170745,2.28561102052213,0,2.28708019840133,2.28930895123849,2.28774982369321,2.28841944898509,0,2.29204741885006,2.29084808996908,2.29358655758065,2.34820599370199,0,2.34734647467062,2.35012491991156,2.34841587625617,2.34780621740833,0,2.34957522750778,2.35129426557052,2.35022486398498,2.34993502617207,0,2.34965518276651,2.34930537850956,2.3497251436179,2.34927539528754,0,2.34907550714071,2.34932536732424,2.34968516598854,2.35019488076295,0,2.3504947129832,2.35315322533604,2.35251358326618,2.35266349937631,0,2.35734088201213,2.35737086523416,2.35789057441592,2.35847025004172
2.22147690861167,2.22280616478809,2.22221649475494,2.22284614241746,0,2.22407545452046,2.22601436954472,2.22566456528776,2.22611431361813,0,2.22740359216519,2.22719370961102,2.22822313356719,2.22902268615451,0,2.22982223874183,2.23041190877498,2.23140135510179,2.23244077346531,0,2.2329205050177,2.23328030368199,2.2336201135316,2.23461955426575,0,2.2352092242989,2.2362186594404,2.23644853080925,2.23757789883884,0,2.23816756887199,2.2394468530117,2.2394468530117,2.23984662930536,0,2.24105595259369,2.24216533180859,2.24270502980504,2.24336466068957,0,2.24384439224197,2.2449837546789,2.24603316744976,2.24688269207379,0,2.24745237329225,2.24871166861728,2.25050066753141,2.25165002437568,0,2.25323913514298,2.25462835776345,2.25679714415656,2.25978547195167,0,2.29994300064985,2.30250156892928,2.3040007300305,2.30705901867701,0,2.30722892360181,2.30560982961249,2.30500017076466,2.30474031617378,0,2.30389079154975,2.30272144589079,2.30214177026498,2.30190190448879,0,2.30185193245208,2.30197186534018,2.30180196041537,2.30208180382093,0,2.3020018485622,2.30310123336977,2.30358096492216,2.30379084747633,0,2.30505014280136,2.30559983520514,2.30678916967878,2.30739882852662,0,2.30907788895999,2.31014729054553,2.31178637334954,2.312356054568,0,2.31234606016066,2.3129557190085,2.31358536667101,2.31248598186344,0,2.31256593712218,2.27559662436594,2.27463716126115,2.27553665792189,0,2.27292811760576,2.27275821268095,2.27258830775614,2.27280818471766,0,2.27320796101132,2.27408746885737,2.27401750800598,2.27430734581888,0,2.2744072898923,2.27490701025937,2.27487702703735,2.27557663555126,0,2.27528679773835,2.2761163335477,2.27737562887273,2.27842504164358,0,2.27935452152634,2.28018405733569,2.28142336384604,2.28314240190878,0,2.28510130574771,2.32985626182299,2.32940651349262,2.32834710631442,0,2.32852700564656,2.32869691057137,2.32702784454534,2.32613834229194,0,2.32514889596513,2.32367971808593,2.32146095965612,2.32093125606702,0,2.31990183211084,2.31964197751996,2.32034158603387,2.31905230748681,0,2.31915225156023,2.31973192718604,2.31993181533287,2.31946207818782,0,2.32006174262831,2.32098122810373,2.32206062409661,2.3231899921262,0,2.32413946082364,2.32478909730084,2.32678797876914,2.32667804028839,0,2.32739763761697,2.32644816891953,2.32741762643166,2.32770746424456,0,2.2892889624238,2.28806964472814,2.28753994113904,2.28673039414438,0,2.28670041092235,2.2850013616743,2.28519125541379,2.28467154623203,0,2.2845915909733,2.28442168604849,2.28432174197507,2.28397193771812,0,2.28380203279332,2.28369209431256,2.28321236276017,2.2830524522427,0,2.28318237953814,2.28240281576551,2.2824727766169,2.28269265357841,0,2.28331230683358,2.28256272628297,2.28302246902068,2.28220292761867,0,2.28230287169209,2.28187311217641,2.28219293321133,2.28238282695082,0,2.28303246342802,2.28263268713436,2.28344223412902,2.28332230124092,0,2.28268265917107,2.28363212786851,2.28314240190878,2.28337227327763,0,2.2840618873842,2.28427176993837,2.28373207194193,2.28496138404493,0,2.28487143437886,2.28521124422847,2.28599080800111,2.2855810373001,0,2.28667042770033,2.28747997469499,2.28762989080511,2.28759990758309,0,2.28849940424382,2.29065819622959,2.29175758103716,2.34609717375294,0,2.34797612233314,2.34746640755872,2.3476063292615,2.34843586507085,0,2.35422262692158,2.35084451724015,2.35057466824193,2.35009493668954,0,2.34980509887664,2.35009493668954,2.35034479687308,2.35071458994471,0,2.34938533376829,2.34887561899387,2.34908550154805,2.35014490872625,0,2.35109437742369,2.35133424319989,2.35210381256518,2.35460241440056,0,2.35724093793872,2.35758074778833,2.35691112249645,2.35768069186174
2.22082727213447,2.22218651153292,2.22360571737541,2.22319594667441,0,2.22422537063059,2.22648410668977,2.22670398365128,2.22716372638899,0,2.22625423532091,2.2269738326495,2.22855294900946,2.22970230585373,0,2.22981224433449,2.23031196470157,2.23184110902482,2.23194105309823,0,2.23270062805619,2.23319035401592,2.23365009675363,2.23502932496676,0,2.23540911244573,2.23649850284596,2.23719811135986,2.23722809458189,0,2.23837745142616,2.23913702638412,2.2396867187879,2.2405062601899,0,2.24100598055698,2.24198543247645,2.24294489558123,2.2435145767997,0,2.24450402312651,2.24499374908624,2.24615310033786,2.24699263055454,0,2.24796208806667,2.24921138898436,2.2506905612709,2.2525695098511,0,2.25390876043487,2.2555778264609,2.25761668555857,2.26003533213521,0,2.30207180941359,2.30246159129991,2.30532998620692,2.30545991350236,0,2.30588967301805,2.30567979046388,2.30463037769302,2.30358096492216,0,2.30298130048167,2.30227169756042,2.3021217814503,2.30191189889613,0,2.30181195482271,2.30173199956398,2.30194188211815,2.30228169196776,0,2.3024116192632,2.30287136200091,2.30299129488901,2.30373088103228,0,2.30502015957934,2.30552987435375,2.30651932068056,2.30803847059647,0,2.30930776032884,2.3101872681749,2.31139659146322,2.31211618879181,0,2.31255594271483,2.31276582526901,2.31382523244721,2.31325555122874,0,2.31294572460115,2.27483704940798,2.27407747445003,2.2737576534151,0,2.273637720527,2.27241840283134,2.27283816793968,2.27314799456727,0,2.27292811760576,2.27397753037661,2.27362772611966,2.27453721718774,0,2.27441728429964,2.27467713889052,2.27590645099352,2.27484704381533,0,2.27625625525048,2.27580650692011,2.27683593087628,2.27757551701956,0,2.27875485708585,2.28042392311189,2.28131342536528,2.2847614958981,0,2.32899674279162,2.32849702242454,2.3286069609053,2.32852700564656,0,2.32873688820074,2.3275975257638,2.32823716783366,2.32517887918716,0,2.32414945523098,2.32433934897047,2.32244041157559,2.32091126725234,0,2.31982187685211,2.31942210055845,2.31916224596757,2.31937212852174,0,2.31975191600072,2.31955202785389,2.31925219563364,2.32047151332931,0,2.32113114421385,2.32149094287814,2.32264029972242,2.32333990823632,0,2.32401952793554,2.32621829755068,2.3263682136608,2.32684794521319,0,2.32691790606458,2.32678797876914,2.32696787810129,2.32752756491241,0,2.2884694210218,2.28791972861802,2.28703022636462,2.28576093663225,0,2.28518126100644,2.28507132252569,2.28473151267608,2.28461157978798,0,2.28428176434571,2.28365211668319,2.28442168604849,2.28405189297685,0,2.28374206634927,2.28360214464649,2.2832923180189,2.28299248579865,0,2.28278260324448,2.28242280458019,2.28311241868675,2.28283257528119,0,2.2823528437288,2.28295250816929,2.28214296117463,2.28246278220955,0,2.28273263120777,2.28210298354526,2.2819430730278,2.2815832743635,0,2.28296250257663,2.28285256409587,2.28222291643336,2.28283257528119,0,2.2828825473179,2.283002480206,2.28313240750143,2.28397193771812,0,2.28399192653281,2.28226289406272,2.2854111323753,2.28409187060622,0,2.28462157419532,2.28477149030544,2.2864705395535,2.28563100933681,0,2.2868803102545,2.28811961676485,2.28833949372636,2.28839946017041,0,2.28865931476129,2.29115791659667,2.29305685399155,2.34465797909576,0,2.34682676548887,2.34797612233314,2.34713659211645,2.34882564695717,0,2.3503747800951,2.3510244165723,2.35059465705661,2.35070459553737,0,2.34966517717385,2.35015490313359,2.34930537850956,2.34991503735739,0,2.34923541765817,2.3489056022159,2.34915546239944,2.35009493668954,0,2.35009493668954,2.35132424879254,2.35353301281502,2.35365294570312,0,2.35729090997542,2.35662128468354,2.35782061356452,2.35782061356452
0,0,0,0,0,0,0,0,0,0,0,0,0,0,0,0,0,0,0,0,0,0,0,0,0,0,0,0,0,0,0,0,0,0,0,0,0,0,0,0,0,0,0,0,0,0,0,0,0,0,0,0,0,0,0,0,0,0,0,0,0,0,0,0,0,0,0,0,0,0,0,0,0,0,0,0,0,0,0,0,0,0,0,0,0,0,0,0,0,0,0,0,0,0,0,0,0,0,0,0,0,0,0,0,0,0,0,0,0,0,0,0,0,0,0,0,0,0,0,0,0,0,0,0,0,0,0,0,0,0,0,0,0,0,0,0,0,0,0,0,0,0,0,0,0,0,0,0,0,0,0,0,0,0,0,0,0,0,0,0,0,0,0,0,0,0,0,0,0,0,0,0,0,0,0,0,0,0,0,0,0,0,0,0,0,0,0,0,0,0,0,0,0,0,0,0,0,0,0,0,0,0,0,0,0,0,0,0,0,0,0,0,0,0,0,0,0,0,0,0,0,0,0,0,0,0,0,0,0,0,0,0,0,0,0,0,0,0,0,0,0,0,0,0,0,0,0,0,0,0,0,0,0,0,0,0,0,0,0
2.22043749024816,2.22298606412024,2.22265624867797,2.22329589074783,0,2.22563458206574,2.22507489525461,2.22633419057965,2.22692386061279,0,2.22630420735762,2.2268039277247,2.22920258548666,2.22910264141324,0,2.22976227229778,2.23282056094428,2.23069175218054,2.23193105869089,0,2.23294049383238,2.23355015268021,2.23358013590224,2.23533915159434,0,2.23602876570091,2.23635858114318,2.23729805543328,2.23841742905553,0,2.23845740668489,2.23875723890514,2.23969671319524,2.24113590785242,0,2.24211535977189,2.24281496828579,2.24273501302706,2.24359453205843,0,2.2441642132769,2.24536354215788,2.24679274240771,2.24720251310871,0,2.24773221669781,2.24947124357524,2.25072054449292,2.2518699013372,0,2.2538687828055,2.25547788238748,2.25710697078415,2.30227169756042,0,2.30311122777711,2.30251156333662,2.30435053428746,2.30636940457044,0,2.3061195443869,2.30592965064741,2.30397074680848,2.3034210544047,0,2.30365092577355,2.30406069647455,2.3019518765255,2.30142217293639,0,2.30174199397132,2.30199185415486,2.30203183178423,2.30349101525609,0,2.30216175907967,2.30263149622472,2.30320117744318,2.30366092018089,0,2.30483026583985,2.30563981283451,2.30624947168234,2.30790854330103,0,2.30890798403518,2.31063701650526,2.31143656909259,2.31187632301561,0,2.31222612727256,2.31317559597001,2.31347542819025,2.31411507026011,0,2.31613394054309,2.27604637269631,2.27421739615281,2.27380762545181,0,2.27288813997639,2.27333788830676,2.27275821268095,2.27280818471766,0,2.274047491228,2.27400751359864,2.27340784915815,2.27432733463357,0,2.2742873570042,2.27446725633635,2.27513688162823,2.27560661877328,0,2.27625625525048,2.27791532686917,2.27750555616817,2.27834508638485,0,2.27842504164358,2.27928456067495,2.28111353721845,2.28405189297685,0,2.32927658619718,2.32800729646481,2.32872689379339,2.32898674838427,0,2.32806726290886,2.32792734120607,2.32746759846837,2.32437932659984,0,2.32513890155779,2.32244041157559,2.32181076391307,2.32158089254422,0,2.31954203344655,2.32012170907236,2.3193621341144,2.31911227393086,0,2.31874248085923,2.31955202785389,2.31920222359694,2.31954203344655,0,2.32069139029082,2.32202064646724,2.32251037242698,2.32346983553176,0,2.32471913644945,2.32615833110663,2.32649814095624,2.32692790047192,0,2.32714777743344,2.32931656382654,2.32655810740029,2.32681796199117,0,2.28924898479444,2.28848940983648,2.28699024873526,2.28614072411123,0,2.28608075766718,2.28469153504671,2.28466155182469,2.28478148471278,0,2.28448165249254,2.2841118594209,2.28430175316039,2.28453162452925,0,2.28418182027229,2.28354217820244,2.28425178112368,2.28347221735105,0,2.28296250257663,2.28289254172524,2.2831723851308,2.2826426815417,0,2.28278260324448,2.28274262561512,2.28227288847007,2.28230287169209,0,2.28241281017285,2.28297249698397,2.28310242427941,2.28325234038953,0,2.28273263120777,2.28289254172524,2.28309242987207,2.28273263120777,0,2.28360214464649,2.28285256409587,2.2837020887199,2.28448165249254,0,2.28373207194193,2.28410186501356,2.28456160775127,2.28539114356062,0,2.28484145115683,2.28494139523025,2.28576093663225,2.28695027110589,0,2.28759990758309,2.28773982928587,2.28761989639777,2.28957880023671,0,2.29086807878376,2.29242720632904,2.29337667502648,2.34700666482101,0,2.34515769946283,2.34934535613893,2.34998499820878,2.34944530021234,0,2.3497251436179,2.35103441097964,2.35070459553737,2.35015490313359,0,2.34986506532068,2.34978511006195,2.34889560780856,2.34920543443614,0,2.34898555747463,2.34976512124727,2.34965518276651,2.35072458435205,0,2.35095445572091,2.35164406982747,2.35266349937631,2.35332313026085,0,2.35556187750534,2.35640140772203,2.35759074219567,2.35854021089311
2.22117707639143,2.2216767967585,2.22320594108175,2.2232659075258,0,2.22558461002903,2.22518483373537,2.22575451495384,2.22664401720723,0,2.22696383824216,2.22714373757431,2.22914261904261,2.22966232822437,0,2.22985222196386,2.23006210451803,2.23087165151269,2.23237081261392,0,2.23307042112782,2.2330404379058,2.23422977237944,2.23443965493361,0,2.23582887755408,2.23620866503305,2.23685830151025,2.23817756327933,0,2.23855735075831,2.2390370823107,2.24038632730181,2.24092602529825,0,2.24216533180859,2.24278498506377,2.24316477254274,2.24371446494653,0,2.2442141853136,2.24513367078902,2.24643294374342,2.24726247955276,0,2.24772222229047,2.25000094716434,2.25071055008558,2.25187989574454,0,2.25377883313943,2.25672718330517,2.25808642270362,2.2599853600985,0,2.30287136200091,2.30431055665809,2.30555985757578,2.30566979605654,0,2.3059496394621,2.30521005331883,2.30380084188367,2.30309123896243,0,2.30299129488901,2.30214177026498,2.30184193804474,2.30238163604118,0,2.30176198278601,2.30250156892928,2.30222172552372,2.30191189889613,0,2.30229168637511,2.3025315521513,2.30305126133306,2.30434053988012,0,2.30504014839402,2.30562981842717,2.30668922560537,2.30827833637267,0,2.30882802877645,2.30987744154731,2.31228609371661,2.31232607134598,0,2.31290574697179,2.31528441591907,2.31358536667101,2.31358536667101,0,2.31628385665322,2.27439729548496,2.27348780441688,2.27361773171232,0,2.27290812879107,2.27393755274725,2.27324793864068,2.27277820149563,0,2.27339785475081,2.27337786593612,2.27392755833991,2.27409746326471,0,2.2746971277052,2.27433732904091,2.27473710533457,2.27508690959152,0,2.27574654047606,2.27692588054236,2.27687590850565,2.27813520383068,0,2.27846501927295,2.27980426985671,2.28250275983892,2.28408187619888,0,2.32765749220785,2.32775743628127,2.32850701683188,2.32830712868505,0,2.32861695531264,2.32846703920252,2.32664805706636,2.32723772709951,0,2.32437932659984,2.32260032209305,2.32226051224344,2.32023164755311,0,2.32024164196045,2.31923220681896,2.31937212852174,2.31922221241162,0,2.31950205581718,2.3191922291896,2.31975191600072,2.32041154688526,0,2.32155090932219,2.32199066324522,2.32238044513154,2.32409948319428,0,2.32429937134111,2.32575855481297,2.32639819688282,2.32709780539673,0,2.32786737476202,2.32821717901898,2.32682795639851,2.32536877292665,0,2.32682795639851,2.2883494881337,2.2871701480674,2.28646054514616,0,2.28718014247475,2.28472151826873,2.28513128896974,2.28453162452925,0,2.28513128896974,2.28457160215861,2.28455161334393,2.28374206634927,0,2.28366211109054,2.28349220616573,2.2837020887199,2.28430175316039,0,2.28302246902068,2.28310242427941,2.28342224531434,2.28359215023914,0,2.2825227486536,2.28227288847007,2.28214296117463,2.28246278220955,0,2.28219293321133,2.28308243546473,2.28251275424626,2.28218293880399,0,2.2834622229437,2.28259270950499,2.28303246342802,2.28268265917107,0,2.28324234598219,2.28387199364471,2.28326233479687,2.28357216142446,0,2.28397193771812,2.284231792309,2.28420180908698,2.28473151267608,0,2.2855310652634,2.28625066259199,2.2855810373001,2.2872900809555,0,2.28747997469499,2.2877698125079,2.28869929239066,2.28826953287497,0,2.29044831367542,2.29272703854928,2.29490581934973,2.34851582032958,0,2.34499778894537,2.35016489754093,2.34923541765817,2.34970515480322,0,2.35056467383459,2.35055467942725,2.35067461231535,2.34980509887664,0,2.34821598810934,2.34921542884349,2.34893558543792,2.34913547358475,0,2.34979510446929,2.3502048751703,2.35033480246573,2.34986506532068,0,2.35169404186418,2.35257354971023,2.35260353293226,2.35403273318209,0,2.35575177124483,2.35623150279722,2.35761073101035,2.35789057441592
2.22181671846128,2.22197662897875,2.22265624867797,2.22330588515517,0,2.22448522522147,2.22520482255005,2.22699382146418,2.22658405076318,0,2.22714373757431,2.2282731056039,2.22828310001124,2.22936249600412,0,2.23114150051091,2.23053184166308,2.23169119291469,2.23250073990936,0,2.23301045468377,2.23378002404907,2.23456958222905,2.23504931378144,0,2.23555902855586,2.23627862588445,2.23791770868845,2.23795768631782,0,2.23859732838768,2.23898711027399,2.23991659015675,2.24099598614964,0,2.2415156953314,2.24263506895364,2.2431547781354,2.24375444257589,0,2.2443341182017,2.24590324015432,2.24664282629759,2.24744237888491,0,2.24870167420994,2.24997096394231,2.25084047738102,2.25310920784755,0,2.25534795509204,2.25719692045022,2.25955560058282,2.30125226801159,0,2.30321117185053,2.30409067969658,2.3053000029849,2.30616951642361,0,2.30581971216666,2.30613953320159,2.30402071884519,2.30301128370369,0,2.30230168078245,2.30202183737689,2.30221173111637,2.30279140674218,0,2.30110235190147,2.30155210023183,2.30168202752727,2.30174199397132,0,2.30204182619157,2.30194188211815,2.3033011215166,2.30345103762672,0,2.3048902322839,2.30596962827678,2.30733886208257,2.30860815181494,0,2.30980748069592,2.31179636775688,2.31222612727256,2.31263589797357,0,2.31380524363252,2.31146655231461,2.31277581967635,2.31387520448391,0,2.31595404121095,2.2742873570042,2.27335787712144,2.2730580449012,0,2.27837506960688,2.27349779882422,2.27291812319841,2.27299807845715,0,2.27287814556905,2.27366770374903,2.27367769815637,2.27411745207939,0,2.2741674241161,2.27485703822267,2.27484704381533,2.27537674740443,0,2.27577652369809,2.27657607628541,2.27716574631855,2.27743559531678,0,2.27877484590054,2.28027400700176,2.28156328554882,2.28398193212546,0,2.32829713427771,2.32802728527949,2.32917664212376,2.32895676516225,0,2.32826715105569,2.32733767117293,2.32556866107348,2.3249490078183,0,2.3238396286034,2.32358976841986,2.322540355649,2.3211911106579,0,2.31995180414755,2.31942210055845,2.31910227952352,2.31893237459872,0,2.31975191600072,2.31920222359694,2.31986185448148,2.32061143503209,0,2.31983187125945,2.32192070239383,2.32274024379583,2.32349981875379,0,2.3251888735945,2.32569858836892,2.32704783336002,2.32755754813444,0,2.32750757609773,2.32868691616403,2.3297163401202,2.32815721257493,0,2.28986863804961,2.28701023754994,2.28682034381045,2.28665043888565,0,2.28533117711657,2.28585088629833,2.28456160775127,2.28466155182469,0,2.28460158538064,2.28434173078976,2.28444167486317,2.28385200483002,0,2.28397193771812,2.28373207194193,2.28350220057307,2.2851712665991,0,2.28343223972168,2.28311241868675,2.28365211668319,2.28296250257663,0,2.28240281576551,2.28245278780221,2.28325234038953,2.28234284932146,0,2.2819930450645,2.28229287728475,2.28265267594904,2.28273263120777,0,2.28219293321133,2.28259270950499,2.28495138963759,2.28368209990522,0,2.28374206634927,2.28334229005561,2.28395194890344,2.28363212786851,0,2.28462157419532,2.2841118594209,2.28415183705027,2.28408187619888,0,2.28548109322669,2.28631062903603,2.28583089748364,2.28743000265828,0,2.28719013688209,2.28818957761624,2.28937891208988,2.2895288282,0,2.29012849264049,2.29130783270679,2.29307684280624,2.34761632366884,0,2.34798611674048,2.34802609436985,2.3482559657387,2.34978511006195,0,2.35058466264927,2.35056467383459,2.35097444453559,2.34885563017919,0,2.34927539528754,2.34936534495361,2.34906551273336,2.34872570288375,0,2.34894557984527,2.35038477450244,2.35019488076295,2.35138421523659,0,2.35242363360011,2.35230370071201,2.35329314703882,2.35686115045974,0,2.35618153076052,2.35692111690379,2.35759074219567,2.35796053526731
2.22195664016406,2.22213653949621,2.22260627664126,2.22358572856073,0,2.2241554097792,2.22577450376852,2.22600437513738,2.22634418498699,0,2.22669398924394,2.22710375994494,2.22885278122971,2.23002212688866,0,2.22985222196386,2.23144133273116,2.23194105309823,2.23236081820657,0,2.23418979475007,2.23331028690402,2.23443965493361,2.23512926904017,0,2.23505930818878,2.23657845810469,2.23692826236164,2.23737801069201,0,2.23852736753628,2.2394468530117,2.24007650067422,2.24113590785242,0,2.24108593581571,2.24270502980504,2.24323473339413,2.24354456002172,0,2.24479386093941,2.24609313389381,2.24636298289203,2.24767225025376,0,2.24872166302462,2.24973109816611,2.25100038789849,2.25316917429159,0,2.25484823472497,2.25685711060061,2.25890596410562,2.30631943253373,0,2.30472032735909,2.30417063495531,2.30485025465453,2.30536996383629,0,2.3053000029849,2.30524003654085,2.30397074680848,2.30223171993106,0,2.30234165841181,2.30187192126676,2.30199185415486,2.30234165841181,0,2.30233166400447,2.30100240782805,2.30271145148345,2.30193188771081,0,2.30248158011459,2.30223171993106,2.3031811886285,2.3033011215166,0,2.30520005891149,2.30576974012995,2.3071789515651,2.30816839789191,0,2.31017727376756,2.31097682635488,2.31237604338269,2.31302567985989,0,2.31458480740516,2.3135353946343,2.31272584763964,2.31410507585277,0,2.31595404121095,2.27464715566849,2.27344782678751,2.27341784356549,0,2.27241840283134,2.27311801134524,2.27331789949207,2.27311801134524,0,2.2726982462369,2.27326792745537,2.27365770934169,2.27429735141154,0,2.27439729548496,2.2744072898923,2.27445726192901,2.27486703263001,0,2.27527680333101,2.27679595324692,2.27676597002489,2.27785536042512,0,2.27830510875549,2.28081370499821,2.28281258646651,2.28440169723381,0,2.32883683227415,2.32837708953644,2.32768747542988,2.3283670951291,0,2.32756754254178,2.32750757609773,2.32596843736714,2.32560863870284,0,2.32455922593199,2.32169083102497,2.32138100439739,2.32015169229438,0,2.31995180414755,2.31952204463187,2.31927218444833,2.31942210055845,0,2.31922221241162,2.31946207818782,2.32086129521563,2.32031160281185,0,2.32116112743587,2.32161087576624,2.32276023261051,2.32384962301074,0,2.32560863870284,2.32601840940385,2.32639819688282,2.32663806265902,0,2.32711779421141,2.32841706716581,2.32789735798405,2.32626826958738,0,2.2888791917228,2.28820956643092,2.28720013128943,2.28693028229121,0,2.28556104848542,2.28472151826873,2.28467154623203,2.28426177553103,0,2.28439170282647,2.28385200483002,2.28403190416217,2.28431174756773,0,2.28420180908698,2.28478148471278,2.28349220616573,2.28349220616573,0,2.28391197127407,2.2841118594209,2.28265267594904,2.28308243546473,0,2.28244279339487,2.28244279339487,2.2827626144298,2.28224290524804,0,2.28218293880399,2.28262269272702,2.28258271509765,2.28259270950499,0,2.28215295558197,2.28208299473058,2.28331230683358,2.28266267035638,0,2.28312241309409,2.28339226209231,2.28378204397863,2.2832923180189,0,2.2854111323753,2.28466155182469,2.28416183145761,2.28501135608164,0,2.28622067936996,2.28521124422847,2.28671040532969,2.28618070174059,0,2.28706020958665,2.28785976217397,2.28840945457775,2.28842944339243,0,2.28995858771569,2.29198745240601,2.34729650263392,2.34169963452267,0,2.34740644111467,2.34780621740833,2.34985507091334,2.35016489754093,0,2.35043474653915,2.35046472976118,2.35022486398498,2.34993502617207,0,2.35002497583815,2.34995501498676,2.34879566373514,2.34947528343437,0,2.35033480246573,2.3507845507961,2.35106439420167,2.35060465146396,0,2.3510244165723,2.35234367834138,2.35749079812225,2.35558186632003,0,2.35587170413293,2.3570210609772,2.35635143568532,2.35879007107665
0,0,0,0,0,0,0,0,0,0,0,0,0,0,0,0,0,0,0,0,0,0,0,0,0,0,0,0,0,0,0,0,0,0,0,0,0,0,0,0,0,0,0,0,0,0,0,0,0,0,0,0,0,0,0,0,0,0,0,0,0,0,0,0,0,0,0,0,0,0,0,0,0,0,0,0,0,0,0,0,0,0,0,0,0,0,0,0,0,0,0,0,0,0,0,0,0,0,0,0,0,0,0,0,0,0,0,0,0,0,0,0,0,0,0,0,0,0,0,0,0,0,0,0,0,0,0,0,0,0,0,0,0,0,0,0,0,0,0,0,0,0,0,0,0,0,0,0,0,0,0,0,0,0,0,0,0,0,0,0,0,0,0,0,0,0,0,0,0,0,0,0,0,0,0,0,0,0,0,0,0,0,0,0,0,0,0,0,0,0,0,0,0,0,0,0,0,0,0,0,0,0,0,0,0,0,0,0,0,0,0,0,0,0,0,0,0,0,0,0,0,0,0,0,0,0,0,0,0,0,0,0,0,0,0,0,0,0,0,0,0,0,0,0,0,0,0,0,0,0,0,0,0,0,0,0,0,0,0
2.22125703165016,2.22229645001368,2.22268623189999,2.2242053818159,0,2.22435529792603,2.22534474425284,2.22558461002903,2.22657405635584,0,2.22710375994494,2.23036193673827,2.22826311119656,2.22825311678921,0,2.22981224433449,2.23099158440079,2.23154127680457,2.23225087972582,0,2.23302044909111,2.23400989541792,2.23451961019234,2.23538912363105,0,2.23565897262927,2.23640855317989,2.23687829032494,2.23761787646821,0,2.23882719975653,2.23921698164285,2.24018643915498,2.24067616511471,0,2.24163562821949,2.24224528706733,2.2431048060987,2.24424416853563,0,2.24491379382751,2.24559341352673,2.24672278155632,2.24735242921884,0,2.24905147846689,2.25080049975166,2.25181992930049,2.25282936444198,0,2.25691707704466,2.25795649540818,2.25988541602509,2.30087248053261,0,2.30312122218445,2.305419935873,2.3046503665077,2.3060695723502,0,2.30728889004586,2.30403071325253,2.30233166400447,2.30217175348701,0,2.30206181500625,2.30186192685942,2.30155210023183,2.30127225682627,0,2.30101240223539,2.30076254205186,2.30143216734374,2.30216175907967,0,2.30233166400447,2.30229168637511,2.30327113829457,2.30463037769302,0,2.30509012043073,2.30639938779247,2.30736884530459,2.30873807911038,0,2.3095376316977,2.31132663061183,2.31227609930927,2.31302567985989,0,2.31450485214643,2.31492461725477,2.31328553445076,2.31315560715533,0,2.27774542194436,2.27492699907406,2.27254833012678,2.27455720600242,0,2.27344782678751,2.27292811760576,2.27317797778929,2.27237842520197,0,2.27362772611966,2.27393755274725,2.27330790508473,2.27421739615281,0,2.27492699907406,2.27451722837306,2.27506692077684,2.2752268312943,0,2.27562660758796,2.27631622169453,2.27737562887273,2.27793531568385,0,2.27936451593369,2.28083369381289,2.28260270391233,2.28415183705027,0,2.32744760965368,2.32862694971998,2.3290167316063,2.3286069609053,0,2.32793733561342,2.32719774947014,2.32694788928661,2.32442929863655,0,2.32327994179227,2.323359897051,2.32152092610017,2.32204063528193,0,2.31983187125945,2.3197219327787,2.31943209496579,2.31910227952352,0,2.31943209496579,2.31926219004099,2.32033159162653,2.32060144062475,0,2.32103120014043,2.32286017668393,2.32323996416291,2.32438932100718,0,2.32590847092309,2.32621829755068,2.32664805706636,2.32696787810129,0,2.32790735239139,2.3271377830261,2.32671801791775,2.3266580514737,0,2.28799968387675,2.28799968387675,2.28748996910233,2.28690029906918,0,2.28552107085606,2.28534117152391,2.28482146234215,2.28453162452925,0,2.2851212945624,2.28455161334393,2.28377204957129,2.28367210549788,0,2.28367210549788,2.28453162452925,2.28303246342802,2.28354217820244,0,2.28320236835283,2.28304245783536,2.28297249698397,2.28364212227585,0,2.28306244665004,2.28233285491411,2.28265267594904,2.28352218938775,0,2.28475150149076,2.28246278220955,2.28301247461334,2.28205301150855,0,2.28221292202602,2.28219293321133,2.28272263680043,2.28482146234215,0,2.28381202720066,2.28360214464649,2.28393196008876,2.28419181467964,0,2.28344223412902,2.28441169164115,2.28482146234215,2.28466155182469,0,2.28618070174059,2.28656048921957,2.2867603773664,2.28655049481223,0,2.28693028229121,2.28665043888565,2.28849940424382,2.29061821860022,0,2.29107796133793,2.29422619965051,2.34697668159899,2.34587729679142,0,2.34761632366884,2.35012491991156,2.34952525547107,2.34997500380144,0,2.35133424319989,2.35095445572091,2.34856579236629,2.35056467383459,0,2.3503747800951,2.34968516598854,2.34958522191512,2.34957522750778,0,2.35034479687308,2.35041475772447,2.35030481924371,2.35100442775762,0,2.35257354971023,2.35218376782391,2.35684116164506,2.3562015195752,0,2.35706103860657,2.35650135179545,2.35701106656986,2.36213819753606
2.22146691420433,2.22197662897875,2.22341582363592,2.22308600819365,0,2.22452520285083,2.22496495677386,2.22618427446952,2.22649410109711,0,2.22821313915985,2.22793329575429,2.22810320067909,2.22931252396741,0,2.23055183047776,2.23163122647064,2.23125143899167,2.23181112580279,0,2.23245076787265,2.23313038757187,2.23391994575185,2.23475947596854,0,2.2350393193741,2.23616868740369,2.23669839099279,2.23951681386309,0,2.23873725009046,2.23985662371271,2.24013646711827,2.24079609800281,0,2.24188548840303,2.24321474457945,2.24334467187489,2.24449402871917,0,2.24586326252495,2.2456833631928,2.24699263055454,2.24750234532896,0,2.24915142254031,2.25006091360839,2.25179994048581,2.25361892262196,0,2.25499815083509,2.25709697637681,2.30055265949768,2.30143216734374,0,2.30413065732594,2.30413065732594,2.30601960031349,2.30556985198312,0,2.30646934864386,2.30686912493752,2.30386080832772,2.3021217814503,0,2.3025315521513,2.30145215615842,2.30125226801159,2.30087248053261,0,2.3004127377949,2.30051268186832,2.30095243579134,2.30138219530703,0,2.30213177585764,2.30275142911282,2.30325114947989,2.3043605286948,0,2.30493020991326,2.30613953320159,2.30708900189903,2.30904790573797,0,2.3102372402116,2.31038715632173,2.30669922001271,2.31371529396645,0,2.31101680398424,2.31362534430038,2.31383522685455,2.31474471792263,0,2.27574654047606,2.27477708296393,2.27338786034346,2.27296809523512,0,2.27236843079463,2.27262828538551,2.27251834690475,2.27291812319841,0,2.27303805608651,2.27340784915815,2.27371767578573,2.27424737937483,0,2.27431734022622,2.27449723955837,2.27568657403201,2.27540673062645,0,2.27649612102667,2.27674598121021,2.27707579665248,2.27904469489876,0,2.27971432019064,2.28160326317818,2.28381202720066,2.32767748102254,0,2.32774744187393,2.3284870280172,2.33011611641386,2.33001617234045,0,2.32992622267438,2.32922661416047,2.3277174586519,2.32538876174133,0,2.32325995297759,2.32228050105812,2.32159088695156,2.32070138469816,0,2.32077134554955,2.31954203344655,2.31917224037491,2.3194820670025,0,2.3197719048154,2.31929217326301,2.32011171466501,2.32118111625056,0,2.32158089254422,2.32275023820317,2.32357977401252,2.32447927067325,0,2.32541874496336,2.32605838703321,2.32638820247548,2.32739763761697,0,2.32658809062231,2.32761751457849,2.32623828636536,2.32714777743344,0,2.28898913020356,2.28744999147297,2.28690029906918,2.28646054514616,0,2.2857009701882,2.28592084714972,2.28520124982113,2.28460158538064,0,2.28457160215861,2.28414184264293,2.28443168045583,2.28408187619888,0,2.28448165249254,2.28413184823559,2.283822021608,2.28320236835283,0,2.284231792309,2.28302246902068,2.2837020887199,2.28360214464649,0,2.28336227887029,2.28290253613258,2.28296250257663,2.283412250907,0,2.28303246342802,2.28310242427941,2.28266267035638,2.28313240750143,0,2.28295250816929,2.2839419544961,2.28291253053992,2.28280259205917,0,2.28348221175839,2.28426177553103,2.28462157419532,2.28437171401178,0,2.28434173078976,2.28428176434571,2.28516127219176,2.28515127778442,0,2.28576093663225,2.28588086952035,2.28644055633147,2.28797969506207,0,2.28824954406029,2.28850939865117,2.289119057499,2.2881795832089,0,2.29286696025206,2.35060465146396,2.34598723527218,2.34668684378608,0,2.34700666482101,2.34817601047997,2.35010493109688,2.35051470179788,0,2.3519638908624,2.35000498702346,2.34929538410222,2.35083452283281,0,2.35039476890978,2.35001498143081,2.35004496465283,2.34987505972803,0,2.35068460672269,2.35068460672269,2.35092447249888,2.35135423201457,0,2.35138421523659,2.35371291214717,2.35544194461725,2.35568181039344,0,2.355961653799,2.35667125672025,2.36085891339634,2.36150854987354
2.22248634375316,2.22249633816051,2.22348578448732,2.22383558874427,0,2.224325314704,2.22505490643993,2.22657405635584,2.22792330134694,0,2.22831308323326,2.22836305526997,2.2294524456702,2.22960236178032,0,2.2305618248851,2.23192106428355,2.23279057772226,2.23201101394962,0,2.2325607063534,2.23336025894073,2.23411983389868,2.23452960459968,0,2.23578889992471,2.23668839658545,2.23774780376365,2.23784774783706,0,2.23928694249424,2.23977666845397,2.24043629933851,2.24094601411293,0,2.24230525351137,2.24299486761794,2.24354456002172,2.24426415735031,0,2.24504372112295,2.24558341911939,2.24693266411049,2.24861172454387,0,2.24968112612941,2.25118028723063,2.25240959933364,2.25400870450828,0,2.25537793831407,2.25815638355501,2.26067497420507,2.30614952760893,0,2.30454042802695,2.30515008687478,2.30565980164919,2.30530999739224,0,2.30459040006365,2.30355098170014,2.30319118303584,2.30217175348701,0,2.30173199956398,2.3017120107493,2.3030612557404,2.30141217852905,0,2.30083250290325,2.30093244697666,2.30126226241893,2.30177197719335,0,2.30189191008145,2.30255154096599,2.30323116066521,2.30440050632416,0,2.30507013161605,2.30629944371905,2.30795851533774,2.3091778330334,0,2.30973751984453,2.31234606016066,2.31306565748925,2.3072988844532,0,2.31334550089481,2.31499457810616,2.31344544496823,2.31627386224588,0,2.27454721159508,2.27379763104447,2.27336787152878,2.27777540516639,0,2.27290812879107,2.27287814556905,2.27312800575259,2.27344782678751,0,2.27384760308117,2.27350779323156,2.27427736259686,2.27335787712144,0,2.2744072898923,2.2750569263695,2.2751068984062,2.27552666351455,0,2.27601638947428,2.27660605950743,2.27728567920665,2.27836507519954,0,2.27919461100888,2.28150331910477,2.28256272628297,2.32832711749973,0,2.32870690497871,2.32974632334223,2.32978630097159,2.32934654704857,0,2.32869691057137,2.32934654704857,2.32752756491241,2.32499897985501,0,2.3244892650806,2.32269027175912,2.32203064087458,2.32047151332931,0,2.31995180414755,2.3205414741807,2.31943209496579,2.31933215089238,0,2.31953203903921,2.32034158603387,2.32026163077514,2.32036157484855,0,2.32204063528193,2.32258033327837,2.32310004246013,2.3243693321925,0,2.32555866666614,2.32688792284256,2.32705782776736,2.32785738035468,0,2.32527882326057,2.32578853803499,2.32728769913622,2.32749758169039,0,2.28880923087141,2.28775981810055,2.28695027110589,2.28573095341023,0,2.28622067936996,2.28577093103959,2.28501135608164,2.28524122745049,0,2.28499136726696,2.28448165249254,2.28426177553103,2.28483145674949,0,2.28419181467964,2.28410186501356,2.28443168045583,2.28347221735105,0,2.28295250816929,2.28366211109054,2.28376205516395,2.28303246342802,0,2.28334229005561,2.28339226209231,2.28313240750143,2.28250275983892,0,2.2824727766169,2.28284256968853,2.28179315691767,2.2824727766169,0,2.28377204957129,2.28396194331078,2.2845216301219,2.28354217820244,0,2.28312241309409,2.28376205516395,2.28437171401178,2.28403190416217,0,2.28494139523025,2.2852911994872,2.28551107644871,2.2856509981515,0,2.28681034940311,2.28696026551323,2.28665043888565,2.28737003621423,0,2.28753994113904,2.28998857093771,2.28960878345873,2.29086807878376,0,2.28710018721601,2.35030481924371,2.34923541765817,2.34846584829287,0,2.34905551832602,2.34976512124727,2.35076456198142,2.35218376782391,0,2.35211380697252,2.3504947129832,2.35156411456874,2.35072458435205,0,2.35051470179788,2.35007494787486,2.35092447249888,2.35079454520344,0,2.3500849422822,2.35130425997786,2.35138421523659,2.35306327566997,0,2.35322318618743,2.35373290096185,2.35412268284817,2.35503217391624,0,2.35532201172915,2.35874009903994,2.3610887847652,2.3609688518771
2.22189667372002,2.22253631578987,2.22324591871112,2.2248550182931,0,2.22448522522147,2.22514485610601,2.22600437513738,2.22652408431913,0,2.22704379350089,2.22694384942748,2.22890275326641,2.23017204299878,0,2.23177114817343,2.23230085176253,2.23158125443394,2.23194105309823,0,2.23352016945819,2.23324032605263,2.23436969408222,2.23563898381459,0,2.23603876010825,2.23680832947355,2.23726807221125,2.2383874458335,0,2.23929693690158,2.23981664608334,2.2400964894889,2.24106594700103,0,2.2418055331443,2.24307482287667,2.24362451528045,2.24422417972094,0,2.24423417412829,2.24681273122239,2.24755231736567,2.24865170217323,0,2.24979106461016,2.25055063956812,2.25202981185466,2.25408865976701,0,2.25674717211985,2.25800646744488,2.30327113829457,2.30309123896243,0,2.30404070765987,2.30497018754263,2.30579972335198,2.3051800700968,0,2.30576974012995,2.30327113829457,2.30232166959713,2.30214177026498,0,2.3015920778612,2.30104238545742,2.30213177585764,2.3023616472265,0,2.30090246375464,2.30080251968122,2.30138219530703,2.30177197719335,0,2.30191189889613,2.30270145707611,2.30315120540648,2.30407069088189,0,2.30485025465453,2.30633942134842,2.30778861041294,2.31024723461895,0,2.3101872681749,2.31163645723942,2.31223612167991,2.30638939338512,0,2.30672920323474,2.30861814622228,2.31132663061183,2.27543671384847,0,2.27456720040976,2.27488702144469,2.27278819590297,2.27285815675436,0,2.27266826301488,2.27208858738907,2.2725783133488,2.27341784356549,0,2.27353777645359,2.27343783238017,2.27376764782244,2.27415742970876,0,2.27433732904091,2.27421739615281,2.27473710533457,2.27585647895682,0,2.27551666910721,2.27689589732033,2.27732565683602,2.27812520942334,0,2.27882481793725,2.28053386159264,2.28220292761867,2.32732767676558,0,2.3291366644944,2.32973632893489,2.3306058423736,2.33034598778272,0,2.33083571374245,2.32761751457849,2.32784738594734,2.32512890715045,0,2.32410947760162,2.32356977960518,2.32123108828726,2.32211059613332,0,2.31998178736958,2.31982187685211,2.31978189922275,2.31941210615111,0,2.3197719048154,2.31954203344655,2.32068139588348,2.32117112184321,0,2.32223052902141,2.32281020464722,2.32442929863655,2.32446927626591,0,2.32622829195802,2.32629825280941,2.32775743628127,2.32805726850151,0,2.32859696649796,2.32819719020429,2.32667804028839,2.32777742509595,0,2.28753994113904,2.28804965591346,2.28689030466184,2.28612073529655,0,2.28603078563047,2.28556104848542,2.28506132811835,2.28561102052213,0,2.2845216301219,2.28454161893659,2.28504133930366,2.28484145115683,0,2.28444167486317,2.28430175316039,2.28436171960444,2.28319237394548,0,2.28364212227585,2.2834622229437,2.2835321837951,2.28349220616573,0,2.28359215023914,2.28322235716751,2.28334229005561,2.28316239072346,0,2.28295250816929,2.28290253613258,2.28267266476373,2.28335228446295,0,2.28349220616573,2.28323235157485,2.2835321837951,2.28325234038953,0,2.283822021608,2.28386199923737,2.28412185382824,2.28431174756773,0,2.28469153504671,2.28534117152391,2.28560102611479,2.2860607688525,0,2.28595083037174,2.28638058988742,2.28618070174059,2.28755992995372,0,2.28775981810055,2.2884694210218,2.28919901275773,2.29102798930123,0,2.29185752511057,2.35057466824193,2.35166405864216,2.3511443494604,0,2.350254847207,2.34892559103058,2.35086450605484,2.35111436623837,0,2.35039476890978,2.35092447249888,2.35071458994471,2.35017489194827,0,2.35056467383459,2.34997500380144,2.35059465705661,2.35170403627152,0,2.35200386849177,2.35136422642191,2.35144418168064,2.35283340430111,0,2.35402273877475,2.35459241999322,2.35522206765573,2.35776064712048,0,2.35827036189489,2.3589699704088,2.35964959010802,2.36025924895585
0,0,0,0,0,0,0,0,0,0,0,0,0,0,0,0,0,0,0,0,0,0,0,0,0,0,0,0,0,0,0,0,0,0,0,0,0,0,0,0,0,0,0,0,0,0,0,0,0,0,0,0,0,0,0,0,0,0,0,0,0,0,0,0,0,0,0,0,0,0,0,0,0,0,0,0,0,0,0,0,0,0,0,0,0,0,0,0,0,0,0,0,0,0,0,0,0,0,0,0,0,0,0,0,0,0,0,0,0,0,0,0,0,0,0,0,0,0,0,0,0,0,0,0,0,0,0,0,0,0,0,0,0,0,0,0,0,0,0,0,0,0,0,0,0,0,0,0,0,0,0,0,0,0,0,0,0,0,0,0,0,0,0,0,0,0,0,0,0,0,0,0,0,0,0,0,0,0,0,0,0,0,0,0,0,0,0,0,0,0,0,0,0,0,0,0,0,0,0,0,0,0,0,0,0,0,0,0,0,0,0,0,0,0,0,0,0,0,0,0,0,0,0,0,0,0,0,0,0,0,0,0,0,0,0,0,0,0,0,0,0,0,0,0,0,0,0,0,0,0,0,0,0,0,0,0,0,0,0
2.22205658423748,2.223096002601,2.22334586278453,2.22425535385261,0,2.2252148169574,2.22596439750801,2.22650409550445,2.22661403398521,0,2.22782335727353,2.2294524456702,2.23013206536942,2.23233083498455,0,2.2772257127626,2.27877484590054,2.28147333588274,2.23364010234629,0,2.23329029808933,2.23390995134451,2.23407985626931,2.23510928022549,0,2.23624864266242,2.23693825676899,2.23724808339657,2.23807761920592,0,2.23925695927222,2.2396867187879,2.2399765566008,2.24085606444686,0,2.24230525351137,2.24300486202528,2.2435645488364,2.24383439783463,0,2.24585326811761,2.24652289340949,2.24737241803352,2.2486916798026,0,2.24957118764865,2.25101038230583,2.25235962729693,2.25442846961662,0,2.25633740141885,2.30019286083339,2.29996298946453,2.30234165841181,0,2.30324115507255,2.30543992468768,2.30524003654085,2.30596962827678,0,2.30537995824363,2.30396075240114,2.30194188211815,2.30172200515664,0,2.30187192126676,2.30150212819513,2.30068258679312,2.30022284405541,0,2.30051268186832,2.30055265949768,2.30141217852905,2.30185193245208,0,2.30221173111637,2.30270145707611,2.30451044480492,2.3044804615829,0,2.30540994146566,2.3071289795284,2.30798849855977,2.3100673352868,0,2.31091685991083,2.31130664179715,2.31252595949281,2.31325555122874,0,2.30610954997956,2.30727889563852,2.30958760373441,2.27627624406516,0,2.2745771948171,2.27411745207939,2.27252834131209,2.27296809523512,0,2.27243839164602,2.27229846994324,2.27307803371588,2.27268825182956,0,2.27347781000954,2.27353777645359,2.27341784356549,2.27401750800598,0,2.27418741293079,2.27443727311432,2.27518685366494,2.27541672503379,0,2.27576652929074,2.27668601476616,2.27727568479931,2.27771543872234,0,2.278934756418,2.28310242427941,2.28307244105739,2.28509131134037,0,2.32772745305924,2.32873688820074,2.32984626741564,2.32997619471108,0,2.32990623385969,2.33137541173889,2.32935654145591,2.32469914763477,0,2.32482907493021,2.32264029972242,2.32217056257737,2.32138100439739,0,2.32023164755311,2.31931216207769,2.31979189363009,2.31961199429794,0,2.3200117705916,2.32046151892197,2.3210711777698,2.32163086458092,0,2.32193069680117,2.32293013753532,2.32463918119072,2.32496899663299,0,2.32621829755068,2.32651812977092,2.32738764320963,2.32789735798405,0,2.32986625623033,2.32767748102254,2.3279573244281,2.32739763761697,0,2.290348369602,2.28904909664761,2.2875299467317,2.2863506066654,0,2.28533117711657,2.28485144556417,2.28486143997152,2.28460158538064,0,2.28399192653281,2.28378204397863,2.28493140082291,2.28444167486317,0,2.28462157419532,2.28410186501356,2.28354217820244,2.28335228446295,0,2.28365211668319,2.28327232920422,2.28277260883714,2.28327232920422,0,2.28366211109054,2.28290253613258,2.28286255850321,2.28296250257663,0,2.28304245783536,2.2835321837951,2.28352218938775,2.28269265357841,0,2.28347221735105,2.28402190975483,2.28342224531434,2.28373207194193,0,2.28381202720066,2.28405189297685,2.28393196008876,2.28448165249254,0,2.28432174197507,2.28568098137352,2.28509131134037,2.28639058429477,0,2.28619069614794,2.2860607688525,2.28710018721601,2.28778980132258,0,2.28812961117219,2.28795970624738,2.290348369602,2.29042832486074,0,2.29182754188855,2.34887561899387,2.34896556865995,2.34892559103058,0,2.34968516598854,2.35085451164749,2.35085451164749,2.35068460672269,0,2.35027483602169,2.34973513802524,2.35101442216496,2.34986506532068,0,2.35202385730645,2.35086450605484,2.35281341548643,2.35190392441835,0,2.35095445572091,2.35183396356696,2.35213379578721,2.35270347700567,0,2.3533131358535,2.35455244236385,2.35500219069422,2.35837030596831,0,2.36007934962371,2.3597895118108,2.36023926014117,2.36065902524951
2.22510487847664,2.22373564467085,2.22407545452046,2.22554463239967,0,2.22616428565484,2.22670398365128,2.22652408431913,2.22765345234872,0,2.22994217162993,2.23040191436764,2.27548668588518,2.27513688162823,0,2.27650611543402,2.27802526534992,2.28046390074125,2.23152128798989,0,2.23437968848956,2.23334027012604,2.23437968848956,2.23470950393183,0,2.23630860910647,2.23669839099279,2.23748794917277,2.23813758564997,0,2.23921698164285,2.23998655100814,2.24004651745219,2.24137577362862,0,2.24246516402884,2.24266505217567,2.24336466068957,2.24411424124019,0,2.24518364282573,2.24673277596366,2.24703260818391,2.2482819091016,0,2.24974109257346,2.25154008589493,2.25314918547691,2.25567777053431,0,2.25607754682797,2.25958558380484,2.30015288320402,2.30250156892928,0,2.30363093695887,2.30505014280136,2.30639938779247,2.30520005891149,0,2.30394076358645,2.30335109355331,2.30328113270192,2.30257152978067,0,2.30181195482271,2.3014721449731,2.30051268186832,2.3000029670939,0,2.30036276575819,2.30033278253617,2.30112234071615,2.30201184296954,0,2.30276142352016,2.3034210544047,2.30472032735909,2.30508012602339,0,2.3060695723502,2.30714896834308,2.30790854330103,2.30956761491972,0,2.31033718428502,2.31126666416778,2.31172640690549,2.31207621116244,0,2.31349541700494,2.30674919204942,2.3072988844532,2.30923779947745,0,2.274047491228,2.27307803371588,2.27246837486805,2.27272822945893,0,2.27280818471766,2.27331789949207,2.27291812319841,2.27337786593612,0,2.27365770934169,2.27394754715459,2.27326792745537,2.27357775408295,0,2.27414743530142,2.27432733463357,2.27486703263001,2.27535675858974,0,2.27621627762111,2.27667602035882,2.27772543312968,2.27846501927295,0,2.2790546893061,2.28051387277796,2.2827626144298,2.32806726290886,0,2.32750757609773,2.3294265023073,2.32964637926881,2.32935654145591,0,2.32903672042098,2.32697787250863,2.32617831992131,2.32488904137426,0,2.32495900222565,2.3231899921262,2.32123108828726,2.32181076391307,0,2.32028161958982,2.31982187685211,2.32012170907236,2.32026163077514,0,2.32015169229438,2.32068139588348,2.32104119454777,2.32191070798649,0,2.32303008160874,2.32363974045657,2.3255986442955,2.3261283478846,0,2.32683795080585,2.32686793402787,2.32827714546303,2.3287768658301,0,2.32975631774957,2.32851701123922,2.32740763202432,2.32855698886859,0,2.28894915257419,2.28801967269143,2.28772983487853,2.28711018162336,0,2.28660046684894,2.28567098696618,2.28504133930366,2.28465155741734,0,2.28270264798575,2.28422179790166,2.2845216301219,2.28431174756773,0,2.28425178112368,2.28446166367786,2.283822021608,2.28372207753458,0,2.2839419544961,2.28326233479687,2.28355217260978,2.28360214464649,0,2.28396194331078,2.28310242427941,2.28315239631612,2.28340225649966,0,2.28325234038953,2.28345222853636,2.28204301710121,2.28425178112368,0,2.28355217260978,2.28311241868675,2.28342224531434,2.2835821558318,0,2.28410186501356,2.28373207194193,2.2841118594209,2.28460158538064,0,2.2864705395535,2.28499136726696,2.28625066259199,2.28578092544693,0,2.28585088629833,2.2859408359644,2.28723011451145,2.28788974539599,0,2.28758991317575,2.28835948254104,2.29027840875061,2.2916476425564,0,2.2932367533237,2.35223373986062,2.34930537850956,2.34854580355161,0,2.35053469061257,2.35052469620522,2.35030481924371,2.35004496465283,0,2.35080453961079,2.35072458435205,2.35439253184639,2.35118432708976,0,2.35106439420167,2.35241363919277,2.35081453401813,2.35125428794115,0,2.35145417608798,2.35254356648821,2.35204384612113,2.35313323652136,0,2.35383284503526,2.3550221795089,2.35516210121168,2.35859018292982,0,2.35888002074272,2.35987946147688,2.360439148288,2.36035919302927
2.22389555518832,2.22535473866018,2.22578449817586,2.22619426887686,0,2.22701381027887,2.29247717836575,2.22699382146418,2.28184312895438,0,2.28241281017285,2.28246278220955,2.27390756952522,2.27515687044291,0,2.2757565348834,2.27886479556661,2.23342022538477,2.23277058890758,0,2.23328030368199,2.23343021979212,2.23522921311359,2.23615869299635,0,2.23644853080925,2.23675835743684,2.23743797713606,2.23897711586665,0,2.23923697045753,2.23920698723551,2.24070614833673,2.24179553873696,0,2.24234523114074,2.2430348452473,2.24379442020526,2.24427415175765,0,2.2458032960809,2.24651289900215,2.24712255784998,2.24891155676411,0,2.25017085208914,2.25108034315722,2.25288933088603,2.25590764190317,0,2.25731685333832,2.25811640592564,2.29863373328811,2.2986537221028,0,2.30328113270192,2.30587967861071,2.30491022109858,2.30358096492216,0,2.30449045599024,2.30296131166699,2.30406069647455,2.30190190448879,0,2.30009291675997,2.30121229038222,2.30033278253617,2.30144216175108,0,2.30066259797844,2.30035277135085,2.30072256442249,2.30201184296954,0,2.30244160248523,2.30338107677533,2.30417063495531,2.30534997502161,0,2.30578972894463,2.30627945490437,2.30954762610504,2.3091278609967,0,2.31091685991083,2.31212618319915,2.31228609371661,2.3125959203442,0,2.31293573019381,2.30630943812639,2.30604958353551,2.27659606510009,0,2.27438730107762,2.27276820708829,2.27280818471766,2.27352778204625,0,2.27345782119486,2.27392755833991,2.27278819590297,2.27272822945893,0,2.27343783238017,2.27403749682066,2.27366770374903,2.27418741293079,0,2.27525681451633,2.27458718922445,2.27525681451633,2.27521683688696,0,2.27577652369809,2.27677596443224,2.27696585817172,2.27830510875549,0,2.27979427544937,2.28120348688452,2.28316239072346,2.33086569696448,0,2.32801729087215,2.33065581441031,2.33382404153756,2.33099562425992,0,2.32996620030374,2.3268979172499,2.32661807384434,2.32590847092309,0,2.32737764880229,2.32357977401252,2.32166084780295,2.32134102676802,0,2.32152092610017,2.31996179855489,2.3201317034797,2.32002176499894,0,2.32053147977336,2.3206614070688,2.32168083661763,2.32194069120851,0,2.3233099250143,2.3237196957153,2.32591846533043,2.32565861073955,0,2.32654811299295,2.32727770472888,2.32769746983722,2.32910668127237,0,2.3291866365311,2.3297163401202,2.32756754254178,2.29011849823315,0,2.28872927561268,2.28754993554638,2.28731006977019,2.28755992995372,0,2.28755992995372,2.28686032143982,2.28559103170745,2.28528120507986,0,2.28012409089164,2.28166322962223,2.28369209431256,2.28444167486317,0,2.28481146793481,2.28508131693303,2.28434173078976,2.28389198245939,0,2.28413184823559,2.2835821558318,2.283822021608,2.28381202720066,0,2.28372207753458,2.28372207753458,2.28415183705027,2.28348221175839,0,2.28377204957129,2.28398193212546,2.2832923180189,2.28360214464649,0,2.28336227887029,2.28336227887029,2.28337227327763,2.28375206075661,0,2.28420180908698,2.28551107644871,2.28470152945405,2.28580091426162,0,2.28534117152391,2.28613072970389,2.28680035499577,2.28588086952035,0,2.28692028788387,2.28689030466184,2.28711018162336,2.28760990199043,0,2.28806964472814,2.29021844230656,2.29199744681335,2.29421620524317,0,2.3530232980406,2.35083452283281,2.35018488635561,2.34952525547107,0,2.34959521632246,2.35103441097964,2.35200386849177,2.35140420405128,0,2.35129426557052,2.35082452842547,2.35062464027864,2.35116433827508,0,2.35161408660545,2.35083452283281,2.35134423760723,2.35148415931001,0,2.3511443494604,2.35240364478543,2.35177399712291,2.35294334278187,0,2.35589169294761,2.35678119520101,2.35765070863972,2.35997940555029,0,2.35891999837209,2.36106879595051,2.36085891339634,2.360029377587
2.27398752478395,2.2751068984062,2.27805524857195,2.2847614958981,0,2.28892916375951,2.28983865482759,2.2929469155108,2.29295690991814,0,2.28334229005561,2.28055385040733,2.27525681451633,2.27502694314747,0,2.27706580224514,2.23122145576964,2.23259068957543,2.23262067279745,0,2.23354015827287,2.23401988982526,2.2347994535979,2.23600877688623,0,2.23652848606798,2.23707817847177,2.2378077702077,2.23881720534919,0,2.23942686419702,2.24015645593295,2.24063618748534,2.24170558907088,0,2.24280497387845,2.24313478932072,2.24395433072272,2.24487381619814,0,2.24544349741661,2.24603316744976,2.2475123397363,2.2492213833917,0,2.24999095275699,2.25147012504354,2.25442846961662,2.25524801101863,0,2.25777659607603,2.29631503078488,2.29726449948233,2.29839386751192,0,2.30459040006365,2.30550988553907,2.30250156892928,2.30466036091504,0,2.30292133403762,2.30402071884519,2.30228169196776,2.30230168078245,0,2.30157208904652,2.29927337535797,2.30026282168478,2.29986304539112,0,2.30048269864629,2.30060263153439,2.30154210582449,2.30214177026498,0,2.30194188211815,2.30334109914596,2.30428057343607,2.30622948286766,0,2.30596962827678,2.30677917527144,2.30602959472083,2.30811842585521,0,2.31094684313285,2.3120662167551,2.31245599864142,2.31314561274798,0,2.31279580849103,2.30749877260003,2.27536675299708,2.27501694874013,0,2.27427736259686,2.27320796101132,2.27289813438373,2.27241840283134,0,2.27231845875792,2.27393755274725,2.27329791067739,2.27330790508473,0,2.27336787152878,2.27397753037661,2.27402750241332,2.27417741852344,0,2.27474709974191,2.27462716685381,2.27472711092723,2.2753467641824,0,2.27630622728719,2.2765261042487,2.27683593087628,2.27805524857195,0,2.27920460541622,2.28130343095794,2.28275262002246,2.33017608285791,0,2.3295464351954,2.33075575848372,2.3328945616548,2.33005614996982,0,2.32863694412732,2.32931656382654,2.32708781098939,2.32545872259272,0,2.3253088064826,2.32320998094088,2.32215057376268,2.32277022701786,0,2.32122109387992,2.32096123928904,2.32059144621741,2.3205414741807,0,2.32053147977336,2.32092126165968,2.32194069120851,2.32257033887103,0,2.32303008160874,2.32391958386213,2.32581852125702,2.32628825840207,0,2.326608079437,2.32794733002076,2.32820718461164,2.3292565973825,0,2.32899674279162,2.32991622826703,2.3302460437093,2.28967874431012,0,2.28918901835039,2.28857935950256,2.28719013688209,2.28655049481223,0,2.28576093663225,2.28537115474593,2.28050387837062,2.27863492419776,0,2.27883481234459,2.28071376092479,2.28326233479687,2.2840618873842,0,2.28545111000467,2.28513128896974,2.28373207194193,2.28444167486317,0,2.28438170841912,2.28498137285961,2.28364212227585,2.28418182027229,0,2.28316239072346,2.2834622229437,2.28371208312724,2.28386199923737,0,2.28381202720066,2.28362213346117,2.283822021608,2.2835821558318,0,2.28323235157485,2.28416183145761,2.28400192094015,2.28469153504671,0,2.28493140082291,2.28483145674949,2.2845216301219,2.28527121067252,0,2.28575094222491,2.28561102052213,2.28575094222491,2.28625066259199,0,2.28615071851857,2.28701023754994,2.28757991876841,2.2881795832089,0,2.2896487610881,2.28937891208988,2.29091805082047,2.35192391323303,0,2.35042475213181,2.35002497583815,2.34930537850956,2.34917545121412,0,2.34993502617207,2.34956523310044,2.35096445012825,2.35070459553737,0,2.35113435505306,2.35054468501991,2.35105439979432,2.35125428794115,0,2.35154412575406,2.35190392441835,2.3522037566386,2.3507845507961,0,2.35129426557052,2.35125428794115,2.3512642823485,2.35424261573626,0,2.35513211798966,2.35875009344728,2.35894998159411,2.35745082049289,0,2.35932976907309,2.36056907558344,2.36006935521636,2.36033920421458
0,0,0,0,0,0,0,0,0,0,0,0,0,0,0,0,0,0,0,0,0,0,0,0,0,0,0,0,0,0,0,0,0,0,0,0,0,0,0,0,0,0,0,0,0,0,0,0,0,0,0,0,0,0,0,0,0,0,0,0,0,0,0,0,0,0,0,0,0,0,0,0,0,0,0,0,0,0,0,0,0,0,0,0,0,0,0,0,0,0,0,0,0,0,0,0,0,0,0,0,0,0,0,0,0,0,0,0,0,0,0,0,0,0,0,0,0,0,0,0,0,0,0,0,0,0,0,0,0,0,0,0,0,0,0,0,0,0,0,0,0,0,0,0,0,0,0,0,0,0,0,0,0,0,0,0,0,0,0,0,0,0,0,0,0,0,0,0,0,0,0,0,0,0,0,0,0,0,0,0,0,0,0,0,0,0,0,0,0,0,0,0,0,0,0,0,0,0,0,0,0,0,0,0,0,0,0,0,0,0,0,0,0,0,0,0,0,0,0,0,0,0,0,0,0,0,0,0,0,0,0,0,0,0,0,0,0,0,0,0,0,0,0,0,0,0,0,0,0,0,0,0,0,0,0,0,0,0,0
2.28581090866896,2.2746971277052,2.27711577428185,2.27846501927295,0,2.28816958880156,2.2870002431426,2.29148773203894,2.2921773461455,0,2.28339226209231,2.28259270950499,2.23066176895852,2.27642616017528,0,2.23231084616987,2.23293049942504,2.2318610978395,2.23286053857365,0,2.23338024775541,2.23408985067666,2.23481944241259,2.23620866503305,0,2.23651849166064,2.2369182679543,2.23856734516565,2.23907705994007,0,2.24012647271093,2.2400964894889,2.24052624900459,2.24237521436277,0,2.24308481728401,2.24324472780148,2.24518364282573,2.244693916866,0,2.24535354775053,2.24708258022062,2.24735242921884,2.24956119324131,0,2.25029078497724,2.25158006352429,2.25276939799793,2.25473829624421,0,2.25768664640996,2.29854378362204,2.30017287201871,2.29763429255396,0,2.29925338654329,2.29975310691036,2.30075254764451,2.30248158011459,0,2.30288135640826,2.30340106559001,2.30116231834552,2.30163205549057,0,2.30123227919691,2.30059263712705,2.30023283846276,2.30019286083339,0,2.30001296150124,2.30117231275286,2.30074255323717,2.30222172552372,0,2.30516008128212,2.30373088103228,2.3045304336196,2.30414065173328,0,2.30475031058112,2.30483026583985,2.30559983520514,2.30655929830993,0,2.30962758136377,2.31209619997713,2.31226610490193,2.31413505907479,0,2.31620390139449,2.31361534989303,2.27603637828896,2.2750569263695,0,2.27377764222978,2.27378763663712,2.27219852586983,2.27237842520197,0,2.27335787712144,2.27336787152878,2.27390756952522,2.27318797219663,0,2.27327792186271,2.27318797219663,2.27439729548496,2.27418741293079,0,2.2744072898923,2.2745272227804,2.27489701585203,2.27565659080999,0,2.27696585817172,2.27711577428185,2.27783537161044,2.27867490182712,0,2.28046390074125,2.2812934365506,2.28256272628297,2.33129545648016,0,2.33116552918472,2.33150533903433,2.33285458402544,2.3302460437093,0,2.33056586474423,2.32796731883544,2.32676798995446,2.32611835347726,0,2.32538876174133,2.32298010957203,2.32310004246013,2.32275023820317,0,2.32132103795334,2.32194069120851,2.32192070239383,2.32099122251107,0,2.32117112184321,2.32175079746902,2.32204063528193,2.32317000331152,0,2.32293013753532,2.32427938252642,2.32532879529728,2.32678797876914,0,2.32702784454534,2.3270678221747,2.32859696649796,2.32924660297515,0,2.32965637367616,2.33006614437716,2.33059584796626,2.32573856599828,0,2.28938890649722,2.28798968946941,2.28734005299221,2.28719013688209,0,2.28571096459554,2.2881795832089,2.27835508079219,2.27769544990766,0,2.27753553939019,2.27759550583424,2.28028400140911,2.28367210549788,0,2.28410186501356,2.28422179790166,2.28440169723381,2.2839419544961,0,2.28386199923737,2.28376205516395,2.28397193771812,2.28483145674949,0,2.28381202720066,2.28336227887029,2.283412250907,2.28347221735105,0,2.28282258087385,2.28318237953814,2.28343223972168,2.2835321837951,0,2.28365211668319,2.283412250907,2.28376205516395,2.28369209431256,0,2.28473151267608,2.28581090866896,2.2844716580852,2.28521124422847,0,2.28546110441201,2.28531118830188,2.28598081359376,2.2864705395535,0,2.28620069055528,2.28615071851857,2.28863932594661,2.28855937068787,0,2.29002854856708,2.29072815708098,2.29149772644628,2.2929469155108,0,2.34841587625617,2.34775624537163,2.34798611674048,2.34800610555516,0,2.34889560780856,2.35082452842547,2.35101442216496,2.35043474653915,0,2.3527334602277,2.35216377900923,2.35146417049533,2.35156411456874,0,2.35187394119633,2.34963519395183,2.35069460113003,2.35029482483637,0,2.35097444453559,2.35141419845862,2.35568181039344,2.35500219069422,0,2.35705104419923,2.35724093793872,2.35780062474984,2.3601992825118,0,2.3597895118108,2.36023926014117,2.36034919862193,2.36048912032471
2.28458159656595,2.27543671384847,2.27632621610187,2.27963436493191,0,2.28865931476129,2.28820956643092,2.2880596503208,2.28320236835283,0,2.22843301612136,2.27829511434815,2.23009208774005,2.2302719870722,0,2.23197103632026,2.23228086294784,2.2325607063534,2.23272061687087,0,2.23323033164529,2.23436969408222,2.2352092242989,2.23584886636876,0,2.23649850284596,2.23712815050847,2.23857733957299,2.23952680827044,0,2.24015645593295,2.24010648389624,2.241035963779,2.24199542688379,0,2.2427450074344,2.24307482287667,2.24386438105665,2.24496376586422,0,2.24618308355988,2.24748235651428,2.24817197062084,2.25005091920104,0,2.25029078497724,2.2521597391501,2.25354896177057,2.25430853672853,0,2.25718692604288,2.29930335858,2.30055265949768,2.30214177026498,0,2.29944328028278,2.2994732635048,2.30071257001515,2.30173199956398,0,2.30275142911282,2.30344104321938,2.30216175907967,2.30067259238578,0,2.30025282727744,2.29979308453973,2.30039274898022,2.30042273220224,0,2.30003295031593,2.30084249731059,2.30170201634196,2.30227169756042,0,2.30381083629102,2.30539994705832,2.30292133403762,2.3044804615829,0,2.30680915849347,2.30932774914353,2.30673919764208,2.31313561834064,0,2.31277581967635,2.31237604338269,2.31289575256445,2.31366532192974,0,2.31632383428258,2.31664365531751,2.27564659640265,2.27480706618596,0,2.27301806727183,2.27366770374903,2.27307803371588,2.27290812879107,0,2.27284816234702,2.27265826860753,2.27270824064424,2.27289813438373,0,2.2735177876389,2.27325793304803,2.27412744648674,2.27410745767205,0,2.27448724515103,2.27465715007584,2.27568657403201,2.27610633914035,0,2.2771757407259,2.2770558078378,2.27786535483246,2.27915463337951,0,2.28015407411367,2.28147333588274,2.28320236835283,2.33164526073711,0,2.33210500347482,2.33191510973534,2.33118551799941,2.33066580881765,0,2.33110556274067,2.32791734679873,2.327017850138,2.32638820247548,0,2.3247791028935,2.32323996416291,2.3228301934619,2.32285018227659,0,2.32198066883788,2.32175079746902,2.32171081983966,2.32162087017358,0,2.32128106032397,2.32215057376268,2.32271026057381,2.32309004805278,0,2.32488904137426,2.32435933778516,2.3254787114074,2.32637820806814,0,2.32710779980407,2.32828713987037,2.328656932942,2.32882683786681,0,2.32878686023744,2.32946647993667,2.33047591507816,2.29008851501112,0,2.28841944898509,2.2880596503208,2.28785976217397,2.28730007536284,0,2.28583089748364,2.28518126100644,2.28491141200822,2.27613632236238,0,2.27684592528363,2.27749556176082,2.28489142319354,2.28545111000467,0,2.28419181467964,2.28492140641557,2.28460158538064,2.28318237953814,0,2.28290253613258,2.28347221735105,2.28378204397863,2.28348221175839,0,2.28375206075661,2.28348221175839,2.28393196008876,2.28360214464649,0,2.28395194890344,2.28368209990522,2.28437171401178,2.28259270950499,0,2.28312241309409,2.28378204397863,2.28428176434571,2.28446166367786,0,2.28487143437886,2.28465155741734,2.28477149030544,2.28633061785072,0,2.2859408359644,2.28618070174059,2.28614072411123,2.28625066259199,0,2.28833949372636,2.28667042770033,2.28787975098865,2.28850939865117,0,2.29001855415973,2.29242720632904,2.29268706091992,2.34913547358475,0,2.3473164914486,2.34788617266707,2.34763631248353,2.3501349143189,0,2.35006495346751,2.3506146458713,2.35105439979432,2.35161408660545,0,2.3523236895267,2.35195389645506,2.35206383493582,2.35174401390089,0,2.35064462909332,2.34937533936095,2.3491954400288,2.34962519954449,0,2.35076456198142,2.35438253743905,2.35524205647042,2.35588169854027,0,2.36092887424773,2.35788058000857,2.35857019411514,2.35912988092626,0,2.36012932166041,2.36104880713583,2.36034919862193,2.35868013259589
2.2828825473179,2.28521124422847,2.28818957761624,2.28890917494483,0,2.28309242987207,2.28492140641557,2.29209739088677,2.28563100933681,0,2.23022201503549,2.22948242889222,2.23007209892537,2.23030197029422,0,2.2309715955861,2.23151129358255,2.2326306672048,2.23269063364884,0,2.23355015268021,2.23445964374829,2.2356889558513,2.23615869299635,0,2.23663842454874,2.23819755209401,2.23902708790336,2.24007650067422,0,2.24001653423017,2.24029637763573,2.24068615952205,2.24177554992227,0,2.24282496269313,2.24366449290982,2.24427415175765,2.24518364282573,0,2.24690268088847,2.2468627032591,2.24817197062084,2.24947124357524,0,2.25074053330761,2.25190987896656,2.25430853672853,2.25843622696057,0,2.25553784883153,2.29991301742783,2.30016287761136,2.30945767643897,0,2.29990302302049,2.30072256442249,2.30361094814418,2.30332111033128,0,2.30257152978067,2.30199185415486,2.3024116192632,2.30177197719335,0,2.300122899982,2.29999297268656,2.29986304539112,2.30057264831237,0,2.30103239105008,2.30032278812883,2.3017120107493,2.30194188211815,0,2.30262150181738,2.3040007300305,2.30547990231705,2.30622948286766,0,2.30625946608968,2.30854818537089,2.31068698854197,2.31093684872551,0,2.3124759874561,2.31292573578647,2.31302567985989,2.31332551208013,0,2.31551428728792,2.31693349313041,2.27607635591833,2.27340784915815,0,2.27308802812322,2.27234844197995,2.27221851468451,2.27336787152878,0,2.27217853705514,2.27229846994324,2.27238841960931,2.27300807286449,0,2.273227949826,2.27339785475081,2.27398752478395,2.27412744648674,0,2.27464715566849,2.27556664114391,2.27494698788874,2.27567657962467,0,2.27726569039197,2.27649612102667,2.27786535483246,2.27986423630076,0,2.28038394548252,2.28156328554882,2.28181314573236,2.33001617234045,0,2.3311355459627,2.33137541173889,2.33201505380875,2.33103560188928,0,2.33203504262343,2.33321438268973,2.32801729087215,2.32611835347726,0,2.32425939371174,2.3241294664163,2.32340986908771,2.32328993619961,0,2.32195068561585,2.32147095406346,2.32211059613332,2.32190071357914,0,2.32150093728548,2.32217056257737,2.32272025498115,2.32369970690062,0,2.32331991942164,2.32531880088994,2.32631824162409,2.32705782776736,0,2.32941650789996,2.32822717342632,2.32999618352577,2.32946647993667,0,2.3298362730083,2.32871689938605,2.33158529429307,2.29101799489388,0,2.28839946017041,2.28807963913548,2.28657048362691,2.28897913579622,0,2.28578092544693,2.28331230683358,2.27577652369809,2.2761163335477,0,2.27638618254592,2.27629623287984,2.27853498012434,2.27918461660154,0,2.28478148471278,2.28470152945405,2.28422179790166,2.28458159656595,0,2.28473151267608,2.28356216701712,2.28361213905383,2.28402190975483,0,2.2832923180189,2.28364212227585,2.28400192094015,2.28313240750143,0,2.28391197127407,2.28437171401178,2.28342224531434,2.28431174756773,0,2.28219293321133,2.28373207194193,2.28451163571456,2.28443168045583,0,2.28392196568141,2.28417182586495,2.28559103170745,2.2855810373001,0,2.28610074648186,2.2854111323753,2.28571096459554,2.28625066259199,0,2.28697025992057,2.28772983487853,2.288709286798,2.28890917494483,0,2.29084808996908,2.29060822419288,2.29463597035151,2.35058466264927,0,2.35170403627152,2.34860576999565,2.35010493109688,2.35153413134672,0,2.35100442775762,2.3496751715812,2.35351302400034,2.35374289536919,0,2.35223373986062,2.35256355530289,2.35223373986062,2.35133424319989,0,2.35076456198142,2.34909549595539,2.34938533376829,2.34976512124727,0,2.35310325329933,2.35463239762258,2.35615154753849,2.35623150279722,0,2.35807047374806,2.35821039545084,2.35823038426553,2.36110877357988,0,2.36069900287888,2.36073898050824,2.36032920980724,2.36044914269534
2.28259270950499,2.28680035499577,2.28816958880156,2.28856936509522,0,2.29138778796552,2.29203742444272,2.22833307204795,2.28813960557953,0,2.22910264141324,2.23001213248132,2.22984222755651,2.23002212688866,0,2.23059180810713,2.23185110343216,2.23284054975897,2.23327030927465,0,2.23514925785486,2.234099845084,2.23578889992471,2.23631860351381,0,2.2370382008424,2.23772781494896,2.23895712705197,2.239396880975,0,2.24020642796966,2.24066617070737,2.24120586870381,2.24309481169135,0,2.24297487880326,2.24378442579792,2.244693916866,2.2452236204551,0,2.24650290459481,2.24701261936923,2.24861172454387,2.25001094157168,0,2.25079050534432,2.25302925258881,2.25522802220394,2.2562274629381,0,2.25594761953253,2.30618950523829,2.30258152418801,2.30645935423651,0,2.30528001417022,2.30904790573797,2.30388079714241,2.30332111033128,0,2.30284137877889,2.30321117185053,2.30087248053261,2.29996298946453,0,2.30047270423895,2.30042273220224,2.30030279931415,2.30016287761136,0,2.30015288320402,2.30158208345386,2.30203183178423,2.3022417143384,0,2.30341105999735,2.30410067410392,2.30514009246744,2.30620949405298,0,2.30625946608968,2.30802847618913,2.31040714513641,2.3108369046521,0,2.31181635657156,2.31298570223052,2.31482467318136,2.31294572460115,0,2.31432495281428,2.31448486333175,2.27475709414925,2.27370768137839,0,2.27360773730498,2.27370768137839,2.273227949826,2.27279819031032,0,2.27316798338195,2.27242839723868,2.27276820708829,2.27299807845715,0,2.27364771493434,2.27380762545181,2.2739975191913,2.27408746885737,0,2.27415742970876,2.27514687603557,2.27584648454948,2.27541672503379,0,2.27630622728719,2.27744558972412,2.2774655785388,2.27813520383068,0,2.27961437611722,2.28122347569921,2.28334229005561,2.33032599896804,0,2.33001617234045,2.33046592067082,2.33245480773178,2.3310156130746,0,2.33070578644701,2.32871689938605,2.32772745305924,2.32625827518004,0,2.32570858277626,2.32558864988816,2.32407949437959,2.32362974604923,0,2.32260032209305,2.32222053461407,2.32193069680117,2.3224204227609,0,2.32337988586569,2.32338988027303,2.32269027175912,2.32332991382898,0,2.32633823043877,2.32526882885323,2.32787736916937,2.32738764320963,0,2.32846703920252,2.32919663093845,2.32964637926881,2.33044593185613,0,2.33042594304145,2.33440371716337,2.33181516566192,2.29000855975239,0,2.28854937628053,2.28814959998687,2.28787975098865,2.28896914138888,0,2.28591085274237,2.28497137845227,2.28089366025694,2.28043391751923,0,2.27867490182712,2.27660605950743,2.27803525975727,2.2778753492398,0,2.2847614958981,2.28460158538064,2.28474150708342,2.28464156301,0,2.28483145674949,2.28404189856951,2.28402190975483,2.28428176434571,0,2.28405189297685,2.28449164689988,2.28468154063937,2.28408187619888,0,2.28457160215861,2.2840618873842,2.28708019840133,2.28483145674949,0,2.28438170841912,2.28348221175839,2.28325234038953,2.28403190416217,0,2.28465155741734,2.28540113796796,2.28519125541379,2.28569097578086,0,2.28520124982113,2.28637059548008,2.28618070174059,2.28732006417753,0,2.28850939865117,2.28821956083826,2.2880596503208,2.28819957202358,0,2.28919901275773,2.29125786067008,2.29231726784828,2.35183396356696,0,2.35057466824193,2.34884563577185,2.35085451164749,2.35009493668954,0,2.35159409779077,2.35252357767353,2.35423262132892,2.35375288977653,0,2.35308326448465,2.35162408101279,2.35104440538698,2.35262352174694,0,2.34925540647285,2.34957522750778,2.35015490313359,2.35564183276408,0,2.35503217391624,2.35562184394939,2.355961653799,2.35668125112759,0,2.35739085404884,2.35806047934072,2.35923981940702,2.36080894135964,0,2.35939972992448,2.36004936640168,2.35918984737031,2.35944970196119
0,0,0,0,0,0,0,0,0,0,0,0,0,0,0,0,0,0,0,0,0,0,0,0,0,0,0,0,0,0,0,0,0,0,0,0,0,0,0,0,0,0,0,0,0,0,0,0,0,0,0,0,0,0,0,0,0,0,0,0,0,0,0,0,0,0,0,0,0,0,0,0,0,0,0,0,0,0,0,0,0,0,0,0,0,0,0,0,0,0,0,0,0,0,0,0,0,0,0,0,0,0,0,0,0,0,0,0,0,0,0,0,0,0,0,0,0,0,0,0,0,0,0,0,0,0,0,0,0,0,0,0,0,0,0,0,0,0,0,0,0,0,0,0,0,0,0,0,0,0,0,0,0,0,0,0,0,0,0,0,0,0,0,0,0,0,0,0,0,0,0,0,0,0,0,0,0,0,0,0,0,0,0,0,0,0,0,0,0,0,0,0,0,0,0,0,0,0,0,0,0,0,0,0,0,0,0,0,0,0,0,0,0,0,0,0,0,0,0,0,0,0,0,0,0,0,0,0,0,0,0,0,0,0,0,0,0,0,0,0,0,0,0,0,0,0,0,0,0,0,0,0,0,0,0,0,0,0,0
2.28735004739955,2.28754993554638,2.28756992436106,2.28854937628053,0,2.29191749155462,2.2294524456702,2.22955238974361,2.22807321745707,0,2.22818315593782,2.2293325127821,2.22965233381703,2.23030197029422,0,2.23096160117876,2.23359013030958,2.23291051061036,2.23408985067666,0,2.23377002964173,2.2343896828969,2.23603876010825,2.23637856995786,0,2.23688828473228,2.2374479715434,2.23879721653451,2.23954679708512,0,2.23973669082461,2.24122585751849,2.24111591903774,2.24187549399569,0,2.24332468306021,2.24325472220882,2.24496376586422,2.24549346945332,0,2.24660284866822,2.24721250751606,2.24887157913475,2.25006091360839,0,2.25259949307313,2.25395873247157,2.25685711060061,2.25823633881374,0,2.26074493505646,2.30222172552372,2.30317119422116,2.30408068528924,0,2.30480028261782,2.30601960031349,2.30508012602339,2.30381083629102,0,2.30356097610748,2.30180196041537,2.30080251968122,2.30051268186832,0,2.29995299505719,2.29937331943139,2.29997298387188,2.30034277694351,0,2.300122899982,2.30085249171793,2.301352212085,2.3020018485622,0,2.30287136200091,2.30409067969658,2.3055898407978,2.30566979605654,0,2.30775862719091,2.30882802877645,2.31098682076222,2.31220613845788,0,2.31212618319915,2.31411507026011,2.3144748689244,2.3128857581571,0,2.31040714513641,2.3113666082412,2.27480706618596,2.27343783238017,0,2.27320796101132,2.27252834131209,2.2726982462369,2.27433732904091,0,2.27380762545181,2.27277820149563,2.27231845875792,2.2731080169379,0,2.27343783238017,2.27364771493434,2.27380762545181,2.27465715007584,0,2.27447725074369,2.2748170605933,2.27583649014213,2.27600639506694,0,2.27591644540087,2.27673598680287,2.2777554163517,2.27897473404737,0,2.28010410207696,2.28110354281111,2.28501135608164,2.32900673719896,0,2.33049590389284,2.3334242652439,2.33324436591176,2.33229489721431,0,2.33068579763233,2.32986625623033,2.32781740272532,2.32733767117293,0,2.32691790606458,2.32502896307704,2.32381963978871,2.32440930982186,0,2.32274024379583,2.32267028294444,2.32285018227659,2.32207061850395,0,2.32401952793554,2.32328993619961,2.32336989145835,2.32402952234289,0,2.32482907493021,2.32579853244233,2.32644816891953,2.32756754254178,0,2.32832711749973,2.32939651908528,2.33039595981943,2.33141538936826,0,2.33124548444345,2.33076575289106,2.33292454487683,2.28960878345873,0,2.28850939865117,2.28807963913548,2.28766986843448,2.28777980691524,0,2.28665043888565,2.27991420833747,2.27865491301244,2.27871487945649,0,2.27800527653524,2.27835508079219,2.27702582461577,2.28607076325984,0,2.28494139523025,2.28454161893659,2.28467154623203,2.28482146234215,0,2.2843517251971,2.28457160215861,2.28463156860266,2.28396194331078,0,2.28381202720066,2.28398193212546,2.28457160215861,2.28381202720066,0,2.28469153504671,2.28399192653281,2.28453162452925,2.28354217820244,0,2.28402190975483,2.28490141760088,2.28496138404493,2.28462157419532,0,2.28509131134037,2.28613072970389,2.28552107085606,2.28520124982113,0,2.28584089189098,2.28561102052213,2.28681034940311,2.28746998028765,0,2.28856936509522,2.28795970624738,2.2882295552456,2.28962877227342,0,2.28967874431012,2.29363652961736,2.2927070497346,2.35056467383459,0,2.34977511565461,2.35050470739054,2.34935535054627,2.35272346582036,0,2.35448248151246,2.35214379019455,2.35245361682213,2.35264351056162,0,2.35148415931001,2.35135423201457,2.35136422642191,2.35115434386774,0,2.35024485279966,2.34966517717385,2.35057466824193,2.35578175446686,0,2.35523206206307,2.35522206765573,2.35622150838988,2.35742083727086,0,2.3592598082217,2.35891000396475,2.36005936080902,2.3599094446989,0,2.36048912032471,2.36015930488244,2.35912988092626,2.35789057441592
2.28527121067252,2.28725010332614,2.28836947694839,2.2900585317891,0,2.29032838078732,2.2272136984257,2.23034194792359,2.22782335727353,0,2.22874284274895,2.22935250159678,2.23054183607042,2.23034194792359,0,2.23257070076075,2.23248075109467,2.23287053298099,2.23355015268021,0,2.23461955426575,2.23577890551737,2.23622865384774,2.23705818965708,0,2.23761787646821,2.2376878373196,2.23902708790336,2.23963674675119,0,2.240626193078,2.24089604207622,2.24153568414608,2.24205539332784,0,2.24378442579792,2.24366449290982,2.2448638217908,2.2452735924918,0,2.24650290459481,2.24741239566289,2.24947124357524,2.25042071227268,0,2.25168000759771,2.25422858146979,2.25609753564266,2.25826632203576,0,2.26111472812809,2.30250156892928,2.30329112710926,2.30372088662494,0,2.30503015398668,2.30595963386944,2.3057097736859,2.3088879952205,0,2.30336108796065,2.30221173111637,2.30191189889613,2.3006526035711,0,2.2998330621691,2.29957320757822,2.29972312368834,2.29993300624251,0,2.30058264271971,2.30129224564096,2.3015920778612,2.3020018485622,0,2.30343104881204,2.30459040006365,2.30505014280136,2.30583970098134,0,2.30800848737445,2.3090079281086,2.3102372402116,2.31162646283207,0,2.30669922001271,2.30603958912817,2.31191630064498,2.30705901867701,0,2.3079485209304,2.3080684538185,2.27646613780465,2.27287814556905,0,2.27279819031032,2.27286815116171,2.27350779323156,2.27247836927539,0,2.27301806727183,2.27288813997639,2.27303805608651,2.27279819031032,0,2.27356775967561,2.27446725633635,2.27377764222978,2.27412744648674,0,2.27473710533457,2.27490701025937,2.27544670825582,2.27581650132745,0,2.2759964006596,2.27689589732033,2.27751555057551,2.27900471726939,0,2.27943447678508,2.28165323521489,2.28291253053992,2.32962639045413,0,2.33364414220542,2.33309444980163,2.33327434913378,2.33196508177204,0,2.33223493077026,2.33322437709707,2.32843705598049,2.32738764320963,0,2.32741762643166,2.32605838703321,2.32411947200896,2.32343985230974,0,2.32272025498115,2.32262031090773,2.32268027735178,2.32319998653354,0,2.32276023261051,2.3234298579024,2.32408948878694,2.32442929863655,0,2.32555866666614,2.3259584429598,2.32675799554712,2.32798730765012,0,2.32960640163945,2.32975631774957,2.3301960716726,2.33081572492777,0,2.3303659765974,2.33020606607994,2.33127546766548,2.28957880023671,0,2.28894915257419,2.28847941542914,2.28739002502892,2.28651051718287,0,2.28755992995372,2.28852938746585,2.28988862686429,2.29086807878376,0,2.288709286798,2.28905909105495,2.28747997469499,2.28465155741734,0,2.28521124422847,2.28471152386139,2.28527121067252,2.28515127778442,0,2.28454161893659,2.28427176993837,2.28390197686673,2.28350220057307,0,2.28420180908698,2.28416183145761,2.28397193771812,2.28461157978798,0,2.28463156860266,2.28433173638242,2.28404189856951,2.28460158538064,0,2.28377204957129,2.28453162452925,2.28416183145761,2.28509131134037,0,2.2861107408892,2.28588086952035,2.28597081918642,2.28620069055528,0,2.28593084155706,2.28613072970389,2.28667042770033,2.28705021517931,0,2.28757991876841,2.28763988521246,2.28856936509522,2.28942888412658,0,2.29088806759845,2.29319677569433,2.35075456757408,2.35068460672269,0,2.3493153729169,2.35040476331713,2.35041475772447,2.35335311348287,0,2.35316321974338,2.35416266047753,2.35430258218031,2.35299331481858,0,2.35182396915962,2.35157410897608,2.35217377341657,2.35142419286596,0,2.35501218510156,2.35438253743905,2.35625149161191,2.35519208443371,0,2.35509214036029,2.35743083167821,2.3575007925296,2.35801050730401,0,2.35886003192804,2.3586101717445,2.35956963484929,2.36136862817076,0,2.36066901965685,2.36090888543305,2.36059905880546,2.35865014937387
