2.27170276607264,2.27169194806173,2.27161170041134,2.27175653772297,2.27219462248323,2.27229637051665,2.27233335124256,2.27292040105479,2.27290499207532,2.27362794831612,2.2739990618404,2.27386496251382,2.27509930600934,2.27516949677368,2.27648841403564,2.27702835955077,2.27934665110378,2.27937891322211,2.28094383331205,2.32691452255072,2.32788393069217,2.3273908953181,2.3282249157191,2.32788946073802,2.32723474795727,2.32665460543496,2.32658494455211,2.32483466024809,2.32348625988553,2.32255027186524,2.32177402900108,2.32114313153651,2.32020219379162,2.31920069238461,2.31818730506034,2.31802065664547,2.31784222255518,2.31752860606394,2.31758586720393,2.31717912637365,2.31754858527852,2.31761724649584,2.31800682374642,2.31785884850215,2.31905910785399,2.31945163307807,2.31994302056284,2.32095034599927,2.32129370870582,2.32409285511131,2.32363701882035,2.32381991387648,2.32479540588205,2.32498910825558,2.3253445234496,2.32525454537697,2.3240593340793,2.3244554356467,2.32447220198907,2.28671721599085,2.2852530452762,2.2856607841924,2.2848264565608,2.28470327040213,2.2840273086262,2.28407538158018,2.28387884837979,2.28330505787131,2.2832059231279,2.28282758458723,2.28271696647576,2.28245756807806,2.28220147241433,2.28224143408741,2.28215645800104,2.28225569007685,2.28217241237704,2.28183948617326,2.28192112516774,2.28143392852608,2.28148699393688,2.28169913757054,2.28138397912825,2.28150069222807,2.28103777554853,2.28126462012498,2.28108461696586,2.28127505516875,2.28060036326338,2.28038320672838,2.28074055037083,2.28083898466495,2.28068230025462,2.28064193251577,2.28077677309483,2.28123062442657,2.28142894259553,2.28209011560291,2.28170002422446,2.28166212638305,2.28162371187307,2.281391664112,2.28186407619058,2.28210500524841,2.28252029087255,2.28271568863504,2.28307517107625,2.28393256474519,2.28373409587939,2.28359877353833,2.28406945471721,2.28409158512144,2.28392343537711,2.28473436164499,2.28533101365638,2.28526888778788,2.28513566873136,2.28666840519876,2.2871304931507,2.28832471532285,2.28813379276707,2.29068513447817,2.34748140975289,2.3495710079874,2.34650788698161,2.3472265129466,2.34708668219759,2.34820686792359,2.34834868388936,2.34921658073822,2.3483675443066,2.34845982133271,2.34775579089726,2.34888662520247,2.3485217639837,2.34806251507864,2.34788038808619,2.34808963027663,2.34844142370453,2.34819339580951,2.34817975950206,2.34831145714892,2.34950428441668,2.34954653808507,2.35027101873418,2.35038788450978,2.35078916084925,2.35185592512663,2.35245854507088,2.35347732486604,2.35422378306262,2.35491045775129,2.35854855187486,2.35861934376068,2.35830383346357,2.35845694671915,2.35844851016638,2.35811498363437,2.35765053466261,2.35712854278368,2.33006888283647,2.302242470772,2.30038664540123,2.2992422248704,2.29831743912018,2.29781415917921,2.2979426461193,2.29796525820556,2.2981777540113,2.29772077126935,2.29770299439984,2.29754188558094,2.29854103816238,2.29746540676708,2.29803897570685,2.2987792338985
2.2716544083673,2.27172203781585,2.27150721437174,2.27183296752981,2.27199926555215,2.2723179621949,2.27246529308507,2.27275845993188,2.27317361926551,2.2738535394204,2.27411825276608,2.27432861527,2.27464399654109,2.27540868376509,2.27593201975785,2.27697134404991,2.27824897309243,2.27986763184514,2.28052377078548,2.32775050728643,2.32815384995385,2.3280469258056,2.3282146563335,2.32810419747977,2.32761134324114,2.32692837165688,2.32620448287194,2.32504934790962,2.32359082280166,2.32263009370955,2.32180513214973,2.32104365185045,2.32033298063488,2.31921907863968,2.31858413415338,2.31809737592756,2.31777335943753,2.31769656167692,2.31744940259017,2.31748918454299,2.31753665065054,2.31785851796603,2.31788347496992,2.31852144820988,2.31897615139704,2.31969083902991,2.32047638733325,2.32102015003753,2.32204079736009,2.32305551868143,2.32358298229338,2.32408750722562,2.32476282371768,2.32526029315837,2.32552792231299,2.32578258597362,2.32565686480118,2.32521341552167,2.32521132252377,2.28532048806359,2.28446507233125,2.28461151095953,2.28460758547829,2.28408878919828,2.28422531896693,2.28407468797284,2.28376961908696,2.28355965760942,2.28301294645829,2.28289849048981,2.28260007454409,2.2823539980273,2.28228745600569,2.2821268850863,2.28222496934753,2.28211494125283,2.28198016047912,2.28172422248402,2.28174505810209,2.28155348500384,2.28157516127734,2.28139140786064,2.28145208102728,2.28114955794232,2.28124776655927,2.28120769592842,2.28123697703998,2.28101231683939,2.28103140090828,2.28075975617132,2.2809379877798,2.28083101876134,2.28089744813611,2.28074411531028,2.28101378028592,2.28113063612611,2.28128028425789,2.28133319614889,2.28158073948524,2.28157194054296,2.28174912975288,2.28182237977272,2.28203062510271,2.28218279946295,2.28244641573229,2.28284646655023,2.28310130409151,2.28366789552488,2.28351453289216,2.28379229131688,2.28402568046098,2.28438704295179,2.28431924605965,2.28509160038088,2.28514436515795,2.2852722806877,2.28544792596184,2.28604103780087,2.2869662336069,2.287582369377,2.287945748081,2.2888227418776,2.34752985669719,2.34752366214642,2.34720670666079,2.34739064013649,2.34775782713641,2.34803388665356,2.34847045949819,2.34845276040242,2.34825448495994,2.34816298498143,2.34805494341329,2.34831668599048,2.3482281113819,2.34807446890752,2.34813373565983,2.34794720599026,2.34823467121216,2.34827631525445,2.34840286654202,2.34879215740591,2.34931051079633,2.34994807051158,2.35030393980468,2.35064891862738,2.35122477389111,2.35199569904242,2.35297514559483,2.35401391788284,2.35486067447171,2.35590765247548,2.35733548566326,2.35808693655605,2.35839546834982,2.358485071184,2.35827362095964,2.35755420583431,2.35725958857136,2.33451150654507,2.31995191300866,2.30096924742371,2.30033893728693,2.29879680128594,2.29816105835038,2.2975925478747,2.29748986597055,2.29770869539409,2.29754729129782,2.29752672081033,2.29756957398962,2.29772562021519,2.29785984170785,2.29795025583434,2.29840848217656,2.29875155162749
2.27163635598417,2.27148192618747,2.27154851282906,2.27138556634843,2.27203457506023,2.27223212294337,2.27225381525879,2.27270092244451,2.2729772737157,2.27448804134178,2.27426281899933,2.27395626286923,2.27482880489839,2.27516017997126,2.276357889445,2.27660364436836,2.27826419832988,2.27905003267997,2.28083215891735,2.32701362573341,2.32785822228223,2.32721923044807,2.32787529317777,2.32808948957687,2.32811148882535,2.32713247848859,2.32697175025059,2.32481589608544,2.32410461937223,2.32218569292146,2.32190633673889,2.32149424410131,2.32014929113391,2.31966757084904,2.31836296863602,2.31822314763332,2.31777568659643,2.3176609176799,2.31766748853519,2.31738773591865,2.31774011395672,2.3177254662845,2.31822003314046,2.31852664743107,2.31929244484856,2.31995907539184,2.32086110636593,2.32149539719336,2.32206525881268,2.32315776381572,2.32358958276971,2.3240995907188,2.32538571097917,2.3253836385908,2.32580918146662,2.32650226219684,2.3267081372738,2.32610773676256,2.3255967767075,2.28581825354311,2.28408045324558,2.28610284446021,2.28488625135182,2.28445242641217,2.28424729047191,2.28415135296724,2.28388082339349,2.28352238446791,2.28307930131018,2.28264691162986,2.2823891451013,2.28218167465316,2.28213064286486,2.28215156609773,2.28216689169752,2.28205660058779,2.28168237220787,2.28161266510179,2.28151718586201,2.28164700350667,2.281516129406,2.28136065575272,2.28110692633454,2.28124057412795,2.28093348932724,2.28129014450438,2.28107515313004,2.28117129588473,2.28111076291635,2.28109676248949,2.28103737425436,2.28103929131759,2.28080112332303,2.28101458598598,2.28092584658626,2.28114137822164,2.28071574157657,2.28101051971938,2.28116369945993,2.28161373999142,2.28177361166295,2.2820014653019,2.2824807139191,2.28193165097737,2.28241226840066,2.28283205807594,2.2831822399269,2.28357446711843,2.28348439629786,2.2834735451547,2.2841234699593,2.2843071970547,2.28487964944433,2.28525821822559,2.28546880985695,2.28529315829602,2.28522497521082,2.28674848082313,2.28702485901288,2.28919259118866,2.28844470612878,2.28940068833016,2.34787574489944,2.34797242442632,2.34632921725368,2.34754276178398,2.34757190067737,2.34824168164753,2.348439152267,2.34848514389357,2.34816533377407,2.34813004958582,2.34814579946977,2.34822400983185,2.34816916191832,2.34824247057653,2.34851142576773,2.34792066085814,2.3479820449576,2.34870849542923,2.3486642594078,2.34902589242435,2.34964479954179,2.35026203451555,2.35085250666833,2.35095846519541,2.35140602059231,2.35252428056788,2.35310683045628,2.35527170596935,2.35555731516471,2.35666824440585,2.3570862544779,2.3577570361797,2.35854454785918,2.35857245519975,2.35807547216479,2.35749465474581,2.35687851361026,2.30250591664353,2.30073526083237,2.30113973967228,2.30072718741606,2.29889410575341,2.29791648934978,2.29753871702177,2.29729335767066,2.2974129265519,2.29740747269313,2.2968355304129,2.29751409837046,2.29775614267771,2.29742341651524,2.29781675642747,2.29868331157417,2.29871551123355
2.27154267605862,2.2715823748439,2.27142601822474,2.2716692173309,2.2718868734186,2.27225026697037,2.27243212027502,2.27264220821155,2.27311664512271,2.27379576989625,2.27409752606671,2.27429702923056,2.27461177672318,2.27538390634664,2.2757362757648,2.27661010303116,2.27774274827661,2.2795705853989,2.2804048753242,2.32751571589526,2.32792814968732,2.32775261433137,2.3280196500961,2.32801890422876,2.32759573449006,2.32697573311835,2.32615425106117,2.32498080726294,2.32378604166716,2.32294915508602,2.32225727684244,2.32158949099346,2.32080735608816,2.31985064339429,2.31915605855728,2.31850787453417,2.31811796126838,2.31786052471953,2.31777868302059,2.31786558841739,2.31793879712419,2.3182019688717,2.31827869193852,2.31899682226786,2.31937508679647,2.320120284944,2.32097282800611,2.32157739572147,2.32253126251266,2.32319528800481,2.3238056155646,2.32440045710302,2.32506591119973,2.32581267871482,2.32648105402412,2.32708552526456,2.32714483113162,2.32648481025046,2.32607105002655,2.30810553559012,2.28206188171765,2.28388506298462,2.28444475455639,2.2841541643727,2.28433222985191,2.28416543945811,2.28388742744925,2.28357087619408,2.28286060140007,2.28216939074987,2.28181751855545,2.28172620327176,2.28185885510727,2.28200978845374,2.28204795930423,2.28205392120722,2.28189469376007,2.28179694271483,2.28171932176798,2.28175747657017,2.28167608027646,2.28136282412934,2.28126847302738,2.28110716411205,2.28133520026704,2.2812922580546,2.28129730178443,2.28113788364571,2.2816253351853,2.28143197355078,2.28144531522361,2.28121538854745,2.28130093511542,2.28134712597439,2.28137596005214,2.28122139278577,2.28113777713134,2.28102107666826,2.28136226867165,2.28149147540763,2.28175036544774,2.28183896971198,2.28197331700561,2.28214880477992,2.28254435061544,2.2831254073083,2.2834470402321,2.28364003611157,2.28347132200153,2.28381340331603,2.28398918370469,2.28428578522651,2.2844302794192,2.28510297644259,2.2852168461621,2.28538129212789,2.28573783967918,2.28641502576432,2.28760787744735,2.28851893597775,2.30228554439339,2.32371409908857,2.34823993090892,2.34744070753412,2.34732935058893,2.34774029684937,2.34806730737631,2.34819646474903,2.34842470036194,2.34825922414969,2.34817682076636,2.34820008960886,2.34815600207537,2.34839458936141,2.34832291514809,2.34834449196592,2.34850862441418,2.34819796598764,2.34841644551356,2.34858148807348,2.34875924873986,2.34915971494883,2.34953848497063,2.35035802439983,2.35078582243341,2.3512051738909,2.35180319892186,2.35255208007635,2.3537415311082,2.35508768086924,2.35583146896456,2.35664229954194,2.3573097010608,2.35792747666944,2.35827836502593,2.35834826224358,2.35805919449585,2.35712715907856,2.35675576025153,2.30046602728834,2.29965861894179,2.29945106749135,2.29926486365972,2.29806374568838,2.29784490525842,2.29744331335017,2.29727587166816,2.29741563765678,2.29737451549909,2.29767074178989,2.29772902064473,2.29775061433737,2.29761974008115,2.29778632941126,2.29848410990085,2.29863758489558
2.27145702018633,2.27140828446012,2.271483524801,2.27138610867968,2.27188762378006,2.2722257064076,2.27223736491528,2.27274957055808,2.27265755891989,2.27361263049647,2.27394483808092,2.2738323348374,2.27499919165051,2.27535291422392,2.27614051034227,2.27636250160881,2.27803518069599,2.27880363139813,2.2808697331008,2.3265452094268,2.32769955398271,2.3265813238777,2.3281182337628,2.32754036455238,2.32738060164933,2.32684170696152,2.32646371395495,2.32436966480025,2.32405250274645,2.32315712463179,2.32271658920029,2.32243506105553,2.32086301962276,2.32076572558519,2.31933672194564,2.31889251449079,2.31828369193001,2.31801895563878,2.31785604347361,2.31831504644725,2.31830132374136,2.31829451505922,2.3186844280257,2.31902230706524,2.31971660700136,2.3202878126501,2.32094165601329,2.32219393762462,2.3225585958666,2.32393786118439,2.3240870042502,2.32455287176723,2.32519640327579,2.32590536267477,2.32723844354415,2.32746535140312,2.32734749646694,2.32663007796258,2.3261246570742,2.32702516686599,2.28149103811982,2.28522633033015,2.28498403963274,2.28479656752545,2.28429522880416,2.28425946292529,2.28416878983185,2.28347231371487,2.28323619104041,2.28085181081997,2.28104296055095,2.28082705101786,2.28175809980953,2.28184638636628,2.28199422670531,2.28202489923748,2.28208061536385,2.28188898413909,2.2819045264431,2.28195344181986,2.28181642236827,2.28152233661371,2.28086376137611,2.28130376479769,2.28140232609584,2.28146618926319,2.28098055103807,2.28135245083543,2.28199006858683,2.28217662086665,2.2816257266815,2.28158518367558,2.28111245987411,2.28245541908397,2.281401424931,2.2814381762737,2.28096073554254,2.28133812815498,2.28110010643511,2.28162937888607,2.28169637363371,2.28139938815059,2.28180624231586,2.28175921874243,2.28279862392339,2.28334373361357,2.28425398838595,2.2834820578681,2.28361405467074,2.28375015466215,2.28400753445763,2.28359841902882,2.28445246522201,2.28462017623406,2.28561227617311,2.28559938950492,2.28582820892401,2.28704915697169,2.28788853941765,2.28961012468643,2.3099693518419,2.35019090448342,2.3500659093026,2.34715846223758,2.34734067833712,2.34786570762462,2.34801442272916,2.34857303582958,2.34831623364092,2.34850880095919,2.34829790291864,2.34840008298221,2.34829566220912,2.34874104257717,2.34871389975362,2.34862709545871,2.34885693691804,2.34858250283739,2.34855923300263,2.34892556117671,2.34890744471551,2.34923646706131,2.34959408063862,2.35051899607994,2.35121474639038,2.35155534067888,2.35203342009443,2.35269932975215,2.3539343290519,2.35600597910652,2.35627444702853,2.35697387672827,2.35766403654876,2.35808567615448,2.35778041606032,2.35834368466744,2.35804666756175,2.35793165868162,2.35664791464203,2.30116042728899,2.29950055011417,2.30001366020608,2.29878130963533,2.29810531051737,2.29772407400794,2.29744939618791,2.29714946363655,2.2973276069481,2.29738559713183,2.29852294111697,2.29803806928021,2.29800460970509,2.29732095822658,2.29736550183818,2.29831615681736,2.29855293836867
2.27147245870755,2.27163795171907,2.27158040705524,2.27185306639241,2.27203270202034,2.27237132637224,2.27254889289782,2.27267839799581,2.2730060041341,2.27342525272961,2.27390638227529,2.2742489267499,2.27465418793785,2.27539025410765,2.27573273967845,2.27654814533389,2.27772481022692,2.27952869039487,2.2804241959555,2.32796768246098,2.32860603259355,2.32860021752669,2.32896708314339,2.32876743110653,2.32779725059647,2.32708288926068,2.32618399680792,2.32511282690487,2.3240350378223,2.32371173751342,2.3231470277352,2.32255703591881,2.32153451564271,2.320505669634,2.31979036603701,2.31907625481328,2.31874509913733,2.31840952920631,2.31848795059904,2.31851388463975,2.31850516765403,2.31861725920553,2.31871181383879,2.31944173547017,2.31988233306148,2.32049036042429,2.32119989087675,2.32199400975033,2.32306809031236,2.3237215289563,2.32430369220031,2.32491024630106,2.32539502160095,2.32626796824525,2.32701375887276,2.32767283417358,2.32758963859228,2.32776080768809,2.31530847335624,2.30386338572222,2.28175972077478,2.28359717701413,2.28449692976586,2.28442917256279,2.28442533897289,2.28413805036986,2.28378662416148,2.28336018919423,2.28239726178067,2.28075294924442,2.28019599383732,2.28005729472713,2.28035635992786,2.28131525942932,2.28173367436074,2.28212259134492,2.28220144728596,2.28229590918156,2.28197515247899,2.28215309452646,2.28207892780711,2.28190107631329,2.28162391568428,2.28144723497205,2.28162160639427,2.28151943286499,2.2814969321917,2.28125768247916,2.28183638443223,2.28171906119822,2.2817841734078,2.28159179012766,2.2817947802564,2.28166351382233,2.2816824220649,2.2814798423442,2.28143908017136,2.2812970928626,2.28165076385745,2.28183639006677,2.28197975280542,2.2819685367677,2.28206398064128,2.28246084354856,2.28301138422669,2.28344756114808,2.28363505555066,2.28363188084597,2.2836391556091,2.28396952306722,2.28405442943221,2.28418637480067,2.2843898029256,2.28509508408911,2.28546703409213,2.28592468828723,2.28676923147158,2.28743872342664,2.28862428321446,2.28941202063715,2.31840985192531,2.34882205884515,2.34838119714696,2.3477518325882,2.34757895935108,2.34786994905514,2.3480435509873,2.34823216657087,2.34864713203232,2.3484475936872,2.34842360040504,2.34854662066367,2.34844074141157,2.34869585829059,2.34884481191758,2.34878090133622,2.34895362030019,2.34894733997947,2.34930034189345,2.34898423363451,2.34896850664659,2.34920187236987,2.34966491954067,2.35055893557149,2.35119953550606,2.35205856568297,2.3530016938231,2.35383093561933,2.35509610319119,2.35614616174508,2.3567256597971,2.3574175283054,2.35798142160512,2.35823177789605,2.35825307811274,2.35834253085732,2.35796552512421,2.35766202913991,2.32984778575166,2.29994346457772,2.29904063512926,2.29875698456215,2.29833799268396,2.29755606374716,2.29751191613348,2.2972879620548,2.29720695712637,2.29740601350542,2.29740806619065,2.29776838490991,2.29792078708627,2.29804593771226,2.29782580273544,2.29780267555855,2.29832773350532,2.29856170044914
2.27145782019031,2.27166942652071,2.27189101416161,2.27187079354127,2.27227725348243,2.27248342327188,2.27248810507278,2.27294190196831,2.27276670186235,2.27338053209248,2.27389258473116,2.27394337320505,2.27506773101025,2.27523994206443,2.27649774854112,2.276556672382,2.27813501973513,2.27913542150201,2.28076078085405,2.32765972167818,2.32913373281784,2.32892030329112,2.33022506137979,2.32991710814558,2.32820073528624,2.32732140246076,2.32685905998593,2.32507985406003,2.32419388796394,2.32411261626548,2.32371849333896,2.32379059230876,2.32137777398083,2.32101461156036,2.3195785905503,2.31936715883779,2.31882333498598,2.31900086194593,2.31882160343089,2.31904947451979,2.31880473328272,2.31848178458735,2.31901266957721,2.31942785435752,2.32047533117913,2.32071239659773,2.32099258715148,2.3223778576809,2.32329991031351,2.32419891935533,2.32459179446045,2.32519572501812,2.32589725934039,2.32607494235099,2.3269944538163,2.32749054598977,2.32713402008627,2.32862969707659,2.28849550302238,2.2870028606933,2.28401855959443,2.28533758688712,2.28522240318957,2.28524275819765,2.28431073680674,2.28404747659389,2.2836362632379,2.2833104533798,2.2827842725098,2.27905686992285,2.27909428957761,2.27828536628593,2.27902954849449,2.28065142509886,2.2819831767484,2.28211567175831,2.28273775171018,2.28255250411975,2.28212739175584,2.28224818345342,2.28235302002439,2.28259783882853,2.28181287838109,2.28178399254824,2.2815777487251,2.28169335698575,2.28146744880167,2.28133167096582,2.2814412398842,2.28179298184974,2.28167388287962,2.28183183384615,2.28193063992346,2.28162674237208,2.28145349068763,2.28159536255268,2.28132400443143,2.28157810861724,2.28167753232605,2.28249551649107,2.28226043103407,2.28207154600147,2.28259620424225,2.28246446646005,2.28374780195223,2.28348963191757,2.28339189415843,2.28348984787216,2.28367979866208,2.28410094009954,2.2842243782814,2.28396147372131,2.28479765337292,2.28518771768957,2.28611191944889,2.28639292132226,2.28755363420493,2.28807844898816,2.28854617768516,2.28995206169493,2.32712625482537,2.34820796527304,2.34787995949708,2.34778301143814,2.34754212515483,2.34774069595169,2.34758001178237,2.34822253350017,2.34919809102722,2.34873787673659,2.34865347254794,2.34892841103679,2.34870725311419,2.3485431229202,2.34956550698222,2.34901345594347,2.34911176118984,2.34960277768187,2.35034162080267,2.34923917264735,2.34903889966909,2.34889642946456,2.34986181106029,2.35057028093422,2.351432226984,2.35274323230348,2.35412338918563,2.35499783508686,2.35627943758427,2.35723198065049,2.35728067944969,2.35827889666612,2.35840113102446,2.35827798733907,2.35802032006059,2.35824723738803,2.35790987599579,2.35792077669327,2.30198405691672,2.30044319582287,2.29918541056575,2.29948983491528,2.29815937043518,2.297818336936,2.29708559741018,2.29720417572953,2.29704267368318,2.2975442930747,2.29730220333551,2.29711616537307,2.29780659795865,2.29867417969188,2.29774230357161,2.29802441518797,2.2979673143115,2.29858594766256
2.27148604066454,2.27165612865752,2.27173055050256,2.27209182613637,2.27239829627621,2.27261461947372,2.2726871907797,2.27276746920261,2.27320358413197,2.27358698580036,2.27403281262813,2.27436710219093,2.27482386141154,2.27555695428313,2.27615123219257,2.27677885415011,2.2778312446189,2.27898295817969,2.30388394798789,2.32942472292338,2.33005941542258,2.33006247426895,2.32995668066199,2.32956337503067,2.32839132381353,2.3276973086928,2.32693392378362,2.32600208762664,2.32498505729457,2.32467850345675,2.32398901041718,2.32328249794918,2.32221908571858,2.32083097389409,2.32000442840073,2.31946868007872,2.31935880468673,2.31919022134128,2.3193135930394,2.31931923063522,2.31919082820999,2.31919969757329,2.31931563959479,2.32000129801081,2.32048500806058,2.32100214910427,2.32161640897023,2.32232207580532,2.32353975196026,2.32417484934635,2.3248426563102,2.32557253738493,2.32607629610739,2.32682314114364,2.32722704737116,2.32781082643803,2.32765737093496,2.32789611981642,2.30900430101968,2.28568691224205,2.28440134518499,2.28461357202977,2.28488762109566,2.2845479030998,2.28422834462335,2.28381913290696,2.28328959397849,2.2825460357093,2.28030333526639,2.27866859300727,2.27820397904777,2.2780963741192,2.27844663754069,2.28058577974628,2.2814829234909,2.28211811587872,2.28233594910774,2.28257323641492,2.28219662237226,2.28236869196086,2.28225275786647,2.28211272542835,2.28189533940255,2.28159353350253,2.28166878244008,2.2815994930681,2.28159052829935,2.28136617325581,2.28168515439082,2.28166458801264,2.2818412936413,2.2816865143226,2.28178238289925,2.281337844864,2.28146012559609,2.28140071775384,2.28149451127258,2.28148366035193,2.28191810194937,2.28226465980517,2.28239818947788,2.28246876954839,2.28248847425898,2.28283329175378,2.28320223049016,2.28351253262634,2.28360903244731,2.28369276501663,2.28391613907533,2.2841942150868,2.28433455077262,2.28448288318455,2.28481904471776,2.28552908096969,2.28589459021896,2.28656622725865,2.28765949886081,2.28872925946257,2.289516024198,2.31472724219626,2.33509653084451,2.34750938330369,2.34732635593103,2.34752736022244,2.34753413103941,2.34773907659751,2.34789130223857,2.34826177745363,2.34886800828861,2.34881481479899,2.34882443698822,2.3489524100092,2.34897847574756,2.34911864859618,2.34912626923689,2.34877128899529,2.34865973183281,2.34860192944295,2.34913377577813,2.34909166347774,2.34934641576855,2.3499057909039,2.35121139203144,2.35181779252612,2.35241951704269,2.3536763370138,2.35511490359819,2.35553356408052,2.35632287919727,2.35688809859193,2.35736978319003,2.35801271832233,2.35839654962358,2.35846247742161,2.35863322691111,2.35851905356441,2.35776486350607,2.35714662543979,2.30107903913882,2.29991087776837,2.29869616952325,2.29827531830465,2.29788942386197,2.29725609399848,2.29716937928707,2.29714105369459,2.29720078265649,2.29735394269652,2.29725476568725,2.29729204858807,2.29757852897079,2.29784178899362,2.2979335423752,2.29807990008541,2.29833992610079,2.29856158436442
2.27141410527026,2.27134870974535,2.27178946791385,2.27186994847812,2.27283753635352,2.27271362953797,2.272428940562,2.27280571981967,2.27315911222663,2.2739569483353,2.2741697506235,2.27404158348353,2.27546061703049,2.27557624121546,2.27731225744225,2.27712482134737,2.27798603671785,2.27919519019966,2.33032736584608,2.32987400130784,2.33026160366826,2.32990786110731,2.32955028125296,2.32921308727203,2.32838014232696,2.32802101167322,2.32789116004452,2.32633026084256,2.32589119897958,2.32531657450053,2.32436235993217,2.32384722782398,2.32251347507486,2.32121643286925,2.31942914410536,2.31969489163968,2.31942752490855,2.31990613989785,2.31937139495894,2.32017677379398,2.31960496873115,2.31938200264373,2.31992644413781,2.32008364406589,2.32104459880469,2.32131513464688,2.32178202651899,2.32259976531082,2.32370020082336,2.3247075645158,2.32518296105379,2.32584609669515,2.32686916220322,2.32697004718732,2.32747701885588,2.32783149325662,2.3274557932678,2.32741966515951,2.32756544686141,2.28667289180636,2.28504885266566,2.28598484816702,2.28535340264029,2.28509684368105,2.28379695365218,2.28368285290644,2.2834319953645,2.2829947531551,2.27758087628047,2.27644235169195,2.27717185989713,2.27663625335569,2.27701068879851,2.28088853770474,2.28201968243831,2.28196077535391,2.28262034080544,2.28229255185631,2.28261879678857,2.28216073661024,2.28216769764448,2.28180087020526,2.28171862383839,2.28147156516268,2.28147870675498,2.28164192975464,2.28126826340573,2.28176297501687,2.28138083569829,2.28198483910328,2.28179469510758,2.28200534966324,2.28117629597853,2.28151777456538,2.28085888538801,2.28133306701033,2.28112515035201,2.28167288350454,2.28162229988982,2.28255933148747,2.2825029706007,2.2824274876747,2.28276484939011,2.28249656803215,2.28317179914511,2.2835226138179,2.28373154716828,2.28393748969748,2.28397880397528,2.28443238302242,2.28448711251728,2.28419160287069,2.2854042235226,2.28564869756172,2.28643571051859,2.28673869336972,2.28805518216014,2.2893231754955,2.29060039046094,2.34722355183538,2.34790893661291,2.34654136770914,2.34656226084263,2.34665544506227,2.34718027334839,2.34770382370221,2.34773347676707,2.34866735640747,2.34888412163745,2.34931817656403,2.34911044411183,2.34913484592589,2.34953211155584,2.34971504148008,2.34936282782465,2.3486253073957,2.3480018658694,2.3476934497364,2.34810389567752,2.34917479355312,2.34960087512291,2.35015993978756,2.35377731767381,2.35282982843155,2.35322653143401,2.35468616882131,2.35723020402685,2.35604668382743,2.35650968777749,2.35706385894994,2.35749482912894,2.35830834327215,2.35821662218925,2.35817553793091,2.35884767498053,2.3586210915638,2.35814037077604,2.35597329660277,2.30130045189992,2.29907599014457,2.29840512052705,2.29832690720019,2.29790684485446,2.2973388646654,2.29681194361685,2.29714860675528,2.29730310032389,2.29731038163965,2.2972779735888,2.29713754248241,2.29737308091357,2.29736787225685,2.29779497583017,2.29826003280294,2.29816217984673,2.29853863911123
2.27145154313454,2.27159063822755,2.27167999035297,2.27207292711764,2.27248101100899,2.27275722532502,2.27290949330114,2.27299704545543,2.27347522046656,2.27394306463457,2.27434783008955,2.27466951771418,2.27502562049849,2.27579924409219,2.2766315921218,2.27725576843621,2.27836102275326,2.27905275561157,2.33023159205241,2.32984534770885,2.33034489755905,2.33018921340793,2.32987728583929,2.32952929019924,2.32886203718764,2.32862309711902,2.32840777166709,2.32753047639666,2.32587932323617,2.32490289610142,2.3245264341897,2.32419714339362,2.32282995422624,2.32125424524167,2.32044139357616,2.31993035292061,2.31979313404614,2.31962446027722,2.31969964595612,2.31974996028915,2.31968391634007,2.31978927924642,2.31995746727859,2.32056772998644,2.32098121451994,2.32154708780246,2.32223388874112,2.32306411999335,2.32408195891294,2.3248354895335,2.32544429604471,2.32615135874829,2.32660579654111,2.32739730718611,2.32764997426461,2.32809629314477,2.32783469638907,2.32760708326067,2.32782098678348,2.28565827942656,2.28491501711947,2.28503184428374,2.28507055962727,2.28467048977552,2.2844310657048,2.28354773317564,2.28236180666051,2.28083342868425,2.27767262859152,2.27675921520911,2.27661607592164,2.27650103477771,2.27675406760512,2.27906877976587,2.28082311710046,2.28173715493784,2.28212430185484,2.28250554507562,2.28229240060096,2.28236363857677,2.28210616202663,2.28181473178382,2.28175649393595,2.28164556606175,2.2818086045123,2.28170531555859,2.28160381386315,2.28152905162106,2.28163054063601,2.28161205124241,2.2818766443685,2.28179795694734,2.28177687076796,2.28129662486594,2.28132873464404,2.28123484350026,2.28127409736745,2.28165326978703,2.28205480977221,2.28231092440269,2.28243829719925,2.28249315090057,2.28265426629891,2.28322202127224,2.28338582204558,2.28370288312256,2.28386914621024,2.28383585920307,2.28422151175498,2.28438308652173,2.28472671848632,2.28503103254872,2.28539191147925,2.28608443606158,2.28635649213488,2.28708312784142,2.28816386456961,2.28963545920203,2.290319908876,2.3491687003535,2.3490182176946,2.34833591528158,2.34768276109088,2.34793906249442,2.34804418769365,2.34809509741549,2.34826633882561,2.34859057810369,2.34951016029242,2.34959828689361,2.34949136349367,2.3495269346893,2.34954138018431,2.34949906137887,2.34909866536967,2.34846825686065,2.34797658296327,2.3477433427082,2.34827711035728,2.34901001270071,2.3500408095044,2.3512245967835,2.35268614698583,2.35337824602226,2.35393272390599,2.35497369128821,2.35618787158409,2.35619611725805,2.35664237771468,2.35727800350075,2.35770007147463,2.35821516813707,2.35845564543717,2.3584088070058,2.35848277831134,2.35856375785209,2.35810307338342,2.32849453528246,2.30064545648873,2.29929057645396,2.29816818227139,2.2978066252451,2.29774621434351,2.29704950112702,2.29707182485187,2.29714929972872,2.29720680917268,2.29728581759868,2.29723857559631,2.29729634794589,2.29739140685287,2.2975201077586,2.297935844047,2.29824245609135,2.2985123576195,2.29891092075901
2.2713870447958,2.27157693556998,2.27164521386162,2.27189029334963,2.27239246139224,2.27278426605867,2.27296844640089,2.27339758738126,2.27324022289109,2.27423623308519,2.27450317581021,2.27466980221135,2.27538985765731,2.27561733704126,2.27742153196454,2.27752625739837,2.27870726877329,2.279463229768,2.33073431258924,2.32946576494895,2.32994550488152,2.32962783894635,2.32979829290069,2.32958723635963,2.32920517638867,2.32915330849217,2.33016740995925,2.32900764476542,2.32583513582943,2.32371363391915,2.32468821675594,2.32631812336945,2.32248233572599,2.32163543837787,2.32047150325547,2.3202909735734,2.31980725020612,2.3197244236132,2.31970157637642,2.31974802839778,2.31981097193925,2.31966296759801,2.32045722588696,2.32053175927369,2.32136630925705,2.32177542017704,2.32218817654567,2.32417592080203,2.32408583432481,2.32567371621355,2.32579098551176,2.32630442425964,2.32697884109182,2.32728550350852,2.32782193293451,2.32821232026241,2.32774127140879,2.32810071025363,2.32874527845616,2.28645263336443,2.28514582911298,2.2857732456859,2.28532755877978,2.28510195451074,2.28547661107876,2.28365085427684,2.2820344894922,2.28038056261773,2.27556366192546,2.27557812170437,2.27629520167039,2.27508681432266,2.27548106577461,2.27663273162547,2.28149890166479,2.28141522746428,2.28239550318134,2.2823393015096,2.28266539933201,2.28224487928812,2.28210128218049,2.28164508968379,2.28158129626894,2.28190517852749,2.28203430520565,2.28185630040338,2.28141089724106,2.28178224766932,2.28136031662139,2.28144927281522,2.28179785225602,2.28229805634489,2.281790044017,2.28167829572568,2.28107539657041,2.28125311563962,2.28049548936899,2.28220570646903,2.28213394601209,2.28239918225508,2.28240695418096,2.28191491088273,2.28290924455136,2.28362470005186,2.28388600193394,2.28387321860189,2.28385576008617,2.28385471650612,2.28421774144335,2.28441572592784,2.2849591271662,2.28526245726288,2.28598791742102,2.28646687149468,2.28708226714769,2.28717541329612,2.28883155573507,2.28899882299782,2.29048591754891,2.34982861739687,2.34949987073178,2.34867758753678,2.34747772850999,2.3485598683586,2.34882395099705,2.34853175670708,2.34856942426785,2.34844772936011,2.35075569828322,2.35051737091977,2.34995740417812,2.35008643443775,2.34985335264799,2.3496957226293,2.34928387647581,2.34855784987962,2.34751098631677,2.34772662710615,2.34784689121185,2.34908181924199,2.35057653648524,2.35200675361142,2.35288252048411,2.35381821392667,2.35463386921135,2.35532552487904,2.35652251210601,2.3561749681925,2.35660673499451,2.35808528998462,2.35798791212033,2.35862868811578,2.35825309627583,2.35817779922634,2.35700033514776,2.35801086325906,2.35713688656056,2.30285751451602,2.30082283477932,2.29936955862531,2.2980742398536,2.29808521221299,2.2984722545866,2.29675155769226,2.29708879507457,2.297232988726,2.29716179330889,2.29727627711353,2.29730234545306,2.29730722113259,2.29744243021319,2.29735257384346,2.2982219739989,2.29817505548939,2.29837825774321,2.2992413664692
2.2714898299719,2.27169985581486,2.27175182586101,2.27201215070549,2.27235449472001,2.27272372357829,2.27302014622058,2.27309670173037,2.27350802667187,2.27399616438632,2.27447201747267,2.27483798619605,2.27503733832176,2.27568000641892,2.27632478598122,2.27716918774688,2.27849803234876,2.27942404085858,2.32902015694459,2.3289709591056,2.32996659375724,2.33021080550754,2.33013928743188,2.32981448267312,2.32925427815004,2.32905232957956,2.32881315331785,2.32773533440677,2.32610668563187,2.32479246675439,2.32449162443674,2.32414299843409,2.3227632960822,2.32163051007161,2.32108364363219,2.32058702514954,2.3203812865834,2.32007454413144,2.31994638734591,2.31997175316587,2.32000500113992,2.32025848855041,2.320474595954,2.32105487694165,2.32160316836406,2.32213672008902,2.32277104145018,2.32365873013322,2.32441708516825,2.32519008632705,2.32582312293102,2.32652911022337,2.32699033694357,2.32787094612736,2.32820835269833,2.32867115943968,2.32839253734963,2.32804078074209,2.32808097894843,2.285290832712,2.28473285413979,2.28498109269894,2.28511181784718,2.28504719081841,2.28484245696278,2.28352312968764,2.28179904251955,2.28026370976371,2.27791381130646,2.27758689842001,2.27710960261892,2.27622667801041,2.27616450687315,2.27756679480836,2.27930586472302,2.28082937190291,2.28159239456141,2.28223902904092,2.28216645700035,2.28220292077182,2.28207567682443,2.28190065591971,2.28182796417548,2.2818242773717,2.28196852814405,2.28187868181102,2.28174028529787,2.28164589950064,2.2817644563112,2.28179211015052,2.28201004902414,2.28192620003909,2.28194038775019,2.28147854545876,2.28161629453219,2.28149767782786,2.28153947935118,2.28201567861702,2.28236362851732,2.28251751556211,2.28264600116194,2.2827382935239,2.28295768216928,2.28352440308641,2.28368103563076,2.28397000788056,2.28416913878129,2.28403463210018,2.2844424800212,2.28483147240955,2.2852652552397,2.28564845959062,2.28581749687857,2.28647141900088,2.28654922192185,2.28725297891755,2.28837769974998,2.28995001753278,2.29069400555322,2.34951227948703,2.3493682835448,2.34889482130482,2.34833107730991,2.34852616431513,2.34856246053853,2.34871019442878,2.3489090188471,2.34960116994334,2.35056570457069,2.35044738916304,2.35006311808083,2.34987498086825,2.34964003775678,2.34956708039191,2.34971260883978,2.34902785076935,2.34845672924467,2.34840076105216,2.34933308936011,2.35038617808443,2.3514772206562,2.352662029783,2.3531428779302,2.35411630073768,2.35488914429925,2.35556386244149,2.35632835420459,2.35673271503262,2.35707043606135,2.35758465482053,2.35791557989178,2.35824586824281,2.35842001230964,2.35831267563906,2.35788156203934,2.35806327587113,2.35775322244578,2.30181042487455,2.30052273455856,2.29897775252651,2.29778900279518,2.29730583125699,2.29716208226709,2.29690684937792,2.29709805390969,2.2975030061625,2.29783224511905,2.29745961405764,2.29734540228919,2.29754856681522,2.29758501397513,2.29770681244557,2.29802995295782,2.29848223008877,2.29899161785878,2.2995149186111
2.27149937730936,2.27185741765124,2.27175865866462,2.27194512662777,2.27223856691045,2.27267511364894,2.27274170896761,2.27312695486844,2.27308089430452,2.27404137718429,2.2744393980043,2.27460283636108,2.27552513709217,2.27549118455574,2.27635718235041,2.27699591491998,2.27799274768025,2.28010305837904,2.32765209724006,2.32823715746184,2.32971176318039,2.33018940560481,2.33041383764219,2.32969941305715,2.32927181955524,2.32896925846042,2.32878662899973,2.32666646136675,2.3265522241556,2.32477543694838,2.32437012513151,2.32370714297477,2.32199860279233,2.32205018625746,2.3210825855304,2.32096435594836,2.32100677348772,2.32040740763911,2.32015118690701,2.32016660846515,2.32033316836336,2.32032881123173,2.32112134393654,2.32083112961777,2.32249474587576,2.32250657869601,2.32275492626859,2.32409910941141,2.32410364158309,2.32541392210904,2.32598010575859,2.32656406196756,2.32758540028067,2.32785720056428,2.32868087675921,2.32896570016294,2.32874633766746,2.32832093470404,2.32792635557987,2.28570233584302,2.28474096810055,2.28565537077794,2.28546020949658,2.28586327145404,2.28529285861082,2.28364140793338,2.28173945819389,2.28077094797908,2.27852069500818,2.2790836363378,2.27851750889977,2.27549583022111,2.27595479933559,2.27692909728821,2.27824739925142,2.28045186410502,2.28154794573524,2.2820219288135,2.28239980612979,2.2817660422032,2.28211592180058,2.28207654895139,2.28182805422016,2.28186759616909,2.28187734521162,2.28195075099896,2.28175141843541,2.28164344425724,2.28192912450183,2.28223137394562,2.28209477361215,2.28220224904058,2.28151158251978,2.28180122338047,2.2815555550801,2.28182682379984,2.28161772295128,2.28247314558074,2.2823596841604,2.28282104378408,2.28288181842837,2.28294275581443,2.28335072015151,2.28320380500514,2.28370242466614,2.28406003898408,2.2843286062489,2.28439478667755,2.2840353846044,2.28559303008819,2.28554162915169,2.28572460738028,2.28618969390776,2.2866867767276,2.28688632563173,2.28708943963802,2.28845188415997,2.28970220552946,2.29121728977844,2.34863140637482,2.34896081619203,2.3481605002756,2.34819249250234,2.34803176416099,2.3481858635781,2.34902845672526,2.34881896737567,2.35080919249841,2.35143541251049,2.35096161787193,2.35021460569697,2.34989777672484,2.34942695644679,2.34937402786583,2.35112970842948,2.34977579195246,2.34874107081481,2.34872958844137,2.35037258490436,2.35213789595969,2.35255966725558,2.35399079248938,2.3534634971186,2.35433236847589,2.35573986048252,2.35595056143457,2.35669792459196,2.35761958035946,2.35738818304801,2.35757902533365,2.35789778017928,2.35807496335436,2.35792042553901,2.3583249498109,2.35667702201491,2.35729570476272,2.35646947711597,2.30161248780324,2.29929411623974,2.29874989550923,2.29746123075747,2.29687889815607,2.29651358751136,2.29668510907931,2.2970116730269,2.2978039981106,2.29927774958249,2.29733960168962,2.29721373384119,2.29787398041302,2.29776659620675,2.29759015849913,2.29809754481745,2.29829193191091,2.29950855686458,2.29968227670971
2.27153402613597,2.27170031771741,2.27184165702058,2.27191688012318,2.27225538043914,2.27255046578243,2.27278930336093,2.27285332482721,2.27338636140211,2.27386399125366,2.27437918664971,2.27473655685255,2.27510687210709,2.27578430620908,2.27617957843134,2.27698494846996,2.27830283301223,2.27954639327479,2.32789765242354,2.32846356315359,2.33000424869032,2.33065782346875,2.33068618778515,2.33048928208915,2.32965286043229,2.32922261563943,2.32871224334883,2.32788219796846,2.32650342426334,2.32532467390027,2.3248024580299,2.32427621885032,2.32296338158811,2.3219065697114,2.32143346976466,2.32104028327954,2.32083324846342,2.32058233776475,2.32034391055432,2.32044055039319,2.32048654239265,2.3208248584575,2.32109001777476,2.32165883316632,2.32228803520311,2.32279944358662,2.32334168035311,2.32399265000484,2.32483673930832,2.32547282892889,2.32620462300526,2.32699061937362,2.32749979397029,2.32834267060128,2.32877461412153,2.32928691302488,2.3288809456962,2.32842629287034,2.30856885304037,2.28507827555063,2.28431795114863,2.28464061365875,2.28495437142897,2.28509079020489,2.28493588555368,2.2840799457904,2.28291046706523,2.28213627619897,2.28184688963263,2.28233563399662,2.28157575465256,2.28166658665944,2.2810226287677,2.28087940336233,2.28101193457814,2.28165034242023,2.28194557938773,2.2823632908479,2.28242731542119,2.28235808880307,2.28224471342762,2.28210467106079,2.281960532293,2.28189884068712,2.28197613904411,2.28206966046934,2.28202691644267,2.28187785984159,2.281986691966,2.28220488070616,2.28226163499365,2.282069567756,2.28208390725195,2.28176201059574,2.28201532687962,2.28197208845362,2.28207496887256,2.28218668979476,2.28241235323445,2.2826205871756,2.28293618765676,2.28319989409041,2.28340058917069,2.28374264402478,2.28381569464452,2.28406809369904,2.2842715780442,2.28423782333582,2.28456910867543,2.28500989939365,2.28545185780245,2.28576358341073,2.28584367452328,2.28649590750484,2.28657914272581,2.28723807885701,2.28839844808924,2.28949490873337,2.31754068841446,2.34878777527948,2.34895842486377,2.34865576591922,2.34865058280568,2.34935003411168,2.35047220535169,2.35062072812236,2.35077273068482,2.35130345691477,2.35122256401599,2.35078207546278,2.35018667340322,2.3498188848028,2.3495108855226,2.34957493235124,2.35023162979156,2.35028152255359,2.35041770745408,2.35054421167355,2.35151237508973,2.35219086580614,2.35288176927478,2.35379921680609,2.35410395817324,2.35500230640792,2.35597072438487,2.356205589313,2.35657477467562,2.35713846104664,2.35753817577326,2.35786084004564,2.35820671279519,2.35832758860233,2.35840741634627,2.3580656691547,2.35715487700673,2.33940845475141,2.32407182777644,2.30080887114183,2.29951399282098,2.29839998014978,2.29725073116845,2.29677752566371,2.29645983866414,2.29674943582149,2.29707164354294,2.29753851173896,2.29788008270202,2.29750858066654,2.29769356200341,2.29775071008278,2.29781746050849,2.29799810048049,2.29809730746861,2.29893087352773,2.29944633385459,2.29976552922656
2.27142393800295,2.27165682316515,2.2717811321024,2.27182902544899,2.27203186370556,2.27249756146556,2.27237032858055,2.27285211579453,2.27305384203329,2.27395901151226,2.2743577124373,2.27429911621647,2.27567008205803,2.2761099425194,2.27695379375581,2.2771273515883,2.27804847427021,2.28000012723222,2.32790550174755,2.32842656826418,2.33018942853598,2.33064666287571,2.33103710468731,2.3311372167937,2.33008870846609,2.32949952287802,2.32948094735501,2.32928090765121,2.32675605465996,2.32511719251974,2.32530098614487,2.32624975275334,2.32301166423756,2.32203236348985,2.3212921409077,2.32115687622196,2.32097751267067,2.32045362522485,2.32075087494266,2.32042917054294,2.32082242955564,2.32074508306423,2.32183151776051,2.32159333571162,2.32287544223326,2.32315969095156,2.32347638841721,2.32452380856253,2.32515105214277,2.32601500905983,2.32656436104863,2.32728354272835,2.32804382744767,2.32809338494343,2.32896987525174,2.32931600147323,2.32878980703059,2.32818929725416,2.28809277391043,2.28616131299634,2.28463781859591,2.28515290838094,2.28546641375549,2.28515264773821,2.28534906991113,2.28461002646119,2.28405161545429,2.28152337386905,2.28757665669582,2.28593669047138,2.28436489252136,2.28462062829359,2.28448045940079,2.28443238357866,2.28375556051888,2.28278729221495,2.28268088188726,2.28243095438952,2.28322283211137,2.2825282677957,2.28240812583264,2.28205962174895,2.28201898188291,2.28187683640047,2.28198144815927,2.28223442261875,2.28236604653548,2.28192373933446,2.28188175754822,2.28241989517596,2.28230483213638,2.28238853846619,2.2819870753839,2.28221509725627,2.28197054084157,2.28221848566065,2.28204162485246,2.28227052375063,2.28209399251937,2.2824862724245,2.28296620901921,2.28316334594413,2.28376404778507,2.28413072262816,2.28394143025234,2.28411238842296,2.28388832165632,2.28452168706039,2.28425108083274,2.28485855859531,2.28541880566909,2.28552978723321,2.28606831535065,2.28659868802018,2.28712499286466,2.28748683204656,2.28865188960747,2.28966769653639,2.34334186171275,2.34816627458883,2.34881151240366,2.34790985611356,2.3480900143788,2.3491119471355,2.35436057272365,2.35234632071328,2.35263334554126,2.35244960099476,2.35162881345655,2.35088918137304,2.35024869613776,2.34983689708003,2.34942508800541,2.34931518225012,2.35011829935401,2.351052164225,2.35206422635857,2.35202424077254,2.35278291281419,2.35262863941269,2.35329668416573,2.35416947825108,2.35472181959392,2.35532055080803,2.35743512828893,2.35659111152897,2.35642611644023,2.35713903369837,2.35766517466904,2.35828356749305,2.35848841924345,2.35850652462785,2.3587080534365,2.35839464696674,2.3563558766249,2.32969999118688,2.30231395603132,2.30075075525749,2.29952368502461,2.29822304703295,2.29727542939384,2.29661723792537,2.29663039326639,2.29633433631537,2.29735814621646,2.29729002348916,2.29718062452742,2.29723787976902,2.29828114694072,2.29764588491258,2.29789912337471,2.29806035052937,2.29801817923933,2.29919740701519,2.29970071074183,2.29973623996721
2.27159446197827,2.27178196721445,2.27201694890396,2.27194049760943,2.27223338962651,2.27247832733897,2.27271829835748,2.2728731793127,2.27359471351278,2.27419118475666,2.27455330120614,2.27476589490291,2.27512050245639,2.27591237710482,2.27640004128835,2.2770732454588,2.27828310547251,2.27951697726685,2.32956075937725,2.32994407730822,2.33105682527349,2.33140726342841,2.3313690468519,2.33132636751714,2.3304984404188,2.32979310562519,2.32899320505334,2.32837991934917,2.32675505654389,2.3257144010078,2.32524855504162,2.32491409349878,2.32412761275401,2.32243537834186,2.32175630713251,2.3213636386656,2.32111482013932,2.32117976872386,2.32095567702005,2.32108085400055,2.32114488904061,2.32159547481843,2.32228091007221,2.32293195137788,2.32317688572728,2.32365642318628,2.32427109160169,2.32491523071066,2.32576209229298,2.32630185021584,2.32688111470136,2.32754487247552,2.32804925786527,2.32887357089277,2.32939529746459,2.32972663043242,2.32895809652483,2.32832949568528,2.30815609014576,2.28531192869265,2.28443356141593,2.28477088998031,2.28514346357542,2.28533645648563,2.28528055486601,2.28503527900238,2.2847145875941,2.28461810593577,2.28553473271208,2.28557427215126,2.28496290955182,2.28483595601588,2.28445135496212,2.28429508925597,2.2836965926742,2.28327725276473,2.28296828986614,2.28284861250953,2.28273338677058,2.28263624313919,2.28246669435281,2.28232939240856,2.28220603592088,2.28232123085442,2.28233826764574,2.28247578037778,2.28240423282242,2.28220092940094,2.28214008075448,2.28226483259848,2.28236215699456,2.28222056682371,2.28230161497904,2.28205274279246,2.28228348135628,2.28227086503772,2.28235229238365,2.28263480350663,2.28265392858983,2.28281728770819,2.28317667768022,2.28344749893661,2.28376951546865,2.28399027682742,2.2840453970589,2.28426375951907,2.28447259883835,2.28442532108466,2.28491626428592,2.28524897029532,2.28571020393288,2.28601802027871,2.28609315979103,2.28675354080435,2.28696471519729,2.28760401530484,2.28893936743585,2.28982497027153,2.3466772106283,2.34842620757453,2.34957247970482,2.34988587449955,2.34998431620512,2.35098604702445,2.35270873611781,2.35267737099865,2.35272007282594,2.35250596524123,2.35177774689718,2.35102112663875,2.35020642442783,2.34974371328604,2.34974439587482,2.35021837637435,2.35128070353889,2.35190941861838,2.35260789760908,2.35258052592219,2.35292905067793,2.35323596830341,2.35369796103384,2.35438140054421,2.35492908341143,2.35569522336174,2.35654462944276,2.3566626080975,2.35690231625654,2.35744955754422,2.35822986278668,2.35860018921509,2.35881582864478,2.35876393567051,2.35854519081985,2.35856934762706,2.33440985661271,2.32007901629992,2.30083366202019,2.30005665854906,2.29885123609384,2.29800908288025,2.29703986417657,2.29668564922151,2.29654283780142,2.29682839748664,2.2970589978428,2.29721844375229,2.29724668739338,2.29734908405616,2.29776366792734,2.29768771378301,2.29788479079508,2.29817913129287,2.29832131567591,2.29911404395531,2.2996285002034,2.3000200911136
2.27158508065482,2.27209239654002,2.27217674339048,2.27206567453212,2.27208797984958,2.27255568675014,2.27248641772577,2.27311960233576,2.27352286715801,2.27498015608445,2.27476622500657,2.27451478470087,2.27535566668728,2.27568160700978,2.27698826931724,2.27711761772596,2.27813895783348,2.28008336334806,2.33110849110322,2.33111601158589,2.3316692746273,2.33115459554312,2.33172467766902,2.33120923817061,2.33140446231381,2.33003760308691,2.32896514554475,2.32797827390808,2.32681780922974,2.32554329809535,2.32518815957192,2.32454623726954,2.32561138625009,2.32254885953169,2.32163889442619,2.32157699948112,2.32138545136063,2.3216843882962,2.3215827666696,2.32130541538403,2.32161400352059,2.32152695617264,2.32387818946273,2.32382841168311,2.32393432604328,2.3241181913925,2.32468578066181,2.32594640670052,2.32602834418293,2.32716095829842,2.32727236135255,2.32769188952567,2.32850548427051,2.32894317555026,2.32991471323968,2.32987748588754,2.32854257318189,2.32789759160167,2.32845852271356,2.28632954837128,2.2849949506062,2.28588609533101,2.28573449164846,2.28624452158654,2.28540403618514,2.28531106040307,2.285511534424,2.2856383091997,2.28589689570514,2.28537613061082,2.28515622517432,2.28514644979394,2.28440291989238,2.28447118208003,2.28354425667038,2.2834120626153,2.28333948825772,2.28285672388508,2.2827033677863,2.2824356950091,2.28252559008777,2.28231963183301,2.28243651045675,2.28262580103297,2.2826985815585,2.28270744974848,2.28267316506057,2.28221193073112,2.28235588979862,2.28210869676059,2.28239622363743,2.28237972876639,2.28213369446771,2.28229399415258,2.28214414937794,2.28237987266449,2.28206876800891,2.28362578206903,2.28277494347144,2.28307703411091,2.28335804648193,2.28351484827773,2.28407982358368,2.28387682881783,2.28397056428726,2.28448588772646,2.28468193813176,2.28466643958533,2.28494488673069,2.28597305013084,2.28608354224567,2.28625562459989,2.28677112550979,2.28721152150735,2.28767277936824,2.28792333549428,2.28899624612708,2.29079116543415,2.34861217755952,2.34974501389686,2.35054132048401,2.35134412313428,2.35070528261871,2.35095672530044,2.35364845156904,2.35301882124718,2.35353877505337,2.35286077670418,2.35245391598767,2.35117067956421,2.35020557127847,2.34926348559303,2.34988100941189,2.35058397515804,2.35313040202659,2.35301097062348,2.35393885287042,2.35312341591686,2.35309251672305,2.35399820593874,2.35421088735435,2.35468945342875,2.35545121239557,2.3557718714986,2.35684505747523,2.35689651258888,2.35719419639492,2.3578668307725,2.35891713085443,2.35894111124744,2.3591259129446,2.3588199127546,2.35894282924009,2.35915307878043,2.30446481822901,2.30144007946255,2.30084388067938,2.29935584031653,2.29924428066705,2.29774538209712,2.29709792037834,2.29620744536621,2.29683268457306,2.29677221118757,2.2972609826068,2.29720247457752,2.29709930188237,2.29745279171953,2.29751383269019,2.29760456403768,2.29789948824144,2.2979638528034,2.29875023776934,2.29850978049653,2.29988712890885,2.30011368339693
2.27161954742107,2.27178517886557,2.27210525489787,2.27211848203289,2.27239960567593,2.27258153109591,2.27278526297255,2.2729816581024,2.27375450552779,2.27439529556251,2.27477608736363,2.27502365396617,2.27519504797149,2.27601903710805,2.27651436079203,2.27716208569808,2.27835176846863,2.27975986356105,2.30538841248946,2.33183493233886,2.33224867387543,2.33212904709383,2.33188712388537,2.3320161492295,2.33140656987755,2.33071026161912,2.32975740121661,2.32861236514383,2.32722138471031,2.32629458864302,2.32555146376367,2.32494385454649,2.3248029235165,2.3231821018009,2.32243341165997,2.32202667009341,2.3217676900721,2.32190427600781,2.32179465366364,2.32190898830936,2.32196090343991,2.32242666544351,2.32317752064754,2.32381167872054,2.32389932148921,2.32436312187273,2.32499891727794,2.32567903273865,2.32657556302668,2.32711740190054,2.32759587841658,2.32807367781294,2.32878506056962,2.32961343162612,2.33033293536484,2.33039259443925,2.32936803745262,2.32864523512134,2.30772045400173,2.28588745097861,2.28501590767233,2.28520334410939,2.28532509782061,2.28534544691084,2.28527021181877,2.28532227629873,2.28534878593562,2.28557194516767,2.28525416308316,2.28509130852191,2.28486834216004,2.28466112883305,2.28426367572861,2.28400620681551,2.28375234431786,2.28344829622087,2.28314465705629,2.28290054464169,2.2826067138762,2.28250549791597,2.28250336445572,2.28253546293524,2.28254799341189,2.28289284587684,2.28293959464602,2.28308594037257,2.28310172377313,2.2830640499781,2.28323860587728,2.28294495323572,2.28282608416291,2.28263972137378,2.28256947272234,2.28234066389901,2.28250306514821,2.28257950508709,2.28267804180055,2.28300068686723,2.28303476694608,2.28333688255389,2.28360392176995,2.28379670820424,2.28394063333249,2.28403337122175,2.28426837051763,2.28462193485917,2.28502019469002,2.28507950807172,2.28569991547002,2.28602224206267,2.28628912392241,2.286523486476,2.28656974655979,2.28719184367517,2.28733633508163,2.28789521369182,2.28925582499886,2.29013947928546,2.34761771949963,2.35007959024118,2.35154438310017,2.35212197879561,2.35218656960753,2.35259428711782,2.35290764723868,2.35278306235719,2.35271464808682,2.35176533890178,2.35084253391471,2.35039850031861,2.35023160384963,2.35022547544867,2.35134322241676,2.35214368587744,2.3530241067328,2.35330652935351,2.35370694720994,2.35360182951803,2.35380436188181,2.35428004288318,2.35464618590577,2.35530109197839,2.35618542711353,2.35669715059239,2.35701793653918,2.35720678576938,2.35757361393683,2.35811469443841,2.35886684357996,2.3590533090719,2.35915549855028,2.35894080999588,2.35837156986299,2.35825633896266,2.30138884363433,2.30004552398145,2.29928763714453,2.2986116329502,2.29793100391532,2.29755334748489,2.29712783646515,2.29703692922803,2.29719873943945,2.2969673377396,2.29725899971424,2.29729781629363,2.29726104827695,2.29732407580328,2.29759319199217,2.29774531291784,2.29800086994964,2.29831992170968,2.29854750322945,2.29919453850938,2.29951711292028,2.30000626907739
2.2714499026971,2.27154943338071,2.27195903890487,2.27227437256927,2.27240681234293,2.27264581472858,2.27241124488015,2.27304312801399,2.27340378973663,2.27439913200102,2.27477795622877,2.2749975256421,2.27553409293886,2.27627206582399,2.27745341014986,2.27722124523193,2.27890297428789,2.28002181187319,2.28199009838978,2.33140063103537,2.33220205137321,2.33144058598968,2.33183362747993,2.3321998653295,2.33214419157166,2.33142725336462,2.33146282815916,2.32888892924544,2.32789542791572,2.32661244464236,2.3259330038416,2.32536692308407,2.32495944801903,2.323635926377,2.32260538124259,2.32246833427579,2.32223050681524,2.32183347057496,2.32259360449067,2.322064486157,2.32243378835436,2.32235645775202,2.32370431621125,2.32349743571278,2.32417242142218,2.32455100568355,2.32490085859889,2.32607938657637,2.32676738536303,2.32781503432961,2.32798389318759,2.3281925388796,2.32927533339729,2.32964473176934,2.33092176121753,2.33073018103649,2.32957022351136,2.32893994996977,2.288241269204,2.28705219235381,2.28564548649759,2.28610197191144,2.28541670473145,2.28519189686011,2.28485372079105,2.28516843135219,2.28535333317079,2.28544834705901,2.28509047081706,2.28441921548169,2.28453611689321,2.2845126852891,2.28367149063794,2.28390258511524,2.28372213601952,2.28342829461174,2.28294868044761,2.28280906199788,2.28257043781449,2.28221759330614,2.28251088733257,2.28240797167464,2.28282209743808,2.28302339722273,2.28336738307991,2.28332855292388,2.28371722741501,2.28354922808332,2.28477337672524,2.28352492495043,2.28311670691202,2.28307789060594,2.28266701524536,2.28255407725729,2.28254100722695,2.28279915884896,2.28290505670799,2.28277650533618,2.28297204973174,2.28362567106497,2.28382299227984,2.28409066425885,2.2838537050774,2.28411796439599,2.28427551591886,2.28484539941364,2.28501131671078,2.28584594920701,2.28590357682565,2.28661266495863,2.28647918154906,2.28661174030218,2.28721519719072,2.28770970790552,2.28812970912237,2.28814635458172,2.28956945291856,2.29032352331763,2.34456499762103,2.35223207878033,2.35246197842326,2.35272047011949,2.3532430936907,2.35372716736546,2.35306249330916,2.35256677313537,2.35330056522908,2.35038239605859,2.34931122396194,2.34929097536194,2.35052555531336,2.35012687976111,2.35347273282926,2.35363919715012,2.35381153713863,2.35378530723517,2.35408563876426,2.35407256413392,2.35426060130381,2.3549553698915,2.35514043726924,2.3556906023824,2.35777606977819,2.35766598493458,2.35776493949405,2.35763040426744,2.35791697581286,2.35832135211002,2.3589552831713,2.35876827989476,2.35924143405935,2.35887144381862,2.35898691151979,2.35771136413643,2.30146932565369,2.29963404745207,2.29957759661144,2.29816733775061,2.2978426427454,2.29728964277483,2.29729691063301,2.29723044454349,2.29852522140285,2.29619444449846,2.29781263921965,2.2974671635711,2.29708108056197,2.29743022870155,2.2974366322389,2.29802341185523,2.29812324785257,2.29833292931503,2.29864463114754,2.29946217867405,2.29912505262869,2.29971158198464
2.27159903613436,2.27169859049715,2.2719991960148,2.27212398046156,2.27244368295067,2.27262499369962,2.27279888166402,2.2729269050751,2.27355999121783,2.27412516430527,2.27468851220897,2.27511988015427,2.27536711542466,2.27601916072838,2.27634069419958,2.27709512053425,2.27834395723295,2.2803131687176,2.28157293329682,2.33169885469687,2.33229141046126,2.33247502197639,2.33237205942749,2.33288173904561,2.33250872048828,2.33209894767461,2.33158930541641,2.33032601774967,2.3288998891586,2.32738265276543,2.32635492383137,2.32557952913115,2.32523586070925,2.32413831974733,2.32353959214361,2.32310808078515,2.32283117914339,2.32264406872642,2.32261124491231,2.32278875881657,2.32284047872848,2.32326302204528,2.32359947007975,2.3240752482527,2.32436317373132,2.324922989262,2.32558194733265,2.32633448792891,2.32750736024283,2.32828197325938,2.32875568341285,2.32920923130326,2.33000144823763,2.33055308475143,2.33122881236243,2.3313800370775,2.33069045425139,2.33001168696229,2.2878368178746,2.28687062061136,2.28563517916266,2.2854037291323,2.28538486916757,2.28514543199882,2.28507240981439,2.28510221617717,2.28503292685288,2.28504553333954,2.28454178223636,2.2843127330822,2.28421170177974,2.28400374330904,2.28382035645497,2.28346893929094,2.28348929531128,2.28329956715083,2.28313260617713,2.28295736528728,2.282851873947,2.28253933314518,2.28260848947398,2.28266167769936,2.28268125152832,2.28296073974754,2.28320014044164,2.28325833429753,2.28323422900051,2.28328109585608,2.28344143228976,2.28307809471512,2.28300316710168,2.28289037463352,2.28283590734954,2.28275049557808,2.28281027626685,2.28297146241969,2.28307569185864,2.2833656606509,2.28335232533271,2.2836277867733,2.28386152283167,2.28403413241031,2.28431783065113,2.28442421672192,2.28460447312069,2.28501181780665,2.28550653654337,2.28564705048211,2.28612993385936,2.28613890383964,2.28640009391493,2.28676840983294,2.28717897414193,2.28801783507581,2.28807632227372,2.2882275508249,2.28895686088352,2.32176872413572,2.34750199512638,2.35144069066765,2.35282315178576,2.35320181330998,2.35343670780735,2.35334733490407,2.35275013360238,2.35164441634482,2.35060801446789,2.34961457473502,2.34979647688454,2.35168914607285,2.35252750175617,2.35272169062685,2.35359386138756,2.35401959402295,2.35417319144033,2.35418242621948,2.35439901444021,2.35452666271806,2.35479753201105,2.35512334276177,2.35548199102901,2.35616030410293,2.3570247242462,2.35771027359771,2.35786897148292,2.35801442386922,2.35835958681134,2.35862087154127,2.3589548174722,2.35915373271986,2.35930938309487,2.35899620689972,2.3588343716746,2.33022549574884,2.30027989555729,2.29904966880714,2.29843339083904,2.29791499518957,2.29756719892838,2.29729813890295,2.29729257178377,2.29739761469529,2.29753458832788,2.29722190734904,2.29784176747043,2.29762355741343,2.29740120865045,2.29745108820919,2.29767495585581,2.29777844997076,2.29807909276934,2.29843091680483,2.29883904474594,2.29952691658376,2.2995989630699,2.29993143895654
2.27158159777864,2.27186575026826,2.27187489981948,2.27210921220808,2.27225456675455,2.27267573838677,2.27257958887117,2.2730731757716,2.27308991259194,2.27417846172615,2.27457418893019,2.27479627244953,2.27584607220617,2.27559367734151,2.27644113289828,2.27671617055313,2.27830323143008,2.27923611250909,2.28213576256406,2.3303158966319,2.33197251672973,2.33216966288669,2.33261632197246,2.33309889438609,2.33343105680049,2.33265083729423,2.33313465412043,2.33139044514499,2.33067368283618,2.32746736263134,2.3266526771221,2.32590734354877,2.32567534740296,2.32490266991387,2.32398398670015,2.32375492113005,2.32381910252357,2.32275486641152,2.32324078569569,2.32312539242453,2.32342683803976,2.32356834306436,2.32446741709594,2.32399666849016,2.32496701440694,2.32532686988164,2.32576954106809,2.32710787439342,2.32785504224599,2.329823702445,2.32948818254251,2.33014859546664,2.33075534325863,2.33100016102279,2.33144794359437,2.33196131495351,2.33205893640955,2.3305514876735,2.28826177429978,2.28687912910745,2.28582641603503,2.28591183338302,2.28566892096095,2.2858491887988,2.28486164481671,2.28500893612513,2.28501680118796,2.28454610803419,2.2843834597382,2.28362728349085,2.28388201106182,2.28385224330746,2.28347495304811,2.28340228984239,2.28289529207519,2.28322736377272,2.28313636601612,2.28312160954675,2.2833195367018,2.28240417374253,2.282677911343,2.28267563868558,2.28262607544261,2.28264524131708,2.28341257247283,2.28309614742507,2.28266901206869,2.2829198873429,2.28264014596382,2.28233925985546,2.28275901784904,2.28273264952559,2.28289123662612,2.28300701625656,2.28283742282505,2.28308582607979,2.28310709735605,2.28411263318302,2.28363845040033,2.28351746524334,2.28388081250966,2.28385032561173,2.28486153105023,2.2848183563231,2.28446616822665,2.28525833752112,2.28564219078238,2.28604018818958,2.28597472250056,2.28598886300823,2.28636272264673,2.28673094346057,2.28838755005423,2.28921359116903,2.28983923451675,2.28915507676201,2.29036101716146,2.3562411730934,2.35464845925789,2.35309144228014,2.35339817068573,2.35310842550408,2.35389835363037,2.35311425031658,2.35330012028093,2.35080132364573,2.34830587181957,2.3478681114488,2.34846667064205,2.35744888591411,2.35486131440514,2.3547321628313,2.35449000013346,2.35472317406319,2.3549540604305,2.35467817955069,2.35490162877878,2.355160597836,2.35527757482229,2.3555443750525,2.35584939958121,2.35646269472737,2.35694079981925,2.35812286983437,2.3584642794009,2.35844215473219,2.35908200854816,2.35865203713737,2.35858482448381,2.35886210905283,2.35919357031218,2.35873678014857,2.35923777346756,2.30359458025724,2.30113813453796,2.29915837635603,2.29846960123275,2.29800948374495,2.29804923502658,2.29704579181523,2.297358172834,2.29731632360587,2.29732904689642,2.297095501729,2.29884776173422,2.29783797844884,2.29714046109339,2.29781803449311,2.29761269480495,2.29765489935061,2.29800849154728,2.29820893356183,2.29924677361339,2.29969611878298,2.29976087068523,2.30001342345922
2.27169318005442,2.271789457857,2.27200111744278,2.27203082667711,2.27239564593054,2.2726844398176,2.27295477595843,2.27292542443229,2.27339598240818,2.27381694819169,2.27439836962165,2.27481615777007,2.27512797502589,2.27559695968191,2.27590623364908,2.27685134926045,2.27812395048086,2.28016723931149,2.28139939355504,2.331339403107,2.33191169382561,2.33188613013763,2.33282743352569,2.33339820010107,2.33297188908892,2.33250936084196,2.33193696276012,2.33108236492654,2.32978199226853,2.32817532522394,2.3271146746874,2.32628227283413,2.32593385326832,2.32508139827347,2.32470845763577,2.32418702254808,2.32380872693616,2.32355729998798,2.32330858027802,2.32354922387282,2.32365274444331,2.32408333758706,2.32430800918584,2.32475428476466,2.32518135236875,2.32579496331748,2.32651295798882,2.32729455693693,2.32855492030674,2.32928738462157,2.32983597664035,2.33038312331383,2.33123412589803,2.33154584796074,2.33210912898099,2.33255520879558,2.33245113756228,2.33199096902241,2.2880635872252,2.28700828114185,2.28583117979195,2.28552681663388,2.28560018819093,2.28519419915667,2.28510771886493,2.28492213033501,2.28469225886454,2.28454003524967,2.28410170419871,2.28386024429618,2.28378300843915,2.28358438163005,2.28353234351739,2.28312403889502,2.28317239929383,2.28310031424164,2.2830742173821,2.28296020419963,2.28301833472354,2.28281334393346,2.28290073418398,2.28290848964685,2.28278100682603,2.28278491292249,2.28301556526122,2.2829398274932,2.28277685117507,2.28271479522426,2.28278822366778,2.28267085439677,2.28294454456934,2.2830390585798,2.28301646736793,2.28310016270106,2.28333564262412,2.2833937542379,2.28339355374717,2.28383522203056,2.28374521977101,2.2839245864544,2.28414848100952,2.28434179416919,2.28474705774109,2.28491285588956,2.28514806896321,2.28542854610311,2.28580693849593,2.28595256827371,2.28646130717984,2.28626248599395,2.28655875774622,2.28725417514613,2.28830767839575,2.28953737167162,2.28995963896271,2.31008939415537,2.32784889766542,2.35453267014192,2.3540097355286,2.35376574596434,2.35370193848745,2.35350962722347,2.35321922754309,2.35272204033252,2.35132918605498,2.3502947027269,2.34910139285825,2.34928017646729,2.35221151476774,2.35534991043417,2.35532086211111,2.35517288822156,2.35501285512593,2.35487154345167,2.35487916069929,2.35489384651707,2.35516709773224,2.35547747819255,2.35567245883226,2.3558999698564,2.35612497982167,2.35658102586165,2.35712799142548,2.35809394846984,2.35845987192748,2.35868820913095,2.35900510063259,2.35907740783234,2.35910614983309,2.35915674728916,2.3591875045364,2.35859597883441,2.33018574483231,2.30202678579885,2.30059052075955,2.29882089208693,2.29798303221365,2.29774283990553,2.29786910394842,2.2979232334549,2.29765600122754,2.29739535289044,2.29724651718022,2.2973206546036,2.29773061735851,2.29761688824264,2.29746515010767,2.29739885214578,2.29759970814824,2.29768140390468,2.29816458628286,2.2986552486615,2.29918615720168,2.29959949439134,2.29975025118054,2.29996826882926
2.27160494760185,2.27182892491809,2.27192160483115,2.27199116539893,2.27220558188746,2.27277290137522,2.27294713312423,2.27305531011608,2.27303059090546,2.27363391193614,2.2742200174933,2.27435745249958,2.27520940623004,2.27526810954038,2.2762192713569,2.27677437315804,2.27845496493704,2.27961359734441,2.28169057648627,2.33065854157364,2.33174093604292,2.32864212574184,2.33398950769627,2.33342286804825,2.332876280744,2.33230204350815,2.3315764257473,2.33080736040242,2.32975027015726,2.32823073044032,2.32743393316251,2.3267969812655,2.3260262270061,2.32562527453947,2.32520791324787,2.3246493966982,2.32415708022206,2.32379037938528,2.32373064796269,2.32358015659732,2.32411295999049,2.32410813775162,2.32505382682908,2.32468209825036,2.32590435263594,2.3262992285657,2.32677209095922,2.32798351212567,2.32894584135322,2.32978108528515,2.33004500101697,2.33075672601261,2.33165893613898,2.33173210330502,2.33208340200426,2.33300222086915,2.33374874819049,2.33328657099102,2.28883739940018,2.28705154623326,2.28595804688372,2.2862325935285,2.28585207318966,2.28536311715717,2.2849536582029,2.28481895709123,2.28458637718635,2.28429170592253,2.28420654907639,2.28355923269337,2.28363622655259,2.28367697510769,2.28309752859786,2.28331080174384,2.28287530504293,2.28310115323122,2.28280807741914,2.28289393947715,2.28279419386972,2.28301487643553,2.28303201343426,2.2833057228982,2.28272971934698,2.28283211505731,2.28277415532006,2.28285518762111,2.28246032868272,2.28275973365446,2.28279191461807,2.28285196915418,2.28311412645217,2.28354038195283,2.28297473873663,2.28313530370125,2.28393970914517,2.28362725598529,2.28330320681855,2.28394063693256,2.28378070654127,2.28414984857947,2.28438468492538,2.28462521393804,2.28479054992956,2.28510308782392,2.28554492263317,2.28566308656783,2.28548839955968,2.28645492808353,2.28689802201532,2.28683997532008,2.2867950317658,2.28727814023419,2.28916880018566,2.28999207020969,2.2910314264612,2.32065649846869,2.35462290512491,2.35387967688837,2.35371529635682,2.35399828278773,2.35384155661173,2.35356510432449,2.35267054350141,2.35321380457772,2.34921450804267,2.35013331588918,2.34864853324428,2.34869736406698,2.35534910243437,2.357263819662,2.35602359715575,2.35576315989241,2.35579377151201,2.3549607781056,2.35505801786268,2.35518876379935,2.35547086249964,2.35627625183763,2.35600962610325,2.35658222301374,2.35652216433706,2.35660671193319,2.35741880177808,2.35844569828817,2.35911920894159,2.35899765660594,2.35942343555874,2.35890090459766,2.35920424337171,2.3583576573682,2.3587381363354,2.35723663124125,2.30339037732092,2.30147860894729,2.30068640022774,2.29863893843665,2.29785986720042,2.29782803842603,2.29816882912157,2.2991704373771,2.29801411927027,2.29719320768979,2.2972060117584,2.29705591740128,2.29723792499257,2.297526386618,2.29733585180924,2.29732052545098,2.2971765116628,2.29772142359732,2.29824490220204,2.29902478775614,2.29941084941663,2.29957267652098,2.29938556722031,2.2998402125835
2.2716738258137,2.27172040020798,2.27204154672424,2.27206541292824,2.27237250239325,2.27266221282786,2.27297482235498,2.27315225878912,2.27364319784372,2.27383273274525,2.27429672458559,2.27459938519664,2.27490215317771,2.2755723344935,2.27622850903515,2.27718891803067,2.27843733570171,2.28027656602932,2.28113398675124,2.33312950181815,2.33392173297637,2.33355616916948,2.3342869403378,2.33441607289134,2.33340156324769,2.3327116470283,2.3319691106109,2.33142366173762,2.32990134690107,2.32881697634063,2.32789057867138,2.32704892137269,2.32638787958504,2.32552925641564,2.32533833567685,2.32510733227705,2.32500366514507,2.32487390964357,2.32439818034267,2.32445340408285,2.32458736837768,2.32504593063209,2.32532631644271,2.32590030029768,2.32632016174026,2.32687420575957,2.32754385098362,2.32813078145376,2.32923071242448,2.32990281743083,2.33047401146221,2.33101283047682,2.33196029546712,2.33208894534649,2.33269505227967,2.33320195765728,2.33303913098174,2.33267788790225,2.28807224981404,2.28694661191387,2.28566632198388,2.28530589158949,2.28526657593955,2.28483565532469,2.28481163144044,2.2845501278364,2.2842271157943,2.28411414693344,2.28378314817477,2.28358227558654,2.28357881852883,2.28339677018349,2.28334175196383,2.28303664973282,2.28321227669203,2.28309876386513,2.28300450011434,2.28293551802452,2.28291817284254,2.2828718129005,2.28297544786659,2.28295779446635,2.28296098036678,2.28276333652861,2.28286602328083,2.28280982031873,2.2827963532405,2.28266609779854,2.28292562624369,2.28296461624224,2.28327739851963,2.28336145606317,2.28346074251124,2.28339467129733,2.28379045271785,2.28374600410661,2.28367057954379,2.28377687591283,2.28397293047507,2.28424891672212,2.2845150593236,2.28466853084514,2.28489118160663,2.28507664004923,2.28552249958064,2.28573093550494,2.28599047780739,2.28616541057505,2.28668290466324,2.28673429163722,2.28702704529488,2.28773353217526,2.28917400311604,2.2904375070855,2.31592959367911,2.33133587473123,2.35289352631427,2.35267681931189,2.35303398810496,2.35372362389803,2.35373778842609,2.35353074980788,2.35339407024155,2.35316620333995,2.35250407254876,2.35250889749865,2.35263225983993,2.35327539618568,2.35552156530289,2.35631964865507,2.35602843893223,2.35588131350577,2.35585411121978,2.35588751520555,2.35554048722327,2.35554729345512,2.35584338078127,2.35626090840381,2.35656280699179,2.35689206346535,2.35699781074769,2.35732343717478,2.35781977396504,2.35862452737077,2.3589998976702,2.3592692090568,2.3594515180349,2.35942266142352,2.35928843823391,2.35914245173028,2.35883717314311,2.35802624827302,2.30237947663395,2.30100843161359,2.29958650317905,2.29829555455954,2.29769886159765,2.2974885300677,2.29756282932364,2.29809417715632,2.29789753093165,2.29769341029502,2.29736615190722,2.29753846633793,2.29790251227425,2.29777062872809,2.29758845271962,2.29734574022891,2.29765652634968,2.29786464664142,2.2983024685817,2.29864804306407,2.29896285979098,2.29932012150073,2.29973514353229,2.29994317017365
2.27158583094315,2.27160342418909,2.27203771035733,2.27227305645868,2.27213987943965,2.272631227709,2.27246346035917,2.27373882154808,2.27380637845093,2.27410608360486,2.27435609697696,2.27431379597207,2.27510834004906,2.27545710339707,2.27725525474336,2.27733279562012,2.27899167499532,2.27961987622694,2.28122775224879,2.33784106158285,2.33626895267975,2.33525395334079,2.33566900476797,2.33536004348131,2.3338727995062,2.33302773634033,2.33265607546544,2.33267102228463,2.33010657303077,2.32919404647743,2.32833246036417,2.32776742399859,2.32626298557049,2.32564025751302,2.32512192409777,2.32564014264367,2.32630804858654,2.32581493034413,2.3253044602781,2.32477704290692,2.32528251253566,2.32548239839087,2.32642072641997,2.32643250322558,2.32729666679426,2.32747772674393,2.32799204962992,2.32873683834573,2.32912507521849,2.33095526300549,2.33081675272895,2.33128403391499,2.33260501153105,2.33187424212099,2.33262435073737,2.33326621461233,2.33279942749613,2.33192328010343,2.2882752347115,2.28687445493492,2.285493572756,2.28569855998601,2.28485206271274,2.28519851904642,2.28430677891248,2.28436220473501,2.28377144322137,2.28386978436226,2.28357798112263,2.28321699187055,2.28347654317175,2.28357501986482,2.2829497538813,2.28323824412608,2.28311192918818,2.28319850723215,2.28296521986447,2.28306575496313,2.28299543506458,2.28260765411713,2.28282110410278,2.28284322583717,2.28298032090209,2.28289237172009,2.28268845007676,2.28290209820887,2.28264057732706,2.2829734991346,2.28253462836718,2.28330945679396,2.28329654938402,2.28344032964609,2.28377229651799,2.28356569121761,2.28380231601415,2.28389106784696,2.28367652173543,2.28370613166626,2.2839848829175,2.28441712721126,2.28463125320802,2.28460725097003,2.28501352551947,2.28487427556965,2.28557221019298,2.28588777435093,2.28589961241286,2.28651827054052,2.28630158029009,2.28742294596763,2.28714055284595,2.28769722168103,2.28899713601347,2.29163653628778,2.35178304184911,2.35157899411071,2.35126613608867,2.35114336560958,2.35180289184169,2.3539917209537,2.35350966485977,2.35335460921126,2.35417832270125,2.35377790477762,2.35529712643074,2.35505607628829,2.35615925184617,2.35607216802138,2.35701692939741,2.35677759220442,2.35631587477417,2.35603833278102,2.35612560439112,2.35727381305309,2.35592292826496,2.35597284656694,2.35613606687882,2.35677927257096,2.35701121947336,2.35779327533045,2.357596563201,2.35788533271825,2.35842084203101,2.35901203745887,2.35946399261,2.3595935120774,2.35983685801023,2.35901980051437,2.35906039152526,2.35860238373854,2.35816740748065,2.35642289222026,2.30226069571752,2.29947365295438,2.29884595724958,2.29799206069609,2.2980893021233,2.29721043680421,2.29687757681155,2.29761228824145,2.29791789573343,2.29802475403464,2.2974509151296,2.29753132630546,2.29925852921944,2.29815720784758,2.29746334099537,2.2975607276145,2.29757045140095,2.29831528378787,2.29828067774353,2.29844393231192,2.29838851989849,2.29905984194568,2.29984924713269,2.30010871919494
2.2718170017764,2.27179860678776,2.27207627502295,2.27215587004961,2.2724254934477,2.27267319407335,2.27293536123602,2.27330514064031,2.27382472528278,2.27411208426857,2.27454154532,2.27485243106579,2.27509296165257,2.27581972749564,2.27653752219964,2.27741314539203,2.27852703027333,2.28006181266514,2.28074702455144,2.33726890547181,2.33669797372105,2.33618111104745,2.33572103761711,2.335461683406,2.3340939406148,2.33332137503171,2.33259136803061,2.33211308334426,2.33070841920411,2.32971397380586,2.32877086160274,2.32787457230328,2.32710954874203,2.32632888014142,2.32605914407291,2.32604131406252,2.32620870765197,2.32625555981691,2.32614980870597,2.3258460645104,2.32583641920475,2.32622525124209,2.32640920811393,2.326992734171,2.32742820944885,2.32790965596735,2.32849044543618,2.3289553664489,2.32988223575638,2.33056016385274,2.33112346963779,2.33170109534858,2.33257965713062,2.33306950603518,2.33376545341624,2.33362482419248,2.33242055967627,2.33148046523364,2.30853400031228,2.28584832601171,2.2850373019455,2.28493649329809,2.28492170882899,2.28450647079059,2.2845342154116,2.2844267505191,2.28427863536889,2.284109631386,2.28396132577139,2.28372023083377,2.28369127232224,2.28346570650992,2.2834818050215,2.28320075392692,2.28331859673654,2.28319283180728,2.28305207499723,2.28304010566311,2.28291032748785,2.28286579929761,2.28288951352737,2.28280084975229,2.28291252816846,2.28271454010342,2.2828421208469,2.28286027999121,2.28295315960107,2.28288183084029,2.28325903339021,2.28328545393108,2.28357261999233,2.28353425820235,2.28381775639865,2.28361531857812,2.28388437006853,2.2839182919196,2.28401419445486,2.28402623073043,2.28435929546746,2.2847173282646,2.28498668796104,2.28508005429927,2.28522234438341,2.28535389364922,2.28561063705631,2.28594362878547,2.2862929197936,2.28654504036778,2.28701239137205,2.28710624642077,2.28754122902932,2.28830331254815,2.29001070353762,2.29103907662706,2.35120177686174,2.35110555106979,2.35066497086989,2.35070759965407,2.35160266855517,2.35220573179096,2.3529038037994,2.35325080097292,2.35318700417862,2.35532311459043,2.35670100486788,2.35654147319832,2.35674659169958,2.35687002906575,2.35703717224412,2.35696877893832,2.35663053307905,2.35651787861979,2.35655614538314,2.35687540196774,2.35652628091737,2.35648013243894,2.35675045019996,2.35715903008471,2.35762204194964,2.3578358058046,2.35799564879011,2.35842364306006,2.35914731827661,2.35963020377345,2.3598747029664,2.36005938783335,2.35994015747248,2.35963208659778,2.35937259282417,2.35931192276372,2.33983171343198,2.32516664278065,2.30105105312647,2.2997474895454,2.29856089639588,2.29782814020723,2.29763904890237,2.29774559051673,2.29748266474343,2.29783256143529,2.29781169038732,2.29785930743512,2.29754136754652,2.29780416331991,2.29815666145314,2.29802440273405,2.29787660306256,2.29776124472065,2.29807781614706,2.29808382029359,2.29838994806893,2.29852664260559,2.2987965312229,2.29916822663195,2.29990336554811,2.30050266874009
2.27191733275841,2.27188899921289,2.27197822220894,2.27217968214271,2.27236039929869,2.27275047268287,2.27262210195374,2.27349758749852,2.27335401135322,2.27433552933675,2.27466887304024,2.27495237449959,2.27542191085622,2.2758059253905,2.27692639026946,2.27727109607129,2.27877357553774,2.27908479017511,2.28076178591007,2.33626670387876,2.33656020287554,2.33554082691923,2.33572956213901,2.3354338439421,2.33403585626523,2.33340769937795,2.33277299626592,2.33214237750328,2.33139020161001,2.33012737537275,2.32924157263558,2.32845924301571,2.32733525847992,2.32734710264294,2.32637084238209,2.32650751599409,2.32651571844511,2.32657201696083,2.32774046826112,2.32630935490369,2.32648797572735,2.32655398982805,2.32706763398837,2.32689118553424,2.32819091572125,2.32838932410252,2.32874133812669,2.32962588456822,2.33014101499237,2.33102254039935,2.33141842767937,2.33203901632081,2.33288277893665,2.33360874788784,2.33485025682897,2.33390616289453,2.33130155808861,2.33064978408887,2.33059614829701,2.28635273996492,2.28523588154349,2.28606524131252,2.28514887520541,2.28479787079448,2.28424355475061,2.28463853615854,2.28469428530605,2.28434646295057,2.28447135611385,2.28402426571555,2.28378930606226,2.28372514608022,2.28341884312321,2.28370584698836,2.28310526893839,2.28324990940146,2.28305679688524,2.28293179278899,2.2830160095999,2.28284780940369,2.28294374691268,2.28276838943867,2.2827586424634,2.28269347794169,2.28262449219756,2.28297356828265,2.28265953707441,2.28338589647989,2.28333383450402,2.28373523416051,2.28365341771932,2.28390147706809,2.28357864907548,2.28401285334358,2.28360042368,2.28410035883109,2.2839376003979,2.28462272752784,2.28420616117508,2.28541366076032,2.28534482962755,2.28538617037408,2.28560184568776,2.28561023378156,2.2855496956539,2.28606513111565,2.28617093684745,2.28735759897227,2.28756445062925,2.28765289380815,2.28765935114289,2.28879554656213,2.28999888487186,2.29117913754509,2.34896536285278,2.34964702886076,2.34813107601275,2.34881989916794,2.35079815063158,2.35012288114727,2.35260390740512,2.35374383430224,2.35034099974422,2.35746838193288,2.35986511740435,2.35797337391927,2.35775607937773,2.35760814582806,2.35764899033509,2.35752125350439,2.35710125064465,2.35697976782854,2.35698572794249,2.35722867886701,2.35705559772607,2.35704129628955,2.3572193372051,2.35799137775858,2.35830573401236,2.35836723653114,2.358440604344,2.35879297613878,2.36049411380138,2.3603094615447,2.36049292562427,2.36047431814893,2.36021549547797,2.35960769695558,2.35974816693617,2.35964401035405,2.33030880707669,2.30288911028507,2.30062226046213,2.29977171836273,2.29808418310495,2.29777143443422,2.29772070382563,2.29843348570144,2.29809837547464,2.29800419901918,2.29791217732424,2.29758191034875,2.29769042841815,2.29747497668561,2.29786032148419,2.29797099790893,2.29777298341718,2.29835327796643,2.2981406675721,2.29816822894619,2.29846931790104,2.29865684446279,2.2989774918389,2.2989807489861,2.29965860008431,2.3009373896157
2.27218373024156,2.27219518483505,2.27224674596072,2.27231903825778,2.27257813181532,2.27281699838876,2.27302686692314,2.27325242049304,2.27370887965321,2.27414422918119,2.2746760270419,2.2750720642464,2.27526693164099,2.27599854871988,2.27653539298339,2.27742907559353,2.278568518555,2.28013616427186,2.28074421769764,2.33649952184059,2.33659317991668,2.33631524422994,2.33580413081841,2.33564590041654,2.33471749563086,2.33400039561283,2.33316583740857,2.33246858377774,2.33173505430539,2.33089877626894,2.32987826787589,2.32893629757536,2.32832749968976,2.32781354666989,2.32723864239941,2.32705227335028,2.32709939678292,2.32701188144144,2.32727124117717,2.32701644107199,2.3269251487289,2.32719126337694,2.32731177201654,2.3278048570197,2.32836295366328,2.328891123428,2.32948421383323,2.32993882709138,2.33070885050348,2.33121369998578,2.3318786679672,2.33258719454002,2.3333351218891,2.3341925345207,2.33476528455773,2.3345013209714,2.33308389211988,2.33146657697377,2.30871752536711,2.2861418825997,2.28524365825583,2.28510142453545,2.28505170902987,2.28457649704567,2.28471082942561,2.28467200572974,2.28464917479505,2.28430214576215,2.28430233608575,2.28410107107472,2.28398383966837,2.28367236743354,2.28372036981123,2.28344016431139,2.28346976018662,2.28337038057745,2.28323018089554,2.28327496801625,2.28303366687499,2.28313838252223,2.28308827127347,2.28297649232774,2.2829664815145,2.28291265625828,2.28303597231253,2.28313802084599,2.28330131215173,2.28337605104807,2.28389092672158,2.28385253740376,2.28402308297383,2.28386846989712,2.28407865256479,2.28382451123542,2.28417222543587,2.28425505892287,2.2844846833814,2.28462718093487,2.28512759810181,2.28546599311835,2.28563028860358,2.28571490940545,2.2857411297089,2.28591696511889,2.28596474246038,2.28629125706223,2.28662594538793,2.28696146023094,2.2875796975678,2.28757695113439,2.28806833196915,2.28903835613145,2.29065196177194,2.2912562751738,2.34872108955593,2.3490398529061,2.34851715552924,2.34871124258437,2.35020429476058,2.35257967703563,2.35378605702729,2.35459185476296,2.35490660946796,2.35748641297558,2.35846308008878,2.35815985007503,2.35807133251425,2.35803888152037,2.35783640689044,2.35758828830934,2.35741230627663,2.35747963722311,2.3574151858553,2.3578572689123,2.35766260812407,2.35756201844392,2.35780900380189,2.35814207122432,2.35867893816986,2.35877621074062,2.35900622489365,2.35944604836173,2.36022933012889,2.36071640969031,2.36094638903929,2.36089127554926,2.36059673258763,2.36034560472198,2.36028531673137,2.33522602301381,2.31987255722927,2.30142433622825,2.30035562214068,2.29928483283528,2.29853648580023,2.29799103546001,2.29785863067128,2.29811787492843,2.29759970665815,2.29777337880793,2.29774079230543,2.29788902039243,2.29769640022849,2.29805241341296,2.29811540545699,2.29815975645814,2.29819513867662,2.29819493823107,2.29844447729423,2.29849017357117,2.29899087797749,2.29941487475256,2.29954683458917,2.2997953351777,2.30060871615803,2.30108881352131
2.27237409170541,2.27254839725523,2.27232546846262,2.2724423670387,2.27257106162273,2.27293590957926,2.27279117320245,2.27350707289221,2.2733972828801,2.27419111646732,2.27465210201805,2.27488488533625,2.27542328037135,2.27601155420554,2.27704217260588,2.27736451589454,2.27899504440929,2.27988107197243,2.28105534283813,2.33565158011274,2.33641422449072,2.33571914619472,2.33579126003103,2.33526873173626,2.33557816221672,2.3345148190423,2.33395508015036,2.33246055384146,2.33269851665201,2.33177335257292,2.33055202665681,2.32964466429341,2.32866058465935,2.32912576776498,2.32735928781638,2.32765929915899,2.32793539152463,2.3270904423244,2.32759818658557,2.32743355643403,2.32742759469107,2.32742148715557,2.32820684310399,2.32788441230939,2.32922303710174,2.32947257856758,2.33004634817281,2.33078944955355,2.3308875183343,2.33189452151064,2.33241140920468,2.33303410182561,2.33403151507602,2.33419479912515,2.33489865931004,2.33495761635409,2.33483986278767,2.33097056706863,2.28833010987022,2.28755613608013,2.28592048431255,2.28604974439029,2.2851224774267,2.28518182353485,2.28464620241147,2.2848537042443,2.28465524097143,2.28414973759101,2.2841472972698,2.28426795794937,2.2840210646321,2.28389947890849,2.28348632401252,2.28377648495801,2.28334867084615,2.28350278788597,2.28344904989801,2.28343131640907,2.28325725620159,2.2831573527894,2.28328054925629,2.28306481035868,2.28307257887518,2.28318545636392,2.28315574386575,2.28340722683707,2.28328428944383,2.28397847815365,2.28399031047175,2.2845481876499,2.28412642059782,2.28427041647429,2.28397432552201,2.28414533629515,2.28416351845515,2.28457378425621,2.28443884337528,2.28503817890761,2.28555824932483,2.28610106510783,2.28585811964246,2.28582186738547,2.2861512046276,2.28599362943263,2.28627759075803,2.28651479350156,2.28651799792318,2.28727260998067,2.28781132076355,2.28841825876231,2.28820774552091,2.28965467965094,2.29020247944653,2.29149848539292,2.34722556302111,2.34849514874084,2.34696533154362,2.34711027230322,2.34810947728699,2.35609737866901,2.35538835993034,2.35622440308037,2.35721181234107,2.35891969145893,2.35870089998679,2.3584028476093,2.35876683563795,2.35851791135471,2.35850419930879,2.35761439602964,2.35786115834543,2.35827809471719,2.35755801134834,2.359295475406,2.35836352442174,2.35816185509186,2.35823956868257,2.35869591019129,2.35919590598852,2.35957078719428,2.35961763323596,2.36001469647058,2.36034276882937,2.36120827994405,2.36132804562296,2.3611650808568,2.36076266716639,2.3614044692026,2.36125721558981,2.30314697498396,2.30131704942967,2.30177198317391,2.29969446825066,2.29980300041427,2.29878701757376,2.29832932194477,2.29828968885966,2.2979291544977,2.29726573772934,2.29711236393714,2.29775136271852,2.29797389879987,2.2978759668697,2.2983367706398,2.29876506221375,2.29840008945806,2.2982226045769,2.2985450097233,2.298259702651,2.29891853488466,2.29942747727742,2.30056527542224,2.29997885362994,2.2999832116748,2.30156542119561,2.30118991428568
2.27251965019496,2.2726063491666,2.27248701180905,2.27250551022873,2.27278711294327,2.27312505633574,2.27339746935499,2.2733982919238,2.27381512383159,2.27414722685808,2.27466136086113,2.27501532162419,2.27531276344912,2.27612999555557,2.27674425912512,2.27745724770351,2.27849418890096,2.28041836726572,2.28121101635789,2.33630176898217,2.33647886583099,2.33625796637266,2.33591019929498,2.33602250906793,2.33554517632381,2.33507466545278,2.33454727174427,2.33419296428381,2.33315485975632,2.33199946928197,2.33114907208757,2.33045426764766,2.32992045445467,2.32910394103172,2.32836005988496,2.3281765704564,2.32826391116019,2.32781595903013,2.32772945288828,2.32770757962264,2.32770758792921,2.32796454266641,2.32822319229149,2.32877399592426,2.32933407235153,2.32991800825179,2.3305274514087,2.33105274223433,2.33183152987102,2.33240191219893,2.33307871248721,2.33382555583834,2.33442008103357,2.33506695084394,2.33518245021365,2.33527485416877,2.33423641336144,2.33220019540475,2.28879681343495,2.2875555404758,2.28618036950776,2.28576275189135,2.28563458096377,2.2850445945636,2.2850556349604,2.28488055308664,2.28474138064468,2.2844447896967,2.28460360344642,2.28434840796726,2.28423548023543,2.28394283018633,2.28394610975536,2.2835972850737,2.28368106126396,2.28362574252607,2.28351966380603,2.28350146166818,2.28327857144566,2.28353647947075,2.28350160928334,2.28340877312914,2.28328280367355,2.28336896701185,2.28349720892924,2.28358935454278,2.2837204025819,2.28371098475945,2.28407068762925,2.28410990367983,2.28430230851101,2.28420160023817,2.28459720030035,2.28426842496664,2.28467286828025,2.28468975583972,2.28487589317933,2.28501035656219,2.28552001129244,2.28571715774153,2.28581462776336,2.28586401110585,2.28591811277071,2.28627290929936,2.28644803790289,2.28677737699572,2.2870728877666,2.28729196053347,2.28782376124363,2.28783583828303,2.28835138456922,2.28946921951443,2.29102879309753,2.29200776881643,2.34847330106549,2.34984005943468,2.34942975293007,2.34842625026661,2.34987460198488,2.35437164525809,2.35548382200713,2.35625475854379,2.35718268154482,2.35813669705419,2.3584172172699,2.35849824498394,2.35865759418952,2.35866717004398,2.35849170718038,2.35830422050417,2.35831775624719,2.35856798156053,2.35851410407448,2.35879683352122,2.35862394893537,2.35857447186821,2.35887215090006,2.35917247483774,2.35972532963293,2.36008755471858,2.36039057935455,2.3608376637423,2.36110600329714,2.36122927767988,2.36121836377555,2.36102720228844,2.36040632985315,2.36020613739017,2.33318644652841,2.30160704239902,2.3002700558853,2.29962952788339,2.29913978733043,2.29876032649298,2.29882542347075,2.29847981044327,2.29824644780129,2.29783983422762,2.29736670046361,2.29752674802188,2.29760952529499,2.29790061448498,2.29789340341395,2.29823893639157,2.29841979458918,2.29843763353242,2.29844980264977,2.29846049307283,2.29882202839473,2.29913395001698,2.29946163829679,2.29974945120831,2.29984726044112,2.30023301877877,2.30104711113953,2.30126837300586
2.27260859078068,2.27282625978439,2.2724972467981,2.27231458097557,2.2728108126971,2.2733534535624,2.27371263517578,2.27355960468609,2.27368514659904,2.27421314822138,2.27467249305654,2.27467326353395,2.27557550154118,2.27607518087491,2.27765246950143,2.27728092325576,2.27817200020197,2.27982170144956,2.28185146693211,2.33574898325007,2.33631757940209,2.33530460286514,2.33580435534207,2.33599757654812,2.33589107213851,2.33548410430116,2.33554908121727,2.33617871907922,2.33431690836003,2.33179066405942,2.33173809698858,2.33162561266827,2.33094750290948,2.32975919827692,2.32845172403524,2.32877146230829,2.32910446788104,2.32838966053692,2.32786629271798,2.32800329732033,2.32809860958842,2.3279982220616,2.32892497627503,2.32891488612591,2.33007605811411,2.3304800613504,2.33081768237974,2.33184769352811,2.33241592673928,2.33338129498593,2.33385942413159,2.33448593043147,2.33529999894423,2.3353260008318,2.33542109734326,2.33560383256244,2.33562284191543,2.33101674404092,2.29037520767694,2.28751117023215,2.28662467074381,2.2868869375644,2.28635885839527,2.28568980362074,2.28493854455811,2.28504563795015,2.28469835122074,2.28454980107668,2.28527061716394,2.28447005213632,2.28429166216569,2.28427471341101,2.28396414893878,2.28381608694052,2.28359148011202,2.2837627550235,2.283714536463,2.28331031136285,2.28335258675537,2.28380407011576,2.28382064886696,2.28370224011269,2.28328944867108,2.28361281414372,2.28370367246793,2.28383872851574,2.28368962308864,2.28394125873874,2.28361570539442,2.28418531115514,2.28420178715111,2.28444274418801,2.28484072101888,2.28480655849418,2.28473464479211,2.2849378008349,2.28482918519197,2.28517845038146,2.28534763257395,2.28565836225959,2.28579233450324,2.28541888746268,2.2860643505321,2.28611755533969,2.28681932928971,2.28701537384847,2.28720441429013,2.28806055524978,2.28814689294513,2.28836942643928,2.28837674000815,2.28962703098165,2.29063755739762,2.29290453229458,2.34736530890063,2.35199330313886,2.355721858306,2.34659175334491,2.34808718147769,2.35565945746719,2.35601806960825,2.35620533329209,2.35765321132753,2.35788314141105,2.35881827634809,2.35873181789123,2.35910890351763,2.3588822061551,2.35888695144965,2.3588737085378,2.35890368289762,2.35940844580838,2.35922389266236,2.35905226962332,2.35887661524612,2.3591081043348,2.35937778621491,2.36007367200435,2.36009959591905,2.36125759458737,2.36121880059426,2.36218167411939,2.36178706646564,2.361185507131,2.36076732798305,2.36083284024606,2.35989885396764,2.35939654823036,2.30406638388093,2.3029203485189,2.30037583457519,2.29942237451045,2.29881740391026,2.29890656475032,2.29917228727885,2.29868665687739,2.29890216564329,2.29704525722317,2.29773451132218,2.29736303264329,2.29761325759968,2.29762132998178,2.29820298112269,2.29779771701058,2.29858017842587,2.29849377799987,2.29840212022295,2.29855939258269,2.2989665542891,2.29973161618906,2.29943119127643,2.29918592071177,2.2994334998171,2.29995151421008,2.30083343744725,2.30117897490567
2.27263460837997,2.27256574662889,2.27245450447327,2.27260648302965,2.27301956517187,2.27339211541985,2.27366847204654,2.27368351527378,2.27409487470048,2.27452375235876,2.2749067581148,2.27514885845635,2.27531954568982,2.27598434739524,2.2766049488837,2.27733829332861,2.2783149718581,2.28024741004979,2.28101938947381,2.33637586345937,2.33655008481675,2.33624424457644,2.33622077224475,2.33665695943463,2.33632337438867,2.33596386812249,2.33559844625773,2.33544532804583,2.33409568098705,2.33311237636285,2.33257776722093,2.33220455427323,2.33138914005277,2.33022488695074,2.32957353233071,2.32918965966831,2.32907871149482,2.32872678326936,2.3286499452217,2.32856128423141,2.32855150518832,2.32876109155934,2.32921749265843,2.33011330308954,2.33077095489049,2.33132585091197,2.33199154658757,2.33254027935574,2.33343592106843,2.33395390640232,2.33465768073112,2.33556400934103,2.33610651376419,2.33686903863715,2.33678785555328,2.33655684096121,2.33560699516254,2.33465401041718,2.28900238642463,2.28794500937351,2.28683981622298,2.28659375917723,2.28634282869553,2.28562331998088,2.28544336410007,2.2851388376275,2.28490107221057,2.28463200311384,2.28463136596181,2.28442224442073,2.28441414153384,2.28427174814596,2.28434846119499,2.28402568487229,2.28405023990605,2.28390138288532,2.28369700879431,2.28356038759013,2.28354019365618,2.28389992326446,2.28403197327466,2.2840457132651,2.28381053788808,2.28381162335895,2.28399269566916,2.28398560768145,2.28396786864778,2.28383412235664,2.28389889463956,2.28403695000905,2.28441109587535,2.28449937275031,2.28499662479909,2.28473040302236,2.28496897959994,2.28491494286654,2.28494212491929,2.28525411508118,2.28550299089963,2.28574812662693,2.28599544866391,2.28621608682558,2.28616033602733,2.28661829118597,2.28676295415125,2.28715197311086,2.28748383675259,2.28764519964221,2.28794519486673,2.2880148044765,2.28859800683098,2.28986186415054,2.29092596614654,2.32137869568512,2.35115186894692,2.35342963450073,2.35479141243237,2.35353621282197,2.35332382810461,2.35554179569938,2.35657198809194,2.35746329456997,2.35807858508114,2.35870712622778,2.35908997434153,2.35900726959771,2.35895651176339,2.35895821575789,2.35905768106215,2.35924521722709,2.35928840496534,2.35956609765512,2.35958956933919,2.3594917740781,2.3595330768043,2.35964309323534,2.36004733041689,2.36032267639655,2.36079479485086,2.36124181781152,2.36162370015103,2.36210316758004,2.36204494153008,2.36173882472306,2.36163193402106,2.36156234951904,2.36077570849396,2.36059332304976,2.30268213437341,2.30202149202793,2.30015007369999,2.29925567074949,2.29912031769004,2.29880170892392,2.29855448085709,2.29822869842596,2.29787805440716,2.29737405618794,2.29718078842508,2.29741448273049,2.29737057150828,2.29742367109086,2.29758420513558,2.29790852713993,2.29825360257651,2.29860129539336,2.29886549362913,2.29894925424767,2.29906686336396,2.29931763935723,2.29951240963202,2.29964174671982,2.29988019845311,2.30016654074352,2.30061625966634,2.30108227708721
