2.24776991760767,2.24850864570765,2.24986630816166,2.25047525970353,2.25157336904133,2.25123395342783,2.25161330028998,2.2535699314737,2.25471795487231,2.25578611577363,2.25814205944382,2.25856133755462,2.26026839843429,2.26279404991124,2.31916699018913,2.3170805824473,2.3177094996135,2.31877766051481,2.31968609642154,2.31968609642154,2.32018523702963,2.31932671518372,2.31754977461891,2.31764960274053,2.31775941367431,2.31903721363102,2.31709056525946,2.31710054807163,2.31873772926617,2.31824857147024,2.31672120120948,2.3168709433919,2.31746991212161,2.31740003243648,2.31769951680134,2.31853807302293,2.31960623392425,2.3195663026756,2.32000554641072,2.32036492764855,2.32134324324041,2.32202207446741,2.32271088850658,2.32340968535791,2.32383894628087,2.32416837908221,2.32423825876734,2.32530641966866,2.32572569777945,2.32587543996188,2.32702346336049,2.3261050446416,2.3268637383659,2.32909988829015,2.33064722417524,2.33114636478333,2.27810768376749,2.27727911035806,2.27628082914188,2.27720923067293,2.27545225573245,2.2765104338216,2.27474347606896,2.27769838846886,2.27527256511353,2.27550216979326,2.27515277136759,2.27564192916352,2.27552213541758,2.2761710182081,2.27662024475538,2.2760911557108,2.2761710182081,2.27698960880537,2.27752868066211,2.27773831971751,2.27794795877291,2.27735897285536,2.27755862909859,2.27998445245392,2.2787066524972,2.27972489933771,2.27943539778502,2.27956517434312,2.28054348993498,2.2805135414985,2.28146190865387,2.28186122114034,2.28205089457142,2.2846464257335,2.28555486164022,2.28709221471315,2.3420875269127,2.34641008457878,2.34584106428555,2.34521214711936,2.34578116741258,2.34792747202738,2.3481570767071,2.34745827985577,2.34766791891117,2.34635018770581,2.34646998145175,2.34667962050715,2.34632023926932,2.34692919081119,2.34681937987741,2.3457512189761,2.34661972363418,2.3467694658166,2.346979104872,2.346300273645,2.34669958613147,2.34699907049633,2.34740836579496,2.34765793609901,2.34824692201656,2.34868616575168,2.34876602824897,2.35086241880296,2.34800733452467,2.34748822829226,2.34733848610983,2.34746826266793,2.34826688764088,2.3492551860449,2.34906551261383,2.28984747086981,2.28942819275902,2.28851975685229,2.28810047874149,2.28806054749285,2.28696243815504,2.28601407099967,2.28578446631995,2.28555486164022,2.28513558352943,2.28517551477807,2.28512560071727,2.28515554915375,2.28542508508212,2.2854051194578,2.28523541165105,2.28501578978348,2.28516553196591,2.28533523977266,2.28531527414834,2.28525537727537,2.28515554915375,2.28541510226996,2.28530529133618,2.28533523977266,2.28607396787264,2.28588429444156,2.28615383036993,2.28660305691722,2.28556484445239,2.28555486164022,2.28593420850237,2.28592422569021,2.28635348661317,2.28661303972938,2.28680271316045,2.2870522834645,2.28720202564693,2.28755142407259,2.28837001466986,2.28842991154283,2.2886994474712,2.2895380036928,2.28970771149955,2.28977759118468,2.2902168349198,2.29005710992521,2.29020685210764,2.29089566614681,2.29099549426842,2.29153456612516,2.29093559739545,2.29364093949131,2.29389050979536,2.29410014885076,2.29969052366138,2.30018966426948,2.36175366687152,2.36101493877154,2.36054574659994,2.3603460903567,2.36058567784858,2.36175366687152,2.36271201683906,2.36247242934717,2.3633010027566
2.24764014104957,2.24847869727116,2.249516909736,2.25012586127787,2.25077474406839,2.25168317997511,2.25246183932374,2.25365977678316,2.25465805799934,2.25583602983444,2.25769283289654,2.25887080473164,2.26084740153968,2.26380231393958,2.31634185434733,2.3177094996135,2.31766956836485,2.31803893241484,2.31845821052564,2.3189373855094,2.31868781520536,2.31842826208915,2.31758970586756,2.31781931054728,2.31822860584591,2.31699073713785,2.31592257623653,2.31684099495542,2.3169508058892,2.31636181997165,2.31628195747436,2.31710054807163,2.31728023869054,2.31654151059056,2.31713049650811,2.31772946523782,2.31765958555269,2.31885752301211,2.31937662924453,2.3194365261175,2.32070434326205,2.32088403388096,2.32195219478228,2.32280073381604,2.32325994317548,2.32580556027675,2.32441794938625,2.32474738218759,2.32488714155786,2.32527647123217,2.32541623060244,2.32567578371864,2.32820143519559,2.32505684936461,2.33015806637931,2.2798846243323,2.27728909317022,2.27655036507025,2.27565191197568,2.27594141352838,2.27606120727432,2.27689976349591,2.27641060569998,2.27515277136759,2.27553211822974,2.27535242761083,2.27611112133513,2.27536241042299,2.27708943692699,2.2757517400973,2.27576172290946,2.27626086351755,2.27677996974997,2.27603125883783,2.27703952286618,2.27723917910941,2.27919581029313,2.27770837128102,2.27840716813235,2.27852696187829,2.27852696187829,2.27871663530937,2.2787865149945,2.27961508840393,2.28062335243228,2.28095278523362,2.28173144458224,2.28218067112952,2.28301922735112,2.28565468976184,2.28619376161858,2.28754144126043,2.34179802536001,2.34611060021392,2.34497255962747,2.34452333308019,2.34509235337342,2.34782764390576,2.34755810797739,2.34785759234224,2.34611060021392,2.34654984394904,2.3453319408653,2.34509235337342,2.345252078368,2.34482281744505,2.34433365964912,2.34482281744505,2.34522212993152,2.3455415799207,2.34565139085448,2.34514226743422,2.34586102990988,2.34627032520851,2.34664967207066,2.34769786734765,2.3475281595409,2.34774778140846,2.34782764390576,2.34824692201656,2.34462316120181,2.3466396892585,2.34690922518687,2.34665965488282,2.34553159710854,2.34577118460042,2.34757807360171,2.29106537395356,2.28956795212928,2.28798068499555,2.28728188814422,2.28630357255236,2.28644333192263,2.2856147585132,2.28551493039158,2.28529530852402,2.28437688980513,2.28558481007671,2.28534522258483,2.28499582415916,2.28452663198756,2.28523541165105,2.28557482726455,2.28567465538617,2.2851156179051,2.28488601322538,2.28481613354025,2.28948808963199,2.2847762022916,2.28556484445239,2.28462646010917,2.28545503351861,2.28618377880642,2.28541510226996,2.2865032287956,2.28594419131454,2.28695245534288,2.28569462101049,2.28585434600508,2.28660305691722,2.28700236940369,2.28651321160776,2.28772113187934,2.2874715615753,2.28722199127125,2.28772113187934,2.28814040999014,2.28879927559282,2.28806054749285,2.28888912090228,2.28946812400766,2.29018688648332,2.29036657710223,2.29051631928466,2.29172423955624,2.28999721305224,2.29158448018597,2.29107535676572,2.29278241764539,2.29198379267245,2.29354111136969,2.29661581751554,2.29671564563716,2.2977239096655,2.29917141742897,2.36167380437422,2.35970719037834,2.35918808414593,2.36049583253913,2.36057569503642,2.36157397625261,2.36235263560123,2.36271201683906
2.24752034730363,2.24843876602252,2.24910761443736,2.24984634253734,2.25094445187514,2.25167319716295,2.25262156431833,2.25293103149534,2.25460814393853,2.25637510169118,2.2578325922668,2.25835169849922,2.26262434210449,2.26404190143147,2.31473462158927,2.31599245592166,2.31678109808245,2.31741999806081,2.31949642299047,2.31800898397835,2.31750984337026,2.31711053088379,2.31743996368513,2.31702068557433,2.31624202622571,2.31589262780004,2.31705063401082,2.31571293718113,2.31559314343519,2.31534357313114,2.31555321218654,2.31559314343519,2.3161122496676,2.31623204341355,2.31649159652975,2.31683101214326,2.31761965430404,2.31788919023241,2.31881759176346,2.31938661205669,2.32089401669312,2.32130331199176,2.32169264166607,2.32244135257821,2.32274083694306,2.32318008067818,2.32389884315384,2.32431812126463,2.32414841345788,2.32474738218759,2.32541623060244,2.32602518214431,2.32629471807268,2.32572569777945,2.32743275865913,2.27874658374585,2.27770837128102,2.2763007947662,2.27594141352838,2.27599132758919,2.27607119008648,2.27526258230137,2.27555208385406,2.27569184322433,2.2752026854284,2.27502299480949,2.27546223854461,2.27542230729596,2.27511284011894,2.27574175728514,2.27619098383242,2.27695966036888,2.27626086351755,2.27653039944592,2.27698960880537,2.27715931661212,2.27732902441887,2.27790802752426,2.27826740876208,2.27881646343098,2.27919581029313,2.27908599935935,2.2792057931053,2.28031388525526,2.28018410869716,2.28157171958765,2.2820309289471,2.28299926172679,2.28387774919704,2.28479616791592,2.28742164751449,2.34104931444787,2.34197771597892,2.34109922850868,2.34358494873698,2.34386446747751,2.34447341901938,2.34497255962747,2.34798736890035,2.34771783297198,2.34594089240717,2.34549166585989,2.34433365964912,2.34509235337342,2.34454329870451,2.34431369402479,2.34433365964912,2.34422384871533,2.34425379715182,2.34459321276532,2.34552161429637,2.34472298932343,2.34517221587071,2.34513228462206,2.34594089240717,2.34607066896527,2.34695913924768,2.34687927675038,2.34764795328684,2.34474295494775,2.34667962050715,2.3462204111477,2.34487273150585,2.34612058302608,2.34484278306937,2.3444933846437,2.34468305807478,2.29053628490898,2.28824023811176,2.28810047874149,2.28682267878478,2.28604401943615,2.28576450069562,2.28655314285641,2.28478618510376,2.28537517102131,2.28529530852402,2.28478618510376,2.28451664917539,2.28496587572268,2.28476621947944,2.28573455225914,2.28537517102131,2.28462646010917,2.28483609916457,2.28487603041322,2.28522542883888,2.28512560071727,2.28530529133618,2.28545503351861,2.28523541165105,2.28489599603754,2.28530529133618,2.28537517102131,2.28536518820915,2.28520546321456,2.28588429444156,2.28609393349696,2.2861638131821,2.28606398506048,2.28713214596179,2.28634350380101,2.28717207721044,2.28683266159694,2.28727190533206,2.28701235221585,2.28800065061987,2.28756140688475,2.28825022092392,2.28840994591851,2.28917862245497,2.28928843338875,2.28981752243333,2.28960788337793,2.29290221139134,2.29113525363869,2.29078585521303,2.29070599271573,2.29179411924137,2.29410014885076,2.29709499249931,2.29448947852507,2.29994009396543,2.29760411591956,2.29978036897084,2.36248241215933,2.357650731073,2.35843937323379,2.36102492158371,2.36008653724049,2.36037603879319,2.36117466376613,2.36488826989034
2.24755029574011,2.24853859414414,2.24988627378598,2.24986630816166,2.2508246581292,2.25123395342783,2.25223223464402,2.25351003460073,2.25468800643583,2.25621537669659,2.25766288446005,2.25882089067083,2.26214516712072,2.31188952012315,2.31421551535686,2.31596250748518,2.3166113902757,2.31684099495542,2.31747989493378,2.31747989493378,2.31718041056892,2.31656147621489,2.31671121839731,2.31587266217572,2.31527369344601,2.31627197466219,2.31355664975417,2.31477455283792,2.31436525753928,2.31513393407574,2.31520381376088,2.31463479346765,2.3152237793852,2.31572291999329,2.31574288561762,2.31630192309868,2.31669125277299,2.3171604449446,2.31865786676887,2.31860795270806,2.31980589016748,2.32061449795259,2.32048472139449,2.32089401669312,2.32253119788767,2.32243136976605,2.32334978848494,2.32354944472817,2.32405856814843,2.32380899784438,2.32453774313219,2.32507681498893,2.32543619622676,2.32566580090648,2.32602518214431,2.27886637749179,2.27671009006484,2.27662024475538,2.27579167134595,2.27556206666623,2.27496309793652,2.27485328700274,2.2750729088703,2.27501301199732,2.27516275417975,2.2750729088703,2.27564192916352,2.27595139634054,2.27547222135677,2.27558203229055,2.27586155103108,2.2758316025946,2.27623091508107,2.27633074320269,2.27712936817563,2.27715931661212,2.27736895566752,2.277398904104,2.27791801033642,2.27841715094451,2.27918582748097,2.27864675562423,2.27926568997827,2.2798846243323,2.28096276804578,2.28114245866469,2.28187120395251,2.28335864296462,2.28387774919704,2.28583438038076,2.28774109750367,2.33810438486013,2.34093950351409,2.34239699408972,2.34205757847622,2.34351506905184,2.34422384871533,2.3444434705829,2.34602075490447,2.34611060021392,2.34431369402479,2.34406412372075,2.34379458779238,2.34373469091941,2.34278632376403,2.34308580812889,2.34488271431802,2.3436847768586,2.34385448466535,2.34406412372075,2.34479286900856,2.34386446747751,2.34443348777073,2.34482281744505,2.34462316120181,2.34448340183154,2.34528202680449,2.34548168304773,2.34560147679367,2.34526206118017,2.34633022208148,2.34919528917193,2.34285620344916,2.34355500030049,2.34560147679367,2.34645999863959,2.28947810681983,2.28929841620091,2.28829015217257,2.2874715615753,2.28736175064152,2.28611389912129,2.28534522258483,2.2854051194578,2.2848560647889,2.28481613354025,2.28500580697132,2.28521544602672,2.28489599603754,2.28454659761188,2.28455658042404,2.28450666636323,2.28469633979431,2.28400752575514,2.28417723356189,2.2848560647889,2.28419719918621,2.28491596166187,2.28430701011999,2.28536518820915,2.28590426006589,2.28472628823079,2.28478618510376,2.28499582415916,2.28492594447403,2.28538515383347,2.2853252569605,2.28563472413752,2.28696243815504,2.28606398506048,2.28562474132536,2.28613386474561,2.28618377880642,2.28704230065234,2.28682267878478,2.28746157876313,2.28636346942533,2.28753145844827,2.28767121781853,2.28834006623338,2.28835004904554,2.28905882870903,2.28913869120632,2.29124506457247,2.29009704117386,2.29052630209682,2.29267260671161,2.29122509894815,2.29190393017515,2.29246296765621,2.29114523645085,2.2934612488724,2.29364093949131,2.30025954395461,2.35803007793515,2.35664246704466,2.35604349831495,2.35803007793515,2.36019634817427,2.35933782632836,2.36085521377695,2.36079531690398,2.36083524815263
2.24797955666307,2.24779986604416,2.24902775194007,2.25020572377516,2.2502756034603,2.25147354091972,2.25209247527375,2.25318060179939,2.25456821268988,2.25573620171282,2.25742329696817,2.25908044378703,2.26198544212613,2.31214907323936,2.31196938262044,2.31319726851635,2.31643169965678,2.31655149340273,2.31732016993919,2.31702068557433,2.31622206060138,2.31658144183921,2.31758970586756,2.31657145902705,2.31464477627981,2.31406577317443,2.31386611693119,2.31503410595413,2.31592257623653,2.3146747247163,2.31458487940684,2.31389606536768,2.31455493097036,2.31496422626899,2.31521379657304,2.31549331531357,2.31648161371759,2.31680106370677,2.31768953398918,2.31892740269724,2.31945649174182,2.32000554641072,2.32050468701881,2.32078420575934,2.32177250416337,2.32181243541201,2.32264100882145,2.3240386025241,2.32376906659573,2.32401863689978,2.32397870565113,2.32459764000517,2.32714325710643,2.32606511339296,2.3263945461943,2.27883642905531,2.27729907598239,2.2765902963189,2.27545225573245,2.27581163697027,2.27539235885948,2.27494313231219,2.2746536307595,2.27518271980408,2.27441404326761,2.27525259948921,2.2752026854284,2.27542230729596,2.27515277136759,2.2761710182081,2.27572179166082,2.2763007947662,2.27682988381078,2.27652041663376,2.27674003850132,2.27716929942428,2.27683986662294,2.27748874941346,2.27764847440805,2.27830734001073,2.27838720250803,2.27997446964176,2.27917584466881,2.27963505402826,2.28035381650391,2.28144194302955,2.28232043049979,2.28275967423491,2.28337860858894,2.28576450069562,2.28787087406177,2.34009096448034,2.33979148011548,2.34050025977897,2.34062005352491,2.34361489717346,2.34392436435048,2.34448340183154,2.3387931988993,2.34414398621804,2.34386446747751,2.34373469091941,2.3429260831343,2.34459321276532,2.34309579094105,2.3429260831343,2.34281627220052,2.34290611750997,2.34375465654373,2.34434364246128,2.34458322995316,2.34380457060454,2.34332539562077,2.34370474248292,2.34440353933425,2.34439355652209,2.34430371121263,2.34476292057207,2.34538185492611,2.34461317838965,2.34489269713018,2.34472298932343,2.34272642689106,2.34628030802067,2.34434364246128,2.34372470810724,2.2902168349198,2.28813042717798,2.28746157876313,2.28596415693886,2.2865032287956,2.28488601322538,2.28527534289969,2.28528532571185,2.28488601322538,2.28644333192263,2.28425709605919,2.28442680386594,2.28555486164022,2.28425709605919,2.28517551477807,2.2846464257335,2.28425709605919,2.2843569241808,2.28457654604836,2.28514556634159,2.28534522258483,2.28438687261729,2.28459651167269,2.28547499914293,2.28506570384429,2.28495589291051,2.28381785232406,2.28439685542945,2.28430701011999,2.28507568665646,2.28534522258483,2.28496587572268,2.28612388193345,2.28550494757941,2.28552491320374,2.28591424287805,2.28623369286723,2.28714212877396,2.28653317723208,2.28564470694968,2.28713214596179,2.28734178501719,2.28886915527795,2.2883600318577,2.28854970528878,2.28922853651578,2.28800065061987,2.28978757399684,2.28909875995768,2.29027673179277,2.29096554583194,2.29128499582112,2.2924929160927,2.29257277858999,2.29222338016433,2.29235315672243,2.2962065222169,2.2975941331074,2.35855916697973,2.35646277642575,2.35714160765275,2.35687207172438,2.35716157327707,2.35929789507971,2.35973713881483,2.36036605598102,2.35987689818509
0,0,0,0,0,0,0,0,0,0,0,0,0,0,0,0,0,0,0,0,0,0,0,0,0,0,0,0,0,0,0,0,0,0,0,0,0,0,0,0,0,0,0,0,0,0,0,0,0,0,0,0,0,0,0,0,0,0,0,0,0,0,0,0,0,0,0,0,0,0,0,0,0,0,0,0,0,0,0,0,0,0,0,0,0,0,0,0,0,0,0,0,0,0,0,0,0,0,0,0,0,0,0,0,0,0,0,0,0,0,0,0,0,0,0,0,0,0,0,0,0,0,0,0,0,0,0,0,0,0,0,0,0,0,0,0,0,0,0,0,0,0,0,0,0,0,0,0,0,0,0,0,0,0,0,0,0,0,0,0,0,0,0,0,0,0,0,0,0,0,0,0,0,0,0,0,0,0,0,0,0,0,0,0,0,0,0,0,0,0,0,0,0
2.24747043324282,2.24810933322118,2.24910761443736,2.24970658316707,2.25065495032244,2.25136372998594,2.25241192526293,2.25378955334126,2.25456821268988,2.25668456886819,2.25863121723975,2.26009869062754,2.26210523587207,2.31079141078535,2.31331706226229,2.31449503409739,2.31539348719195,2.3158526965514,2.31672120120948,2.31634185434733,2.31558316062303,2.31447506847306,2.31491431220818,2.31387609974335,2.31352670131769,2.31356663256634,2.31410570442308,2.31441517160009,2.31489434658386,2.31347678725688,2.31355664975417,2.31361654662715,2.31377627162173,2.31424546379334,2.31430536066631,2.31542343562844,2.31597249029734,2.31663135590002,2.31704065119866,2.31837834802834,2.31892740269724,2.32016527140531,2.32072430888637,2.32112362137285,2.32196217759444,2.32265099163361,2.32345959941872,2.32332982286061,2.32329987442413,2.32392879159032,2.32459764000517,2.32385891190519,2.32471743375111,2.32512672904974,2.32553602434838,2.27790802752426,2.27701955724185,2.27547222135677,2.27669012444051,2.27677996974997,2.27504296043381,2.27498306356084,2.2750729088703,2.27559201510271,2.27495311512435,2.27536241042299,2.27515277136759,2.27553211822974,2.27548220416893,2.27568186041217,2.27623091508107,2.27637067445133,2.27597136196486,2.27613108695945,2.27730905879455,2.27751869784995,2.27695966036888,2.2781575978283,2.27806775251885,2.2781575978283,2.27841715094451,2.27895622280125,2.27973488214987,2.27990458995663,2.28107257897956,2.281531788339,2.28234039612411,2.28423713043486,2.28567465538617,2.28695245534288,2.33932228794387,2.33938218481684,2.34027065509925,2.34083967539247,2.34285620344916,2.34471300651126,2.34324553312348,2.33877323327497,2.3385835598439,2.34069991602221,2.33831402391553,2.34202763003973,2.34344518936671,2.34340525811806,2.34230714878026,2.34216738941,2.34169819723839,2.34223726909513,2.34377462216805,2.34370474248292,2.3416682488019,2.34272642689106,2.34380457060454,2.34340525811806,2.34397427841129,2.34421386590317,2.34484278306937,2.34738840017064,2.34604072052879,2.34448340183154,2.3432654987478,2.34379458779238,2.34431369402479,2.34425379715182,2.34212745816135,2.34532195805314,2.28884918965363,2.287391699078,2.28696243815504,2.2876013381334,2.28672285066316,2.28550494757941,2.28455658042404,2.28599410537534,2.28462646010917,2.28424711324702,2.28570460382265,2.28486604760106,2.28504573821997,2.28425709605919,2.28469633979431,2.28413730231324,2.28394762888217,2.28470632260647,2.28448670073891,2.28399754294298,2.28399754294298,2.28507568665646,2.28421716481054,2.28420718199838,2.28438687261729,2.28463644292134,2.28431699293216,2.28551493039158,2.28440683824161,2.28430701011999,2.28560477570103,2.28546501633077,2.28638343504966,2.28568463819833,2.28698240377937,2.28640340067398,2.28583438038076,2.28677276472397,2.28627362411588,2.2870522834645,2.2877311146915,2.28745159595097,2.28785090843745,2.28878929278066,2.28916863964281,2.28873937871985,2.28956795212928,2.28886915527795,2.2895380036928,2.29033662866574,2.29049635366033,2.28996726461576,2.29146468644003,2.29218344891568,2.29259274421432,2.2938805269832,2.2938006644859,2.29368087073996,2.36023627942292,2.35761079982436,2.35782043887976,2.35657258735953,2.36010650286482,2.35886863415675,2.35931786070403,2.35996674349455,2.36053576378778
2.2475802441766,2.24842878321036,2.24885804413331,2.24963670348194,2.25054513938866,2.25199264715213,2.25265151275481,2.25399919239666,2.2549575423642,2.25632518763037,2.25861125161543,2.26008870781538,2.26198544212613,2.31179967481369,2.3130275607096,2.31353668412985,2.31493427783251,2.31560312624735,2.31668126996083,2.31625200903787,2.31515389970007,2.31389606536768,2.31465475909198,2.3143353091028,2.31360656381498,2.31381620287038,2.31441517160009,2.31298762946095,2.31277799040555,2.31305750914608,2.31431534347847,2.31321723414067,2.31374632318525,2.31385613411903,2.31413565285956,2.31460484503117,2.31534357313114,2.31609228404328,2.31691087464055,2.31775941367431,2.31834839959186,2.31980589016748,2.31986578704045,2.32069436044989,2.32059453232827,2.32138317448905,2.32462758844165,2.32297044162279,2.32258111194847,2.3226010775728,2.3230702697444,2.32346958223088,2.32374910097141,2.32321002911467,2.32435805251328,2.27783814783912,2.27577170572162,2.27532247917434,2.2758815166554,2.27557204947839,2.27492316668787,2.27534244479867,2.27445397451626,2.27483332137841,2.27495311512435,2.27521266824056,2.274993046373,2.27540234167164,2.27545225573245,2.27556206666623,2.27584158540676,2.27593143071621,2.2757517400973,2.2760911557108,2.2766402103797,2.27722919629725,2.27765845722021,2.27806775251885,2.27797790720939,2.27859684156342,2.27888634311612,2.27889632592828,2.28041371337688,2.28078307742687,2.28071319774173,2.28215072269304,2.28318893515787,2.28465640854566,2.28604401943615,2.28779101156448,2.33757529581555,2.34020077541412,2.34064001914924,2.34101936601139,2.34168821442623,2.34255671908431,2.34141867849786,2.34022074103844,2.33835395516418,2.33794465986554,2.33973158324251,2.340440362906,2.34123898787895,2.34141867849786,2.34048029415465,2.34053020821546,2.34071988164653,2.34130886756408,2.34139871287354,2.34159836911677,2.34288615188565,2.33969165199386,2.34238701127756,2.34206756128838,2.34336532686942,2.34408408934507,2.34340525811806,2.34476292057207,2.34344518936671,2.34248683939918,2.34364484560995,2.34340525811806,2.34294604875862,2.34293606594646,2.34379458779238,2.34328546437212,2.28894901777525,2.28755142407259,2.28627362411588,2.28791080531042,2.28578446631995,2.28543506789428,2.2856147585132,2.28465640854566,2.28481613354025,2.28483609916457,2.28375795545109,2.28437688980513,2.28387774919704,2.2841472851254,2.2842271476227,2.28397757731865,2.28523541165105,2.28393764607001,2.28369805857812,2.28344848827408,2.28349840233489,2.28398756013082,2.28390769763352,2.28467637416998,2.28479616791592,2.28433695855648,2.28356828202002,2.28424711324702,2.28417723356189,2.28549496476725,2.28472628823079,2.28478618510376,2.28484608197673,2.28535520539699,2.28568463819833,2.28555486164022,2.28545503351861,2.28612388193345,2.2862935897402,2.28685262722126,2.28646329754695,2.28743163032665,2.28783094281312,2.28878929278066,2.28843989435499,2.28853972247661,2.28843989435499,2.28961786619009,2.28952802088064,2.29047638803601,2.29101545989275,2.29188396455083,2.29127501300896,2.29307191919809,2.29177415361705,2.29242303640757,2.2960767456588,2.29653595501824,2.36052578097561,2.35797018106218,2.35756088576355,2.3567622607906,2.35757086857571,2.35845933885811,2.35952749975943,2.35883868572026,2.36007655442833
2.24734065668472,2.24805941916037,2.24946699567519,2.24952689254816,2.25089453781433,2.25162328310214,2.25285116899805,2.25402914083315,2.25518714704392,2.25669455168036,2.25823190475328,2.26037820936807,2.26376238269094,2.31339692475958,2.31325716538932,2.31351671850553,2.31465475909198,2.31581276530275,2.31666130433651,2.31422549816902,2.31478453565008,2.31416560129605,2.3135766153785,2.31303754352176,2.31308745758257,2.31321723414067,2.31322721695283,2.31263823103529,2.31222893573665,2.31251843728934,2.31254838572583,2.31270811072042,2.31307747477041,2.31314735445554,2.31369640912444,2.31440518878793,2.31535355594331,2.31583273092707,2.31642171684462,2.31750984337026,2.31800898397835,2.31918695581345,2.31966613079722,2.32004547765937,2.3212134666823,2.32349953066736,2.31971604485803,2.32386889471735,2.32227164477146,2.32258111194847,2.32270090569442,2.32212190258903,2.32070434326205,2.32271088850658,2.32209195415254,2.27695966036888,2.27665019319187,2.27560199791487,2.27446395732842,2.27525259948921,2.27816758064047,2.27481335575409,2.27451387138923,2.27463366513518,2.27460371669869,2.27473349325679,2.27490320106355,2.27510285730678,2.27510285730678,2.27515277136759,2.27561198072704,2.27557204947839,2.27593143071621,2.27604124164999,2.27788806189993,2.27873660093369,2.27812764939182,2.27751869784995,2.2780278212702,2.27846706500532,2.27864675562423,2.27875656655801,2.27934555247556,2.28044366181336,2.280852957112,2.2822904820633,2.28358824764434,2.28480615072809,2.28605400224832,2.33678665365477,2.3375353645669,2.33925240825874,2.33978149730332,2.34241695971404,2.34148855818299,2.34110921132084,2.34070989883437,2.34114914256949,2.34100938319922,2.33710610364395,2.33687649896422,2.33953192699927,2.34054019102762,2.34064001914924,2.33922245982226,2.34033055197222,2.33943209887765,2.34006101604385,2.34047031134248,2.34053020821546,2.34141867849786,2.33953192699927,2.33928235669523,2.3416682488019,2.34278632376403,2.34262659876944,2.34238701127756,2.34202763003973,2.34181799098433,2.34201764722757,2.34357496592482,2.34231713159242,2.34406412372075,2.34375465654373,2.34291610032213,2.28853972247661,2.28811046155365,2.28719204283477,2.28657310848073,2.28545503351861,2.2848560647889,2.28491596166187,2.28446673511458,2.28426707887135,2.28476621947944,2.2843569241808,2.2840175085673,2.28394762888217,2.28378790388758,2.28347843671056,2.28515554915375,2.28336862577678,2.28311905547274,2.28407740544027,2.28331871171597,2.28343850546192,2.28301922735112,2.28324883203084,2.28428704449567,2.28385778357271,2.28381785232406,2.28389771482136,2.28364814451731,2.2834684538984,2.28328876327949,2.28434694136864,2.28382783513623,2.28408738825243,2.28483609916457,2.28504573821997,2.28497585853484,2.28528532571185,2.28555486164022,2.28524539446321,2.28558481007671,2.28599410537534,2.2869225069064,2.28618377880642,2.28702233502801,2.28753145844827,2.28688257565775,2.28762130375772,2.28785090843745,2.28806054749285,2.28908877714551,2.28914867401848,2.29101545989275,2.29038654272655,2.29075590677654,2.29263267546297,2.29243301921973,2.29297209107647,2.29491873944803,2.29836280964386,2.29744439092497,2.35653265611088,2.35597361862982,2.35671234672979,2.35712164202843,2.35778050763111,2.35885865134459,2.35838945917298,2.35857913260406
2.24765012386173,2.24826905821577,2.24918747693465,2.24989625659815,2.25089453781433,2.25167319716295,2.25262156431833,2.25327044710885,2.25507733611014,2.2568143454263,2.25786254070329,2.26014860468835,2.26215514993288,2.31301757789744,2.31350673569337,2.31369640912444,2.31375630599741,2.31487438095954,2.31473462158927,2.31403582473794,2.31380622005822,2.31345682163256,2.31292773258798,2.31287781852717,2.31305750914608,2.31254838572583,2.3128179216542,2.3113005342056,2.31174976075288,2.31178969200153,2.31276800759339,2.31179967481369,2.31253840291367,2.31297764664879,2.31313737164338,2.31407575598659,2.31597249029734,2.31546336687708,2.31602240435815,2.31709056525946,2.31766956836485,2.31845821052564,2.31913704175264,2.31983583860397,2.32101381043907,2.32101381043907,2.32353946191601,2.32102379325123,2.32170262447823,2.32312018380521,2.32254118069983,2.32366923847411,2.32366923847411,2.32379901503222,2.2774787666013,2.27694967755672,2.27542230729596,2.274993046373,2.27449390576491,2.27503297762165,2.27484330419057,2.27413452452708,2.27490320106355,2.27542230729596,2.27491318387571,2.2744439917041,2.27487325262706,2.27498306356084,2.27498306356084,2.27519270261624,2.27529253073786,2.27573177447298,2.27595139634054,2.27571180884865,2.27602127602567,2.27693969474456,2.27751869784995,2.27719924786077,2.27900613686206,2.27856689312694,2.27860682437559,2.27871663530937,2.27925570716611,2.28040373056472,2.28112249304037,2.28262989767681,2.2834684538984,2.28499582415916,2.28719204283477,2.33665687709666,2.33704620677097,2.33877323327497,2.33935223638036,2.34073984727085,2.34083967539247,2.34065998477356,2.34074983008302,2.34076979570734,2.33874328483849,2.33650713491424,2.33977151449116,2.33921247701009,2.33877323327497,2.33832400672769,2.33842383484931,2.33924242544658,2.33864345671687,2.33978149730332,2.34028063791141,2.340440362906,2.34051024259113,2.34028063791141,2.34055017383978,2.34138873006137,2.34145860974651,2.34204759566405,2.34205757847622,2.34179802536001,2.34190783629379,2.34236704565323,2.33928235669523,2.33995120511007,2.34124897069111,2.34155843786812,2.34102934882355,2.28795073655906,2.28750151001178,2.28734178501719,2.2861638131821,2.28513558352943,2.28453661479972,2.28467637416998,2.28390769763352,2.28356828202002,2.28353833358353,2.28353833358353,2.28392766325784,2.28355829920786,2.2838877320092,2.28378790388758,2.28285950235653,2.28353833358353,2.28350838514705,2.28289943360518,2.28288945079301,2.28240029299708,2.28319891797003,2.28274969142275,2.28294934766599,2.28348841952272,2.28351836795921,2.28274969142275,2.2842271476227,2.28413730231324,2.28386776638487,2.28341853983759,2.28419719918621,2.28411733668892,2.28447671792675,2.28432697574432,2.28444676949026,2.28496587572268,2.28510563509294,2.28535520539699,2.28546501633077,2.28572456944698,2.28604401943615,2.28600408818751,2.28689255846991,2.28721200845909,2.28759135532124,2.28826020373608,2.29068602709141,2.28834006623338,2.28910874276984,2.28893903496309,2.28961786619009,2.28993731617927,2.29040650835088,2.29224334578865,2.29306193638593,2.29286228014269,2.2946891347683,2.29677554251013,2.30300481729911,2.35829961386352,2.35738119514464,2.35564418582848,2.3564228451771,2.35694195140951,2.35906829039999,2.35870890916216,2.35869892635
2.24768007229822,2.24834892071306,2.24877818163602,2.24993618784679,2.25090452062649,2.25106424562108,2.25250177057238,2.25388938146288,2.25485771424258,2.25656477512225,2.25799231726139,2.26085738435184,2.30992290612727,2.31024235611644,2.31304752633392,2.3126082825988,2.31351671850553,2.31379623724606,2.31465475909198,2.3133669763231,2.31280793884204,2.31286783571501,2.31300759508527,2.31190948574747,2.31210914199071,2.31189950293531,2.31244855760421,2.3109611185921,2.31177970918937,2.31318728570419,2.31159003575829,2.31165991544343,2.31220897011233,2.31272807634474,2.31304752633392,2.31676113245812,2.31432532629064,2.31464477627981,2.31571293718113,2.31656147621489,2.31677111527029,2.31755975743107,2.31844822771347,2.3192268870621,2.32057456670395,2.32134324324041,2.32067439482556,2.32164272760526,2.32063446357692,2.32040485889719,2.32224169633497,2.32357939316466,2.32398868846329,2.32223171352281,2.2785768759391,2.27657033069457,2.27681990099862,2.27503297762165,2.27485328700274,2.27443400889194,2.27430423233383,2.27500302918516,2.2738150745379,2.27443400889194,2.2741045760906,2.27546223854461,2.27464364794734,2.27493314950003,2.2750729088703,2.27458375107437,2.27509287449462,2.27548220416893,2.27612110414729,2.27641060569998,2.27703952286618,2.27757859472292,2.27670010725268,2.27729907598239,2.27809770095533,2.27832730563505,2.27874658374585,2.27940544934853,2.2802240399458,2.28036379931607,2.28172146177008,2.28239031018492,2.28513558352943,2.28612388193345,2.33615773648857,2.33590816618453,2.336986309898,2.33733570832367,2.33797460830203,2.33954190981143,2.34026067228709,2.34020077541412,2.33964173793305,2.33970163480602,2.33862349109254,2.33794465986554,2.33857357703174,2.34123898787895,2.33770507237366,2.33729577707502,2.33808441923581,2.33906273482767,2.33742555363312,2.33912263170064,2.34011093010466,2.33998115354655,2.3403105863479,2.34092952070193,2.341119194133,2.34089957226544,2.34071988164653,2.3424269425262,2.34181799098433,2.3424269425262,2.34095946913842,2.34164828317758,2.34143864412218,2.33944208168982,2.33813433329661,2.34048029415465,2.3429260831343,2.28685262722126,2.28723197408341,2.28664298816586,2.28575451788346,2.28581441475643,2.28413730231324,2.28495589291051,2.28468635698214,2.28451664917539,2.28440683824161,2.28362817889299,2.28454659761188,2.28338859140111,2.28316896953355,2.28373798982677,2.28324883203084,2.28248015549438,2.28357826483218,2.28362817889299,2.28334866015246,2.28308910703625,2.28285950235653,2.28267981173762,2.28315898672138,2.28340855702543,2.28335864296462,2.28463644292134,2.28332869452813,2.28397757731865,2.28411733668892,2.28352835077137,2.28335864296462,2.28382783513623,2.28437688980513,2.28423713043486,2.28491596166187,2.28527534289969,2.28451664917539,2.28495589291051,2.28559479288887,2.28584436319292,2.28593420850237,2.28708223190098,2.28699238659153,2.28715211158612,2.28710219752531,2.28708223190098,2.28896898339957,2.2886994474712,2.28888912090228,2.28908877714551,2.29004712711305,2.29107535676572,2.29072595834005,2.29126503019679,2.29166434268327,2.29584714097908,2.29405023478995,2.29525815506153,2.36116468095397,2.35481561241904,2.35501526866228,2.35614332643657,2.35597361862982,2.35627310299467,2.35714160765275,2.35791028418921,2.3579402326257
2.24747043324282,2.2483389379009,2.24881811288467,2.24971656597923,2.25086458937784,2.25176304247241,2.25345013772776,2.25396924396017,2.25646494700063,2.25621537669659,2.25910040941136,2.26000884531809,2.26229490930315,2.31206921074206,2.31152015607316,2.31322721695283,2.31334701069878,2.31335699351094,2.31341689038391,2.31307747477041,2.31256835135015,2.31269812790826,2.31215905605152,2.31289778415149,2.31220897011233,2.31128056858128,2.31322721695283,2.31072153110021,2.31064166860292,2.31069158266373,2.31099106702858,2.31148022482451,2.31132049982992,2.31186955449882,2.31286783571501,2.31331706226229,2.31360656381498,2.31452498253387,2.31537352156763,2.31620209497706,2.31670123558515,2.31756974024323,2.31844822771347,2.31906716206751,2.31978592454316,2.32005546047153,2.32112362137285,2.32137319167689,2.3214231057377,2.32140314011338,2.32178248697553,2.32368920409844,2.32429815564031,2.32477733062408,2.32049470420665,2.27710940255131,2.2752026854284,2.2756219635392,2.27461369951085,2.27356550423386,2.27414450733925,2.27372522922845,2.27349562454873,2.27447394014059,2.27495311512435,2.27559201510271,2.27513280574327,2.27582161978243,2.2745737682622,2.27503297762165,2.27559201510271,2.27653039944592,2.27593143071621,2.27607119008648,2.27646051976079,2.27667015881619,2.27757859472292,2.27775828534183,2.27773831971751,2.27782816502696,2.27858685875126,2.27938548372421,2.2800942633877,2.28105261335524,2.28241027580925,2.28302921016328,2.28444676949026,2.33448062404538,2.33616771930073,2.33657701459937,2.33726582863854,2.33810438486013,2.33933227075604,2.33978149730332,2.33938218481684,2.33862349109254,2.33769508956149,2.33712606926827,2.3382441442304,2.33659698022369,2.33732572551151,2.33744551925745,2.33875326765065,2.33673673959396,2.33700627552233,2.33692641302503,2.33670679115747,2.33980146292764,2.33853364578309,2.33793467705338,2.33917254576145,2.33957185824792,2.33931230513171,2.34059010508843,2.34143864412218,2.34101936601139,2.34029062072357,2.34074983008302,2.34061007071275,2.34020077541412,2.3416682488019,2.33793467705338,2.33923244263442,2.34420388309101,2.28894901777525,2.28748154438746,2.28736175064152,2.28579444913211,2.28562474132536,2.28454659761188,2.28451664917539,2.28417723356189,2.28385778357271,2.28320890078219,2.2834684538984,2.28323884921868,2.28369805857812,2.28356828202002,2.28288945079301,2.28310907266057,2.2838877320092,2.28378790388758,2.28264986330113,2.2827896226714,2.28330872890381,2.28295933047815,2.28314900390922,2.2830491757876,2.28273970861059,2.28342852264975,2.28340855702543,2.28316896953355,2.28371802420245,2.28423713043486,2.28349840233489,2.28345847108624,2.28303919297544,2.28334866015246,2.28426707887135,2.2843569241808,2.28449668355107,2.28503575540781,2.28488601322538,2.28571458663481,2.28570460382265,2.28592422569021,2.28579444913211,2.28709221471315,2.28612388193345,2.28679273034829,2.28716209439828,2.28798068499555,2.2879407537469,2.28829015217257,2.28958791775361,2.28969772868739,2.29061614740628,2.2905562505333,2.29121511613599,2.2906361130306,2.29187398173867,2.29272252077242,2.29322166138051,2.2943497191548,2.35574401395009,2.35513506240822,2.35464590461229,2.35639289674061,2.35606346393927,2.3563429826798,2.35599358425414,2.35776054200678,2.35759083420003
2.24733067387255,2.24782981448065,2.24869831913872,2.24973653160356,2.24987629097382,2.25193275027916,2.25244187369941,2.25392931271153,2.25538680328716,2.25726357197358,2.25916030628433,2.26049800311402,2.31025233892861,2.3106716170394,2.31142032795154,2.31253840291367,2.31306749195824,2.31255836853799,2.31248848885286,2.3119793654326,2.31223891854881,2.31288780133933,2.31215905605152,2.31227884979746,2.31087127328264,2.31149020763667,2.31042204673536,2.31048194360833,2.30998280300024,2.31002273424888,2.31001275143672,2.31029227017725,2.3108812560948,2.31252842010151,2.31228883260962,2.31320725132851,2.31320725132851,2.31401585911362,2.31466474190414,2.31575286842978,2.31644168246895,2.31741001524864,2.31827851990672,2.31997559797423,2.31959625111209,2.31993566672559,2.32010537453234,2.32023515109044,2.32086406825664,2.32059453232827,2.32133326042824,2.32262104319712,2.32395874002681,2.3190172480067,2.27683986662294,2.27600131040135,2.27647050257295,2.2756219635392,2.27528254792569,2.27415449015141,2.27393486828385,2.2742343526487,2.27384502297439,2.27408461046627,2.27416447296357,2.27400474796898,2.27447394014059,2.27535242761083,2.27506292605813,2.2747834073176,2.27577170572162,2.27577170572162,2.27535242761083,2.27612110414729,2.27649046819728,2.27707945411483,2.27729907598239,2.27710940255131,2.27766844003237,2.27801783845804,2.27847704781748,2.27949529465799,2.28088290554848,2.28180132426737,2.28221061956601,2.28294934766599,2.28483609916457,2.28735176782935,2.33507959277509,2.33475015997375,2.33612778805209,2.33726582863854,2.33876325046281,2.33877323327497,2.3391326145128,2.33889302702091,2.33638734116829,2.33634740991965,2.33667684272099,2.3359680630575,2.33650713491424,2.33544895682508,2.33529921464265,2.3355487849467,2.33555876775886,2.3359680630575,2.33606789117911,2.33665687709666,2.33741557082096,2.33757529581555,2.33799457392635,2.33805447079932,2.33846376609796,2.34008098166817,2.33916256294928,2.3406500019614,2.34028063791141,2.3405701394641,2.33975154886683,2.33969165199386,2.33862349109254,2.34173812848704,2.33765515831285,2.34034053478438,2.28759135532124,2.28698240377937,2.2862935897402,2.28560477570103,2.28539513664563,2.2853252569605,2.28471630541863,2.28476621947944,2.28417723356189,2.28383781794839,2.28323884921868,2.28405743981595,2.28316896953355,2.28362817889299,2.28262989767681,2.28277963985923,2.28326879765516,2.28313902109706,2.28209082582007,2.28279960548356,2.28252008674303,2.28305915859977,2.28243024143357,2.28265984611329,2.28313902109706,2.28257000080384,2.28307912422409,2.28358824764434,2.28308910703625,2.2835982304565,2.28284951954437,2.28375795545109,2.28314900390922,2.28289943360518,2.28393764607001,2.28455658042404,2.28428704449567,2.28403747419163,2.2848560647889,2.28531527414834,2.28522542883888,2.2853252569605,2.2855348960159,2.28609393349696,2.28583438038076,2.28659307410505,2.2868426444091,2.28754144126043,2.28735176782935,2.28788085687393,2.28783094281312,2.28965779743874,2.28918860526713,2.28956795212928,2.29093559739545,2.29094558020762,2.29290221139134,2.29278241764539,2.2933813863751,2.29522820662504,2.35303867185424,2.3524995999975,2.3553247358393,2.35571406551361,2.35539461552443,2.35635296549197,2.35646277642575,2.35657258735953,2.35674229516628
2.24747043324282,2.24858850820495,2.2492274081833,2.24999608471976,2.2508246581292,2.25145357529539,2.25318060179939,2.25447836738043,2.25547664859661,2.25763293602357,2.25983913751133,2.26188561400451,2.31002273424888,2.31123065452047,2.31144029357587,2.3124785060407,2.31249847166502,2.31266817947177,2.31156008732181,2.31179967481369,2.31103099827723,2.31238866073124,2.31172979512856,2.31019244205564,2.31019244205564,2.30970328425971,2.30984304362997,2.30964338738673,2.30945371395566,2.30998280300024,2.31062170297859,2.31005268268537,2.31058177172995,2.31076146234886,2.31142032795154,2.31194941699612,2.31289778415149,2.31347678725688,2.31440518878793,2.31513393407574,2.31614219810409,2.31672120120948,2.31755975743107,2.31785924179593,2.31860795270806,2.31872774645401,2.31984582141613,2.31994564953775,2.3199057182891,2.32119350105798,2.3214231057377,2.31986578704045,2.31989573547694,2.27874658374585,2.27579167134595,2.27483332137841,2.27566189478784,2.27453383701356,2.2740247135933,2.27503297762165,2.27404467921763,2.27360543548251,2.27414450733925,2.274314215146,2.27448392295275,2.27434416358248,2.27537239323515,2.27428426670951,2.2744439917041,2.274993046373,2.27518271980408,2.2753324619865,2.27553211822974,2.27551215260542,2.2763806572635,2.27605122446216,2.27719924786077,2.27761852597156,2.27874658374585,2.27850699625397,2.27943539778502,2.27911594779584,2.28027395400661,2.28038376494039,2.28303919297544,2.28484608197673,2.33388165531567,2.33497976465347,2.33483002247105,2.33535911151562,2.33655704897504,2.33728579426286,2.33749543331826,2.33817426454526,2.33831402391553,2.33838390360066,2.33589818337236,2.33639732398046,2.33613777086425,2.33485997090753,2.33528923183049,2.33593811462101,2.33459043497916,2.33477012559808,2.3342410365535,2.33522933495752,2.33600799430614,2.33603794274263,2.33693639583719,2.33686651615206,2.33708613801962,2.33786479736825,2.33773502081014,2.33777495205879,2.33873330202633,2.33921247701009,2.33984139417629,2.33906273482767,2.33939216762901,2.33914259732496,2.34035051759654,2.33756531300339,2.34074983008302,2.3407797785195,2.28653317723208,2.2862935897402,2.28599410537534,2.28603403662399,2.28518549759024,2.28351836795921,2.2840175085673,2.2834684538984,2.2835982304565,2.28302921016328,2.28295933047815,2.28296931329031,2.28275967423491,2.28275967423491,2.28368807576596,2.28292938204166,2.2830491757876,2.28293936485382,2.28376793826326,2.28226053362682,2.28305915859977,2.28260993205248,2.28356828202002,2.28324883203084,2.28277963985923,2.28261991486464,2.28299926172679,2.28340855702543,2.28338859140111,2.28317895234571,2.28279960548356,2.28328876327949,2.2830491757876,2.28350838514705,2.28389771482136,2.28508566946862,2.28371802420245,2.28379788669974,2.28386776638487,2.28478618510376,2.28512560071727,2.28528532571185,2.28552491320374,2.28576450069562,2.28496587572268,2.28638343504966,2.28681269597262,2.28632353817669,2.28728188814422,2.28709221471315,2.28931838182524,2.28789083968609,2.28985745368198,2.28999721305224,2.29054626772114,2.29176417080489,2.29231322547379,2.29320169575619,2.29255281296567,2.29516830975207,2.35509513115957,2.35295880935694,2.35508514834741,2.35465588742445,2.35482559523121,2.35674229516628,2.35569409988929,2.35555434051902,2.35669238110547
2.24751036449147,2.24829900665225,2.24810933322118,2.24952689254816,2.25063498469812,2.25180297372106,2.25326046429668,2.25426872832503,2.25540676891148,2.25759300477492,2.2596394812681,2.26150626714236,2.30839553586651,2.31133048264209,2.31296766383663,2.31241860916772,2.31373634037309,2.31216903886368,2.31172979512856,2.31063168579076,2.31252842010151,2.31026232174077,2.31057178891779,2.31095113577994,2.31046197798401,2.30971326707187,2.31105096390155,2.31002273424888,2.30942376551917,2.30934390302188,2.30974321550835,2.30992290612727,2.31014252799483,2.31034218423806,2.3111707576475,2.31234872948259,2.31254838572583,2.31350673569337,2.31471465596495,2.31528367625817,2.31647163090543,2.31721035900541,2.31899728238237,2.31773944804998,2.31801896679052,2.31863790114455,2.31907714487967,2.31946647455398,2.31993566672559,2.32059453232827,2.32201209165525,2.31895735113373,2.27869666968504,2.27656034788241,2.27563194635136,2.27538237604731,2.2734756589244,2.27297651831631,2.27422436983654,2.27384502297439,2.27379510891358,2.2735555214217,2.27357548704602,2.27350560736089,2.27379510891358,2.27522265105272,2.27446395732842,2.27495311512435,2.27496309793652,2.27514278855543,2.276720072877,2.27567187760001,2.27571180884865,2.27581163697027,2.27681990099862,2.27711938536347,2.27686981505943,2.27879649780666,2.27847704781748,2.27854692750262,2.27898617123774,2.27951526028231,2.28035381650391,2.2821607055052,2.28353833358353,2.28454659761188,2.33441074436025,2.3336121193873,2.33628751304668,2.33509955839942,2.3357584240021,2.33657701459937,2.33785481455608,2.3362276161737,2.33843381766147,2.33750541613042,2.33777495205879,2.33389163812783,2.33590816618453,2.33494981621699,2.33426100217782,2.33379181000622,2.33441074436025,2.33392158656432,2.33423105374134,2.33407132874675,2.33509955839942,2.33555876775886,2.33632744429532,2.33583828649939,2.33688648177639,2.33710610364395,2.33801453955067,2.33809440204797,2.33838390360066,2.33825412704256,2.33963175512089,2.33822417860607,2.33872331921416,2.3389229754574,2.33894294108172,2.33797460830203,2.33790472861689,2.28776106312799,2.28708223190098,2.28633352098885,2.28594419131454,2.2849059788497,2.28504573821997,2.28377792107542,2.2833386773403,2.28289943360518,2.28308910703625,2.28371802420245,2.28460649448485,2.28331871171597,2.28281957110788,2.28262989767681,2.28299926172679,2.28288945079301,2.28298927891463,2.28266982892545,2.28233041331195,2.28235037893627,2.28245020705789,2.28266982892545,2.28309908984841,2.28225055081466,2.28230046487547,2.28236036174844,2.28258996642816,2.28255003517951,2.2823703445606,2.28266982892545,2.28300924453896,2.28296931329031,2.28230046487547,2.28306914141193,2.28410735387676,2.28307912422409,2.28337860858894,2.28313902109706,2.28446673511458,2.28398756013082,2.28552491320374,2.2862935897402,2.28552491320374,2.28589427725373,2.28578446631995,2.2874715615753,2.28706226627666,2.28682267878478,2.286712867851,2.28779101156448,2.28805056468068,2.28806054749285,2.29148465206435,2.28963783181442,2.29075590677654,2.29247295046838,2.29121511613599,2.29472906601695,2.29640617846014,2.29432975353048,2.35562422020415,2.35416672962852,2.35197051095292,2.35415674681636,2.35394710776096,2.35458600773932,2.35520494209335,2.3554545123974,2.35614332643657
0,0,0,0,0,0,0,0,0,0,0,0,0,0,0,0,0,0,0,0,0,0,0,0,0,0,0,0,0,0,0,0,0,0,0,0,0,0,0,0,0,0,0,0,0,0,0,0,0,0,0,0,0,0,0,0,0,0,0,0,0,0,0,0,0,0,0,0,0,0,0,0,0,0,0,0,0,0,0,0,0,0,0,0,0,0,0,0,0,0,0,0,0,0,0,0,0,0,0,0,0,0,0,0,0,0,0,0,0,0,0,0,0,0,0,0,0,0,0,0,0,0,0,0,0,0,0,0,0,0,0,0,0,0,0,0,0,0,0,0,0,0,0,0,0,0,0,0,0,0,0,0,0,0,0,0,0,0,0,0,0,0,0,0,0,0,0,0,0,0,0,0,0,0,0,0,0,0,0,0,0,0,0,0,0,0,0,0,0,0,0,0,0
2.24802947072388,2.24787972854145,2.24969660035491,2.2500659644049,2.2507447956319,2.25155340341701,2.2532305158602,2.25464807518718,2.25604566888984,2.25801228288572,2.26028836405862,2.26203535618694,2.30973323269619,2.31009261393402,2.31063168579076,2.31160001857045,2.31365647787579,2.31178969200153,2.31212910761503,2.31156008732181,2.31074149672454,2.31016249361915,2.31009261393402,2.31120070608398,2.30961343895025,2.31007264830969,2.3094437311435,2.3095735077016,2.30912428115432,2.30970328425971,2.30947367957998,2.30955354207728,2.30989295769078,2.31017247643131,2.3107514795367,2.31150019044884,2.31240862635556,2.31275802478123,2.31345682163256,2.31420553254469,2.31545338406492,2.31627197466219,2.31680106370677,2.31712051369595,2.31808884647565,2.31852809021077,2.31905717925535,2.3196960792337,2.31930674955939,2.31992568391343,2.31758970586756,2.31933669799588,2.31822860584591,2.27718926504861,2.27603125883783,2.27411455890276,2.27374519485277,2.27359545267034,2.27342574486359,2.2738150745379,2.27343572767576,2.27316619174739,2.27346567611224,2.27397479953249,2.27386498859871,2.27365534954332,2.27439407764329,2.27493314950003,2.27468357919598,2.27497308074868,2.27584158540676,2.27534244479867,2.27561198072704,2.27580165415811,2.27623091508107,2.27693969474456,2.27730905879455,2.27778823377832,2.27898617123774,2.27846706500532,2.27992455558095,2.28065330086876,2.2811923727255,2.28208084300791,2.28317895234571,2.28462646010917,2.33494981621699,2.33426100217782,2.33446065842106,2.33539904276427,2.33571849275345,2.33524930058184,2.33604792555479,2.3365171177264,2.33742555363312,2.33757529581555,2.33366203344811,2.33449060685754,2.334580452167,2.33460041779133,2.33393156937648,2.33362210219947,2.33400144906162,2.33442072717241,2.33343242876839,2.33360213657514,2.33392158656432,2.33436083029944,2.3348699537197,2.33595808024534,2.33605790836695,2.33688648177639,2.3370661723953,2.33712606926827,2.33756531300339,2.33775498643447,2.33813433329661,2.33781488330744,2.33970163480602,2.33993123948575,2.33995120511007,2.33798459111419,2.33461040060349,2.28772113187934,2.2871820600226,2.28580443194427,2.28552491320374,2.28547499914293,2.28417723356189,2.28375795545109,2.28320890078219,2.28295933047815,2.28290941641734,2.28281957110788,2.28391768044568,2.28289943360518,2.28240029299708,2.2828395367322,2.28336862577678,2.28293936485382,2.28235037893627,2.28255003517951,2.28292938204166,2.28230046487547,2.28267981173762,2.28259994924032,2.28175141020656,2.28226053362682,2.28210080863223,2.28204091175926,2.28249013830654,2.28339857421327,2.28230046487547,2.28231044768763,2.28210080863223,2.2822904820633,2.28277963985923,2.28265984611329,2.28271974298626,2.2829193992295,2.28313902109706,2.28398756013082,2.28605400224832,2.28507568665646,2.28492594447403,2.28459651167269,2.28518549759024,2.28604401943615,2.28597413975102,2.28597413975102,2.28582439756859,2.28607396787264,2.28677276472397,2.28772113187934,2.28772113187934,2.28884918965363,2.28766123500637,2.28832010060905,2.28901889746038,2.2906361130306,2.29168430830759,2.29267260671161,2.29306193638593,2.29440961602777,2.29836280964386,2.35440631712041,2.35226001250561,2.35436638587176,2.35403695307042,2.35449616242986,2.35500528585012,2.3547756811704,2.35526483896633
2.24756027855228,2.24777990041984,2.24851862851981,2.24968661754275,2.24976648004004,2.25148352373188,2.25321055023587,2.2544584017561,2.25631520481821,2.25795238601275,2.25978922345052,2.30940379989485,2.30916421240297,2.31002273424888,2.31058177172995,2.31101103265291,2.31094115296777,2.3123986435434,2.31213909042719,2.31057178891779,2.30903443584486,2.31000276862456,2.31023237330428,2.31005268268537,2.31034218423806,2.30919416083945,2.30948366239215,2.30921412646378,2.30896455615973,2.30898452178405,2.30941378270701,2.3088148139773,2.30970328425971,2.30966335301106,2.31039209829887,2.31152015607316,2.31230879823394,2.31284787009068,2.31325716538932,2.31373634037309,2.31520381376088,2.31621207778922,2.31635183715949,2.31732016993919,2.31740003243648,2.31776939648647,2.31869779801752,2.32057456670395,2.31937662924453,2.31916699018913,2.317370084,2.31734013556351,2.31918695581345,2.27621094945675,2.27621094945675,2.27849701344181,2.27411455890276,2.27349562454873,2.27307634643793,2.27301644956496,2.27314622612306,2.2735555214217,2.27350560736089,2.27369528079196,2.27354553860954,2.27377514328926,2.27471352763247,2.27448392295275,2.27512282293111,2.27517273699191,2.27504296043381,2.27568186041217,2.27626086351755,2.27650045100944,2.27610113852297,2.27655036507025,2.27662024475538,2.27767842284454,2.27756861191075,2.27845708219316,2.27965501965258,2.2807231805539,2.28264986330113,2.28223058519033,2.28394762888217,2.28573455225914,2.33320282408867,2.33336254908326,2.33442072717241,2.33467029747646,2.334580452167,2.33468028028862,2.33459043497916,2.33580833806291,2.33469026310078,2.33460041779133,2.33270368348058,2.33305308190624,2.33308303034273,2.3336919818846,2.33313294440354,2.33329266939812,2.33379181000622,2.33353225689001,2.33274361472922,2.33282347722652,2.3327236491049,2.33368199907244,2.33504964433861,2.33461040060349,2.3358882005602,2.33671677396963,2.33665687709666,2.33693639583719,2.33741557082096,2.33746548488177,2.3375353645669,2.3372758114507,2.33851368015877,2.33629749585884,2.34022074103844,2.33692641302503,2.28967776306306,2.28647328035911,2.28679273034829,2.28573455225914,2.28501578978348,2.28407740544027,2.28393764607001,2.2840175085673,2.283258814843,2.28320890078219,2.28279960548356,2.28297929610247,2.28338859140111,2.28347843671056,2.28233041331195,2.28249013830654,2.28299926172679,2.28248015549438,2.28227051643898,2.28251010393086,2.28232043049979,2.28233041331195,2.28234039612411,2.28212077425655,2.28298927891463,2.28224056800249,2.28210080863223,2.28204091175926,2.28212077425655,2.28277963985923,2.28288945079301,2.28255003517951,2.28234039612411,2.28263988048897,2.2825001211187,2.28311905547274,2.28299926172679,2.28276965704707,2.2829193992295,2.28318893515787,2.28395761169433,2.28404745700379,2.28451664917539,2.28524539446321,2.2847762022916,2.28544505070644,2.28623369286723,2.2877311146915,2.28591424287805,2.28570460382265,2.28609393349696,2.2866330053537,2.28770116625502,2.28749152719962,2.28839996310635,2.2881503928023,2.28969772868739,2.28976760837252,2.2911053052022,2.29229325984946,2.2936708879278,2.29370083636428,2.35386724526367,2.35362765777178,2.3551150967839,2.35384727963935,2.35312851716369,2.35481561241904,2.35417671244069,2.35512507959606,2.35533471865146
2.24746045043066,2.2475802441766,2.24782981448065,2.24911759724952,2.25073481281974,2.25170314559944,2.25304084242912,2.25447836738043,2.25574618452498,2.25861125161543,2.26140643902074,2.26189559681667,2.30954355926512,2.31048194360833,2.31004269987321,2.31121068889614,2.31050190923265,2.31131051701776,2.31164993263126,2.30933392020972,2.30971326707187,2.30951361082863,2.30872496866785,2.31000276862456,2.30905440146919,2.30977316394484,2.30871498585568,2.30804613744084,2.30831567336921,2.30862514054623,2.30835560461786,2.30955354207728,2.30909433271783,2.30961343895025,2.31022239049212,2.31076146234886,2.3116399498191,2.31222893573665,2.31238866073124,2.3142554466055,2.31513393407574,2.31608230123112,2.31633187153517,2.31712051369595,2.31678109808245,2.31738006681216,2.31862791833239,2.31806888085132,2.31700071995001,2.31793910429322,2.31771948242566,2.31671121839731,2.27805776970669,2.27563194635136,2.27492316668787,2.27405466202979,2.27329596830549,2.27360543548251,2.27298650112847,2.27391490265952,2.27324605424468,2.27302643237712,2.27314622612306,2.27407462765411,2.27357548704602,2.27361541829467,2.274314215146,2.27483332137841,2.27504296043381,2.27490320106355,2.27526258230137,2.27652041663376,2.27731904160671,2.27642058851214,2.27639064007566,2.27689976349591,2.27709941973915,2.27716929942428,2.27805776970669,2.27885639467963,2.27910596498368,2.28145192584171,2.28206087738358,2.28272972579842,2.2828395367322,2.33200488662925,2.33329266939812,2.33305308190624,2.33332261783461,2.33376186156973,2.33391160375216,2.33384172406703,2.33418113968053,2.33365205063595,2.33246409598869,2.33289335691165,2.33265376941977,2.33216461162384,2.33152571164548,2.33179524757385,2.33153569445764,2.3316255397671,2.33180523038601,2.33152571164548,2.33198492100492,2.33195497256844,2.3325140100495,2.33305308190624,2.33378182719405,2.3349198677805,2.33451057248187,2.3356785615048,2.33595808024534,2.3367267567818,2.33660696303585,2.33691643021287,2.33663691147234,2.33733570832367,2.33713605208043,2.33559869900751,2.3371959489534,2.34086962382896,2.28761132094556,2.28732181939287,2.28622371005507,2.28565468976184,2.28465640854566,2.28450666636323,2.28363816170515,2.28392766325784,2.28295933047815,2.28249013830654,2.28320890078219,2.28211079144439,2.2820309289471,2.28284951954437,2.28249013830654,2.28263988048897,2.28340855702543,2.28183127270386,2.2847762022916,2.28211079144439,2.28305915859977,2.28220063675385,2.28167154770927,2.28146190865387,2.28219065394169,2.28219065394169,2.2827097601741,2.28199099769845,2.28245020705789,2.28196104926196,2.2820309289471,2.28242025862141,2.28266982892545,2.28207086019574,2.28192111801332,2.28238032737276,2.28307912422409,2.28322886640652,2.28336862577678,2.28421716481054,2.28285950235653,2.2838877320092,2.28413730231324,2.28420718199838,2.28452663198756,2.28465640854566,2.28536518820915,2.28570460382265,2.28567465538617,2.2864233662983,2.28683266159694,2.28681269597262,2.28694247253072,2.28861958497391,2.28805056468068,2.28909875995768,2.28980753962117,2.29069600990357,2.29026674898061,2.29198379267245,2.29251288171702,2.29482889413857,2.34885587355843,2.35875882322297,2.35301870622991,2.35341801871639,2.35289891248397,2.35366758902043,2.35425657493798,2.35375743432989,2.35402697025826
2.24730072543607,2.24795959103875,2.24866837070224,2.24991622222247,2.25063498469812,2.25177302528457,2.25409902051828,2.25447836738043,2.25613551419929,2.25848147505732,2.30840551867867,2.30769673901518,2.30859519210974,2.30896455615973,2.30981309519349,2.31062170297859,2.31040208111103,2.31016249361915,2.3102024248678,2.30949364520431,2.30953357645295,2.30938383427053,2.30815594837462,2.30967333582322,2.30853529523677,2.30773667026382,2.30566024533416,2.30744716871113,2.30709777028547,2.30855526086109,2.30806610306516,2.30876489991649,2.30874493429217,2.30929398896107,2.30961343895025,2.3104120639232,2.31108091233804,2.31251843728934,2.31289778415149,2.31379623724606,2.31484443252305,2.31595252467302,2.31638178559597,2.3167411668338,2.31696078870136,2.31775941367431,2.31802894960268,2.31876767770265,2.31847817614996,2.31680106370677,2.31686096057974,2.31670123558515,2.27769838846886,2.27736895566752,2.27464364794734,2.27427428389735,2.27518271980408,2.27375517766493,2.27342574486359,2.27317617455955,2.27320612299603,2.27320612299603,2.27319614018387,2.27494313231219,2.27320612299603,2.27384502297439,2.27391490265952,2.27451387138923,2.27434416358248,2.27510285730678,2.2756219635392,2.27600131040135,2.27626086351755,2.27599132758919,2.2765104338216,2.27734899004319,2.27743883535265,2.27793797596074,2.27788806189993,2.27874658374585,2.27950527747015,2.2807231805539,2.28227051643898,2.28317895234571,2.33178526476169,2.33145583196035,2.33240419911572,2.33298320222111,2.33359215376298,2.3332727037738,2.33324275533732,2.33330265221029,2.33374189594541,2.33290333972381,2.33297321940895,2.3309966226009,2.33123621009279,2.33142588352386,2.33231435380626,2.33091676010361,2.33115634759549,2.3308668460428,2.33098663978874,2.33121624446846,2.33101658822523,2.33136598665089,2.33197493819276,2.33226443974546,2.33350230845352,2.3349997302778,2.33448062404538,2.33488991934402,2.33548888807373,2.33590816618453,2.33662692866018,2.3366468942845,2.33655704897504,2.33635739273181,2.3368565333399,2.33441074436025,2.33457046935484,2.3347900912224,2.28771114906718,2.28592422569021,2.28557482726455,2.28499582415916,2.2847762022916,2.28449668355107,2.28353833358353,2.28351836795921,2.283258814843,2.28232043049979,2.28267981173762,2.28397757731865,2.28310907266057,2.28222060237817,2.28222060237817,2.28207086019574,2.28201096332277,2.28193110082548,2.28177137583089,2.28324883203084,2.28266982892545,2.28196104926196,2.28196104926196,2.28178135864305,2.28185123832818,2.28219065394169,2.2823703445606,2.28234039612411,2.28202094613493,2.28207086019574,2.28193110082548,2.28205089457142,2.28234039612411,2.28209082582007,2.28226053362682,2.28288945079301,2.28249013830654,2.28310907266057,2.28353833358353,2.28355829920786,2.28417723356189,2.28618377880642,2.2846464257335,2.2843569241808,2.28431699293216,2.28537517102131,2.28535520539699,2.28619376161858,2.28550494757941,2.2860839506848,2.28605400224832,2.28686261003342,2.2865032287956,2.28978757399684,2.28931838182524,2.28984747086981,2.28993731617927,2.2905562505333,2.29078585521303,2.29193387861164,2.29492872226019,2.29614662534393,2.29694525031688,2.35536466708794,2.35445623118122,2.35467585304878,2.35354779527449,2.35406690150691,2.35453609367851,2.35449616242986,2.35395709057313
2.24763015823741,2.24807938478469,2.24882809569683,2.25068489875893,2.25106424562108,2.25202259558862,2.25363981115883,2.25536683766283,2.25758302196276,2.25803224851004,2.30940379989485,2.30980311238132,2.30738727183816,2.30916421240297,2.31001275143672,2.3099927858124,2.3101225623705,2.31005268268537,2.30935388583404,2.30858520929758,2.30844544992731,2.30804613744084,2.30886472803811,2.30849536398812,2.30788641244625,2.30733735777735,2.30668847498683,2.30677832029629,2.30731739215303,2.30810603431381,2.30865508898271,2.3081359827503,2.30958349051376,2.309783146757,2.30974321550835,2.31069158266373,2.31141034513938,2.31230879823394,2.31243857479205,2.31377627162173,2.31481448408657,2.31568298874465,2.31635183715949,2.31670123558515,2.31665132152434,2.31909711050399,2.3183883308405,2.31784925898376,2.31801896679052,2.31858798708374,2.31957628548776,2.31497420908116,2.27624089789323,2.27616103539594,2.27531249636218,2.27399476515682,2.27336584799062,2.27377514328926,2.27283675894604,2.27283675894604,2.27379510891358,2.27288667300685,2.27306636362577,2.27330595111765,2.27341576205143,2.27413452452708,2.27371524641629,2.27435414639464,2.27443400889194,2.27513280574327,2.27526258230137,2.27586155103108,2.27775828534183,2.27646051976079,2.27639064007566,2.27854692750262,2.27731904160671,2.27819752907695,2.27832730563505,2.2789162915526,2.2814020117809,2.28143196021739,2.28169151333359,2.2848560647889,2.33119627884414,2.33198492100492,2.33211469756303,2.33289335691165,2.3327236491049,2.33762520987636,2.33291332253597,2.3320947319387,2.33248406161302,2.3319649553806,2.33194498975628,2.33194498975628,2.33108646791036,2.3308668460428,2.33089679447928,2.33026787731309,2.33104653666171,2.33025789450093,2.33030780856174,2.33119627884414,2.33137596946305,2.33101658822523,2.33192502413195,2.33204481787789,2.33267373504409,2.33292330534814,2.33438079592377,2.33399146624945,2.33476014278591,2.33576840681426,2.33601797711831,2.33604792555479,2.33547890526157,2.33469026310078,2.33608785680344,2.33650713491424,2.33489990215618,2.28903886308471,2.28733180220503,2.28570460382265,2.28534522258483,2.2851954804024,2.2848560647889,2.28384780076055,2.28345847108624,2.28256001799167,2.2828395367322,2.28257000080384,2.28238032737276,2.28262989767681,2.2821607055052,2.28223058519033,2.28206087738358,2.28214073988088,2.28238032737276,2.28245020705789,2.28268979454978,2.28205089457142,2.28186122114034,2.28199099769845,2.28221061956601,2.28180132426737,2.2819510664498,2.28364814451731,2.2818212898917,2.28200098051061,2.28210080863223,2.28162163364846,2.28173144458224,2.28235037893627,2.28223058519033,2.28211079144439,2.28228049925114,2.28280958829572,2.28234039612411,2.28239031018492,2.28330872890381,2.28320890078219,2.283258814843,2.28415726793757,2.2847762022916,2.28491596166187,2.28541510226996,2.2843569241808,2.28467637416998,2.28533523977266,2.2856147585132,2.28552491320374,2.28597413975102,2.28660305691722,2.28620374443074,2.28912870839416,2.29303198794944,2.28876932715634,2.28906881152119,2.29005710992521,2.29122509894815,2.29253284734135,2.29352114574537,2.29610669409529,2.35820976855407,2.35468583586094,2.35315846560018,2.35339805309206,2.35417671244069,2.3537274858934,2.35473574992175,2.35328824215828,2.35345794996503
2.24756027855228,2.24808936759685,2.25025563783597,2.24992620503463,2.25099436593595,2.25296097993183,2.25363981115883,2.25501743923717,2.25712381260331,2.258461509433,2.30817591399894,2.30772668745166,2.30845543273948,2.3096533701989,2.30988297487862,2.31042204673536,2.31007264830969,2.30995285456375,2.3082657593084,2.30778658432463,2.30775663588815,2.30726747809222,2.30764682495437,2.30702789060033,2.30711773590979,2.30639897343414,2.30656868124089,2.30697797653952,2.30666850936251,2.30678830310845,2.30743718589897,2.30767677339085,2.3081359827503,2.30880483116514,2.3096533701989,2.31023237330428,2.31132049982992,2.31251843728934,2.31295768102446,2.31364649506363,2.31494426064467,2.31518384813655,2.31552326375006,2.31699073713785,2.31547334968925,2.31620209497706,2.31646164809327,2.31668126996083,2.31773944804998,2.31862791833239,2.31986578704045,2.3207442745107,2.27604124164999,2.27458375107437,2.27413452452708,2.27420440421222,2.27393486828385,2.27286670738253,2.27305638081361,2.27332591674197,2.27288667300685,2.27321610580819,2.27304639800144,2.27344571048792,2.27375517766493,2.27400474796898,2.27408461046627,2.27516275417975,2.27479339012976,2.27498306356084,2.27522265105272,2.2754123244838,2.2756219635392,2.27621094945675,2.27635070882701,2.27779821659048,2.27766844003237,2.27806775251885,2.27886637749179,2.27924572435394,2.27982472745933,2.28138204615658,2.28090287117281,2.283258814843,2.33181521319817,2.33096667416442,2.33160557414277,2.33265376941977,2.33377184438189,2.33262382098328,2.33207476631438,2.33159559133061,2.33118629603198,2.33090677729145,2.33028784293741,2.33096667416442,2.33029782574957,2.3295590976496,2.32930952734555,2.32907992266583,2.3292196820361,2.32923964766042,2.32965892577122,2.33021796325228,2.33028784293741,2.33040763668335,2.33051744761713,2.33124619290495,2.33224447412113,2.3325140100495,2.33386168969135,2.33415119124404,2.33484998809537,2.33561866463183,2.33572847556561,2.3362276161737,2.33493983340483,2.33465033185213,2.33433088186296,2.3352093693332,2.33410127718323,2.33392158656432,2.28717207721044,2.28593420850237,2.28536518820915,2.28486604760106,2.28434694136864,2.28390769763352,2.28328876327949,2.28331871171597,2.28281957110788,2.28253006955519,2.28260993205248,2.28251010393086,2.28228049925114,2.28185123832818,2.28198101488629,2.28202094613493,2.2819510664498,2.2820309289471,2.28202094613493,2.28239031018492,2.28208084300791,2.28241027580925,2.28247017268222,2.28197103207412,2.28191113520115,2.28177137583089,2.28188118676467,2.2812722352228,2.28276965704707,2.28225055081466,2.28259994924032,2.2817414273944,2.28224056800249,2.28226053362682,2.282579983616,2.28212077425655,2.28251010393086,2.28457654604836,2.28279960548356,2.28281957110788,2.28338859140111,2.28298927891463,2.28368807576596,2.28396759450649,2.28441682105377,2.28459651167269,2.28455658042404,2.28543506789428,2.28521544602672,2.28576450069562,2.2860839506848,2.28614384755777,2.28778102875231,2.28741166470233,2.28838998029419,2.28819032405095,2.28930839901307,2.28971769431171,2.29075590677654,2.29337140356294,2.29287226295485,2.3509822125489,2.35396707338529,2.35238978906372,2.35297877498127,2.35301870622991,2.35344796715287,2.3529687921691,2.3531784312245,2.35334813903125,2.35396707338529
2.24746045043066,2.24817921290631,2.24886802694548,2.25073481281974,2.2513737127981,2.25262156431833,2.25407905489396,2.25624532513307,2.25676443136549,2.25839162974787,2.30631911093684,2.30945371395566,2.30950362801647,2.30928400614891,2.30943374833134,2.30990294050294,2.30901447022054,2.30767677339085,2.30780654994896,2.30681825154493,2.30671842342332,2.30662857811386,2.30633907656117,2.30613942031793,2.30629914531252,2.3068282343571,2.30620930000306,2.30614940313009,2.30609948906928,2.30633907656117,2.3068282343571,2.30730740934086,2.30747711714762,2.30833563899353,2.30984304362997,2.30980311238132,2.31079141078535,2.31209915917855,2.31264821384745,2.31332704507445,2.3141256700474,2.31420553254469,2.31484443252305,2.31485441533521,2.31432532629064,2.31493427783251,2.3167411668338,2.31571293718113,2.31744994649729,2.31851810739861,2.31962619954857,2.31720037619324,2.27618100102026,2.27531249636218,2.27367531516764,2.27467359638382,2.27301644956496,2.27263710270281,2.27263710270281,2.27252729176903,2.27283675894604,2.27358546985818,2.27277686207307,2.27358546985818,2.27348564173656,2.27437411201897,2.27377514328926,2.27437411201897,2.27455380263788,2.27525259948921,2.27550216979326,2.27619098383242,2.27537239323515,2.2756219635392,2.27652041663376,2.27687979787159,2.27737893847968,2.27839718532019,2.27868668687288,2.27953522590664,2.28081302586335,2.28257000080384,2.28292938204166,2.28639341786182,2.3281714867591,2.328720541428,2.33282347722652,2.3327236491049,2.33212468037519,2.33266375223193,2.33332261783461,2.33202485225357,2.33035772262254,2.33016804919147,2.33039765387119,2.33004825544553,2.32965892577122,2.32897011173205,2.32851090237261,2.3279618477037,2.32820143519559,2.32874050705233,2.32909988829015,2.32939937265501,2.3293494585942,2.3298985132631,2.32995841013607,2.33035772262254,2.33123621009279,2.33165548820358,2.332853425663,2.33365205063595,2.33455050373052,2.33425101936566,2.33529921464265,2.33448062404538,2.33480007403456,2.33420110530485,2.33550885369805,2.33415119124404,2.33389163812783,2.28891906933876,2.28637345223749,2.28643334911047,2.28557482726455,2.28558481007671,2.28382783513623,2.28417723356189,2.28353833358353,2.28256001799167,2.28248015549438,2.28290941641734,2.28212077425655,2.28175141020656,2.28186122114034,2.28197103207412,2.28226053362682,2.28201096332277,2.28201096332277,2.28205089457142,2.28185123832818,2.28169151333359,2.28112249304037,2.28207086019574,2.28214073988088,2.28189116957683,2.28208084300791,2.28175141020656,2.28156173677549,2.28170149614576,2.2819510664498,2.28199099769845,2.28176139301873,2.28223058519033,2.28228049925114,2.28260993205248,2.28256001799167,2.28231044768763,2.28217068831736,2.28217068831736,2.28276965704707,2.28300924453896,2.28273970861059,2.28343850546192,2.28383781794839,2.28428704449567,2.28405743981595,2.28404745700379,2.28460649448485,2.28523541165105,2.28539513664563,2.28565468976184,2.28600408818751,2.28679273034829,2.28686261003342,2.28659307410505,2.28716209439828,2.28746157876313,2.29024678335629,2.2892485021401,2.29086571771032,2.29302200513728,2.29520824100072,2.35016362195163,2.34949477353678,2.35408686713123,2.35190063126779,2.35171095783671,2.35209030469886,2.35259942811912,2.35251956562182,2.35354779527449,2.35201044220157
2.24773996917119,2.24835890352522,2.24914754568601,2.25021570658732,2.2515034893562,2.25280125493724,2.25422879707638,2.25531692360202,2.25628525638172,2.2592202031573,2.30802617181652,2.30738727183816,2.30827574212056,2.30866507179487,2.30900448740838,2.31025233892861,2.30843546711515,2.30855526086109,2.30842548430299,2.30696799372736,2.30641893905846,2.30768675620301,2.30667849217467,2.30625921406387,2.30595972969902,2.30575009064362,2.30597969532334,2.30592978126253,2.30605955782064,2.30599966094766,2.30644888749495,2.30694802810304,2.30760689370572,2.3081359827503,2.30940379989485,2.30975319832051,2.31112084358669,2.3119793654326,2.3134967528812,2.31165991544343,2.31650157934192,2.31312738883122,2.31426542941766,2.31421551535686,2.3139958934893,2.31486439814738,2.3152237793852,2.31654151059056,2.31672120120948,2.31752980899459,2.31829848553105,2.27644055413647,2.27538237604731,2.27586155103108,2.27340577923927,2.27373521204061,2.27223779021633,2.27272694801226,2.27246739489606,2.27259717145416,2.27298650112847,2.27283675894604,2.27406464484195,2.2738949370352,2.27336584799062,2.27374519485277,2.27390491984736,2.27384502297439,2.27440406045545,2.27479339012976,2.27495311512435,2.27511284011894,2.27592144790405,2.27602127602567,2.27661026194322,2.27718926504861,2.27762850878373,2.27835725407154,2.27869666968504,2.28028393681877,2.28102266491875,2.28202094613493,2.28372800701461,2.33399146624945,2.33390162094,2.33247407880085,2.33342244595623,2.33324275533732,2.33344241158055,2.33338251470758,2.33331263502245,2.33129610696576,2.33020798044012,2.32995841013607,2.33000832419688,2.32869059299152,2.32849093674828,2.32801176176451,2.32818146957126,2.3277022945875,2.32709334304562,2.32773224302398,2.32845100549963,2.32847097112396,2.32861073049422,2.32886030079827,2.32963896014689,2.33048749918065,2.33102657103739,2.3312861241536,2.33204481787789,2.33351229126569,2.33325273814948,2.33391160375216,2.33441074436025,2.3342410365535,2.33399146624945,2.33371194750892,2.3351295068359,2.33091676010361,2.2872619225199,2.28764126938205,2.28640340067398,2.28569462101049,2.2847762022916,2.2838078695119,2.28310907266057,2.28292938204166,2.28240029299708,2.28263988048897,2.28242025862141,2.2821607055052,2.28253006955519,2.2819510664498,2.28208084300791,2.28232043049979,2.28207086019574,2.28252008674303,2.2819510664498,2.28175141020656,2.28156173677549,2.28135209772009,2.28184125551602,2.28156173677549,2.28217068831736,2.28233041331195,2.28175141020656,2.28132214928361,2.28154177115117,2.28156173677549,2.28131216647144,2.28200098051061,2.28223058519033,2.28226053362682,2.28207086019574,2.28196104926196,2.28232043049979,2.28187120395251,2.28226053362682,2.28257000080384,2.28298927891463,2.28342852264975,2.28420718199838,2.28350838514705,2.28356828202002,2.28429702730783,2.28458652886053,2.28406742262811,2.28479616791592,2.28474625385512,2.28602405381183,2.28602405381183,2.2861638131821,2.28693248971856,2.28659307410505,2.28735176782935,2.2869724209672,2.28778102875231,2.29051631928466,2.28893903496309,2.2904264739752,2.29117518488734,2.29290221139134,2.29456934102236,2.35101216098538,2.35018358757595,2.3516610437759,2.35131164535024,2.35191061407995,2.35198049376508,2.35213023594751,2.35183075158265,2.35227997812994
2.2474504676185,2.24830898946441,2.24908764881304,2.2504053800184,2.2512938503008,2.25290108305886,2.25490762830339,2.25574618452498,2.25796236882491,2.25943982502486,2.30697797653952,2.30725749528006,2.30825577649624,2.30882479678946,2.3102024248678,2.3078464811976,2.30808606868949,2.30767677339085,2.30658864686521,2.30651876718008,2.30628916250036,2.30690809685439,2.30623924843955,2.30673838904764,2.30533081253282,2.30547057190309,2.30541067503012,2.30561033127335,2.30584991876524,2.30600964375983,2.30610947188145,2.30687814841791,2.307377289026,2.30800620619219,2.3086850374192,2.30976318113268,2.30974321550835,2.31341689038391,2.31005268268537,2.31232876385827,2.31223891854881,2.31251843728934,2.31389606536768,2.31499417470548,2.31689090901623,2.31562309187167,2.31630192309868,2.31647163090543,2.31755975743107,2.3174998605581,2.31731018712702,2.27616103539594,2.27498306356084,2.27476344169328,2.27314622612306,2.27294656987983,2.27282677613388,2.27327600268117,2.27307634643793,2.27338581361495,2.2733458823663,2.27348564173656,2.27295655269199,2.27346567611224,2.27362540110683,2.27370526360412,2.27400474796898,2.27419442140005,2.27451387138923,2.27488323543922,2.2755421010419,2.27571180884865,2.27579167134595,2.27593143071621,2.27636069163917,2.27683986662294,2.27719924786077,2.27817756345263,2.28049357587417,2.27989460714446,2.28172146177008,2.28298927891463,2.28507568665646,2.32614497589025,2.33446065842106,2.33366203344811,2.3331429272157,2.33368199907244,2.33247407880085,2.33261383817112,2.33225445693329,2.33082691479415,2.3295590976496,2.32962897733473,2.32975875389283,2.32792191645506,2.3279618477037,2.32714325710643,2.32726305085238,2.32722311960373,2.32678387586861,2.32725306804021,2.32743275865913,2.32772226021182,2.32840109143882,2.32897011173205,2.32904997422934,2.32987854763878,2.33072708667253,2.33204481787789,2.33262382098328,2.33268371785625,2.33373191313325,2.33339249751974,2.3336919818846,2.33419112249269,2.33391160375216,2.33320282408867,2.33275359754139,2.33110643353468,2.28636346942533,2.28605400224832,2.28551493039158,2.28492594447403,2.28488601322538,2.28431699293216,2.28330872890381,2.28297929610247,2.2834684538984,2.28261991486464,2.28263988048897,2.28243024143357,2.28362817889299,2.28196104926196,2.28191113520115,2.2820309289471,2.28258996642816,2.2829193992295,2.28099271648226,2.28186122114034,2.28158170239981,2.28180132426737,2.28109254460388,2.281531788339,2.28263988048897,2.28143196021739,2.28123230397415,2.28156173677549,2.28172146177008,2.28186122114034,2.28210080863223,2.28244022424573,2.28149185709036,2.28179134145521,2.2821607055052,2.28194108363764,2.28192111801332,2.28204091175926,2.28227051643898,2.28334866015246,2.28345847108624,2.28425709605919,2.28355829920786,2.28445675230242,2.28382783513623,2.28440683824161,2.28436690699297,2.28438687261729,2.2849059788497,2.28468635698214,2.28559479288887,2.28609393349696,2.28554487882806,2.28825022092392,2.28679273034829,2.28687259284559,2.28857965372526,2.28816037561446,2.2884898084158,2.28879927559282,2.29106537395356,2.29273250358458,2.29405023478995,2.35134159378672,2.35197051095292,2.35227997812994,2.35065277974756,2.35206035626238,2.35147137034483,2.35148135315699,2.35161112971509,2.35348789840152,2.35243970312453
0,0,0,0,0,0,0,0,0,0,0,0,0,0,0,0,0,0,0,0,0,0,0,0,0,0,0,0,0,0,0,0,0,0,0,0,0,0,0,0,0,0,0,0,0,0,0,0,0,0,0,0,0,0,0,0,0,0,0,0,0,0,0,0,0,0,0,0,0,0,0,0,0,0,0,0,0,0,0,0,0,0,0,0,0,0,0,0,0,0,0,0,0,0,0,0,0,0,0,0,0,0,0,0,0,0,0,0,0,0,0,0,0,0,0,0,0,0,0,0,0,0,0,0,0,0,0,0,0,0,0,0,0,0,0,0,0,0,0,0,0,0,0,0,0,0,0,0,0,0,0,0,0,0,0,0,0,0,0,0,0,0,0,0,0,0,0,0,0,0,0,0,0,0,0,0,0,0,0,0,0,0,0,0,0,0,0,0,0,0,0,0,0
2.24763015823741,2.2482590754036,2.24936716755357,2.25052517376434,2.25207250964943,2.25246183932374,2.25456821268988,2.25599575482903,2.2581220938195,2.26005875937889,2.30652874999224,2.30622926562739,2.3067483718598,2.3084753983638,2.30890465928676,2.30897453897189,2.30812599993814,2.30669845779899,2.3071676499706,2.30680826873277,2.30629914531252,2.30597969532334,2.30588985001388,2.30471187817879,2.30460206724501,2.3047617922396,2.3052309844112,2.30463201568149,2.30564027970984,2.305650262522,2.3060695406328,2.30649880155576,2.30690809685439,2.30778658432463,2.30903443584486,2.30861515773407,2.30891464209892,2.31161000138262,2.31058177172995,2.31188952012315,2.31212910761503,2.31361654662715,2.3146747247163,2.31503410595413,2.31707059963514,2.3168709433919,2.31591259342437,2.31702068557433,2.31881759176346,2.31519383094872,2.31789917304457,2.31991570110126,2.27407462765411,2.27427428389735,2.27378512610142,2.27304639800144,2.27262711989065,2.272587188642,2.27351559017305,2.27287669019469,2.27307634643793,2.27296653550415,2.27433418077032,2.27302643237712,2.27320612299603,2.2734756589244,2.27390491984736,2.27416447296357,2.27495311512435,2.27545225573245,2.27607119008648,2.27522265105272,2.27553211822974,2.27585156821892,2.27683986662294,2.28076311180254,2.27828737438641,2.27804778689452,2.27932558685124,2.28054348993498,2.28176139301873,2.28363816170515,2.28510563509294,2.32378903222006,2.32365925566195,2.33368199907244,2.32519660873488,2.33351229126569,2.33249404442518,2.33359215376298,2.3330630647184,2.32938938984285,2.32881038673746,2.32853086799693,2.32865066174287,2.3271532399186,2.32676391024428,2.32676391024428,2.32668404774699,2.32676391024428,2.32669403055915,2.32688370399023,2.32674394461996,2.32718318835508,2.32752260396858,2.32788198520641,2.32860074768206,2.32879042111314,2.33051744761713,2.33092674291577,2.33223449130897,2.33275359754139,2.33349232564136,2.33374189594541,2.33359215376298,2.33377184438189,2.3332727037738,2.33310299596705,2.33397150062513,2.33351229126569,2.33305308190624,2.33270368348058,2.28609393349696,2.2847762022916,2.28481613354025,2.28393764607001,2.28362817889299,2.28286948516869,2.28289943360518,2.28243024143357,2.28230046487547,2.28215072269304,2.28234039612411,2.28207086019574,2.28232043049979,2.28178135864305,2.28224056800249,2.28254005236735,2.2817414273944,2.28170149614576,2.28154177115117,2.28144194302955,2.28118238991334,2.28154177115117,2.28110252741605,2.28149185709036,2.28155175396333,2.28227051643898,2.28202094613493,2.28091285398497,2.28146190865387,2.28219065394169,2.28076311180254,2.28218067112952,2.28205089457142,2.28201096332277,2.28134211490793,2.28198101488629,2.28209082582007,2.28282955392004,2.28243024143357,2.28248015549438,2.28265984611329,2.28459651167269,2.28399754294298,2.28447671792675,2.28417723356189,2.28516553196591,2.28450666636323,2.28505572103213,2.28590426006589,2.28555486164022,2.28545503351861,2.28674281628748,2.28683266159694,2.28724195689557,2.28797070218339,2.28831011779689,2.28828016936041,2.28996726461576,2.29230324266163,2.29245298484405,2.29356107699402,2.35053298600162,2.34820699076791,2.34950475634895,2.35131164535024,2.35065277974756,2.35144142190834,2.35107205785835,2.35123178285294,2.35180080314617,2.35148135315699
2.24744048480633,2.24859849101711,2.24893790663061,2.25101433156027,2.2515034893562,2.25237199401428,2.25469798924799,2.25609558295065,2.25856133755462,2.30483167192473,2.30534079534498,2.3059896781355,2.30607952344496,2.30767677339085,2.30888469366244,2.3086850374192,2.3077965671368,2.30644888749495,2.30617935156658,2.30631911093684,2.30655869842873,2.30564027970984,2.30469191255446,2.30456213599636,2.30430258288015,2.30430258288015,2.30425266881934,2.30474182661527,2.30498141410716,2.30538072659363,2.30567022814632,2.30614940313009,2.30692806247872,2.3075869280814,2.30816593118678,2.30850534680029,2.30992290612727,2.31061172016643,2.31156008732181,2.31166989825559,2.31265819665961,2.31352670131769,2.31403582473794,2.31584271373924,2.31570295436897,2.31492429502035,2.31649159652975,2.31807886366349,2.31855803864725,2.31592257623653,2.31628195747436,2.27771835409318,2.27421438702438,2.27345569330008,2.27331593392981,2.27268701676362,2.27226773865282,2.27316619174739,2.27235758396228,2.27333589955414,2.27318615737171,2.27318615737171,2.27289665581902,2.27289665581902,2.27394485109601,2.27333589955414,2.27358546985818,2.27496309793652,2.27480337294193,2.27512282293111,2.27545225573245,2.27522265105272,2.27555208385406,2.27584158540676,2.27698960880537,2.27855691031478,2.27808771814317,2.27849701344181,2.27940544934853,2.2806433180566,2.28234039612411,2.32811158988613,2.32764239771453,2.32347956504304,2.32332982286061,2.32484721030921,2.32535633372946,2.33360213657514,2.32470745093895,2.33510954121158,2.33436083029944,2.32818146957126,2.32849093674828,2.32746270709561,2.3276224320902,2.32638456338213,2.32614497589025,2.32579557746459,2.32696356648752,2.32605513058079,2.32575564621594,2.32573568059161,2.32660418524969,2.32767234615101,2.32735289616183,2.32729299928886,2.32784205395776,2.32876047267665,2.33014808356715,2.33106650228603,2.33081693198199,2.33188509288331,2.33367201626027,2.33269370066841,2.33236426786707,2.33274361472922,2.33286340847517,2.33311297877921,2.33425101936566,2.33311297877921,2.28740168189016,2.28542508508212,2.28548498195509,2.28321888359435,2.28451664917539,2.28440683824161,2.28362817889299,2.28316896953355,2.28244022424573,2.28221061956601,2.28225055081466,2.28223058519033,2.28201096332277,2.2821607055052,2.28197103207412,2.28187120395251,2.28187120395251,2.28156173677549,2.281531788339,2.28096276804578,2.28177137583089,2.28151182271468,2.2814020117809,2.28116242428902,2.28143196021739,2.28074314617822,2.28069323211741,2.28044366181336,2.28164159927278,2.28217068831736,2.28155175396333,2.28025398838229,2.28191113520115,2.28200098051061,2.28177137583089,2.28200098051061,2.28204091175926,2.28183127270386,2.28147189146603,2.28206087738358,2.28307912422409,2.28256001799167,2.28236036174844,2.28286948516869,2.2838877320092,2.28393764607001,2.28386776638487,2.28387774919704,2.28442680386594,2.28449668355107,2.28472628823079,2.28489599603754,2.28619376161858,2.28576450069562,2.2864233662983,2.28719204283477,2.28839996310635,2.28926846776443,2.28835004904554,2.28902888027254,2.29168430830759,2.29364093949131,2.34966448134354,2.34687927675038,2.3491254094868,2.35004382820569,2.34957463603408,2.34917532354761,2.35141147347186,2.35109202348268,2.35139150784753,2.35136155941105,2.35088238442728
2.24720089731445,2.24788971135362,2.24967663473059,2.25098438312379,2.25241192526293,2.25335030960614,2.25513723298311,2.25657475793441,2.258461509433,2.30473184380311,2.30528089847201,2.3061993171909,2.30647883593143,2.30654871561657,2.3071676499706,2.30710775309763,2.30732737496519,2.30659862967737,2.30609948906928,2.30548055471525,2.30506127660445,2.3045521531842,2.30429260006799,2.30419277194637,2.30420275475853,2.30383339070855,2.30453218755987,2.30441239381393,2.30481170630041,2.30520103597472,2.3054406234666,2.30636902499765,2.3069580109152,2.30910431553,2.30783649838544,2.30887471085027,2.30968331863538,2.31040208111103,2.31153013888532,2.31246852322853,2.31334701069878,2.31396594505281,2.31392601380416,2.31484443252305,2.31622206060138,2.31447506847306,2.31427541222983,2.31148022482451,2.31647163090543,2.31034218423806,2.31483444971089,2.27516275417975,2.27494313231219,2.27324605424468,2.27260715426632,2.27227772146498,2.27223779021633,2.27254725739335,2.27198821991229,2.27198821991229,2.27290663863118,2.27231765271363,2.27218787615553,2.27351559017305,2.27307634643793,2.27304639800144,2.2738949370352,2.274314215146,2.27430423233383,2.27488323543922,2.27491318387571,2.27531249636218,2.27589149946757,2.2758316025946,2.27681990099862,2.27732902441887,2.27798789002155,2.27894623998909,2.27962507121609,2.28193110082548,2.28286948516869,2.32423825876734,2.32766236333885,2.32877045548881,2.33036770543471,2.33189507569547,2.33018801481579,2.33000832419688,2.32469746812678,2.33180523038601,2.32866064455503,2.32763241490236,2.32750263834426,2.32724308522805,2.32579557746459,2.32587543996188,2.32556597278486,2.32478731343624,2.32523653998352,2.32587543996188,2.32601519933215,2.32565581809432,2.3257656290281,2.32595530245918,2.32620487276322,2.32622483838754,2.32738284459832,2.32812157269829,2.33000832419688,2.33030780856174,2.33081693198199,2.3325140100495,2.33220454287248,2.33160557414277,2.33255394129815,2.33258388973463,2.33374189594541,2.33207476631438,2.33284344285084,2.28812044436582,2.28699238659153,2.28537517102131,2.28552491320374,2.28372800701461,2.28448670073891,2.28351836795921,2.28249013830654,2.28218067112952,2.28295933047815,2.28299926172679,2.28248015549438,2.28193110082548,2.28191113520115,2.28184125551602,2.28190115238899,2.28207086019574,2.28177137583089,2.28180132426737,2.28158170239981,2.28111251022821,2.28116242428902,2.28124228678631,2.28099271648226,2.28039374775256,2.28117240710118,2.28046362743769,2.28226053362682,2.28231044768763,2.28207086019574,2.28150183990252,2.28131216647144,2.28100269929443,2.28154177115117,2.28167154770927,2.28178135864305,2.28256001799167,2.2814020117809,2.2811923727255,2.28209082582007,2.28209082582007,2.28236036174844,2.28212077425655,2.28256001799167,2.28247017268222,2.28371802420245,2.2842271476227,2.28336862577678,2.28374797263893,2.28343850546192,2.28657310848073,2.28459651167269,2.28499582415916,2.28568463819833,2.28596415693886,2.28658309129289,2.28704230065234,2.28972767712387,2.28818034123879,2.28905882870903,2.2905562505333,2.2922832770373,2.29400032072914,2.29341133481159,2.34929511729355,2.35236982343939,2.34846654388412,2.34821697358007,2.35067274537188,2.35122180004078,2.35160114690293,2.35139150784753,2.35105209223403,2.35099219536106
2.24765012386173,2.24829900665225,2.24934720192924,2.25110417686973,2.25187285340619,2.25447836738043,2.2546680408115,2.2572835375979,2.25837166412354,2.30452220474771,2.30450223912339,2.30505129379229,2.30659862967737,2.30713770153411,2.30643890468279,2.30671842342332,2.30706782184898,2.30654871561657,2.30546058909093,2.30492151723419,2.30461205005717,2.30420275475853,2.30395318445449,2.30428261725583,2.30381342508422,2.30368364852612,2.30393321883016,2.30461205005717,2.30428261725583,2.30483167192473,2.30589983282605,2.3061993171909,2.30630912812468,2.30728744371654,2.30772668745166,2.30829570774489,2.30939381708269,2.30995285456375,2.31077144516102,2.31139037951506,2.31270811072042,2.31346680444472,2.31418556692037,2.31458487940684,2.31521379657304,2.31508402001494,2.31375630599741,2.31048194360833,2.31714047932027,2.31234872948259,2.30989295769078,2.31056180610562,2.27328598549333,2.27350560736089,2.27257720582984,2.27282677613388,2.2724574120839,2.27267703395146,2.27212797928255,2.2721679105312,2.27257720582984,2.27321610580819,2.27564192916352,2.27301644956496,2.27349562454873,2.27430423233383,2.27394485109601,2.27393486828385,2.2742343526487,2.2746536307595,2.27498306356084,2.2755421010419,2.27642058851214,2.27782816502696,2.27732902441887,2.27733900723103,2.27835725407154,2.27905605092287,2.28044366181336,2.28175141020656,2.32752260396858,2.32708336023346,2.32750263834426,2.32860074768206,2.32869059299152,2.32987854763878,2.3290100429807,2.33012811794282,2.33034773981038,2.32895014610773,2.3271532399186,2.32700349773617,2.32675392743212,2.32748267271994,2.32625478682403,2.32517664311055,2.32546614466324,2.32528645404433,2.32476734781192,2.32484721030921,2.32473739937543,2.32509678061326,2.32529643685649,2.32565581809432,2.32627475244835,2.32688370399023,2.32732294772535,2.330447567932,2.32979868514148,2.33034773981038,2.33062725855091,2.33169541945223,2.33041761949552,2.33134602102657,2.3313360382144,2.33150574602116,2.33148578039683,2.33073706948469,2.33163552257926,2.28732181939287,2.28644333192263,2.28554487882806,2.28428704449567,2.28392766325784,2.28338859140111,2.28376793826326,2.28267981173762,2.2825001211187,2.28243024143357,2.28205089457142,2.28351836795921,2.28303919297544,2.28206087738358,2.28193110082548,2.28193110082548,2.28188118676467,2.28159168521198,2.2806433180566,2.28082300867551,2.28132214928361,2.28087292273632,2.28092283679713,2.28109254460388,2.28130218365928,2.28091285398497,2.28069323211741,2.28152180552684,2.28025398838229,2.28045364462553,2.28135209772009,2.280852957112,2.28126225241063,2.28113247585253,2.28113247585253,2.28225055081466,2.28165158208495,2.28180132426737,2.28156173677549,2.28213075706871,2.28194108363764,2.28204091175926,2.28260993205248,2.28300924453896,2.282579983616,2.28271974298626,2.28317895234571,2.28413730231324,2.28653317723208,2.28423713043486,2.28429702730783,2.28528532571185,2.28563472413752,2.28567465538617,2.28609393349696,2.28601407099967,2.28720202564693,2.28662302254154,2.28689255846991,2.28971769431171,2.29040650835088,2.29039652553871,2.29371081917644,2.34441352214641,2.34709889861794,2.34871611418816,2.34532195805314,2.34923522042058,2.35164107815158,2.35116190316781,2.3500138797692,2.3514514047205,2.34991405164758,2.3507725734935
2.24746045043066,2.24899780350358,2.25033550033327,2.25149350654404,2.25188283621835,2.25319058461155,2.25587596108309,2.25785255789113,2.25885083910731,2.30350395790721,2.30514113910175,2.30559036564903,2.30660861248954,2.30707780466114,2.30646885311927,2.30663856092602,2.30668847498683,2.30543064065444,2.30549053752741,2.30420275475853,2.30393321883016,2.30368364852612,2.30402306413962,2.30356385478018,2.30432254850448,2.30372357977477,2.30315455948154,2.303923236018,2.30402306413962,2.30479174067608,2.30507125941661,2.30590981563821,2.30663856092602,2.30665852655035,2.30760689370572,2.30763684214221,2.30918417802729,2.30972324988403,2.31060173735427,2.31152015607316,2.31242859197989,2.31334701069878,2.31389606536768,2.31390604817984,2.31438522316361,2.31382618568254,2.31650157934192,2.31539348719195,2.30815594837462,2.308056120253,2.30844544992731,2.31007264830969,2.27356550423386,2.27298650112847,2.27324605424468,2.27246739489606,2.27238753239876,2.27199820272445,2.27190835741499,2.27244742927173,2.27253727458119,2.27293658706766,2.27378512610142,2.27337583080278,2.2735555214217,2.27384502297439,2.27470354482031,2.274314215146,2.27439407764329,2.2747834073176,2.27508289168246,2.27536241042299,2.27648048538512,2.27707945411483,2.27669012444051,2.27740888691617,2.279125930608,2.27942541497286,2.28199099769845,2.28293936485382,2.28419719918621,2.32672397899564,2.32696356648752,2.32798181332803,2.3288004039253,2.32844102268747,2.3293494585942,2.32875048986449,2.32819145238343,2.32743275865913,2.32700349773617,2.32700349773617,2.32608507901728,2.32512672904974,2.32623482119971,2.32472741656327,2.32391880877816,2.3244578806349,2.32381898065654,2.32386889471735,2.32441794938625,2.3246675196903,2.32470745093895,2.32522655717136,2.32622483838754,2.32658421962537,2.32702346336049,2.32773224302398,2.32865066174287,2.32974877108067,2.3300282898212,2.33042760230768,2.33072708667253,2.33100660541306,2.33048749918065,2.33173535070088,2.33111641634684,2.33089679447928,2.33116633040765,2.28673283347532,2.28631355536452,2.28602405381183,2.28431699293216,2.28378790388758,2.28370804139028,2.28265984611329,2.28299926172679,2.28251010393086,2.28208084300791,2.28238032737276,2.28370804139028,2.28282955392004,2.28221061956601,2.28192111801332,2.28183127270386,2.28151182271468,2.28132214928361,2.28111251022821,2.28111251022821,2.28159168521198,2.28159168521198,2.28019409150932,2.28141199459306,2.28110252741605,2.28074314617822,2.28088290554848,2.28080304305119,2.28088290554848,2.28101268210659,2.28104263054307,2.28110252741605,2.28186122114034,2.28179134145521,2.28099271648226,2.28156173677549,2.28181130707954,2.28129220084712,2.28167154770927,2.28240029299708,2.28187120395251,2.28138204615658,2.28190115238899,2.28253006955519,2.28290941641734,2.28274969142275,2.28337860858894,2.28356828202002,2.28416725074973,2.28462646010917,2.28413730231324,2.28531527414834,2.28471630541863,2.28565468976184,2.28638343504966,2.28648326317128,2.28798068499555,2.28644333192263,2.28696243815504,2.28841992873067,2.28903886308471,2.29107535676572,2.29352114574537,2.34530199242881,2.34350508623968,2.35133161097456,2.35023350163676,2.35138152503537,2.34994400008407,2.35000389695704,2.3511918516043,2.35099219536106,2.34927515166922,2.35038324381919
