2.24119375118776,2.24138456738664,2.24132308175013,2.24244355667981,2.24378519726896,2.244220044309,2.24485633986855,2.24522428327025,2.24649343351729,2.2472019324065,2.2490923160469,2.24968127166248,2.25055744431434,2.25228893294822,2.25340205652898,2.25479080910398,2.25402056497344,2.30238660720139,2.30346761324222,2.3043843705068,2.30618449812455,2.30557741771978,2.30485059558641,2.30574248963986,2.30530444023613,2.30328220210357,2.30325737130321,2.30296881498894,2.30233887252471,2.3019628654216,2.30108624812922,2.30105288994383,2.30052951920494,2.30037388006556,2.30101803091244,2.30114586439879,2.30133413758622,2.3012998640004,2.30182002466757,2.30249592053426,2.30310505313874,2.30357842176389,2.30387256267466,2.30476405479045,2.30631046179519,2.30719069019776,2.30777962589927,2.30822239033172,2.30951436459236,2.31076771936899,2.31167902854604,2.31214857126349,2.31220243772837,2.3127814655045,2.31167499161702,2.31177987006147,2.31233878673505,2.31314640133321,2.27315973545694,2.27268610113582,2.27199033057332,2.27167547921786,2.27145075153247,2.27064822463711,2.27096270993731,2.27231098812299,2.27159824123992,2.27135168863005,2.27100339554051,2.27126434985243,2.27133020869551,2.27185746281001,2.27195196013397,2.27193882429009,2.27197541045821,2.27265409778406,2.27262380834308,2.27254016370328,2.27268252017839,2.27340715633478,2.27374092284009,2.27400764160908,2.27429410237813,2.27444349403063,2.27462957432093,2.27514386645264,2.27513941310891,2.27515334146311,2.27536973243613,2.27570641193879,2.27652408830569,2.27715657682803,2.27786231437121,2.27836186475207,2.27927377253298,2.28042655914503,2.28239347769646,2.28325190571021,2.28414785730079,2.34069289567986,2.34109519797276,2.34116121662427,2.34206729597026,2.34247974920748,2.3421984318838,2.34144119880987,2.34136025864699,2.34076543899474,2.34071226926313,2.3404203830767,2.3423778505494,2.34108672999939,2.34092159988814,2.33980688803388,2.33894384901761,2.33843107209265,2.33936161583366,2.3401607948394,2.33974992232112,2.34099497277491,2.34027165354287,2.34098937343806,2.34163648979588,2.34259471768817,2.34285905049162,2.34344780220623,2.34398126393692,2.34425099300196,2.3436712545149,2.34437221175113,2.34414644077984,2.34432606889265,2.34446425834899,2.34387480202549,2.34349225862032,2.29081950295127,2.29133588553527,2.29041338803985,2.2893762735436,2.28772992780146,2.28720637707285,2.28733145952422,2.28783291110515,2.28697595166951,2.2862704818147,2.28628247929724,2.28634869967791,2.28626216481268,2.28632847141053,2.28641991093284,2.2869204135134,2.2866601171806,2.2869433226483,2.2863800030551,2.28593743611575,2.28588613472872,2.28617054906978,2.28620593127579,2.28642822365854,2.28629000306195,2.2864844561373,2.28645192325684,2.28628798940324,2.28630154899521,2.28720631890453,2.28833717038919,2.28753038728722,2.28693668091732,2.28759916104558,2.28720394147735,2.2879298045672,2.28787831399825,2.2877074132704,2.28798962765601,2.28864460141064,2.28954226303657
2.24179490979385,2.24189985254089,2.24207900492617,2.24276700413127,2.24385222154479,2.24475026785457,2.24525992621045,2.24576876479137,2.24661514675772,2.247659298789,2.24900425892154,2.24977544582263,2.25058465192069,2.2518124177497,2.25302775381346,2.25364998390231,2.25325126995139,2.28136990164989,2.30379660317596,2.30446076938311,2.30551116536829,2.30582244736776,2.30568523262191,2.30534694962782,2.30474770089556,2.30394227810729,2.30363484565513,2.30332704531549,2.30290658393843,2.30243823798999,2.30173808563868,2.30158362167488,2.301385223302,2.30120918547129,2.30124886635624,2.3014639561269,2.3017040249567,2.30195409022045,2.30238987376478,2.30293175192361,2.30344043011718,2.30401320332185,2.30459083388005,2.30551575578128,2.30647598747491,2.30733232479943,2.30808640882731,2.3087595313732,2.30968173376318,2.31085048118457,2.31177459409455,2.3124797770423,2.31286614251974,2.31331931095154,2.31213493237507,2.31172602300663,2.31184458765427,2.31208809053374,2.27407074615014,2.27350009686205,2.27268982441332,2.2718641879348,2.27131742243565,2.27091759241661,2.27101037336001,2.27135749403392,2.27149851081901,2.2716324078065,2.27192365611347,2.27165623062912,2.27169841107408,2.27189477802775,2.27204858199336,2.27208168850867,2.27234267681446,2.27266843100372,2.2727932936527,2.27285250087858,2.27302604845763,2.27357474951821,2.27410854645435,2.27427784485653,2.27443937388183,2.27457178043951,2.27473332630418,2.27509104310915,2.27524234688819,2.27536147924393,2.27560466165535,2.27602155060813,2.27661355007693,2.27718674437412,2.27778354877444,2.27857999959797,2.27961576478062,2.28116913228129,2.28285697242466,2.2839263036353,2.28488114453557,2.3398272693744,2.34020565253607,2.34080228276638,2.34179084446519,2.34242823866791,2.34225576740489,2.34200102946096,2.34192604878504,2.34173917350818,2.34171408418906,2.34146153714947,2.34178956201954,2.34153054368859,2.34123849250126,2.34100712279267,2.34012455610173,2.33987463330082,2.34017522726813,2.34050177740537,2.34082821944355,2.34116702715932,2.34127414030516,2.34170430327225,2.34206255332639,2.34266543099411,2.34328635001605,2.34397592869265,2.34453392088929,2.34491509664258,2.34458864819872,2.34465640752197,2.34463596402439,2.34466664936299,2.34423390144363,2.3431892060513,2.34227953692069,2.29175728945981,2.29159721966396,2.2905381092673,2.28936579377132,2.28833824610509,2.28752151457945,2.28733846644513,2.28731768545748,2.28696674160503,2.28679706134273,2.28676148266519,2.28680522334587,2.28686517398775,2.2866515382148,2.28662737922834,2.28681749530454,2.2867827488196,2.2867608036661,2.28663979197414,2.28649432972914,2.28657361509331,2.28660422609773,2.28664064311548,2.28664467141925,2.28657017035712,2.28667729921271,2.28667557268285,2.2866491955103,2.28678402958172,2.2873157367498,2.28777133952482,2.28776270318475,2.28771560996736,2.28773369718937,2.28779788997987,2.28817943673011,2.28821122373293,2.28824206513326,2.28873145786105,2.28932358560448,2.28957874503391
2.24313444939894,2.24247131912698,2.24233703954765,2.2428116416674,2.24402187005113,2.24571358151705,2.24563659581172,2.24600543132169,2.24647275411399,2.24785228217204,2.24947647894029,2.24998783832121,2.25041971839174,2.25201519431006,2.25406426258774,2.25549167595893,2.25456547672763,2.25741088109881,2.30495982027998,2.30518013526274,2.30613601700148,2.30631453036639,2.30638183946469,2.30498097884152,2.30440123121418,2.30400407591086,2.30397245389656,2.30360811501436,2.30351010041232,2.3030032152632,2.30180191626569,2.30207976078414,2.30211045213439,2.30169807552463,2.30120309690175,2.30162560644168,2.3020263625276,2.30233378860629,2.30278004011542,2.30329522165925,2.30357350909111,2.30438057223525,2.30493087243502,2.306265108383,2.30670605888604,2.307418925586,2.30840986886995,2.30907710348193,2.30991256977898,2.31126496579042,2.31200323338426,2.31282723359105,2.31322210926482,2.31548531336623,2.31200350590314,2.3114171052497,2.31152724514168,2.31217009541115,2.27327414645328,2.27288116626959,2.27254564858417,2.27177154221669,2.27127109115638,2.27096175004709,2.27076844516467,2.27063985170245,2.27131225288865,2.27175329910864,2.27327101974691,2.27177113705749,2.27180860408562,2.27197181033618,2.27214363468228,2.27204376636563,2.27250566149193,2.27289229426526,2.27294545357128,2.27302850736107,2.27292400240953,2.27373380972461,2.27478337700256,2.27449935832982,2.27457938786515,2.27459342003213,2.2746088435229,2.27515947179635,2.27534036185392,2.27537969115161,2.27563153860965,2.2760859168667,2.27669352925459,2.27720664067382,2.27762488694115,2.27878193517252,2.27956109933646,2.28133301075727,2.28242877850433,2.28281022618655,2.2841560749508,2.34110520840833,2.34095186832804,2.34117729301818,2.34204447531815,2.34290132619477,2.34211451176811,2.34205087259445,2.34237447982727,2.34237585280202,2.34299271217007,2.34184305003716,2.34172218461085,2.34183329739312,2.34142776052075,2.34294949216788,2.34072836973616,2.34072188906839,2.3407942826667,2.34079871253961,2.34193045625098,2.34166444620873,2.34187573013556,2.3423249592186,2.34212607818289,2.34262512770192,2.34363139875607,2.34448005011887,2.34506856037923,2.34598781021257,2.34485348950937,2.34446582529929,2.34459354170403,2.34540468963661,2.34597418953126,2.34485097769719,2.34352873491554,2.2915998838475,2.29132657956124,2.29006243709427,2.2892721317686,2.2890433261227,2.28754588228095,2.28735555754543,2.28707245687241,2.28677126170469,2.28704955889235,2.28713447643665,2.28716181397742,2.28768165526927,2.28670228672284,2.28655916318875,2.28686655042382,2.28681859794784,2.28661675018933,2.28678855935873,2.28676755890676,2.28717194513021,2.28699519956152,2.28700229920049,2.28686899565447,2.28657915611863,2.28690475894776,2.28687501587512,2.28673989243426,2.28684626928999,2.28738190202409,2.28762353040841,2.2879477233426,2.28835241044771,2.28775157496033,2.28799292191855,2.28870291633436,2.28849256565854,2.28822123768018,2.28930360357312,2.29023781867773,2.2898328198874
2.2422917287497,2.24257367512718,2.24325523307869,2.24304914677664,2.24403733351537,2.24503437846527,2.24560173991337,2.24590410698544,2.24694095330258,2.24780791527631,2.24932453524094,2.25029511445852,2.25098860567096,2.25265391498886,2.25492164833134,2.25709671045501,2.26580293634275,2.30648033389291,2.3055358493627,2.30600315246634,2.30632137474559,2.30662386782024,2.30669519222318,2.30531620365846,2.30468255795659,2.30447388205327,2.30443785505624,2.30422158254866,2.30586218653678,2.30280786844527,2.30219208642467,2.3027276168022,2.30350184441454,2.30222444895646,2.30188186550604,2.30203519166865,2.30231751470401,2.30230982020908,2.30274553636537,2.30352660533019,2.30427026154634,2.30482709998915,2.30532544948343,2.30609148506823,2.30701331973237,2.30815378540405,2.30885156445043,2.30931325000971,2.31069844564542,2.31214164627313,2.31247363375845,2.31333721129847,2.31433926138258,2.31481154940113,2.31584243942185,2.31081856418652,2.30540506478559,2.27405077288103,2.27399533565179,2.27273158115594,2.27155124338429,2.27155327173075,2.27143312466896,2.27076927951196,2.27092998561337,2.27119496713216,2.27138175623373,2.27152329832361,2.27186534478542,2.27175880634601,2.27194084966644,2.27192972700097,2.27187398969567,2.2720593592478,2.27234660425336,2.27271622636083,2.27306676311592,2.27351976876817,2.2735333582615,2.27347832541235,2.27394240623452,2.27437240891349,2.27466156409886,2.27505804599848,2.27526164943177,2.27548538931857,2.27551824787181,2.27555289663136,2.27586785856136,2.27599624361302,2.27689139672455,2.27730720250296,2.27756996718211,2.27853675432429,2.27920163154611,2.28094199033526,2.28200188233247,2.28295784449467,2.28310312066913,2.34116017155719,2.34093289177664,2.34154688945548,2.34202512465966,2.34242695540042,2.34249142714519,2.34226001367844,2.34296246810126,2.34314501211188,2.34260165422305,2.34194642015869,2.34196381513719,2.34255410309158,2.34254194755933,2.34180946535439,2.3411903278841,2.34105324587386,2.34142661942458,2.34162390659997,2.34185900762029,2.3423281475393,2.34417787818076,2.34351021241985,2.34320304075763,2.3450835358875,2.34493864790731,2.34476062627611,2.34514691193325,2.34509596830401,2.3450773754608,2.34522517014566,2.34529049727155,2.34623222014187,2.34708641155152,2.34938120831237,2.34627825837807,2.29143965696769,2.29109849194091,2.29004554876284,2.28889346121692,2.28831514511067,2.28779405231481,2.28750813532449,2.28695087074673,2.28704864630909,2.28698639063174,2.28677829972727,2.28703007423336,2.28721769404486,2.28671109190535,2.28668411989418,2.28682324682102,2.28694183553891,2.28706809166232,2.2871181084931,2.28667825266254,2.28693980669036,2.28712512405119,2.28749486128381,2.28747575640034,2.28685798143023,2.28712977935348,2.28709663667237,2.28703110259871,2.28721944574252,2.28740171551943,2.28750714366788,2.28803266206011,2.2883170144617,2.28803204978358,2.28825523762673,2.28869545796632,2.28880113903508,2.2889299919182,2.28941982613321,2.28959167678861,2.28963328036969
2.24204130402137,2.24235268857242,2.24257598087706,2.24363593019841,2.24424123843635,2.24528096874797,2.24571825209453,2.24629364054605,2.2471806583323,2.24807809595095,2.25010237062253,2.25089871164756,2.2516985521836,2.25302472436438,2.25525067043885,2.25729191040101,2.27190018189756,2.3061074945587,2.30534927704653,2.30576665926967,2.30649994388465,2.30684349926102,2.30738325478274,2.30629657309684,2.30519257227152,2.30547766049233,2.30509840931214,2.30543747991252,2.30439608986544,2.30331034824293,2.30250593853238,2.3030338567867,2.30334859052163,2.30293139348841,2.30232502383265,2.30281956498471,2.30287599070941,2.30302093183168,2.3032541846676,2.30435291551092,2.30482954428713,2.30529274075147,2.3056085954941,2.3065600933401,2.30774083063631,2.30855833643821,2.30938865018198,2.31032042508257,2.31127000242416,2.31270882162354,2.31282241060168,2.31348373747269,2.31383240501111,2.31487887345252,2.31570911481852,2.31692575651389,2.29531969266964,2.27430508624493,2.27369433353787,2.27399493205254,2.27245970907012,2.27176162362068,2.27097111926641,2.27106992852249,2.2717397140946,2.27146251718865,2.27140776183965,2.27129138557942,2.27141657414351,2.27157985410867,2.27187106254476,2.27201355687612,2.27203388692805,2.2732734298584,2.27246789934739,2.27291314856485,2.27302296258738,2.27319708928803,2.27272760964934,2.27372272397437,2.27399197892337,2.27432312774503,2.2744261743619,2.27484141176976,2.27525985626043,2.27552638282001,2.27571190296071,2.27609907646914,2.27593959151174,2.27624022218553,2.27749131491739,2.27758617621522,2.27781717260723,2.27858975863266,2.27912722352035,2.28064242132312,2.28151437712624,2.28202507287676,2.28352715587993,2.34129104133318,2.34185194949284,2.34221293271499,2.34246450617449,2.34297086958572,2.34380406951496,2.34435389957336,2.34403539123682,2.34402273350783,2.34380597262275,2.34308286515081,2.34529368506625,2.34372084552294,2.34274568850171,2.34203244084064,2.34165358571676,2.34143244150305,2.3420803830254,2.34248663426626,2.34228120982308,2.34292598690618,2.34398444756233,2.34420918478286,2.3446781996603,2.34539230109129,2.34570771123699,2.34562271254942,2.3457957028694,2.34602008229506,2.34590856342793,2.34592183127346,2.3462971558238,2.34689280301071,2.34764265502378,2.34816043167282,2.34891108379177,2.34839321332802,2.29718854136723,2.29023146939617,2.28898710324182,2.28827206188522,2.28834540510192,2.28795335540453,2.28769802905616,2.28780164618729,2.28729675159032,2.28668624133417,2.28687101216517,2.28680789348317,2.28697774843295,2.28700397302324,2.28722243657799,2.28708028415006,2.28684900109256,2.28738584911903,2.28679871665184,2.28725408426746,2.28704749094835,2.28673872472165,2.28700466887864,2.28721342679309,2.28726830700226,2.28737121844967,2.28735622932399,2.2872024239511,2.28781581823637,2.28813586610355,2.28834470194164,2.28855723307804,2.28878718841649,2.28885931059171,2.2888590484805,2.28904113385083,2.2891621861327,2.28933072008122,2.28953209118125,2.28949836540275
2.24141799102365,2.24214866759111,2.24253605863629,2.24357451170062,2.24440492899431,2.2451544510754,2.24577601880764,2.24606333059951,2.24742158372827,2.24876144848779,2.25029139913293,2.2513946344475,2.25273968746327,2.254143490406,2.25600754890218,2.25775653384302,2.28165017657219,2.30670853042152,2.3060934401293,2.30608349488532,2.30647826018133,2.30688062076237,2.30690354321181,2.30587383824478,2.30584327820929,2.30512423120182,2.30493154710267,2.30440238406945,2.30368488824158,2.30397960528262,2.30400936901667,2.30360834796805,2.30350123520428,2.3032605903013,2.30263185889859,2.30309520996541,2.30329789950789,2.30353809740175,2.3039015295525,2.30531365761827,2.30533415275551,2.30586994815078,2.30627312809922,2.30713921353827,2.30862344872144,2.30919212045712,2.30970879000472,2.31009294205789,2.31106976375965,2.31251184270792,2.31315938079874,2.313814164022,2.31425766470074,2.31505082212648,2.31602452644628,2.31638146470606,2.28485760264342,2.27404685221137,2.27334651062447,2.27267630784783,2.27332499725199,2.27204972860173,2.27108051739644,2.27083948147203,2.2715321722089,2.27188578841246,2.27164277681468,2.2714537539433,2.27110924424945,2.27173566862566,2.2722372988685,2.27206303369499,2.27191892446807,2.27226556304995,2.27337263591856,2.2727229555539,2.27297573595055,2.27295788673697,2.27311916660172,2.27373291633391,2.27431631151444,2.2745832280617,2.27494291325988,2.27493571185458,2.27484234812574,2.27524121134983,2.27567252506153,2.27563551933177,2.27649032032096,2.27618149162351,2.27738538458181,2.27769612308957,2.27812299120101,2.27819906838902,2.27937095331113,2.28069551669632,2.2814078365084,2.28180150672849,2.28346069081331,2.28468849384479,2.34236368001622,2.34337200674798,2.34619785328417,2.34392621225257,2.34410867481341,2.34452189406,2.34465231241472,2.34419549422094,2.34345284970388,2.34419307802024,2.34437074788558,2.34420783746623,2.34349189403597,2.34580362943414,2.34285411381937,2.34210646075147,2.34287863560437,2.34329775228133,2.34383115197829,2.34448489081809,2.34450147872065,2.34462734022985,2.34454716904757,2.34517543076695,2.34603947117194,2.34617106381019,2.34636946838639,2.34689644770993,2.34749229261407,2.34724318529579,2.34743772134243,2.34750302627428,2.34779278843698,2.34829279045349,2.34925601644684,2.3497377203414,2.30011997212001,2.29038131231876,2.28948201235413,2.28940630638336,2.28832733615302,2.28825180309522,2.28816090303564,2.2876380444316,2.28735960615225,2.2868820213163,2.28707874092118,2.28699549129121,2.28791245474676,2.28772891486153,2.28733463608423,2.28726328072644,2.28709445113804,2.2873963679947,2.28723239752276,2.28716005574787,2.28708068676427,2.28674849916896,2.28699811324899,2.28737918337857,2.28795303486582,2.28771854914892,2.2874739130701,2.28776670952186,2.28806368376679,2.28885808503358,2.28871308947568,2.28863077890564,2.28904147452825,2.28972997739211,2.28935019951392,2.28938833034922,2.28933584280508,2.29010624303272,2.29018859082288,2.2898870197597
2.24165097124092,2.24223254181145,2.24243682799093,2.24373536660581,2.24471353150296,2.2454533936153,2.24599745674832,2.24649754960996,2.24768274390362,2.24882444707874,2.25048171467926,2.25157010187827,2.25238484674255,2.25452381122346,2.25597455522797,2.25775089653929,2.28977566625514,2.30617573321277,2.3063165877326,2.30613097811084,2.30737060155051,2.3072426760287,2.30719074983556,2.3057079535824,2.3056004780182,2.30523374595614,2.30518820825923,2.30490491032324,2.30469458853509,2.30430502490879,2.30382544254661,2.30377228523764,2.30362053572393,2.30415303915896,2.30318704727844,2.30305281381876,2.30367574620903,2.30380357375386,2.30472700067039,2.30632646684339,2.30653945465662,2.30661642833601,2.30676883540972,2.30808435585707,2.30893748342762,2.30956033211263,2.31015698982891,2.3103835870042,2.31164069008979,2.31294100220117,2.3134835592584,2.3142052026084,2.31476120116412,2.31564023723484,2.31678407290705,2.27463941470286,2.27428081539362,2.27527954528109,2.27349911217421,2.27353378526604,2.2720019549485,2.2721072048904,2.27192872608227,2.27247037618581,2.27156652950523,2.27220561066353,2.27167916174992,2.27137615320819,2.27144726850983,2.27217513900085,2.2721530803134,2.27221649076875,2.27196280995482,2.27307266712243,2.27284749579901,2.27286107476857,2.27311122106614,2.27306264261242,2.27367001735279,2.27417782968162,2.27443486459967,2.27464390328007,2.27495417696378,2.27487142657661,2.27569313222768,2.27601984451293,2.27610869114031,2.27624923134854,2.27649150296394,2.27693482929866,2.27736466802951,2.27771751848299,2.27793738248843,2.27876575584959,2.28022024868738,2.28085705280229,2.28158103013643,2.28270646371883,2.2846497231582,2.28510720220306,2.34262121463603,2.3433985080032,2.34413114609705,2.34448712064905,2.34525564703585,2.34536266292466,2.34597715649953,2.34689328022197,2.34629401495836,2.34598883847345,2.34477222339529,2.34519033517917,2.34609318406791,2.34476514443286,2.34436236791941,2.34321067417006,2.34392389851796,2.34446700651341,2.3464580579625,2.34528692695929,2.34486244957039,2.34521398750281,2.34515255747054,2.346071546123,2.34664748875886,2.34661258695521,2.34701914611493,2.34726372004975,2.34809295560247,2.34832800115497,2.3479277032201,2.34806161815825,2.34835687032962,2.34910868735158,2.34934766260336,2.34945430080369,2.30325129814178,2.29090727267808,2.29030787323574,2.28949809744265,2.28858114211585,2.28854232352358,2.28823149213996,2.28854906102047,2.28751340688168,2.28765045423629,2.28742139790317,2.28706165328767,2.28730554406343,2.28747956040586,2.2874789947912,2.28759927815891,2.28761204444158,2.28785769572505,2.28734224373737,2.28741440538418,2.28734322500399,2.28713188191687,2.28714820982464,2.28772250974109,2.28800085623079,2.28811129279995,2.28799821501201,2.28811172966252,2.28786586426345,2.28898418415883,2.28897380378054,2.28886392505689,2.28892573105321,2.28955333886891,2.28972840286306,2.28979408981756,2.29000425568933,2.29043536121753,2.29065206093776,2.29121643336176
2.24186815947446,2.24256315386324,2.24308941526697,2.24386371776185,2.24498328754026,2.24563530014123,2.2463368588471,2.24692685595069,2.2485869707605,2.24891869549178,2.25080654235498,2.2518771147886,2.25274136733672,2.2548049301503,2.25753121533709,2.2581074134243,2.29881795419829,2.30542803029136,2.30612835548172,2.30684294065036,2.30773082618993,2.30758781825632,2.30736642206616,2.30661482845674,2.30624891415427,2.30555212338615,2.30551988440472,2.30568944436013,2.30452290377115,2.30470668874272,2.30429161396732,2.30414593581375,2.30380813437918,2.30345557144015,2.30339584723363,2.3038813790056,2.30445058644431,2.30528457392343,2.3058147094266,2.3055554100936,2.3066834756267,2.30719321023315,2.30772237501356,2.30836862126575,2.30949337825595,2.31040566074663,2.31093858670569,2.31116597591816,2.3128583709595,2.31403268501168,2.31421042160801,2.31488424165417,2.31541838360306,2.31531735288074,2.31634958154803,2.31645052840746,2.27397771791655,2.27469843268647,2.27364316332392,2.27236626835388,2.27225193382476,2.27230645041901,2.27207250075922,2.27178907324209,2.27180855501399,2.27134770187226,2.27165634271266,2.27153079318667,2.27199066760397,2.27216162401381,2.27256311699785,2.27248090611249,2.27248230658843,2.27268524381238,2.2731038093807,2.27367364805609,2.27360691803123,2.27349056811983,2.27381296598135,2.27431982513327,2.27436632109862,2.27467566202047,2.27480594217037,2.27539875700011,2.2762262055224,2.27644369504447,2.27645461662709,2.27654398032167,2.27675730679642,2.27693624712957,2.27745023058909,2.27780236261494,2.27810687049417,2.27947427180957,2.27991200015701,2.28071257053514,2.28129925576121,2.28185565452836,2.28310927793473,2.28526858915415,2.346095930551,2.34452799298757,2.34533164513471,2.34512545051633,2.34564116413786,2.34636989527167,2.34702291056338,2.34761070038959,2.34793318969471,2.34729814766559,2.34566392088432,2.34581094806399,2.34560946511567,2.34527703540236,2.34557947106306,2.34552692268511,2.34516610573873,2.34543724488451,2.34543817735511,2.34564010564866,2.34603257232818,2.34635095484859,2.34725644175942,2.34728207391418,2.34707993650551,2.34750263857019,2.34799880303152,2.34839338115163,2.34878947865709,2.34946278219925,2.34888178352513,2.34898413419059,2.3494432193388,2.34849441636512,2.34815291310175,2.34842694546556,2.31047820154977,2.29083944099006,2.29059821155223,2.28963486522447,2.28935444901103,2.28903124704786,2.28879464218007,2.28826468246689,2.28827382999978,2.28803788345702,2.28803252037808,2.28816473649301,2.28785714114664,2.28781283610261,2.28803953712616,2.28796007626736,2.28800041019186,2.28814285027807,2.28806186472631,2.28759807283148,2.28772792317928,2.28791467092081,2.28782432689742,2.28811913958733,2.28838548809248,2.28864948958774,2.28896710696149,2.28874618622635,2.28930105086891,2.28924407288328,2.28940758426248,2.28918993447976,2.28942591764545,2.28960862819559,2.2894827433502,2.29005637408134,2.29037542564182,2.29014339500686,2.29092971972414,2.2915539237578
2.24261293418246,2.24305921984561,2.2435265801004,2.2438878674704,2.24482226207414,2.24622924171992,2.24661720172703,2.24715444232449,2.24800354371754,2.24908092951185,2.25126066476868,2.25233164724765,2.25362850293038,2.25566370778092,2.25687842047593,2.30535195599882,2.30512939265948,2.30568174853678,2.30648433551595,2.30704041091694,2.3080737904713,2.30782242095898,2.30717138838899,2.30692166913393,2.30616940094885,2.30574996215694,2.30568036946545,2.30536011934623,2.30481382104459,2.30471359809244,2.30515527667833,2.30454651549714,2.30392336760068,2.30421110143449,2.30398941868923,2.30434982936383,2.30493144856741,2.30532193820416,2.30596438562079,2.306039469108,2.30709157354553,2.30764859235536,2.30811976493233,2.30882299078832,2.31001940888747,2.31148766779628,2.31186620153861,2.31224384886166,2.313599310597,2.31427220271903,2.31552859152165,2.31552425918092,2.31509093484002,2.31456215189693,2.3144314079946,2.31457660318708,2.27382230573599,2.2740157924002,2.27318014008846,2.27274336066103,2.27300998322765,2.27289856810672,2.27304822083961,2.27173619940492,2.27146526294931,2.27210671034917,2.27188373634364,2.27195842959142,2.27187006419389,2.27224610046899,2.27284734963067,2.27283652423493,2.27298247515004,2.27293572481992,2.2733498822368,2.27427281726951,2.27406408199911,2.27429707414215,2.27409101713124,2.27423814937214,2.27450264499928,2.27480270065855,2.27503101362385,2.27546154400837,2.27597335248781,2.27714797024143,2.27670157304097,2.27644284604905,2.27637393976963,2.27679399064937,2.27761946964491,2.27796321231826,2.27818079694791,2.27866437192596,2.27956378815263,2.28011157604753,2.28090320348122,2.2815196348606,2.28309764486349,2.28476949804992,2.3454338814159,2.34459935543841,2.34525429367749,2.34546966027834,2.3467609401559,2.34843760917322,2.34834626012951,2.34931124706656,2.34982637325646,2.34836529028923,2.34743926535886,2.34687189338011,2.34622866148696,2.3459645531392,2.34647748134593,2.34563917156827,2.34584250403089,2.34571334988576,2.3474776851037,2.34665400259969,2.34636354265323,2.34701290143865,2.34736444390851,2.34747969743706,2.34783423274401,2.34823234931532,2.34942093111183,2.34981271828509,2.3506472217217,2.35137255171032,2.35035679647468,2.34990712926266,2.34991264813064,2.34901569482776,2.3476444402752,2.34776136710932,2.32016376354202,2.29096354233456,2.29075641292368,2.28994754960213,2.28995562372009,2.28943025724777,2.28853856836749,2.2882891600055,2.28798917701209,2.2887212832077,2.28836462200648,2.28844420081549,2.28801527395551,2.28832244114834,2.28848689519274,2.28826102918228,2.28813972791414,2.28817535127844,2.28809723913064,2.28810842322897,2.28806355031392,2.28795014713442,2.28770765162977,2.28880499953849,2.2891570433233,2.2891513583443,2.28913613540409,2.28926838451609,2.28992348428382,2.2909374045638,2.29017349854865,2.29005612942549,2.28981608149663,2.29031935182478,2.29091037692694,2.29056179965597,2.2904249540357,2.29059484775787,2.29151558211401,2.29168822062177
2.24315308912472,2.24346225290392,2.24406738163821,2.24436574123848,2.24522099141309,2.24603107370114,2.24682478259358,2.24739210256647,2.248237018729,2.25036392032555,2.2515555579908,2.25257293504032,2.25373216843402,2.25555672934447,2.25784287784033,2.25996966018199,2.30540787288202,2.30616662190654,2.30727433242077,2.30794469476922,2.30827425852306,2.30838492993617,2.30863371758771,2.30713546222275,2.30658815465074,2.30586772365369,2.30589766916091,2.30551405424298,2.3048039600912,2.30511694208054,2.30539878829193,2.30500024105583,2.30417484521995,2.30434963970433,2.30471719334958,2.3052229055804,2.30547741108823,2.30556276623322,2.30623441240154,2.30746352075469,2.30725417680371,2.30796898720579,2.30823775481094,2.30952063664758,2.31036183019308,2.31169634467696,2.31245206304382,2.31324816186157,2.31394782590348,2.31597525296441,2.31711730882011,2.31633404943778,2.31469490407874,2.31408805084871,2.31276477320089,2.27506610147592,2.2742668838807,2.274729187546,2.27368385637571,2.27265419812176,2.27348623438246,2.27313923119757,2.27322830307033,2.27151165549225,2.27202716971778,2.27189064860018,2.2719542604591,2.27175294684468,2.27223099414924,2.2727486611113,2.27304356304878,2.27290001347088,2.27278701584109,2.27299848710892,2.27312752556575,2.27353197706159,2.27413844138023,2.27460173005387,2.27424844210296,2.27469238167348,2.27507387432613,2.27505105745825,2.27514171663526,2.27565037396717,2.27613722175137,2.27666764412697,2.27676287667547,2.27686929902447,2.27695021645713,2.27729878652665,2.27804166933014,2.27821061566872,2.27833840588738,2.27869205256734,2.27902818072892,2.27979190917295,2.2806718971664,2.28156766116677,2.28261045095149,2.28408765603228,2.28711291834932,2.33586108264009,2.34561356133404,2.34629056175466,2.34690508681629,2.34872480278442,2.3486491577572,2.3487811451169,2.34831487194727,2.34821638090118,2.34832856725,2.34817778896722,2.3483651185334,2.34697558380905,2.34661192405518,2.34661702069227,2.3468888918465,2.34726649682962,2.34714049798502,2.34732462941713,2.34764095985082,2.34813330669323,2.34813097241942,2.34850761623889,2.34989108638464,2.3548013293171,2.3516679255432,2.35132687140923,2.35117740624601,2.35135275130769,2.35094599776832,2.35078055146968,2.35093336004525,2.34836864485201,2.34637121418985,2.34593473837612,2.33048994358241,2.29174202245435,2.29073830358736,2.290705640158,2.29178089053658,2.29024457325141,2.28958101870453,2.2886762898013,2.28846669548825,2.28842123083066,2.2883981264982,2.28816170110708,2.28905419125341,2.28870898148468,2.28838107110738,2.2884128864777,2.28842063699632,2.2882241109255,2.28808124669154,2.28836257929802,2.28848045088271,2.28854298928524,2.2888535346172,2.28918013525653,2.28924975936161,2.28964150530401,2.29022375435145,2.29038119982447,2.2899959831429,2.2902583988108,2.29036733480751,2.29053154079517,2.29053485859043,2.29022844296863,2.2907627886963,2.29086374651214,2.29087838730316,2.29096710973336,2.29142857976939,2.29189543339139
2.24300857062095,2.24358260636492,2.24400372239984,2.24460296096286,2.2455147279269,2.24693966159086,2.24715359150678,2.24740907242137,2.24853638489772,2.25069853454607,2.25133601692028,2.25280439716328,2.25394742933163,2.25521664748003,2.30508120729278,2.30495300929084,2.3054374988857,2.30603375953878,2.30801382223806,2.30805067003857,2.30851547612892,2.30856333257842,2.30833440671089,2.30715604449878,2.30710748839857,2.30666985477609,2.30647013569862,2.30618816822104,2.3052074682081,2.30488272428401,2.30595637548982,2.3057328211632,2.30583080690842,2.30580233374636,2.30620644078855,2.30564207472457,2.30612307915919,2.30619802373564,2.30664904923738,2.30831206142333,2.30807099731341,2.3085442620705,2.30885216628769,2.30997597979675,2.31117675265508,2.31166736003349,2.31269643467887,2.31328966487993,2.31425072134355,2.31566771260185,2.31709986677583,2.31752646146266,2.31784943549388,2.3187430725627,2.31046251926133,2.27451188132367,2.27351671160883,2.27384811693382,2.27350748194855,2.27291746822536,2.2729151185103,2.27303342197238,2.27314776566278,2.27244699473641,2.27263879533108,2.27217132629062,2.27217178365059,2.2720851699283,2.27236730818954,2.27252225494163,2.27290647451483,2.27305184346597,2.27316873159445,2.27388176332453,2.27343332238219,2.2739736353355,2.27430398328367,2.27486823700521,2.27411343980786,2.27449442909982,2.27499283840437,2.27512984734533,2.27521277555004,2.2755861489993,2.27605203958901,2.27712436961405,2.27679696337587,2.27644689087236,2.27732608919892,2.27753660997603,2.2781839116133,2.27850667137993,2.27898179181288,2.27893933715233,2.27935055266456,2.27961564533397,2.28053215773182,2.28114264480483,2.28272414416118,2.28421499898969,2.28612993172343,2.32730928846347,2.34606617576173,2.34639820923801,2.34705941244822,2.34805439447081,2.34869485953618,2.34881344842639,2.34866353749399,2.34978236030273,2.34909850760789,2.34919158917815,2.34997920521537,2.34873526376445,2.34827935538683,2.34803169381668,2.34784520398024,2.34761025333305,2.34824834465192,2.34862401379386,2.34897723241789,2.34977783726615,2.35078326432332,2.35042316304155,2.35090162551932,2.35110691104201,2.35169048779554,2.35194139314099,2.3521581430178,2.35160536779345,2.35155824165945,2.35136280849026,2.35013038390149,2.34883119466734,2.35017339657076,2.34597070002267,2.33755045602037,2.29233924291288,2.29201726630971,2.29141591442858,2.29097371953301,2.29031706062385,2.289544906698,2.28902560498628,2.28868728256785,2.28857536156939,2.28854802470847,2.28821039369475,2.28862150101292,2.2887552368695,2.28854319253308,2.28863885853241,2.28853019284174,2.2887914166491,2.28897424596926,2.28884640971024,2.28895454874788,2.28907783506717,2.28968028789197,2.28994329994155,2.28989752315932,2.28994275761339,2.29004697459852,2.29016603370085,2.29074172648659,2.29015355023463,2.29044906573795,2.29052595050769,2.29094627379847,2.29093350744063,2.29092006231661,2.29128094066655,2.29190669762331,2.29128069087497,2.29168033888658,2.2930518731329
2.24315885502507,2.24381688343379,2.24435193704983,2.24486910187244,2.24567406474675,2.24665964241844,2.24747327363205,2.24819808231704,2.24894143508459,2.25026386872804,2.25159236633988,2.25316577764855,2.25453247044145,2.25565930890634,2.28000260628218,2.30553700916961,2.30588486590286,2.30653760618056,2.30771680274866,2.30858522545385,2.30882774879728,2.30879595163881,2.30843616643972,2.3078778468715,2.30743171054612,2.30720925582203,2.30688627423288,2.30641672084424,2.30585878620854,2.30568970727693,2.30604630020008,2.30603684253772,2.30596330134808,2.30600580094129,2.30634675955027,2.3065909126041,2.30697493424272,2.30734722427268,2.30745486422729,2.30813369884392,2.30866862542204,2.30905158683198,2.30937459487654,2.31006160808714,2.31100681494117,2.31183954071113,2.31309190172948,2.31420008455794,2.31548513673042,2.31665329870443,2.31764751900257,2.31832336000365,2.31839833979503,2.31735484563051,2.3125059581403,2.29662321518167,2.27148766263777,2.27310021451972,2.27324172118996,2.27294150457536,2.27289200099999,2.27293784771036,2.27299450065772,2.27263476953324,2.27249430727248,2.27237891759793,2.27250341265175,2.27263884577707,2.27274945021765,2.27291226281123,2.27300917981837,2.27313682475749,2.27332295198164,2.27362171173624,2.27375458696231,2.27395850016781,2.2742249618629,2.27441956300133,2.27441556421699,2.27468284305752,2.27499168847252,2.27523601496453,2.2754411856236,2.27576143385151,2.27616401812535,2.27665961294313,2.27683715742989,2.27693830674133,2.2772144951373,2.27768002539653,2.27816442897264,2.27858084184461,2.27898805650146,2.27937319243227,2.27953724352194,2.27993604343248,2.28090175931634,2.28229756738825,2.28396891186036,2.28573142387012,2.28695746005434,2.3152730954512,2.3452273717148,2.3458899809912,2.34687648237064,2.348049349077,2.3489381134175,2.34931066984641,2.3494156509684,2.34963352018582,2.3495834858864,2.34951460446391,2.34946086880594,2.34907313826585,2.34882370187097,2.34864233786137,2.34878089886899,2.3490098745445,2.34980926252202,2.34973696196959,2.35026070793864,2.35119023111014,2.35212685958647,2.35180828982331,2.35182530600447,2.35202600806419,2.35218852663943,2.35243730514123,2.35268198332,2.35272748397084,2.35271905594112,2.35263783607573,2.35176706619495,2.34859648445963,2.34770515855052,2.34633917312457,2.33933894607951,2.3142633159874,2.29208865043318,2.29170562858384,2.29126790056257,2.29061262024714,2.29007416312306,2.28950731845835,2.2891779018441,2.288986754294,2.28902160688318,2.28905413270631,2.28904987296732,2.28905244276304,2.28897657566426,2.28899186388259,2.28901386529248,2.28906520563875,2.28919025802274,2.28918858172489,2.28935252169401,2.28956789425587,2.28973062416743,2.28987861021589,2.29007669803592,2.29011552858242,2.2901299867294,2.29035125832757,2.29057743700155,2.29053726366295,2.29070243681468,2.29085674188698,2.29089198680754,2.29100907509772,2.29115874197279,2.29141814385992,2.29162960619933,2.29177478845005,2.29242370242744,2.29355572857384
2.24367888401218,2.24419110254098,2.24461453667355,2.24496816457688,2.2455062267622,2.24662358124448,2.24784055194922,2.24905614481036,2.24888428997894,2.25011087095649,2.25171766009468,2.25335330718714,2.25449717820767,2.25620569648152,2.2612464434444,2.30594296321451,2.30621401476302,2.30654719762098,2.30751381668819,2.3093244234434,2.30910854715257,2.30912743984044,2.3086444978614,2.30853726331987,2.30767773713332,2.30781917482621,2.30739517675009,2.30652924928942,2.30611306670813,2.30588671881685,2.30646130089041,2.30629430591204,2.30593772225995,2.30589500190934,2.30657787155821,2.3072518177903,2.30778277340341,2.30876229809432,2.30781616178567,2.30813575636895,2.30930721239401,2.30951442253589,2.30959213202144,2.31010750668988,2.31118270358144,2.31151216804917,2.31348895216133,2.31489354722433,2.31711432101102,2.31801424232613,2.31830855996526,2.31906355654699,2.32023233425647,2.32135291528108,2.32345898682538,2.3143586009263,2.27062697071077,2.27319781189542,2.27347460786163,2.27304101015403,2.27291690738616,2.27292180963758,2.2732236726949,2.27263573627701,2.27223981778144,2.27234513606115,2.27274091540795,2.27316844990278,2.27300421012982,2.27332607054752,2.27300890123898,2.27315397424238,2.27325433548786,2.27351171494498,2.27388547451149,2.27385642826496,2.2741453742805,2.27411987537536,2.27440217376846,2.27478140524001,2.27500045842082,2.27533753223328,2.27546236127749,2.27585413066261,2.27607797752816,2.27649269369599,2.27690283492387,2.27717337137703,2.27688211170991,2.27769848826889,2.2781568134936,2.27857471214801,2.2789745755972,2.27998779014931,2.27958957065123,2.2799169026947,2.28111466775856,2.28264156629778,2.28361419022143,2.28543134160126,2.28603528504335,2.30358647379374,2.34674221607941,2.34746257968835,2.34800260668213,2.34876584407186,2.34921786881351,2.34953949594733,2.34966800676086,2.34943219199337,2.349883420069,2.34964064304177,2.34910917350853,2.34905867001236,2.34911715909575,2.34874911293897,2.34948163302197,2.34964097964466,2.35205433631828,2.35000516748796,2.3509666390828,2.35238747892874,2.35453531700154,2.35249343838206,2.35236791978215,2.35277451279247,2.35246057872927,2.35262109773957,2.35316326773457,2.35337660692812,2.35335009392193,2.35436279602421,2.35554689735059,2.34617099157093,2.34601989709282,2.34588869374116,2.34962627859314,2.34644496690373,2.29111677021246,2.29081441819738,2.29108294392676,2.29090510730903,2.29074872971811,2.28991680773213,2.28943060454087,2.28916829304821,2.28939924486619,2.28989945511822,2.28933040034028,2.2894097434349,2.28919659851842,2.28928636674509,2.28937079909364,2.28919811309346,2.28943649105069,2.28928511250794,2.28964386660735,2.29000482254374,2.28976487973603,2.28964326204901,2.29036723698739,2.29024920675285,2.28988287995136,2.29046025771826,2.29055963169755,2.29065408695632,2.29091349999599,2.29119208385192,2.29065561453255,2.29094310010572,2.29123584008252,2.29163042121277,2.29160511266482,2.29201263222621,2.2928717251992,2.29327064699071
2.24393393424254,2.24455748685403,2.24552916959167,2.2457076375532,2.2462450356795,2.24752714895531,2.24826993462777,2.24906336267658,2.24983449521584,2.24994861164815,2.25278871640633,2.25395491440252,2.25515440532562,2.25731394103899,2.25927459277008,2.30668783898507,2.3068024874827,2.30728031031486,2.30826435350875,2.30916379072184,2.31008942611323,2.30973254069153,2.30943527863589,2.30919853783717,2.30856726994608,2.3086961167948,2.30813037603448,2.30795628659352,2.30675034786849,2.30635014398078,2.30605639212726,2.30658086582631,2.30598088288403,2.30657589641811,2.30746694313547,2.30769377544441,2.30794961473872,2.30810043887284,2.30813880716836,2.30876837255144,2.30927115958096,2.30992611493462,2.31003390671738,2.31070695982832,2.31197504810123,2.31317209117817,2.31417041326556,2.31512248825435,2.31646728684969,2.31714120266036,2.3178869233107,2.31882305268489,2.31939929572089,2.31989504673077,2.3211984620325,2.32333557490385,2.27037009914539,2.27407228201254,2.27360749632824,2.27338597003422,2.27234521459318,2.27260984736014,2.27260113206377,2.27221157722919,2.27220016953487,2.27285355762744,2.27290227712728,2.27305579006289,2.27434880196378,2.27319331102351,2.27284962628265,2.27316900358814,2.27309174613785,2.27381238201001,2.27370769509921,2.27403169920456,2.27436410921761,2.27438252489333,2.27507942226412,2.27525687988095,2.27526917290434,2.27555961028062,2.27597777167589,2.27628742618199,2.27628828997605,2.2768737958478,2.2770641227789,2.27728245260062,2.27791978147895,2.2779922611145,2.27836791861914,2.2786147079399,2.27881699960192,2.27962501845401,2.27963326107718,2.28071250308003,2.28125343965883,2.28224277071255,2.28448774062024,2.2845962177927,2.28470356415596,2.2965221521867,2.34780877872128,2.34783686103392,2.34927837563107,2.34938986795088,2.34941142201471,2.34986274412316,2.34953316889184,2.34969491715349,2.35002790253607,2.35005947352482,2.34977421654486,2.34954145056157,2.34946479434405,2.34940195166402,2.3507842055222,2.35294203214904,2.35106602486501,2.35082591061685,2.35189851515194,2.35296883049296,2.35418178117039,2.35281392675016,2.3526652722116,2.35220669926585,2.35221296650846,2.35212908112353,2.35306244088267,2.35545851195145,2.35639598972549,2.35548318431421,2.35537336170864,2.34708437176009,2.35219071088447,2.35265617318996,2.35358667448431,2.29259340062566,2.29213364508544,2.29080321974047,2.29180207220256,2.29128926035597,2.29141199739024,2.29016120476115,2.29038981370474,2.28953135678053,2.28950403402091,2.28919889494334,2.28934204113653,2.29020585933878,2.28951037005753,2.28951474242396,2.28959425460448,2.2893023539014,2.28970570770673,2.28988140272408,2.28985620953329,2.28979812706523,2.29016452151068,2.29016531740399,2.29047804142641,2.29058555495088,2.29046794220812,2.29136309101855,2.29102310778914,2.29085483273819,2.29103357455975,2.29074913870385,2.2908994951893,2.29140836460534,2.29180063043288,2.292311776485,2.29319571454714,2.29316581908626,2.29368168273554,2.29358801143698
2.24397217443455,2.24466379141652,2.24500970958846,2.24631714874592,2.24709999146251,2.24778977609553,2.24848287776241,2.24924857923445,2.25052463568732,2.25133945603309,2.25358839792034,2.25462965025291,2.25598006832838,2.25825922301698,2.25938302063033,2.30738965712959,2.30743431004743,2.30791260411556,2.30934315978058,2.30917339690451,2.30998378912052,2.31003815658408,2.30984610293852,2.30931378976556,2.30922090945346,2.30905236687032,2.30838956652865,2.3075457122258,2.30778495305383,2.30806337753357,2.30829317697605,2.30786964684463,2.30819796302249,2.30700113018465,2.30710621570736,2.30718337609527,2.3080611957293,2.30853943223225,2.30896066260779,2.30995591415298,2.31020889844988,2.31061927547815,2.31103439188771,2.31181566089513,2.31272350733448,2.31380755138562,2.31469027911214,2.3154771740868,2.31628239391265,2.31674626557593,2.31801970998104,2.31848530896542,2.31826652330749,2.31901657191791,2.32033288493056,2.32232049955121,2.27092822706765,2.27386489201744,2.27454603325138,2.27394031754317,2.27231005916274,2.27255049626307,2.27231904971292,2.27217095484357,2.27219968056563,2.27294634366076,2.27297408670903,2.27319482377415,2.27378115830575,2.27326144578024,2.27362901423116,2.2735275034191,2.27331798151495,2.27375844027434,2.27447749635106,2.27525640881002,2.27487535301742,2.27488697018376,2.27503277495198,2.27549171414511,2.27553289704495,2.27573157605655,2.27576829087618,2.27640536398695,2.27653416659678,2.27685899236856,2.27717724806679,2.27754639138635,2.27866776209445,2.2786739369553,2.27838019159876,2.27860623367253,2.2786631731245,2.27928135917958,2.2800318391374,2.28035521664712,2.28111660268594,2.28187533743166,2.28339576378747,2.28429912808334,2.28571473804225,2.28689920114245,2.28667981359198,2.34827615607957,2.34827588971394,2.34886837845573,2.34922242426927,2.34944989497744,2.34990843006751,2.35011351688579,2.3503245463886,2.35090473647655,2.35117933545744,2.35049415309013,2.34999467550369,2.35078019387966,2.35152119196571,2.35245883046651,2.35300773102841,2.35329229398798,2.35431796124759,2.35358240091199,2.35370179589897,2.35332357426388,2.35312995826912,2.35211968194581,2.35236614114328,2.35212182379424,2.35399001626271,2.3567108658475,2.3568687880998,2.35585529352803,2.35548488584692,2.3547306520345,2.35441198409575,2.34893518057661,2.35413598178729,2.29347601366031,2.29378903081854,2.29238036680125,2.29119585528343,2.29128743470424,2.2910690249576,2.29054527230147,2.29020911079933,2.28975390229885,2.28980625072347,2.28973224592765,2.28985849977244,2.28954182531157,2.28951434642699,2.28970836344501,2.289652826833,2.28949007645921,2.28983245746785,2.29022574086696,2.29013526415083,2.28987519363405,2.29058889111297,2.29041832102243,2.29079850304334,2.29112246262482,2.29167784464035,2.29091837645665,2.2909506671072,2.2915765845097,2.2916414873359,2.2919435077302,2.29126884453595,2.29141068425785,2.29201966796297,2.29259738183964,2.29301333646566,2.29330563848821,2.29322962043236,2.29372099468451
2.24412427477257,2.24492675681962,2.24579969291983,2.24651947875547,2.2476714182806,2.24798728727232,2.24875859824617,2.24930845293694,2.25188050175592,2.25181735831228,2.2535005498293,2.25492357129288,2.2558239577587,2.25942776189868,2.30811105163079,2.30762551743321,2.30799318878294,2.30819591778935,2.30927397161404,2.31026882400133,2.31067141353628,2.31049462943274,2.31037940287355,2.31015902524935,2.30914778845882,2.30895723304609,2.30875956505573,2.30836002938109,2.30873881859813,2.30832648745526,2.30970967709496,2.30842142119832,2.30748641648527,2.30703018327753,2.3073817672464,2.30811738524705,2.30850100159637,2.30876160155141,2.3103563704494,2.3105820552819,2.31117811518301,2.31123881897103,2.31126121779251,2.31226409204757,2.31321936771157,2.31422517317191,2.31502372933696,2.31545022779532,2.31616256905165,2.31702229580136,2.31815554239898,2.31855574121315,2.31849344335176,2.31883767057112,2.3196808420157,2.32121066094293,2.27335039067704,2.27653375084541,2.27439421290583,2.27334755023895,2.27272974249452,2.27293391238717,2.27344659571312,2.27224484322657,2.27245832390917,2.27246939841886,2.27283338455264,2.27289196073816,2.27315491282256,2.27390182724645,2.27449957867968,2.2739957690011,2.2737766205627,2.27398797042262,2.27363641895733,2.2751424753951,2.27502847695392,2.2751098295662,2.27532650681154,2.27608026251556,2.27589053071222,2.27594355444462,2.27608695230888,2.27687220238754,2.27690620674258,2.27686191895846,2.27723180318297,2.27738915649604,2.27843151335805,2.28033750915528,2.27913653319559,2.27895785010719,2.27875866738808,2.28009364541451,2.28028270730427,2.28026957139069,2.28101256413624,2.28152529440976,2.28269505835018,2.2850053097766,2.28666275817014,2.28708225047131,2.28719687177446,2.34863037401665,2.34839827599756,2.34891514045302,2.34936610537271,2.3498059814933,2.35015929018235,2.35109395843188,2.35134550980507,2.35230284251877,2.35424452978486,2.35247043359946,2.3519146369491,2.35231598300855,2.35235515176969,2.3527192282859,2.35461634322936,2.3534398100019,2.35413342222274,2.35387452140907,2.35405208237064,2.35377309510819,2.35381280190603,2.35269628206442,2.35328528103687,2.35348081141428,2.35693028321914,2.35645833883832,2.35594703948954,2.35569520935983,2.35550450677506,2.35376628133076,2.35425531378999,2.35479956504567,2.35529469989956,2.29366583188458,2.29467380248328,2.29228540917409,2.29101243092533,2.29151542294189,2.29143614906429,2.29148451141248,2.29165532121866,2.290683811745,2.29034273706294,2.28986173005214,2.28998621009092,2.28994857755389,2.29024054586248,2.29013053617813,2.28999769835195,2.29009218267373,2.28986123157376,2.29017374442778,2.29053083947616,2.29072076257543,2.29058942427005,2.29110433453665,2.29172329277126,2.29149980653341,2.29123221046742,2.29120244919789,2.29099113878994,2.29191461677174,2.29199981349949,2.29219945221371,2.29254966562951,2.29264753125343,2.29258887235694,2.29317457236713,2.29351366027211,2.29354248493178,2.29357980496425,2.29387082874629
2.24501055641594,2.24523264205754,2.24538459147416,2.24700643467646,2.24649743352357,2.24806568634959,2.24899746855291,2.249955020344,2.25126259088171,2.25251204141113,2.25417010734224,2.25549281946789,2.25642384896359,2.25955364194225,2.30981816301445,2.30959728256078,2.30935419052275,2.30939850859134,2.31047167596531,2.31006646750395,2.31062600395433,2.31075952330501,2.31080769653603,2.31008307222824,2.30918364521142,2.30968014934315,2.30940083136452,2.30910800435483,2.30839724716889,2.30787285176921,2.30873117530711,2.30858985071698,2.30792581961814,2.30779759564495,2.30814693180406,2.30864422497271,2.3090440427914,2.3093877471611,2.30985897514841,2.31084328745231,2.31115329010844,2.31173585808982,2.31215198536403,2.31442154135054,2.31476584823595,2.31483547039359,2.31565885363632,2.31627656901641,2.31682891402016,2.31823582367777,2.31895966288351,2.3189800808499,2.3187076046724,2.31906001880425,2.31918071111612,2.32095608017968,2.27453989655508,2.27554761107211,2.27611269950436,2.27331421029764,2.27291860204401,2.27297357695951,2.27270799663812,2.272587081355,2.27285856721418,2.27274342676935,2.27300898489924,2.27299209016838,2.27334328213546,2.274158870575,2.2743337796853,2.27411278430899,2.27404195737193,2.27411010014886,2.27411797008636,2.27448237290254,2.27493415705943,2.27511291812903,2.27518987471724,2.27549216435038,2.27589178010719,2.27619739350869,2.27624588717128,2.276818981584,2.27749879955403,2.27695354925274,2.27749251884664,2.27785947875724,2.27910776762188,2.27889360724362,2.27947821771425,2.27918944867568,2.27913410102979,2.27943998621401,2.28004576422246,2.2811220949408,2.28118256069647,2.28127607107526,2.28233609260786,2.28369513236138,2.2850694174856,2.28655828934211,2.28724407213366,2.28826185957331,2.34881482788485,2.34973741530525,2.34983834589168,2.35028525934135,2.35054928981979,2.35193394391791,2.35329193902276,2.35308011631927,2.35350168086964,2.35352132697185,2.35562333124101,2.3534466046226,2.35336087239785,2.35384796037187,2.35401591572142,2.35426648987283,2.35425401772194,2.35421581433357,2.35491509306806,2.35505387475747,2.35729698731807,2.35695902412076,2.35516023155545,2.3544919505386,2.35721148353896,2.35612539949148,2.3562057309306,2.35601513359681,2.35632139952277,2.35995545345529,2.35887943548468,2.35506704715803,2.35543154780696,2.35601941693059,2.29393220294893,2.29336702034754,2.29213782523773,2.29232461523148,2.29268692761197,2.29356182106724,2.29174263177174,2.29104987682237,2.29093072739018,2.29088875584068,2.29081774224654,2.29052920362971,2.29079551732209,2.2905848585703,2.29048894177515,2.29071435907993,2.29051078716818,2.29120874374706,2.29116658473271,2.29117823407052,2.29132273402981,2.29186933159567,2.29227597198832,2.29189283987344,2.29155661531511,2.29143284862911,2.29151615941242,2.2916860940387,2.29226983069147,2.29259958360032,2.29316569063545,2.29288512753561,2.29433140176971,2.2939013920109,2.29388674145747,2.29516559235951,2.2942312082929,2.29485072312587
2.24462569080252,2.24534813115819,2.24600344184044,2.24668088486452,2.24771901745011,2.24857528814686,2.24936245163523,2.24977342179448,2.25136189593591,2.25282982444707,2.25479089231769,2.25613065896615,2.25732922045335,2.25928933010185,2.31012674601829,2.31028732934862,2.31068266863672,2.31134958626088,2.31091045215982,2.31090976159819,2.31081975755425,2.31115197122331,2.31132396690265,2.31092532822609,2.30989332732658,2.30981122424011,2.31001685488598,2.30970545135239,2.30907540584215,2.30861816692609,2.30978248820611,2.30932036958082,2.3089956229645,2.30943046510496,2.30973934749823,2.30920553140218,2.30964508588976,2.3095360011682,2.31039473041059,2.31117727741481,2.31154571889521,2.31245984611451,2.31286831746914,2.31428493825255,2.31449215802168,2.31588902544227,2.31637953676838,2.31664895354627,2.31737502956793,2.3177692016984,2.31865471012169,2.31963156591775,2.32061251086533,2.32074044717255,2.32129886243128,2.27669176334376,2.2767916245778,2.27752334519541,2.27564775420359,2.27391694929428,2.27308485466943,2.27325799567346,2.2732199121847,2.27331480938032,2.27315162176552,2.27364376610112,2.27342061878647,2.27326481068111,2.27306980635129,2.27371225116699,2.27374223192995,2.27406807589134,2.27407742151376,2.27427345012052,2.27505110606091,2.27499619985152,2.27513276569872,2.2751913897645,2.27569201808566,2.27591308343094,2.27661479928245,2.27654296809014,2.27661543171016,2.27688779902355,2.27733109281422,2.27736440537293,2.27788610441126,2.27867763971955,2.28104699954224,2.27969407499373,2.27923243131543,2.27944533399155,2.27946620747749,2.28006528926342,2.28033674888059,2.28079085097354,2.28125611646538,2.28163380556436,2.28230055244387,2.28339680892983,2.28500810477026,2.28607887077429,2.28643578584319,2.28769531759949,2.34835595517704,2.34979354859018,2.35028529090207,2.35060879936589,2.35128855402603,2.35231585586427,2.35292510311757,2.35370299163806,2.3544822680366,2.3542165195657,2.35537570048317,2.3546025337758,2.35432264149227,2.35491486357518,2.35457105849279,2.35415428300583,2.35371165352011,2.35458279504181,2.35539869865467,2.35551802759449,2.35673243977879,2.35683682025032,2.35666200593329,2.35705231074781,2.35715453088291,2.35673609970793,2.3564732674034,2.3568054994558,2.35738938801683,2.35909300583826,2.35995728525152,2.35406190179948,2.3550219573281,2.35570793835612,2.2942675131828,2.29357121302118,2.29226601118161,2.29277865531658,2.2928815239076,2.29211423192348,2.29151623730299,2.29160639842606,2.29152770081041,2.29128487537309,2.29150910145544,2.29141492141249,2.29098470333249,2.29094521544393,2.2907418502163,2.29097580524425,2.29165207672509,2.29175451718962,2.29160227095048,2.29116428848216,2.29147090218597,2.29209074609545,2.29217746700723,2.29229579628171,2.2922694705323,2.2924074784186,2.29249761945586,2.2922603671635,2.29273652993278,2.29310135860946,2.29418870232524,2.29458107191014,2.2946995537574,2.2944184525034,2.29445011355576,2.29491334010843,2.29553725400461,2.36747553831496
2.24484163773485,2.24564404140069,2.24602820203079,2.24751573951931,2.24836150953197,2.24929980247741,2.24987593234551,2.25065307219625,2.25255044673359,2.25349349835051,2.25541771207503,2.25671772978813,2.25703022029988,2.2614532397676,2.31145486082576,2.31155179273643,2.3119270555778,2.31293228371025,2.31246725478287,2.31157220026098,2.31072582347797,2.31153022847687,2.31171853090633,2.31143043277189,2.31145124115887,2.31157753276159,2.31102300178654,2.31061745165567,2.31090915264812,2.31009188640209,2.31008577398698,2.30971820806441,2.30910761069154,2.30922547107723,2.31049418328094,2.30976399409961,2.31059543124372,2.31135383388197,2.31176619185841,2.31445109330048,2.31276169244232,2.31343436654185,2.31407075179121,2.31454438116636,2.31489230539298,2.31706776967802,2.31727692716991,2.31733091374892,2.31776787341313,2.31916709889366,2.32015666235592,2.32022661484936,2.32024104456026,2.32060788144549,2.3211433796623,2.32237278197305,2.27934909126159,2.27676295624078,2.27743513055428,2.27393742833645,2.27359586307838,2.27374753442407,2.27445555666699,2.27429716708475,2.27345460073519,2.27344987282705,2.27374139489076,2.27401506666859,2.27363759971255,2.27422796730381,2.27418556477553,2.27431208707832,2.27448041475654,2.27509772919197,2.27484953843642,2.27520128040754,2.27534484369951,2.27535870561054,2.27628389674354,2.27599488955087,2.27677132515256,2.27687219920145,2.27695558766994,2.27691268819746,2.27721190535472,2.27743030208873,2.27801427886277,2.27827939601901,2.27911732871878,2.27996984611804,2.27952183303487,2.27970502659216,2.28014074617321,2.28023202586697,2.28103810603873,2.28112014531768,2.28148036404892,2.28167449474342,2.28265014660023,2.28432634149255,2.2850695623841,2.28594941324001,2.28669065242111,2.28728251741436,2.35054728633998,2.35111115483938,2.35118240497229,2.35149355651108,2.35259073566589,2.35561351587378,2.35441229855014,2.35482366649043,2.35617225533344,2.35552972531256,2.3558057581182,2.35531237858527,2.35502049074767,2.35496371954717,2.35466047596591,2.355104209755,2.35437215492935,2.35559699794625,2.35751016876381,2.35762581186401,2.35798865522434,2.3582669411079,2.35844415214977,2.35846238222515,2.35864389197421,2.36025490627693,2.35849093348469,2.35803797071432,2.35860883254814,2.35859745490901,2.35869925857895,2.3557040627724,2.35512359342526,2.35430644448645,2.35256374968631,2.29469219472879,2.29405171907631,2.29375556707682,2.29341655144968,2.29269750350507,2.29191943287311,2.29255889711643,2.29222042717244,2.29228255252803,2.29196655886344,2.29199738308769,2.291455836774,2.29140340019799,2.29097273868302,2.29175541294396,2.29475395122982,2.29335018551104,2.29243527847284,2.29219360105132,2.29266779681995,2.29234341476436,2.29260244782945,2.29280067898687,2.29294705021238,2.29337505655111,2.29329477804053,2.29315934756384,2.29333624842582,2.29377903397281,2.29489363209494,2.29468863293297,2.2948380960721,2.29462304657626,2.2942808306798,2.29536972236992,2.29628085106128,2.36691800353052
2.24545430532038,2.24617256361279,2.2467407410035,2.24709076685516,2.24854633531213,2.25014676685052,2.25033243297508,2.25089581687003,2.25296699984663,2.25401283022554,2.25710539557159,2.25784520025764,2.2581872754242,2.31127144587032,2.31168805205476,2.31196981633766,2.31236762855519,2.31273992663026,2.31351492084341,2.31285891591979,2.31233612586868,2.31231027436282,2.31167432925488,2.31155261849831,2.31146227823785,2.31257913513446,2.31155543206985,2.31052837166737,2.31030044457926,2.30980083111128,2.30996646098697,2.31014457343874,2.30990979274273,2.31046772689994,2.31080234510849,2.31122393896631,2.3113258315604,2.31122103919929,2.31191524354616,2.3126731588256,2.31360107036858,2.31419829723934,2.31489267775591,2.3155955897721,2.31504741908991,2.31766997940178,2.31803131965553,2.31818257296671,2.31880750571335,2.32120875572552,2.32021559246303,2.3206590053375,2.32079017246649,2.3201456647643,2.32163128141453,2.32197345671835,2.28304167064945,2.27590078398726,2.27580015883098,2.27416058199107,2.27378495582013,2.27365197385487,2.27344895744858,2.27439821683791,2.27393346814016,2.27402531080449,2.2740774591273,2.27438599720164,2.27372845005218,2.27404789561323,2.27417683657367,2.27451171881705,2.27464778854349,2.27472317072723,2.2747110149298,2.27559024124773,2.27572509677649,2.27580786173671,2.2759504860801,2.27626647223812,2.27689390966235,2.2771041371351,2.27740444255665,2.27687730632903,2.27719324328129,2.27782173875035,2.27844246118513,2.27948325222611,2.27979035842878,2.28008501603489,2.28008401286399,2.27991344241857,2.27972599457448,2.28037093588072,2.28109439715826,2.28142205027941,2.2818151244826,2.28223143927063,2.28288076039821,2.28405769376999,2.28489769666628,2.28579458965403,2.2864193984223,2.2873309076819,2.35070892296031,2.35129425083361,2.35198919925057,2.35256427206643,2.35346100374057,2.35483903032783,2.35554663377322,2.35544998911292,2.35586351357727,2.35595834825147,2.35569525628791,2.35539893618992,2.35595383040863,2.35571680970633,2.35543456800965,2.35667363764536,2.35607903176117,2.35651973084191,2.35701350859457,2.35710253619167,2.35790692286278,2.36175543924377,2.36095275524782,2.36242926875545,2.36032246721681,2.36118739248177,2.35946230730015,2.35896976272872,2.35930754554668,2.3585935039689,2.35844496183451,2.3586046114293,2.35645907685889,2.35521414743605,2.3529574823251,2.29576158848427,2.29552700677087,2.29472187478733,2.29438342130556,2.29414026122844,2.29266094414881,2.29289931931328,2.29258722171217,2.29225150598875,2.29214828268917,2.2918633608667,2.29207135612409,2.29231073531797,2.29280625508551,2.29195473551587,2.29448266349096,2.292757505655,2.2924816104228,2.29229594996903,2.29242894020271,2.2926275480066,2.29305759885445,2.29344515631003,2.29455218622643,2.29361909752213,2.29405927588493,2.29344141651609,2.29365806000533,2.29388001595867,2.29464738248092,2.29465528027835,2.29486761974091,2.2952482848348,2.29516297844747,2.29587031937908,2.29616001884032,2.36664716769525
2.24595091850551,2.24693238492528,2.2486539785697,2.24829781039535,2.24862367064366,2.24978708793759,2.2502997233177,2.25074962186265,2.25285070256199,2.25492421485638,2.25634672705404,2.25874069166154,2.25996235829936,2.31089323756875,2.31106455756093,2.31222541894726,2.31252620090293,2.31278921790567,2.31358249606012,2.31354058765499,2.31403206577581,2.3134149262403,2.31353513646887,2.31208697105036,2.31157978502346,2.31151723217818,2.31178338453534,2.31164854426059,2.31043003681024,2.31140443109161,2.31118547366271,2.3106882221192,2.31018774184727,2.31056323363313,2.31144352219824,2.31159713818264,2.31190455775734,2.31210570787424,2.31242602403794,2.31261351432688,2.31351577601404,2.3144809498702,2.31515339793199,2.31539058800224,2.31602351496995,2.31824751271905,2.3187460875549,2.31944720999759,2.31936686455103,2.31939646786333,2.32041979016544,2.3210769275739,2.32143157819146,2.32179921251607,2.32331673883409,2.32373486942837,2.28911036811086,2.27570821395919,2.27515699363848,2.27431880107211,2.27390635380449,2.27376631743593,2.27347263105119,2.27397258199237,2.27394569866679,2.27409131781721,2.27413346172663,2.27402637575337,2.27414000536155,2.27422234343543,2.27461836363382,2.27488633980246,2.27516586507439,2.27543914099758,2.2756127686266,2.2765755843301,2.27610730023433,2.27596894248868,2.27581435271051,2.27658396852441,2.2770982791834,2.27733129013759,2.27768011045607,2.27756564667797,2.27779720348852,2.2782989642046,2.27844626944408,2.27837435645511,2.27990236061117,2.2803553144961,2.27968719562938,2.28000709238776,2.28029080297229,2.28081376844427,2.28093994140504,2.28153394121615,2.28215966181513,2.28292490120164,2.28303812717752,2.28341268996701,2.28446726533628,2.28580839629091,2.28652951628812,2.2877583936123,2.35144760938169,2.35221668590263,2.3532326697807,2.35595131119077,2.35497038540051,2.35567583741171,2.35587887688024,2.35580954068199,2.35576204712028,2.35583985001319,2.35611424036497,2.3562951909586,2.35772717306406,2.36041361536853,2.35997047509081,2.3586771952078,2.35762988911873,2.35769316094539,2.35802113860209,2.35875397871665,2.36223740169789,2.36208944844379,2.36165085790013,2.36181971975144,2.36179620980501,2.3607526248582,2.3601320988998,2.35940114464894,2.35883929689936,2.35768009144989,2.35824323317603,2.36016595250453,2.35752709020999,2.35675895574223,2.35545122641439,2.35281690222783,2.29412095564573,2.29492101976348,2.29413767104887,2.29297440449746,2.29240424918165,2.29285380880341,2.29300413884446,2.29315814277745,2.2937467760819,2.29233316513101,2.29310051558999,2.29287941939764,2.29279996127799,2.2925431908078,2.29276006179412,2.2926132371161,2.29254595548287,2.29224264936902,2.29251572639819,2.29248527905096,2.29324884563076,2.29333536860814,2.29311167172111,2.29422660297777,2.29384418049849,2.29382096463655,2.29402416389439,2.29397481989513,2.29446092887128,2.29499023391911,2.29521350143092,2.29630738148215,2.29647532525069,2.29649267118774,2.36792432295659,2.36666121662598
2.24608022085837,2.24685346401748,2.2476606309216,2.24810667685152,2.24880570901392,2.24965024359548,2.25047521153504,2.25138567777273,2.25325606163464,2.25522890787491,2.25738381540555,2.25948408940414,2.26015910301235,2.30922109124145,2.31000685566501,2.31136954693613,2.31237153171193,2.31292300566988,2.31326508466269,2.31338780282905,2.31367093021273,2.31356017454629,2.31325422704361,2.31245439879777,2.31196003214858,2.31193711580042,2.31210638678435,2.31197457007261,2.31118039636664,2.31095315642003,2.31094887165273,2.31101858618788,2.31088067439017,2.3108715048023,2.31127504522121,2.31180417667619,2.31229152360885,2.3125691824282,2.31280657077625,2.31327639675869,2.31406395896672,2.31481863093608,2.31533066067943,2.31593225123466,2.3168049037519,2.31819523988595,2.31894815105481,2.31938725863606,2.31959918293906,2.32004919950353,2.32086521778742,2.3213575037358,2.32136787005627,2.32137579914776,2.32162145434279,2.3220211970831,2.29818631682126,2.27723905543275,2.27671956675234,2.27610514435049,2.27484231884691,2.27420270715157,2.27392736655948,2.27400834833054,2.27410832295751,2.27427803555253,2.27430141767166,2.27425020334874,2.27421636423782,2.27449509337477,2.27504736984622,2.27519822428549,2.27533639345179,2.27544019439072,2.2756475408303,2.27613086095992,2.27615145938324,2.27614115409882,2.27630146878864,2.27659697893473,2.2770228219955,2.27733983677869,2.27759990696959,2.27768079636169,2.2780519735939,2.27836128375146,2.27861281694564,2.27885016757258,2.27949509686852,2.27988812101872,2.27987642978474,2.28017932694778,2.28050309793607,2.28102841389226,2.281554724704,2.28190817771513,2.28228718483231,2.28266995105627,2.28314183020191,2.28389472496773,2.2847314750105,2.2859862890711,2.28710264858845,2.28830920026162,2.31792219646622,2.35326131080473,2.35382284101237,2.35539801667396,2.35567320918166,2.3560984186525,2.35610009335271,2.35610806754763,2.35615683753388,2.35655117581488,2.35707450783946,2.3577980919757,2.358542359531,2.35939996989127,2.35944101956844,2.35906329341563,2.35849315106354,2.35870420366958,2.35923755235022,2.36027396091662,2.36175015571206,2.36192946614161,2.36182717985947,2.36189281434586,2.36182502871216,2.36130516269185,2.36050640934537,2.35980545628551,2.35916542872849,2.35878343766093,2.35883333144092,2.35840144431184,2.35706603639305,2.35605758899898,2.35548277804822,2.32395743527295,2.29551392313368,2.29560515907219,2.29469511773495,2.29381593867295,2.29351920569844,2.29364087177416,2.29344230306413,2.29334295615922,2.29338655679856,2.29300278974952,2.29314500617538,2.29328851094696,2.29348295646248,2.29358206391234,2.29308577815617,2.29281804390468,2.29270438704016,2.29256498601661,2.29261474448962,2.29298667140295,2.29326872882731,2.29348023277846,2.29360675011441,2.29408269166916,2.29436038770087,2.29438504120583,2.2945924646812,2.29485912150147,2.2951448506787,2.29572786274668,2.29643659424275,2.29756218998928,2.2978702293338,2.29846219800626,2.36656559669877,2.36629824130015
2.24607237768306,2.24674349585522,2.24696659369225,2.24772466692988,2.24875597885739,2.2496137549399,2.25072116594317,2.2514029887812,2.25389867159981,2.2555088528626,2.25750729519721,2.25957440916009,2.25929657747445,2.30998288205379,2.310711253849,2.31190744997923,2.31279269808273,2.31307909554214,2.31329845254148,2.31332938815272,2.313724374465,2.31379518163057,2.3134528942853,2.31278455462827,2.31211293450794,2.31215291500952,2.31258074569985,2.31294955776604,2.31161167627884,2.31055355947974,2.3106463493853,2.31145565761332,2.31148328429874,2.31101927796124,2.31126565930872,2.31199892869638,2.3127293387986,2.31303656799193,2.31324584732223,2.31391425693664,2.3146874168158,2.31526672449984,2.31541003122674,2.31636998928272,2.31740566034089,2.31876630888688,2.31932328792118,2.31947955739057,2.31975061324798,2.32042449864106,2.32138342033759,2.32164623100623,2.32146496179948,2.32187282003375,2.32173090893564,2.32334587782325,2.30805208170957,2.27712238125988,2.27676452565218,2.27758895308335,2.2748804371514,2.27451768826177,2.27421158715508,2.27404412459995,2.27419070273705,2.27453832208806,2.2744993642327,2.27440262502908,2.27391767227635,2.27443519926855,2.27579661266772,2.27548352651039,2.27542397041414,2.27533609445552,2.27528316747768,2.27613875599585,2.27613915676742,2.27612152334096,2.27655629585561,2.27646788249808,2.27696457019131,2.27736361134212,2.27762607802778,2.2774639226623,2.27829035020719,2.27841809354539,2.27875954834015,2.27881259701437,2.27934729130067,2.2796853773256,2.27972276584506,2.28024519939807,2.28044155540048,2.28116158940263,2.28226883885225,2.28217992885501,2.28238526769138,2.28238574452473,2.28314297591328,2.28451288153935,2.28445965509851,2.28541397289277,2.28599067805456,2.28811881555978,2.28719999477831,2.35530357455292,2.35476988924532,2.35684474106175,2.35579919562184,2.35616610883129,2.35576355042344,2.3559067190279,2.35582357068791,2.35683732639551,2.35752746227106,2.35905854990592,2.35899264987829,2.35914489226505,2.35911896900207,2.3592224393915,2.35833410167647,2.35921396476719,2.35968931672055,2.36088831401712,2.36226582374856,2.36173490110642,2.36163425414578,2.36178701595792,2.36183711904243,2.36167902367238,2.36047440224994,2.35990707303759,2.35881064444112,2.35868435084141,2.35905708189686,2.35712344425701,2.35692761182978,2.35630512860018,2.35696069950339,2.29551213109515,2.2955450094924,2.29566818178548,2.29433794605944,2.29402479508702,2.29442621588177,2.29490561865181,2.29392683205357,2.29327967379656,2.29342728159494,2.29295243586493,2.29314629721753,2.2935723285093,2.29422247526783,2.29504328992959,2.29315345814283,2.29272120112221,2.29286498289928,2.29254968128088,2.29236922295948,2.29340909606528,2.29331083982133,2.29364145194501,2.29363117728713,2.29403223473441,2.29502785205135,2.29471218226222,2.29520298064937,2.29580227025518,2.29576591087814,2.29636602240219,2.29670916152928,2.29788323735624,2.29658099408231,2.29813837675731,2.36822747266696,2.36746404680279
2.24680338405882,2.24707144100323,2.24744377015976,2.24918943051542,2.24969307155386,2.25048999643961,2.25142781326525,2.25208200225821,2.25430114494743,2.25617427605153,2.25782400997661,2.2598854759014,2.26017279077394,2.3103085586751,2.31115395357509,2.31336196939817,2.31347182601275,2.3130689387788,2.31389016786947,2.31376334011998,2.31422846968126,2.31414446029716,2.31379310048884,2.31285441156788,2.31208184508408,2.31267113832233,2.31291955409255,2.31280764305466,2.31296618469207,2.31208358649504,2.31199374182939,2.31242470359786,2.31282593361003,2.3120041192757,2.31236856190114,2.31289392501707,2.31329500359351,2.31366829525982,2.31419774520049,2.31439849275162,2.31511372487837,2.31593301418466,2.31596465112144,2.3170614198363,2.31805852635368,2.31909669039655,2.31982416132167,2.32037636291665,2.32101734391443,2.32132202157429,2.32183321397107,2.32191936230522,2.32120552155537,2.32136097060102,2.32216367476041,2.32292876195094,2.31597338613706,2.27687327289145,2.27691348072091,2.27651389499112,2.2756993295593,2.27497761306838,2.27431944542606,2.27405134107636,2.27424928967021,2.27483475593961,2.27469690666975,2.27454404134803,2.27446171031341,2.27511865827627,2.27557001763129,2.27542302843342,2.27501061061777,2.27532596122449,2.27554271500098,2.27599391897083,2.27617060640192,2.27603906008401,2.27647839767108,2.27658639007434,2.27711104121372,2.2774959002195,2.27758577315245,2.27767591926054,2.27800612119631,2.27902495020193,2.27912204408986,2.27956637321218,2.28032782948524,2.27936515239769,2.27971316279035,2.28055962986129,2.28159161715048,2.28140644032513,2.28200927227878,2.28254277780609,2.28269454436829,2.28308240346929,2.28296231922209,2.28335210888867,2.28403306290835,2.28486065306755,2.28517321288675,2.28683219823825,2.28878641690393,2.29059219255497,2.32978903185974,2.35576305307073,2.35547080455202,2.35585040443445,2.35592335702115,2.35589189089064,2.35571251954887,2.35607152924115,2.35640434165812,2.35889624040435,2.35940549368648,2.35934335010639,2.35964086307354,2.35989617695005,2.360221468125,2.36030166884161,2.36068657439364,2.36095287647781,2.3615602398988,2.36149280057651,2.36129633109576,2.36134268466047,2.36155024256846,2.36141551946694,2.36041839831173,2.36060243440825,2.36093294842447,2.35936648897671,2.35930903219808,2.35836688443062,2.35749841186135,2.35687999221547,2.35732975028251,2.35773704800197,2.29562531826317,2.29576057386964,2.29471890317318,2.29429886651595,2.29408913810232,2.29366889068203,2.29398568177559,2.29409943559113,2.29365870649109,2.29357523286481,2.29344262953126,2.2936329230944,2.2933635150897,2.2944798150725,2.29371577186903,2.2931653438338,2.29337902228271,2.29324193743357,2.29328324327248,2.29364238854334,2.29400630292626,2.29408877123673,2.29378289388542,2.29446614203068,2.29546402362034,2.29544412947116,2.2957584415187,2.29603510142337,2.29573843888572,2.29670119177815,2.29738828673462,2.29875338197482,2.29749624439252,2.37027981111794,2.37043511296695,2.36864612878545
2.24631873898616,2.24727936928786,2.24806220312015,2.2494287056446,2.25031164305113,2.25169629866909,2.25234680772195,2.25308517771221,2.25501829316187,2.25782964295328,2.2588678187149,2.28469833465129,2.30997362896822,2.31074704348793,2.3126894224239,2.31370411824629,2.31423441780559,2.31416382225628,2.31416151229664,2.31462248049628,2.31508930039986,2.31447462464761,2.31380344967566,2.31280705123955,2.31319240831593,2.31306151852745,2.31338165410297,2.31290839626302,2.31378813740467,2.3126298581699,2.3125654130925,2.31316930124224,2.31313686071893,2.31267463411577,2.31308464245386,2.31318396778341,2.3137439976117,2.31382138092521,2.31519137622062,2.31532670475463,2.31715069166032,2.31708844112696,2.31732991964293,2.31798109575103,2.31858046897492,2.3193288839345,2.3202951080448,2.32106490601214,2.321736087759,2.3226847699093,2.32266153942457,2.32260994995062,2.32245846189256,2.32193600415995,2.32326802193076,2.32441405057664,2.31965144218073,2.27692563995963,2.27699314237971,2.27637015201508,2.2757592997083,2.27543191754583,2.27500171830542,2.27451249983599,2.27441109953193,2.27502016648334,2.27494376335006,2.27456841962351,2.27516014709321,2.27560889836655,2.2758097796373,2.27573229499292,2.2754051124384,2.27551573766642,2.27573067609894,2.27616040958512,2.27641953151314,2.27669592312293,2.27697287622545,2.27707325715641,2.27779997244977,2.27789106638921,2.27808384686047,2.27816640196469,2.27853534076333,2.27894740590956,2.27918825713351,2.2791684200784,2.27931949266496,2.27938244989915,2.28022798989515,2.28073247887884,2.28118338936987,2.2816247482445,2.28195780858761,2.28216448552791,2.28271184928975,2.2831852856934,2.28319297241035,2.28414557313465,2.2843739398218,2.28491151536087,2.28529105978478,2.28629317155316,2.28768542175747,2.2893184242514,2.31422045448535,2.35506607211238,2.35504813306132,2.3552678183525,2.35583613054185,2.35648859915107,2.35657014815262,2.35639767688854,2.36409132752161,2.36048940316928,2.36088944130361,2.36141118328041,2.36115885730466,2.36101487217412,2.36250018487407,2.36153192909875,2.36191487434915,2.36163729822206,2.36171985151144,2.36143606895744,2.36112058576822,2.36122995162351,2.36139007633259,2.36111921297376,2.36341697173601,2.36165684689036,2.3610782744653,2.36007369709336,2.3601974718271,2.35996490584223,2.35793692543795,2.35689733371948,2.35718312561991,2.35771100458707,2.35932141191501,2.31483206750989,2.29514589483582,2.29480628867282,2.29447127938054,2.2940797013892,2.29437662618171,2.29449402369451,2.29445600092411,2.29397078715032,2.29405662237384,2.29406426547563,2.29429107610372,2.29481812921882,2.29442968337721,2.29379897536925,2.29429130184787,2.2951944545328,2.29470909873927,2.29464174717701,2.2952308187101,2.29489387891078,2.29512664065612,2.2948203813583,2.29536371085172,2.29640920932762,2.29650241963638,2.29677922661601,2.29687751459097,2.29674276655429,2.29785206663321,2.29981765516664,2.29894841847737,2.37133536355837,2.37394640095658,2.37126063472551
2.24704602464923,2.24763392522995,2.24808829828226,2.24928882200579,2.25078772841576,2.2526098369472,2.25316560966817,2.25362368892062,2.25707762064785,2.25895797894146,2.30998365409106,2.31006537375048,2.31206675291955,2.31239766689895,2.3127077822796,2.31475964583274,2.31528377428969,2.31568264877217,2.31520986279642,2.31491051741943,2.31496738831271,2.31452689606837,2.31377781503205,2.31449730418702,2.31454408416289,2.31475664524212,2.31451770733812,2.31496066999845,2.31561426318965,2.31409637319755,2.31586951606692,2.31431955887862,2.31368698684338,2.31477338248696,2.31449006634653,2.314218944726,2.3144603084437,2.3145597434626,2.31510305742321,2.31609383138271,2.316668972212,2.31773756215756,2.31866588273183,2.31914504455798,2.31964349452845,2.32019421563211,2.32075995396156,2.32136097802678,2.32207631853486,2.32227958499729,2.32350259110118,2.32325262725654,2.32266001581012,2.32269159527781,2.32520577442494,2.32559362337237,2.32028824311225,2.27718783886876,2.27707273131824,2.27650533662486,2.27672364078089,2.2760340174269,2.27577037299246,2.2749786498211,2.27496864440803,2.27513119876096,2.2754193818483,2.275451200248,2.27668469488247,2.27656638817687,2.27635639954749,2.27622105982663,2.2763991021875,2.27641277058649,2.276470899754,2.27630615412834,2.27677837323456,2.2770828810041,2.27751418787414,2.27731267982385,2.2778040126036,2.27821523385807,2.27847333575682,2.2785478589566,2.27914724920262,2.27920098244992,2.27943474097966,2.27958432264907,2.27983759740218,2.28000577713926,2.28054750295318,2.28090825570067,2.28078224785524,2.28143442608662,2.28223207328277,2.28252176405747,2.2828969932195,2.28321477823638,2.28333634212321,2.28413020195288,2.28513811889803,2.28522372080721,2.28556943589845,2.28582536520311,2.28750674723322,2.2890709521534,2.29133215021782,2.29214743774828,2.35519962179443,2.35551722087565,2.35693796124229,2.35840717649148,2.36025959832919,2.35812488876378,2.36353313065424,2.36384604057428,2.36269746471587,2.36380798149916,2.36291900552514,2.36388682186175,2.36344038145266,2.36221316096997,2.36237197004904,2.36204791554809,2.3621655507495,2.36132692210436,2.36124419043516,2.36153069250168,2.36186479900799,2.36346246245903,2.36180576502238,2.36213425529864,2.36126504523257,2.36214983003386,2.36092193394354,2.35837515659555,2.35775063665475,2.35690733373904,2.3567213015789,2.3643901714903,2.36061156451759,2.32366385697531,2.29465411924871,2.29602535012767,2.29529229531428,2.29545071469057,2.29486598352592,2.29433585325055,2.29448652266216,2.29572668919702,2.2943640449502,2.29439807096195,2.29430812532932,2.29479079009206,2.29582984975726,2.29503261282121,2.29475600242274,2.29435671691624,2.29499605722119,2.29498518616693,2.29575609198313,2.29519361846307,2.29467903580333,2.29549625041323,2.2958365749349,2.29709535749284,2.29705711349619,2.29688872451236,2.29722305127924,2.29738912649705,2.29823628995778,2.30055591574408,2.29990070641125,2.37343897217766,2.37316452104606,2.37192317140672
2.24738090277785,2.24804318309097,2.24881715610422,2.25030389395611,2.25167310573458,2.25365851151739,2.25397139135729,2.25470891283589,2.25686253825061,2.25979593669254,2.31121387527775,2.31120036529608,2.31269289749486,2.31510059473829,2.31644087716507,2.31613049675403,2.31633918409148,2.31681148619404,2.31597797607762,2.31572711403026,2.31470282823905,2.31474411837924,2.31465162251983,2.31535644536999,2.31504481346638,2.31524174267038,2.3148610471551,2.31460195649147,2.31582085698738,2.31611908550057,2.31429593158374,2.31445269413963,2.31400689871481,2.31502313631258,2.3164565966825,2.31526924217667,2.31540389333733,2.31556800680038,2.31589738288482,2.31677859479682,2.3177803651438,2.31832351072249,2.31853117596259,2.31958420358103,2.32001242653243,2.32056097040637,2.32108344657533,2.32120057619136,2.32205430921478,2.32279511840401,2.32428160123626,2.32409480103298,2.32422408757657,2.32342813159961,2.32475001599081,2.32595682533292,2.3256803231447,2.32760488334501,2.27726979189635,2.27819103535874,2.27617586986224,2.27609483124119,2.27585939459092,2.27566774700837,2.27745761294183,2.27691217488336,2.27619410670261,2.27572312427039,2.27585094268894,2.27642926035369,2.27630928093003,2.27656275663778,2.2763620706501,2.27838879159879,2.27729412789063,2.27754586369396,2.27717193783687,2.27706024980371,2.27785535737885,2.27781917433432,2.27825489040768,2.27862122317401,2.2791336246603,2.27911861559307,2.27941971230527,2.27958985958776,2.27982224593528,2.28015225747352,2.28069451863095,2.28122328844203,2.28181911006249,2.28168189978324,2.28176565770762,2.28240369332397,2.28270270946866,2.2828934904658,2.28305585571585,2.28332943034368,2.28373131444561,2.2843928339483,2.28478169018946,2.28535363312067,2.28562495110233,2.2858984069673,2.28661178078347,2.28853263634066,2.29066200876593,2.29121701041509,2.29352227953731,2.35573026332615,2.36136403700031,2.36086118772783,2.36385352863514,2.36520679622873,2.3640309744419,2.36417332403969,2.36314336268961,2.36365609422435,2.36385714376155,2.36376412052132,2.36338381000715,2.36243972347937,2.36244808746898,2.36251712243466,2.36290591894666,2.36129408259936,2.36173669941337,2.36102933538228,2.3616917116777,2.36242177279461,2.36525355671294,2.36447771880064,2.3667877132949,2.36394662869165,2.36028439815215,2.36037685183114,2.35850458717017,2.35718307438702,2.35814021444066,2.37024467559853,2.36668303031428,2.33477132000919,2.29682035885541,2.29651349700034,2.29622970954865,2.29516161407866,2.29550180092597,2.29528067138108,2.29505768429553,2.29483834578754,2.29419465294481,2.29471566582484,2.29507833469221,2.29548671880808,2.29566823695478,2.29562314913525,2.29539709802915,2.29513372100389,2.29600482715336,2.29568971158085,2.295765602573,2.29550844029342,2.29526253649783,2.29532390599573,2.29567762858492,2.29638661787876,2.29745844751713,2.29698628933061,2.29744370027744,2.2975798535627,2.37030879603492,2.36995018523629,2.37359912727599,2.37421554857657,2.37211500155881,2.37448474373989
2.24719582827123,2.24831704448275,2.24914288134666,2.25100314229445,2.25211432670601,2.25303713389443,2.25422774570263,2.25495864948535,2.25642523770015,2.25851669606891,2.31343964853723,2.31335861204332,2.31540169849697,2.31688488500487,2.3192541660848,2.31711404288165,2.31710989734168,2.31669337590931,2.31715585349074,2.31586595048594,2.31505413936586,2.31499384918359,2.31425663491511,2.31531279070898,2.31478566025358,2.3151624907101,2.31512485842348,2.31438047570727,2.31490941061264,2.31636997924786,2.31557318525386,2.31512643520354,2.31478593040848,2.31531271060578,2.31569551390993,2.31611046980365,2.31622510051113,2.31618775235751,2.31683848163053,2.31887656135916,2.31942404325461,2.31924136109437,2.3192320225955,2.3198950139917,2.32022763936254,2.32076193648242,2.32170539539082,2.32204321331801,2.32353150740579,2.32384010263215,2.32366117493676,2.3245177784055,2.3247179601878,2.32484239565106,2.32542569951076,2.32615363663958,2.32593173179323,2.2782120913966,2.28026782638947,2.27863652974738,2.27651618230467,2.27630154118319,2.27603728672576,2.27705817789108,2.2764719266879,2.27748023694839,2.27663197324914,2.27596335104882,2.27601294407351,2.27749327855347,2.27815308372562,2.27721249505156,2.2767327743631,2.27725803882521,2.27708778171472,2.2771338548294,2.27744596808676,2.27740000984799,2.27838670103777,2.27860463846865,2.27891519453405,2.27891372529647,2.27905848326508,2.2800921933416,2.2793366606649,2.27951304026518,2.28000517918082,2.28035731945272,2.28065256577816,2.28129188390879,2.28246451374308,2.28209859720071,2.28213444791435,2.28217685672403,2.28268159121583,2.28306368907887,2.28320605273745,2.28330037228786,2.28393691463331,2.28505556977447,2.28545065758887,2.2858193593469,2.28656473778689,2.28626264717287,2.28709234439552,2.28842560665231,2.28993221585364,2.29050082631308,2.29170976553037,2.3632318672972,2.36147495411638,2.36120603336796,2.3627638039183,2.36366215949411,2.3637359654129,2.36370075173122,2.36317376856167,2.363416180294,2.36354005053705,2.36355877422924,2.36328137706799,2.36287259748071,2.36287945588466,2.36375882968421,2.36602286082891,2.36221703408986,2.36445008239978,2.36780702268343,2.36739686239883,2.36586928044991,2.36600937624155,2.36519579374082,2.36524522643136,2.36531406061577,2.36385888717665,2.36147522656754,2.36021540879022,2.3588203332932,2.3682761553843,2.36805803268166,2.36892683291907,2.34499884099596,2.29712385417837,2.29712249929962,2.29641852294109,2.29581560656067,2.29660194372382,2.29802443576553,2.29662680717649,2.29658602900658,2.29493169209828,2.29527860397293,2.29556068550687,2.29579902657044,2.29558091064482,2.29685768042051,2.29603508322951,2.29543354821745,2.2962030779885,2.29610522276283,2.29580027582701,2.29603853880167,2.2961474488109,2.29589683792342,2.29659179622316,2.29680287185703,2.29835890368366,2.2974321091628,2.29818819482707,2.37200103496553,2.37071990628107,2.37075927608822,2.37415781965081,2.3738920956621,2.37317694252092,2.37367646808012
2.24795619825753,2.24881230390637,2.2497062247109,2.25052953639067,2.25238212108575,2.25427493247153,2.2548296876849,2.2554049545226,2.25663617584998,2.25832434326015,2.31423624940609,2.31503343181526,2.31610283537701,2.31713121059108,2.31795239147532,2.31820483602467,2.31817025536351,2.31864853312178,2.31712489719602,2.3162093479589,2.31543743540299,2.31579261668299,2.31515620476505,2.31661129607775,2.31627967918722,2.31633845953216,2.31591699910824,2.31521957881785,2.31478273194772,2.31514413208321,2.31510916852816,2.31552254284093,2.31546380180295,2.31587162801065,2.31677062299382,2.3163977459589,2.31721014768983,2.31753643528153,2.31831489893926,2.31854009127292,2.31950626892012,2.31985022967603,2.31972350938182,2.32031935451753,2.32071087950239,2.3212393183981,2.32273513201253,2.32378467576242,2.3250462576713,2.32530952948739,2.32468165405127,2.32535832510017,2.32492331930107,2.32633659905097,2.32734563816095,2.32773516283356,2.32769901538547,2.32947740919002,2.27946908481433,2.27873438037614,2.27706560188867,2.27664303996138,2.27631938624818,2.27701158069535,2.27725508464076,2.27676898084043,2.27694556143563,2.2774157690523,2.27684833545092,2.276964857263,2.27738307671826,2.27755325159839,2.27734001513309,2.27751709721118,2.27752358804344,2.27838330099594,2.27794674164073,2.27756338763733,2.27801760514884,2.27845058322189,2.27860738218512,2.27899189905414,2.27924390309222,2.27956359939749,2.27978894658522,2.27985765053032,2.28038412026789,2.28099608297775,2.28074040600758,2.28056210648342,2.28219933637579,2.28221538010172,2.28207704962059,2.28245280071977,2.28256793240673,2.28334894527088,2.28330742013825,2.28293915402073,2.2840530837541,2.28486617796933,2.28610298201613,2.28594816955983,2.28613931713187,2.2864076460545,2.28686427490073,2.28796554024315,2.28902274760886,2.28923611908534,2.29148046369549,2.29383283823874,2.36194614022087,2.3612944277534,2.3624158257676,2.36332046270934,2.36397774717606,2.36437781834162,2.36353892236376,2.36334975152148,2.36357030187928,2.36329225060735,2.36336733741517,2.36388130441807,2.36457980831859,2.36635464606244,2.36416645534767,2.36772413939031,2.36669122893935,2.36832216053307,2.36806747464925,2.3681572274025,2.36720880392314,2.36635457765895,2.36667638547791,2.36435169541471,2.36426229715396,2.36379384796764,2.36356557792197,2.36682700853514,2.36801478354553,2.36830450883667,2.36842153312165,2.36844127033983,2.3689664471145,2.29884876884642,2.29725684072373,2.29723125224898,2.2973851046419,2.29764095697957,2.29806194714872,2.2971282986427,2.29596372576804,2.29581492256213,2.29580789338875,2.29640078984204,2.29668784737261,2.29667041715552,2.29655871204107,2.29626993183936,2.29646761214525,2.2966009825964,2.29745913736703,2.29705487814492,2.29724910000532,2.29670652504747,2.29727334331338,2.29817508492899,2.29963922870943,2.29865307982083,2.29844107989928,2.37474206417125,2.37342091325978,2.37233877881125,2.37352926515913,2.37396228622462,2.37554321115257,2.37413374363981
2.24839443497503,2.24929123065677,2.25014004068494,2.25107501385144,2.25255460011631,2.25460861882846,2.25543033454566,2.25669553395368,2.25708360294088,2.31595475225363,2.31684363815812,2.31710627171217,2.31875323126457,2.31942743736816,2.31820163064814,2.31785747445552,2.31840381890481,2.31853123625406,2.31897257820915,2.31952020384712,2.31802500927052,2.31730938591917,2.31624849249159,2.31643617267457,2.3162292242537,2.31662506042362,2.3167259678742,2.31652658258005,2.31629744704452,2.31548117586252,2.31545607261492,2.31602719286402,2.31531437578488,2.31631583401265,2.31686915064604,2.31795904808169,2.31834431770716,2.319337004997,2.31863936439659,2.32047956688494,2.32043317399642,2.32079100971488,2.32064252385674,2.32073061020082,2.32191754395965,2.32313130893395,2.32394742392675,2.32452764795621,2.32521611681864,2.3267976042067,2.32711598960566,2.32694842082953,2.32736489494942,2.32690748410389,2.32782929818492,2.32843328228022,2.328935490226,2.32984945682257,2.32895304711255,2.27728497319581,2.27746882889462,2.27714707824881,2.27671144113239,2.27732656976718,2.27686692276767,2.27697798458576,2.27697273879572,2.27691128017016,2.27688635413277,2.27718571258739,2.27848701910891,2.27815535537322,2.27785661776056,2.27790799453309,2.2774321358163,2.27903703345622,2.2785205571631,2.27844508218215,2.27807985958334,2.278957297138,2.27886746902535,2.27924807459682,2.27936914819965,2.27961690247239,2.27990351335393,2.28036718176181,2.28063657321743,2.28083718881526,2.28069413101238,2.28115434159385,2.28236972641917,2.28238932506263,2.28263681713002,2.282370603581,2.2833309407283,2.28359881266337,2.28382708326225,2.2839593329447,2.28495899834028,2.28492556315768,2.28535940453777,2.28571601458814,2.28592138452228,2.28679363026536,2.2871782279781,2.2874648863892,2.28863436189692,2.28935940935796,2.29136729822678,2.29355315179863,2.36321607887956,2.36177076237528,2.36344737958072,2.36401413353541,2.3641437893734,2.36435619699178,2.36397790655625,2.36375080361726,2.36336757453287,2.36339285100118,2.36426186305024,2.36563171005928,2.36693789067894,2.37001925816182,2.37008098336189,2.36827357745858,2.36784190852085,2.36846832579398,2.36785991540172,2.36952859901126,2.36795129942018,2.36713814471587,2.3673562358105,2.36533191784101,2.36343314389781,2.36241026649603,2.36432204751059,2.36716655726643,2.36800067865454,2.36917792974815,2.37128805123368,2.37040561877115,2.37338763950509,2.29844275182782,2.29776987713446,2.29811202374608,2.29820727199108,2.29773596344605,2.29718280414742,2.29673803441761,2.29611761890498,2.29642719713264,2.29661715302441,2.29632932323114,2.29665100954964,2.29726559552138,2.29742028248556,2.29699031283839,2.29669056382112,2.29665868965307,2.29774483240737,2.29791268202242,2.29787927358929,2.29822961373004,2.29863911345282,2.29852493478267,2.30028665689147,2.29903011438461,2.37769210044939,2.37946574336885,2.37628910205829,2.37472507243639,2.37400334297986,2.37486667067571,2.37750237630788,2.37608291818375
2.24952033740079,2.24980054394843,2.25043945393789,2.25154368634349,2.25270530253541,2.25469018498878,2.25553588631621,2.25641874547204,2.25767226349518,2.31661635041295,2.31773436038782,2.31782937925069,2.31882436413633,2.31893622382022,2.31867989429894,2.31865369900084,2.31872223841464,2.31845953279656,2.31878227457388,2.31928303929328,2.31847212938628,2.31882964723196,2.32024511086609,2.31798880664893,2.32111885350352,2.31763220013393,2.31748633502915,2.317206347972,2.31714096681704,2.31724532816301,2.31879151034688,2.3174514719058,2.31593392357707,2.31683666345558,2.31744420341856,2.31779606818195,2.31861242639198,2.31890776513447,2.31937908157644,2.32128257803879,2.32185162149379,2.32195670834464,2.32247087647301,2.32342498274527,2.32416335083642,2.32534565977204,2.32503511146276,2.32485891585123,2.32556308932911,2.32670765937308,2.32733025214022,2.32760187398263,2.32779886395605,2.32763265167391,2.32835767838297,2.32976651460624,2.32990413526015,2.33037307055077,2.33443886105697,2.27840293981654,2.27802118953989,2.27782765762204,2.27697666063211,2.2773039388592,2.2770075698963,2.27712987694813,2.27721272196148,2.27716593461465,2.27721404363254,2.27780198840789,2.27964677227014,2.27882174784135,2.2785952902142,2.27781373995925,2.27809821494193,2.27857764520403,2.27857266307067,2.27833949726241,2.27892376241668,2.27982689897582,2.27937441747418,2.27971631813965,2.28017991943946,2.27985342218934,2.28029549583868,2.28107716709454,2.28097207563311,2.28088199130752,2.28117661300502,2.28222841475814,2.28175364960935,2.28242318970573,2.28295870440832,2.28309285912148,2.28368533499611,2.28435125561383,2.28437126706328,2.28465553734617,2.28434157562767,2.2847383615115,2.28538929732381,2.28564205006177,2.28569712645073,2.28651304090953,2.28692686711441,2.28769728975023,2.28874027920084,2.28998221055954,2.29196899566911,2.29262699094385,2.36400531436953,2.36199224786783,2.36361825461094,2.3638152446186,2.36412970265781,2.36429982919803,2.36464885168154,2.36457112519054,2.36389908216122,2.36460430192255,2.36807763253482,2.36795460279156,2.36978631282577,2.36993864867756,2.37076206072085,2.36902230421031,2.36862145199255,2.36851460022918,2.36898369644613,2.36991082999368,2.36861326961703,2.36758695791077,2.36675636542741,2.3687982756952,2.36361423926522,2.36338939895649,2.36442166422262,2.36502265117005,2.36793941470136,2.36987897078597,2.37129869346861,2.37094246105404,2.37249194595352,2.37335740776545,2.29826496455564,2.29879871968415,2.29949762687437,2.29848726720455,2.29749074370944,2.29722010847606,2.29762289317136,2.29735171624115,2.29743405226983,2.29704940365034,2.29690840126099,2.29931870645761,2.29909650076653,2.30036646253901,2.2976548254728,2.29740721705692,2.29790685374391,2.29900446456936,2.29889841745345,2.29799509858242,2.29844405585127,2.3732102262426,2.3726143377137,2.37562152467783,2.37715310794252,2.38130100715359,2.3841402204169,2.3775198742979,2.37586816728493,2.37812312112563,2.37864623543153,2.37695096702482
2.24931116288876,2.25006290176542,2.25089322636118,2.25200584979709,2.25340814906265,2.25458977143949,2.26465252380108,2.28301516909983,2.29550661241813,2.31707148930108,2.31721652011309,2.31765513366255,2.31826793488523,2.31859134469369,2.31871697977332,2.31897696062845,2.31902128134321,2.31891510266927,2.31880209284122,2.31869964644571,2.31872978489704,2.31902993934954,2.31933235919682,2.31876555584828,2.31915166932778,2.31839896890762,2.31811583613903,2.31789925465043,2.31852151049662,2.31834957492832,2.31916958889798,2.31871687880964,2.31832644561664,2.31867377569449,2.31890209007508,2.31872948247602,2.31905919513079,2.31923260891818,2.31986309833089,2.3209796561969,2.3218769172758,2.32248088689442,2.32307437039114,2.32424092614285,2.32486215594553,2.32562001407671,2.32572421890555,2.32564868048414,2.32602228606586,2.32673339425662,2.32751598050087,2.32799639231131,2.32832985132462,2.32930721131005,2.32928049623734,2.32994761747589,2.33062384407286,2.33142600682176,2.33266750125207,2.30621800159868,2.27859473901263,2.27854701420506,2.27819366360599,2.27810167124917,2.27826537196781,2.27776957735249,2.27778551383997,2.27784799895997,2.27855129010848,2.27866627822585,2.27896177826371,2.27878955064512,2.2785785702156,2.27817408222745,2.27837434288644,2.2786776765731,2.27888583231954,2.278969584275,2.27926521705968,2.27964882526536,2.27976265307784,2.28005193346107,2.28036590959603,2.28051523511805,2.28070575676932,2.28117436716738,2.28123386213007,2.2812675256099,2.281621308903,2.28215103179554,2.28224516047309,2.2824898433852,2.28268286889475,2.28314324427444,2.28383227207879,2.28438584296953,2.28463443449282,2.28484545092635,2.28521190874121,2.28520157809072,2.28541744030923,2.28570022518755,2.28596295739545,2.28655090576874,2.28692374248197,2.28757286126394,2.28877797243877,2.29034710626094,2.29206201330628,2.29326333118896,2.31975969339992,2.33736031214747,2.36270702824905,2.36323567456088,2.36402330892375,2.36481851765919,2.36550490754592,2.36592519691783,2.36604708090013,2.36699203005829,2.36770357454558,2.36852154036453,2.36961240666755,2.3699602799576,2.37020703348264,2.36966068232632,2.36935275872795,2.36938852452935,2.37001786014542,2.36982005263423,2.3688246888901,2.36797584011874,2.36721194775767,2.36668069692099,2.36511907525036,2.36464528346556,2.36538046366916,2.36609870089167,2.36842503684045,2.37074509537727,2.3716120530444,2.37127571043649,2.371520347946,2.3718754858096,2.33507220462334,2.30051379030972,2.3009212741018,2.299670989345,2.29840040353267,2.29790051621999,2.29787764131265,2.29821734285324,2.29833648145226,2.29784536815471,2.29802238768802,2.29867365545491,2.29923955684509,2.29920362169872,2.29826959444486,2.29852342073034,2.29918077072552,2.3001536999118,2.3002467904654,2.3268644781605,2.3431330167296,2.37230480669905,2.37209671218163,2.37422294763438,2.37693919679445,2.37989621088682,2.38127715569248,2.37931212913154,2.37791667838206,2.37898227376969,2.37935724313482,2.3788289760936
