2.2308201914737,2.2313492784089,0,2.23270693545017,2.23270693545017,2.23360538496277,2.23410452358088,0,2.23478335210151,2.23575168102065,2.23617095745987,2.23686975152522,0,2.23776820103782,2.23820744302176,2.23905597867255,2.24014410086004,0,2.24082292938067,2.24149177512894,2.24209074147068,2.24159160285256,0,2.24382774386171,2.24447662406525,2.24495579713864,2.24600398823668,0,2.24625355754573,2.24772102508298,2.24855957796141,2.24999709718157,0,2.25201361719875,2.25455922415112,2.25488865563907,2.25803322893318,0,2.30498220735282,2.30470268972667,2.30541146656439,2.30745793489865,0,2.30656946815841,2.30674915806093,2.30716843450015,2.30598048458904,0,2.30532162161313,2.30497222458045,2.30430337883218,2.30409374061258,0,2.30409374061258,2.3038242057588,2.30439322378344,2.30447308596234,0,2.30490234517392,2.30571094973526,2.30634984716644,2.30674915806093,0,2.3077374525248,2.30838633272834,2.30959424818417,2.3103529388837,0,2.31131128503048,2.31279871811246,2.31371713316978,2.31449578941404,0,2.31545413556081,2.31515465238994,2.31252918325867,2.31223968286017,0,2.31664208547192,2.31012333511937,2.31075224977819,2.2735764055012,0,2.27264800767151,2.27317709460671,2.27247830054135,2.27215885182576,0,2.27219878291521,2.27262804212678,2.27354645718411,2.2732569567856,0,2.27337675005395,2.2743949928349,2.27390583698915,2.27429516511128,0,2.27466452768868,2.27499395917663,2.27591237423396,2.27666108216113,0,2.27801873920239,2.27739980731594,2.27842803286925,2.27959601723563,0,2.28113336417942,2.32769301447692,2.32716392754172,2.32822210141212,0,2.32899077488402,2.32895084379457,2.3287312228026,2.33041831133182,0,2.32915049924181,2.32732365189952,2.32705411704574,2.32702416872865,0,2.3263253746633,2.32560661505321,2.32572640832156,2.3247381138577,0,2.32488785544313,2.32476806217479,2.3256365633703,2.32543690792306,0,2.3262455124844,2.32684447882613,2.32745342794023,2.33037838024237,0,2.33042829410418,2.33058801846197,2.33084757054339,2.33064791509615,0,2.33118698480371,2.33178595114544,2.33093741549465,2.33112708816954,0,2.28787173552393,2.28677363056408,2.28511649035195,2.28404833370919,0,2.28382871271722,2.28393852321321,2.28271064221265,2.2822214863669,0,2.2822214863669,2.28315986696895,2.28227140022871,2.28190203765131,0,2.28196193428548,2.28173233052115,2.28156262339099,2.28064420833367,0,2.28049446674823,2.28107346754524,2.28092372595981,2.28130307130957,0,2.28110341586233,2.28090376041508,2.28147277843973,2.28054438061004,0,2.28086382932563,2.28111339863469,2.28105350200052,2.28104351922815,0,2.28217157250509,2.28171236497643,2.28178224438296,2.28190203765131,0,2.28197191705784,2.28202183091966,2.2827505733021,2.28290031488753,0,2.28269067666793,2.28366898835943,2.28434781688006,2.28546588738463,0,2.28420805806699,2.28495676599415,2.28579531887258,2.28575538778313,0,2.28610478481581,2.2874025452229,2.28671373392991,2.28779187334503,0,2.29132577476127,2.28966863454913,2.29419083042923,2.34534255601337,0,2.34804788732354,2.3498048552593,2.3496451309015,2.35215080676442,0,2.35100278794276,2.34917594060047,2.34983480357638,2.350623442593,0,2.35060347704827,2.34974495862512,2.34899625069795,2.34983480357638,0,2.34937559604772,2.3487466813889,2.34939556159244,2.35011432120252,0,2.35166165091867
2.2306105532541,2.23098989860386,0,2.23265702158836,2.23334583288135,2.23349557446678,2.23427423071104,0,2.23478335210151,2.23531243903671,2.23611106082569,2.2369296481594,0,2.23722913133026,2.23778816658255,2.23906596144492,2.23966492778665,0,2.24043360125854,2.24165149948674,2.24223050028375,2.24285941494257,0,2.24363807118682,2.24407731317076,2.24477610723612,2.24554478070801,0,2.24675269616385,2.24739159359503,2.24951792410819,2.25061602906803,0,2.25163427184898,2.25321154988222,2.25601670891601,2.25827281546987,0,2.30348479149848,2.30507205230408,2.30579081191416,2.30727824499613,0,2.30657945093078,2.30643969211771,2.30624003667046,2.3054613804262,0,2.30437325823872,2.30383418853116,2.30363453308391,2.30379425744171,0,2.3040338439784,2.30373436080754,2.30333504991305,2.30398393011659,0,2.30443315487289,2.30500217289754,2.30589063963778,2.30690888241873,0,2.30722833113432,2.30760767648409,2.30921490283441,2.30997359353394,0,2.31115156067268,2.31233951058379,2.31368718485269,2.31378701257632,0,2.31415637515372,2.31358735712907,2.3152444973412,2.31421627178789,0,2.30797703906149,2.30832643609417,2.30995362798921,2.27533337343695,0,2.27344662946049,2.2722786450941,2.27236849004536,2.27187933419961,0,2.27223871400466,2.27237847281773,2.2731271807449,2.2738659058997,0,2.27346659500521,2.2737860437208,2.27449482055852,2.27427519956655,0,2.27480428650175,2.27508380412789,2.27533337343695,2.27657123720987,0,2.2765113405757,2.27737984177121,2.27901701643862,2.27975574159343,0,2.2825109867654,2.28407828202628,2.32685446159849,2.32676461664723,0,2.3287312228026,2.32834189468047,2.32911056815236,2.32786272160708,0,2.32717391031409,2.32682451328141,2.32746341071259,2.32569646000447,0,2.32530713188235,2.32493776930494,2.32377976771092,2.32384964711746,0,2.3238396643451,2.32424895801195,2.32462830336171,2.32485790712605,0,2.32565652891503,2.32639525406983,2.32688440991558,2.32803242873724,0,2.32924034419307,2.32997906934788,2.33032846638056,2.33078767390922,0,2.33054808737253,2.33181589946253,2.3309773465841,2.33098732935646,0,2.28758223512542,2.2861347331329,2.28577535332786,2.28352922954635,0,2.28391855766848,2.28263078003375,2.28288034934281,2.28204179646438,0,2.28202183091966,2.28386864380667,2.28265074557848,2.28187208933422,0,2.28188207210658,2.28131305408194,2.28133301962666,2.28094369150453,0,2.2811633124965,2.28163250279753,2.28028482852862,2.28156262339099,0,2.28070410496784,2.28086382932563,2.28086382932563,2.28066417387839,0,2.28109343308997,2.28072407051256,2.28216158973273,2.2810834503176,0,2.28142286457792,2.28175229606587,2.28126314022012,2.28174231329351,0,2.28208172755383,2.28150272675682,2.28194196874076,2.282830435481,0,2.28280048716391,2.28305005647297,2.28322974637549,2.28426795470116,0,2.28513645589668,2.28469721391274,2.2846273345062,2.28572543946605,0,2.28640426798668,2.28778189057267,2.28633438858014,2.2875622695807,0,2.2889898060285,2.29070684287481,2.29362181240458,2.34496321066361,0,2.34872671584417,2.35103273625985,2.35110261566639,2.35035390773922,0,2.35042378714575,2.34931569941355,2.34916595782811,2.34992464852764,0,2.34953532040551,2.34953532040551,2.34887645742961,2.34876664693362,0,2.34864685366527,2.34884650911252,2.35073325308898,2.34985476912111,0,2.35084306358497
2.2309799158315,2.23127939900237,0,2.23176855484812,2.23308628079993,2.23389488536127,2.23394479922309,0,2.23457371388191,2.23484324873569,2.23637061290711,2.23704944142774,0,2.23773825272074,2.23816751193231,2.23824737411121,2.23904599590019,0,2.24042361848618,2.24091277433193,2.24146182681186,2.24268970781241,0,2.24327869138178,2.24401741653659,2.24464633119541,2.24611379873266,0,2.24693238606637,2.24794064607495,2.24938814806748,2.25059606352331,0,2.25319158433749,2.2542198098908,2.2559667950542,2.25807316002263,0,2.3050121556699,2.30478255190557,2.30625001944282,2.30679907192275,0,2.30642970934534,2.30644967489007,2.3062300538981,2.30587067409306,0,2.30497222458045,2.30384417130352,2.30375432635226,2.30288582515675,0,2.3029257562462,2.30387411962061,2.30293573901856,2.30361456753919,0,2.30400389566132,2.30479253467793,2.30551129428802,2.3061501917192,0,2.3067591408333,2.30793710797204,2.30877566085047,2.30979390363142,0,2.31071231868875,2.31243933830741,2.31281868365718,2.313447598316,0,2.31700146527696,2.31347754663309,2.31148099216064,2.3138968230723,0,2.31356739158435,2.30849614322433,2.27505385581081,2.27286762866348,0,2.27242838667954,2.2719891446956,2.27185936865489,2.27187933419961,0,2.27249826608607,2.27265799044387,2.27329688787505,2.27290755975293,0,2.27290755975293,2.27375609540372,2.27414542352584,2.274315130656,0,2.27488414868065,2.27499395917663,2.27535333898168,2.27616194354302,0,2.27726004850286,2.27720015186869,2.27970582773161,2.28082389823619,0,2.28220152082218,2.32610575367133,2.3266947372407,2.32709404813519,0,2.3288110849815,2.32890092993276,2.32913053369709,2.32945996518504,0,2.32732365189952,2.32679456496432,2.32586616713463,2.32538699406125,0,2.32611573644369,2.32411918197124,2.32355016394659,2.32366995721494,0,2.32355016394659,2.32368992275966,2.32384964711746,2.32466823445116,0,2.32479801049187,2.32633535743566,2.32744344516787,2.32786272160708,0,2.32908061983528,2.32945996518504,2.33024860420166,2.33022863865693,0,2.331057208763,2.32956977568103,2.33082760499867,2.33085755331576,0,2.2877219939385,2.28596502600274,2.28524626639266,2.28423800638407,0,2.28404833370919,2.28388860935139,2.28213164141564,2.28209171032619,0,2.28199188260257,2.28343938459509,2.28167243388698,2.28218155527745,0,2.28168241665934,2.28166245111461,2.28101357091107,2.28089377764272,0,2.28144283012264,2.28077398437437,2.28072407051256,2.28058431169949,0,2.28092372595981,2.28125315744776,2.28080393269146,2.28103353645579,0,2.28021494912209,2.280873812098,2.28159257170808,2.2811633124965,0,2.28216158973273,2.28211167587092,2.28191202042367,2.28133301962666,0,2.28181219270005,2.28201184814729,2.28202183091966,2.2823812107247,0,2.28239119349706,2.28336950518856,2.28427793747352,2.28435779965242,0,2.28469721391274,2.28444764460368,2.28424798915644,2.28594506045802,0,2.28556571510825,2.28663387175101,2.28713301036912,2.28917947870338,0,2.28934918583354,2.2932724153719,2.33812501159547,2.33955254804327,0,2.34988471743819,2.34985476912111,2.34969504476331,2.35101277071513,0,2.35089297744678,2.35039383882867,2.34994461407237,2.34925580277937,0,2.35005442456835,2.34923583723465,2.34872671584417,2.34843721544567,0,2.34905614733213,2.34880657802307,2.34859693980346,2.34917594060047,0,2.35042378714575
2.23088008810788,2.23064050157118,0,2.23204807247426,2.23288662535269,2.2337551265482,2.23435409288994,0,2.23464359328844,2.23505288695529,2.23557199111813,2.23668007885034,0,2.23753859727349,2.23770830440365,2.23979470382736,2.23930554798161,0,2.24047353234799,2.24144186126713,2.24310898425163,2.24262981117824,0,2.24274960444659,2.24429693416273,2.2446762795125,2.24596405714723,0,2.24713204151361,2.24804047379857,2.24924838925441,2.25082566728764,0,2.2522631865078,2.25442944811041,2.2564958819894,2.25870207468145,0,2.30557119092219,2.3067591408333,2.30641972657298,2.30647962320715,0,2.30731817608558,2.30723831390668,2.30519184557242,2.30442317210053,0,2.30388410239297,2.30408375784021,2.30346482595376,2.30302558396982,0,2.30293573901856,2.30282592852257,2.30368444694573,2.30356465367738,0,2.30396396457187,2.30465277586486,2.3054613804262,2.30596051904432,0,2.30655948538605,2.30768753866299,2.30857600540323,2.30947445491583,0,2.310223162843,2.31182040642095,2.31245930385214,2.31314811514513,0,2.31166068206316,2.31198013077875,2.31189028582749,2.31178047533151,0,2.31107169849379,2.31394673693411,2.27419533738765,2.27226866232174,0,2.27271788707804,2.27196917915087,2.27203905855741,2.27212890350867,0,2.27215885182576,2.27189929974434,2.27210893796395,2.2724383694519,0,2.27345661223285,2.27350652609466,2.27391581976151,2.27419533738765,0,2.27490411422537,2.27494404531482,2.27541323561585,2.27645144394152,0,2.27673096156767,2.2783082396009,2.27886727485319,2.28097363982162,0,2.28246107290359,2.32923036142071,2.32636530575274,2.32758320398094,0,2.32829198081866,2.32912055092473,2.33061796677906,2.33093741549465,0,2.32778285942818,2.32568647723211,2.32475807940242,2.32421900969486,0,2.32390954375163,2.32272159384053,2.32393949206872,2.32290128374305,0,2.32305102532848,2.32334052572699,2.32355016394659,2.32409921642652,0,2.32585618436227,2.32547683901251,2.32675463387487,2.32745342794023,0,2.32843173963173,2.32931022359961,2.32985927607953,2.33101727767355,0,2.32967958617701,2.32972950003882,2.32895084379457,2.32864137785134,0,2.2871929070033,2.28590512936857,2.28542595629518,2.28416812697754,0,2.28301012538352,2.28294024597698,2.28262079726139,2.28247105567596,0,2.28193198596839,2.28208172755383,2.28172234774879,2.28167243388698,0,2.28148276121209,2.28173233052115,2.2812431746754,2.2811633124965,0,2.28107346754524,2.2813230368543,2.2804245873417,2.28121322635831,0,2.28284041825336,2.28198189983021,2.28107346754524,2.28157260616335,0,2.28118327804123,2.2817722616106,2.28051443229296,2.28178224438296,0,2.28145281289501,2.28154265784627,2.28101357091107,2.28143284735028,0,2.28204179646438,2.2823013485458,2.28187208933422,2.28189205487895,0,2.28272062498501,2.28321976360312,2.28361907449761,2.28358912618053,0,2.28424798915644,2.28511649035195,2.28466726559565,2.28516640421376,0,2.28647414739322,2.2884607190933,2.2880913565159,2.28888997830488,0,2.28879015058126,2.29056708406174,2.29045727356575,2.33996184171012,0,2.34585167740385,2.34831742217732,2.35121242616237,2.34995459684473,0,2.35179142695938,2.35058351150355,2.34960519981205,2.34917594060047,0,2.34900623347032,2.34904616455976,2.34917594060047,2.34820761168134,0,2.34849711207984,2.34860692257583,2.35051363209701,2.34983480357638,0,2.3504637182352
2.23119953682347,2.23093998474205,0,2.2324074522793,2.23264703881599,2.23376510932057,2.23434411011757,0,2.23416442021505,2.23626080241113,2.23638059567947,2.23704944142774,0,2.23739883846042,2.23858678837153,2.23920572025799,2.23976475551027,0,2.24040365294146,2.24093273987666,2.24153170621839,2.24222051751139,0,2.24355820900793,2.24432688247982,2.24517541813061,2.24601397100904,0,2.24766112844881,2.24845975023779,2.24891895776645,2.25112515045851,0,2.25296198057316,2.25470896573655,2.25691515842861,2.25868210913673,0,2.30689889964637,2.3060703295403,2.30702867568708,2.30685896855692,0,2.3062300538981,2.30746791767102,2.30610027785739,2.3048025174503,0,2.30402386120604,2.30302558396982,2.30279598020549,2.30350475704321,0,2.30293573901856,2.30332506714069,2.30297567010801,2.30320527387234,0,2.30367446417336,2.30425346497037,2.30508203507644,2.3059904673614,0,2.3065994164755,2.30742798658157,2.30849614322433,2.30956429986709,0,2.31030302502189,2.31129131948576,2.31224966563253,2.31182040642095,0,2.31245930385214,2.31205999295765,2.31318804623458,2.31201007909584,0,2.31169063038025,2.31069235314402,2.27375609540372,2.27234852450064,0,2.27345661223285,2.27218880014284,2.27165971320765,2.27186935142725,0,2.27204904132977,2.27207898964686,2.27254817994789,2.27241840390718,0,2.27338673282631,2.2738659058997,2.27382597481025,2.27428518233892,0,2.27457468273742,2.27522356294097,2.27559292551837,2.27605213304703,0,2.2776992904868,2.27824834296673,2.27886727485319,2.28016503526028,0,2.2830400737006,2.32770299724929,2.3266148750618,2.32799249764779,0,2.32798251487543,2.3281222736885,2.32802244596488,2.3272238241759,0,2.32574637386629,2.3248179760366,2.32453845841045,2.32353019840187,0,2.32359009503604,2.32312090473502,2.32279147324706,2.32249199007619,0,2.32261178334454,2.32279147324706,2.32290128374305,2.32394947484108,0,2.32446857900392,2.32494775207731,2.3262455124844,2.32774292833873,0,2.32860144676189,2.32949989627449,2.32982932776244,2.33067786341323,0,2.32965962063229,2.32910058538,2.33011882816095,2.32932020637197,0,2.28668378561282,2.28528619748211,2.28490685213234,2.28405831648155,0,2.28337948796092,2.28243112458651,2.28233129686288,2.28212165864328,0,2.28182217547241,2.28225143468399,2.28164248556989,2.28187208933422,0,2.28187208933422,2.28150272675682,2.28096365704926,2.28187208933422,0,2.28091374318745,2.28067415665075,2.28121322635831,2.28035470793516,0,2.2816125372528,2.282141624188,2.28127312299249,2.28107346754524,0,2.28074403605729,2.28113336417942,2.28164248556989,2.28117329526886,0,2.28094369150453,2.28102355368343,2.28121322635831,2.28151270952918,0,2.28148276121209,2.2817722616106,2.28195195151312,2.28219153804981,0,2.28229136577344,2.28269067666793,2.28244110735887,2.28351924677399,0,2.28330960855438,2.28427793747352,2.28497673153888,2.28540599075046,0,2.28580530164495,2.28584523273439,2.28645418184849,2.28921940979283,0,2.28881011612598,2.29036742861449,2.29286312170505,2.33901347833571,0,2.3414492747921,2.34808781841299,2.35045373546284,2.35043376991812,0,2.35071328754426,2.35002447625126,2.34905614733213,2.35018420060906,0,2.34904616455976,2.34859693980346,2.34778833524212,2.34812774950244,0,2.34812774950244,2.34852706039693,2.34904616455976,2.35016423506434,0,2.34996457961709
2.23071038097772,2.23095995028677,0,2.23135926118126,2.23309626357229,2.23362535050749,2.23426424793868,0,2.2342043513045,2.23547216339451,2.23642052676892,2.23647044063073,0,2.23742878677751,2.23773825272074,2.23914582362381,2.23951518620122,0,2.24024392858366,2.2407630327465,2.24162155116965,2.24304908761745,0,2.2436181056421,2.24415717534966,2.2452053664477,2.24682257557038,0,2.24795062884731,2.24947799301874,2.24990725223031,2.25114511600323,0,2.25328142928875,2.25552755307026,2.2578435562583,2.25989002459256,0,2.30660939924786,2.30625001944282,2.30742798658157,2.30603039845085,0,2.3066792786544,2.30566103587345,2.30705862400416,2.304353292694,0,2.30388410239297,2.30302558396982,2.30273608357131,2.3027660318884,0,2.30273608357131,2.3026063075306,2.30273608357131,2.30290579070147,0,2.3030555322869,2.3040338439784,2.30499219012518,2.30634984716644,0,2.30636981271117,2.30700871014235,2.30843624659015,2.30898529907008,0,2.3104328010626,2.31116154344505,2.31241937276269,2.31082212918473,0,2.31073228423347,2.31181042364859,2.31242935553505,2.3116506992908,0,2.31052264601386,2.27644146116916,2.27418535461529,2.27362631936301,0,2.27193923083379,2.27528345957514,2.27197916192324,2.27173957538654,0,2.27194921360615,2.27228862786647,2.27250824885844,2.27435506174545,0,2.27342666391576,2.27344662946049,2.27437502729018,2.27536332175404,0,2.27471444155049,2.27525351125805,2.27610204690884,2.27685075483601,0,2.27856779168232,2.27848792950342,2.27979567268287,2.28209171032619,0,2.32369990553203,2.32603587426479,2.32731366912716,2.32870127448551,0,2.32852158458299,2.3285714984448,2.32803242873724,2.32689439268794,0,2.32574637386629,2.32568647723211,2.32407925088179,2.32335050849935,0,2.3233904395888,2.32244207621438,2.32214259304352,2.32179319601084,0,2.32197288591336,2.32231230017367,2.32301109423903,2.32379973325565,0,2.32426892355667,2.32464826890644,2.32606582258188,2.32702416872865,0,2.3276730489322,2.32892089547748,2.33055807014489,2.32930024082725,0,2.32963965508756,2.32905067151819,2.3296296723152,2.32924034419307,0,2.2864242335314,2.28546588738463,2.28430788579061,2.28350926400163,0,2.2826707111232,2.28227140022871,2.28250100399304,2.28144283012264,0,2.28196193428548,2.28154265784627,2.28164248556989,2.28146279566737,0,2.28106348477288,2.28133301962666,2.28050444952059,2.28078396714674,0,2.28109343308997,2.28043457011406,2.28033474239044,2.28078396714674,0,2.28067415665075,2.28165246834225,2.28313990142423,2.28106348477288,0,2.28077398437437,2.28069412219548,2.28052441506532,2.28139291626083,0,2.28057432892713,2.28082389823619,2.28147277843973,2.28118327804123,0,2.28164248556989,2.28210169309855,2.28166245111461,2.28207174478147,0,2.2823812107247,2.28287036657045,2.28312991865186,2.28331959132675,0,2.28382871271722,2.28444764460368,2.28476709331927,2.28549583570172,0,2.28571545669369,2.28611476758818,2.28671373392991,2.28747242462944,0,2.29076673950898,2.29017775593961,2.34107991221469,2.34052087696241,0,2.34080039458855,2.34125960211721,2.35011432120252,2.35028402833268,0,2.35019418338142,2.34938557882008,2.34856699148638,2.34841724990094,0,2.34897628515323,2.34779831801448,2.347978007917,2.34828747386023,0,2.34796802514464,2.34786819742102,2.34889642297433,2.34872671584417,0,2.35055356318646
0,0,0,0,0,0,0,0,0,0,0,0,0,0,0,0,0,0,0,0,0,0,0,0,0,0,0,0,0,0,0,0,0,0,0,0,0,0,0,0,0,0,0,0,0,0,0,0,0,0,0,0,0,0,0,0,0,0,0,0,0,0,0,0,0,0,0,0,0,0,0,0,0,0,0,0,0,0,0,0,0,0,0,0,0,0,0,0,0,0,0,0,0,0,0,0,0,0,0,0,0,0,0,0,0,0,0,0,0,0,0,0,0,0,0,0,0,0,0,0,0,0,0,0,0,0,0,0,0,0,0,0,0,0,0,0,0,0,0,0,0,0,0,0,0,0,0,0,0,0,0,0,0,0,0,0,0,0,0,0,0,0,0,0,0,0,0,0,0,0,0,0,0,0,0,0,0,0,0,0,0,0,0,0,0,0,0,0,0,0,0,0,0,0,0,0,0,0,0,0,0,0,0,0,0,0,0,0,0,0,0,0,0,0,0,0,0,0,0,0,0,0,0,0,0,0,0,0,0,0,0,0,0,0
2.23079024315662,2.2313492784089,0,2.23259712495418,2.23374514377584,2.23357543664568,2.23377509209293,0,2.23415443744269,2.23543223230506,2.23581157765482,2.23541226676033,0,2.23707938974483,2.23831725351775,2.23873652995696,2.23959504838012,0,2.24042361848618,2.24092275710429,2.24153170621839,2.24267972504005,0,2.24329865692651,2.24441672743108,2.24553479793565,2.24645321299298,0,2.24767111122117,2.24831000865236,2.25029658035244,2.25228315205253,0,2.25301189443497,2.25494855227325,2.25707488278641,2.26017952499106,0,2.30618014003629,2.30685896855692,2.30779734915897,2.30806688401275,0,2.30583074300361,2.30541146656439,2.30573091527999,2.3032951188236,0,2.30317532555525,2.30304554951454,2.30342489486431,2.30251646257934,0,2.3022369449532,2.30184761683107,2.30274606634367,2.30265622139241,0,2.30314537723816,2.30405380952313,2.30636981271117,2.30391405071006,0,2.30806688401275,2.30833641886653,2.3069687790529,2.30504210398699,0,2.30983383472087,2.31160078542899,2.31481523812963,2.31093193968071,0,2.30939459273693,2.31230956226671,2.3105126632415,2.31093193968071,0,2.31000354185103,2.27356642272883,2.27326693955797,2.27191926528906,0,2.27200911024032,2.27166969598001,2.27162976489056,2.27168966152473,0,2.2719092825167,2.27211892073631,2.27246831776899,2.27268793876096,0,2.27342666391576,2.27403561302986,2.27327692233033,2.27422528570474,0,2.27460463105451,2.27527347680278,2.27581254651034,2.27646142671388,0,2.27715023800688,2.27826830851145,2.28020496634973,2.28168241665934,0,2.32454844118282,2.32565652891503,2.32809232537141,2.32847167072118,0,2.32870127448551,2.32774292833873,2.32754327289149,2.32668475446834,0,2.32462830336171,2.32355016394659,2.32332056018226,2.32330059463754,0,2.3226217661169,2.32194293759627,2.32145378175052,2.3214338162058,0,2.32175326492139,2.32211264472643,2.32243209344202,2.32267167997871,0,2.32396944038581,2.32398940593053,2.32575635663865,2.32668475446834,0,2.32756323843621,2.32816220477795,2.32905067151819,2.32879111943677,0,2.32916048201417,2.32819215309504,2.32953982736394,2.28670375115755,0,2.28598499154747,2.28477707609163,2.28392854044084,2.28268069389556,0,2.28279050439155,2.28217157250509,2.28210169309855,2.28225143468399,0,2.28179222715532,2.28128310576485,2.28146279566737,2.28144283012264,0,2.28083388100855,2.2807140877402,2.28097363982162,2.28095367427689,0,2.28060427724422,2.28083388100855,2.28173233052115,2.28054438061004,0,2.28188207210658,2.28105350200052,2.28080393269146,2.27978568991051,0,2.28039463902461,2.28127312299249,2.28053439783768,2.28003525921957,0,2.28155264061863,2.28114334695178,2.28131305408194,2.28105350200052,0,2.28150272675682,2.28154265784627,2.28163250279753,2.28183215824477,0,2.28307002201769,2.28289033211517,2.28284041825336,2.28288034934281,0,2.28343938459509,2.28429790301825,2.28511649035195,2.28489686935998,0,2.28571545669369,2.28620461253944,2.28683352719826,2.28779187334503,0,2.28857052958929,2.29071682564717,2.3422678621258,2.34240762093887,0,2.34297663896352,2.34178868905241,2.34937559604772,2.34978488971457,0,2.35039383882867,2.34985476912111,2.34912602673866,2.34803790455118,0,2.34766854197377,2.34763859365669,2.34755873147779,2.3476086453396,0,2.34771845583559,2.3478482318763,2.34838730158386,2.34790812851047,0,2.34939556159244
2.2309799158315,2.2310597780104,0,2.23183843425465,2.23292655644214,2.23361536773513,2.23495305923167,0,2.23480331764624,2.23498300754876,2.23556200834577,2.23715925192373,0,2.23794789094035,2.23878644381877,2.23822740856649,2.23984461768917,0,2.24045356680327,2.24093273987666,2.24135201631587,2.2425599317717,0,2.24343841573958,2.24405734762604,2.24523531476478,2.24627352309046,0,2.24768109399353,2.24808040488802,2.24986732114087,2.25108521936906,0,2.25336129146765,2.25594682950947,2.25873202299854,2.26092823291823,0,2.30743796935393,2.30678908915038,2.30676912360566,2.30731817608558,0,2.30462282754778,2.30414365447439,2.30404382675077,2.30401387843368,0,2.30357463644974,2.302396669311,2.30233677267682,2.30236672099391,0,2.30202730673359,2.30216706554666,2.30216706554666,2.30256637644115,0,2.30286585961202,2.30351473981557,2.30404382675077,2.30547136319857,0,2.30551129428802,2.30601043290613,2.30433332714927,2.31001352462339,0,2.31054261155859,2.31019321452591,2.3130782357386,2.30725827945141,0,2.30558117369455,2.30658943370314,2.30767755589062,2.31355740881199,0,2.30964416204599,2.27526349403042,2.27310721520017,2.27163974766292,0,2.27152993716694,2.27184938588253,2.27154990271166,2.27157985102875,0,2.2719891446956,2.27268793876096,2.2725182316308,2.27281771480167,0,2.27290755975293,2.27355643995647,2.2734965433223,2.27495402808719,0,2.27490411422537,2.27523354571333,2.27562287383546,2.27661116829932,0,2.27802872197476,2.27839808455216,2.28085384655327,2.28220152082218,0,2.32522726970345,2.32637528852511,2.32717391031409,2.32738354853369,0,2.32772296279401,2.32707408259046,2.3260857881266,2.32711401367991,0,2.32429887187376,2.32396944038581,2.32306100810084,2.32250197284856,0,2.32153364392942,2.32151367838469,2.32093467758768,2.32076497045753,0,2.321274091848,2.32159354056359,2.32175326492139,2.32244207621438,0,2.32336049127171,2.32449852732101,2.32577632218337,2.32634534020802,0,2.32718389308645,2.32813225646086,2.32825204972921,2.32810230814378,0,2.32805239428196,2.32897080933929,2.32797253210307,2.28583524996203,0,2.28569549114896,2.28411821311573,2.2838087471725,2.28273060775737,0,2.28236124517997,2.28200186537493,2.28215160696036,2.28166245111461,0,2.28131305408194,2.28074403605729,2.28168241665934,2.28068413942311,0,2.28078396714674,2.28066417387839,2.2804245873417,2.28016503526028,0,2.28044455288642,2.28037467347988,2.28227140022871,2.2801051386261,0,2.28032475961807,2.28115332972414,2.28015505248792,2.28044455288642,0,2.27972579327634,2.28023491466681,2.280185000805,2.28120324358595,0,2.28129308853721,2.28094369150453,2.27991546595122,2.28133301962666,0,2.2813230368543,2.28072407051256,2.28196193428548,2.28178224438296,0,2.2851564214414,2.2822214863669,2.28280048716391,2.28345935013982,0,2.28292028043226,2.28480702440872,2.28458740341675,2.28527621470975,0,2.28665383729574,2.28681356165353,2.2876421317596,2.2889898060285,0,2.28936915137827,2.29223420704623,2.34405477837864,2.34347577758163,0,2.34834737049441,2.34864685366527,2.35011432120252,2.34944547545425,0,2.35007439011308,2.3496451309015,2.34884650911252,2.34811776673008,0,2.34893635406378,2.34899625069795,2.34769849029086,2.34758867979488,0,2.34771845583559,2.34832740494968,2.34783824910393,2.34861690534819,0,2.34984478634874
2.23107974355512,2.23163877880741,0,2.23351554001151,2.23220779683205,2.23378507486529,2.23365529882458,0,2.23448386893065,2.23475340378443,2.23614100914278,2.23700951033829,0,2.23747870063932,2.2384370467861,2.23893618540421,2.239784721055,0,2.24066320502288,2.24089280878721,2.24183118938926,2.24273962167422,0,2.24337851910541,2.24428695139037,2.24539503912258,2.24579435001707,0,2.24787076666842,2.24899881994535,2.25088556392181,2.25192377224749,0,2.25425974098025,2.25634614040396,2.258662143592,2.30047997701744,0,2.30697876182527,2.30639976102826,2.30635982993881,2.30582076023125,0,2.3065195542966,2.30544141488148,2.3041935683362,2.30319529109998,0,2.3027660318884,2.3023168071321,2.30183763405871,2.30200734118887,0,2.30201732396123,2.30293573901856,2.3026063075306,2.30259632475824,0,2.30295570456328,2.30381422298643,2.30467274140959,2.30567101864581,0,2.30668926142676,2.30748788321574,2.30949442046055,2.30940457550929,0,2.31018323175355,2.31140112998174,2.31252918325867,2.307577728167,0,2.30754777984991,2.30643969211771,2.30760767648409,2.30776740084188,0,2.31320801177931,2.27487416590829,2.27265799044387,2.27319706015143,0,2.27248828331371,2.27162976489056,2.27183940311017,2.27225867954938,0,2.27228862786647,2.27210893796395,2.27293750807001,2.27392580253387,0,2.27306728411072,2.27390583698915,2.27415540629821,2.27440497560726,0,2.2752135801686,2.27555299442892,2.27636159899026,2.27768930771444,0,2.27803870474712,2.27942631010547,2.28142286457792,2.32512744197983,0,2.32695428932212,2.327143961997,2.32695428932212,2.32758320398094,0,2.3273036863548,2.32748337625732,2.32753329011913,2.32454844118282,0,2.32356014671895,2.32336049127171,2.32250197284856,2.32193295482391,0,2.32117426412438,2.32079491877461,2.32058528055501,2.32113433303493,0,2.32122417798619,2.32112435026257,2.32124414353091,2.32214259304352,0,2.323230715231,2.32413914751596,2.32543690792306,2.32613570198841,0,2.32699422041157,2.32805239428196,2.32823208418449,2.3282021358674,0,2.32738354853369,2.3275931867533,2.32835187745283,2.28648413016558,0,2.28604488818164,2.2851564214414,2.28344936736746,2.28266072835084,0,2.28226141745635,2.28208172755383,2.28210169309855,2.28147277843973,0,2.28100358813871,2.28078396714674,2.28204179646438,2.28118327804123,0,2.28153267507391,2.28050444952059,2.28095367427689,2.28086382932563,0,2.28043457011406,2.28000531090248,2.28038465625225,2.28046451843114,0,2.28182217547241,2.2807140877402,2.28040462179697,2.27988551763413,0,2.28083388100855,2.28030479407335,2.2807140877402,2.28031477684571,0,2.28136296794375,2.28082389823619,2.28193198596839,2.28099360536634,0,2.28120324358595,2.28196193428548,2.28163250279753,2.28221150359454,0,2.2823013485458,2.28247105567596,2.28282045270863,2.28352922954635,0,2.28476709331927,2.28512647312431,2.28460736896148,2.28541597352282,0,2.28744247631235,2.2864242335314,2.28690340660479,2.28874023671945,0,2.28993816940292,2.29097637772859,2.34486338293998,2.34481346907817,0,2.34838730158386,2.34852706039693,2.34962516535678,2.34944547545425,0,2.35072327031662,2.3494854065437,2.34898626792559,2.34848712930748,0,2.34777835246976,2.34800795623409,2.34727921385165,2.34722929998984,0,2.34704961008732,2.34782826633157,2.34812774950244,2.34872671584417,0,2.35082309804024
2.23066046711591,2.23157888217323,0,2.23212793465316,2.23229764178331,2.23321605684064,2.23364531605222,0,2.23435409288994,2.23451381724773,2.23582156042719,2.23675994102924,0,2.23808764975342,2.23806768420869,2.23886630599767,2.23911587530673,0,2.24048351512036,2.24131208522642,2.24206079315359,2.24253996622698,0,2.24367800227627,2.24460640010596,2.24559469456982,2.24697231715581,0,2.24791069775787,2.24867937122976,2.25092549501126,2.25224322096308,0,2.25372067127269,2.25656576139593,2.25918124775484,2.30193746178233,0,2.30500217289754,2.30531163884077,2.30577084636943,2.30633986439408,0,2.30611026062975,2.30511198339353,2.30420355110856,2.3033749810025,0,2.30375432635226,2.3021570827743,2.30310544614872,2.30146827148131,0,2.30188754792052,2.30439322378344,2.30236672099391,2.30262627307533,0,2.30315536001053,2.30380424021407,2.30455294814124,2.30558117369455,0,2.30678908915038,2.30796705628913,2.30918495451732,2.30992367967213,0,2.31016326620882,2.3106723875993,2.31138116443702,2.31052264601386,0,2.3113312505752,2.31178047533151,2.31276876979537,2.30813676341929,0,2.27546314947766,2.27282769757403,2.27337675005395,2.2734965433223,0,2.27192924806143,2.27141014389859,2.27172959261418,2.27163974766292,0,2.27185936865489,2.27204904132977,2.27250824885844,2.27285764589111,0,2.27362631936301,2.27391581976151,2.27389585421679,2.27503389026608,0,2.27495402808719,2.27607209859176,2.27612201245357,2.27676090988475,0,2.27855780890996,2.28002527644721,2.28182217547241,2.32818217032267,0,2.32630540911857,2.32741349685078,2.32757322120858,2.32752330734677,0,2.32679456496432,2.32670472001306,2.32808234259905,2.32409921642652,0,2.32416909583305,2.32266169720635,2.32182314432792,2.32139388511635,0,2.32067512550627,2.32042555619721,2.32035567679067,2.32059526332737,0,2.32093467758768,2.3208248670917,2.32053536669319,2.32195292036863,0,2.323230715231,2.32393949206872,2.32537701128888,2.32621556416731,0,2.32696427209448,2.32750334180204,2.32792261824126,2.32791263546889,0,2.3272238241759,2.32697425486684,2.28821114978425,2.2859750087751,0,2.28520633530321,2.28431786856297,2.28284041825336,2.28270065944029,0,2.28229136577344,2.28223146913926,2.28178224438296,2.28156262339099,0,2.28199188260257,2.28149274398446,2.28172234774879,2.28076400160201,0,2.28128310576485,2.28107346754524,2.28029481130099,2.28067415665075,0,2.28081391546382,2.28032475961807,2.28016503526028,2.28100358813871,0,2.2816125372528,2.28048448397587,2.28119326081359,2.27976572436579,0,2.28031477684571,2.28033474239044,2.28054438061004,2.28094369150453,0,2.28074403605729,2.28137295071611,2.28100358813871,2.28094369150453,0,2.2807939499191,2.28167243388698,2.28134300239902,2.28192200319603,0,2.28233129686288,2.28266072835084,2.28264076280611,2.28324971192021,0,2.28378878162777,2.28451752401022,2.2841781097499,2.2847071966851,0,2.28595504323038,2.28726278640983,2.28794161493047,2.28927930642701,0,2.28982835890693,2.2953887631127,2.34757869702251,2.34794805959992,0,2.34630090216015,2.34716940335566,2.34900623347032,2.34935563050299,0,2.34866681921,2.35087301190206,2.34854702594165,2.34814771504716,0,2.34873669861654,2.34743893820944,2.34737904157527,2.3485070948522,0,2.3476885075185,2.34890640574669,2.34809780118535,2.34852706039693,0,2.35057352873119
2.2302911045385,2.23120951959583,0,2.23099988137622,2.23220779683205,2.23360538496277,2.23366528159694,0,2.23504290418293,2.2348931625975,2.23641054399656,2.2366900616227,0,2.23759849390767,2.23801777034688,2.23832723629011,2.23890623708712,0,2.24041363571382,2.24139194740532,2.24261982840588,2.24299917375564,0,2.24393755435769,2.24419710643911,2.24546491852912,2.24616371259447,0,2.24765114567645,2.24918849262023,2.25100535719016,2.25231310036962,0,2.25402015444356,2.25650586476176,2.25884183349452,2.30112885722099,0,2.30320527387234,2.30455294814124,2.3050920178488,2.3062300538981,0,2.30569098419054,2.3042734305151,2.30350475704321,2.30422351665329,0,2.30241663485572,2.30164796138383,2.30143832316422,2.30143832316422,0,2.301707858018,2.30189753069288,2.30227687604265,2.30244658317281,0,2.3026861697095,2.3032951188236,2.30380424021407,2.30556120814983,0,2.30637979548353,2.30766757311826,2.3086359020374,2.30967411036307,0,2.31007342125756,2.31091197413599,2.3105925254204,2.3110417501767,0,2.31134123334757,2.31085207750182,2.31241937276269,2.31284863197427,0,2.27292752529765,2.27417537184293,2.27232855895592,2.27204904132977,0,2.27178948924835,2.27178948924835,2.27216883459812,2.27179947202072,0,2.27189929974434,2.27213888628103,2.27215885182576,2.27316711183434,0,2.27268793876096,2.27391581976151,2.27376607817608,2.27577261542089,0,2.275003941949,2.27495402808719,2.27660118552696,2.2764314783968,0,2.2778590148446,2.27984558654469,2.28256090062722,2.32851160181063,0,2.32803242873724,2.32752330734677,2.3273036863548,2.32695428932212,0,2.32659490951708,2.3256365633703,2.32459835504463,2.32515739029691,0,2.32281143879179,2.32190300650682,2.32195292036863,2.32096462590477,0,2.32057529778264,2.32003622807508,2.3199264175791,2.32027581461178,0,2.32027581461178,2.32115429857965,2.32113433303493,2.32171333383194,0,2.32299112869431,2.32384964711746,2.3261656503055,2.32586616713463,0,2.32673466833015,2.32700420318393,2.32792261824126,2.3273036863548,0,2.32744344516787,2.32569646000447,2.32613570198841,2.28619462976707,0,2.28447759292077,2.28297019429407,2.28332957409911,2.28262079726139,0,2.28211167587092,2.28189205487895,2.28203181369202,2.2820617620091,0,2.28173233052115,2.28176227883824,2.2814028990332,2.28057432892713,0,2.28076400160201,2.28046451843114,2.28037467347988,2.28094369150453,0,2.28038465625225,2.280185000805,2.28074403605729,2.28080393269146,0,2.28127312299249,2.28040462179697,2.28046451843114,2.28001529367484,0,2.28008517308138,2.28076400160201,2.2807140877402,2.28039463902461,0,2.28021494912209,2.28032475961807,2.28036469070752,2.28187208933422,0,2.28045453565878,2.28117329526886,2.2816125372528,2.28184214101713,0,2.28279050439155,2.28331959132675,2.28250100399304,2.28305005647297,0,2.28363904004234,2.28410823034336,2.28403835093683,2.28547587015699,0,2.28622457808416,2.28647414739322,2.28684350997062,2.28928928919937,0,2.28927930642701,2.29132577476127,2.34198834449966,2.34499315898069,0,2.34668024750991,2.3476086453396,2.34880657802307,2.34866681921,0,2.34909607842158,2.34873669861654,2.34804788732354,2.34811776673008,0,2.34862688812055,2.3478482318763,2.34764857642905,2.34705959285968,0,2.34724926553456,2.34825752554315,2.34778833524212,2.34855700871401,0,2.34961518258441
2.23121950236819,2.23106976078276,0,2.2308201914737,2.2315888649456,2.23294652198686,2.23392483367836,0,2.23451381724773,2.23577164656538,2.23650038894782,2.23712930360664,0,2.23719918301318,2.237828097672,2.23890623708712,2.23990451432335,0,2.24073308442941,2.2412122575028,2.24243015573099,2.24267972504005,0,2.24468626228486,2.2445964173336,2.245654591204,2.24712205874125,0,2.2478208528066,2.25034649421425,2.25060604629567,2.25313168770332,0,2.25563736356624,2.25652583030648,2.25897160953523,2.3007295463265,0,2.30350475704321,2.30441318932817,2.30619012280865,2.30492231071864,0,2.30567101864581,2.30393401625478,2.30350475704321,2.3021570827743,0,2.30189753069288,2.30135846098532,2.30073952909886,2.30120871939989,0,2.30136844375768,2.30157808197729,2.30237670376627,2.30185759960343,0,2.30291577347383,2.30328513605124,2.30405380952313,2.30561112201164,0,2.30628995053227,2.30733814163031,2.30827652223236,2.30959424818417,0,2.31008340402992,2.31085207750182,2.31056257710331,2.31143107829883,0,2.31140112998174,2.31204002741292,2.31207995850237,2.31227961394962,0,2.27403561302986,2.273047318566,2.27181943756544,2.27244835222426,0,2.27184938588253,2.27115059181717,2.27098088468701,2.27147004053276,0,2.27164973043528,2.27215885182576,2.27211892073631,2.27245833499662,0,2.27270790430568,2.27323699124088,2.27350652609466,2.27401564748513,0,2.27460463105451,2.27555299442892,2.27567278769727,2.27684077206365,0,2.27868758495067,2.27923663743059,2.28509652480723,2.32915049924181,0,2.32776289388346,2.32807235982669,2.32704413427338,2.32697425486684,0,2.32607580535424,2.32570644277684,2.32400937147526,2.32377976771092,0,2.32245205898675,2.32227236908423,2.32060524609973,2.32081488431934,0,2.31980662431075,2.31959698609114,2.31938734787154,2.32020593520524,0,2.31989646926201,2.32080490154697,2.32163347165304,2.32261178334454,0,2.32169336828721,2.32372985384911,2.32470816554061,2.32522726970345,0,2.32675463387487,2.32695428932212,2.3275931867533,2.32715394476936,0,2.32739353130606,2.32589611545172,2.28697328601133,2.2853161457992,0,2.28533611134392,2.28406829925391,2.2830400737006,2.28231133131816,0,2.28217157250509,2.28186210656186,2.28155264061863,2.28191202042367,0,2.28107346754524,2.28023491466681,2.28081391546382,2.28059429447185,0,2.28020496634973,2.28082389823619,2.28041460456933,2.28059429447185,0,2.28014506971555,2.28028482852862,2.27980565545524,2.28077398437437,0,2.28009515585374,2.2798955004065,2.27993543149595,2.28028482852862,0,2.27955608614618,2.27943629287783,2.28000531090248,2.28043457011406,0,2.27998534535776,2.2802648629839,2.28109343308997,2.28125315744776,0,2.28083388100855,2.28145281289501,2.28175229606587,2.28237122795233,0,2.28255091785485,2.28218155527745,2.28273060775737,2.28553576679117,0,2.28362905726998,2.28379876440013,2.28482698995345,2.28484695549817,0,2.28535607688864,2.28596502600274,2.28852061572748,2.28894987493905,0,2.29027758366323,2.34026132488099,2.34820761168134,2.3467900580059,0,2.34518283165558,2.34766854197377,2.34742895543708,2.34838730158386,0,2.34808781841299,2.34762861088433,2.34742895543708,2.34766854197377,0,2.34770847306322,2.34764857642905,2.34718936890039,2.34742895543708,0,2.34725924830692,2.34774840415267,2.34822757722606,2.34860692257583,0,2.34958523426733
2.23072036375008,2.2308201914737,0,2.23182845148229,2.23249729723056,2.23286665980796,2.23342569506025,0,2.23467354160553,2.23574169824829,2.23642052676892,2.23690968261467,0,2.23716923469609,2.23771828717601,2.23890623708712,2.239784721055,0,2.24067318779524,2.24145184403949,2.24208075869831,2.24335855356068,0,2.24418712366675,2.24464633119541,2.2459440916025,2.24718195537542,0,2.24816026706692,2.24905871657952,2.25106525382433,2.25391034394757,0,2.25469898296419,2.25666558911955,2.30122868494461,2.3027660318884,0,2.30312541169344,2.30426344774274,2.30483246576738,2.30371439526281,0,2.30465277586486,2.30436327546636,2.30373436080754,2.30232678990446,0,2.30169787524564,2.30107894335918,2.30119873662753,2.3008892706843,0,2.30131852989587,2.30134847821296,2.30173780633509,2.30210716891249,0,2.30342489486431,2.30344486040903,2.30413367170203,2.30526172497896,0,2.30614020894684,2.30708857232125,2.30840629827307,2.3096142137289,0,2.31039286997315,2.31060250819276,2.31081214641237,2.3112014745345,0,2.31222970008781,2.31416635792608,2.31180044087623,2.31258907989285,0,2.27291754252529,2.27351650886702,2.27209895519158,2.27113062627245,0,2.27159981657347,2.27233854172828,2.27110067795536,2.27134026449205,0,2.2719891446956,2.27214886905339,2.27229861063883,2.27263802489915,0,2.27356642272883,2.27321702569616,2.27369619876954,2.27450480333088,0,2.27491409699774,2.27522356294097,2.27581254651034,2.27691065147019,0,2.27908689584516,2.28021494912209,2.28256090062722,2.32823208418449,0,2.32693432377739,2.32746341071259,2.32720385863117,2.32588613267936,0,2.3260059259477,2.32490782098786,2.32343037067825,2.3231508530521,0,2.32246204175911,2.32117426412438,2.3198465554002,2.32011609025398,0,2.31912779579012,2.3191577441072,2.31949715836752,2.31978665876603,0,2.31977667599366,2.31940731341626,2.32044552174193,2.32138390234399,0,2.32272159384053,2.32361006058077,2.32455842395518,2.32565652891503,0,2.3263253746633,2.32689439268794,2.32716392754172,2.32731366912716,0,2.32623552971204,2.32753329011913,2.32617563307786,2.28590512936857,0,2.28403835093683,2.28328964300966,2.2836490228147,2.28278052161919,0,2.28186210656186,2.28216158973273,2.28173233052115,2.28203181369202,0,2.28153267507391,2.28138293348847,2.28111339863469,2.28110341586233,0,2.28039463902461,2.2801051386261,2.28044455288642,2.28006520753665,0,2.28014506971555,2.28008517308138,2.27983560377232,2.28032475961807,0,2.28044455288642,2.28009515585374,2.27970582773161,2.28001529367484,0,2.28032475961807,2.27996537981303,2.28000531090248,2.27998534535776,0,2.28094369150453,2.28114334695178,2.28058431169949,2.28074403605729,0,2.28155264061863,2.28129308853721,2.28129308853721,2.28286038379808,0,2.28309997033478,2.28296021152171,2.28349928122927,2.28325969469257,0,2.28431786856297,2.2845474723273,2.28483697272581,2.28500667985597,0,2.28530616302683,2.28551580124644,2.28530616302683,2.29095641218386,0,2.28872027117472,2.34443412372841,2.34469367580983,2.34564203918424,0,2.34588162572093,2.34761862811196,2.34755873147779,2.34837731881149,0,2.34848712930748,2.34826750831551,2.34770847306322,2.3477683696974,0,2.34730916216873,2.34779831801448,2.34674014414409,2.34661036810338,0,2.34690985127424,2.34775838692504,2.34867680198236,2.3487466813889,0,2.35007439011308
2.23095995028677,2.23103981246567,0,2.23202810692953,2.23235753841749,2.23340572951552,2.23476338655679,0,2.23456373110954,2.23525254240254,2.23626080241113,2.23750864895641,0,2.23731897628152,2.23832723629011,2.23913584085145,2.23988454877862,0,2.24082292938067,2.24162155116965,2.24269969058477,2.2435382434632,0,2.24393755435769,2.24522533199242,2.24554478070801,2.2470022654729,0,2.24821018092873,2.24966766569362,2.25112515045851,2.2537705851345,0,2.25451929306167,2.25765388358342,2.26074854301571,2.30126861603406,0,2.30316534278289,2.30363453308391,2.30549132874329,2.30445312041762,0,2.30458289645833,2.30457291368597,2.30298565288037,2.30165794415619,0,2.30137842653005,2.3008892706843,2.30094916731847,2.30060975305815,0,2.30087928791193,2.30116878831044,2.30153815088784,2.30157808197729,0,2.30199735841651,2.3029257562462,2.30327515327887,2.30488237962919,0,2.30621008835337,2.30679907192275,2.30795707351677,2.30940457550929,0,2.31055259433095,2.31100181908725,2.31131128503048,2.31134123334757,0,2.3133677361371,2.31341764999891,2.31604311913018,2.27414542352584,0,2.27307726688308,2.27287761143584,2.27185936865489,2.27117055736189,0,2.27149000607749,2.27139017835386,2.2714600577604,2.27095093636993,0,2.27169964429709,2.27171960984182,2.27274783539513,2.27246831776899,0,2.27284766311875,2.27506383858317,2.27310721520017,2.27442494115199,0,2.27543320116057,2.27609206413648,2.27546314947766,2.27729997959231,0,2.27929653406476,2.28086382932563,2.28322974637549,2.32442864791447,0,2.32663484060653,2.32683449605377,2.32693432377739,2.32664482337889,0,2.32522726970345,2.32493776930494,2.3269842376392,2.3223322657184,0,2.32121419521383,2.32064517718918,2.32062521164445,2.31899801974941,0,2.319317468465,2.31900800252177,2.31912779579012,2.31898803697705,0,2.31909784747303,2.31948717559516,2.32014603857107,2.3209845914495,0,2.32190300650682,2.32311092196265,2.32406926810943,2.32498768316676,0,2.32558664950849,2.32732365189952,2.32736358298897,2.32695428932212,0,2.32694430654976,2.32675463387487,2.28616468144999,2.28517638698612,0,2.28427793747352,2.28389859212376,2.28442767905896,2.2831997980584,0,2.28189205487895,2.28190203765131,2.28190203765131,2.28159257170808,0,2.28145281289501,2.28171236497643,2.28120324358595,2.28242114181414,0,2.28099360536634,2.28073405328493,2.28066417387839,2.27954610337382,0,2.28007519030902,2.28037467347988,2.280185000805,2.28067415665075,0,2.27995539704067,2.27967587941453,2.28038465625225,2.27995539704067,0,2.27995539704067,2.27985556931705,2.27983560377232,2.28057432892713,0,2.28058431169949,2.28002527644721,2.28084386378091,2.28039463902461,0,2.28109343308997,2.2807140877402,2.28144283012264,2.28249102122068,0,2.28290031488753,2.28292028043226,2.28284041825336,2.28431786856297,0,2.28331959132675,2.28430788579061,2.28524626639266,2.28519635253085,0,2.28687345828771,2.28634437135251,2.28620461253944,2.28802147710936,0,2.28969858286622,2.34284686292281,2.34283688015045,2.34421450273644,0,2.34542241819227,2.3468699201848,2.34818764613661,2.34774840415267,0,2.347978007917,2.34822757722606,2.34774840415267,2.34775838692504,0,2.34685993741243,2.3466303336481,2.34740898989236,2.3467900580059,0,2.34734909325818,2.34745890375417,2.34764857642905,2.34952533763315,0,2.35121242616237
2.23063051879882,2.23211795188079,0,2.23342569506025,2.2330164013934,2.23479333487388,2.2342043513045,0,2.23499299032112,2.23515271467892,2.23623085409404,2.23716923469609,0,2.23762844222475,2.23862671946098,2.2395451345183,2.23997439372988,0,2.2406033083887,2.24170141334855,2.24198093097469,2.24355820900793,0,2.24391758881297,2.24508557317935,2.24614374704975,2.24673273061912,0,2.24792068053023,2.24925837202677,2.25146456471882,2.25376060236214,0,2.25552755307026,2.25782359071357,2.26083838796697,2.30167790970091,0,2.30263625584769,2.3040338439784,2.30424348219801,2.30442317210053,0,2.30449305150707,2.30350475704321,2.30169787524564,2.302396669311,0,2.3012586332617,2.30066964969233,2.30062971860288,2.30061973583052,0,2.30073952909886,2.30100906395264,2.30115880553808,2.30188754792052,0,2.30376430912462,2.30331508436832,2.30394399902714,2.30495225903573,0,2.30593057072723,2.30676912360566,2.30852609154141,2.30959424818417,0,2.31062247373749,2.31100181908725,2.31227961394962,2.31266894207175,0,2.31338770168183,2.31367720208033,2.31515465238994,2.27462459659923,0,2.27338673282631,2.27303733579363,2.27192924806143,2.27075128092268,0,2.27083114310158,2.27149000607749,2.27143010944331,2.27170962706946,0,2.27171960984182,2.27272786985041,2.27219878291521,2.27301737024891,0,2.27315712906198,2.27337675005395,2.27459464828214,2.2752934423475,0,2.27595230532341,2.27633165067318,2.27676090988475,2.27791891147877,0,2.27922665465823,2.28096365704926,2.32491780376022,2.32445859623156,0,2.32527718356526,2.32619559862259,2.32655497842763,2.32592606376881,0,2.32605583980952,2.32494775207731,2.32447856177628,2.32267167997871,0,2.32106445362839,2.32038562510776,2.32056531501028,2.31862865717201,0,2.3197666932213,2.31858872608256,2.3187883815298,2.31847891558657,0,2.31883829539161,2.32027581461178,2.32022590074997,2.32069509105099,0,2.32189302373446,2.32289130097068,2.32422899246723,2.3251074764351,0,2.32623552971204,2.32694430654976,2.32723380694826,2.32782279051763,0,2.32356014671895,2.32140386788871,2.2864242335314,2.28575538778313,0,2.28436778242478,2.2835691606358,2.28279050439155,2.28244110735887,0,2.28216158973273,2.28203181369202,2.28125315744776,2.28118327804123,0,2.28131305408194,2.28163250279753,2.28130307130957,2.28058431169949,0,2.28035470793516,2.27962596555272,2.28035470793516,2.27986555208941,0,2.27998534535776,2.28035470793516,2.28024489743918,2.27992544872358,0,2.27980565545524,2.28006520753665,2.28004524199193,2.28013508694319,0,2.28000531090248,2.27967587941453,2.28009515585374,2.27988551763413,0,2.28023491466681,2.28097363982162,2.28050444952059,2.28135298517138,0,2.28164248556989,2.28119326081359,2.28181219270005,2.28181219270005,0,2.28221150359454,2.28237122795233,2.28310995310714,2.28334953964383,0,2.28391855766848,2.28387862657903,2.28494678322179,2.28516640421376,0,2.28541597352282,2.28483697272581,2.28953885850843,2.29005796267126,0,2.29182491337938,2.34066063577548,2.34054084250713,2.34387508847612,0,2.34718936890039,2.34777835246976,2.35019418338142,2.34998454516182,0,2.34876664693362,2.34799797346173,2.34766854197377,2.34683997186771,0,2.34672017859936,2.3472392827622,2.34621105720889,2.34629091938779,0,2.34712947226621,2.34775838692504,2.34840726712858,2.34975494139748,0,2.35104271903221
0,0,0,0,0,0,0,0,0,0,0,0,0,0,0,0,0,0,0,0,0,0,0,0,0,0,0,0,0,0,0,0,0,0,0,0,0,0,0,0,0,0,0,0,0,0,0,0,0,0,0,0,0,0,0,0,0,0,0,0,0,0,0,0,0,0,0,0,0,0,0,0,0,0,0,0,0,0,0,0,0,0,0,0,0,0,0,0,0,0,0,0,0,0,0,0,0,0,0,0,0,0,0,0,0,0,0,0,0,0,0,0,0,0,0,0,0,0,0,0,0,0,0,0,0,0,0,0,0,0,0,0,0,0,0,0,0,0,0,0,0,0,0,0,0,0,0,0,0,0,0,0,0,0,0,0,0,0,0,0,0,0,0,0,0,0,0,0,0,0,0,0,0,0,0,0,0,0,0,0,0,0,0,0,0,0,0,0,0,0,0,0,0,0,0,0,0,0,0,0,0,0,0,0,0,0,0,0,0,0,0,0,0,0,0,0,0,0,0,0,0,0,0,0,0,0,0,0,0,0,0,0,0,0
2.23060057048173,2.23185839979938,0,2.23446390338592,2.23296648753159,2.23400469585726,2.23478335210151,0,2.23517268022364,2.23604118141916,2.23664014776089,2.23681983766341,0,2.23706940697247,2.23818747747704,2.2394153584776,2.24099263651083,0,2.24079298106358,2.24117232641335,2.2423502935521,2.24326870860942,0,2.24400743376423,2.24495579713864,2.24601397100904,2.24771104231062,0,2.24890897499409,2.25094546055599,2.25158435798717,2.25378056790686,0,2.25579708792404,2.26272513194344,2.29957154473248,2.30085932236721,0,2.30295570456328,2.30460286200305,2.30446310318998,2.30418358556384,0,2.30392403348242,2.30363453308391,2.30175777187981,2.30153815088784,0,2.30059977028579,2.30039013206618,2.30019047661894,2.30024039048075,0,2.30106896058682,2.30067963246469,2.30123866771698,2.30208720336777,0,2.30279598020549,2.30362455031155,2.30373436080754,2.30497222458045,0,2.30596051904432,2.30721834836196,2.30872574698866,2.30919493728968,0,2.31033297333898,2.31122144007922,2.31139114720938,2.31179045810387,0,2.31094192245308,2.31201007909584,2.31237944167324,2.27400566471277,0,2.27408552689167,2.27263802489915,2.27234852450064,2.27171960984182,0,2.27077124646741,2.27144009221568,2.27142012667095,2.27149000607749,0,2.27176952370363,2.27194921360615,2.27193923083379,2.2725182316308,0,2.27290755975293,2.27336676728159,2.27453475164797,2.27418535461529,0,2.27535333898168,2.27605213304703,2.27655127166515,2.27799877365767,0,2.27964593109744,2.28192200319603,2.32104448808367,2.32400937147526,0,2.32471814831298,2.32552675287432,2.32612571921605,2.32567649445975,0,2.32495773484967,2.32476806217479,2.32263174888927,2.32182314432792,0,2.32081488431934,2.32012607302634,2.31888820925342,2.3184988811313,0,2.31895808865996,2.31823932904988,2.31843898449712,2.31850886390366,0,2.3197666932213,2.31988648648965,2.31999629698563,2.32109440194548,0,2.32197288591336,2.32304104255612,2.32406926810943,2.32466823445116,0,2.32543690792306,2.32646513347637,2.32702416872865,2.32720385863117,0,2.32505756257329,2.32281143879179,2.28633438858014,2.28461735173384,0,2.28393852321321,2.2835691606358,2.28330960855438,2.28236124517997,0,2.28210169309855,2.28235126240761,2.28138293348847,2.28134300239902,0,2.28279050439155,2.28133301962666,2.28090376041508,2.28107346754524,0,2.2820617620091,2.28046451843114,2.28008517308138,2.2803447251628,0,2.28015505248792,2.27960600000799,2.27998534535776,2.27966589664217,0,2.28013508694319,2.28008517308138,2.27964593109744,2.27976572436579,0,2.27971581050398,2.27945625842256,2.27940634456075,2.27985556931705,0,2.2798955004065,2.28012510417083,2.2803447251628,2.28051443229296,0,2.28160255448044,2.28065419110603,2.28142286457792,2.28247105567596,0,2.28193198596839,2.28262079726139,2.28236124517997,2.28265074557848,0,2.28358912618053,2.28411821311573,2.28429790301825,2.28588516382384,0,2.28702319987314,2.28728275195456,2.28183215824477,2.29107620545221,0,2.29403110607144,2.3394127892302,2.33969230685634,2.34884650911252,0,2.34855700871401,2.34812774950244,2.34811776673008,2.34831742217732,0,2.34774840415267,2.34718936890039,2.3470795584044,2.34808781841299,0,2.34653050592448,2.34604135007873,2.34585167740385,2.34630090216015,0,2.34637078156668,2.34758867979488,2.34875666416126,2.35052361486938,0,2.34999452793418
2.23112965741693,2.23225771069387,0,2.23387491981655,2.23283671149088,2.23336579842608,2.23450383447537,0,2.23527250794726,2.23557199111813,2.23659023389908,2.23744875232223,0,2.23751863172877,2.23858678837153,2.24051346343744,2.24144186126713,0,2.24057336007162,2.24175132721036,2.24225046582847,2.24274960444659,0,2.24440674465872,2.24582429833416,2.2466329028955,2.24734167973322,0,2.24877919895338,2.25049623579969,2.25263254908521,2.25364080909379,0,2.25671550298136,2.25863219527492,2.30126861603406,2.30241663485572,0,2.30452299982415,2.30434330992163,2.30587067409306,2.30494227626337,0,2.30391405071006,2.30288582515675,2.30256637644115,2.30204727227832,0,2.30127859880642,2.3007295463265,2.3008892706843,2.30089925345666,0,2.30105897781446,2.3013384954406,2.30202730673359,2.30254641089643,0,2.3033749810025,2.30372437803517,2.30470268972667,2.30556120814983,0,2.30622007112574,2.30789717688259,2.30907514402134,2.31015328343646,0,2.31115156067268,2.31227961394962,2.31284863197427,2.31170061315261,0,2.31184037196568,2.31492504862561,2.31290852860844,2.27411547520876,0,2.2734965433223,2.27248828331371,2.2718294203378,2.27277778371222,0,2.27212890350867,2.27201909301269,2.2718294203378,2.27223871400466,0,2.27284766311875,2.27293750807001,2.27307726688308,2.27318707737907,0,2.2741054924364,2.27440497560726,2.27489413145301,2.27532339066459,0,2.2757426671038,2.27726004850286,2.2783082396009,2.27970582773161,0,2.28069412219548,2.28258086617194,2.32305102532848,2.32471814831298,0,2.32491780376022,2.32588613267936,2.32626547802912,2.32623552971204,0,2.32599594317534,2.32569646000447,2.32463828613408,2.32296118037722,0,2.32092469481532,2.32149371283997,2.32272159384053,2.31969681381477,0,2.31959698609114,2.31940731341626,2.31909784747303,2.3192376062861,0,2.31996634866855,2.32016600411579,2.32064517718918,2.32199285145808,0,2.32309095641793,2.32349026731242,2.32492778653258,2.32598596040298,0,2.32647511624873,2.32695428932212,2.32729370358243,2.32784275606236,0,2.33063793232379,2.32369990553203,2.2862145953118,2.28591511214093,0,2.28540599075046,2.28512647312431,2.28394850598557,2.28286038379808,0,2.28295022874934,2.28263078003375,2.28224145191162,2.28249102122068,0,2.28215160696036,2.28205177923674,2.28191202042367,2.28216158973273,0,2.28055436338241,2.28191202042367,2.28134300239902,2.28149274398446,0,2.28094369150453,2.28078396714674,2.28046451843114,2.28057432892713,0,2.28049446674823,2.2806342255613,2.28052441506532,2.28102355368343,0,2.28072407051256,2.28076400160201,2.28135298517138,2.28120324358595,0,2.2811633124965,2.28171236497643,2.28073405328493,2.28123319190304,0,2.28186210656186,2.28188207210658,2.28286038379808,2.28199188260257,0,2.28331959132675,2.2825109867654,2.28277053884682,2.28387862657903,0,2.28443766183132,2.28439773074187,2.28501666262833,2.28625452640125,0,2.28669376838518,2.28589514659621,2.28802147710936,2.28869032285763,0,2.29316260487592,2.33916321992114,2.33856425357941,2.33913327160406,0,2.34935563050299,2.34867680198236,2.34818764613661,2.34730916216873,0,2.34839728435622,2.34732912771346,2.34759866256724,2.34624100552597,0,2.34646062651794,2.34691983404661,2.34552224591589,2.34563205641188,0,2.34688988572952,2.34770847306322,2.34798799068937,2.34985476912111,0,2.35010433843016
2.22995169027819,2.23084015701843,0,2.23255719386473,2.23290659089741,2.23319609129592,2.23495305923167,0,2.23450383447537,2.23502293863821,2.23560193943522,2.23664014776089,0,2.23734892459861,2.23813756361523,2.23894616817657,2.23982465214445,0,2.24066320502288,2.24151174067367,2.24191105156816,2.24295924266619,0,2.24370795059336,2.24468626228486,2.2455747290251,2.24690243774928,0,2.24784081835133,2.25069589124693,2.25202359997111,2.2539303094923,0,2.25615646772908,2.25887178181161,2.30225691049792,2.30140837484713,0,2.30192747900997,2.30378427466935,2.30425346497037,2.30530165606841,0,2.30365449862864,2.30135846098532,2.30226689327029,2.30067963246469,0,2.30042008038327,2.29947171700886,2.29966138968374,2.29949168255358,0,2.29966138968374,2.29960149304957,2.30057980474107,2.3013384954406,0,2.3018675823758,2.30240665208336,2.3032152566447,2.30357463644974,0,2.30581077745888,2.30716843450015,2.30747790044338,2.30884554025701,0,2.30956429986709,2.30981386917614,2.31190026859985,2.30874571253338,0,2.31091197413599,2.3104328010626,2.31318804623458,2.27200911024032,0,2.27172959261418,2.2706414704267,2.27103079854882,2.27070136706087,0,2.27078122923977,2.27166969598001,2.27086109141867,2.27123045399607,0,2.27157985102875,2.27155988548402,2.27226866232174,2.2718294203378,0,2.27201909301269,2.27220876568757,2.27342666391576,2.27391581976151,0,2.2744748550138,2.27516366630679,2.27653130612042,2.27768930771444,0,2.27844799841397,2.31977667599366,2.31981660708311,2.32229233462895,0,2.32310093919029,2.32330059463754,2.32532709742707,2.32343037067825,0,2.32347030176769,2.32313088750738,2.32232228294604,2.3240493025647,0,2.32416909583305,2.31880834707453,2.31853881222075,2.31731093122019,0,2.31725103458602,2.31733089676491,2.31697151695987,2.31704139636641,0,2.31809957023681,2.31845895004185,2.31907788192831,2.320006279758,0,2.32078493600225,2.32250197284856,2.32333054295462,2.32382968157274,0,2.32466823445116,2.32718389308645,2.32588613267936,2.32541694237833,0,2.32283140433651,2.32471814831298,2.28566554283187,2.28494678322179,0,2.28440771351423,2.28312991865186,2.28270065944029,2.28147277843973,0,2.28167243388698,2.28133301962666,2.28068413942311,2.2816125372528,0,2.28195195151312,2.28043457011406,2.28039463902461,2.28007519030902,0,2.28020496634973,2.27968586218689,2.27994541426831,2.28016503526028,0,2.27951615505673,2.27968586218689,2.27972579327634,2.27922665465823,0,2.27885729208082,2.27943629287783,2.27927656852004,2.27934644792657,0,2.28013508694319,2.27943629287783,2.28019498357736,2.27959601723563,0,2.28015505248792,2.27996537981303,2.28054438061004,2.28103353645579,0,2.28118327804123,2.28174231329351,2.28179222715532,2.28179222715532,0,2.28200186537493,2.28342940182273,2.28253095231013,2.28343938459509,0,2.28369893667651,2.28358912618053,2.28639428521432,2.28622457808416,0,2.28538602520573,2.28646416462085,2.28797156324755,2.28918946147575,0,2.34167887855643,2.34587164294857,2.34008163497847,2.34445408927313,0,2.35066337368245,2.3488265435678,2.34827749108787,2.34810778395771,0,2.34809780118535,2.34788816296574,2.3475287831607,2.34631088493251,0,2.34651054037976,2.34710950672149,2.34678007523354,2.34917594060047,0,2.34741897266472,2.34826750831551,2.34871673307181,2.34984478634874,0,2.35446680995246
2.23233757287276,2.23208800356371,0,2.23332586733663,2.23487319705277,2.23451381724773,2.23525254240254,0,2.23715925192373,2.23627078518349,2.23755856281822,2.23787801153381,0,2.23857680559917,2.2391757719409,2.23992447986807,2.24073308442941,0,2.24159160285256,2.24291931157674,2.24335855356068,2.24419710643911,0,2.24436681356927,2.24555476348038,2.24725183478196,2.24786078389605,0,2.24930828588858,2.25084563283237,2.25178401343442,2.25502841445215,0,2.25679536516026,2.2613874404469,2.3027660318884,2.30225691049792,0,2.30271611802659,2.30386413684825,2.30439322378344,2.30553125983274,0,2.30279598020549,2.30176775465217,2.30082937405012,2.3018675823758,0,2.29953161364303,2.30055983919634,2.29972128631791,2.29924211324453,0,2.29940183760232,2.29948169978122,2.30049994256217,2.30037016652146,0,2.30115880553808,2.30175777187981,2.30281594575021,2.30384417130352,0,2.3050121556699,2.30664933033731,2.30738805549212,2.30834640163889,0,2.30917497174496,2.3099037141274,2.30843624659015,2.30791714242732,0,2.30912505788315,2.31000354185103,2.27241840390718,2.2719092825167,0,2.27083114310158,2.26997262467843,2.26955334823921,2.26918398566181,0,2.26915403734472,2.26922391675126,2.26973303814173,2.27042184943473,0,2.27033200448347,2.27055162547544,2.27078122923977,2.27086109141867,0,2.27148002330512,2.27196917915087,2.27186935142725,2.27289757698056,0,2.27441495837962,2.27449482055852,2.27578259819325,2.27652132334806,0,2.27850789504814,2.31757048330161,2.31777013874885,2.32102452253894,0,2.32075498768516,2.32379973325565,2.32202279977517,2.32144379897816,0,2.32140386788871,2.32186307541737,2.31929750292028,2.3202159179776,0,2.31794982865137,2.31721110349657,2.31640249893522,2.31621282626034,0,2.3155639460568,2.31517461793467,2.31536429060955,2.31633261952869,0,2.3162228090327,2.31656222329302,2.3178100698383,2.31835912231823,0,2.31929750292028,2.32022590074997,2.32105447085603,2.32206273086462,0,2.3230709908732,2.32309095641793,2.32358011226368,2.32310093919029,0,2.32385962988982,2.28570547392132,2.28321976360312,2.28260083171667,0,2.28233129686288,2.28157260616335,2.28049446674823,2.2798955004065,0,2.2797357760487,2.27937639624366,2.27881736099137,2.27869756772303,0,2.27961598278035,2.278917188715,2.27849791227578,2.27860772277177,0,2.2788373265361,2.2783082396009,2.27805867029184,2.27811856692602,0,2.27829825682854,2.27853784336523,2.27750961781192,2.2779388770235,0,2.27775918712098,2.2787574643572,2.27782906652751,2.27812854969838,0,2.27854782613759,2.27899705089389,2.27766934216972,2.27825832573909,0,2.27935643069894,2.27825832573909,2.27868758495067,2.27916675802405,0,2.27959601723563,2.2792066891135,2.27954610337382,2.28066417387839,0,2.28045453565878,2.28173233052115,2.28119326081359,2.28200186537493,0,2.28228138300107,2.28240117626942,2.28240117626942,2.28288034934281,0,2.28442767905896,2.28456743787203,2.28808137374354,2.28996811772,0,2.33919316823823,2.34192844786548,2.34485340016762,2.34370538134596,0,2.34852706039693,2.34801793900645,2.34718936890039,2.34722929998984,0,2.34691983404661,2.34592155681038,2.34562207363952,2.34499315898069,0,2.34444410650077,2.34487336571235,2.34619109166416,2.34748885207125,0,2.34653050592448,2.3472392827622,2.34795804237228,2.3510726673493,0,2.35065339091009
2.23262707327127,2.23319609129592,0,2.23345564337734,2.23416442021505,2.23519264576837,2.235871474289,0,2.23686975152522,2.23810761529814,2.23838713292428,2.23853687450972,0,2.23931553075397,2.24042361848618,2.24138196463296,2.24151174067367,0,2.24167146503146,2.24261982840588,2.24365803673155,2.24448660683762,0,2.24558471179746,2.2467127650744,2.24795062884731,2.24867937122976,0,2.25071585679166,2.25195372056457,2.25342118810182,2.2556473463386,0,2.25904148894177,2.30308548060399,2.30338496377486,2.30377429189699,0,2.30397394734423,2.30489236240156,2.30572093250762,2.30473263804376,0,2.30459287923069,2.30283591129494,2.30228685881501,2.30187756514816,0,2.30099908118028,2.30065966691997,2.3007295463265,2.30073952909886,0,2.30094916731847,2.30179770296926,2.30213711722958,2.30245656594517,0,2.30280596297785,2.30347480872612,2.3045629309136,2.30598048458904,0,2.30682902023983,2.30791714242732,2.3096142137289,2.31058254264804,0,2.31073228423347,2.31215982068127,2.31189028582749,2.31234949335615,0,2.3133677361371,2.31354742603962,2.31379699534868,2.27504387303845,0,2.27298742193182,2.27181943756544,2.27165971320765,2.27184938588253,0,2.27300738747655,2.27209895519158,2.27202907578505,2.27270790430568,0,2.2728077320293,2.27276780093985,2.27361633659065,2.27329688787505,0,2.27390583698915,2.27446487224144,2.27481426927411,2.27547313225002,0,2.27666108216113,2.27745970395011,2.27783904929987,2.2794462756502,0,2.28159257170808,2.31892814034287,2.32137391957162,2.32131402293745,0,2.32329061186517,2.3238396643451,2.32430885464612,2.32446857900392,0,2.32417907860541,2.32358011226368,2.3233904395888,2.3213539540269,0,2.32028579738414,2.31922762351374,2.31891815757051,2.31881832984689,0,2.31828924291169,2.31848889835893,2.3181794324157,2.31790989756192,0,2.31868855380618,2.31941729618862,2.31990645203437,2.32099457422186,0,2.32192297205155,2.323230715231,2.32372985384911,2.32485790712605,0,2.3257962877281,2.32656496119999,2.32615566753314,2.32621556416731,0,2.32704413427338,2.28736261413346,2.28611476758818,2.28463731727856,0,2.28486692104289,2.28370891944887,2.2836490228147,2.28235126240761,0,2.28271064221265,2.28208172755383,2.28229136577344,2.28192200319603,0,2.28180220992769,2.28184214101713,2.28137295071611,2.28167243388698,0,2.28133301962666,2.28067415665075,2.28080393269146,2.28092372595981,0,2.28061426001658,2.28045453565878,2.27995539704067,2.28017501803264,0,2.28030479407335,2.28146279566737,2.28072407051256,2.2798156382276,0,2.28019498357736,2.28126314022012,2.28013508694319,2.28060427724422,0,2.28053439783768,2.28094369150453,2.28123319190304,2.28171236497643,0,2.28086382932563,2.28184214101713,2.28155264061863,2.28196193428548,0,2.282141624188,2.28324971192021,2.28421804083935,2.28340943627801,0,2.28377879885541,2.28528619748211,2.28500667985597,2.28570547392132,0,2.2859750087751,2.28667380284046,2.28968860009386,2.29238394863166,0,2.34217801717454,2.34363550193943,2.34540245264755,2.34535253878573,0,2.34572190136314,2.3478482318763,2.34820761168134,2.34826750831551,0,2.34736905880291,2.34693979959133,2.34725924830692,2.34604135007873,0,2.34613119502999,2.34757869702251,2.34735907603055,2.34572190136314,0,2.34680004077826,2.34727921385165,2.34864685366527,2.34953532040551,0,2.35429710282231
2.23039093226213,2.23073034652244,0,2.23124945068528,2.23258714218182,2.23310624634466,2.23407457526379,0,2.23472345546734,2.23606114696388,2.23716923469609,2.23725907964735,0,2.23741880400515,2.23806768420869,2.2388862715424,2.23985460046153,0,2.24046354957563,2.24093273987666,2.24180124107217,2.24295924266619,0,2.24424702030092,2.24518540090297,2.24575441892762,2.24680261002566,0,2.24897885440063,2.25102532273489,2.25284218730481,2.25516817326522,0,2.25695508951806,2.29379151953474,2.29674642015397,2.30431336160455,0,2.30314537723816,2.30378427466935,2.30362455031155,2.30362455031155,0,2.30270613525423,2.30143832316422,2.30113883999335,2.29982111404154,0,2.30131852989587,2.29972128631791,2.30021044216366,2.29968135522847,0,2.30015054552949,2.30079942573304,2.30128858157879,2.30161801306674,0,2.30219701386375,2.30277601466076,2.30364451585628,2.30498220735282,0,2.30603039845085,2.30621008835337,2.30779734915897,2.30921490283441,0,2.31072230146111,2.31277875256773,2.31189028582749,2.31121145730686,0,2.31201007909584,2.31302832187679,2.3145057721864,2.27299740470419,0,2.27188931697198,2.2715399199393,2.27134026449205,2.27106074686591,0,2.27154990271166,2.27273785262277,2.27157985102875,2.27257812826497,0,2.27239843836245,2.27298742193182,2.27297743915946,2.27285764589111,0,2.27393578530624,2.27495402808719,2.27496401085955,2.27494404531482,0,2.27783904929987,2.27668104770585,2.27813853247074,2.27898706812153,0,2.28224145191162,2.32140386788871,2.32146376452288,2.32252193839328,0,2.32727373803771,2.32583621881755,2.32637528852511,2.32483794158132,0,2.32441866514211,2.32393949206872,2.3214338162058,2.32079491877461,0,2.31979664153839,2.3193973306439,2.31903795083886,2.31786996647248,0,2.31802969083027,2.31785000092775,2.31809957023681,2.31814948409862,0,2.3188682437087,2.31933743400973,2.31993640035146,2.32010610748162,0,2.32201281700281,2.32293123206013,2.32363002612549,2.32467821722353,0,2.32607580535424,2.32620558139495,2.32636530575274,2.32679456496432,0,2.32766306615984,2.2876421317596,2.28602492263691,2.28583524996203,0,2.28480702440872,2.28430788579061,2.2833595224162,2.28292028043226,0,2.28315986696895,2.28231133131816,2.2820617620091,2.2825109867654,0,2.28220152082218,2.28187208933422,2.28193198596839,2.28175229606587,0,2.28204179646438,2.28180220992769,2.28149274398446,2.28171236497643,0,2.28067415665075,2.28106348477288,2.28076400160201,2.28076400160201,0,2.28080393269146,2.28109343308997,2.28046451843114,2.28066417387839,0,2.28081391546382,2.28073405328493,2.28082389823619,2.28098362259398,0,2.28182217547241,2.28217157250509,2.28135298517138,2.28138293348847,0,2.28191202042367,2.28198189983021,2.28229136577344,2.28285040102572,0,2.2835691606358,2.284098247571,2.282830435481,2.28452750678258,0,2.28437776519714,2.28513645589668,2.28525624916502,2.28639428521432,0,2.28697328601133,2.28885004721543,2.28949892741898,2.29135572307835,0,2.34325615658966,2.34508300393195,2.34480348630581,2.34653050592448,0,2.3482974566326,2.3480578700959,2.34759866256724,2.34831742217732,0,2.3498048552593,2.34810778395771,2.34722929998984,2.34747886929889,0,2.3469996962255,2.34757869702251,2.34680004077826,2.34793807682756,0,2.34772843860795,2.34842723267331,2.34894633683614,2.35035390773922,0,2.35147197824379
2.23041089780685,2.23079024315662,0,2.23194824475064,2.23252724554765,2.23363533327986,2.23386493704419,0,2.23439402397939,2.23503292141057,2.23570176715884,2.23670004439506,0,2.23747870063932,2.23878644381877,2.2397048588761,2.24017404917713,0,2.24423703752856,2.24087284324248,2.24250003513753,2.24317886365816,0,2.24458643456124,2.2448859177321,2.24794064607495,2.24764116290408,0,2.24930828588858,2.25094546055599,2.25192377224749,2.25533788039538,0,2.25754407308743,2.29998083839933,2.30142834039186,2.29999082117169,0,2.3050920178488,2.30232678990446,2.30253642812407,2.30251646257934,0,2.30140837484713,2.30128858157879,2.29970132077319,2.29858325026862,0,2.29887275066712,2.29886276789476,2.29894263007366,2.29942180314705,0,2.29915226829327,2.29926207878925,2.2993818720576,2.30061973583052,0,2.30106896058682,2.30192747900997,2.30296568733564,2.30428341328746,0,2.30681903746747,2.30632988162172,2.30614020894684,2.3084761776796,0,2.30881559193992,2.31007342125756,2.31011335234701,2.31062247373749,0,2.31139114720938,2.3136073226738,2.27343664668812,2.27250824885844,0,2.27029207339402,2.26994267636134,2.27050171161362,2.27001255576787,0,2.27199912746796,2.27017228012567,2.27061152210961,2.27058157379252,0,2.27143010944331,2.27159981657347,2.27200911024032,2.27210893796395,0,2.27220876568757,2.2729674563871,2.27301737024891,2.27415540629821,0,2.27510376967262,2.27566280492491,2.27709034137271,2.27851787782051,0,2.28104351922815,2.32145378175052,2.32453845841045,2.32369990553203,0,2.32505756257329,2.3248179760366,2.32480799326423,2.32413914751596,0,2.32250197284856,2.32139388511635,2.3202159179776,2.31860869162728,0,2.31822934627752,2.31731093122019,2.31696153418751,2.31637255061814,0,2.31679182705735,2.31631265398397,2.31671196487845,2.31658218883775,0,2.3177302076594,2.31771024211468,2.31847891558657,2.32006617639217,0,2.32053536669319,2.32187305818974,2.32224242076714,2.32330059463754,0,2.32394947484108,2.32410919919888,2.32456840672754,2.32395945761344,0,2.3247381138577,2.28543593906754,2.28447759292077,2.28384867826195,0,2.28292028043226,2.28249102122068,2.282141624188,2.28191202042367,0,2.28172234774879,2.28094369150453,2.28096365704926,2.28086382932563,0,2.28040462179697,2.28044455288642,2.28048448397587,2.27983560377232,0,2.28003525921957,2.27998534535776,2.27962596555272,2.27992544872358,0,2.27924662020295,2.27968586218689,2.27933646515421,2.27913680970697,0,2.2797357760487,2.28001529367484,2.27898706812153,2.27921667188586,0,2.27971581050398,2.27927656852004,2.27980565545524,2.27929653406476,0,2.27938637901602,2.27982562099996,2.27977570713815,2.28061426001658,0,2.28062424278894,2.28202183091966,2.28204179646438,2.28130307130957,0,2.28237122795233,2.28218155527745,2.28213164141564,2.28291029765989,0,2.28300014261115,2.28394850598557,2.28442767905896,2.28553576679117,0,2.28567552560424,2.2886204434511,2.28810133928826,2.28885004721543,0,2.34612121225763,2.34301657005297,2.34645064374558,2.34585167740385,0,2.34722929998984,2.34713945503858,2.34730916216873,2.34862688812055,0,2.34764857642905,2.34637078156668,2.34675012691645,2.34687990295716,0,2.34566200472896,2.34624100552597,2.34668024750991,2.34684995464007,0,2.3476885075185,2.34792809405519,2.34915597505575,2.35047370100757,0,2.35281965251269
2.2315090027667,2.23229764178331,0,2.23324600515773,2.23356545387332,2.23360538496277,2.23452380002009,0,2.23552207725632,2.23625081963876,2.23671002716743,2.23742878677751,0,2.23858678837153,2.23951518620122,2.24012413531531,2.24058334284398,0,2.24186113770635,2.24185115493398,2.243009156528,2.24431689970746,0,2.24505562486226,2.24588419496833,2.24685252388747,2.24902876826244,0,2.25137471976756,2.25211344492237,2.25439949979332,2.25571722574514,0,2.25978021409657,2.30062971860288,2.30592058795487,2.30622007112574,0,2.30635982993881,2.30687893410164,2.30151818534312,2.30261629030297,0,2.30216706554666,2.30212713445722,2.30068961523705,2.30066964969233,0,2.30021044216366,2.29944176869177,2.29981113126918,2.30017051107422,0,2.29998083839933,2.3001205972124,2.30078944296067,2.30142834039186,0,2.30224692772556,2.30282592852257,2.30398393011659,2.30461284477541,0,2.30586069132069,2.30684898578456,2.3069687790529,2.30826653946,0,2.31109166403851,2.31045276660733,2.3110417501767,2.31071231868875,0,2.31169063038025,2.3112014745345,2.27451478610325,2.27164973043528,0,2.2705616082478,2.27095093636993,2.27045179775181,2.27114060904481,0,2.27066143597142,2.27016229735331,2.27097090191465,2.27188931697198,0,2.27133028171969,2.27232855895592,2.27260807658206,2.27234852450064,0,2.27350652609466,2.27373612985899,2.27408552689167,2.27525351125805,0,2.27515368353443,2.27774920434861,2.27828827405618,2.28011512139847,0,2.28158258893572,2.32427890632904,2.32426892355667,2.32599594317534,0,2.32583621881755,2.32507752811802,2.32435876850793,2.32387959543455,0,2.32344035345061,2.32101453976658,2.31904793361122,2.3187085193509,0,2.31815946687098,2.31719113795184,2.31715120686239,2.31685172369153,0,2.31706136191113,2.31655224052066,2.31684174091916,2.31702143082168,0,2.31749062112271,2.3181794324157,2.31922762351374,2.32014603857107,0,2.32071505659571,2.32222245522241,2.32322073245864,2.32395945761344,0,2.32439869959738,2.32552675287432,2.32362004335313,2.32449852732101,0,2.32589611545172,2.28423800638407,2.28498671431124,2.28308000479005,0,2.28318981528604,2.28256090062722,2.28323972914785,2.28218155527745,0,2.28216158973273,2.28184214101713,2.28171236497643,2.28122320913068,0,2.28152269230154,2.28120324358595,2.28030479407335,2.28095367427689,0,2.2796559138698,2.27994541426831,2.28031477684571,2.28016503526028,0,2.27958603446327,2.28016503526028,2.27961598278035,2.27930651683712,0,2.27911684416224,2.27918672356878,2.27945625842256,2.27931649960949,0,2.27977570713815,2.27947622396728,2.27961598278035,2.28007519030902,0,2.27966589664217,2.28015505248792,2.2810834503176,2.2804245873417,0,2.28158258893572,2.28094369150453,2.28110341586233,2.28187208933422,0,2.28188207210658,2.28184214101713,2.28229136577344,2.28289033211517,0,2.28351924677399,2.28396847153029,2.28406829925391,2.28555573233589,0,2.28566554283187,2.28746244185708,2.28798154601991,2.28998808326473,0,2.34546234928172,2.34426441659825,2.34492327957416,2.34571191859078,0,2.34593153958274,2.3466303336481,2.34824754277079,2.34695976513606,0,2.34593153958274,2.34751880038834,2.3467900580059,2.34627095384306,0,2.34601140176164,2.34510296947668,2.34595150512747,2.3472392827622,0,2.3476086453396,2.34817766336425,2.35034392496686,2.35116251230056,0,2.3522107033986
2.23081020870134,2.23173860653103,0,2.23247733168584,2.23335581565371,2.23368524714167,2.23448386893065,0,2.23442397229647,2.23643050954128,2.23655030280963,2.23749866618404,0,2.23829728797302,2.23918575471326,2.23960503115248,2.24056337729925,0,2.24103256760028,2.24241019018627,2.24256991454406,2.24351827791848,0,2.24493583159392,2.24625355754573,2.2474514902292,2.24824012924582,0,2.25060604629567,2.25148453026355,2.25447936197222,2.25545767366372,0,2.30111887444863,2.30165794415619,2.30375432635226,2.30440320655581,0,2.30569098419054,2.30494227626337,2.30452299982415,2.3040338439784,0,2.30154813366021,2.30102902949737,2.30115880553808,2.29968135522847,0,2.29939185482996,2.29926207878925,2.29921216492744,2.29945175146413,0,2.29935192374051,2.30007068335059,2.30043006315563,2.30128858157879,0,2.30197739287178,2.30264623862005,2.30355467090502,2.30451301705179,0,2.30636981271117,2.30726826222377,2.30769752143535,2.30956429986709,0,2.31111162958324,2.31029304224953,2.3111216123556,2.31047273215205,0,2.31105173294906,2.31126137116867,2.27258811103733,2.27256814549261,0,2.27142012667095,2.27209895519158,2.27098088468701,2.27149000607749,0,2.27147004053276,2.2708511086463,2.27104078132119,2.27156986825638,0,2.27197916192324,2.27205902410214,2.27188931697198,2.2728875942082,0,2.27306728411072,2.27365626768009,2.27403561302986,2.27408552689167,0,2.27555299442892,2.27628173681136,2.27884730930846,2.27939636178838,0,2.28270065944029,2.3242090269225,2.32537701128888,2.32506754534565,0,2.32583621881755,2.325187338614,2.32522726970345,2.3236799399873,0,2.32710403090755,2.32400937147526,2.31823932904988,2.31829922568405,0,2.31801970805791,2.31789991478956,2.3174407072609,2.31693158587042,0,2.31655224052066,2.31677186151263,2.3169914825046,2.31729096567546,0,2.31795981142373,2.3182592945946,2.31943726173335,2.32054534946556,0,2.32142383343343,2.32284138710887,2.32350025008478,2.32434878573557,0,2.32569646000447,2.32683449605377,2.32607580535424,2.32450851009337,0,2.32561659782558,2.28580530164495,2.28547587015699,2.28384867826195,0,2.28353921231872,2.28305005647297,2.28284041825336,2.28215160696036,0,2.28196193428548,2.28183215824477,2.28199188260257,2.28204179646438,0,2.28145281289501,2.2816125372528,2.28104351922815,2.28118327804123,0,2.28095367427689,2.28088379487036,2.28072407051256,2.28053439783768,0,2.2804245873417,2.28074403605729,2.28047450120351,2.28039463902461,0,2.28022493189445,2.27950617228437,2.27984558654469,2.28013508694319,0,2.2798156382276,2.27943629287783,2.28057432892713,2.28055436338241,0,2.2812431746754,2.28103353645579,2.28084386378091,2.28097363982162,0,2.28164248556989,2.28193198596839,2.28215160696036,2.28248103844832,0,2.28225143468399,2.28244110735887,2.28340943627801,2.28421804083935,0,2.28464730005093,2.28410823034336,2.28518636975849,2.28624454362888,0,2.2870331826455,2.2874824074018,2.28981837613457,2.34402483006156,0,2.34484341739526,2.34819762890897,2.34736905880291,2.34646062651794,0,2.34844719821803,2.3473191449411,2.34795804237228,2.34746888652653,0,2.34748885207125,2.3476086453396,2.3461012467129,2.34665029919283,0,2.34701966177023,2.34628093661542,2.34756871425015,2.34781828355921,0,2.34754874870543,2.34814771504716,2.35187128913828,2.35195115131718,0,2.35233049666694
0,0,0,0,0,0,0,0,0,0,0,0,0,0,0,0,0,0,0,0,0,0,0,0,0,0,0,0,0,0,0,0,0,0,0,0,0,0,0,0,0,0,0,0,0,0,0,0,0,0,0,0,0,0,0,0,0,0,0,0,0,0,0,0,0,0,0,0,0,0,0,0,0,0,0,0,0,0,0,0,0,0,0,0,0,0,0,0,0,0,0,0,0,0,0,0,0,0,0,0,0,0,0,0,0,0,0,0,0,0,0,0,0,0,0,0,0,0,0,0,0,0,0,0,0,0,0,0,0,0,0,0,0,0,0,0,0,0,0,0,0,0,0,0,0,0,0,0,0,0,0,0,0,0,0,0,0,0,0,0,0,0,0,0,0,0,0,0,0,0,0,0,0,0,0,0,0,0,0,0,0,0,0,0,0,0,0,0,0,0,0,0,0,0,0,0,0,0,0,0,0,0,0,0,0,0,0,0,0,0,0,0,0,0,0,0,0,0,0,0,0,0,0,0,0,0,0,0,0,0,0,0,0,0
2.23126941623,2.23138920949835,0,2.23266700436072,2.23333585010899,2.23357543664568,2.23427423071104,0,2.23466355883317,2.23628076795585,2.23656028558199,2.23701949311066,0,2.23828730520066,2.23924565134744,2.23959504838012,2.24046354957563,0,2.2406831705676,2.24170141334855,2.24288936325966,2.24352826069084,0,2.24486595218738,2.2455747290251,2.2471619898307,2.24837988805889,0,2.24938814806748,2.25109520214142,2.25302187720733,2.2562562954527,0,2.29794435283743,2.30138840930241,2.30243660040045,2.30398393011659,0,2.30434330992163,2.30338496377486,2.30263625584769,2.30166792692855,0,2.30032025265965,2.30047997701744,2.29957154473248,2.29955157918776,0,2.29936190651287,2.29903247502492,2.29915226829327,2.29944176869177,0,2.29932197542342,2.29986104513099,2.30015054552949,2.30113883999335,0,2.30142834039186,2.30290579070147,2.30279598020549,2.30441318932817,0,2.30572093250762,2.30689889964637,2.30788719411023,2.30929476501331,0,2.30989373135504,2.30958426541181,2.31034295611134,2.30947445491583,0,2.31068237037166,2.27482425204648,2.27218880014284,2.27213888628103,0,2.27020222844276,2.27010240071913,2.2700325213126,2.27148002330512,0,2.27055162547544,2.27127038508552,2.27131031617497,2.27099086745937,0,2.27137021280914,2.27157985102875,2.27208897241922,2.27218880014284,0,2.27230859341119,2.27278776648458,2.27311719797253,2.27441495837962,0,2.27564283938018,2.27633165067318,2.27850789504814,2.27969584495925,0,2.2813230368543,2.32488785544313,2.32431883741848,2.32459835504463,0,2.32492778653258,2.32558664950849,2.32400937147526,2.32362004335313,0,2.32350025008478,2.32192297205155,2.31753055221216,2.31687168923625,0,2.31672194765082,2.31696153418751,2.31697151695987,2.31631265398397,0,2.31640249893522,2.31618287794326,2.31651230943121,2.31655224052066,0,2.31705137913877,2.31801970805791,2.31936738232681,2.32032572847359,0,2.32089474649824,2.32231230017367,2.32329061186517,2.32393949206872,0,2.32561659782558,2.32550678732959,2.32543690792306,2.32207271363698,0,2.3276730489322,2.28424798915644,2.2841781097499,2.28384867826195,0,2.28307002201769,2.28231133131816,2.28213164141564,2.28180220992769,0,2.28174231329351,2.28220152082218,2.28103353645579,2.27958603446327,0,2.28107346754524,2.28050444952059,2.28062424278894,2.28023491466681,0,2.28032475961807,2.27993543149595,2.27985556931705,2.27964593109744,0,2.27937639624366,2.27934644792657,2.27959601723563,2.27964593109744,0,2.27926658574768,2.27977570713815,2.2792066891135,2.27955608614618,0,2.2792865512924,2.27961598278035,2.27952613782909,2.27909687861752,0,2.27990548317886,2.27972579327634,2.27993543149595,2.28003525921957,0,2.28091374318745,2.28188207210658,2.28162252002516,2.28127312299249,0,2.28224145191162,2.28215160696036,2.28334953964383,2.28308998756242,0,2.28328964300966,2.28321976360312,2.2853161457992,2.28556571510825,0,2.28664385452337,2.28950891019134,2.28877018503653,2.29050718742756,0,2.34246751757305,2.34303653559769,2.34539246987518,2.34468369303746,0,2.34678007523354,2.34662035087574,2.34692981681897,2.34712947226621,0,2.34662035087574,2.34698971345314,2.3472392827622,2.34638076433905,0,2.34576183245259,2.34542241819227,2.34613119502999,2.3480578700959,0,2.34847714653512,2.35041380437339,2.35033394219449,2.34970502753567,0,2.35170158200812
2.23164876157977,2.23212793465316,0,2.23297647030395,2.2336752643693,2.23406459249143,2.23464359328844,0,2.23524255963018,2.23607112973624,2.23697956202121,2.23726906241971,0,2.23824737411121,2.2394153584776,2.24034375630728,2.24078299829122,0,2.24155167176312,2.24206079315359,2.24404736485368,2.24412722703257,0,2.24592412605778,2.24652309239951,2.24740157636739,2.24922842370968,0,2.25101533996252,2.25261258354048,2.2548287590049,2.25744424536381,0,2.29879288848823,2.30035020097674,2.30272610079895,2.30573091527999,0,2.30503212121463,2.30333504991305,2.30420355110856,2.30181766851399,0,2.30144830593658,2.30040011483855,2.3002004593913,2.30009064889532,0,2.29984107958626,2.29952163087067,2.29941182037469,2.29956156196012,0,2.2998310968139,2.3002803215702,2.30085932236721,2.30152816811548,0,2.30232678990446,2.30299563565273,2.30452299982415,2.30460286200305,0,2.30617015726392,2.30760767648409,2.30862591926504,2.31020319729827,0,2.31020319729827,2.31153090602245,2.31077221532292,2.30994364521685,0,2.31087204304654,2.27514370076207,2.27269792153332,2.27098088468701,0,2.27061152210961,2.27021221121512,2.27063148765433,2.27070136706087,0,2.27115059181717,2.27118054013426,2.27127038508552,2.27172959261418,0,2.27177950647599,2.27175954093127,2.272358507273,2.27268793876096,0,2.27334680173686,2.27343664668812,2.27420532016002,2.27437502729018,0,2.27548311502238,2.27711030691743,2.27854782613759,2.27976572436579,0,2.28287036657045,2.32341040513352,2.32583621881755,2.32659490951708,0,2.32585618436227,2.32553673564668,2.32377976771092,2.32369990553203,0,2.32346031899533,2.32017598688815,2.32199285145808,2.31893812311524,0,2.31760043161869,2.31716118963476,2.31681179260208,2.31658218883775,0,2.31694156864279,2.31644243002467,2.31676187874027,2.31666205101664,0,2.31718115517948,2.31790989756192,2.31917770965193,2.32091471204296,0,2.32088476372587,2.32171333383194,2.32373983662147,2.32381969880037,0,2.32459835504463,2.32448854454864,2.3246582516788,2.32593604654117,0,2.28807139097117,2.28652406125503,2.28485693827053,2.28440771351423,0,2.28277053884682,2.2823013485458,2.28224145191162,2.28178224438296,0,2.28164248556989,2.28165246834225,2.28106348477288,2.28136296794375,0,2.28144283012264,2.28182217547241,2.28127312299249,2.28009515585374,0,2.28015505248792,2.28013508694319,2.28000531090248,2.28031477684571,0,2.27958603446327,2.27951615505673,2.27933646515421,2.27952613782909,0,2.27908689584516,2.2791268269346,2.27958603446327,2.27904696475571,0,2.27923663743059,2.28046451843114,2.27921667188586,2.27922665465823,0,2.27934644792657,2.27972579327634,2.27986555208941,2.28234127963525,0,2.28234127963525,2.28069412219548,2.28067415665075,2.280873812098,0,2.28201184814729,2.2822214863669,2.28310995310714,2.28306003924533,0,2.28390857489612,2.28326967746494,2.28542595629518,2.28578533610022,0,2.28755228680834,2.28758223512542,2.28856054681693,2.29067689455772,0,2.34417457164699,2.3452826593792,2.34544238373699,2.34457388254148,0,2.34636079879432,2.34749883484362,2.34721931721747,2.34711948949385,0,2.34642069542849,2.34668024750991,2.3461811088918,2.34553222868825,0,2.34640072988377,2.34506303838723,2.34605133285109,2.34657043701393,0,2.34739900711999,2.34845718099039,2.34868678475472,2.3495652687226,0,2.35480622421278
2.23083017424606,2.23255719386473,0,2.23315616020647,2.23380504041001,2.23413447189797,2.23488317982514,0,2.23521261131309,2.23690968261467,2.23703945865538,2.23822740856649,0,2.23866665055043,2.23982465214445,2.24074306720177,2.24094272264902,0,2.24177129275508,2.24220055196666,2.24373789891045,2.24458643456124,0,2.24507559040699,2.2464731785377,2.24813031874983,2.24941809638456,0,2.25066594292985,2.25248280749977,2.25420982711844,2.25795336675428,0,2.30219701386375,2.30332506714069,2.30339494654722,2.30447308596234,0,2.30346482595376,2.30446310318998,2.30317532555525,2.30118875385516,0,2.30153815088784,2.30021044216366,2.30026035602548,2.30013057998477,0,2.30027033879784,2.29924211324453,2.29994090730988,2.29980114849681,0,2.29995089008225,2.30090923622902,2.30083935682249,2.3016279958391,0,2.30247653148989,2.30282592852257,2.30484244853975,2.30468272418195,0,2.3060703295403,2.30756774539464,2.30902523015953,2.30985380026559,0,2.31095190522544,2.31027307670481,2.30988374858268,2.31041283551788,0,2.30994364521685,2.27392580253387,2.27211892073631,2.27197916192324,0,2.27139017835386,2.27027210784929,2.27083114310158,2.27091100528048,0,2.2714600577604,2.27178948924835,2.27167967875237,2.27230859341119,0,2.27192924806143,2.2729674563871,2.27271788707804,2.27344662946049,0,2.27354645718411,2.27385592312734,2.27506383858317,2.27551306333947,0,2.27644146116916,2.27743973840538,2.2787574643572,2.28163250279753,0,2.28285040102572,2.3223322657184,2.32576633941101,2.32651504733818,0,2.32605583980952,2.32580627050046,2.32506754534565,2.32693432377739,0,2.32283140433651,2.32184310987265,2.32109440194548,2.31794982865137,0,2.31738081062672,2.31762039716342,2.31711127577294,2.31700146527696,0,2.31684174091916,2.31687168923625,2.31687168923625,2.31813950132626,0,2.31832917400114,2.31905791638358,2.32054534946556,2.32096462590477,0,2.32213261027115,2.32300111146667,2.32373983662147,2.32485790712605,0,2.32592606376881,2.32446857900392,2.32477804494715,2.32585618436227,0,2.28723283809275,2.28622457808416,2.28565556005951,2.28486692104289,0,2.28382871271722,2.28305005647297,2.28237122795233,2.28254093508249,0,2.28179222715532,2.28165246834225,2.28205177923674,2.28159257170808,0,2.282141624188,2.28146279566737,2.28128310576485,2.28137295071611,0,2.28065419110603,2.28094369150453,2.28093370873217,2.28094369150453,0,2.28068413942311,2.28025488021154,2.28052441506532,2.27992544872358,0,2.28076400160201,2.28014506971555,2.28052441506532,2.28006520753665,0,2.28044455288642,2.28027484575626,2.28033474239044,2.28075401882965,0,2.27997536258539,2.28011512139847,2.2806342255613,2.28072407051256,0,2.280873812098,2.2807939499191,2.28192200319603,2.28313990142423,0,2.28340943627801,2.28338947073328,2.28351924677399,2.28271064221265,0,2.28522630084794,2.28518636975849,2.28550581847408,2.28592509491329,0,2.28632440580778,2.28831097750787,2.29061699792355,2.34254737975194,0,2.34394496788266,2.34424445105353,2.34591157403802,2.34586166017621,0,2.34720933444511,2.34792809405519,2.3480578700959,2.34753876593307,0,2.34690985127424,2.3473191449411,2.34636079879432,2.34603136730637,0,2.34620107443653,2.3467900580059,2.34703962731495,2.34746888652653,0,2.35136216774781,2.34951535486079,2.34898626792559,2.35507575906656,0,2.3531091529112
2.23152896831142,2.23162879603504,0,2.23291657366977,2.23394479922309,2.23397474754017,2.23437405843466,0,2.23540228398797,2.2362408368664,2.23694961370412,2.23754858004586,0,2.23804771866397,2.23963497946956,2.23972482442083,2.24092275710429,0,2.24165149948674,2.24258988008879,2.24374788168281,2.24441672743108,0,2.24452653792706,2.24640329913117,2.24766112844881,2.24920845816496,0,2.25108521936906,2.2525027730445,2.25554751861498,2.25770379744523,0,2.30063970137524,2.29971130354555,2.3029257562462,2.30346482595376,0,2.30339494654722,2.30286585961202,2.30320527387234,2.3018675823758,0,2.3001205972124,2.2998310968139,2.29939185482996,2.29928204433398,0,2.29952163087067,2.2991422855209,2.2993818720576,2.29959151027721,0,2.29968135522847,2.30013057998477,2.30049994256217,2.30131852989587,0,2.30200734118887,2.30282592852257,2.30352472258793,2.30547136319857,0,2.30645965766243,2.30710853786598,2.30887548857409,2.30950440323291,0,2.31011335234701,2.31025311116008,2.31008340402992,2.31128133671339,0,2.31037290442843,2.27275781816749,2.2710108330041,2.27099086745937,0,2.27022219398748,2.27025214230457,2.27034198725583,2.27042184943473,0,2.27053165993071,2.27049172884126,2.27110067795536,2.27174955815891,0,2.27123045399607,2.27199912746796,2.27275781816749,2.27271788707804,0,2.27388587144443,2.27340669837104,2.27453475164797,2.27550308056711,0,2.27636159899026,2.27720015186869,2.27888724039791,2.28022493189445,0,2.32655497842763,2.32589611545172,2.32558664950849,2.32656496119999,0,2.32650506456582,2.32603587426479,2.32364999167021,2.3238396643451,0,2.32171333383194,2.32110438471784,2.32007615916453,2.31797977696846,0,2.31739079339909,2.31684174091916,2.31660215438247,2.31647237834176,0,2.31643244725231,2.31656222329302,2.31697151695987,2.31818941518807,0,2.31794982865137,2.31888820925342,2.32039560788012,2.32092469481532,0,2.32174328214903,2.32312090473502,2.32368992275966,2.32392950929636,0,2.32488785544313,2.3240493025647,2.3242090269225,2.32638527129747,0,2.32543690792306,2.28557569788061,2.284787058864,2.28414816143281,0,2.28485693827053,2.2837288849936,2.2825109867654,2.28315986696895,0,2.28173233052115,2.2820617620091,2.28184214101713,2.28152269230154,0,2.28168241665934,2.28109343308997,2.28046451843114,2.28090376041508,0,2.28147277843973,2.28049446674823,2.27952613782909,2.28065419110603,0,2.28074403605729,2.27927656852004,2.27968586218689,2.28014506971555,0,2.27950617228437,2.27898706812153,2.27963594832508,2.2797357760487,0,2.28017501803264,2.28005522476429,2.27967587941453,2.28027484575626,0,2.28041460456933,2.28052441506532,2.28097363982162,2.28097363982162,0,2.28062424278894,2.28119326081359,2.2817722616106,2.28180220992769,0,2.28309997033478,2.28316984974131,2.28307002201769,2.28355917786344,0,2.28452750678258,2.2850765592625,2.28533611134392,2.28577535332786,0,2.28760220067015,2.28933920306118,2.2894390307848,2.34383515738667,0,2.34355563976053,2.34325615658966,2.34521277997266,2.34719935167275,0,2.34687990295716,2.34779831801448,2.34755873147779,2.34785821464866,0,2.34739900711999,2.34747886929889,2.34685993741243,2.34691983404661,0,2.34579178076967,2.34692981681897,2.34675012691645,2.34737904157527,0,2.34792809405519,2.34893635406378,2.34982482080402,2.35116251230056,0,2.35372808479766
