0.0754894511034097,2.31200451876703,2.27394727318012,2.27181298448055,2.27182480883141,2.26944706072705,2.27048102107518,2.26881337830637,2.26994874558648,2.2698155532928,0.0754894511034097,2.26998052586725,2.27069309093117,2.27012479463215,2.27119043822272,2.27072482689777,2.27127500607923,2.2715297854263,2.27177815100055,2.27218993222319,0.0754894511034097,2.27297637757957,2.27526416370246,2.27396827524027,2.27482569087424,2.27466218122844,2.27578079295537,2.27663933290491,2.27876559542918,2.27967742233279,0.0754894511034097,2.32286784388293,2.31995396822133,2.32110451885143,2.32363167737955,2.32325334330365,2.32351273989879,2.32453527242984,2.32286607535489,2.3230438531863,0.0754894511034097,2.32258609892898,2.31950616869351,2.31855937054776,2.31870754085598,2.31621950733527,2.31728852465261,2.31568634211158,2.31621528831351,2.31573279207344,0.0754894511034097,2.31594517647704,2.31542179338513,2.31662908281797,2.31573511934896,2.3182457692054,2.31684808464399,2.31891874369195,2.31923584864524,2.32016602859835,0.0754894511034097,2.32129995137765,2.32169978274456,2.32270072488492,2.32310588083471,2.32401743693173,2.32350289916198,2.32467126487594,2.32433198920899,2.32560478789189,0.0754894511034097,2.28649494973718,2.2845885809703,2.28332361746905,2.28296669158787,2.28151612676513,2.28183608146561,2.28023467790185,2.28171396901185,2.28057034412447,0.0754894511034097,2.28088378532244,2.28091388409732,2.27959381526477,2.28090056271027,2.2783667617925,2.2810974414098,2.27854820282849,2.28026762282692,2.27914453417245,0.0754894511034097,2.27930398328756,2.27947775292618,2.27887167935922,2.27911183858824,2.27850427140116,2.27848744651977,2.27885140744949,2.27833835222627,2.2785731859581,0.0754894511034097,2.27853570804015,2.2783305516825,2.27856532454498,2.27815825699543,2.27878204905651,2.2784893577427,2.27872853643463,2.27889636777053,2.27884326158594,0.0754894511034097,2.27840575941863,2.28006715772408,2.27804080497622,2.2811351079672,2.27872940651474,2.28123940791756,2.27980600906738,2.28135391400219,2.28116704802553,0.0754894511034097,2.28184740468291,2.28118169372221,2.2815482233765,2.28161637429307,2.28356557619159,2.28233275714061,2.28363998735524,2.28485624901122,2.28458102137032,0.0754894511034097,2.28540702712619,2.28788912855216,2.28848054582323,2.34147935993744,2.34160959068682,2.34737706719152,2.34535400834109,2.3458193471047,2.34556899968421,0.0754894511034097,2.34624891293017,2.34602647203807,2.34689324667736,2.34645728026605,2.347069066582,2.34650272835124,2.34559509094488,2.34406019660425,2.34593631118117,0.0754894511034097,2.34592197936695,2.34540456843832,2.34699680754214,2.34593856884404,2.3467315067497,2.346684743481,2.34713589056111,2.35063042596224,2.35283592133036,0.0754894511034097,2.35049792364038,2.3525076613622,2.35310461730213,2.3532325687856,2.35606604867568,2.35605732069534,2.35737237565161,2.35840165366328,2.35942126216068,0.0754894511034097,2.35917720173924,2.35850973149995,2.35796263738307
0.0754894511034097,2.3109462654645,2.3135057795444,2.27218469427468,2.27079406386546,2.2703139460406,2.26962470886596,2.26985635266092,2.26930222962976,2.2700343841388,0.0754894511034097,2.26993061461556,2.26981049749492,2.27055744895748,2.27046800194378,2.27098741173923,2.27135509574419,2.27119486253307,2.27208567919492,2.27177859710357,0.0754894511034097,2.27284920928321,2.27333863241045,2.27307476212045,2.27417432851442,2.27458567446508,2.27677166634688,2.27749263596281,2.27826667910343,2.28041740874138,0.0754894511034097,2.32045055786808,2.32033496900247,2.32389381068464,2.32543634520495,2.32616678912674,2.32393519259126,2.32417147843335,2.32348129799602,2.32093278483394,0.0754894511034097,2.3195741553214,2.31940722526681,2.31862694777294,2.31730042892856,2.31737884979056,2.31584439430137,2.31720201397526,2.31550437194738,2.31572642729627,0.0754894511034097,2.31566395320708,2.31629164280763,2.3160650547152,2.31756258032571,2.31634088074552,2.31808606938068,2.31789175996324,2.31955896794717,2.31957142645595,0.0754894511034097,2.32128977837371,2.32183204171202,2.32261788160544,2.32325011115051,2.32389922539376,2.32352366153027,2.32308978331306,2.32447304690336,2.32535262703819,0.0754894511034097,2.28416725458989,2.28412358870028,2.28346739510695,2.28231753169869,2.28239127833874,2.28100203267917,2.28175197367736,2.28084563006813,2.28109814084955,0.0754894511034097,2.28090597267384,2.27994821911697,2.28124162969874,2.27846437674051,2.28058492844096,2.27802286371508,2.28065743969673,2.2788477391274,2.27967533246658,0.0754894511034097,2.27911333663206,2.27927612281154,2.27859928367341,2.27878351847906,2.27844967241264,2.27914480866531,2.27808671287133,2.27903168617154,2.27815264760155,0.0754894511034097,2.27859420587693,2.27845576144024,2.27838781932301,2.2783474839827,2.27839340167236,2.27906562621214,2.27860305644129,2.27904576070213,2.27901506554626,0.0754894511034097,2.27906674670671,2.27788609491092,2.27940361049914,2.27914334319929,2.28197716352898,2.27951907613416,2.28130614391608,2.28070492375572,2.28145667960929,0.0754894511034097,2.28122518156495,2.28135339641032,2.28176260758216,2.28212446269071,2.28220887395742,2.2826404604001,2.28356564641091,2.28457383643612,2.28474341887172,0.0754894511034097,2.2862391548731,2.28749157508504,2.28813842605256,2.34404032514632,2.34635642747975,2.34695588699857,2.34437037472058,2.34519849569433,2.34528554497592,0.0754894511034097,2.34556891805737,2.34631765685395,2.34721802418823,2.34517622275554,2.3436772999162,2.34507123262368,2.34351761172606,2.34546278727578,2.34404217928401,0.0754894511034097,2.34528720513196,2.34561541010789,2.34688861434779,2.34657270256732,2.34624089867892,2.34746839158995,2.34814965196836,2.35048702260798,2.3516665982862,0.0754894511034097,2.35128378695781,2.35425836080941,2.3553827617005,2.35502522587839,2.35577007190489,2.35688714182051,2.35773070262985,2.3583105047897,2.35762467301204,0.0754894511034097,2.35717817471337,2.3574658493073,2.35787330008739
0.0754894511034097,2.31062916936948,2.27353530288895,2.27324549945685,2.27024176405967,2.27026812279905,2.26980185004224,2.26986146099416,2.27001731974398,2.27024032599936,0.0754894511034097,2.26953683160745,2.27007148928002,2.2703260085933,2.27074749591893,2.27143979763748,2.2708392974205,2.27183468675686,2.2714511878308,2.27231700425287,0.0754894511034097,2.27266427757241,2.27272099755824,2.27414117649283,2.27382564822058,2.27502861096051,2.27694152732523,2.27828458311969,2.27901375032106,2.28120917613326,0.0754894511034097,2.3216824748744,2.32371348205423,2.32385141799328,2.32516532561054,2.32432154150661,2.32454285337899,2.32353826884407,2.32361903766456,2.32133817225838,0.0754894511034097,2.31988303560449,2.32285489513591,2.31754824114856,2.31740469622036,2.31628565275718,2.31704324472535,2.31590211715362,2.31602439085598,2.31579981972882,0.0754894511034097,2.31571606160224,2.3156725157831,2.31643711257956,2.31606396795094,2.31765208919573,2.31704639212749,2.31901820157008,2.31883363152726,2.31992958850632,0.0754894511034097,2.32129580283906,2.32243227147172,2.32273390670883,2.32363392043749,2.32425249517792,2.32390731465502,2.32350391975799,2.32378629108255,2.32573504048251,0.0754894511034097,2.2844105335166,2.28353404002888,2.28292258623849,2.28276158340337,2.28160023090709,2.28239190132643,2.28159286490401,2.28174238312205,2.28123647549149,0.0754894511034097,2.28075514809617,2.28132465895781,2.27920610075328,2.28132255984325,2.27917229105983,2.28105690748388,2.27845584528718,2.28069841635772,2.27934558466985,0.0754894511034097,2.27965491103873,2.27886499921505,2.27952976632706,2.27832781247861,2.27963093907586,2.27842106803814,2.27936366587318,2.27795582056503,2.27851238234668,0.0754894511034097,2.27833877644957,2.27885940167453,2.27818902924243,2.27890413311581,2.27837809420759,2.2789253386686,2.2789053262797,2.27920880094621,2.27910783689326,0.0754894511034097,2.27949057944427,2.28039023870081,2.27827662288335,2.28114868114438,2.27930581347861,2.28153042007567,2.28003648879569,2.28129898369517,2.28082197025578,0.0754894511034097,2.28098751715462,2.28166780974583,2.2812618495447,2.2826453082775,2.2827108292039,2.28317822066348,2.28398545091344,2.28450085671134,2.28570948497877,0.0754894511034097,2.28632646059396,2.28687202181287,2.28882463077244,2.34279807487499,2.34702204249597,2.34345294106912,2.34440215648671,2.34408625612266,2.34521322537847,0.0754894511034097,2.34633889542542,2.34658247416047,2.34810432685215,2.34480604861473,2.34730285046949,2.34673672554644,2.34658122539957,2.34407274690188,2.3450809632209,0.0754894511034097,2.34502024198541,2.34507941925141,2.34602281667427,2.34621183674002,2.34707803928654,2.34899579525519,2.34916338874198,2.35075491709281,2.35124950024665,0.0754894511034097,2.35234823773305,2.35482045192314,2.35656556612668,2.35634848383138,2.35668434351251,2.35826430093272,2.35850092505625,2.35757109489163,2.35680680495865,0.0754894511034097,2.35719864748663,2.35684015381789,2.35737488948227
0.0754894511034097,2.31044130720505,2.27136004895615,2.27112352401927,2.27036617059835,2.27058470011701,2.27044729866102,2.26936904299721,2.2704655192028,2.27002580414406,0.0754894511034097,2.27003344314986,2.26998829903041,2.27041745912339,2.27093180121984,2.27067852321642,2.27133847980514,2.27117957501567,2.27194351377168,2.27203422331992,0.0754894511034097,2.27250711275711,2.27308715297199,2.27342881487178,2.27473676917749,2.2746854653332,2.27649381817831,2.27790386018504,2.27954484102866,2.28206619814234,0.0754894511034097,2.32349184641925,2.32383169207683,2.3243898969196,2.32387832275248,2.32513530811562,2.324552284186,2.32356922892499,2.32312682337164,2.32369977081378,0.0754894511034097,2.32295922101825,2.31715928353036,2.3167496156931,2.31673135612012,2.31674534159306,2.31642914013745,2.31626628369391,2.31576880280092,2.31554513917992,0.0754894511034097,2.31552158054145,2.31598936175586,2.31587198430469,2.31666437556568,2.3164963778542,2.31750674848951,2.31891076399412,2.31953225523809,2.32000652586751,0.0754894511034097,2.3215891272693,2.32208736089035,2.32301969740616,2.32390769497062,2.32505859554947,2.32579538049234,2.3236296774144,2.32375554069144,2.32480697451027,0.0754894511034097,2.28457266681306,2.2844052503442,2.28280137037972,2.28188547688351,2.28249930273402,2.28111683415477,2.28256710223456,2.28060092755339,2.28113055897203,0.0754894511034097,2.28093454955034,2.28004752901389,2.28187386337925,2.27937183924648,2.28149411375565,2.27843447197181,2.28090049898626,2.27922630182355,2.27978850255445,0.0754894511034097,2.27915046887724,2.28011600178125,2.27855619122866,2.28032483937152,2.27812722813171,2.280228930655,2.27809496378669,2.27991709903748,2.27866014795383,0.0754894511034097,2.27842320793875,2.27812235472509,2.27896822543954,2.27800393615323,2.27901934827874,2.27816762613628,2.27921874115475,2.27932563918731,2.27965071704639,0.0754894511034097,2.27972041570207,2.27866667481496,2.28058100333663,2.27887693138529,2.28144117671682,2.27984884658727,2.28131532672329,2.28074787599117,2.2809750970646,0.0754894511034097,2.2812208540376,2.28139783039515,2.28301683887488,2.28225696021779,2.28313760269226,2.28302119001159,2.28422155142478,2.28490068245232,2.2855084619502,0.0754894511034097,2.2861088245934,2.28765864255889,2.28955972343185,2.34340570769283,2.3431638010124,2.34587778466366,2.34506516103775,2.34588406003489,2.34543798047611,0.0754894511034097,2.34562427957157,2.34746611837879,2.34613640485266,2.34638322009141,2.34542477081057,2.34731409501349,2.34520314848419,2.34550819813819,2.34525122177736,0.0754894511034097,2.34527308233769,2.3458996954634,2.34619767395516,2.34628945790401,2.34661049460602,2.34794708366478,2.35064452148815,2.35063267748727,2.35094709388926,0.0754894511034097,2.35211067818987,2.3549865525254,2.35418195731336,2.35552619663596,2.35583710233922,2.35814395154314,2.35740208122805,2.35726099911663,2.3562102150545,0.0754894511034097,2.35559508743848,2.35611983685309,2.35747897737169
0.0754894511034097,2.27336217940505,2.27166540824084,2.27217184278435,2.26952931574194,2.27000720639326,2.26867160765652,2.27078104975006,2.26939920445278,2.27018181633575,0.0754894511034097,2.27059439052669,2.27070488905565,2.2704313926749,2.27057108221948,2.27100545685418,2.27085221749829,2.27164853282022,2.27156125096184,2.27166720969302,0.0754894511034097,2.27265397302802,2.2721472261796,2.27400955817745,2.27361233294622,2.27576014724831,2.27583744700162,2.27789409823357,2.27958699829519,2.28143585145118,0.0754894511034097,2.32382143569007,2.32452544681748,2.32359866208894,2.32486766182976,2.32436859328382,2.32457196874409,2.32270781347489,2.32334691829535,2.32273049160645,0.0754894511034097,2.3209382202481,2.31689318188408,2.31679193633088,2.31580963771607,2.3165625476167,2.31581939230797,2.31676776913283,2.31538083318744,2.31571049405505,0.0754894511034097,2.31542973356773,2.31564995892074,2.31590559370857,2.31579129314761,2.31705638957038,2.31717930304427,2.3187501689247,2.31940363268826,2.32011127408164,0.0754894511034097,2.32141495893451,2.32255014330972,2.32262804608868,2.3239297233484,2.32465391801476,2.32676027669265,2.32101226259604,2.32180331473756,2.32602666409232,0.0754894511034097,2.283577236019,2.28385062472215,2.28297160404796,2.28289564398405,2.28110325638177,2.2827582402091,2.2803137156017,2.28155550330918,2.28062406130228,0.0754894511034097,2.28097755575149,2.28107992827166,2.27962993477055,2.28153580033173,2.278637120989,2.28111924942883,2.27845844531398,2.28059206038754,2.27932259319947,0.0754894511034097,2.27962579764321,2.27851124682537,2.28011651461114,2.27778986601379,2.27964868493585,2.27764824896698,2.27999701727823,2.27827134121564,2.27906313350392,0.0754894511034097,2.27845405288544,2.27915562584391,2.27778155281859,2.27937370457082,2.27755415637905,2.27904389108674,2.27831386940289,2.27872548793819,2.27924165785446,0.0754894511034097,2.27908348897498,2.27960844155797,2.2785692239743,2.28008533478962,2.28012342603933,2.2813508638422,2.28042210471001,2.28064914506843,2.28112979175143,0.0754894511034097,2.28100287452391,2.2824950976402,2.28120223839505,2.28344697649017,2.28181737915226,2.28353688713778,2.28447911376207,2.2851561583954,2.28606318939777,0.0754894511034097,2.28843646321554,2.28806478252905,2.28952221089912,2.34295497648106,2.34732697816193,2.3437536430264,2.34396334660571,2.34424876440257,2.34595049782971,0.0754894511034097,2.3461762205749,2.34475659096932,2.34713432480883,2.34423583727687,2.34629925766281,2.34563848784724,2.34741551818779,2.34393947199082,2.3458705988541,0.0754894511034097,2.34525684465317,2.34501122087954,2.3466300848442,2.34673915173344,2.34812943816078,2.34935864413576,2.34844574016117,2.34991038211619,2.35047426433826,0.0754894511034097,2.35486100058808,2.35479967575958,2.35504236110097,2.35435385152639,2.35633470996118,2.35624044144354,2.35557150353961,2.35564639200713,2.35613382516578,0.0754894511034097,2.35562634629932,2.35563105232349,2.35600609184086
0.0754894511034097,2.27312537125659,2.27178005514982,2.26974045867523,2.2702835546396,2.26849381754147,2.27021918605257,2.26848824646264,2.27017448971963,2.26964512079128,0.0754894511034097,2.27038802962073,2.27023176315683,2.27008740671324,2.27047691843179,2.27084753139648,2.271246997063,2.27170344944656,2.2717090959475,2.27175812978873,0.0754894511034097,2.27208111703904,2.27305235973105,2.27241853238018,2.27443581474949,2.27510059756941,2.27637909578445,2.27842629473876,2.28021249100172,2.28182713671758,0.0754894511034097,2.32359494303629,2.32387973175206,2.32476788633159,2.32465714762579,2.32539868922476,2.32314830811376,2.32325643556055,2.32249585978354,2.32099693053095,0.0754894511034097,2.31912085965448,2.31938598861079,2.31651466478644,2.31683978610807,2.31544355748209,2.31667127783526,2.31523824744945,2.31579838746311,2.31539840716032,0.0754894511034097,2.31538831285484,2.3155601405098,2.31570415604343,2.31596422084286,2.31681876178102,2.31759811964755,2.31851364127,2.31946208519415,2.32005012929469,0.0754894511034097,2.32108154761868,2.32202492871761,2.32313153578941,2.32292425455335,2.32493742847158,2.32372335926881,2.32425760873198,2.32425882602487,2.2860931620681,0.0754894511034097,2.28485193775551,2.28392148314873,2.28363890213505,2.28163883356529,2.28262604980972,2.28072802004204,2.28158940243585,2.27999190819655,2.28116864845732,0.0754894511034097,2.28085197531322,2.27979130615415,2.28096121240209,2.2794594372037,2.28133523687621,2.27861137894993,2.28039507417544,2.27911100527158,2.27956077225213,0.0754894511034097,2.27917014501909,2.27973365186648,2.27788401202816,2.27952059847856,2.27728900707153,2.27979734454444,2.2776181637785,2.27924912591593,2.27819750233743,0.0754894511034097,2.27851208276273,2.27793100624019,2.27942997249947,2.27699937157906,2.27906554637014,2.27887725100985,2.27954514831384,2.27856903936822,2.27916496136277,0.0754894511034097,2.27938589787151,2.27891595292495,2.27997146695564,2.27974249850005,2.28077678041512,2.28026425681689,2.28047108152043,2.28089281489166,2.2809784511333,0.0754894511034097,2.28154927131972,2.28128011258573,2.28356392649531,2.28153629816171,2.28358423181013,2.28328694532897,2.28458188435891,2.2851797684312,2.28654797523629,0.0754894511034097,2.28592853477036,2.28778707097441,2.28962700967745,2.34346914334585,2.34319388673491,2.34509478356158,2.34371428288699,2.34466803656363,2.34566142043106,0.0754894511034097,2.34601503517024,2.34711288963707,2.34708525602926,2.34637531119765,2.34452766754679,2.34669088477545,2.34541169656261,2.34523877175547,2.34453029783165,0.0754894511034097,2.3450529200871,2.34550913150089,2.34640940612321,2.34663475335462,2.34685871328596,2.34815170406396,2.34880375580748,2.34909540728288,2.3536863607632,0.0754894511034097,2.35285290318268,2.35367855848062,2.35359490190584,2.35601409880459,2.35374277177172,2.35522840551869,2.35533172742346,2.3556668523858,2.35611644993633,0.0754894511034097,2.35518147701386,2.35571859151206,2.35608397460383
0.0754894511034097,2.31008801568708,2.27095166055072,2.27054779759229,2.26925265583196,2.27034115927929,2.26792248713803,2.27044666759779,2.26884239804587,2.27003646509,0.0754894511034097,2.27049005491336,2.270232898335,2.27054714388597,2.2705068079783,2.27064042485673,2.27110212379526,2.27119212096903,2.27176679623261,2.27186863988625,0.0754894511034097,2.27285902345399,2.2731332623092,2.27384464256165,2.2747491644027,2.27534177417272,2.27659782785607,2.27858731020255,2.27989025468337,2.28196832126919,0.0754894511034097,2.32541858412038,2.32462465393883,2.32499633321521,2.32466181914145,2.32388856208721,2.32390827143624,2.32272813882563,2.32370949489932,2.32066376867206,0.0754894511034097,2.31953514433694,2.31853018121755,2.31894092487997,2.31584878689442,2.31644045461272,2.31519074281782,2.31600954438898,2.3151767602784,2.31574201685839,0.0754894511034097,2.31562407851505,2.31595697141917,2.31626545556746,2.31667517129876,2.31696292623741,2.31777211626349,2.31894037757314,2.31992613465236,2.32022581428194,0.0754894511034097,2.32128269484781,2.32287287389125,2.3221339303831,2.32415770035622,2.32264382015281,2.32336376915816,2.32248769339385,2.32407897384046,2.28650250195138,0.0754894511034097,2.2846767454968,2.28410044460036,2.28385883007468,2.28243722182215,2.28158053434671,2.28252549516888,2.28040995012942,2.2818580204185,2.28056680592981,0.0754894511034097,2.28068613532646,2.28068603768399,2.27987738933044,2.28094822295167,2.27944594226745,2.28088435008463,2.27884181493598,2.27991291565815,2.27911870389563,0.0754894511034097,2.27949585809833,2.27864833741925,2.28059199279836,2.27895282401504,2.28065552480631,2.27798422086135,2.28022780705839,2.27819906354331,2.2790955620452,0.0754894511034097,2.27848011775419,2.27993618349747,2.27763272082162,2.27979819518843,2.27762427116857,2.2804612142523,2.27820749803567,2.2798448922989,2.27957595233829,0.0754894511034097,2.2797207416169,2.2794788886724,2.27960108271505,2.28008061738032,2.28054313286595,2.2801349286089,2.28096070357915,2.28057278983973,2.28133525952811,0.0754894511034097,2.2809670153762,2.28288302370158,2.28178374603958,2.28331260627342,2.28243339959586,2.28388633164336,2.28297007885858,2.28569442013333,2.28603300326927,0.0754894511034097,2.29150987018587,2.28701924389759,2.28941753590068,2.34081179260779,2.34314681909512,2.34423620131706,2.34537022356258,2.3441179315093,2.34650713223216,0.0754894511034097,2.34699840823724,2.3457965754616,2.34665453832744,2.3441487935005,2.34700136002838,2.3462763333733,2.34560611213631,2.34353616602023,2.34540900806079,0.0754894511034097,2.34543846045365,2.34540193772052,2.34696409671972,2.34747236719397,2.34687727926728,2.34780837221892,2.34852731391332,2.34984742632574,2.35455718131586,0.0754894511034097,2.35336376207682,2.35294893459948,2.35535919985084,2.35300176137214,2.35516276251365,2.35366518190059,2.35522334123299,2.35544072002663,2.35664879674586,0.0754894511034097,2.35612579402374,2.35629622287627,2.3566196005415
0.0754894511034097,2.31000819072886,2.27073476042807,2.27041786529564,2.27032453773082,2.26835908423317,2.27019345502096,2.26822934719942,2.27019879174468,2.26970797295651,0.0754894511034097,2.26989670006439,2.27036829199547,2.2701656432725,2.27090074920734,2.27045432197504,2.2710395473827,2.27154217141312,2.27115539353017,2.27211890311735,0.0754894511034097,2.27226354743975,2.27392325307695,2.27353987800387,2.27532255201811,2.27470756064024,2.27669078566603,2.27802942945252,2.2804496748045,2.32556716829608,0.0754894511034097,2.32536650414738,2.32507224234357,2.32491652707628,2.32546693825154,2.32526552539083,2.3237105315747,2.32283007921759,2.32207261181744,2.32068303322113,0.0754894511034097,2.31911829829071,2.31882634591564,2.31847108272156,2.31645911828089,2.31571583601858,2.31676613003501,2.31534188552154,2.31597784498557,2.31554988062569,0.0754894511034097,2.31576013679357,2.31939591728908,2.31643056023087,2.31603331757544,2.31741240186963,2.31774160208971,2.32000417100952,2.32002438144753,2.32068195078782,0.0754894511034097,2.3217746584127,2.32212866890609,2.3233763541041,2.32227756909854,2.3246161802904,2.32230715585349,2.32371689718076,2.3235897817908,2.28686145841974,0.0754894511034097,2.28463056214851,2.28431167359151,2.28471983237234,2.2824346825744,2.28263004577985,2.28158369638253,2.2815939501863,2.28078575593914,2.28118316945136,0.0754894511034097,2.28087415985267,2.28072126942011,2.28103841551956,2.27962570250828,2.28048769391722,2.27944630308973,2.28002162240671,2.27928488816426,2.27939867302988,0.0754894511034097,2.2791522635381,2.27961514598885,2.27857098009839,2.27968907134476,2.27909705279039,2.27972414755082,2.27773661435936,2.27940928571596,2.27882106303082,0.0754894511034097,2.27858264043807,2.27766000338156,2.27949964709918,2.27757971052524,2.2808009710321,2.27946536023006,2.28058119235251,2.27860248034683,2.28000442893186,0.0754894511034097,2.27947584637796,2.2798560592142,2.27933282759491,2.28015490476223,2.27939331005476,2.28079787370784,2.27991689927243,2.28133406905443,2.28101781781885,0.0754894511034097,2.28103555120528,2.28250195707649,2.2827985605465,2.28205806204469,2.28436671242593,2.2836506962796,2.28467534158945,2.28475460259384,2.28706313298099,0.0754894511034097,2.2870231038053,2.28673273933139,2.34291192774638,2.34372240301691,2.34312736472018,2.34424090491845,2.34482246182179,2.34586017786163,2.34599702410763,0.0754894511034097,2.34624925507939,2.34765414706079,2.3457196749182,2.34663720839728,2.34443563428136,2.34471675265269,2.34355477241261,2.3463110239589,2.34539302416855,0.0754894511034097,2.34526331733939,2.34548300360914,2.34708411262328,2.34704777864801,2.34790503910436,2.34766959490062,2.34912351797878,2.35129796431079,2.35164208932649,0.0754894511034097,2.35303762857998,2.35412743628558,2.35311952954201,2.35555967420401,2.35291497041875,2.3544415618904,2.35697498102752,2.35681628999251,2.35660448731484,0.0754894511034097,2.35664394073265,2.35687653699589,2.35671850924329
0.0754894511034097,2.27124974982831,2.27063872636187,2.27006800886339,2.26985896202022,2.26977330970786,2.26809608835952,2.26999257277551,2.26874476935299,2.26973040218223,0.0754894511034097,2.2702629262461,2.26966681488016,2.27112667247744,2.27005407949499,2.27126421508348,2.2710428489964,2.27169608002525,2.27166593604145,2.27180158664819,0.0754894511034097,2.27185547225662,2.27317538267116,2.27430607390674,2.27415277864427,2.27615747386863,2.27604731668307,2.27822078988735,2.2810486322569,2.32549697039868,0.0754894511034097,2.32543132284578,2.32470705228197,2.32529535688698,2.3249188950845,2.32469656679739,2.32424622478336,2.32178936947525,2.32146617012788,2.32019337829973,0.0754894511034097,2.32075805303954,2.31813289931187,2.31784598523417,2.31632683164937,2.31609867850252,2.31575683258853,2.31555243764478,2.31544710716134,2.31566593070044,0.0754894511034097,2.31556412127729,2.31524598347375,2.31674897870646,2.31711398952873,2.31715393739975,2.31821072083374,2.31916507312622,2.32001363479549,2.32098517333593,0.0754894511034097,2.32212004196616,2.32296621386384,2.32215575878904,2.32392323954585,2.32319757147845,2.3246025454811,2.3225531596541,2.32371908268495,2.28441949100101,0.0754894511034097,2.28420780305631,2.283269910452,2.28294618648488,2.28210650004395,2.28274452926989,2.28133181301661,2.28076554615937,2.28079230930426,2.28067069643872,0.0754894511034097,2.28043548815827,2.28078751801948,2.28045223820103,2.28039623674046,2.27959237343965,2.27979832495007,2.27942181879424,2.27945935158123,2.27930306881468,0.0754894511034097,2.27884541238881,2.27905451690595,2.27962950664713,2.27806346473682,2.27935730478688,2.2777207431792,2.27929959993703,2.27834232129224,2.27904568029943,0.0754894511034097,2.27863321174519,2.27902562968546,2.27759827002795,2.28013456496239,2.2779310079588,2.28013355989824,2.27791517260735,2.28032541148569,2.27885612358746,0.0754894511034097,2.27947024518447,2.27907863425442,2.28069037268538,2.27932717118973,2.28087403519259,2.28002677368733,2.28132857207613,2.28049246022556,2.28128523046179,0.0754894511034097,2.28078147974832,2.2824689655913,2.28193670138078,2.28301982284846,2.28445555704479,2.28494515274851,2.28410983630495,2.28576908961377,2.28599510546468,0.0754894511034097,2.2865311376624,2.28875932432803,2.34168543674543,2.34106567771525,2.34357865559816,2.34498384977852,2.34563802610156,2.34547684724698,2.34561053769692,0.0754894511034097,2.3471923880376,2.34578502004784,2.34768739341713,2.34485418207588,2.34726108701031,2.34418368319029,2.34544959889784,2.34682655956985,2.34556816519225,0.0754894511034097,2.34522820754784,2.34515523869416,2.34632294894866,2.34656395132186,2.34694590360647,2.3481389045895,2.34961676650213,2.35037178929997,2.35296135997562,0.0754894511034097,2.35253008385613,2.35370964822585,2.35568560746867,2.35293066765455,2.35497078649524,2.35334439090758,2.35582084699832,2.3566091679799,2.35660358707905,0.0754894511034097,2.35640690072658,2.35714319463171,2.30154046817701
0.0754894511034097,2.27206572953777,2.27005063956145,2.27062473963448,2.26936109646992,2.26875959352874,2.26973154425889,2.26801102858468,2.27009788522798,2.26940935152247,0.0754894511034097,2.27007082615797,2.27053875798998,2.26977398042782,2.27102633374732,2.27003777493554,2.27140933669225,2.2709910179027,2.27206559284591,2.27210847027503,0.0754894511034097,2.27202713726351,2.27384660209674,2.27387374118756,2.27441941987798,2.27566146634512,2.27620910690352,2.27833936388795,2.32374885773577,2.32299179224924,0.0754894511034097,2.32438493583871,2.3247677422233,2.32485127980433,2.32462703444733,2.32408380996344,2.32435429218466,2.32114033623971,2.32100657235867,2.32040194583703,0.0754894511034097,2.31845747494834,2.31799198807099,2.31724208264521,2.31647471785697,2.31612549161357,2.31545487624072,2.31541685277722,2.31519926355985,2.31532126150779,0.0754894511034097,2.31553319666124,2.31549917270962,2.31626071653085,2.31585833025097,2.31848577409738,2.31770522494017,2.31912385154301,2.32013337623812,2.32109215682188,0.0754894511034097,2.32224858031121,2.32227337678027,2.32360762235806,2.32238136641559,2.32480487852622,2.32386555647544,2.32274792192699,2.32266845294833,2.28484750784177,0.0754894511034097,2.28414022641309,2.28385103838724,2.28251560207913,2.28258417551844,2.28106658555999,2.28140729088204,2.28032006958518,2.28080046872807,2.28035120360164,0.0754894511034097,2.2805526560531,2.28037677473984,2.28070140475263,2.28019727918426,2.27992908317606,2.27983220286709,2.27947372815901,2.2796322568565,2.2791618883175,0.0754894511034097,2.27888646880042,2.27912363342645,2.27908715412805,2.2790701858123,2.2781477245408,2.27960501964743,2.27792979265265,2.27917270466808,2.2783810728426,0.0754894511034097,2.27904990334018,2.27897194432466,2.27938183819526,2.27811152693501,2.28032192440962,2.27773645236043,2.28021450777014,2.2784568021516,2.27976001306135,0.0754894511034097,2.27904621051152,2.28030788131563,2.27933558331805,2.28042212264316,2.27926662140259,2.28072503093033,2.28050221760256,2.28147474820068,2.28080070568777,0.0754894511034097,2.28109118032558,2.28148950391348,2.28263464063134,2.2830237223195,2.28436166917386,2.28341468045889,2.28466369735858,2.28585044748363,2.28628316217124,0.0754894511034097,2.28871605572942,2.28912685483891,2.34403857820134,2.34097416791628,2.34336159580785,2.34471613837432,2.34545656221589,2.34531287127201,2.34642495059985,0.0754894511034097,2.34656938384149,2.34711202387331,2.3451877883219,2.34749764327951,2.3455191072606,2.34612158658844,2.34326541694572,2.34572500118883,2.34510070648975,0.0754894511034097,2.34483984173004,2.34571444013721,2.34611724943812,2.34656462732947,2.3478523147259,2.34795618464944,2.34934882508673,2.35029439850134,2.35091590482721,0.0754894511034097,2.35208881133477,2.35387906626612,2.35426359995668,2.35470914686825,2.35341527455643,2.35412071509169,2.35649015141272,2.35652505812358,2.35656586507199,0.0754894511034097,2.35653702960015,2.35823335816088,2.29964527058687
0.0754894511034097,2.27091294780883,2.27052768805793,2.26994893645142,2.2692820879212,2.27068593146757,2.26925477840892,2.27016417285402,2.26908013110646,2.2700912038801,0.0754894511034097,2.26994708748593,2.26965645730373,2.2709850466703,2.26974479422299,2.27123810697224,2.27048541239015,2.27155705676198,2.27116381448861,2.27218647219265,0.0754894511034097,2.27245629645467,2.27356386896845,2.27417502989043,2.27441318651029,2.27546471897544,2.27673341629785,2.27841945145229,2.28064423930383,2.32413814110698,0.0754894511034097,2.32399580545693,2.32450970132507,2.3247446812639,2.32477384481049,2.32493771554948,2.32371214018046,2.32426022780415,2.32113841136442,2.32063939684506,0.0754894511034097,2.31945605670815,2.31784610699471,2.31662910899592,2.31635751561435,2.31578907883645,2.3157381678486,2.31532421612323,2.31544976152347,2.31538413896965,0.0754894511034097,2.31544180496121,2.31585570095797,2.31642915989732,2.3173660729561,2.31680495028379,2.31818990416929,2.31879879562339,2.32088855031214,2.32124885059446,0.0754894511034097,2.32176633863897,2.3223848670511,2.3232426256455,2.32441812854671,2.32380922465068,2.32358078821433,2.32153713437542,2.32101877603215,2.28507275527411,0.0754894511034097,2.28415917936846,2.28341579155261,2.28364818426542,2.28139766458263,2.28188831923853,2.28060943340508,2.281307741342,2.28071171141632,2.28083225445367,0.0754894511034097,2.28005213100064,2.28084637715215,2.28045215811659,2.28006763498183,2.28054388211735,2.27919264467801,2.27982778293533,2.27894780776261,2.27913156668191,0.0754894511034097,2.27926456362004,2.2801719383678,2.27921804812372,2.27908521970154,2.27923612330056,2.27814328919801,2.2792293234007,2.27836349565052,2.2788869003461,0.0754894511034097,2.27919808615035,2.27899033402518,2.27896142771595,2.27977118075252,2.27838419698239,2.28004577558045,2.27796714038514,2.28005876246851,2.27919368109431,0.0754894511034097,2.27969213984299,2.27892860025415,2.28035482452315,2.28010093609064,2.28142837365252,2.27920049050025,2.28115862989989,2.28089789231212,2.28117589650482,0.0754894511034097,2.28162147592371,2.28230698604227,2.28179653115499,2.28358905495477,2.28288413886091,2.28423465604309,2.28490089094731,2.28561617526269,2.28909337054013,0.0754894511034097,2.2881652197384,2.28912318313699,2.34714987297349,2.34107723245816,2.34172576226911,2.34564021361495,2.34388567517281,2.34644978377403,2.34623185574484,0.0754894511034097,2.34638944180971,2.34621590455678,2.34686833880337,2.34513581244928,2.34612607585639,2.344260779304,2.34599045813324,2.34462402046636,2.34605590526065,0.0754894511034097,2.34559331570412,2.34594258664262,2.34683353523962,2.34683628116309,2.35016159028035,2.34747989611108,2.34920698202725,2.35058134932968,2.35127575638253,0.0754894511034097,2.3533370384479,2.35295755483897,2.35390536937823,2.35302036602782,2.35808960293386,2.35691950780353,2.3567999699581,2.35664483519438,2.35663165286893,0.0754894511034097,2.35626341510673,2.35876292169505,2.29917743770698
0.0754894511034097,2.27043752956172,2.26991758346034,2.27005037136065,2.26980943197788,2.26945124988309,2.27070785314472,2.27003062737196,2.269971678338,2.26934402441371,0.0754894511034097,2.26986178211268,2.27049075922531,2.27034658421319,2.27159190536543,2.2705941543941,2.27169159396293,2.27103983192282,2.27141990500957,2.27186662986046,0.0754894511034097,2.27296704283073,2.27332251105208,2.27395544543769,2.274360702365,2.27584260967326,2.27697260460054,2.27840864101777,2.28047002582842,2.32505861880117,0.0754894511034097,2.3244679396596,2.32480753161123,2.32478580867467,2.32491789010869,2.32545049276531,2.32312955658159,2.32157607836418,2.3212872187317,2.32034321117754,0.0754894511034097,2.31890150877929,2.31889965807441,2.31674955575556,2.31681043578685,2.31583971472352,2.31576525718857,2.3153431960843,2.31537594889148,2.31558294733997,0.0754894511034097,2.31577949704571,2.31567226724512,2.31689385023077,2.31663420768796,2.31838985459286,2.31800676680509,2.31915433936598,2.32000144435544,2.3216150675578,0.0754894511034097,2.32201847619414,2.32182826350464,2.32468034659704,2.32259254503982,2.32542266456334,2.32327351344515,2.32535771420759,2.3229635988291,2.28473965958797,0.0754894511034097,2.28428131240857,2.28324072439835,2.28325777817214,2.28177623475532,2.28079998550891,2.28180327880488,2.28116108447284,2.28108750421823,2.28098710713992,0.0754894511034097,2.28047832089886,2.28051548127624,2.28079222354147,2.28060927017937,2.27991404440671,2.28060931653642,2.2793583353111,2.27983139387902,2.27931497273985,0.0754894511034097,2.27946059410824,2.27903283060961,2.27997524582385,2.27919875197203,2.27872739827364,2.27900378306089,2.27890407943051,2.27902461974701,2.27851676004548,0.0754894511034097,2.27877725704777,2.27860503110567,2.27913277193249,2.27868439840826,2.27957939648077,2.27861498371705,2.27946984989967,2.27858476934038,2.27946937149801,0.0754894511034097,2.27922360240008,2.28045003469226,2.27965330281919,2.28146879390948,2.27955162024949,2.28104337117336,2.28041177328708,2.28168580384173,2.28230828033682,0.0754894511034097,2.28229038806147,2.28189325541057,2.28297079413362,2.28313681593957,2.28365914623805,2.2844435244179,2.28555970828127,2.28528274077226,2.28604574512247,0.0754894511034097,2.28776087246744,2.29065112483358,2.3462623968775,2.34351219613474,2.34506978630245,2.34414205179283,2.34591714669413,2.34497093759339,2.34694604770058,0.0754894511034097,2.34638243053926,2.34656415745609,2.34628611239041,2.34621508232564,2.34574331155777,2.34683445963989,2.34458745461741,2.34584855484625,2.34536524095969,0.0754894511034097,2.3461248178343,2.34677341830379,2.34653593005029,2.34701404610942,2.34777887781969,2.34860394205249,2.34954974767748,2.35033342673828,2.35110163971879,0.0754894511034097,2.35351085294936,2.35404063147611,2.35312893869592,2.35409411776788,2.35725495546211,2.356752485658,2.35680625703068,2.35676829947353,2.3567121832175,0.0754894511034097,2.35713169658628,2.30143707556438,2.29959615064406
0.0754894511034097,2.27366877091886,2.26960197832082,2.26955346171404,2.26947106678403,2.26990931905089,2.26890461690873,2.26889253510004,2.26935131169534,2.26932859981071,0.0754894511034097,2.2702554253277,2.27000033629378,2.27029244328141,2.27063131990851,2.27089859625361,2.27094602574843,2.27116174515793,2.27191120182644,2.27186565938951,0.0754894511034097,2.27293963362328,2.2731831668588,2.27416255457052,2.2746267357096,2.27592719929578,2.27687357567988,2.27888992581077,2.28082672399098,2.32564613096076,0.0754894511034097,2.32465582258625,2.32484309079477,2.32433447563248,2.32479896602356,2.32370567168815,2.32363733089888,2.32176599479452,2.32141121835339,2.31970879314867,0.0754894511034097,2.31902394857795,2.31780729504844,2.31753774204364,2.31587060319117,2.31707011458731,2.31518987026523,2.31570656777795,2.31524075915369,2.31585057207569,0.0754894511034097,2.31579277486388,2.31626546389215,2.3166025449481,2.31683429909016,2.31784437267978,2.31905728585532,2.31897303988219,2.32013148311161,2.32215221222453,0.0754894511034097,2.32182246901154,2.32296711905332,2.32271171591924,2.32434219008412,2.32438564485794,2.32572325276557,2.32464902150478,2.32285680144823,2.2851224939289,0.0754894511034097,2.28422036934784,2.28285074253204,2.28338688136748,2.28156025391465,2.28239552444905,2.28130891789959,2.28132832346157,2.28106631229916,2.28100273604667,0.0754894511034097,2.28077889287197,2.28085799629633,2.28071690839867,2.28045859374179,2.28060480146488,2.27983591709302,2.28010539850104,2.27945692200525,2.27940260142439,0.0754894511034097,2.27920355913386,2.27998076551027,2.27891510139384,2.27920130206531,2.2791919968558,2.27905130423978,2.27923242186885,2.27913850845537,2.27904093264161,0.0754894511034097,2.27892679765,2.27896383562657,2.27845036691652,2.28004856555928,2.27932680650186,2.28253724460562,2.28007239623901,2.27900614993934,2.27939144318174,0.0754894511034097,2.28020438683953,2.27929417168245,2.28149046385416,2.27875462868299,2.28134521638695,2.27933565024092,2.28103861999498,2.28227615649965,2.28275660450015,0.0754894511034097,2.28164127513543,2.28200754010898,2.28221369674905,2.28361845860463,2.28321021747924,2.28458044815845,2.28452927313262,2.28528476604789,2.28650053809144,0.0754894511034097,2.28813174755516,2.29031905486778,2.34505521481922,2.34455435742809,2.34405416866822,2.34536119399858,2.34487899897715,2.34678996368631,2.34645803623448,0.0754894511034097,2.34656691848763,2.34668415330975,2.34545760295496,2.34595870245858,2.34606066675542,2.34541054310794,2.34574670337951,2.34522750105317,2.35030620298148,0.0754894511034097,2.3464598902089,2.34674133066375,2.34703025254267,2.34733248483845,2.34783731448884,2.34852180863766,2.3512583498037,2.35186926081297,2.3520079033817,0.0754894511034097,2.35344638756364,2.35314341446381,2.35388346177611,2.35599593044343,2.35640374110192,2.35605355256627,2.35718843502008,2.35644459818254,2.35624890726695,0.0754894511034097,2.35813481624303,2.30075112156192,2.29913863825114
0.0754894511034097,2.2699245145314,2.26962142392254,2.26956450436921,2.26911773009343,2.26932256503165,2.26883037337938,2.26984993371547,2.26888362734774,2.26903772494336,0.0754894511034097,2.27039311219954,2.26992498697396,2.27038190956251,2.27018228450484,2.27111517890303,2.27052190860584,2.27134960378684,2.27143555904557,2.27276388662018,0.0754894511034097,2.27291907501882,2.2727439285559,2.27450651648669,2.27470447073945,2.27630475721828,2.27687735662468,2.27951762153008,2.32542275226291,2.32511084273972,0.0754894511034097,2.32501004921193,2.32379155219415,2.32525691741276,2.32402000709931,2.32442539463127,2.32286974814567,2.32176043938765,2.32262222330073,2.32003581071011,0.0754894511034097,2.31802391540701,2.31858641843791,2.31643605624927,2.31730584768194,2.31477417404303,2.31680772120039,2.31466892362555,2.31554178840171,2.31546042015014,0.0754894511034097,2.31557537854146,2.31595274397901,2.31661798861518,2.31686304741354,2.31805938577414,2.3184480961999,2.31918601297593,2.32072634889315,2.3214893851014,0.0754894511034097,2.32239696888027,2.32167067473537,2.32435887294391,2.32219088166867,2.32518998253816,2.32398303684204,2.32310095054266,2.32277087563861,2.28508118962285,0.0754894511034097,2.28403496371232,2.28329703525272,2.283744504305,2.28194199989729,2.2811439877095,2.28137738127359,2.28099555968812,2.28082865634316,2.28091822109352,0.0754894511034097,2.2803119158779,2.2805516022953,2.28024031442758,2.28052454369197,2.28009812316221,2.28016025564372,2.27974794370803,2.27980739178399,2.27943083269494,0.0754894511034097,2.27963874107125,2.27899277024926,2.27946187874142,2.27893389251805,2.2791971793811,2.27917092919033,2.27894002376515,2.27907785026873,2.27858462898381,0.0754894511034097,2.27919126122108,2.27841233888392,2.28006259972449,2.27732463096643,2.27880678049614,2.27836539954744,2.28035886887153,2.27877871940045,2.27978226978053,0.0754894511034097,2.27948632740122,2.280979288297,2.27941525912798,2.28172385180436,2.27936631867208,2.2814801597013,2.28030767274342,2.28231475048826,2.28216652001171,0.0754894511034097,2.28165000958069,2.28295287475234,2.28306008589936,2.28280397053624,2.28463600713231,2.28410124525444,2.28530356034719,2.28532386225438,2.28669357571548,0.0754894511034097,2.28830534867219,2.34431601463667,2.34456580452588,2.34359526576903,2.34497283441033,2.34422517757985,2.34646584586023,2.34578879847147,2.34678692450953,0.0754894511034097,2.34627610473453,2.346160284399,2.34629329512307,2.34569192360493,2.34606279666951,2.34587662282599,2.34528858645561,2.34622539518105,2.34659968685326,0.0754894511034097,2.34686967565278,2.34610214175796,2.34715844278741,2.34713553129118,2.34834014782352,2.34895308911448,2.35322474377932,2.35172925236578,2.35217925732034,0.0754894511034097,2.3526866077172,2.35299489736462,2.35439959658181,2.35678990008537,2.35553666176103,2.35715439888592,2.35600965585582,2.35724107483924,2.35896683291762,0.0754894511034097,2.30163032999817,2.29964658017433,2.29717121270676
0.0754894511034097,2.26987627695041,2.26957926650784,2.26966200960641,2.26943383908467,2.26920157307872,2.2704747118197,2.2689238248103,2.2705244847891,2.26929527039435,0.0754894511034097,2.27009700761268,2.2700911195773,2.26989123991355,2.27096015181574,2.26977180593705,2.27142604634435,2.27089977769601,2.27199568513601,2.27195867260078,0.0754894511034097,2.27282466649701,2.27386114335908,2.27382866382738,2.27565298854282,2.27642286506553,2.27772839588453,2.27968669113583,2.32463593123303,2.32491682395402,0.0754894511034097,2.32481113350926,2.32559195334579,2.32409534208718,2.32588518119318,2.32522122204233,2.32276955675641,2.32106961862574,2.32044336922894,2.32042189226899,0.0754894511034097,2.31929225136484,2.31756471847731,2.31752923817659,2.31535407245773,2.31658831931926,2.31481656070437,2.31599690905993,2.31490302676299,2.31565397887,0.0754894511034097,2.31558399450159,2.31549386912867,2.31723245440717,2.31714434756782,2.31783932209001,2.31929245180953,2.3198003585541,2.32053812222371,2.32150059056165,0.0754894511034097,2.3220250031774,2.32283394575867,2.32394837238706,2.32547817190072,2.3235574015827,2.32289638950617,2.32242752686213,2.32389036869713,2.28461088843961,0.0754894511034097,2.28390895493193,2.28315082877019,2.28465089029322,2.28176090395148,2.28184347077469,2.28081703816889,2.28118415689035,2.28109885694168,2.28103715193512,0.0754894511034097,2.28062577466767,2.28036518919276,2.28017795235963,2.28004898910074,2.28007804350756,2.28009595500277,2.27979364486544,2.27954263424135,2.27938158182554,0.0754894511034097,2.2795532791564,2.27938162718479,2.27929552448678,2.27949413980783,2.27912674864264,2.27888536885658,2.27931147692854,2.27943235015405,2.27820102528309,0.0754894511034097,2.27874412229965,2.27988806236682,2.27801506453147,2.27876633727805,2.27745947101401,2.27848571675348,2.27925191391257,2.28000694868609,2.27968829930099,0.0754894511034097,2.28016551134038,2.27933419806845,2.28101468720549,2.27919596811163,2.28120485454282,2.28050138488844,2.28143319590074,2.2812095146434,2.28218599836619,0.0754894511034097,2.28283353627949,2.28295638614485,2.28266098570176,2.28366063118164,2.28367662652728,2.28450810711293,2.28587975236532,2.28767180312875,2.28849918452271,0.0754894511034097,2.290466767797,2.34156127443689,2.34125210838276,2.34391334686352,2.34471707366188,2.34571959695946,2.34574325436787,2.34708860082105,2.34781514701012,0.0754894511034097,2.34609735111312,2.34504449069077,2.3460569859777,2.3465319582361,2.34556379483865,2.3457495858556,2.34543467136508,2.34578559949662,2.34665701510838,0.0754894511034097,2.3463178184336,2.34683448177467,2.34712721269226,2.34853551047241,2.34834548419872,2.35386338367255,2.352795875159,2.3525393037922,2.35228062129611,0.0754894511034097,2.35254355934008,2.35348262316179,2.3603474375608,2.35762905821099,2.35677477985739,2.35597444391795,2.35713875403227,2.35676968140261,2.35366762962668,0.0754894511034097,2.30074219143238,2.30274882626902,2.29808031162389
0.0754894511034097,2.27000608532582,2.26942196352677,2.26929808726194,2.26871990734315,2.26992021302343,2.26864365764576,2.27017013890351,2.26861675742987,2.269801920712,0.0754894511034097,2.26967982785911,2.26951116804564,2.27054153041983,2.26964313066585,2.27129676784649,2.27043325768049,2.27189717341733,2.27114880227232,2.27196550657971,0.0754894511034097,2.27285428738358,2.27333538905081,2.27442207878343,2.27546265707525,2.27729961896676,2.2780087524938,2.2796102368941,2.28151058458469,2.32474558207637,0.0754894511034097,2.32522246766558,2.32470017317153,2.32586098285673,2.32551793860998,2.32601424963755,2.32323732355975,2.32083447292212,2.32074219467752,2.3200939200194,0.0754894511034097,2.31865256616979,2.31840433941112,2.31596313566904,2.31782607635013,2.31486214810272,2.31661343301047,2.31490765281218,2.31575834941635,2.31536292322827,0.0754894511034097,2.31600751792968,2.31617871465725,2.31681207310458,2.31730548731687,2.31816177763628,2.31951744839935,2.31989171450893,2.3208153395164,2.3210102274639,0.0754894511034097,2.32266456857599,2.32186482449479,2.32543909813695,2.32332657678138,2.32448089783093,2.32124689030293,2.32385607588862,2.32303425945672,2.28514391138905,0.0754894511034097,2.28340751924587,2.28357497138876,2.28215609596645,2.28288379096068,2.28137434467079,2.28182963824233,2.28095131649604,2.28138238487225,2.28063388400476,0.0754894511034097,2.28069806242451,2.28057585724439,2.2803937648193,2.2802874491196,2.28064082695472,2.28002604261835,2.27991101767469,2.27959500733463,2.27961700580672,0.0754894511034097,2.27982748562183,2.27997021683391,2.27929983426477,2.28018805622465,2.27877618096465,2.27993184957673,2.27895820315439,2.27930144617594,2.27889386990597,0.0754894511034097,2.27990714339373,2.27808586369106,2.2806187266799,2.27752530287971,2.27943323958066,2.27999099768167,2.28288081006558,2.27936744127624,2.28070987204013,0.0754894511034097,2.28044885536055,2.28096061617149,2.28092020706715,2.28088763757105,2.27996555471026,2.2811501239472,2.28086702051416,2.28161043581278,2.28326876034196,0.0754894511034097,2.28260997794961,2.28245538041821,2.28318818396751,2.28301610437823,2.28398451396398,2.28439011551918,2.28512108972351,2.2872062662537,2.28894318002263,0.0754894511034097,2.34128652857984,2.34059855891373,2.34204006794669,2.34409714023612,2.34406522280912,2.34598372161637,2.34638740870723,2.34685105226917,2.34713329661713,0.0754894511034097,2.3459487469897,2.34580756864233,2.34615372996426,2.34659088328854,2.34635931751515,2.34599330859241,2.34578521902837,2.3464180172007,2.34741498553128,0.0754894511034097,2.34671791871815,2.346366767207,2.34733919511474,2.34834190876456,2.34854358867794,2.35104965386165,2.35214115211597,2.3515264965121,2.35212879380696,0.0754894511034097,2.35257200178499,2.35415967738153,2.35660315816068,2.35754600712271,2.35604392028228,2.35733014097381,2.35645809124512,2.35695983241232,2.35657652581592,0.0754894511034097,2.29906742953678,2.29853043566915,2.29721045490715
0.0754894511034097,2.26957342857945,2.26951088743921,2.26902938447722,2.26917493592749,2.26824521106116,2.26979656400067,2.26828537904576,2.2699969160148,2.26971899735243,0.0754894511034097,2.26976177868832,2.27028927471266,2.2700288990923,2.27086207208124,2.27005888319869,2.2713601846797,2.27091594945812,2.27201373925599,2.27194409669026,0.0754894511034097,2.2734398354339,2.27413698671952,2.27370491429805,2.27486764513314,2.27677066054106,2.27863168327983,2.27974592662038,2.32334842706902,2.32450708991923,0.0754894511034097,2.32507672571734,2.32575012896941,2.32569249198808,2.32692998091123,2.32488672753238,2.32346562109141,2.323864321239,2.32058460463727,2.32035873092016,0.0754894511034097,2.31889868947453,2.31792904919854,2.31698207878705,2.31561178654667,2.31680708059635,2.31479032388496,2.31623094884043,2.31570332181844,2.31571138601364,0.0754894511034097,2.31589333832285,2.31633277290731,2.31681185608223,2.31754830303604,2.31809042803231,2.31947538666675,2.31990349849269,2.32122862116251,2.3218480083424,0.0754894511034097,2.32248465990177,2.32308802071519,2.3233546928959,2.32419106890547,2.32114936924256,2.3213721545181,2.3222153123058,2.32285756836188,2.28498261872269,0.0754894511034097,2.28340360919548,2.2826882381569,2.28285907270538,2.2814656420377,2.28247165030645,2.28119131678379,2.28221268346414,2.2816001861156,2.28100226232256,0.0754894511034097,2.28048112126101,2.28050374980053,2.28075483137245,2.28031189563122,2.28012873610421,2.28052467194312,2.2797302507083,2.28013162904624,2.28009407047288,0.0754894511034097,2.27992374673599,2.27979831536869,2.28010959560398,2.27888425643922,2.28009028573032,2.2791277050198,2.28014038651684,2.27918016330828,2.27923073050034,0.0754894511034097,2.28024767715123,2.27959946127825,2.27771061337794,2.27981634382453,2.28016781310061,2.28065936391638,2.27838809036252,2.27984133154983,2.27874219082433,0.0754894511034097,2.28115985037473,2.28030529819782,2.28070981021761,2.28078845220039,2.28075143796622,2.28087629194856,2.28018981338657,2.28218645242082,2.28190269668995,0.0754894511034097,2.28228757202184,2.2830721746963,2.28296553596212,2.28365277245581,2.28358162793029,2.28379908076013,2.28530495831737,2.28460693588146,2.28872164796825,0.0754894511034097,2.34598400569049,2.34443663539671,2.34386869397749,2.34418733877562,2.34440440934272,2.34518998696483,2.34691047651423,2.34662254942038,2.34713913159805,0.0754894511034097,2.34658245694354,2.34644296129575,2.34673840100779,2.34645217888072,2.34636448293117,2.34654195183601,2.34643064333705,2.34670869710444,2.34704639715719,0.0754894511034097,2.34670946458327,2.34704789531533,2.3476113489147,2.34953964341075,2.34986162555624,2.35093158526691,2.35058940621373,2.35222710532199,2.35442126460466,0.0754894511034097,2.35422490272201,2.35590546347986,2.35746403420861,2.35628230078601,2.35753262105565,2.35625438511555,2.36064732847287,2.35582048912677,2.3042833034103,0.0754894511034097,2.29897371953628,2.29808027083474,2.29779761230214
0.0754894511034097,2.26986682551284,2.26950716948656,2.26965101741669,2.26911630313536,2.26954551944738,2.26836069520998,2.2696828599754,2.26871109677955,2.26997072667678,0.0754894511034097,2.27018402049216,2.27010609491306,2.27053559030869,2.2699524537122,2.27055553635034,2.27079783842148,2.27154181454873,2.27191975613262,2.27225790538149,0.0754894511034097,2.27417030143587,2.27311960417101,2.27510354655659,2.27434237142796,2.27592357666629,2.27840520106433,2.28047952770541,2.32389204765354,2.3246036413677,0.0754894511034097,2.32569842836126,2.32683834414553,2.32595636806306,2.32640562540579,2.32460927460659,2.32323872570712,2.32163501958263,2.32103281430574,2.32063645443117,0.0754894511034097,2.32153298080627,2.31823445011335,2.31705908252875,2.31627062730293,2.31502416456629,2.31683213953327,2.31529560785803,2.31575944876257,2.31559190314846,0.0754894511034097,2.31633140265748,2.31695035296645,2.31715733499673,2.31790186232187,2.31824176565779,2.32026359950942,2.32050683069254,2.32171263087002,2.32195069862267,0.0754894511034097,2.32249962832671,2.32294323481087,2.32540132316737,2.32367274371893,2.32219218427438,2.32271089218127,2.3233473720851,2.28636148706689,2.28464123193935,0.0754894511034097,2.28382383399073,2.28363596548872,2.28194220308129,2.28287399962296,2.28147978166031,2.28217762991296,2.28120064977024,2.28196548985898,2.28093173099926,0.0754894511034097,2.28102092127924,2.28057853013964,2.2805162180409,2.28058273187999,2.28035557313962,2.2803475038873,2.28045652333367,2.27962900599097,2.27968298479931,0.0754894511034097,2.27986210450377,2.27992204266128,2.27955238663517,2.27993240970814,2.27911250616368,2.28000116472814,2.27895550285371,2.27953112516183,2.27935143665784,0.0754894511034097,2.27986193613437,2.27836793209504,2.28059424776878,2.27771485957178,2.28174271635414,2.28008571442862,2.28080495928732,2.27846076930029,2.27965043189616,0.0754894511034097,2.28002884008928,2.28005776243742,2.28048186466946,2.28056648776482,2.28217989192524,2.28037665437072,2.28121030434533,2.28221959706121,2.28277098100875,0.0754894511034097,2.28221200576444,2.28242752998678,2.2833524722457,2.28339127979194,2.28430999307691,2.2859879014501,2.2879538375714,2.28971726014249,2.28897360733058,0.0754894511034097,2.35062604977168,2.3502047972914,2.34771806070911,2.34447328846672,2.34524299910906,2.34570054030571,2.34698675757788,2.34737280920765,2.34746576071462,0.0754894511034097,2.34984024483797,2.34686290251038,2.34663775379239,2.34680923938151,2.34622526022067,2.34627817569975,2.34662209718689,2.34642584403115,2.34726495549007,0.0754894511034097,2.34715626266301,2.34737706066331,2.35064064036596,2.35028100786635,2.35032499735267,2.35019373738659,2.35065098118564,2.35177463606881,2.3540275482416,0.0754894511034097,2.35620570867132,2.35584007368011,2.35703379802604,2.35758731590978,2.35609225338072,2.35661983845168,2.35580910599838,2.35584951908177,2.30095766339469,0.0754894511034097,2.29793280490681,2.29862512610142,2.29667351468558
0.0754894511034097,2.2702874319549,2.26939566972752,2.2689388319896,2.26930947350438,2.26852327481124,2.26908020818599,2.26889348803494,2.2698653693215,2.26964319156305,0.0754894511034097,2.2698297892287,2.26992087622676,2.27109814047843,2.27031971621141,2.27081854973807,2.27060893270129,2.27189948333853,2.27164060680865,2.2721787017273,0.0754894511034097,2.27318608824212,2.27384170836958,2.27388775061722,2.27522279854272,2.27647471890424,2.27777986291725,2.27972472220246,2.32377746692771,2.3255993996486,0.0754894511034097,2.32648827756103,2.32591866566498,2.32736519918935,2.3263214102815,2.32965397306684,2.327102338021,2.32280108972419,2.32077691776993,2.32068896803062,0.0754894511034097,2.31934987216147,2.31738949310451,2.31813669508243,2.31605765437308,2.31686856228568,2.31529344460542,2.31625315624181,2.31570751854324,2.31593173421969,0.0754894511034097,2.31619718733814,2.31686869289838,2.3172004292199,2.31839745341208,2.31860538569664,2.31931475133808,2.3210134688392,2.32131518915802,2.32218543100848,0.0754894511034097,2.32236731736458,2.32432065365247,2.32366387506445,2.32527012830147,2.32536627284202,2.32287171269311,2.32306573185048,2.32387058261775,2.28415264520013,0.0754894511034097,2.28412037373554,2.28274149388079,2.28315469701815,2.2829788614907,2.28211404460756,2.28056485283557,2.28236600658081,2.28030907083918,2.28108764201777,0.0754894511034097,2.28088032536251,2.2807783489995,2.28134142419735,2.28022224255835,2.28074252257763,2.28053739438377,2.28039194479894,2.27998164087239,2.27973458302505,0.0754894511034097,2.27945753808261,2.27958319001224,2.27897154152739,2.2798961047475,2.27990423929151,2.27919147173905,2.27996713454229,2.27893267412302,2.27952342554151,0.0754894511034097,2.27890992154297,2.27992084407774,2.27799013103375,2.28080184775068,2.27837719287646,2.28072671539588,2.27852487147088,2.28085069859226,2.27940647630033,0.0754894511034097,2.28050967817801,2.27995343036583,2.28030194099121,2.28113398543556,2.28036769120708,2.28270983956111,2.28115562155972,2.28309843703778,2.28224727396716,0.0754894511034097,2.28277414306195,2.28262513489524,2.28391213801736,2.28393580520041,2.28390873737753,2.2858457321523,2.28616105634107,2.28799710098871,2.28840917752366,0.0754894511034097,2.2920940833151,2.34781785313435,2.34710132953745,2.3462936036974,2.34519919216829,2.34669401942977,2.34809467407522,2.34677661196222,2.34685008121207,0.0754894511034097,2.34701580760925,2.3465903431024,2.34714830317917,2.34583807950068,2.34628597999523,2.34630918242928,2.34626629244906,2.34707693034682,2.34745785178288,0.0754894511034097,2.34732835654185,2.34783137299347,2.34823918959812,2.35041514504175,2.34997859339646,2.35086379914081,2.35302775119289,2.35610492565579,2.35372615182603,0.0754894511034097,2.35572733020626,2.35567801617207,2.35661773570691,2.35622803001207,2.35705321656623,2.35554919938128,2.35567671721948,2.35631305155594,2.30000388497101,0.0754894511034097,2.29862551819269,2.29701083350252,2.29826366366205
0.0754894511034097,2.27051781054354,2.26918107199649,2.26924784610718,2.26886843001163,2.26903353284759,2.26889195814407,2.26960301721916,2.26923882172066,2.26987584491265,0.0754894511034097,2.26975440760268,2.2702437973077,2.26982325467,2.27101111647863,2.27008141161196,2.2715359923869,2.27086369491769,2.27229086158559,2.27188346562395,0.0754894511034097,2.27357682322141,2.27308048681174,2.27457365556677,2.27445198432462,2.27668402782523,2.27834023697291,2.27971023205891,2.32363780706839,2.32455399103498,0.0754894511034097,2.32529071420961,2.32697253365615,2.32578751909913,2.32780158018931,2.32634936706403,2.32635869889559,2.32248713652975,2.32117804173345,2.32100408996639,0.0754894511034097,2.31901429422919,2.31832270609333,2.31789954326577,2.31682762802305,2.31525413470472,2.31658597017747,2.31595516475253,2.31606623885875,2.31638647808948,0.0754894511034097,2.31697870501719,2.3169951006361,2.31773908753334,2.31812888200498,2.31843120731572,2.31984271094751,2.32111157296675,2.32172908212428,2.32221444803563,0.0754894511034097,2.32363518240247,2.32232371818276,2.32442095586344,2.32298947134575,2.32565796043329,2.32269298325334,2.32443394706274,2.28502845444606,2.28495701974146,0.0754894511034097,2.28418014716035,2.28382507257113,2.28179045070347,2.28278919805006,2.28095051357311,2.28227169512621,2.28014718072531,2.28153041120345,2.28064901699983,0.0754894511034097,2.28051716120365,2.28176109274122,2.27997836501561,2.28167259723742,2.27959979854047,2.28075410110682,2.27959665871162,2.28006208819604,2.27995485265951,0.0754894511034097,2.27975182249063,2.27903096510376,2.28036187188046,2.27942553938638,2.2799410542616,2.27932188516573,2.27921103663489,2.27949672034874,2.27885122140771,0.0754894511034097,2.27988261870215,2.27882522345134,2.27980053739466,2.27828540666464,2.28091634218434,2.27863830424858,2.28108422076472,2.27940270915763,2.28059527723868,0.0754894511034097,2.28037335735055,2.28048272804687,2.2808838773168,2.28044935014817,2.28157733348383,2.28080098368122,2.28291520181917,2.28143225958795,2.28347655983151,0.0754894511034097,2.28277239738409,2.28281924346344,2.28388450273038,2.28279765823588,2.28454874725041,2.28772162015745,2.28735989639204,2.28734275888643,2.28786719337257,0.0754894511034097,2.34437324368305,2.34606226138898,2.34446826692289,2.34565966294978,2.34682047688716,2.34720903158193,2.34685473702951,2.34761565162352,2.34653117108274,0.0754894511034097,2.34654073572745,2.34733987638745,2.34620437176445,2.34618939323879,2.34654280852774,2.34639464706445,2.34665385946728,2.34726172539868,2.34756680928314,0.0754894511034097,2.34836529764732,2.34777578303665,2.34886726214935,2.34952641477408,2.35037710533146,2.3514002415678,2.35207582604192,2.35476603690163,2.35669320701867,0.0754894511034097,2.35562403591073,2.35610319161426,2.35598381328622,2.35658804860167,2.35683546978894,2.35512461878737,2.35474942405594,2.35488892723305,2.30201543639975,0.0754894511034097,2.29785795877188,2.29775772231595,2.29653758803665
0.0754894511034097,2.26908712611558,2.26899660552867,2.26947562075103,2.26903417328896,2.26978421481622,2.26915993960252,2.26970913893474,2.26962284436468,2.26995173963359,0.0754894511034097,2.27011089169106,2.26958768702128,2.27082079221703,2.26971625590091,2.27147521606338,2.270195200539,2.27246385715289,2.2714930482255,2.27246677164953,0.0754894511034097,2.27299681942001,2.27376827368636,2.2747050835033,2.27494292840632,2.27666538225223,2.27775604305271,2.27957471076876,2.32353934759375,2.32396448756533,0.0754894511034097,2.32546408281218,2.32566294878778,2.3278226481386,2.32542730098838,2.32743524346314,2.3258452889102,2.321893028651,2.32150222395878,2.32160375426455,0.0754894511034097,2.3200954590321,2.31830945228691,2.31900633229607,2.31661561829651,2.31656299644292,2.31570424763302,2.31630441648863,2.31622029837397,2.31665366738502,0.0754894511034097,2.31706484126773,2.31757642755136,2.31747143884045,2.31841818762173,2.31839878887713,2.32001979960774,2.3205557749856,2.32226873478981,2.32265644878962,0.0754894511034097,2.32296396726762,2.3240184197921,2.32446081120176,2.32624812885631,2.32414106629492,2.32396474719283,2.32345388917386,2.32514932816016,2.28497242305268,0.0754894511034097,2.28475373912759,2.28332327135915,2.28329322444418,2.28160863238127,2.28331524169974,2.28036415149074,2.28186960445685,2.28005550848361,2.28181981510089,0.0754894511034097,2.28089758709674,2.28000229315948,2.28098833255448,2.2799093758187,2.28178038950025,2.27921446673458,2.28089070760626,2.27967489971452,2.28016436264878,0.0754894511034097,2.27948245512533,2.28108552328786,2.27889353619498,2.28108358159669,2.27929273352914,2.27980601358018,2.27992369013404,2.27932210911456,2.27912021707524,0.0754894511034097,2.28000218061532,2.28003801817842,2.27939078950461,2.27992355282639,2.27862876310496,2.28014052907326,2.27911832554758,2.28077481444697,2.28069823991315,0.0754894511034097,2.28043848205413,2.28065084665473,2.28116927248164,2.28073141798629,2.28108289360051,2.28213572666395,2.28093616625281,2.28309350450776,2.28234520369773,0.0754894511034097,2.28213764037778,2.282887243234,2.28386919622663,2.2846038215154,2.28485260519942,2.2850370261527,2.2876815379813,2.28779395317791,2.34452800921491,0.0754894511034097,2.34621688875126,2.34570475202319,2.34492710665027,2.34575080416043,2.34736229918165,2.34686223251236,2.34780388420634,2.3473302793112,2.34762708335073,0.0754894511034097,2.34700417505057,2.34689040051596,2.34979248833341,2.34603178914442,2.34752905356763,2.34789291583178,2.34767956744255,2.34722953607706,2.34738452733933,0.0754894511034097,2.34804333325974,2.34835748012026,2.34945192952056,2.34954824959029,2.35109920413943,2.35150092002116,2.35196415840477,2.35499281799538,2.35553646219284,0.0754894511034097,2.35620471199198,2.35581743716532,2.35704346382365,2.35602862054786,2.35709974462583,2.35497216229359,2.35514612275937,2.30271483711698,2.2992091712315,0.0754894511034097,2.29814890911964,2.29746363305378,2.29563363254473
0.0754894511034097,2.26916944812804,2.26932936191496,2.26861733785218,2.26935199870724,2.26915275955182,2.26941172254431,2.26925903108222,2.26972181983659,2.27014214183376,0.0754894511034097,2.26985122079512,2.27027308969877,2.26964368540048,2.27122310506009,2.26994612289605,2.27211308387284,2.27088367680222,2.2725777199714,2.27194770579374,0.0754894511034097,2.27316995004201,2.27328822922333,2.27457016245782,2.27476197695066,2.27663686976509,2.27757644904094,2.27937819801246,2.3235946419279,2.3238827232902,0.0754894511034097,2.32621425162301,2.32757421172153,2.32559495540694,2.32564180583865,2.32518750944999,2.32656260876044,2.32111663628155,2.32191575844126,2.32190891026149,0.0754894511034097,2.31949365812767,2.31941557529284,2.31784997435972,2.31949614161851,2.31602110702385,2.31683960727869,2.31559694172505,2.31648774450964,2.31621351501831,0.0754894511034097,2.31749272127212,2.31712136594933,2.317838798122,2.31916434499255,2.31946476931559,2.32065907430552,2.32150210745268,2.32212778086431,2.3231875287031,0.0754894511034097,2.32329923804909,2.32361707858289,2.32655842356439,2.32464626964824,2.32661350705251,2.32454702603236,2.32473528698241,2.32581916028055,2.28492813157788,0.0754894511034097,2.28455588040156,2.28457999383388,2.28286999401772,2.28285637385115,2.28129607835987,2.2827301551056,2.28075714089345,2.2815851952521,2.27845257219303,0.0754894511034097,2.27841680173954,2.2806355147636,2.27961349060453,2.28173901989949,2.27975364798512,2.28177035764011,2.27935812020641,2.2806572269349,2.28021029128866,0.0754894511034097,2.27990344719699,2.27903449346254,2.28110701860425,2.27847557007022,2.28068326678448,2.27944123899844,2.27959653498446,2.27986370426435,2.27981067616432,0.0754894511034097,2.27972947109197,2.27925418923574,2.28002533125244,2.27907141809526,2.27998297376683,2.27947532585945,2.27983052569539,2.27979686114866,2.28055390918269,0.0754894511034097,2.28034428488923,2.28053509107135,2.28083238659697,2.28185301048389,2.28181070766446,2.28183790858162,2.28198192729569,2.28191290250082,2.28218490711475,0.0754894511034097,2.28244660951935,2.28270605332505,2.28451303037693,2.28436928142876,2.28582083014643,2.28628636403785,2.28687564262902,2.28729712178159,2.34829645243924,0.0754894511034097,2.34782054528559,2.34680180483137,2.34527056494048,2.3457944992136,2.34657341931715,2.34752789587198,2.34773658936234,2.34803503985176,2.34787391057974,0.0754894511034097,2.34683920752222,2.34628068394289,2.34916722889559,2.34741902826301,2.34694154654057,2.34795416180362,2.34694105585029,2.34767883445288,2.34716609212214,0.0754894511034097,2.34820905469476,2.34789946561757,2.34990891478965,2.34996778260906,2.35188574571568,2.35225891112378,2.35295048351802,2.3547181468545,2.35536152268706,0.0754894511034097,2.35651225205286,2.35665229773741,2.3556939375298,2.35675566603833,2.35641350181522,2.35463070214341,2.35570677289225,2.3011550389619,2.29852614105098,0.0754894511034097,2.29755490608809,2.29646638548201,2.29590384874281
0.0754894511034097,2.26930560504635,2.26839631272991,2.26954100476321,2.26887122743871,2.26991049954428,2.26990597728258,2.26943458407331,2.26941404766252,2.26986991381831,0.0754894511034097,2.27016172734634,2.26983093721683,2.27104000833486,2.27013790065008,2.27167956604405,2.27023457381374,2.27177373599052,2.27148358227841,2.27237303141591,0.0754894511034097,2.27261907881661,2.27344959201415,2.27393959235341,2.27543523279333,2.27667875683514,2.27804725965768,2.27984174183975,2.3243924910631,2.3263739380548,0.0754894511034097,2.32706229503799,2.32581056455199,2.32650300157191,2.32512326260844,2.32643981728356,2.32394887559394,2.32187193690689,2.32165929622137,2.32158315131908,0.0754894511034097,2.31934378653218,2.31938011280875,2.31810057329064,2.31833059681659,2.31814968324396,2.31605034153437,2.31684164373259,2.31669413343397,2.31649855710305,0.0754894511034097,2.31761056518502,2.31788502590939,2.31780467046271,2.32016707212384,2.31999512177839,2.32053986615764,2.32178574284156,2.32240510457344,2.32272037989277,0.0754894511034097,2.32376705575326,2.32455349058038,2.32433927347228,2.32481663460394,2.32445007695715,2.32545063578324,2.32122677868035,2.28492865049865,2.28456688147704,0.0754894511034097,2.28424407483741,2.28381985520115,2.28402286885412,2.28205323746949,2.28326991505684,2.2821944824494,2.28194392268459,2.27617532376328,2.27550718637431,0.0754894511034097,2.27627592172697,2.27844637006851,2.28048041017158,2.27989056824942,2.28282745870761,2.27898653329743,2.28092141377908,2.2803270252851,2.28112369678732,0.0754894511034097,2.27976131249507,2.28099051332088,2.27909015576138,2.28045574482325,2.27882504158773,2.27968851678186,2.27998788544745,2.27934537424498,2.2798685991635,0.0754894511034097,2.27965298961333,2.27988188622608,2.27950406361452,2.27982292752225,2.27957127228136,2.27981560705072,2.27972188404151,2.28032186587874,2.28101091509799,0.0754894511034097,2.28112697996336,2.28071221466057,2.28244484109835,2.28086393175466,2.28255416204564,2.28172467396485,2.28185745336495,2.28234556754012,2.28236132359617,0.0754894511034097,2.28216825390519,2.28369344387819,2.28387801336735,2.28472181781749,2.28539495496164,2.2860272617697,2.28617745593584,2.28914150177176,2.3479089501236,0.0754894511034097,2.34696666722816,2.3464059320992,2.34598668854258,2.34650823665322,2.34622992697384,2.34793026414741,2.34782936813779,2.34667840910253,2.34749370898007,0.0754894511034097,2.34619337890062,2.3459203502361,2.3487244106633,2.34748287334924,2.34768247305091,2.34673167571956,2.34794542057542,2.34692460991001,2.34726505402251,0.0754894511034097,2.34771280382989,2.34823812718956,2.349246035359,2.35326709468196,2.35215530810869,2.35231399287191,2.35411176683979,2.35443074996962,2.35622049079953,0.0754894511034097,2.35735521122117,2.35576160843254,2.35689103319535,2.35534910001748,2.35683432069228,2.35593440894155,2.3537908472093,2.30110203084102,2.29829991276049,0.0754894511034097,2.29665300513717,2.29710310450491,2.29534713656607
0.0754894511034097,2.26902259837187,2.26937087668885,2.26842972521478,2.26887383280856,2.26968312438747,2.26941457183731,2.269364185065,2.26925862732622,2.27000005774921,0.0754894511034097,2.26980866626332,2.27030409519864,2.2700451753748,2.27125491850434,2.27020782680189,2.27131420103054,2.27079977599329,2.27182355868681,2.27256539581677,0.0754894511034097,2.27267802058757,2.27323843726931,2.27400509741872,2.27536935322017,2.2773880772429,2.27806466780999,2.27972238082584,2.32469376596209,2.32701100182521,0.0754894511034097,2.32746859163663,2.32913236162268,2.32945939554806,2.32936543063743,2.32517430304371,2.32498416170316,2.32221947374328,2.32123259282047,2.32090247887599,0.0754894511034097,2.31917000389783,2.31789884245863,2.31814690546201,2.31693899158013,2.31629814106151,2.31711155932678,2.31622083834663,2.31693940483751,2.31641198398697,0.0754894511034097,2.31709951484707,2.31792156792047,2.31891056695501,2.31884712601315,2.3202582875568,2.32013839301718,2.32208840839862,2.32254030121027,2.32309654291019,0.0754894511034097,2.32378559382589,2.3237361786051,2.32611907616292,2.32442739652474,2.32660981393624,2.32658749053238,2.32746673902599,2.28529495608173,2.28510552399794,0.0754894511034097,2.28478095239173,2.28489454941442,2.28321095920326,2.28251730222303,2.28162661972486,2.28109880525176,2.27508176323991,2.27474503619208,2.27505545794391,0.0754894511034097,2.27483355139675,2.27877254648536,2.27961752170565,2.28174133000458,2.28111719377795,2.2816613105114,2.27891601926512,2.28152093423547,2.2802524041516,0.0754894511034097,2.28086911685217,2.27930783124635,2.28106015900023,2.2785159331065,2.28018111533015,2.27937784755437,2.27953474286311,2.28000549969363,2.27974012032251,0.0754894511034097,2.2796079988888,2.27954741144876,2.27985434345217,2.27937712214696,2.27970084027992,2.2802040740205,2.27951100638065,2.2809345942102,2.28093589095945,0.0754894511034097,2.28071879813173,2.28094003645546,2.28047744953982,2.28236861572814,2.28091701150219,2.28215372642548,2.28234397824006,2.28233936227779,2.28284950940739,0.0754894511034097,2.28313008339106,2.28382355250097,2.28415797775883,2.28563354646435,2.28536756821798,2.28590099594804,2.28797240650633,2.34672632098997,2.34661705350094,0.0754894511034097,2.34577007218169,2.34542090714971,2.34520330811654,2.34507366824791,2.34642676055027,2.3457349598823,2.34672010067506,2.34692076306318,2.34688088564826,0.0754894511034097,2.34685711736465,2.34785342423132,2.34745368286438,2.34760322302554,2.3471112148547,2.34753267064336,2.34674291531765,2.35019203261059,2.34717325049107,0.0754894511034097,2.34733015275933,2.34813840147773,2.34971209146433,2.34970211752909,2.35459474075828,2.35555376229891,2.35455839356006,2.35493748211393,2.35550654086779,0.0754894511034097,2.35631948371885,2.35653065504867,2.35566251856989,2.35693478869693,2.35564286960494,2.3563469731391,2.30119658975414,2.29892617078166,2.29760550972044,0.0754894511034097,2.29653586389588,2.29543278700426,2.29648506700304
0.0754894511034097,2.27008039866797,2.26805906195394,2.26917520918703,2.26840406453209,2.26996453011565,2.26951223529688,2.26892513543155,2.26958053679342,2.26956963263,0.0754894511034097,2.26940019087457,2.27024879838326,2.27096308707603,2.26993244649323,2.27123491968861,2.27057802370798,2.27157768707848,2.27184768853191,2.27336856096687,0.0754894511034097,2.27298282583753,2.27435492498509,2.27452960741808,2.27577097866852,2.27696458318353,2.27827814731359,2.27952689171408,2.32713576508623,2.32761768770552,0.0754894511034097,2.32762588923597,2.3277804212293,2.32787267244783,2.32522095349939,2.32493601634008,2.3244198924763,2.32241378904721,2.32190803221583,2.32122311127502,0.0754894511034097,2.31928832945938,2.31905366314716,2.32267337334666,2.31744192318773,2.31822905784705,2.31842788003452,2.31720678677164,2.31628526782669,2.31695658570952,0.0754894511034097,2.31726428852021,2.31861753659727,2.31863617902272,2.32017417343945,2.31983630135142,2.32072895260968,2.3222115156486,2.32329140872962,2.32327290058818,0.0754894511034097,2.32335765680298,2.32443036205415,2.32402862558905,2.32591372963837,2.32510426953441,2.32641213066299,2.32144496023453,2.28538565798203,2.28493947175011,0.0754894511034097,2.28471682127061,2.28441930888309,2.28419094886324,2.28215417543911,2.28290674535021,2.28295941176359,2.2743244142357,2.2739988352873,2.27360934217368,0.0754894511034097,2.27310320000871,2.27822058559409,2.27993386703694,2.27952086324955,2.28189101018457,2.27916311030388,2.28212110974118,2.2794894953502,2.28094103744045,0.0754894511034097,2.27987484230981,2.28104597613395,2.27907918313679,2.28064752201235,2.27908146570179,2.27965544836587,2.2800343847528,2.27934975949673,2.27992206022532,0.0754894511034097,2.27992412153753,2.27962092538231,2.27967218116882,2.27965737321383,2.27988595777746,2.27963057400404,2.28032072853719,2.28029765771936,2.28117399832154,0.0754894511034097,2.28069874795513,2.28073278277013,2.28159469474697,2.28097145491666,2.28251234078238,2.28158576470137,2.28241398272271,2.28284226538877,2.28271988275293,0.0754894511034097,2.28300215429137,2.28444726439931,2.28447345303346,2.28552211571663,2.2874038819749,2.28716971071336,2.28827643517566,2.34572457636902,2.3452913996012,0.0754894511034097,2.34410296629583,2.34432125286364,2.34431152686406,2.34565076169435,2.34479636607537,2.34603090800353,2.34600756630263,2.34691030576054,2.3481676464566,0.0754894511034097,2.34845855691489,2.34803805607802,2.34812802487543,2.34762129362021,2.34635181494855,2.34670382446821,2.34674465651476,2.3467877944907,2.34712482740518,0.0754894511034097,2.34715153168429,2.35149349519633,2.35122305151475,2.35231743313651,2.35479524139448,2.35370881504751,2.3546514284522,2.35553234272456,2.35625090235334,0.0754894511034097,2.35678532860442,2.35600279570211,2.3569559088566,2.35598976616233,2.35697010395409,2.35292793937454,2.29960334847333,2.29847269625632,2.29711134244199,0.0754894511034097,2.29569482949754,2.29638352589222,2.29475079016801
0.0754894511034097,2.2693614979994,2.26973707064847,2.26851909272075,2.27094356816524,2.26930044720981,2.26980391574293,2.26909332433413,2.27008649082058,2.26948084298802,0.0754894511034097,2.26973741719517,2.27043142743632,2.26972896603221,2.27113626037597,2.27008353091528,2.27132384100941,2.27191010023943,2.27219344700503,2.27276994411499,0.0754894511034097,2.27303320980836,2.27438000975167,2.27456057182352,2.27580553704705,2.27686545041676,2.27845189601758,2.28037463172118,2.32795053372804,2.32804910042522,0.0754894511034097,2.32801443848359,2.32845240356439,2.32716133724158,2.32690389206616,2.32505687066547,2.32475243553897,2.32310152739307,2.32275482001061,2.32048982429045,0.0754894511034097,2.31921075085741,2.31952502313366,2.31816332222756,2.31836188842172,2.31685495509929,2.31962981404499,2.3180787998567,2.31810489938021,2.31740504054319,0.0754894511034097,2.31778253239595,2.31838150379217,2.32010556183221,2.31970269265032,2.32100490349498,2.32089763569479,2.32179749602303,2.32308100809844,2.3234951184394,0.0754894511034097,2.3240717259378,2.32449277979758,2.32602798245252,2.32585496207436,2.32577139843901,2.32573716575996,2.32669618469585,2.28584560528045,2.28467814810438,0.0754894511034097,2.28433627641861,2.28485735848794,2.28430797791045,2.2824759772601,2.28225203625045,2.27668178199289,2.27677554096365,2.27330690592555,2.27373545412395,0.0754894511034097,2.27334725614875,2.28098680523474,2.2802304946709,2.28094973495881,2.28021417196519,2.28203885726801,2.2798586834314,2.28122781405404,2.27962603351448,0.0754894511034097,2.28015866487617,2.27887973867813,2.28110727013666,2.27873735212105,2.28073351545544,2.27975462970381,2.27967793785029,2.28040265524466,2.2796368860831,0.0754894511034097,2.27976202767585,2.28002026193155,2.27892626954922,2.2789430515043,2.27944098911367,2.2804437176482,2.27990470279577,2.28177313091505,2.28081584679287,0.0754894511034097,2.28120119669425,2.28115519780413,2.28178086451411,2.28193637826293,2.28172474888636,2.28223946264032,2.2826566564674,2.28252834037761,2.28348412512312,0.0754894511034097,2.28355819571445,2.28378109790418,2.28442964738468,2.28544389689759,2.28611303203106,2.28790960799224,2.28864298708876,2.34437359486002,2.34389763915772,0.0754894511034097,2.34343415956798,2.34377905063756,2.34555825549053,2.34474687812651,2.34685081919148,2.3464879298741,2.34678950583139,2.34688229090466,2.34925661839007,0.0754894511034097,2.34819038438239,2.34836315275543,2.34753328242021,2.34737985545512,2.34533756076706,2.34581507676449,2.34560324665749,2.34592882122686,2.34668651664427,0.0754894511034097,2.35146667263409,2.35173707855703,2.35111203895855,2.35252197480806,2.35363507975473,2.35452617163345,2.35411644174844,2.35542858258609,2.35721430734627,0.0754894511034097,2.35645893390104,2.35660394100902,2.35601443862686,2.35710412595521,2.35568210752277,2.35550667341355,2.29965844188731,2.2982644960684,2.29731666810682,0.0754894511034097,2.2964650573992,2.29469223333773,2.29541089746449
0.0754894511034097,2.26963435245498,2.26816046659253,2.26976535504068,2.26863221742924,2.26995180638836,2.26860571114527,2.26959569346319,2.26926954020168,2.26974012766691,0.0754894511034097,2.27072052336161,2.26986163939324,2.27095077911837,2.27130018445508,2.27164239857758,2.27097510180759,2.27211079171275,2.27211757828087,2.27291471037724,0.0754894511034097,2.27320611817418,2.27507308944951,2.27517865738506,2.27580276579523,2.27685299122241,2.27881685731037,2.28103076780316,2.32808139117438,2.32803362346585,0.0754894511034097,2.32839118353687,2.32751621025144,2.32798028613366,2.32639559724291,2.32654621637794,2.3243027231987,2.32429752256846,2.32274501600239,2.32119893117715,0.0754894511034097,2.31997944107602,2.31944217891025,2.32057946866303,2.31946111344016,2.31873291902864,2.31763184931516,2.31862292767818,2.31723003192824,2.31772098630052,0.0754894511034097,2.31829516555196,2.31862914716122,2.32001196619741,2.32049111317859,2.32076275557219,2.3210978991062,2.32244596272827,2.32263739693003,2.32426105729198,0.0754894511034097,2.32419577490398,2.32537560605268,2.3258840706409,2.32560002022689,2.32592205739765,2.32610882327373,2.32655411839627,2.28547962056355,2.28483197513164,0.0754894511034097,2.28447974386192,2.28452669340622,2.28448489312152,2.28796225829641,2.28294408151947,2.28137805002171,2.27255883255288,2.27262160426432,2.27184913334709,0.0754894511034097,2.27289828715868,2.27330757674322,2.27531690137753,2.28022832201076,2.28113851160092,2.27925216626079,2.28151663971513,2.27979928412777,2.27984733607712,0.0754894511034097,2.27971008511037,2.28082811660615,2.2786063861898,2.28141152071462,2.27918069718543,2.28054279083002,2.28004073427682,2.27985630051455,2.28031922339233,0.0754894511034097,2.28025499745201,2.27975548432754,2.27993632082757,2.2790621061231,2.27919260092239,2.28022606062108,2.28095008597142,2.28044540481672,2.28137925884201,0.0754894511034097,2.28152541229079,2.28225755105032,2.28121497889449,2.28235888210977,2.28211685813211,2.28244591462959,2.282019372556,2.28309787108119,2.28262959211595,0.0754894511034097,2.28349329339418,2.28419123808742,2.2844193618504,2.28582165226614,2.28669146337745,2.28749249684006,2.28899801171467,2.34442110227026,2.34374546038255,0.0754894511034097,2.3436337021544,2.34504907731833,2.34672403812246,2.3466604248407,2.34569011177242,2.34689629611519,2.35057788508011,2.34730841479961,2.35013407636047,0.0754894511034097,2.34841824221813,2.34737121283218,2.3479566806221,2.34732379143855,2.34560334542445,2.34535838959131,2.345761905954,2.34599336686061,2.34702511673141,0.0754894511034097,2.35077511660538,2.35125445082095,2.35638070603039,2.35535965371488,2.35551856795812,2.3533886710397,2.35524857071718,2.35751740893778,2.3571070494032,0.0754894511034097,2.35646503827431,2.35638514391646,2.35608282891339,2.35611220025988,2.35625402202324,2.30130196123312,2.29921560588533,2.2987284190559,2.29802762161162,0.0754894511034097,2.29699811998896,2.29626177793229,2.29503759602914
0.0754894511034097,2.26866192771056,2.26952181515539,2.26822089816599,2.27009513960984,2.26814301953502,2.26990120892013,2.26834166596667,2.26960126360158,2.26949916587515,0.0754894511034097,2.27007119437697,2.27149337766714,2.27009863157045,2.27223297214791,2.27008893172048,2.27215839532934,2.27127661307059,2.27262560398299,2.27274657624641,0.0754894511034097,2.27269768746091,2.27416204974112,2.27464878248459,2.27643917289452,2.2768188218605,2.27808296126198,2.32701989873797,2.32813232737333,2.32773006014111,0.0754894511034097,2.32808253993824,2.32858828665645,2.32699129597899,2.32710499076076,2.32608302867063,2.32526515520968,2.32375124047673,2.32218630924584,2.32204196927811,0.0754894511034097,2.32021932071861,2.32092752669546,2.3193410620956,2.31945221121643,2.31715761612445,2.318089524733,2.31765954623662,2.31835179797366,2.3180045001638,0.0754894511034097,2.31847861623134,2.31913788626935,2.31966829196862,2.32061763340985,2.32060601522096,2.32315184313336,2.32241867354266,2.32361330643263,2.32490133685193,0.0754894511034097,2.32464297508492,2.32604001623506,2.32500823669514,2.32627638198385,2.32536887208927,2.32712168329017,2.28725090709675,2.28577415218291,2.28454047183963,0.0754894511034097,2.28420843455566,2.28499724184773,2.28399864090397,2.28393424524413,2.27985268953843,2.28074539150154,2.27195969096564,2.27556001551764,2.27173682234618,0.0754894511034097,2.27213885522846,2.27354422704283,2.27320065452438,2.28097806149028,2.2807388148998,2.28078470635177,2.28124287688248,2.28011954510023,2.28028053086845,0.0754894511034097,2.28059903448888,2.27885257957314,2.28159673569095,2.27877363891709,2.28165766579179,2.27997230016482,2.28041196058164,2.28023628434131,2.28019107975737,0.0754894511034097,2.28030839305021,2.28057599209439,2.28010866284311,2.27993767234178,2.27911717483016,2.28036791714996,2.28015513530648,2.28084166697857,2.28068598146298,0.0754894511034097,2.28173369045982,2.28104315977377,2.2825746868427,2.28120114206075,2.28286225413357,2.2818995719161,2.2845323125905,2.28322057387355,2.28474809045781,0.0754894511034097,2.28349193552044,2.28415751840047,2.28474978150743,2.28612618388109,2.28770790481349,2.28821632582637,2.2887207540536,2.34851878795763,2.34660663007156,0.0754894511034097,2.34442051085314,2.34691952950172,2.34699606202515,2.34645766455562,2.34761123610151,2.34630899296715,2.35054620542662,2.3498875959115,2.3501585615428,0.0754894511034097,2.34785634710521,2.34795272568319,2.34742334383487,2.34662425878628,2.34528942224179,2.34624027636856,2.3453109368161,2.34749374190444,2.34715744316121,0.0754894511034097,2.35082212281233,2.35177981579018,2.35208836541577,2.35563003620115,2.35362217819571,2.35423986234861,2.35496485004054,2.35633222899157,2.35596401729145,0.0754894511034097,2.35634671263431,2.35596170323447,2.35554226102533,2.3561403095393,2.35524136710892,2.30236597827681,2.29882141761536,2.29796828389139,2.2955979278723,0.0754894511034097,2.29569202659522,2.29528519142031,2.29554017058924
0.0754894511034097,2.26934249248963,2.26876696692268,2.26948946062301,2.26872630530062,2.26949994746875,2.26826150634371,2.26938225195885,2.26923194610067,2.26974982975921,0.0754894511034097,2.27029949091809,2.2691700781577,2.27045398321816,2.26967538478,2.27138408380661,2.27215737190445,2.27232005907604,2.27167194024234,2.27287422187666,0.0754894511034097,2.27353322101774,2.27420251522886,2.27417598930573,2.27598571920463,2.27650432025234,2.27875615014418,2.28041019944883,2.32856015229752,2.32647429521761,0.0754894511034097,2.32512007283234,2.32764546639167,2.32734346100218,2.32664016311726,2.3263514022826,2.32502526462126,2.32328736230162,2.32241297934049,2.32203333743279,0.0754894511034097,2.32097458978653,2.31967460371527,2.32023592537642,2.31914348875944,2.31841221061146,2.3190519533887,2.3187347681223,2.31841985819592,2.31929335612524,0.0754894511034097,2.31931957268925,2.31901753854346,2.31979235769165,2.31992251713445,2.32151244935881,2.32246726277554,2.32429045847072,2.32309676437281,2.32487294368183,0.0754894511034097,2.32559051271434,2.32493819486738,2.32665920538195,2.32684259762571,2.32643973465065,2.32805052825752,2.32863792011461,2.28574792396257,2.28443807728202,0.0754894511034097,2.28435003171803,2.28372049615107,2.28454535343547,2.28436546792188,2.27979239823516,2.27834306279629,2.27651427233462,2.27665268319201,2.27222109185625,0.0754894511034097,2.27251103968515,2.27406670710269,2.2810710578847,2.28121817618771,2.2808110910558,2.28104187054196,2.28078643978808,2.28094632385223,2.28108694500802,0.0754894511034097,2.2798735884475,2.28105769986485,2.27906500927927,2.28193316179801,2.27921921107142,2.28140480950125,2.28007924775346,2.2804112666282,2.28046709452028,0.0754894511034097,2.28033034626385,2.28064432347052,2.28124412602499,2.28045281885925,2.2799951982796,2.28032712534764,2.28035782839538,2.28032287721615,2.28095928744619,0.0754894511034097,2.28166174226943,2.28248110049604,2.28072278679331,2.28286473173998,2.28114802312671,2.28351496965485,2.28284732499574,2.28456657320956,2.28455219536308,0.0754894511034097,2.28308277111486,2.28456487864548,2.28428046775721,2.28556257803075,2.2866465990573,2.28817312934769,2.28867956615185,2.34746789405643,2.34659760511558,0.0754894511034097,2.34524309333351,2.34842826619549,2.34573534500134,2.34713046849887,2.34658756846811,2.34997710106157,2.35006747708613,2.34945467783315,2.34804623525669,0.0754894511034097,2.34771736490611,2.34712613328553,2.3503233381771,2.34628390019394,2.34602606096503,2.34565009581666,2.35018109810386,2.35137653567352,2.35214716626888,0.0754894511034097,2.35148370725843,2.35175941108119,2.35273599893865,2.35263977734858,2.3543757099922,2.35538342857549,2.35658147114791,2.35525053572633,2.35567338568351,0.0754894511034097,2.35578327626648,2.35540878874145,2.35509196619293,2.3570103970552,2.35514469806613,2.30048469153242,2.29887418263962,2.29878540425786,2.29543523226703,0.0754894511034097,2.29504006465538,2.29499108935169,2.2950131966861
0.0754894511034097,2.26898872407151,2.26926923720965,2.26924948334289,2.27022031678356,2.26847181871273,2.26923217258732,2.26862740496898,2.26932501426674,2.26962364600696,0.0754894511034097,2.26981664196774,2.27082976401436,2.27023097688554,2.27192434421821,2.27066729029455,2.2721936594848,2.27169438992854,2.27280409998745,2.27228751134957,0.0754894511034097,2.27321780640419,2.27383026052638,2.27476335653884,2.27540584515775,2.27753581193892,2.27945685240703,2.32563315278701,2.3290266071492,2.32658885588902,0.0754894511034097,2.32866275489938,2.32835198755225,2.32823503816635,2.32815135590915,2.32620553014206,2.32555104787837,2.32388405226656,2.32322486587111,2.32124819274994,0.0754894511034097,2.32088383212545,2.31998457173297,2.32299004582288,2.32011559056902,2.31835791326778,2.3193844146452,2.31837028549264,2.31917377546001,2.31946192383518,0.0754894511034097,2.31959490280679,2.31971494559713,2.31994448921043,2.32060661720608,2.32159966505219,2.32271592229619,2.32294500593652,2.32452902001063,2.32432559897828,0.0754894511034097,2.32518107103822,2.32711975694567,2.32618417405432,2.32882880876532,2.32663208001931,2.32920274681743,2.32820661237511,2.28604198697711,2.28456662813209,0.0754894511034097,2.28408856772407,2.28427596212875,2.28409778952474,2.28512647224441,2.27912089877297,2.27490695649925,2.27555797514553,2.2750260397551,2.27727588953433,0.0754894511034097,2.27448267812865,2.27335027064159,2.28161641566032,2.27627893497085,2.28116183733641,2.28042570986225,2.28139195991412,2.28082057633826,2.28092378355913,0.0754894511034097,2.28096795638667,2.27946631170658,2.28169714174975,2.2787864164382,2.28100196738441,2.27938944713915,2.28098595817093,2.28002098590591,2.2802443178527,0.0754894511034097,2.2800572032201,2.28050042979173,2.28008548619723,2.28023537825309,2.28083941468143,2.28078525583709,2.28108751956234,2.2809042546123,2.2813042529617,0.0754894511034097,2.28497920380194,2.28124116206491,2.28255380627295,2.28063870752515,2.28229946163773,2.28166734232673,2.28400529073173,2.28358147645234,2.28460993631101,0.0754894511034097,2.28401813536591,2.28471571170827,2.2859593361803,2.28616942763514,2.28707000446867,2.28838396966659,2.34723157057848,2.3469725920797,2.34617385318474,0.0754894511034097,2.34580846525269,2.34571772325999,2.3466324852291,2.35092335219502,2.34752794813999,2.34806219198866,2.34963595986801,2.34908136212599,2.3475323260418,0.0754894511034097,2.34729352206906,2.34785525615019,2.34711177161827,2.34650346755832,2.34590136299867,2.34629360422151,2.35344581862955,2.35129283547549,2.35138373310997,0.0754894511034097,2.35112088662237,2.35286625347164,2.35213011925974,2.35459879971187,2.35380735431325,2.35694935754579,2.35576358787181,2.35624896848475,2.35613427518696,0.0754894511034097,2.3560124147822,2.35479816712015,2.35466471716593,2.35440141470949,2.35468402934685,2.30226113879419,2.29941038432756,2.2957201785454,2.29495219186655,0.0754894511034097,2.29540452284177,2.29511274309472,2.29533900237721
0.0754894511034097,2.26932492592205,2.26901029365688,2.26903516149845,2.26931493016135,2.26931853280047,2.26868303156424,2.2695259293457,2.26933974366552,2.27040350894886,0.0754894511034097,2.27107528814606,2.26971553215138,2.27106914629352,2.27036372943107,2.27206896573146,2.27085209707186,2.27346832264203,2.27286129550921,2.27286783818022,0.0754894511034097,2.27310983618505,2.27430051550605,2.27514893528057,2.27530521125421,2.27796098385839,2.27966741545536,2.32611366251361,2.32591466154343,2.32682328971178,0.0754894511034097,2.33011987693344,2.32978621120335,2.32878065788193,2.33214743669723,2.32577025484251,2.3262508212356,2.32383350609685,2.32374544137645,2.32272630300624,0.0754894511034097,2.32110001708263,2.32008045831856,2.31946965498355,2.31926699783451,2.31926030201475,2.31849204847675,2.31936035040331,2.31869039324158,2.31942170461233,0.0754894511034097,2.32015450804484,2.32009889296722,2.32107524419466,2.32109443217621,2.32231741868593,2.32193039906584,2.32457560323159,2.32396886384972,2.32476731155885,0.0754894511034097,2.32610924513417,2.32549032871121,2.32792899441074,2.32596414421026,2.32721446688107,2.32736637080461,2.3281094316362,2.28554303913036,2.28521732538481,0.0754894511034097,2.28428749519374,2.28374528015238,2.28443959946992,2.28399104191863,2.28441271035736,2.28898063163711,2.27608297344634,2.2847983481333,2.28511797651731,0.0754894511034097,2.28490023843982,2.28419832133675,2.28354202173332,2.28163447650372,2.28053443844465,2.28225927328436,2.28085915648176,2.28155774841092,2.28116738659406,0.0754894511034097,2.2803111485219,2.28165242363138,2.27926976959762,2.28144461004152,2.27993356072028,2.28135050781111,2.27989818377997,2.28117872269024,2.28007795467602,0.0754894511034097,2.2804226958805,2.28056070216521,2.28034781933083,2.28046707390711,2.28051867018391,2.28136689633575,2.28109750639064,2.28137133899215,2.28118891363717,0.0754894511034097,2.28193422407983,2.28282720086337,2.28092562021119,2.28338150179987,2.28319367920994,2.28221501501076,2.28357229713195,2.28455872755058,2.28457647953359,0.0754894511034097,2.28413598385523,2.28534228248344,2.2851655855177,2.28586975082274,2.2872786149864,2.28807050856976,2.34784356809776,2.3453969811892,2.345825879163,0.0754894511034097,2.34584731258014,2.34660854890243,2.34670179030157,2.34740696812678,2.3470605637004,2.3498453272136,2.35011755764343,2.34868107605533,2.34853124248627,0.0754894511034097,2.34942924559048,2.34791512407464,2.34795154317531,2.35422662115713,2.35253535925434,2.3478059823736,2.35090451936066,2.35097325800541,2.35187170332287,0.0754894511034097,2.35278969353655,2.35417234867707,2.35375745742133,2.35395024146676,2.35534065347262,2.35515124657927,2.35649609680454,2.35644015377911,2.35658802757804,0.0754894511034097,2.35688898447758,2.35778142140629,2.35628561532268,2.35441181039944,2.30087921566089,2.29995750363896,2.29957638644079,2.29607615084349,2.29458977093322,0.0754894511034097,2.29510451957055,2.29541802989887,2.29875848094722
0.0754894511034097,2.26923790757395,2.26837238012111,2.26964988790867,2.26875307636138,2.26906402202801,2.26920547521912,2.26886775501025,2.26949667218597,2.26991058924271,0.0754894511034097,2.27023311506839,2.27071191366622,2.26957027137694,2.27139508674505,2.27044020832972,2.27186425694202,2.27154775713153,2.27265354456285,2.27292524615651,0.0754894511034097,2.27391159339654,2.27427828145276,2.27477783734005,2.27536899335706,2.27735305695725,2.27729119057645,2.27916931660193,2.32670834045005,2.3271425887361,0.0754894511034097,2.33009284522987,2.32974577863127,2.32916823321618,2.32722163929978,2.32691128501542,2.32560348561833,2.32960904817815,2.32395061705088,2.32165986834896,0.0754894511034097,2.32137787717208,2.32120730481243,2.31937637536863,2.31983320524576,2.31864782933397,2.31972031983166,2.31869435970496,2.31965400396281,2.31919765793396,0.0754894511034097,2.32017060430948,2.32021066642467,2.32055863578074,2.32206557206072,2.32177948848929,2.32271795851383,2.32404265213754,2.32493814426323,2.32436574925206,0.0754894511034097,2.32555977049327,2.32777593257298,2.32529341284197,2.32681164569217,2.32565032257022,2.32692434135032,2.28586272162018,2.28589662375147,2.28503630685319,0.0754894511034097,2.28433447569898,2.28414979780422,2.28396202203674,2.28440517382997,2.28373209499433,2.28603741737467,2.2784308873881,2.28554249387688,2.28496391746937,0.0754894511034097,2.28368534215679,2.2831269157686,2.2832575572032,2.28101091455849,2.28191182607815,2.28088478197731,2.28171530913857,2.28112997086735,2.28117103216778,0.0754894511034097,2.28022540867876,2.27945319254513,2.28104036474626,2.27920869446842,2.28206280696998,2.27983720835515,2.28112754855847,2.28003927610207,2.28040798722896,0.0754894511034097,2.28063931695297,2.28049910593052,2.28034886081428,2.2808668423651,2.28180239219895,2.28124972290789,2.28121646939136,2.28109585853758,2.28129244750125,0.0754894511034097,2.28191844828906,2.28150168637064,2.28279976941487,2.28104150625766,2.28372207288867,2.28340141494103,2.2841221893387,2.28350377298578,2.28411735175807,0.0754894511034097,2.28444283276113,2.28470144461709,2.28762578411154,2.28726882790097,2.28756481076962,2.28863602150956,2.34070224040987,2.34547618910538,2.34541215571368,0.0754894511034097,2.34628056166394,2.34640972816492,2.34752120439567,2.35113537240072,2.35377184312796,2.35110735032881,2.35066560203595,2.34885218644088,2.34885947689963,0.0754894511034097,2.34806541776393,2.34795540732237,2.34764906111384,2.35337108617778,2.35210448249685,2.35248371042658,2.35115142721306,2.35127246793986,2.35213421587396,0.0754894511034097,2.35237518215252,2.352891694695,2.35382170272418,2.35573276443801,2.35553713298232,2.35642115986579,2.35834821529266,2.35697143276176,2.35705045340398,0.0754894511034097,2.35704401821936,2.35716789629953,2.35691484424026,2.35762281293167,2.30087790186854,2.29884405595623,2.29742988478903,2.29603819637784,2.29556988817219,0.0754894511034097,2.29559677703646,2.29535788971029,2.29551352754823
