2.24003180299561,2.24025133471395,2.24105961058605,2.24165833345426,2.24294558762092,2.24297552376433,2.24379377835089,2.24420290564417,2.24544026623848,2.24594918067647,2.24666764811832,2.24693707340902,2.24778526413899,2.24859354001108,2.24975107088963,2.25036975118679,2.25132770777593,2.25372259924879,2.25272472780176,2.25424149240124,2.25490008755628,2.25662640515963,2.25749455331854,2.25987946607693,2.26165567725264,2.26274335712989,2.26538771646451,2.26594652447484,2.27082611585079,2.27178407243994,2.33055870066969,2.33157652954566,2.33166633797589,2.33192578455212,2.33326293229113,2.33455018645779,2.33237482670328,2.33263427327951,2.3313270616839,2.33145678497202,2.3313270616839,2.33125721068261,2.33128714682602,2.33120731711026,2.33157652954566,2.3313270616839,2.33162642311801,2.33255444356374,2.33273406042421,2.33533850490094,2.33303342185832,2.33416101659345,2.33480963303402,2.33588733419681,2.33542831333118,2.33618669563091,2.3361567594875,2.33680537592807,2.33901067182599,2.33876120396424,2.33840197024331,2.33969920312444,2.33553807919035,2.33457014388673,2.33540835590223,2.33462003745908,2.33613680205856,2.33691514178724,2.2800464480213,2.28171289333783,2.27887893842828,2.27770145012079,2.2777313862642,2.27887893842828,2.27795091798255,2.27788106698126,2.27803074769831,2.27808064127066,2.2780008115549,2.27787108826679,2.2780008115549,2.27807066255619,2.27836004527583,2.27860951313759,2.27915834243345,2.27936789543733,2.27963732072802,2.28101438332492,2.28131374475902,2.28053540503034,2.28065514960399,2.280315873312,2.28110419175515,2.28116406404197,2.28118402147091,2.28174282948124,2.28220185034688,2.28250121178098,2.2828305093585,2.28442710367374,2.28373857237529,2.28478633739467,2.28574429398381,2.28716127143859,2.28845850431972,2.29039437492695,2.29194107566984,2.35623393300164,2.36052478022385,2.3616823111024,2.36147275809852,2.36271011869283,2.36341860742022,2.36315916084399,2.36369801142539,2.36255045926131,2.36238082111531,2.3626203102626,2.36227105525614,2.3630893098427,2.36238082111531,2.36750988035302,2.36435660658042,2.36494535073417,2.36452624472642,2.36458611701324,2.36426679815019,2.36450628729748,2.36525469088274,2.36446637243959,2.36401733028843,2.36420692586337,2.36494535073417,2.36608292418377,2.36625256232977,2.29432598842823,2.29261962825381,2.29167165037914,2.29103301265304,2.29126252308586,2.28995531149026,2.29030456649672,2.29136231023056,2.29027463035331,2.28926678019181,2.28990541791791,2.28949629062463,2.28975573720085,2.29084341707811,2.29106294879646,2.29072367250447,2.29183130981066,2.29084341707811,2.29151199094762,2.29100307650963,2.29156188451997,2.29220052224606,2.29350773384167,2.29232026681971,2.29271941539852,2.29227037324736,2.29252981982358,2.2945355414321,2.29345784026931,2.29382705270471,2.29356760612849,2.29455549886104,2.29533383858972,2.29556334902254,2.29629179517887,2.29622194417757,2.2969503903339,2.29713998590884,2.29736949634165,2.29743934734294,2.29914570751736
2.23984220742067,2.24021141985607,2.24056067486253,2.24155854630956,2.24197765231731,2.24373390606407,2.24353433177467,2.24434260764676,2.24521075580567,2.24553007466872,2.24690713726561,2.24813451914545,2.24801477457181,2.24849375286638,2.24891285887413,2.2500304748948,2.25091858048265,2.25229564307954,2.25260498322812,2.25361283338962,2.25528925742062,2.25630708629658,2.25724508545679,2.25919093477848,2.26177542182628,2.26389090929397,2.26463931287924,2.2659265670459,2.27104564756914,2.32749523532733,2.32970053122525,2.33082812596039,2.33144680625755,2.3323349118454,2.33299350700043,2.33204552912576,2.33305337928726,2.33111750868003,2.33012961594747,2.33069840267228,2.33177610383506,2.33070838138675,2.33089797696168,2.32996995651595,2.33096782796297,2.33072833881569,2.33360220858312,2.33375188930017,2.33343257043713,2.33204552912576,2.33184595483636,2.33284382628338,2.33345252786607,2.33400135716193,2.33594720648363,2.3366956100689,2.33620665305985,2.33686524821489,2.33728435422264,2.33769348151592,2.33739412008181,2.33727437550817,2.3365259719229,2.33524869647071,2.33431069731051,2.33517884546942,2.33816248109602,2.28118402147091,2.27950759743991,2.27892883200063,2.28023604359624,2.27794093926808,2.2775318119748,2.27736217382881,2.27731228025645,2.278469811135,2.27748191840245,2.27765155654844,2.27785113083785,2.2778012372655,2.2777313862642,2.2781005986996,2.2782702368456,2.27876917256911,2.27788106698126,2.27867936413888,2.27931800186497,2.28009634159365,2.28011629902259,2.28027595845412,2.28029591588306,2.28047553274352,2.28035578816988,2.28075493674869,2.28110419175515,2.28117404275644,2.2816230849076,2.28231161620605,2.28355895551483,2.28296023264661,2.28427742295669,2.28513559240113,2.2863529955665,2.28769014330551,2.28867803603807,2.29057399178741,2.3538989138156,2.35415836039183,2.35599444385435,2.35948699391894,2.36176214081816,2.3618818853918,2.36282986326647,2.36185194924839,2.3626203102626,2.3610436733763,2.3614128858117,2.36204154482333,2.36337869256234,2.36025535493315,2.3628897355533,2.36277996969412,2.3627200974073,2.36529460574063,2.3632589479887,2.36403728771737,2.3631890969874,2.36380777728456,2.36473579773029,2.36442645758171,2.36405724514632,2.36387762828585,2.36489545716182,2.36507507402228,2.36485554230393,2.29223045838947,2.29183130981066,2.29190116081196,2.29132239537268,2.28953620548251,2.29066380021765,2.29005509863496,2.2904442684993,2.2894364183378,2.28958609905486,2.28946635448122,2.2898754817745,2.29052409821506,2.29006507734943,2.29089331065046,2.29048418335718,2.290544055644,2.28972580105744,2.29037441749801,2.29025467292437,2.29052409821506,2.29204086281454,2.29211071381583,2.29544360444889,2.29191113952643,2.29143216123185,2.29181135238172,2.29283915997216,2.29232026681971,2.29356760612849,2.29324828726544,2.29471515829257,2.29370730813107,2.29495464743985,2.29444573300187,2.2953737534476,2.29581281688429,2.29616207189075,2.29816779349927,2.30045291911296,2.29857692079255
2.2396326544168,2.24025133471395,2.24087999372558,2.24485152208474,2.24320503419715,2.24281586433281,2.24307531090904,2.24514090480438,2.24486150079921,2.24529058552143,2.24569971281471,2.24691711598008,2.24703686055372,2.24851371029532,2.24883302915837,2.25000053875139,2.25056932547619,2.25178672864156,2.25289436594776,2.25352302495938,2.25435125826042,2.25537906585085,2.25670623487539,2.25941046649683,2.26060791223326,2.2631425057087,2.26446967473325,2.26610618390637,2.27179405115441,2.27172420015312,2.32848312805988,2.328443213202,2.32864278749141,2.33129712554049,2.32996995651595,2.33087801953274,2.33024936052112,2.32998991394489,2.33113746610897,2.33094787053403,2.32929140393197,2.32926146778856,2.32953089307926,2.32948099950691,2.3301894882343,2.32990010551466,2.33110752996556,2.33111750868003,2.32998991394489,2.33135699782731,2.33005976494618,2.33265423070845,2.33260433713609,2.33304340057279,2.33342259172266,2.33340263429371,2.3343805483118,2.33571769605081,2.337164609649,2.33739412008181,2.33696503535959,2.33543829204565,2.33661578035313,2.3368951843583,2.33663573778207,2.33524869647071,2.33756375822781,2.33597714262704,2.27911842757557,2.28013625645153,2.28161310619313,2.2778012372655,2.27738213125775,2.27694306782106,2.27696302525,2.27719253568281,2.27739210997222,2.27750187583139,2.27758170554715,2.27789104569573,2.27806068384172,2.27808064127066,2.27794093926808,2.27890887457169,2.27860951313759,2.27919825729133,2.27903859785981,2.27929804443603,2.28001651187789,2.27958742715567,2.28018615002389,2.2807848728921,2.28052542631587,2.28100440461045,2.28110419175515,2.28202223348641,2.28271076478486,2.28216193548899,2.28396808280811,2.28390821052129,2.28568442169699,2.28522540083136,2.28615342127709,2.28774003687786,2.2898056307732,2.35226240464248,2.35297089336987,2.35321038251716,2.36124324766571,2.35989612121222,2.36116341794994,2.36202158739438,2.35999590835692,2.36036512079232,2.36051480150938,2.36004580192928,2.36101373723289,2.36223114039826,2.3622510978272,2.36142286452617,2.36083412037243,2.36166235367346,2.36184197053392,2.36321903313081,2.36206150225227,2.36202158739438,2.361313098667,2.36302943755588,2.3626203102626,2.36404726643184,2.36376786242668,2.36475575515923,2.36264026769154,2.36780924178713,2.3604050356502,2.29337801055355,2.29084341707811,2.29009501349284,2.28998524763367,2.28935658862204,2.28895744004323,2.28901731233005,2.28939650347992,2.2894364183378,2.28925680147734,2.28860818503677,2.28823897260138,2.29131241665821,2.28910712076029,2.28885765289853,2.29037441749801,2.29037441749801,2.28945637576675,2.29061390664529,2.28990541791791,2.29024469420989,2.29123258694245,2.29150201223315,2.29100307650963,2.29240009653547,2.29172154395149,2.29173152266596,2.29210073510136,2.29254977725252,2.29256973468146,2.29268947925511,2.2930586916905,2.29388692499154,2.29348777641273,2.29408649928094,2.29455549886104,2.29630177389333,2.29563320002383,2.29630177389333,2.29673085861556,2.29804804892563
2.23915367612223,2.24022139857054,2.24090992986899,2.24282584304728,2.24250652418423,2.24292563019198,2.24302541733668,2.24341458720102,2.24459207550851,2.24555003209766,2.24622858468163,2.24691711598008,2.2468772011222,2.24799481714287,2.24888292273072,2.25004045360927,2.25054936804725,2.25048949576043,2.25219585593484,2.25344319524362,2.25394213096713,2.2549599598431,2.25588798028883,2.2581132336157,2.25956014721388,2.26102701824101,2.26362148400327,2.266395566626,2.26836137337664,2.27193375315699,2.32980031836996,2.32802410719425,2.32759502247203,2.32882240435187,2.32954087179373,2.32994002037254,2.32902197864128,2.32946104207797,2.32879246820846,2.32820372405472,2.32862283006247,2.32932134007538,2.3282436389126,2.32920159550174,2.33022940309218,2.32991008422913,2.33236484798881,2.33197567812447,2.33335274072136,2.33041899866711,2.33096782796297,2.33146676368649,2.3314966998299,2.33249457127692,2.33279393271103,2.33346250658054,2.33434063345392,2.33418097402239,2.33409116559216,2.33489944146425,2.33973911798232,2.33453022902885,2.33659582292419,2.33647607835055,2.3359571851981,2.33680537592807,2.33489944146425,2.3365259719229,2.2802160861673,2.27962734201355,2.28210206320217,2.27776132240762,2.27698298267894,2.27656387667119,2.27750187583139,2.27812055612854,2.27742204611563,2.27737215254328,2.27733223768539,2.27772140754973,2.27787108826679,2.2778012372655,2.27798085412596,2.27805070512725,2.27839996013371,2.27838998141924,2.27990674601872,2.27923817214921,2.28061523474611,2.27905855528875,2.27988678858978,2.28033583074094,2.28205216962982,2.28099442589598,2.28147340419055,2.28214197806005,2.28196236119959,2.28221182906135,2.28359887037271,2.28373857237529,2.28481627353808,2.28634301685203,2.2874606328727,2.2915519058055,2.29043428978483,2.35198300063732,2.35312057408692,2.3555753378466,2.35303076565669,2.36064452479749,2.35912776019801,2.35952690877682,2.35898805819543,2.35928741962954,2.35913773891248,2.35976639792411,2.35890822847967,2.36085407780137,2.3601056742161,2.36229101268508,2.36105365209077,2.3618818853918,2.36038507822126,2.36126320509465,2.36150269424193,2.3608440990869,2.36043497179362,2.36190184282074,2.36135301352488,2.36472581901582,2.36559396717473,2.35457746639958,2.35325029737504,2.35335008451974,2.2920209053856,2.29132239537268,2.29122260822798,2.29038439621248,2.28902729104452,2.28846848303419,2.28889756775641,2.28838865331843,2.28922686533393,2.28857824889336,2.29143216123185,2.28809927059879,2.28881773804065,2.28857824889336,2.28978567334426,2.28976571591532,2.28926678019181,2.29092324679387,2.2897058436285,2.28965595005615,2.28991539663238,2.2898754817745,2.29051411950059,2.29008503477837,2.29065382150318,2.29069373636106,2.29177143752384,2.29291898968792,2.29159182066338,2.29236018167759,2.29198099052772,2.29257971339593,2.29297886197474,2.29340794669696,2.29340794669696,2.29427609485588,2.29447566914528,2.29510432815691,2.29566313616724,2.29704019876413,2.29710007105095,2.29688053933261
2.23967256927468,2.23977235641938,2.24030122828631,2.24118933387416,2.24173816317002,2.24252648161317,2.2429855024788,2.24392350163901,2.2445621393651,2.24562986181342,2.24608888267905,2.24624854211057,2.24686722240773,2.24815447657439,2.24844385929403,2.24951158174234,2.25004045360927,2.2512378993457,2.25211602621908,2.25323364223975,2.25471049198134,2.25612746943612,2.25582810800201,2.25802342518547,2.25925080706531,2.26144612424876,2.26524801446193,2.26641552405494,2.26901996853168,2.32523006714258,2.32779459676144,2.32643749159348,2.32766487347332,2.32853302163223,2.32910180835704,2.32863280877694,2.32852304291776,2.3287126384927,2.32757506504309,2.32832346862836,2.32788440519167,2.32706615060511,2.32837336220071,2.32667698074077,2.32822368148366,2.33130710425496,2.33201559298235,2.32841327705859,2.32884236178081,2.32958078665161,2.32944108464903,2.33009967980406,2.33133704039837,2.33174616769165,2.33172621026271,2.33316314514643,2.33293363471361,2.33275401785315,2.33370199572782,2.33402131459087,2.33472980331826,2.33486950532084,2.33617671691644,2.33692512050171,2.3382023959539,2.33839199152884,2.33717458836347,2.27941778900968,2.28079485160657,2.27872925771123,2.27715262082493,2.27724242925516,2.27787108826679,2.27720251439728,2.2765239618133,2.27698298267894,2.27722247182622,2.27722247182622,2.27732225897092,2.27788106698126,2.27787108826679,2.27803074769831,2.27808064127066,2.27826025813113,2.27815049227195,2.27886895971381,2.2790086617164,2.2793080231505,2.27904857657428,2.27945770386756,2.27958742715567,2.2800464480213,2.28042563917117,2.28101438332492,2.28121395761432,2.28222180777582,2.28177276562465,2.28289038164532,2.28328953022413,2.28422752938434,2.28543495383524,2.28633303813756,2.28844852560525,2.28880775932618,2.35052610832466,2.35084542718771,2.35208278778202,2.35462735997193,2.35353968009467,2.35721184701972,2.35917765377036,2.35833944175486,2.35895812205202,2.35887829233626,2.35911778148354,2.35901799433884,2.35949697263341,2.35961671720706,2.36042499307915,2.35972648306623,2.35986618506881,2.36113348180653,2.36064452479749,2.35981629149646,2.36118337537888,2.35962669592153,2.3603052485055,2.3605746737962,2.3607742480856,2.36212137453909,2.36535447802745,2.35321038251716,2.35176346891897,2.35214266006884,2.29140222508844,2.29094320422281,2.28954618419698,2.28992537534685,2.28966592877062,2.28881773804065,2.28868801475254,2.28804937702644,2.28846848303419,2.28810924931326,2.28780988787915,2.28809927059879,2.28912707818923,2.28840861074737,2.28832878103161,2.28895744004323,2.28865807860913,2.28860818503677,2.28911709947476,2.28907718461688,2.28967590748509,2.28920690790499,2.28924682276287,2.28953620548251,2.29086337450705,2.29112282108328,2.29111284236881,2.29172154395149,2.29099309779516,2.29159182066338,2.29145211866079,2.2919211182409,2.29572300845406,2.29427609485588,2.29417630771117,2.29381707399024,2.29425613742693,2.29424615871246,2.29495464743985,2.29513426430032,2.29623192289204,2.29724975176801
2.2398322287062,2.23966259056021,2.24098975958475,2.24132903587674,2.24189782260155,2.24210737560542,2.24344452334443,2.24363411891937,2.24401331006924,2.24498124537285,2.24643813768551,2.24686722240773,2.24705681798266,2.24773537056664,2.24805468942969,2.24938185845423,2.25052941061831,2.2508686869103,2.25204617521779,2.2525451109413,2.25357291853174,2.25445104540512,2.25645676701364,2.25738478745937,2.25941046649683,2.2616357198237,2.26231427240767,2.26501850402911,2.26782252279525,2.32527996071493,2.32554938600563,2.32664704459736,2.32702623574723,2.32743536304051,2.32720585260769,2.32752517147074,2.32779459676144,2.32690649117358,2.3278744264772,2.32707612931958,2.32694640603147,2.32648738516583,2.32668695945524,2.32667698074077,2.32617804501726,2.32684661888676,2.32700627831829,2.32775468190356,2.32788440519167,2.32842325577306,2.32863280877694,2.32979033965549,2.32966061636737,2.33109755125109,2.33194574198106,2.33231495441646,2.33228501827305,2.3330733367162,2.33358225115418,2.3339115487317,2.33472980331826,2.335488185618,2.3355879727627,2.33653595063737,2.33606695105727,2.33457014388673,2.28113412789856,2.2796772355859,2.27852968342182,2.28018615002389,2.27675347224612,2.27672353610271,2.27693308910658,2.27798085412596,2.27734221639986,2.27684328067635,2.27664370638695,2.27731228025645,2.27738213125775,2.27684328067635,2.27831015170348,2.27798085412596,2.27811057741407,2.27813053484301,2.27823032198772,2.27859953442312,2.27926810829262,2.27899868300193,2.27908849143216,2.27960738458461,2.28038572431329,2.28069506446187,2.28098444718151,2.28107425561174,2.28148338290502,2.28158317004972,2.28359887037271,2.28315980693602,2.28373857237529,2.28486616711043,2.28569440041146,2.28644280399673,2.28873790832489,2.28939650347992,2.34799151484922,2.35347980780785,2.35171357534662,2.35368936081173,2.35450761539829,2.35507640212309,2.35831948432592,2.35885833490732,2.35764093174195,2.36062456736855,2.35737150645125,2.35795027189052,2.35934729191636,2.35890822847967,2.35950695134788,2.35959675977811,2.35903795176778,2.36005578064375,2.35985620635434,2.35916767505589,2.3587286116192,2.35901799433884,2.35969654692282,2.35910780276907,2.35767086788536,2.35638361371869,2.35603435871224,2.35456748768511,2.35241208535954,2.29167165037914,2.29088333193599,2.28986550306003,2.28957612034039,2.28863812118019,2.29125254437139,2.28869799346701,2.28797952602515,2.28842856817631,2.28807931316985,2.28816912160008,2.28798950473962,2.28826890874479,2.28844852560525,2.2880294195975,2.28851837660654,2.28832878103161,2.28817910031455,2.28851837660654,2.28852835532101,2.28919692919052,2.28750054773058,2.28938652476545,2.28882771675512,2.28975573720085,2.28924682276287,2.2953737534476,2.29300879811815,2.29127250180033,2.29216060738818,2.29173152266596,2.29161177809232,2.29161177809232,2.2925896921104,2.29244999010782,2.29323830855097,2.29344786155484,2.29380709527577,2.29376718041789,2.29387694627706,2.29563320002383,2.29579285945535,2.2983274529308
2.23965261184574,2.23993201585091,2.24089995115452,2.24098975958475,2.24254643904211,2.24252648161317,2.24349441691679,2.24447233093487,2.24427275664546,2.24556001081213,2.24556001081213,2.24649800997233,2.24701690312478,2.2481844127178,2.24847379543744,2.24924215645165,2.24944173074105,2.25052941061831,2.25171687764027,2.25293428080564,2.25341325910021,2.25488013012734,2.25568840599943,2.25732491517255,2.25792363804076,2.26150599653558,2.26395078158079,2.26589663090249,2.32381308968781,2.32533983300175,2.32506042899659,2.32571902415162,2.32611817273043,2.32688653374464,2.3273355758958,2.32759502247203,2.32784449033379,2.32670691688418,2.32599842815679,2.32572900286609,2.32684661888676,2.32621795987514,2.328443213202,2.32638759802113,2.32610819401596,2.32603834301467,2.32627783216196,2.32692644860252,2.32717591646428,2.32761497990097,2.32877251077952,2.32905191478469,2.32951093565032,2.33042897738158,2.33109755125109,2.33140689139967,2.33309329414514,2.33237482670328,2.3329036985702,2.33456016517226,2.33437056959733,2.33361218729759,2.33627650406115,2.33611684462962,2.33851173610248,2.33789305580533,2.28044559660011,2.27785113083785,2.27771142883526,2.27724242925516,2.27809061998513,2.27682332324741,2.27618468552132,2.2764241746686,2.27643415338307,2.27655389795672,2.27714264211046,2.2771625995394,2.27734221639986,2.27754179068927,2.27765155654844,2.27769147140632,2.27760166297609,2.27803074769831,2.27896874685852,2.2788390235704,2.27856959827971,2.27877915128358,2.2787392364257,2.27923817214921,2.28013625645153,2.2800464480213,2.28037574559882,2.28098444718151,2.28109421304068,2.28183263791148,2.28221182906135,2.28380842337658,2.28365874265953,2.28483623096702,2.28574429398381,2.28686191000448,2.28893748261429,2.35265157450682,2.34882972686472,2.34882972686472,2.35322036123163,2.35360953109597,2.355944550282,2.35603435871224,2.35643350729105,2.35804008032076,2.35649337957787,2.35615410328588,2.35674284743962,2.35649337957787,2.35595452899647,2.35777065503006,2.35739146388019,2.35785048474582,2.35894814333755,2.35933731320189,2.35586472056624,2.35751120845383,2.35829952689698,2.35864878190344,2.35880844133497,2.35829952689698,2.35620399685823,2.35579486956495,2.35734157030784,2.35512629569544,2.35713201730396,2.29230030939077,2.29093322550834,2.29005509863496,2.28901731233005,2.28899735490111,2.2881292067422,2.28814916417114,2.28890754647088,2.28900733361558,2.28794958988174,2.28726105858329,2.28737082444246,2.28808929188432,2.28848844046313,2.2879296324528,2.2880294195975,2.28891752518535,2.28867803603807,2.28804937702644,2.28790967502386,2.28824895131585,2.28818907902902,2.28879778061171,2.28854831274995,2.28847846174866,2.29073365121894,2.28930669504969,2.28978567334426,2.29060392793082,2.29067377893212,2.29060392793082,2.29122260822798,2.2915519058055,2.29179139495278,2.29251984110911,2.29244999010782,2.29337801055355,2.29308862783392,2.29407652056647,2.29466526472021,2.29492471129644,2.29526398758843,2.29644147589592
2.2396326544168,2.24005176042455,2.24017150499819,2.24134899330568,2.24163837602532,2.24243667318294,2.24249654546976,2.24353433177467,2.24411309721394,2.24408316107053,2.24527062809249,2.24614875496587,2.24658781840256,2.247445987847,2.24857358258214,2.24944173074105,2.25002049618033,2.25044958090255,2.25141751620616,2.2522756856506,2.25341325910021,2.25389223739478,2.25551876785343,2.25655655415834,2.25859221191027,2.25943042392577,2.2615658688224,2.26678473649034,2.27029724398387,2.32449164227178,2.32448166355731,2.32491074827953,2.32526000328599,2.32517019485576,2.32563919443586,2.32671689559865,2.32578887515292,2.32514025871235,2.32480098242036,2.324920726994,2.32537974785964,2.32457147198755,2.32522008842811,2.32512030128341,2.32471117399013,2.32507040771106,2.32454153584414,2.32675681045653,2.32622793858961,2.32767485218779,2.32746529918392,2.32818376662578,2.32880244692293,2.32951093565032,2.33020944566324,2.33114744482344,2.33144680625755,2.33183597612189,2.3329036985702,2.33192578455212,2.33326293229113,2.33228501827305,2.33231495441646,2.3333726981503,2.33333278329242,2.33425082502369,2.27948764001097,2.27982691630296,2.27771142883526,2.27636430238178,2.27864942799547,2.2775318119748,2.27647406824095,2.27606494094767,2.27735219511434,2.276793387104,2.27690315296317,2.27683330196188,2.27653394052777,2.27718255696834,2.27764157783397,2.27755176940374,2.27757172683268,2.27779125855103,2.27807066255619,2.27899868300193,2.27838998141924,2.27854964085076,2.27908849143216,2.27923817214921,2.27948764001097,2.27979698015955,2.27959740587014,2.28095451103809,2.28107425561174,2.2815232977629,2.28229165877711,2.28320970050837,2.28428740167116,2.28503580525643,2.28743069672929,2.28793961116727,2.2896060564838,2.35073566132853,2.34870998229107,2.35023672560502,2.35149404362827,2.35290104236858,2.35486684911922,2.35525601898356,2.35618403942929,2.35464731740087,2.35728169802102,2.355944550282,2.35532586998485,2.35536578484273,2.35724178316314,2.35577491213601,2.35652331572128,2.35728169802102,2.357790612459,2.35682267715539,2.35713201730396,2.35750122973936,2.35710208116055,2.35726174059208,2.35744135745254,2.35589465670965,2.35735154902231,2.35280125522388,2.35397874353137,2.354437764397,2.29228035196183,2.29163173552126,2.29330815955226,2.28985552434556,2.28824895131585,2.28787973888045,2.2876602071621,2.28720118629647,2.28742071801481,2.28760033487528,2.28797952602515,2.2877599943068,2.28772007944892,2.28707146300836,2.28728101601223,2.28703154815048,2.28804937702644,2.28783982402257,2.28721116501094,2.28761031358975,2.2877599943068,2.28791965373833,2.28817910031455,2.28873790832489,2.28845850431972,2.28907718461688,2.28947633319569,2.28946635448122,2.28930669504969,2.28981560948767,2.28959607776933,2.29078354479129,2.2918512672396,2.29127250180033,2.2926595431117,2.29186124595407,2.2917514800949,2.29343788284037,2.29249988368017,2.29282918125769,2.29388692499154,2.2936973294166,2.29501451972667,2.29766885777576
2.2392634419814,2.23979231384832,2.24035112185866,2.24063052586382,2.24103965315711,2.24242669446847,2.24312520448139,2.24343454462996,2.24304537476562,2.24552009595425,2.24542030880954,2.24548018109636,2.24670756297621,2.24759566856406,2.24758568984959,2.24915234802142,2.24971115603175,2.25048949576043,2.25130775034699,2.25222579207825,2.25349308881597,2.25395210968161,2.25553872528237,2.25679604330563,2.25814316975911,2.26092723109631,2.2628431442746,2.26438984501748,2.32194707008187,2.32359355796946,2.32339398368006,2.32497062056636,2.32422221698109,2.32497062056636,2.32481096113483,2.32490076956506,2.32580883258186,2.32417232340874,2.32367338768522,2.32396277040486,2.32417232340874,2.32474111013354,2.32386298326016,2.32389291940357,2.32413240855086,2.32476106756248,2.32471117399013,2.32675681045653,2.32609821530149,2.32626785344749,2.32674683174206,2.32708610803405,2.32852304291776,2.32900202121234,2.32971050993972,2.33023938180665,2.33100774282086,2.33041899866711,2.33211538012705,2.33175614640612,2.33271410299527,2.33440050574074,2.33133704039837,2.3313969126852,2.33349244272395,2.28047553274352,2.27988678858978,2.27918827857686,2.27720251439728,2.27714264211046,2.27687321681976,2.2765239618133,2.27600506866085,2.2759551750885,2.27584540922933,2.27579551565698,2.27653394052777,2.27635432366731,2.2772623866841,2.27712268468152,2.27738213125775,2.27739210997222,2.27728234411304,2.27806068384172,2.27784115212338,2.27804072641278,2.27811057741407,2.27835006656136,2.27901864043087,2.2790086617164,2.27982691630296,2.28032585202647,2.28057531988823,2.28102436203939,2.28111417046962,2.28145344676161,2.28254112663886,2.28334940251095,2.28414769966857,2.28547486869312,2.28726105858329,2.28811922802773,2.35213268135437,2.35097515047582,2.35009702360244,2.3506458528983,2.350915278189,2.35390889253007,2.35414838167736,2.35464731740087,2.35384902024325,2.35400867967478,2.35430804110888,2.35417831782077,2.35392884995901,2.35505644469415,2.35440782825359,2.35530591255591,2.35526599769803,2.35606429485565,2.35602437999777,2.35576493342154,2.35645346471999,2.35656323057916,2.35639359243316,2.35618403942929,2.35456748768511,2.35461738125746,2.35748127231042,2.35149404362827,2.35200295806626,2.35361950981044,2.35408850939054,2.29003514120602,2.2883986320329,2.28892750389982,2.28824895131585,2.28738080315693,2.28735086701352,2.28713133529518,2.2874606328727,2.28790967502386,2.28742071801481,2.28699163329259,2.28755044130293,2.28760033487528,2.28675214414531,2.28726105858329,2.28732093087011,2.28848844046313,2.28818907902902,2.28772007944892,2.28749056901611,2.28767018587657,2.28863812118019,2.28871795089595,2.2889674187577,2.28907718461688,2.28851837660654,2.2886680573236,2.28899735490111,2.28916699304711,2.28966592877062,2.29074362993341,2.29068375764659,2.29127250180033,2.29150201223315,2.29119267208457,2.29244999010782,2.29267950054064,2.29306867040497,2.29327822340885,2.29340794669696,2.29413639285329,2.2947051795781,2.29503447715561
2.23931333555375,2.23970250541809,2.24029124957184,2.24018148371266,2.24111948287287,2.24210737560542,2.24274601333152,2.24332477877079,2.24358422534702,2.2449313518005,2.24511096866097,2.24635830796975,2.24678739269197,2.24735617941677,2.24829417857697,2.2487232632992,2.24950160302787,2.25005043232374,2.25073896362219,2.25296421694905,2.25395210968161,2.25372259924879,2.25494000241416,2.25694572402268,2.25814316975911,2.25944040264024,2.2605280825175,2.26392084543738,2.32157785764647,2.32285513309866,2.32374323868652,2.32402264269168,2.32442179127049,2.32511032256894,2.32511032256894,2.32384302583122,2.32406255754956,2.32353368568264,2.32319440939065,2.32325428167747,2.32313453710383,2.32334409010771,2.32310460096042,2.32300481381572,2.32315449453277,2.32404260012062,2.32426213183897,2.32442179127049,2.32570904543715,2.32590861972656,2.32591859844103,2.32695638474594,2.32756508632862,2.3279742136219,2.32782453290485,2.330289275379,2.32978036094102,2.32973046736866,2.33087801953274,2.33070838138675,2.33224510341517,2.33333278329242,2.32867272363482,2.32857293649012,2.32774470318908,2.32925148907409,2.2787392364257,2.27838000270477,2.27667364253036,2.27750187583139,2.2759551750885,2.27760166297609,2.27708276982364,2.27687321681976,2.27635432366731,2.27653394052777,2.27612481323449,2.27651398309883,2.27655389795672,2.27736217382881,2.27708276982364,2.27789104569573,2.27870930028229,2.27770145012079,2.27784115212338,2.27840993884818,2.27789104569573,2.27909847014663,2.27889889585722,2.27905855528875,2.27898870428746,2.28035578816988,2.28089463875127,2.28070504317634,2.28139357447479,2.28202223348641,2.28343921094119,2.28452689081844,2.28459674181974,2.28527529440371,2.2881292067422,2.28995531149026,2.35032653403525,2.3472930048363,2.3505460657536,2.35088534204559,2.35221251107013,2.35425814753653,2.35402863710372,2.35377916924196,2.35356961623808,2.35348978652232,2.35358957366703,2.3543679133957,2.35365942466832,2.35370931824067,2.35462735997193,2.35372927566961,2.35405857324713,2.35588467799518,2.35519614669674,2.35676280486856,2.35517618926779,2.3550065511218,2.35568510370578,2.35610420971353,2.35464731740087,2.35335008451974,2.35124457576652,2.3514840649138,2.3524919150753,2.35284117008176,2.35433797725229,2.28860818503677,2.28872792961042,2.28869799346701,2.28761031358975,2.28770012201998,2.28702156943601,2.28786976016598,2.28711137786624,2.28778993045021,2.28789969630939,2.28838865331843,2.28783982402257,2.28821901517243,2.28817910031455,2.28658250599931,2.28703154815048,2.28640288913885,2.28669227185849,2.28698165457812,2.2875604200174,2.28769014330551,2.28852835532101,2.28781986659362,2.28784980273704,2.28787973888045,2.2880294195975,2.28890754647088,2.28861816375124,2.28894746132876,2.28874788703936,2.28890754647088,2.29016486449413,2.28974575848638,2.29049416207165,2.29166167166467,2.29211071381583,2.29227037324736,2.29281920254322,2.29204086281454,2.29292896840239,2.29457545628998,2.29448564785975,2.29440581814399
2.238894229546,2.23980229256279,2.24008169656796,2.24069039815065,2.24111948287287,2.2413090784478,2.24333475748526,2.24343454462996,2.24407318235606,2.24545024495295,2.24578952124494,2.24574960638706,2.2465079886868,2.24722645612866,2.24813451914545,2.24909247573459,2.24992070903562,2.25070902747877,2.25053938933278,2.25220583464931,2.25320370609634,2.25387227996584,2.25503978955886,2.25699561759503,2.25863212676815,2.25974974278882,2.26231427240767,2.26514822731722,2.32002117818911,2.32019081633511,2.32282519695525,2.32323432424853,2.32328421782088,2.32392285554698,2.32374323868652,2.32336404753665,2.3237831535444,2.32232626123174,2.32307466481701,2.32256575037903,2.32222647408704,2.32186724036611,2.32223645280151,2.32266553752373,2.32285513309866,2.32284515438419,2.32362349411287,2.32539970528858,2.32529991814387,2.32487083342165,2.32530989685834,2.32617804501726,2.32622793858961,2.32691646988805,2.32833344734283,2.32849310677435,2.3291816380728,2.32963068022396,2.32986019065678,2.32985021194231,2.33049882838287,2.32981029708443,2.33385167644488,2.33336271943583,2.32937123364774,2.32878248949399,2.27949761872544,2.27735219511434,2.27662374895801,2.27606494094767,2.27551611165181,2.2811540853275,2.27545623936499,2.27529657993346,2.27664370638695,2.27611483452002,2.27602502608979,2.27634434495284,2.27733223768539,2.27673351481718,2.27668362124483,2.27766153526291,2.278469811135,2.27898870428746,2.27821036455878,2.27772140754973,2.27808064127066,2.27838000270477,2.27894878942957,2.27903859785981,2.27986683116084,2.28013625645153,2.28013625645153,2.28092457489468,2.28143348933267,2.28227170134817,2.28340927479778,2.28412774223963,2.28590395341534,2.28716127143859,2.28817910031455,2.34872993972002,2.34967791759469,2.34978768345386,2.35050615089572,2.35001719388668,2.35294095722646,2.35320040380269,2.35362948852491,2.35431801982335,2.35412842424842,2.35240210664507,2.35440782825359,2.3526914893647,2.35277131908047,2.35290104236858,2.35274138293705,2.35300082951328,2.35366940338279,2.35381908409984,2.35482693426134,2.35434795596676,2.35435793468123,2.35430804110888,2.35541567841508,2.35424816882206,2.35423819010759,2.35376919052749,2.35170359663215,2.35461738125746,2.35190317092155,2.35334010580527,2.28956614162592,2.28994533277579,2.28814916417114,2.28785978145151,2.28730097344117,2.28679205900319,2.28751052644505,2.28639291042438,2.28684195257554,2.28728101601223,2.28683197386107,2.28678208028872,2.28657252728484,2.28723112243988,2.2875604200174,2.28690182486236,2.28647274014014,2.28659248471378,2.28702156943601,2.28702156943601,2.28676212285978,2.28737082444246,2.28779990916468,2.28790967502386,2.28783982402257,2.28858822760783,2.28814916417114,2.28851837660654,2.2883986320329,2.28869799346701,2.28847846174866,2.28947633319569,2.28936656733651,2.28974575848638,2.29028460906778,2.29089331065046,2.29143216123185,2.29163173552126,2.29149203351868,2.29241007524994,2.29204086281454,2.29273937282746,2.29366739327319,2.29476505186492
2.23922352712352,2.23976237770491,2.24165833345426,2.24023137728501,2.23915367612223,2.24024135599948,2.24160843988191,2.24313518319586,2.24321501291162,2.24457211807957,2.24549015981084,2.24549015981084,2.24645809511445,2.24701690312478,2.24790500871263,2.24853366772426,2.24926211388059,2.24994066646457,2.25052941061831,2.2514374736351,2.25411176911313,2.25406187554078,2.25487015141287,2.25656653287281,2.25809327618676,2.25983955121905,2.26263359127072,2.31900334931315,2.31845452001728,2.32100907092167,2.32200694236869,2.32269547366714,2.32268549495267,2.32475108884801,2.32298485638678,2.3224060909475,2.32254579295009,2.32118868778213,2.32271543109608,2.32169760222011,2.32157785764647,2.32140821950048,2.32150800664518,2.32145811307283,2.32172753836353,2.3223063038028,2.3229449415289,2.32339398368006,2.32334409010771,2.3241523659798,2.32421223826662,2.32651732130924,2.32739544818263,2.32700627831829,2.32759502247203,2.32880244692293,2.32921157421621,2.32899204249787,2.32925148907409,2.32991008422913,2.33059861552758,2.33221516727176,2.32826359634154,2.32616806630279,2.32736551203921,2.2792082360058,2.2776315991195,2.27711270596705,2.27663372767248,2.27707279110917,2.27582545180039,2.27597513251744,2.2750171759283,2.27529657993346,2.27567577108333,2.27570570722674,2.27627449395155,2.27620464295026,2.27623457909367,2.27671355738824,2.27643415338307,2.27663372767248,2.27728234411304,2.27798085412596,2.27793096055361,2.27793096055361,2.27761164169056,2.27869932156782,2.27882904485593,2.27899868300193,2.27931800186497,2.28009634159365,2.28076491546316,2.28107425561174,2.28120397889985,2.2818925101983,2.28373857237529,2.28472646510785,2.28501584782749,2.2872909947267,2.35039638503655,2.34934862001717,2.349238854158,2.34949830073422,2.34939851358952,2.34982759831174,2.35062589546936,2.35072568261406,2.35279127650941,2.35244202150295,2.35107493762052,2.35172355406109,2.35104500147711,2.35149404362827,2.35204287292414,2.35110487376393,2.35145412877039,2.35260168093447,2.35190317092155,2.35230231950036,2.35304074437116,2.35292099979752,2.35335008451974,2.35374923309855,2.35315051023033,2.35294095722646,2.35337004194868,2.35343989294997,2.35233225564377,2.3526914893647,2.35180338377685,2.29057399178741,2.28973577977191,2.28857824889336,2.28799948345409,2.28774003687786,2.28657252728484,2.28574429398381,2.28621329356392,2.28594386827322,2.28592391084428,2.28509567754325,2.28723112243988,2.28668229314402,2.28586403855746,2.28648271885461,2.28589397470087,2.28591393212981,2.28640288913885,2.28617337870603,2.28621329356392,2.285514783551,2.28643282528226,2.28697167586365,2.28706148429389,2.2882988448882,2.28774003687786,2.2876602071621,2.28779990916468,2.28788971759492,2.29033450264013,2.2897058436285,2.28804937702644,2.28888758904194,2.28944639705227,2.28907718461688,2.28992537534685,2.2908134809347,2.29119267208457,2.29151199094762,2.29218056481712,2.29182133109619,2.29237016039206,2.29304871297603,2.29346781898378,2.29414637156776
2.23875452754342,2.23901397411964,2.24005176042455,2.24088997244005,2.24100971701369,2.24017150499819,2.24142882302144,2.24299548119327,2.24366405506278,2.24467190522427,2.24516086223332,2.245939201962,2.2461387762514,2.24691711598008,2.24756573242065,2.24822432757568,2.24935192231082,2.2499306877501,2.25043960218808,2.2513376864904,2.25320370609634,2.25391219482372,2.25479032169711,2.25719519188444,2.25830282919063,2.26051810380303,2.26233422983661,2.31910313645785,2.31769613771755,2.32024070990746,2.32215662308575,2.32247594194879,2.32358357925499,2.32273538852502,2.32107892192296,2.32181734679376,2.32151798535965,2.32141819821495,2.32144813435836,2.32060992234286,2.32134834721366,2.32178741065035,2.32054007134157,2.32116873035319,2.32150800664518,2.32096915606379,2.32251585680668,2.32222647408704,2.32282519695525,2.32335406882218,2.32367338768522,2.32563919443586,2.32670691688418,2.324920726994,2.32474111013354,2.33007972237512,2.32780457547591,2.32811391562448,2.32877251077952,2.32902197864128,2.32941114850562,2.32933131878985,2.32782453290485,2.32511032256894,2.32735553332475,2.32698632088935,2.27703287625129,2.27727236539857,2.27570570722674,2.27549615422287,2.27503713335724,2.27470783577972,2.27505709078618,2.27527662250452,2.27515687793088,2.27581547308592,2.27587534537274,2.27621462166473,2.27598511123191,2.27665368510142,2.27688319553423,2.27665368510142,2.27788106698126,2.27732225897092,2.2779010244102,2.27808064127066,2.27782119469444,2.27811057741407,2.2800464480213,2.27923817214921,2.27974708658719,2.280315873312,2.28095451103809,2.28075493674869,2.28219187163241,2.2828305093585,2.28387827437788,2.28476637996573,2.28652263371249,2.28852835532101,2.35048619346678,2.34986751316962,2.34928874773035,2.34879979072131,2.3493386413027,2.35060593804042,2.34991740674197,2.35090529947453,2.35270146807917,2.35108491633499,2.3508154910443,2.35043629989443,2.35088534204559,2.35002717260115,2.35142419262698,2.35102504404817,2.3514840649138,2.35105498019158,2.35146410748486,2.35151400105721,2.35203289420967,2.35210274521096,2.35250189378977,2.35339997809209,2.35391887124454,2.35264159579235,2.35288108493964,2.35244202150295,2.35289106365411,2.35404859453266,2.35285114879623,2.28871795089595,2.28820903645796,2.28824895131585,2.28897739747217,2.28708144172283,2.28758037744634,2.28795956859621,2.28556467712335,2.28578420884169,2.28555469840888,2.28644280399673,2.28560459198123,2.28657252728484,2.28643282528226,2.28596382570216,2.28576425141275,2.28587401727193,2.28650267628355,2.28686191000448,2.28549482612206,2.28600374056004,2.28706148429389,2.28690182486236,2.2867222080019,2.28779990916468,2.28696169714918,2.28819905774349,2.28661244214272,2.2883986320329,2.29113279979775,2.28796954731068,2.28803939831197,2.28939650347992,2.28892750389982,2.28875786575383,2.29016486449413,2.29107292751093,2.29086337450705,2.29274935154193,2.29149203351868,2.29233024553418,2.29274935154193,2.29309860654839,2.29323830855097,2.294066541852
2.23814582596073,2.24008169656796,2.23987214356409,2.23987214356409,2.24236682218165,2.24024135599948,2.24266618361576,2.242416715754,2.24354431048914,2.24444239479146,2.24459207550851,2.24579949995941,2.24628845696845,2.24685724369326,2.24679737140644,2.24873324201367,2.24979098574751,2.25010032589609,2.25030987889996,2.25137760134828,2.25261496194259,2.25384234382243,2.25494000241416,2.25688585173586,2.25841259504981,2.26045823151621,2.26269346355754,2.31939251917749,2.31960207218136,2.31936258303408,2.32065981591521,2.32153794278859,2.32154792150306,2.32174749579247,2.32338400496559,2.32302477124466,2.32189717650952,2.32031056090875,2.3202606673364,2.32005111433252,2.32122860264001,2.31955217860901,2.32061990105733,2.32037043319557,2.32041034805345,2.32090928377697,2.3227753033829,2.32111883678084,2.32249589937773,2.3225058780922,2.32327423910641,2.32333411139324,2.32340396239453,2.32948099950691,2.32416234469427,2.32664704459736,2.32745532046945,2.32818376662578,2.32858291520459,2.32859289391906,2.32904193607022,2.32846317063094,2.32911178707151,2.33096782796297,2.3299200629436,2.27865940670994,2.27751185454586,2.27657385538566,2.27566579236886,2.27515687793088,2.27513692050194,2.27649402566989,2.27533649479135,2.27555602650969,2.27549615422287,2.2757556007991,2.27565581365439,2.27577555822804,2.27641419595413,2.27717257825387,2.27620464295026,2.27666366381589,2.27747193968798,2.2778012372655,2.27840993884818,2.27781121597997,2.27765155654844,2.27861949185206,2.27928806572156,2.27981693758849,2.27891885328616,2.27962734201355,2.28054538374481,2.2812538724722,2.28174282948124,2.28389823180682,2.28479631610914,2.28557465583782,2.28798950473962,2.29013492835072,2.34867006743319,2.34825096142544,2.34789172770451,2.34833079114121,2.34939851358952,2.34977770473939,2.34986751316962,2.35080551232983,2.34919893930012,2.34829087628332,2.34858025900296,2.35011698103138,2.34989744931303,2.34993736417091,2.35015689588926,2.35014691717479,2.35051612961019,2.35019681074714,2.35067578904171,2.35066581032724,2.35121463962311,2.35205285163861,2.35256176607659,2.35171357534662,2.35169361791768,2.35169361791768,2.35190317092155,2.35277131908047,2.35425814753653,2.35336006323421,2.29088333193599,2.28928673762075,2.28793961116727,2.28767018587657,2.28741073930034,2.28640288913885,2.28654259114143,2.28535512411947,2.28545491126418,2.28549482612206,2.28544493254971,2.2859837831311,2.28546488997865,2.28673218671637,2.28530523054712,2.28554471969441,2.285514783551,2.28619333613497,2.28637295299544,2.28697167586365,2.28581414498511,2.28565448555358,2.28629312327968,2.28736084572799,2.28699163329259,2.28675214414531,2.28599376184557,2.28687188871895,2.28636297428097,2.28827888745926,2.28764024973316,2.28824895131585,2.28816912160008,2.28865807860913,2.28857824889336,2.28880775932618,2.29020477935201,2.2911826933701,2.29078354479129,2.29061390664529,2.29148205480421,2.29207079895795,2.29186124595407,2.29361749970084,2.29334807441014,2.29427609485588
2.23871461268554,2.23972246284703,2.24038105800207,2.24013159014031,2.24162839731085,2.24201756717519,2.24243667318294,2.24290567276304,2.24423284178758,2.24450226707828,2.24513092608991,2.2455699895266,2.24591924453306,2.24661775454597,2.24754577499171,2.24871328458473,2.24957145402917,2.25009034718162,2.25084872948136,2.25166698406792,2.25283449366094,2.25405189682631,2.2552293851338,2.25678606459116,2.2591510199206,2.26051810380303,2.26296288884824,2.31816513729765,2.32158783636094,2.32033051833769,2.32023073119299,2.32160779378988,2.32153794278859,2.32155790021753,2.32121862392554,2.32074962434544,2.31947234889325,2.31970185932607,2.32049017776921,2.31996130590229,2.31896343445527,2.31911311517232,2.31886364731056,2.32017085890617,2.31941247660643,2.31976173161289,2.32104898577955,2.32029060347981,2.3213683046426,2.32249589937773,2.32263560138032,2.32307466481701,2.32279526081184,2.32242604837644,2.32626785344749,2.32586870486868,2.32613813015938,2.32712602289193,2.32796423490743,2.32853302163223,2.32790436262061,2.3287126384927,2.32866274492035,2.32877251077952,2.32877251077952,2.27894878942957,2.27688319553423,2.27703287625129,2.27546621807946,2.27470783577972,2.27534647350582,2.27450826149031,2.27510698435853,2.27513692050194,2.27492736749807,2.27541632450711,2.27546621807946,2.27556600522416,2.27579551565698,2.27658383410013,2.27637428109625,2.27690315296317,2.27755176940374,2.27779125855103,2.27808064127066,2.27808064127066,2.27813053484301,2.27841991756265,2.27839996013371,2.27908849143216,2.27943774643862,2.28096448975256,2.28046555402905,2.28097446846703,2.28203221220088,2.28367870008847,2.28421755066987,2.28576425141275,2.28803939831197,2.34540702780142,2.34560660209083,2.34801147227816,2.34755245141253,2.3481312168518,2.34817113170968,2.34773206827299,2.34931868387376,2.3487000035766,2.34769215341511,2.34811125942286,2.35026666174843,2.3493386413027,2.34882972686472,2.349238854158,2.34930870515929,2.34904925858306,2.35033651274972,2.35005710874456,2.34946836459081,2.34969787502363,2.35106495890605,2.3506458528983,2.35168363920321,2.35093523561794,2.35265157450682,2.35065583161277,2.35073566132853,2.34868004614766,2.35237217050166,2.35432799853782,2.29006507734943,2.28867803603807,2.28890754647088,2.28707146300836,2.28705150557942,2.28663239957167,2.28676212285978,2.28652263371249,2.28543495383524,2.28577423012722,2.28517550725901,2.2859837831311,2.28579418755616,2.28528527311818,2.28508569882878,2.28506574139984,2.28511563497219,2.28531520926159,2.28567444298252,2.28542497512076,2.28575427269828,2.28578420884169,2.28485618839596,2.28647274014014,2.28658250599931,2.28677210157425,2.28649269756908,2.28716127143859,2.28728101601223,2.28780988787915,2.28770012201998,2.28771010073445,2.28863812118019,2.28834873846055,2.28851837660654,2.28845850431972,2.28934660990757,2.28996529020473,2.29030456649672,2.29031454521119,2.29211071381583,2.29149203351868,2.29153194837656,2.29333809569567,2.29340794669696,2.29353766998508
2.23878446368683,2.23915367612223,2.23974242027597,2.24081014272429,2.24179803545684,2.24187786517261,2.24269611975917,2.24318507676821,2.2435243530602,2.2444623522204,2.24502116023073,2.24525067066355,2.24610884010799,2.24679737140644,2.24720649869972,2.2483540508638,2.24951158174234,2.25001051746586,2.25045955961702,2.25182664349944,2.25273470651624,2.25357291853174,2.25487015141287,2.25677608587669,2.25829285047616,2.2605280825175,2.26376118600586,2.31763626543072,2.31754645700049,2.31809528629636,2.32010100790488,2.32152796407412,2.32143815564389,2.32168762350564,2.32339398368006,2.32288506924207,2.31892351959739,2.31955217860901,2.319891454901,2.31929273203279,2.3186840304501,2.3193226681762,2.31884368988162,2.31867405173563,2.31869400916457,2.31912309388679,2.32027064605087,2.32014092276276,2.32068975205862,2.32169760222011,2.3224060909475,2.3225757290935,2.32255577166456,2.32338400496559,2.32454153584414,2.32559927957798,2.32661710845395,2.32624789601855,2.32658717231054,2.32683664017229,2.32798419233637,2.32761497990097,2.32841327705859,2.32951093565032,2.32970053122525,2.2778012372655,2.27612481323449,2.27682332324741,2.27526664379005,2.27523670764664,2.27473777192313,2.27472779320866,2.2753863883637,2.27468787835078,2.27545623936499,2.27478766549548,2.27598511123191,2.27541632450711,2.27567577108333,2.27667364253036,2.27700294010788,2.27699296139341,2.27685325939082,2.27692311039211,2.27767151397738,2.27777130112209,2.27812055612854,2.27906853400322,2.27871927899676,2.27912840629004,2.27935791672285,2.27995663959107,2.28153327647737,2.28143348933267,2.2816230849076,2.28320970050837,2.28604365541792,2.28607359156133,2.34378049734277,2.34486817722003,2.3458161550947,2.34670426068255,2.34713334540478,2.34804140842157,2.34685394139961,2.34782187670322,2.347392791981,2.34800149356369,2.34801147227816,2.34790170641898,2.3476622172717,2.34745266426782,2.34783185541769,2.34793164256239,2.34805138713604,2.34847049314379,2.3484006421425,2.34800149356369,2.3485004292872,2.35025668303396,2.3487698545779,2.34979766216833,2.34993736417091,2.34995732159986,2.35029659789184,2.3503464914642,2.35140423519804,2.34877983329237,2.34940849230399,2.35039638503655,2.28893748261429,2.2884984191776,2.28738080315693,2.28684195257554,2.28642284656779,2.28548484740759,2.28609354899027,2.28555469840888,2.285345145405,2.28502582654196,2.28489610325384,2.28543495383524,2.28503580525643,2.28726105858329,2.28452689081844,2.28493601811172,2.28505576268537,2.28499589039854,2.28505576268537,2.28531520926159,2.28490608196831,2.28564450683911,2.28548484740759,2.28526531568924,2.28573431526934,2.28689184614789,2.28629312327968,2.28613346384815,2.28650267628355,2.28740076058587,2.28716127143859,2.28749056901611,2.28852835532101,2.28810924931326,2.28905722718794,2.28925680147734,2.2886680573236,2.28949629062463,2.28934660990757,2.29057399178741,2.29063386407423,2.29094320422281,2.29210073510136,2.29493469001091,2.29338798926802,2.29301877683262
2.23818574081861,2.23952288855763,2.2398322287062,2.24034114314419,2.24098975958475,2.24168826959767,2.24198763103178,2.2426861410447,2.24375386349301,2.24343454462996,2.24415301207182,2.24504111765967,2.24591924453306,2.24653792483021,2.24829417857697,2.24857358258214,2.24876317815708,2.24980096446198,2.25036975118679,2.2507688997656,2.25292430209117,2.25351304624491,2.25440115183277,2.2569058091648,2.25841259504981,2.26054803994644,2.2626735061286,2.31697767027569,2.31734688271109,2.31851439230411,2.31934262560514,2.31982160389971,2.31994134847335,2.31713732970721,2.31668828755605,2.31775601000437,2.31790569072142,2.31916300874467,2.31812522243977,2.3181152437253,2.31796556300824,2.31736684014003,2.31787575457801,2.31783583972013,2.3183148180147,2.31852437101858,2.3191530300302,2.31976173161289,2.31993136975888,2.3208294540612,2.32256575037903,2.32236617608962,2.32256575037903,2.32353368568264,2.32484089727824,2.32469121656119,2.32542964143199,2.32610819401596,2.32637761930666,2.3263975767356,2.32655723616713,2.32674683174206,2.33071836010122,2.32841327705859,2.32812389433895,2.27715262082493,2.27654391924225,2.27601504737532,2.27513692050194,2.27476770806654,2.27450826149031,2.27459806992055,2.27426877234303,2.27472779320866,2.27476770806654,2.27539636707817,2.27549615422287,2.2754861755084,2.27591526023062,2.27638425981072,2.27633436623837,2.27655389795672,2.27677342967506,2.27791100312467,2.27820038584431,2.27742204611563,2.27774136497867,2.27843987499159,2.27877915128358,2.27851970470735,2.27949761872544,2.27971715044378,2.28061523474611,2.28174282948124,2.28202223348641,2.28421755066987,2.28511563497219,2.28717125015306,2.34548685751718,2.34412975234923,2.34509768765284,2.34657453739444,2.34694374982984,2.34745266426782,2.34715330283372,2.3453471555146,2.34563653823424,2.3469237924009,2.34723313254948,2.34737283455206,2.34688387754302,2.34700362211666,2.34670426068255,2.34761232369935,2.34680404782726,2.34759236627041,2.34728302612183,2.34789172770451,2.3486002164319,2.34995732159986,2.34816115299521,2.34888959915154,2.34911910958435,2.34878981200684,2.34971783245257,2.3486002164319,2.35065583161277,2.34916900315671,2.34644481410633,2.34777198313087,2.28861816375124,2.28818907902902,2.28759035616081,2.28632305942309,2.28522540083136,2.28545491126418,2.28543495383524,2.28510565625772,2.28438718881586,2.2847763586802,2.28483623096702,2.28614344256262,2.28511563497219,2.28456680567632,2.28488612453937,2.28456680567632,2.28476637996573,2.2849759329696,2.28521542211689,2.28476637996573,2.28536510283394,2.28519546468795,2.28535512411947,2.28574429398381,2.28570437912593,2.28521542211689,2.28724110115435,2.28555469840888,2.28620331484944,2.28768016459104,2.28664237828614,2.28702156943601,2.2868219951466,2.28725107986882,2.28820903645796,2.28851837660654,2.29011497092178,2.28993535406132,2.29015488577966,2.28958609905486,2.29049416207165,2.29215062867371,2.28986550306003,2.29191113952643,2.29281920254322,2.29253979853805
2.23828552796332,2.2391636548367,2.23956280341551,2.23980229256279,2.24077022786641,2.24123922744651,2.24174814188449,2.24253646032764,2.24311522576692,2.24359420406149,2.24433262893229,2.24495130922944,2.24635830796975,2.24652794611574,2.24777528542452,2.24827422114803,2.24926211388059,2.24944173074105,2.2502300491842,2.25109819734311,2.25220583464931,2.25371262053432,2.25558861885473,2.25629710758211,2.25796355289864,2.26048816765962,2.2621047194038,2.31607958597337,2.31681801084416,2.31770611643202,2.31975175289842,2.31893349831186,2.3192528171749,2.31734688271109,2.31694773413228,2.31703754256251,2.31769613771755,2.31783583972013,2.31764624414519,2.31824496701341,2.31723711685191,2.31740675499791,2.31708743613486,2.3169078192744,2.31723711685191,2.31748658471367,2.31812522243977,2.31866407302116,2.31946237017878,2.31983158261418,2.32122860264001,2.32251585680668,2.3229449415289,2.32372328125757,2.32386298326016,2.32467125913225,2.3251901522847,2.32569906672268,2.32658717231054,2.32603834301467,2.32651732130924,2.32645744902242,2.32709608674852,2.33111750868003,2.32878248949399,2.27782119469444,2.27647406824095,2.27542630322158,2.27505709078618,2.2747477506376,2.27469785706525,2.27449828277584,2.27424881491409,2.27435858077326,2.27479764420995,2.27543628193605,2.2756857497978,2.27577555822804,2.27494732492701,2.27581547308592,2.27643415338307,2.27650400438436,2.2763243875239,2.27641419595413,2.27858955570865,2.27755176940374,2.27787108826679,2.27768149269185,2.27789104569573,2.27864942799547,2.27946768258203,2.28083476646445,2.28093455360915,2.28139357447479,2.28249123306651,2.2845069333895,2.28631308070862,2.34525734708437,2.34410979492029,2.34473845393192,2.34444907121228,2.34703355826007,2.34653462253656,2.34664438839573,2.34675415425491,2.34540702780142,2.34596583581176,2.34588600609599,2.3456165808053,2.34586604866705,2.34673419682597,2.34758238755594,2.34613547395775,2.34614545267222,2.34610553781434,2.34623526110245,2.34707347311795,2.34779194055981,2.34777198313087,2.34834076985568,2.34894947143836,2.34787177027557,2.34821104656756,2.3486002164319,2.34855032285955,2.34745266426782,2.34925881158694,2.34790170641898,2.34744268555335,2.28858822760783,2.28828886617373,2.28716127143859,2.28605363413239,2.28621329356392,2.28572433655487,2.28562454941017,2.28448697596056,2.28503580525643,2.28470650767891,2.28456680567632,2.2847763586802,2.28464663539209,2.2847763586802,2.2844071462448,2.28459674181974,2.28449695467503,2.2846765715355,2.28490608196831,2.28445703981715,2.28459674181974,2.28491606068278,2.28520544340242,2.28584408112852,2.28482625225255,2.28580416627063,2.28518548597348,2.28548484740759,2.28573431526934,2.28597380441663,2.28702156943601,2.28789969630939,2.28689184614789,2.28630310199415,2.2877599943068,2.28811922802773,2.28809927059879,2.28836869588949,2.28975573720085,2.28912707818923,2.28993535406132,2.28963599262721,2.28989543920344,2.28988546048897,2.28998524763367,2.29170158652255,2.29194107566984
2.23783648581216,2.23873457011448,2.2395328672721,2.23981227127726,2.24044093028889,2.24161841859638,2.24209739689095,2.2425165028987,2.24323497034056,2.24360418277596,2.24366405506278,2.24490141565709,2.24588930838964,2.24656786097362,2.24690713726561,2.24784513642581,2.24932198616741,2.2500304748948,2.25090860176818,2.25038970861573,2.25246528122554,2.25368268439091,2.25499987470098,2.25751451074748,2.257843808325,2.26030855079915,2.26298284627718,2.31644879840876,2.31644879840876,2.3172071807085,2.31852437101858,2.31882373245268,2.31914305131573,2.31796556300824,2.31657852169688,2.31666833012711,2.31696769156122,2.31714730842168,2.31649869198112,2.31771609514649,2.31740675499791,2.31587003296949,2.31627916026277,2.31639890483641,2.31658850041135,2.31713732970721,2.31865409430669,2.31856428587646,2.31890356216845,2.31949230632219,2.32029060347981,2.32114877292425,2.32242604837644,2.3229449415289,2.32298485638678,2.32328421782088,2.32422221698109,2.32486085470718,2.32506042899659,2.32598844944232,2.32508038642553,2.32679672531441,2.32857293649012,2.33006974366065,2.27742204611563,2.27638425981072,2.27574562208463,2.27611483452002,2.27471781449419,2.27580549437145,2.27507704821512,2.27494732492701,2.27420890005621,2.2746479634929,2.27450826149031,2.27468787835078,2.27529657993346,2.27565581365439,2.27530655864793,2.2753863883637,2.27648404695542,2.27668362124483,2.27714264211046,2.27656387667119,2.27686323810529,2.27852968342182,2.27821036455878,2.27855961956524,2.27864942799547,2.27911842757557,2.27968721430037,2.28024602231071,2.28099442589598,2.28117404275644,2.28389823180682,2.28474642253679,2.28684195257554,2.34131575486862,2.34494800693579,2.34462868807274,2.34474843264639,2.34706349440348,2.3469237924009,2.34652464382209,2.34619534624457,2.34568643180659,2.34554672980401,2.34511764508179,2.34687389882855,2.34625521853139,2.34463866678721,2.34564651694871,2.34614545267222,2.34648472896421,2.3452473683699,2.3459857932407,2.34634502696163,2.34680404782726,2.34703355826007,2.34748260041123,2.34790170641898,2.34963800273681,2.34721317512054,2.34660447353785,2.34643483539186,2.34723313254948,2.34577624023682,2.34771211084405,2.28906720590241,2.28879778061171,2.28765022844763,2.28681201643213,2.28686191000448,2.28586403855746,2.28515554983007,2.2845069333895,2.28446701853162,2.28417763581198,2.2843073591001,2.28434727395798,2.28438718881586,2.28434727395798,2.28425746552775,2.28434727395798,2.28480629482361,2.28428740167116,2.28438718881586,2.28472646510785,2.28454684824738,2.28445703981715,2.28422752938434,2.28552476226547,2.28481627353808,2.28546488997865,2.28508569882878,2.28466659282103,2.28496595425513,2.28507572011431,2.28546488997865,2.2859837831311,2.28612348513368,2.28632305942309,2.28637295299544,2.28753048387399,2.2877599943068,2.28779990916468,2.28864809989466,2.28898737618664,2.2889674187577,2.28975573720085,2.28900733361558,2.2896060564838,2.28958609905486,2.2908134809347,2.29014490706519,2.29268947925511
2.23824561310544,2.2395328672721,2.23956280341551,2.23979231384832,2.24091990858346,2.24099973829922,2.24191778003049,2.24295556633539,2.24311522576692,2.2431551406248,2.24410311849947,2.24470184136769,2.24628845696845,2.24642815897104,2.24705681798266,2.24823430629015,2.24875319944261,2.24961136888705,2.25015021946844,2.25144745234957,2.25263491937153,2.25382238639349,2.25501983212992,2.25686589430692,2.2587818074852,2.2604282953728,2.26407052615444,2.31692777670334,2.31687788313099,2.31692777670334,2.31751652085708,2.31790569072142,2.31772607386096,2.31646875583771,2.3168379682731,2.31765622285966,2.31629911769171,2.31597979882866,2.31587003296949,2.31602969240101,2.3154309695328,2.31551079924856,2.31572035225244,2.31644879840876,2.31566047996562,2.31659847912582,2.31658850041135,2.31775601000437,2.31843456258834,2.31849443487517,2.31983158261418,2.3201608801917,2.32162775121882,2.32207679336998,2.32279526081184,2.32350374953923,2.32384302583122,2.32405257883509,2.32442179127049,2.32442179127049,2.32542964143199,2.32473113141907,2.32603834301467,2.32984023322784,2.27692311039211,2.27571568594121,2.27480762292442,2.27493734621254,2.27533649479135,2.2754861755084,2.27497726107042,2.27411909162598,2.2742787510575,2.27513692050194,2.27433862334432,2.27603500480426,2.27486749521124,2.27494732492701,2.27563585622545,2.27593521765956,2.27556600522416,2.27604498351873,2.27764157783397,2.27722247182622,2.27729232282751,2.27765155654844,2.27759168426162,2.27772140754973,2.27824030070219,2.2789388107151,2.27999655444895,2.28038572431329,2.2812538724722,2.28206214834429,2.2848761458249,2.28544493254971,2.34027796856372,2.3416250950172,2.34532719808566,2.34378049734277,2.3435709443389,2.34720319640607,2.34668430325361,2.34679406911279,2.34523738965543,2.34606562295646,2.34418962463605,2.3448781559345,2.34398007163218,2.3435709443389,2.34381043348618,2.34420958206499,2.34469853907403,2.34481828364768,2.34446902864122,2.34517751736861,2.34533717680013,2.34654460125103,2.34657453739444,2.34687389882855,2.3467242181115,2.34731296226524,2.3437705186283,2.34556668723295,2.34609555909987,2.3510150653337,2.34486817722003,2.34528728322778,2.3465545799655,2.28873790832489,2.28699163329259,2.28603367670345,2.28544493254971,2.28590395341534,2.28461669924868,2.28449695467503,2.28397806152258,2.28509567754325,2.28443708238821,2.28404791252387,2.28418761452645,2.28418761452645,2.28475640125126,2.28436723138692,2.28417763581198,2.28373857237529,2.28834873846055,2.28405789123834,2.28466659282103,2.28391818923576,2.28448697596056,2.2848761458249,2.28461669924868,2.28545491126418,2.28526531568924,2.28484620968149,2.28481627353808,2.28593388955875,2.28580416627063,2.28580416627063,2.28702156943601,2.28637295299544,2.28671222928743,2.28714131400965,2.28777995173574,2.28789969630939,2.28798950473962,2.28879778061171,2.28880775932618,2.28983556691661,2.29023471549542,2.29060392793082,2.28983556691661,2.29015488577966,2.29131241665821,2.29157186323444
2.23895410183282,2.23859486811189,2.2392634419814,2.23975239899044,2.24060058972041,2.2409398660124,2.24230694989483,2.24247658804082,2.24286575790516,2.2437239273496,2.24423284178758,2.24561988309895,2.24629843568293,2.24645809511445,2.24655788225915,2.24768547699429,2.24816445528886,2.24957145402917,2.25046953833149,2.251138112201,2.25159713306663,2.25362281210409,2.25551876785343,2.2569058091648,2.25809327618676,2.26249388926814,2.26323231413894,2.31481228923564,2.31617937311807,2.31611950083125,2.31819507344106,2.31708743613486,2.31651864941006,2.31602969240101,2.31657852169688,2.31697767027569,2.31513160809869,2.31541101210386,2.31581016068267,2.31482226795011,2.31433331094107,2.31456282137389,2.31465262980412,2.31517152295657,2.3153311823881,2.3157003948235,2.31621928797595,2.31677809598628,2.31771609514649,2.31833477544364,2.3197916677563,2.32073964563097,2.32077956048885,2.32171755964906,2.32200694236869,2.3223063038028,2.32350374953923,2.32317445196171,2.32372328125757,2.32449164227178,2.32497062056636,2.32520013099917,2.32480098242036,2.28150334033396,2.27748191840245,2.27565581365439,2.27494732492701,2.27503713335724,2.27472779320866,2.27446834663243,2.27409913419703,2.27498723978489,2.27411909162598,2.27470783577972,2.27440847434561,2.27413904905492,2.27480762292442,2.27510698435853,2.27461802734949,2.27544626065052,2.27567577108333,2.27620464295026,2.27618468552132,2.27670357867377,2.27717257825387,2.2779010244102,2.27791100312467,2.27805070512725,2.27875919385464,2.27912840629004,2.27986683116084,2.28077489417763,2.28174282948124,2.28292031778873,2.28404791252387,2.28716127143859,2.34072701071488,2.34066713842806,2.34053741513994,2.34285247689704,2.34332147647714,2.34362083791125,2.34695372854431,2.3467242181115,2.34417964592158,2.34369068891254,2.34374058248489,2.3437705186283,2.3434013061929,2.34329154033373,2.34326160419032,2.34326160419032,2.34365077405466,2.34397009291771,2.34380045477171,2.34396011420324,2.34468856035956,2.34523738965543,2.3452473683699,2.34605564424199,2.34700362211666,2.3443093692097,2.3456165808053,2.34505777279496,2.34405990134794,2.34397009291771,2.34398007163218,2.34302211504303,2.34400002906112,2.28734088829905,2.28704152686495,2.28577423012722,2.28485618839596,2.2856145706957,2.28453686953291,2.28418761452645,2.28439716753033,2.28426744424222,2.28382838080553,2.28391818923576,2.28341925351225,2.28469652896444,2.28385831694894,2.28415767838304,2.28367870008847,2.28432731652904,2.28415767838304,2.28435725267245,2.28447699724609,2.28419759324093,2.28400799766599,2.28444706110268,2.28460672053421,2.28442710367374,2.28441712495927,2.28520544340242,2.28532518797606,2.28507572011431,2.28631308070862,2.28537508154841,2.28637295299544,2.28597380441663,2.28614344256262,2.28678208028872,2.28678208028872,2.28726105858329,2.28747061158717,2.2882988448882,2.28840861074737,2.28875786575383,2.28981560948767,2.29072367250447,2.28978567334426,2.28984554563108,2.2900750560639,2.29337801055355
2.23765686895169,2.23848510225272,2.23910378254988,2.23965261184574,2.24007171785349,2.24072033429406,2.24183795031472,2.24280588561834,2.24310524705245,2.24346448077337,2.24425279921652,2.24454218193616,2.24585937224623,2.24619864853822,2.24667762683279,2.24807464685863,2.24873324201367,2.24963132631599,2.25008036846715,2.25110817605758,2.25236549408084,2.25361283338962,2.25520942770486,2.25678606459116,2.25889157334438,2.26133635838959,2.31250720619302,2.31344520535322,2.31592990525631,2.31573033096691,2.31666833012711,2.31634901126406,2.31596982011419,2.31558065024985,2.31560060767879,2.31477237437776,2.31441314065683,2.31316580134805,2.31359488607027,2.31367471578604,2.31413373665167,2.31406388565038,2.31398405593461,2.3144231193713,2.31472248080541,2.31528128881575,2.31549084181962,2.3161693944036,2.31741673371238,2.31764624414519,2.31899337059868,2.31971183804054,2.31961205089583,2.32084941149014,2.321567878932,2.32232626123174,2.32252583552115,2.32290502667101,2.3228750905276,2.32381308968781,2.32432200412579,2.32500055670977,2.32431202541132,2.27844985370606,2.27754179068927,2.27555602650969,2.27499721849936,2.27453819763373,2.27379977276293,2.27402928319574,2.27422885748515,2.27396941090892,2.27455815506267,2.27439849563114,2.27477768678101,2.27465794220737,2.27455815506267,2.27480762292442,2.275116963073,2.27537640964923,2.27545623936499,2.27631440880943,2.27649402566989,2.27643415338307,2.27686323810529,2.27758170554715,2.27777130112209,2.27791100312467,2.27818042841537,2.2793080231505,2.28036576688435,2.28074495803422,2.28191246762724,2.28295025393214,2.28506574139984,2.28686191000448,2.33802277909344,2.3402480324203,2.34140556329885,2.34206415845389,2.34297222147068,2.34360088048231,2.34475841136086,2.34494800693579,2.34349111462313,2.34309196604433,2.3430320937575,2.34218390302753,2.34175481830531,2.34329154033373,2.34313188090221,2.3428325194681,2.34315183833115,2.3430320937575,2.34297222147068,2.34388028448747,2.34350109333761,2.34372062505595,2.3442395182084,2.34456881578592,2.34458877321486,2.34425947563734,2.34684396268514,2.34173486087637,2.34127584001074,2.3448781559345,2.34467858164509,2.28901731233005,2.28796954731068,2.28731095215564,2.28649269756908,2.28563452812464,2.28493601811172,2.28465661410656,2.28395810409364,2.28385831694894,2.2839381466647,2.2840379338094,2.28389823180682,2.28374855108976,2.28320970050837,2.28362880651612,2.28361882780165,2.28315980693602,2.28353899808589,2.28347912579907,2.28426744424222,2.28340927479778,2.28443708238821,2.28483623096702,2.28431733781457,2.28383835952,2.28321967922284,2.28446701853162,2.28446701853162,2.28448697596056,2.28535512411947,2.28502582654196,2.28462667796315,2.28523537954583,2.28548484740759,2.28602369798898,2.28636297428097,2.28529525183265,2.28634301685203,2.28676212285978,2.28742071801481,2.2875604200174,2.28828886617373,2.28860818503677,2.2909132680794,2.28894746132876,2.29210073510136,2.29061390664529,2.29102303393857,2.29139224637397
2.23767682638063,2.23823563439097,2.23949295241422,2.23945303755634,2.2402014411416,2.24069039815065,2.24171820574108,2.24245663061188,2.24302541733668,2.24338465105761,2.24410311849947,2.24516086223332,2.24528060680696,2.24588930838964,2.24698696698137,2.24765554085088,2.24871328458473,2.24938185845423,2.25015021946844,2.25111815477205,2.25200626035991,2.25367270567644,2.25499987470098,2.25677608587669,2.25872193519838,2.26223444269191,2.31085073959096,2.31149935603152,2.31540103338939,2.31566047996562,2.31596982011419,2.31597979882866,2.31545092696174,2.31622926669042,2.31617937311807,2.31467258723306,2.31356494992686,2.31316580134805,2.31377450293074,2.31577024582479,2.3137545455018,2.31373458807286,2.3132855459217,2.31379446035968,2.31420358765296,2.31447301294366,2.31542099081833,2.3158999691129,2.31656854298241,2.3178458184346,2.31928275331831,2.31909315774338,2.319891454901,2.32042032676792,2.32095917734932,2.321567878932,2.32233623994621,2.32288506924207,2.32315449453277,2.32299483510125,2.32539970528858,2.3240825149785,2.32635766187772,2.27808064127066,2.27767151397738,2.27601504737532,2.27444838920349,2.27451824020478,2.27440847434561,2.27407917676809,2.27376983661952,2.27408915548256,2.27439849563114,2.27426877234303,2.27441845306008,2.27430868720091,2.27527662250452,2.27496728235595,2.27566579236886,2.27572566465568,2.27589530280168,2.27611483452002,2.27604498351873,2.27654391924225,2.27690315296317,2.27747193968798,2.27771142883526,2.27948764001097,2.27802076898384,2.27936789543733,2.28037574559882,2.28113412789856,2.28187255276936,2.28240142463628,2.28499589039854,2.33989877741385,2.33907054411282,2.33882107625106,2.33973911798232,2.34327158290479,2.34280258332469,2.34346117847972,2.33774337508827,2.34294228532727,2.34276266846681,2.34277264718128,2.34220386045647,2.34376053991383,2.34137562715544,2.34198432873813,2.34205417973942,2.34285247689704,2.34351107205208,2.33907054411282,2.34227371145776,2.34264292389316,2.34296224275621,2.34371064634148,2.34328156161926,2.34355098690996,2.34468856035956,2.34373060377042,2.34399005034665,2.34421956077946,2.34139558458438,2.34398007163218,2.34274271103787,2.33981894769808,2.28740076058587,2.28670225057296,2.28505576268537,2.28582412369958,2.28425746552775,2.28441712495927,2.28395810409364,2.2843073591001,2.28357891294377,2.28352901937142,2.28473644382232,2.283668721374,2.28384833823447,2.28378846594764,2.28344918965566,2.28370863623188,2.28326957279519,2.28475640125126,2.28357891294377,2.2835689342293,2.28464663539209,2.28412774223963,2.28360884908718,2.28338931736883,2.28354897680036,2.28394812537917,2.28438718881586,2.2845069333895,2.28500586911302,2.28457678439079,2.28468655024997,2.2850457839709,2.28585405984299,2.28614344256262,2.28492603939725,2.2858839959864,2.28641286785332,2.28791965373833,2.28751052644505,2.28772007944892,2.28807931316985,2.29136231023056,2.28826890874479,2.28899735490111,2.28948631191016,2.29051411950059,2.29143216123185,2.29171156523702
2.2387944424013,2.23857491068295,2.23910378254988,2.23914369740776,2.24016152628372,2.24063052586382,2.24203752460413,2.24249654546976,2.24290567276304,2.24330482134185,2.24366405506278,2.24475173494004,2.24597911681988,2.24561988309895,2.24689715855114,2.24747592399041,2.24833409343486,2.24952156045681,2.25017017689738,2.25141751620616,2.25275466394518,2.2537525353922,2.2558979590033,2.25799348904206,2.25984952993352,2.26254378284049,2.31210805761421,2.31220784475891,2.31456282137389,2.31480231052117,2.31575028839585,2.31524137395786,2.31431335351213,2.31406388565038,2.31343522663875,2.31277663148371,2.31283650377053,2.31288639734289,2.31364477964262,2.31408384307932,2.31267684433901,2.31272673791136,2.3127466953403,2.31294626962971,2.31352503506898,2.31414371536614,2.31484222537906,2.31556069282091,2.31610952211678,2.3174766059992,2.31808530758189,2.31945239146431,2.31992139104441,2.32078953920332,2.32167764479117,2.32216660180022,2.32165768736223,2.32229632508833,2.3230447286736,2.3235137282537,2.32396277040486,2.32363347282734,2.32394281297592,2.27819040712984,2.27616472809238,2.27479764420995,2.27508702692959,2.27593521765956,2.2740093257668,2.27411909162598,2.27418894262727,2.27397938962339,2.27404924062468,2.2742787510575,2.27434860205879,2.27498723978489,2.2750171759283,2.27523670764664,2.27589530280168,2.27487747392571,2.27597513251744,2.27661377024354,2.27602502608979,2.27709274853811,2.27713266339599,2.27727236539857,2.27654391924225,2.2781005986996,2.27895876814405,2.27951757615438,2.28046555402905,2.28139357447479,2.28239144592181,2.28481627353808,2.28607359156133,2.33851173610248,2.33890090596682,2.33920026740093,2.34050747899653,2.3427327323234,2.34264292389316,2.34385034834406,2.33785314094744,2.33922022482987,2.33802277909344,2.34143549944226,2.34275268975234,2.34167498858955,2.34127584001074,2.34052743642547,2.34123592515286,2.34263294517869,2.34275268975234,2.34144547815673,2.3418945203079,2.34245332831823,2.34264292389316,2.34333145519161,2.34333145519161,2.34675415425491,2.34523738965543,2.34349111462313,2.34242339217482,2.34274271103787,2.34349111462313,2.34317179576009,2.34469853907403,2.28944639705227,2.28641286785332,2.28620331484944,2.28677210157425,2.28591393212981,2.28471648639338,2.28315980693602,2.28421755066987,2.28336935993989,2.28457678439079,2.28443708238821,2.28419759324093,2.2832995089386,2.28336935993989,2.2828305093585,2.28314982822155,2.28350906194248,2.28323963665178,2.28316978565049,2.28371861494635,2.28333942379648,2.28336935993989,2.28361882780165,2.28318974307943,2.28338931736883,2.28465661410656,2.28325959408072,2.28429738038563,2.28482625225255,2.28391818923576,2.28482625225255,2.28610352770474,2.28558463455229,2.28503580525643,2.28797952602515,2.28556467712335,2.28690182486236,2.2868219951466,2.28723112243988,2.28778993045021,2.28818907902902,2.28785978145151,2.2882289938869,2.28794958988174,2.2894364183378,2.28928673762075,2.28957612034039,2.29040435364142,2.29129245922927
2.23829550667779,2.2383254428212,2.23912373997882,2.23948297369975,2.24030122828631,2.24059061100594,2.24171820574108,2.2423169286093,2.2426861410447,2.24338465105761,2.2441929269297,2.2447317775111,2.24549015981084,2.24599907424882,2.24670756297621,2.24768547699429,2.24844385929403,2.24924215645165,2.25036975118679,2.25127781420358,2.25296421694905,2.25384234382243,2.25549881042449,2.2581132336157,2.259689870502,2.26191512382886,2.3114394837447,2.3125471210509,2.3133853330664,2.31458277880283,2.31517152295657,2.31542099081833,2.31393416236226,2.31336537563746,2.31361484349921,2.31284648248501,2.31270678048242,2.31320571620593,2.31257705719431,2.31188852589586,2.31218788732997,2.31284648248501,2.31228767447467,2.31316580134805,2.31303607805994,2.31336537563746,2.31429339608319,2.3149619699527,2.31588001168396,2.3168379682731,2.3175763931439,2.31867405173563,2.31923285974596,2.31994134847335,2.31949230632219,2.32316447324724,2.32307466481701,2.32131841107025,2.32168762350564,2.32216660180022,2.32292498409996,2.3225058780922,2.32270545238161,2.2774320248301,2.2754861755084,2.27445836791796,2.27475772935207,2.27462800606396,2.27395943219445,2.27440847434561,2.27379977276293,2.27384966633528,2.27421887877068,2.27407917676809,2.27462800606396,2.27451824020478,2.27458809120608,2.27485751649677,2.27519679278876,2.27458809120608,2.27532651607688,2.27613479194896,2.27628447266602,2.27707279110917,2.27693308910658,2.27774136497867,2.27799083284043,2.27839996013371,2.27938785286627,2.28015621388047,2.280315873312,2.28200227605747,2.28342923222672,2.28501584782749,2.33742405622522,2.3366956100689,2.33985886255596,2.33980896898361,2.34076692557276,2.34130577615415,2.34080684043064,2.33886099110894,2.33765356665804,2.33709475864771,2.33963933083762,2.33960939469421,2.34000854327302,2.3406172448557,2.33970918183891,2.33961937340868,2.3403178834216,2.3403178834216,2.34075694685829,2.34244334960376,2.33913041639964,2.34083677657405,2.34221383917094,2.34257307289187,2.34248326446164,2.34271277489446,2.34348113590866,2.34147541430015,2.34254313674846,2.34170492473296,2.34221383917094,2.34262296646422,2.34276266846681,2.28871795089595,2.28669227185849,2.28531520926159,2.28670225057296,2.2849759329696,2.28428740167116,2.28444706110268,2.28374855108976,2.28368867880294,2.28321967922284,2.28296023264661,2.28294027521767,2.28331946636754,2.28326957279519,2.28332944508201,2.28359887037271,2.28286044550191,2.28281055192956,2.28268082864145,2.28301012621897,2.28292031778873,2.28371861494635,2.28385831694894,2.28316978565049,2.2826309350691,2.28301012621897,2.28431733781457,2.28357891294377,2.28372859366082,2.28389823180682,2.2845069333895,2.28480629482361,2.28455682696185,2.28455682696185,2.2851455711156,2.28664237828614,2.285514783551,2.28633303813756,2.2868219951466,2.28788971759492,2.28742071801481,2.287191207582,2.28794958988174,2.28864809989466,2.28897739747217,2.29002516249155,2.29033450264013,2.29026465163884,2.29221050096053
2.23812586853179,2.23782650709768,2.23806599624497,2.23952288855763,2.23987214356409,2.24101969572816,2.24208741817648,2.24220716275012,2.24259633261446,2.24306533219457,2.24425279921652,2.24455216065063,2.24533050037931,2.24594918067647,2.24666764811832,2.24759566856406,2.24875319944261,2.24936190102529,2.25038970861573,2.25157717563769,2.25289436594776,2.25414170525654,2.25574827828625,2.25756440431983,2.25987946607693,2.263042718564,2.31252716362196,2.31232758933255,2.31317578006252,2.31455284265942,2.31560060767879,2.31340529049534,2.31407386436485,2.31292631220077,2.31240741904831,2.31216792990103,2.31215795118656,2.31240741904831,2.31219786604444,2.31119999459741,2.31160912189069,2.31185858975245,2.31195837689715,2.31228767447467,2.31230763190361,2.31295624834418,2.31433331094107,2.31466260851859,2.31538107596045,2.31654858555347,2.31681801084416,2.31832479672917,2.31893349831186,2.31926279588937,2.32068975205862,2.32017085890617,2.32368336639969,2.32153794278859,2.32163772993329,2.32179738936482,2.32090928377697,2.32059994362839,2.32000122076017,2.27687321681976,2.27503713335724,2.27498723978489,2.27389955990763,2.27429870848644,2.27794093926808,2.2740093257668,2.27369998561822,2.27387960247869,2.27391951733657,2.27379977276293,2.27418894262727,2.27420890005621,2.27429870848644,2.27473777192313,2.27491738878359,2.27468787835078,2.27613479194896,2.2766935999593,2.27740208868669,2.27677342967506,2.27705283368023,2.27767151397738,2.2776315991195,2.27822034327325,2.27853966213629,2.28019612873836,2.27985685244637,2.28260099892569,2.28368867880294,2.28495597554066,2.33601705748492,2.33678541849913,2.33913041639964,2.34016820270454,2.34079686171617,2.33999856455855,2.34012828784666,2.33992871355726,2.34028794727819,2.33610686591515,2.33575761090869,2.33877118267871,2.3398788199849,2.33877118267871,2.33928009711669,2.33859156581824,2.33879114010765,2.33964930955209,2.33959941597974,2.34035779827948,2.33821237466837,2.33985886255596,2.3414554568712,2.34171490344743,2.34178475444872,2.34116607415157,2.34093656371875,2.34094654243322,2.34272275360893,2.34176479701978,2.34253315803399,2.3427327323234,2.28768016459104,2.28710139915177,2.2864527827112,2.28586403855746,2.28455682696185,2.28396808280811,2.28394812537917,2.28336935993989,2.28357891294377,2.28331946636754,2.28337933865436,2.28298019007556,2.28259102021121,2.2824612969231,2.28357891294377,2.28165302105101,2.2828305093585,2.2830999346492,2.28217191420346,2.28204219091535,2.28248125435204,2.28337933865436,2.2828305093585,2.28291033907426,2.28287042421638,2.28305004107685,2.28197233991406,2.28331946636754,2.2831997217939,2.28310991336367,2.28391818923576,2.28409780609622,2.28402795509493,2.28442710367374,2.28558463455229,2.2845069333895,2.28469652896444,2.28597380441663,2.28491606068278,2.28607359156133,2.28659248471378,2.28576425141275,2.28649269756908,2.28703154815048,2.28747061158717,2.2883986320329,2.28928673762075,2.28953620548251,2.28932665247863,2.29163173552126
2.2378564432411,2.23810591110285,2.23897405926176,2.23938318655504,2.23974242027597,2.24026131342843,2.24143880173591,2.24203752460413,2.24276597076046,2.24319505548268,2.24376384220748,2.24430269278888,2.24527062809249,2.24645809511445,2.24706679669713,2.24787507256922,2.24857358258214,2.24946168816999,2.25042962347361,2.25173683506921,2.25212600493355,2.25415168397101,2.25574827828625,2.25656653287281,2.25950027492706,2.31100042030801,2.3123774829049,2.31247727004961,2.3126469081956,2.31332546077958,2.31306601420335,2.31308597163229,2.31307599291782,2.31163905803411,2.31201824918397,2.31215795118656,2.31191846203927,2.31193841946821,2.31125986688424,2.31078088858966,2.31092059059225,2.31174882389328,2.31111018616718,2.31178873875116,2.31213799375762,2.31258703590878,2.31434328965554,2.31435326837001,2.31499190609611,2.31613945826019,2.31680803212969,2.31790569072142,2.31843456258834,2.31922288103149,2.32020079504958,2.32180736807929,2.32260566523691,2.3203604544811,2.32218655922916,2.32181734679376,2.32290502667101,2.32285513309866,2.27714264211046,2.27573564337015,2.27517683535982,2.27411909162598,2.27366007076034,2.2741091129115,2.27361017718799,2.27333077318283,2.27373990047611,2.2741091129115,2.27396941090892,2.27378979404846,2.27404924062468,2.27408915548256,2.27422885748515,2.27451824020478,2.27466792092184,2.27512694178747,2.27510698435853,2.2753863883637,2.27672353610271,2.27628447266602,2.27768149269185,2.2777313862642,2.27765155654844,2.27789104569573,2.27880908742699,2.27995663959107,2.28082478774998,2.28234155234946,2.283668721374,2.28614344256262,2.33529859004306,2.33665569521102,2.33801280037897,2.3391104589707,2.33981894769808,2.33934994811798,2.33997860712961,2.33968922440997,2.33722448193582,2.33556801533376,2.33907054411282,2.33785314094744,2.33772341765933,2.3381026088092,2.33809263009473,2.3373641839384,2.33897075696811,2.33932001197457,2.33926013968775,2.33937988426139,2.33948965012057,2.34006841555984,2.34034781956501,2.34100641472004,2.34123592515286,2.34121596772392,2.34079686171617,2.34131575486862,2.33814252366708,2.33983890512702,2.33988879869938,2.34057732999782,2.33863148067612,2.28698165457812,2.28597380441663,2.28539503897735,2.28427742295669,2.28359887037271,2.28362880651612,2.28282053064403,2.28271076478486,2.28230163749158,2.28279059450062,2.2824612969231,2.28289038164532,2.28266087121251,2.28188253148383,2.28321967922284,2.28260099892569,2.281992297343,2.28165302105101,2.28197233991406,2.28177276562465,2.28200227605747,2.28261097764016,2.28261097764016,2.28244133949416,2.28344918965566,2.28315980693602,2.28277063707168,2.28306999850579,2.28336935993989,2.28349908322801,2.28344918965566,2.28365874265953,2.28389823180682,2.28439716753033,2.28435725267245,2.2848761458249,2.28512561368666,2.2850457839709,2.28575427269828,2.28641286785332,2.28669227185849,2.2882289938869,2.28740076058587,2.28873790832489,2.28785978145151,2.28838865331843,2.28891752518535,2.28941646090886,2.29125254437139
2.23776663481086,2.23782650709768,2.23886429340259,2.23934327169716,2.23950293112869,2.24044093028889,2.24129909973333,2.24182797160025,2.24275599204599,2.24300545990774,2.24357424663255,2.24472179879663,2.24524069194908,2.24641818025657,2.24676743526303,2.24755575370618,2.24849375286638,2.24932198616741,2.25020011304079,2.25124787806017,2.252814536232,2.25397206711055,2.25565846985602,2.25740474488831,2.25809327618676,2.30911444327313,2.31051146329897,2.31186856846692,2.31239744033384,2.31255709976537,2.31355497121239,2.31222780218785,2.31182865360904,2.31211803632868,2.31197833432609,2.31084076087649,2.31221782347338,2.31118003716847,2.31154924960387,2.3108008460186,2.31218788732997,2.31055137815685,2.31090063316331,2.31141952631576,2.31195837689715,2.31270678048242,2.31365475835709,2.31357492864133,2.31467258723306,2.31561058639326,2.3159997562576,2.31679805341522,2.31750654214261,2.31939251917749,2.31975175289842,2.32008105047593,2.31982160389971,2.31972181675501,2.31954219989454,2.32155790021753,2.32296489895784,2.32241606966197,2.31996130590229,2.27715262082493,2.27559594136757,2.27451824020478,2.2739095386221,2.27355030490117,2.27325094346706,2.27336070932624,2.27319107118024,2.27374987919058,2.27433862334432,2.27391951733657,2.2741091129115,2.27419892134174,2.27393947476551,2.2742787510575,2.27476770806654,2.27547619679393,2.27559594136757,2.27627449395155,2.27584540922933,2.27649402566989,2.27713266339599,2.27737215254328,2.27778127983656,2.27869932156782,2.28118402147091,2.28016619259494,2.28126385118667,2.28284048807297,2.28493601811172,2.33524869647071,2.33516886675495,2.33617671691644,2.33647607835055,2.33777331123168,2.33935992683245,2.3394098204048,2.33815250238155,2.33870133167742,2.33845186381566,2.33693509921618,2.33934994811798,2.33789305580533,2.33691514178724,2.33700495021747,2.33663573778207,2.33701492893194,2.33789305580533,2.33912043768517,2.3390406079694,2.33960939469421,2.34021809627689,2.34018816013348,2.33980896898361,2.34046756413865,2.34100641472004,2.34112615929369,2.34025801113477,2.34062722357017,2.34084675528852,2.33759369437122,2.33754380079887,2.34105630829239,2.28721116501094,2.28620331484944,2.28564450683911,2.28461669924868,2.28509567754325,2.2830999346492,2.28408782738175,2.28372859366082,2.2834691470846,2.28297021136108,2.28313984950708,2.28261097764016,2.28225174391923,2.28274070092827,2.28235153106393,2.28192244634171,2.28302010493344,2.28239144592181,2.28220185034688,2.28212202063111,2.28157319133525,2.28225174391923,2.28251119049545,2.28211204191664,2.28286044550191,2.28249123306651,2.28328953022413,2.28284048807297,2.28258104149675,2.28295025393214,2.28335938122542,2.28344918965566,2.28398804023705,2.28411776352516,2.28382838080553,2.28457678439079,2.2850457839709,2.28496595425513,2.28590395341534,2.28610352770474,2.28617337870603,2.28627316585074,2.28638293170991,2.28837867460396,2.28803939831197,2.28782984530809,2.28921688661946,2.28984554563108,2.28977569462979,2.29043428978483
2.23706812479795,2.2379562303858,2.23898403797623,2.23958276084445,2.23948297369975,2.23993201585091,2.24155854630956,2.24178805674237,2.24316511933927,2.24281586433281,2.24404324621265,2.2444623522204,2.24546022366742,2.24637826539869,2.24658781840256,2.2475158388483,2.24830415729144,2.24938185845423,2.25043960218808,2.25115806962994,2.25315381252399,2.25477036426817,2.25556866142579,2.25800346775653,2.25994931707822,2.26224442140638,2.311170058454,2.31160912189069,2.31219786604444,2.31249722747855,2.31225773833126,2.31199829175503,2.31163905803411,2.31155922831834,2.31095052673566,2.31148937731705,2.31098046287907,2.31108025002377,2.31009235729122,2.30974310228476,2.30972314485582,2.31007239986228,2.31032186772403,2.31057133558579,2.31100042030801,2.31235752547596,2.31245731262067,2.31333543949405,2.3141237579372,2.31513160809869,2.31579020325373,2.31679805341522,2.31775601000437,2.31836471158705,2.3189534557408,2.3195222424656,2.32039039062451,2.32071968820203,2.32030058219428,2.32097913477826,2.32342391982347,2.32335406882218,2.2804156604567,2.27695304653553,2.27349043261435,2.27455815506267,2.27391951733657,2.27262228445544,2.27286177360272,2.2724326888805,2.27303141174872,2.27392949605104,2.27441845306008,2.27424881491409,2.27527662250452,2.27352036875776,2.27409913419703,2.2746479634929,2.27619466423579,2.27494732492701,2.27556600522416,2.27547619679393,2.27683330196188,2.27648404695542,2.27676345096059,2.27694306782106,2.27794093926808,2.27864942799547,2.27944772515309,2.28045557531458,2.28157319133525,2.28399801895152,2.33328288972007,2.33492937760766,2.33579752576657,2.33623658920326,2.33776333251721,2.33889092725235,2.33897075696811,2.34354100819549,2.33690516307277,2.33639624863479,2.33757373694228,2.33550814304694,2.3368951843583,2.33665569521102,2.33775335380274,2.33557799404823,2.33618669563091,2.33570771733634,2.33750388594099,2.33760367308569,2.33694507793065,2.33834209795649,2.33826226824073,2.3394796714061,2.33988879869938,2.33998858584408,2.33956947983633,2.33974909669679,2.33970918183891,2.33946969269163,2.34005843684537,2.33746397108311,2.33933996940351,2.34373060377042,2.28683197386107,2.2864527827112,2.2851455711156,2.28494599682619,2.28361882780165,2.28345916837013,2.28343921094119,2.28255110535333,2.28223178649029,2.28253114792439,2.28241140335075,2.2826309350691,2.28221182906135,2.28218189291793,2.28282053064403,2.28229165877711,2.28182265919701,2.28248125435204,2.28177276562465,2.28239144592181,2.28210206320217,2.2816230849076,2.28254112663886,2.28237148849287,2.2820920844877,2.28333942379648,2.28276065835721,2.28272074349933,2.2822617226337,2.28212202063111,2.28331946636754,2.28328953022413,2.28364876394506,2.28415767838304,2.28421755066987,2.28479631610914,2.28478633739467,2.28501584782749,2.28526531568924,2.28527529440371,2.28583410241405,2.28623325099286,2.28706148429389,2.28622327227839,2.28782984530809,2.28869799346701,2.28958609905486,2.28953620548251,2.28982558820214,2.28967590748509
2.2379562303858,2.23825559181991,2.23883435725918,2.2391636548367,2.23996195199432,2.24049082386124,2.24082012143876,2.2414787165938,2.24277594947493,2.24342456591549,2.24365407634831,2.24445237350593,2.24519079837673,2.24612879753693,2.24648803125786,2.24690713726561,2.24834407214933,2.24887294401625,2.25075892105113,2.25118800577335,2.25299415309246,2.25433130083147,2.25635697986893,2.25872193519838,2.25979963636117,2.30928408141913,2.30990276171628,2.31106029259483,2.31188852589586,2.31176878132222,2.3120781214708,2.31106029259483,2.31136963274341,2.31212801504315,2.31160912189069,2.31049150587003,2.30994267657416,2.30965329385453,2.3095934215677,2.30913440070207,2.30903461355737,2.30907452841525,2.30937388984936,2.31024203800827,2.31163905803411,2.31198831304056,2.3122776957602,2.31276665276924,2.31366473707157,2.3147923318067,2.31577024582479,2.31664837269817,2.31787575457801,2.31936258303408,2.3184844561607,2.3193226681762,2.31928275331831,2.31993136975888,2.31970185932607,2.32035047576663,2.32237615480409,2.32310460096042,2.27675347224612,2.27542630322158,2.27493734621254,2.2747477506376,2.27433862334432,2.27323098603812,2.27312122017895,2.27325094346706,2.27291166717507,2.27332079446836,2.27330083703941,2.27343056032753,2.27371994304717,2.27423883619962,2.2738097514774,2.27493734621254,2.27453819763373,2.27458809120608,2.27550613293734,2.27614477066344,2.27634434495284,2.27609487709108,2.27672353610271,2.2771625995394,2.27785113083785,2.27888891714275,2.28009634159365,2.28136363833137,2.28143348933267,2.28334940251095,2.28614344256262,2.33413108045004,2.33395146358958,2.33544827076012,2.33698499278853,2.3380028216645,2.33757373694228,2.3373641839384,2.33567778119293,2.33546822818906,2.33571769605081,2.33510899446813,2.33573765347975,2.3343805483118,2.33467990974591,2.33450029288544,2.33495931375107,2.33497927118001,2.33579752576657,2.33635633377691,2.33665569521102,2.3370648225043,2.3370648225043,2.33770346023039,2.33835207667096,2.33869135296295,2.33936990554692,2.33950960754951,2.33882107625106,2.33875122524977,2.33764358794357,2.33841194895778,2.33713467350559,2.28714131400965,2.28647274014014,2.28533516669053,2.28474642253679,2.28462667796315,2.2845069333895,2.28358889165824,2.28322965793731,2.28306001979132,2.28275067964274,2.28316978565049,2.2824612969231,2.28267084992698,2.28175280819571,2.28171289333783,2.28216193548899,2.28186257405489,2.28116406404197,2.28169293590889,2.28247127563757,2.28139357447479,2.28208210577323,2.28218189291793,2.2817228720523,2.2826309350691,2.2817228720523,2.28235153106393,2.28240142463628,2.28139357447479,2.28210206320217,2.28231161620605,2.28286044550191,2.28367870008847,2.28325959408072,2.28295025393214,2.28433729524351,2.28428740167116,2.28448697596056,2.28459674181974,2.28486616711043,2.28503580525643,2.28565448555358,2.28584408112852,2.2863529955665,2.28658250599931,2.28737082444246,2.2881292067422,2.28885765289853,2.28827888745926,2.28941646090886,2.29002516249155
2.23753712437805,2.23828552796332,2.23903393154858,2.23951290984316,2.23970250541809,2.23982224999173,2.24095982344134,2.24139888687803,2.24222712017906,2.24289569404857,2.24344452334443,2.24434260764676,2.2448315646558,2.24569971281471,2.24664769068938,2.24839396572168,2.24898270987542,2.24950160302787,2.25054936804725,2.2514374736351,2.25312387638057,2.25445104540512,2.2568060220201,2.25921089220743,2.26113678410018,2.30984288942946,2.3109704841646,2.31124988816977,2.31163905803411,2.31162907931963,2.31225773833126,2.31085073959096,2.30997261271757,2.31184861103798,2.30999257014651,2.30927410270466,2.30935393242042,2.30881508183903,2.30886497541138,2.3084558481181,2.3090246348429,2.30961337899664,2.30910446455866,2.30977303842817,2.31002250628993,2.31096050545013,2.31161910060516,2.31234754676149,2.31355497121239,2.31423352379637,2.31522141652892,2.31591992654184,2.31671822369946,2.31748658471367,2.3175763931439,2.31869400916457,2.31899337059868,2.31894347702633,2.32015090147723,2.32005111433252,2.31914305131573,2.31912309388679,2.27588532408721,2.2743785382022,2.27421887877068,2.27393947476551,2.2729715394619,2.27439849563114,2.27316113503683,2.2728019013159,2.27336070932624,2.27355030490117,2.27295158203296,2.27412907034044,2.27398936833786,2.27347047518541,2.27415900648386,2.27434860205879,2.27446834663243,2.2746479634929,2.27480762292442,2.27534647350582,2.2757556007991,2.27678340838953,2.27760166297609,2.27760166297609,2.2782702368456,2.27862947056653,2.27951757615438,2.28081480903551,2.28327955150966,2.33310327285961,2.33347248529501,2.33396144230405,2.33452025031438,2.33584741933893,2.33636631249138,2.33683531207148,2.33771343894486,2.33697501407406,2.33700495021747,2.3352187603273,2.33513893061154,2.33353235758183,2.3343805483118,2.33492937760766,2.33381176158699,2.33372195315676,2.33375188930017,2.33517884546942,2.33501918603789,2.33591727034022,2.33592724905469,2.33637629120585,2.33698499278853,2.33677543978466,2.33767352408698,2.33808265138026,2.33898073568258,2.33795292809215,2.33829220438414,2.33816248109602,2.33880111882212,2.33700495021747,2.3398788199849,2.2864527827112,2.28538506026288,2.2852453582603,2.28474642253679,2.28426744424222,2.28261097764016,2.28286044550191,2.28250121178098,2.2829302965032,2.28245131820863,2.28217191420346,2.28184261662595,2.28219187163241,2.2824612969231,2.28200227605747,2.28224176520476,2.28206214834429,2.28247127563757,2.28150334033396,2.28223178649029,2.28159314876419,2.28237148849287,2.28194240377065,2.28183263791148,2.28195238248512,2.28328953022413,2.28229165877711,2.28196236119959,2.28175280819571,2.28251119049545,2.28222180777582,2.28304006236238,2.28401797638046,2.28288040293085,2.28292031778873,2.28311989207814,2.28419759324093,2.2845069333895,2.2845069333895,2.28481627353808,2.2845069333895,2.28550480483653,2.28596382570216,2.28622327227839,2.28638293170991,2.28751052644505,2.2868219951466,2.28912707818923,2.2884984191776,2.2896060564838,2.29060392793082
2.23720782680053,2.2381558046752,2.23907384640647,2.23924348455246,2.23991205842197,2.24075027043747,2.24169824831214,2.24203752460413,2.24250652418423,2.24333475748526,2.24403326749818,2.24511096866097,2.24564981924236,2.24644811639998,2.24668760554726,2.24747592399041,2.24723643484313,2.2489228375886,2.25027994275655,2.25205615393226,2.2529143233767,2.2542215349723,2.25668627744645,2.25897140306014,2.30937388984936,2.30982293200052,2.3105014845845,2.31121995202635,2.3120082704695,2.31283650377053,2.31093056930672,2.30971316614135,2.31161910060516,2.30921423041784,2.30999257014651,2.30983291071499,2.30888493284032,2.30981295328605,2.3092940601336,2.30861550754962,2.30840595454575,2.30880510312456,2.30926412399019,2.30931401756254,2.30961337899664,2.31090063316331,2.31134967531447,2.31255709976537,2.31356494992686,2.31431335351213,2.3157003948235,2.31941247660643,2.3171073935638,2.31687788313099,2.31739677628344,2.31792564815036,2.31840462644493,2.31920292360255,2.31955217860901,2.32134834721366,2.31748658471367,2.27630443009496,2.27557598393863,2.27470783577972,2.27302143303425,2.27174415758206,2.27312122017895,2.27298151817637,2.2728019013159,2.27274202902908,2.27249256116732,2.27299149689084,2.27455815506267,2.27338066675518,2.27391951733657,2.27406919805362,2.27423883619962,2.27498723978489,2.27467789963631,2.27491738878359,2.27498723978489,2.27636430238178,2.27564583493992,2.2776315991195,2.27723245054069,2.27766153526291,2.27815049227195,2.27876917256911,2.28048551145799,2.28203221220088,2.28347912579907,2.28489610325384,2.3328039114255,2.33505910089578,2.33422088888027,2.33502916475237,2.33572767476528,2.33672554621231,2.3376336092291,2.33696503535959,2.33740409879628,2.33311325157408,2.33470984588932,2.3341111230211,2.33357227243971,2.3328039114255,2.33335274072136,2.3335423362963,2.33306335800173,2.33388161258829,2.33482959046296,2.33527863261412,2.33497927118001,2.33603701491386,2.33638626992032,2.33697501407406,2.33740409879628,2.33729433293711,2.33792299194874,2.33746397108311,2.33782320480403,2.33802277909344,2.33797288552109,2.33663573778207,2.33803275780791,2.28663239957167,2.28548484740759,2.28540501769182,2.28444706110268,2.28439716753033,2.28302010493344,2.28214197806005,2.28249123306651,2.28208210577323,2.28271076478486,2.28277063707168,2.28202223348641,2.28187255276936,2.28235153106393,2.28195238248512,2.28207212705876,2.28206214834429,2.28133370218796,2.2820920844877,2.2817228720523,2.28231161620605,2.28133370218796,2.28128380861561,2.28147340419055,2.28195238248512,2.28188253148383,2.28154325519184,2.28186257405489,2.28239144592181,2.2815232977629,2.28183263791148,2.28279059450062,2.28230163749158,2.28250121178098,2.28281055192956,2.28362880651612,2.28377848723317,2.28578420884169,2.28505576268537,2.28464663539209,2.28499589039854,2.28665235700061,2.28624322970733,2.28585405984299,2.28661244214272,2.28715129272412,2.28710139915177,2.29005509863496,2.28878780189724,2.28988546048897,2.29154192709103
