2.31290053869063,2.31711072170165,2.24609763485781,2.24613763659664,2.2493477761371,2.24650765268074,2.24873774962007,2.24958778657004,2.24943778004945,2.24972779265591,2.2511578548188,2.25193788872583,2.25340795262754,2.25345795480107,2.25337795132343,2.25549804348099,2.2560580678245,2.25653808869037,2.25837816867618,2.25842817084971,2.25946821605908,2.26025825040082,2.26286836385896,2.26209833038663,2.26338838646364,2.26409841732773,2.2653084699271,2.2656784860112,2.26672853165528,2.26696854208821,2.26883862337815,2.26976866380576,2.27071870510278,2.27134873248923,2.27225877204743,2.27297880334623,2.27333881899563,2.27457887289911,2.27603893636611,2.27562891854319,2.27758900374547,2.27768900809252,2.27932907938423,2.28114915850063,2.28105915458828,2.28537934238106,2.28269922587998,2.28314924544173,2.28427929456346,2.28574935846517,2.28648939063337,2.28704941497688,2.28738942975687,2.288539479748,2.28843947540095,2.28894949757093,2.28434929760639,2.28168918197473,2.28115915893534,2.28666939845807,2.29112959233673,2.29444973665896,2.29528977317422,2.29509976491482,2.29567979012774,2.29545978056422,2.29641982229595,2.29684984098828,2.29720985663768,2.29813989706529,2.29897993358056,2.29957995966289,2.29931994836054,2.30053000095991,2.30122003095459,2.30155004529987,2.30211006964338,2.30193006181868,2.30379014267391,2.30512020048974,2.30410015614978,2.30612024396029,2.30574022744148,2.30627025048087,2.30768031177435,2.30778031612141,2.30807032872787,2.30864035350608,2.30945038871723,2.31002041349544,2.31047043305719,2.31095045392305,2.31234051434712,2.31416059346352,2.3135705678159,2.31406058911647,2.31367057216295,2.31549065127935,2.31591066953699,2.31707071996283,2.31758074213281,2.31820076908455,2.31962083081273,2.32016085428683,2.32078088123857,2.32257095905086,2.32235094948734,2.3239110173014,2.32388101599728,2.32435103642844,2.32488105946783,2.32593110511191,2.32651113032483,2.32817120248594,2.32753117466479,2.32949125986707,2.3299112781247,2.32994127942882,2.33259139462578,2.33176135854522,2.33300141244871,2.33364144026986,2.3339014515722,2.33556152373332,2.33599154242565,2.33731159980678,2.33781162154206,2.33792162632382,2.33833164414674,2.33981170848316,2.34254182715776,2.34217181107366,2.34288184193775,2.34393188758183,2.34378188106125,2.34702202190583,2.3469720197323,2.34729203364288,2.35074218361628,2.35174222708683,2.35442234358791,2.35364230968088,2.35773248747543,2.36539282045986,2.372723139099,2.36720289914155,2.41728507614675,2.44103610857234,2.44267617986405,2.45564674367709
2.31395058433471,2.31759074256751,2.24544760660195,2.24531760095078,2.24859774353419,2.24666765963603,2.24678766485249,2.24737769050012,2.24780770919246,2.24895775918359,2.25077783829999,2.25036782047707,2.25134786307821,2.25230790480994,2.25280792654521,2.25380797001576,2.25509802609277,2.2558680595651,2.25639808260449,2.25836816824148,2.26169831299841,2.25923820606085,2.26051826170316,2.26120829169784,2.26213833212545,2.26228833864604,2.26446843341184,2.26504845862476,2.26606850296472,2.26644851948353,2.26853861033698,2.26912863598461,2.26955865467694,2.2702086829328,2.27121872683806,2.27210876552685,2.27284879769506,2.27350882638562,2.27457887289911,2.27573892332495,2.27623894506022,2.27699897809784,2.2778290141784,2.27960909155598,2.28015911546478,2.28104915415357,2.28151917458473,2.28265922414116,2.28307924239879,2.28439929977992,2.2859893688981,2.2858193615081,2.28694941062983,2.28749943453863,2.28806945931684,2.28875948931152,2.28775944584097,2.28663939715396,2.28462930977815,2.29045956321146,2.29211963537258,2.29281966580196,2.29339969101488,2.2939697157931,2.29501976143717,2.29556978534598,2.29464974535307,2.29646982446947,2.29675983707593,2.29737986402768,2.29888992966821,2.29901993531938,2.29912994010114,2.29957995966289,2.29986997226935,2.30060000400285,2.30190006051457,2.30194006225339,2.30279009920336,2.302870102681,2.30379014267391,2.30380014310861,2.3050401970121,2.30612024396029,2.30600023874382,2.3068702765632,2.30818033350963,2.30708028569202,2.30778031612141,2.30914037524136,2.31000041262603,2.31070044305542,2.31181049130773,2.31181049130773,2.31300054303768,2.31283053564769,2.31359056868531,2.31374057520589,2.31500062997879,2.3152106391076,2.31664070127049,2.31707071996283,2.31734073169987,2.31944082298803,2.3195608282045,2.32109089471444,2.32059087297917,2.32186092818677,2.32232094818322,2.32307098078613,2.32691114771305,2.32470105164313,2.32570109511368,2.32651113032483,2.32797119379183,2.3286312224824,2.33048130290292,2.33121133463642,2.33163135289405,2.33129133811406,2.33207137202109,2.332991412014,2.33268139853813,2.33349143374928,2.33610154720741,2.33846164979791,2.33659156850798,2.33761161284795,2.3388016645779,2.34016172369785,2.33918168109671,2.33975170587492,2.34173179194662,2.34195180151014,2.34231181715954,2.3447919249665,2.34510193844237,2.3475020427717,2.35226224969152,2.34742203929405,2.35547238923199,2.35278227229621,2.3540323266344,2.35970257311242,2.360022587023,2.36114263571001,2.36359274221286,2.43148569342858,2.44616633157627,2.45377666238716
2.30498019440386,2.2435375235732,2.24397754270024,2.24539760442843,2.24406754661259,2.24502758834432,2.24582762312076,2.2460776339884,2.24688766919955,2.24732768832659,2.24834773266655,2.2493377757024,2.25098784742881,2.25161787481526,2.252067894377,2.25239790872229,2.25451800087985,2.25527803391747,2.25580805695686,2.25721811825034,2.25780814389797,2.25870818302146,2.25994823692495,2.26129829561019,2.26127829474078,2.26291836603248,2.26284836298954,2.26365839820069,2.26417842080538,2.2658584938359,2.26669853035117,2.26800858729759,2.26916863772343,2.26912863598461,2.27069870423337,2.27086871162336,2.27218876900449,2.27298880378093,2.27351882682032,2.27482888376675,2.27597893375788,2.27697897722843,2.27754900200665,2.27817902939309,2.27842904026073,2.28015911546478,2.28065913720006,2.28252921848999,2.28310924370291,2.28388927760994,2.28427929456346,2.28524933672989,2.28756943758157,2.28810946105567,2.28691940932571,2.2883494714886,2.28845947627036,2.28909950409151,2.2899795423456,2.29157961189848,2.29163961450671,2.29256965493432,2.29305967623489,2.29315968058195,2.2934396927537,2.2946997475266,2.29550978273774,2.29812989663059,2.29622981403654,2.29729986055003,2.29728986011532,2.29797989011001,2.29854991488822,2.29914994097055,2.29956995922818,2.30405015397625,2.30167005051634,2.30139003834458,2.30153004443046,2.30258009007454,2.30249008616219,2.30318011615687,2.30364013615332,2.30407015484566,2.30557022005149,2.30556021961678,2.30570022570266,2.30692027873673,2.30693027917144,2.30760030829671,2.3084903469855,2.30917037654547,2.31020042132014,2.31127046783363,2.31125046696422,2.31241051739006,2.31240051695535,2.31318055086238,2.3139405839,2.31626068475168,2.31555065388759,2.31690071257283,2.32079088167328,2.31736073256929,2.31818076821514,2.32057087210975,2.32044086645858,2.31998084646213,2.32198093340323,2.32516107163958,2.32349099904376,2.32249095557321,2.32571109554839,2.32455104512255,2.32761117814244,2.32746117162185,2.32784118814066,2.32896123682768,2.3288112303071,2.33066131072762,2.33046130203351,2.33157135028582,2.33301141288341,2.33369144244339,2.33310141679576,2.33406145852749,2.3360715459033,2.33714159241679,2.33706158893914,2.3386216567532,2.3415217828178,2.3395316963114,2.33977170674434,2.34175179281603,2.34246182368012,2.34543195278766,2.34327185889127,2.34438190714358,2.34491193018297,2.34675201016878,2.34891210406517,2.34993214840514,2.35298228099032,2.35559239444846,2.35796249747366,2.35933255702832,2.37313315692192,2.36997301955498,2.44239616769229,2.44442625593751
2.3046901817974,2.24161744010974,2.24281749227441,2.24521759660373,2.24401754443907,2.24387753835319,2.24415755052494,2.24513759312608,2.24702767528543,2.24787771223539,2.24725768528365,2.24863774527301,2.24985779830709,2.25110785264527,2.25198789089936,2.25228790394052,2.25334795001931,2.25413798436104,2.25516802913571,2.25626807695332,2.25666809434154,2.25770813955091,2.25897819475851,2.25948821692849,2.26039825648669,2.26132829691431,2.26354839341893,2.26393841037244,2.26555848079474,2.26612850557295,2.26593849731355,2.26746856382349,2.26796858555877,2.26945865032989,2.27003867554281,2.27043869293103,2.27263878856624,2.271118722491,2.2731188094321,2.27415885464148,2.27588892984553,2.27643895375433,2.2763789511461,2.27757900331076,2.2792790772107,2.2796490932948,2.28119916067416,2.28222920544883,2.28110915676181,2.28240921327352,2.28402928369582,2.28393927978347,2.28487932064579,2.28611937454927,2.28679940410924,2.28793945366567,2.28792945323097,2.28935951539385,2.28970953060855,2.29005954582324,2.29134960190025,2.29113959277144,2.29210963493787,2.2930796771043,2.29331968753724,2.2939697157931,2.29421972666073,2.2945297401366,2.29532977491304,2.29610980882007,2.29640982186124,2.29870992184351,2.29894993227644,2.29901993531938,2.29907993792761,2.29929994749113,2.29856991575763,2.30018998617992,2.30158004660399,2.301410039214,2.30176005442869,2.30245008442337,2.30372013963097,2.30334012311216,2.30500019527327,2.30502019614269,2.30597023743971,2.30571022613737,2.3061402448297,2.30716028916966,2.3070402839532,2.30851034785491,2.30919037741488,2.30931038263135,2.3103104261019,2.31152047870127,2.31181049130773,2.31232051347771,2.31270052999652,2.31400058650823,2.31445060606998,2.31493062693585,2.31613067910051,2.31663070083578,2.31934081864098,2.31911080864275,2.31942082211862,2.32150091253737,2.32110089514915,2.32100089080209,2.32127090253914,2.32377101121552,2.323551001652,2.32532107859487,2.32657113293306,2.32785118857537,2.32708115510304,2.32750117336067,2.33007128507999,2.3290012385665,2.33434147069924,2.33054130551115,2.33492149591216,2.33158135072052,2.33252139158284,2.33293140940577,2.33653156589975,2.3373416011109,2.33769161632559,2.3355315224292,2.33710159067796,2.33814163588734,2.34180179498956,2.34269183367835,2.34185179716308,2.34288184193775,2.34346186715067,2.34368187671419,2.34503193539944,2.34495193192179,2.34636199321527,2.34898210710811,2.35262226534092,2.35322229142325,2.35888253746657,2.35889253790127,2.36198267222528,2.36563283089279,2.41552499963858,2.45159656762136
2.24018737794686,2.24096741185389,2.24185745054268,2.24188745184679,2.2422674683656,2.24263748444971,2.24303750183793,2.24469757399904,2.24518759529961,2.2455376105143,2.24741769223894,2.24887775570595,2.24908776483476,2.24973779309062,2.25150787003349,2.25164787611937,2.25227790350582,2.25293793219638,2.25505802435395,2.25593806260804,2.25734812390151,2.25144786742526,2.26014824561906,2.25923820606085,2.25915820258321,2.26187832082311,2.26232834038486,2.26247834690544,2.26473844514889,2.26450843515066,2.26572848818473,2.26648852122235,2.26780857860348,2.26897862946402,2.26904863250696,2.27044869336573,2.27123872770747,2.27167874683451,2.27371883551444,2.27451887029088,2.27544891071849,2.27541890941437,2.27625894592963,2.27723898853078,2.27796902026428,2.27882905764895,2.2799991085095,2.280559132853,2.28130916545592,2.28132916632533,2.28356926369936,2.2830992432682,2.28465931108226,2.28559935194458,2.28602937063692,2.28637938585161,2.28771944410215,2.28849947800918,2.29009954756206,2.28960952626149,2.2899895427803,2.29132960103084,2.29201963102552,2.29195962841729,2.29340969144959,2.29332968797194,2.29407972057486,2.29419972579132,2.29449973883249,2.2954297792601,2.2963298183836,2.29565978925833,2.29729986055003,2.29766987663413,2.2977898818506,2.29945995444642,2.2988799292335,2.29983997096523,2.29985997183464,2.30092001791343,2.30107002443401,2.30201006529633,2.30282010050747,2.30279009920336,2.30354013180627,2.30367013745744,2.30565022352913,2.30524020570621,2.30485018875269,2.30571022613737,2.30830033872609,2.30724029264731,2.3090303704596,2.30923037915371,2.30908037263312,2.3110304574007,2.31123046609481,2.31274053173534,2.31154047957068,2.31305054521121,2.31517063736878,2.3150206308482,2.31508063345643,2.31663070083578,2.31747073735105,2.3173907338734,2.31853078342983,2.31850078212571,2.32173092253559,2.31999084689684,2.32441103903667,2.32249095557321,2.32260096035497,2.32530107772546,2.32353100078259,2.32512106990076,2.32716115858069,2.32672113945364,2.32777118509772,2.32927125030355,2.3288212307418,2.32960126464883,2.33108132898525,2.33280140375459,2.33152134811229,2.3324513885399,2.33378144635574,2.33474148808746,2.33865165805732,2.33569152938449,2.33578153329684,2.33737160241501,2.33705158850444,2.34147178064427,2.34048173760843,2.33939169022553,2.33992171326492,2.34258182889659,2.3429718458501,2.34583197017588,2.34522194365884,2.34411189540653,2.34881209971812,2.35166222360919,2.35115220143921,2.35329229446619,2.35629242487784,2.37284314431546,2.36849295521856,2.45614676541237
2.23865731143691,2.2384573027428,2.24013737577333,2.2400873735998,2.24095741141918,2.24132742750328,2.2420874605409,2.2429975000991,2.24423755400259,2.24560761355724,2.2451675944302,2.2466276578972,2.24821772701538,2.24885775483653,2.24954778483121,2.25119785655762,2.25152787090291,2.2524279100264,2.25414798479575,2.25531803565629,2.25012781004413,2.252067894377,2.255328036091,2.25821816172089,2.2609482803955,2.25953821910202,2.26179831734547,2.2620483282131,2.26319837820424,2.26371840080892,2.26535847210063,2.26581849209708,2.26726855512938,2.26849860859816,2.26909863468049,2.27096871597042,2.27053869727808,2.271288729881,2.27206876378803,2.27330881769151,2.27424885855383,2.27405885029442,2.27586892897612,2.27696897679373,2.27816902895839,2.27779901287428,2.27943908416599,2.28009911285655,2.28098915154534,2.28069913893888,2.28243921457764,2.28338925587466,2.28350926109113,2.28564935411811,2.28594936715927,2.28611937454927,2.28712941845453,2.28706941584629,2.28842947496624,2.28934951495915,2.28990953930266,2.28996954191089,2.29068957320969,2.29138960363907,2.29210963493787,2.29227964232786,2.293259684929,2.29323968405959,2.29400971753192,2.29449973883249,2.29478975143895,2.29545978056422,2.29790988706707,2.29716985489886,2.2972398579418,2.29885992836409,2.29870992184351,2.29748986880944,2.30299010789747,2.29938995140348,2.30042999661286,2.30097002008695,2.30138003790988,2.3025000865969,2.30265009311748,2.3048601891874,2.30519020353268,2.30446017179918,2.30420016049683,2.30538021179208,2.30561022179031,2.30736029786377,2.3070502843879,2.30800032568493,2.30881036089607,2.30887036350431,2.31024042305896,2.31201050000184,2.31182049174243,2.31369057303236,2.31455061041704,2.31380057781412,2.31528064215054,2.31708072039753,2.31715072344047,2.31674070561754,2.31834077517043,2.31790075604338,2.31959082950861,2.31936081951039,2.32035086254623,2.3208308834121,2.32171092166618,2.32341099556612,2.32477105468607,2.32535107989899,2.32554108815839,2.32957126334471,2.32669113814953,2.32703115292952,2.32883123117651,2.32844121422299,2.32959126421413,2.32977127203883,2.33088132029114,2.33180136028404,2.33320142114282,2.33359143809633,2.33399145548455,2.33432146982983,2.33822163936498,2.33621155198917,2.33712159154738,2.33781162154206,2.33822163936498,2.34087175456194,2.34094175760488,2.33959169891964,2.34582196974117,2.34212180890013,2.34321185628303,2.34441190844769,2.34727203277347,2.35175222752154,2.3529522796862,2.35158222013155,2.35761248225897,2.35645243183313,2.36908298086619,2.36993301781616
2.23628720841171,2.23817729057105,2.23823729317928,2.23937734273571,2.23950734838688,2.24048739098802,2.24168744315268,2.24228746923501,2.24278749097029,2.24394754139613,2.24510759182197,2.24566761616548,2.24722768397954,2.24800771788657,2.24841773570949,2.24929777396358,2.2504278230853,2.25174788046643,2.25209789568112,2.2547880126169,2.25316794219461,2.25472801000867,2.25624807608391,2.25857817737029,2.25758813433445,2.25870818302146,2.25999823909847,2.26237834255839,2.26323837994306,2.26307837298777,2.26414841950126,2.26594849774825,2.26779857816877,2.26897862946402,2.26785858077701,2.26889862598638,2.27046869423514,2.2707587068416,2.27160874379157,2.27224877161272,2.27286879856447,2.27362883160209,2.27449886942146,2.27576892462906,2.27649895636257,2.277639005919,2.27884905851836,2.27951908764363,2.28011911372596,2.28132916632533,2.28176918545237,2.28246921588176,2.28348926022172,2.28414928891228,2.28533934064224,2.2858193615081,2.28724942367099,2.28790945236156,2.28995954147619,2.28954952365326,2.28956952452267,2.28996954191089,2.29100958712026,2.2921696375461,2.2919896297214,2.29248965145668,2.29260965667315,2.29370970449075,2.29312967927783,2.2939697157931,2.29419972579132,2.29530977404363,2.29562978795421,2.29595980229949,2.29686984185769,2.29707985098651,2.29712985316004,2.29772987924237,2.2977898818506,2.29918994270937,2.29968996444465,2.29988997313876,2.30092001791343,2.30247008529278,2.30169005138575,2.30248008572749,2.30310011267923,2.30423016180095,2.30424016223566,2.30493019223034,2.30572022657207,2.30587023309265,2.30746030221083,2.30739029916789,2.30788032046846,2.30880036046137,2.30998041175662,2.31033042697131,2.31242051782476,2.31182049174243,2.31232051347771,2.31274053173534,2.31408058998588,2.31550065171406,2.31599067301463,2.31641069127226,2.31643069214167,2.31747073735105,2.3193808203798,2.31971083472508,2.31850078212571,2.32048086819741,2.32163091818854,2.32277096774497,2.32328098991495,2.32432103512432,2.32576109772192,2.32554108815839,2.32613111380602,2.32837121118005,2.3279111911836,2.32968126812648,2.33090132116055,2.33143134419994,2.33039129899057,2.33170135593699,2.33280140375459,2.33185136245757,2.33222137854168,2.33483149199981,2.33617155025035,2.33334142722869,2.33655156676916,2.34017172413256,2.33674157502857,2.34436190627417,2.33758161154383,2.34050173847784,2.34072174804136,2.34378188106125,2.3427918380254,2.34304184889304,2.34687201538525,2.34628198973762,2.35252226099386,2.3507821853551,2.35229225099564,2.35691245182958,2.36974300955675,2.36595284480336
2.23550717450468,2.23695723753698,2.23684723275522,2.23817729057105,2.23829729578751,2.23919733491101,2.24031738359803,2.24102741446212,2.24195745488973,2.24169744358739,2.24399754356966,2.24424755443729,2.24610763529252,2.24732768832659,2.24803771919068,2.24833773223185,2.24899776092241,2.25066783351823,2.25144786742526,2.25410798305693,2.25506802478866,2.25515802870101,2.25594806304274,2.26050826126845,2.25541804000335,2.25829816519854,2.25924820649556,2.26065826778904,2.26217833386427,2.2625783512525,2.26338838646364,2.26545847644768,2.26699854339233,2.27046869423514,2.26614850644236,2.26824859773052,2.26883862337815,2.2692986433746,2.27058869945161,2.27188875596333,2.27247878161095,2.27335881986504,2.27458887333381,2.27550891332672,2.27664896288315,2.2772889907043,2.27840903939132,2.2787290533019,2.27934908025364,2.28079914328594,2.28075914154712,2.28188919066884,2.28285923283527,2.28357926413407,2.28477931629873,2.28493932325402,2.28529933890342,2.28675940237042,2.28752943584275,2.28875948931152,2.29086958103439,2.28983953625972,2.29056956799322,2.29100958712026,2.29078957755674,2.293259684929,2.29151960929025,2.2928896688449,2.2926996605855,2.29501976143717,2.29333968840665,2.29374970622957,2.29392971405427,2.29575979360538,2.29544978012951,2.29678983838005,2.29670983490241,2.29734986272356,2.29826990271647,2.2981598979347,2.30077001139284,2.29963996227112,2.29998997748581,2.30029999096168,2.30062000487226,2.30205006703515,2.30273009659512,2.30213007051279,2.30318011615687,2.30398015093331,2.30458017701564,2.30491019136092,2.30527020701032,2.30644025787087,2.30677027221615,2.30816033264022,2.30900036915548,2.30966039784604,2.31010041697308,2.31238051608594,2.31161048261362,2.31458061172115,2.31271053043122,2.31550065171406,2.31609067736169,2.31577066345111,2.31671070431343,2.3163006864905,2.31761074343692,2.31852078299513,2.31986084124566,2.32079088167328,2.32074087949975,2.32252095687733,2.32451104338373,2.32509106859665,2.32732116553598,2.32753117466479,2.32929125117296,2.33252139158284,2.33029129464351,2.33313141809988,2.33267139810342,2.33217137636815,2.33253139201755,2.3338914511375,2.33316141940399,2.33554152286391,2.33563152677625,2.3344414750463,2.33469148591394,2.33391145200691,2.33470148634864,2.33523150938803,2.33562152634155,2.33675157546327,2.34067174586783,2.33946169326847,2.33948169413788,2.34175179281603,2.34191179977132,2.34268183324364,2.34390188627771,2.34394188801654,2.3460619801741,2.35075218405099,2.35105219709215,2.35555239270963,2.35506237140906,2.3665628713204
2.23451713146883,2.23444712842589,2.23586719015408,2.23662722319169,2.23758726492342,2.23942734490924,2.23965735490746,2.2398973653404,2.24093741054977,2.24177744706503,2.24254748053736,2.2451675944302,2.2448075787808,2.24675766354838,2.24745769397776,2.24852774049125,2.2486177444036,2.24996780308885,2.25017781221766,2.25370796566871,2.25364796306047,2.2536879647993,2.25518803000512,2.25334795001931,2.25410798305693,2.25685810260094,2.2582381625903,2.26014824561906,2.26072827083198,2.26115828952431,2.26363839733128,2.26591849644414,2.26727855556409,2.26504845862476,2.26699854339233,2.26761857034407,2.26830860033875,2.26884862381285,2.269658659024,2.27134873248923,2.27159874335687,2.27267879030506,2.27462887507264,2.2756489194126,2.27647895549316,2.2763689507114,2.27794901939487,2.27844904113014,2.27892906199601,2.27977909894597,2.27985910242362,2.28115915893534,2.28219920414471,2.28265922414116,2.28434929760639,2.28517933368695,2.28605937194104,2.28660939584984,2.28831947018448,2.28857948148682,2.28971953104325,2.29004954538854,2.29105958929379,2.29139960407378,2.29206963319905,2.29232964450139,2.2919796292867,2.29232964450139,2.29223964058904,2.29281966580196,2.2930796771043,2.29390971318486,2.2937997084031,2.29588979925655,2.29576979404009,2.29580979577891,2.29629981707948,2.29658982968594,2.29729986055003,2.29785988489354,2.29795988924059,2.29902993575408,2.29910993923173,2.30003997965934,2.30036999400462,2.30089001660931,2.30072000921932,2.30150004312635,2.30293010528923,2.30346012832863,2.3039601500639,2.3045101739727,2.30508019875092,2.30502019614269,2.30590023439677,2.30700028221438,2.30785031916434,2.30925038002312,2.30929038176194,2.30956039349899,2.31057043740424,2.31093045305364,2.31280053434357,2.31459061215586,2.31444060563528,2.31459061215586,2.31681070866048,2.31658069866226,2.31841077821336,2.31999084689684,2.31969083385567,2.32132090471267,2.32308098122084,2.32409102512609,2.32617111554484,2.33238138549696,2.33333142679399,2.42593545216702,2.42311532958007,2.42665548346582,2.42711550346227,2.42804554388988,2.43132568647329,2.42557543651762,2.33820163849557,2.3364415619874,2.33744160545795,2.33428146809101,2.3304513015988,2.33407145896219,2.33782162197676,2.33551152155979,2.33465148417511,2.33475148852217,2.33689158154915,2.33570152981919,2.3364315615527,2.33763161371736,2.33815163632204,2.34068174630254,2.33976170630963,2.33983170935257,2.34032173065314,2.34281183889481,2.34368187671419,2.34699202060172,2.34673200929937,2.35291227794738,2.35578240270786,2.35892253920539
2.23267705148302,2.23423711929708,2.23486714668352,2.23540717015762,2.23621720536877,2.2373672553599,2.23802728405047,2.23913733230278,2.24000737012216,2.24072740142095,2.24150743532798,2.24295749836028,2.24452756660905,2.24526759877726,2.24657765572368,2.24705767658954,2.24839773484008,2.24955778526592,2.25029781743413,2.25202789263818,2.25225790263641,2.25337795132343,2.25411798349163,2.25370796566871,2.25579805652216,2.25884818910734,2.25951821823261,2.25904819780145,2.25995823735965,2.26118829082843,2.26278836038131,2.26499845645123,2.26251834864426,2.26539847383945,2.26668852991646,2.2662085090506,2.26715855034762,2.26771857469113,2.26941864859107,2.27028868641044,2.27086871162336,2.27215876770038,2.27297880334623,2.27335881986504,2.27464887594205,2.27569892158613,2.277468998529,2.27658896027492,2.27823903200133,2.27894906286542,2.27993910590126,2.28116915937004,2.28135916762945,2.2823592111,2.28365926761171,2.28420929152052,2.28568935585693,2.28746943323451,2.28788945149214,2.28849947800918,2.29049956495028,2.29109959103261,2.29314968014724,2.29395971535839,2.29464974535307,2.29512976621893,2.29119959537967,2.29061957016675,2.29126959842261,2.29196962885199,2.29204963232964,2.29235964580551,2.2943497323119,2.2939697157931,2.29381970927251,2.29483975361247,2.29549978230304,2.29570979143185,2.29672983577182,2.29624981490595,2.29813989706529,2.29798989054471,2.29804989315294,2.29914994097055,2.29911993966643,2.29912994010114,2.30097002008695,2.30094001878284,2.30119002965047,2.30241008268455,2.30309011224452,2.30646025874028,2.30503019657739,2.30442017006035,2.30516020222856,2.30662026569557,2.30744030134142,2.30924037958841,2.30887036350431,2.30926038045782,2.30980040393192,2.31201050000184,2.31185049304655,2.31464061432939,2.3126605282577,2.31761074343692,2.31554065345288,2.31613067910051,2.31864078821159,2.31982083950684,2.32252095687733,2.32824120552888,2.4179051030985,2.42460539435119,2.42583544781997,2.42784553519577,2.42794553954283,2.42601545564466,2.42958561083453,2.42892558214397,2.42949560692218,2.42926559692396,2.43088566734625,2.42993562604923,2.43146569255917,2.4266254821617,2.42538542825822,2.42629546781642,2.42609545912231,2.33962170022375,2.33704158806973,2.33622155242388,2.33532151330038,2.33652156546505,2.3351715067798,2.33683157894092,2.33511150417157,2.33724159676384,2.33692158285327,2.33794162719323,2.33713159198208,2.33932168718259,2.3402517276102,2.34145177977486,2.34179179455485,2.34356187149773,2.34498193322591,2.35137221100273,2.35283227446973,2.35613241792255
2.23207702540069,2.23214702844363,2.23404711103767,2.23475714190176,2.23506715537763,2.23571718363349,2.23748726057637,2.23834729796104,2.23890732230455,2.24092741011506,2.24136742924211,2.24278749097029,2.24392754052672,2.2446175705214,2.24537760355902,2.24582762312076,2.24738769093482,2.24926777265946,2.2491577678777,2.24961778787415,2.25168787785819,2.25229790437523,2.25337795132343,2.25559804782805,2.25785814607149,2.26158830821665,2.25783814520208,2.25957822084084,2.25942821432026,2.26072827083198,2.26013824518435,2.26096828126491,2.26328838211659,2.26470844384477,2.26532847079651,2.26634851513647,2.26632851426706,2.26783857990759,2.26917863815813,2.269658659024,2.27072870553749,2.27152874031393,2.27298880378093,2.27359883029797,2.27460887420323,2.27539890854496,2.27630894810316,2.27664896288315,2.277468998529,2.27895906330012,2.27947908590481,2.27996910720538,2.28301923979056,2.28318924718055,2.28311924413762,2.28545934585871,2.2861793771575,2.28728942540981,2.28911950496092,2.29204963232964,2.29222964015434,2.29334968884135,2.29662983142476,2.30012998357169,2.37623329168063,2.2954297792601,2.2972398579418,2.29095958494674,2.29030955669088,2.29182962276612,2.29241964841374,2.29244964971786,2.29285966754078,2.29323968405959,2.29354969753546,2.29385971101133,2.29478975143895,2.29576979404009,2.29563978838892,2.29609980838537,2.29720985663768,2.29590980012596,2.29766987663413,2.29828990358588,2.29888992966821,2.29935995009937,2.30035999356992,2.30028999052698,2.30090001704401,2.30131003486694,2.30237008094572,2.30314011441805,2.30367013745744,2.30437016788683,2.30499019483857,2.30677027221615,2.30666026743439,2.30713028786555,2.30786031959905,2.30913037480665,2.3110304574007,2.31079044696777,2.31153047913597,2.31131046957245,2.3135805682506,2.31479062084997,2.31859078603806,2.32037086341564,2.32408102469139,2.41734507875499,2.41794510483732,2.42193527828482,2.42365535305416,2.42451539043884,2.42491540782706,2.42628546738171,2.42766552737107,2.42785553563048,2.4304356477845,2.42978561952864,2.43034564387215,2.42857556692928,2.43036564474156,2.43108567604036,2.43126568386506,2.43204571777209,2.42616546216525,2.42657547998817,2.42964561344277,2.42745551824226,2.43182570820857,2.33997171543845,2.33767161545618,2.33524150982274,2.33555152329861,2.33545151895156,2.33586153677448,2.33710159067796,2.33627155459741,2.33729159893737,2.33710159067796,2.33867165892673,2.33979170761375,2.34179179455485,2.34048173760843,2.34238182020247,2.34321185628303,2.34646199756232,2.35066218013864,2.35487236314966
2.23134699366718,2.23200702235775,2.23297706452418,2.23412711451532,2.23399710886414,2.23539716972292,2.23692723623286,2.23763726709695,2.23822729274458,2.23983736273216,2.24079740446389,2.24245747662501,2.24250747879853,2.2435375235732,2.24465757226022,2.24564761529607,2.24803771919068,2.24720768311012,2.24938777787593,2.24984779787238,2.25121785742703,2.25200789176877,2.25307793828226,2.2544179965328,2.25457800348809,2.25555804608923,2.25776814215914,2.25868818215205,2.2585981782397,2.25998823866377,2.26064826735433,2.26263835386073,2.26303837124895,2.26362839689657,2.26496845514711,2.2656684855765,2.26609850426884,2.2674785642582,2.26869861729227,2.26921863989695,2.26990866989164,2.2709387146663,2.27250878291507,2.27233877552507,2.2736588329062,2.27481888333204,2.27563891897789,2.27607893810494,2.27784901504781,2.27847904243426,2.27929907808011,2.2796390928601,2.28169918240943,2.28239921283882,2.2834492584829,2.2843692984758,2.28682940541336,2.2888994953974,2.29041956147264,2.2961498105589,2.29498976013306,2.2985099131494,2.37892340861641,2.37665330993826,2.3761732890724,2.37758335036587,2.29068957320969,2.29054956712381,2.29081957886086,2.29092958364262,2.29078957755674,2.29200963059081,2.29238964710962,2.29317968145136,2.29329968666783,2.29320968275548,2.29381970927251,2.29501976143717,2.29519976926187,2.29513976665364,2.29622981403654,2.29694984533534,2.2968898427271,2.29746986794002,2.29740986533179,2.29855991532293,2.29935995009937,2.29998997748581,2.30060000400285,2.30140003877929,2.30191006094927,2.30193006181868,2.3030601109404,2.30518020309797,2.30423016180095,2.30466018049329,2.30652026134851,2.30661026526086,2.30776031525199,2.30908037263312,2.31042043088366,2.31024042305896,2.31145047565833,2.31257052434535,2.31402058737764,2.31530064301995,2.31973083559449,2.41888514569964,2.41903515222022,2.41735507918969,2.41726507527734,2.42120524655131,2.42272531262655,2.42351534696829,2.42427538000591,2.42676548824758,2.42519541999881,2.42696549694169,2.43227572777032,2.42939560257513,2.42539542869292,2.42525542260705,2.431335686908,2.43365578775968,2.43317576689381,2.43245573559501,2.43174570473092,2.4317057029921,2.43089566778095,2.43101567299742,2.43138568908152,2.43212572124973,2.43041564691509,2.34003171804668,2.33817163719145,2.33536151503921,2.33732160024149,2.33642156111799,2.33561152590684,2.33692158285327,2.33666157155092,2.33582153503566,2.3417017906425,2.34100176021311,2.33932168718259,2.34050173847784,2.34658200277879,2.3460519797394,2.34923211797575,2.35262226534092
2.23011694019841,2.23105698106072,2.23216702931304,2.23317707321829,2.23339708278181,2.23497715146528,2.23564718059055,2.23692723623286,2.23789727839929,2.23894732404337,2.24014737620803,2.2408074048986,2.24163744097916,2.24322751009733,2.24415755052494,2.24470757443375,2.24695767224249,2.24682766659132,2.24801771832127,2.24964778917827,2.25026781613001,2.25085784177764,2.25265792002463,2.25317794262932,2.25435799392457,2.25544804130747,2.25705811129505,2.25744812824857,2.25925820693027,2.25933821040791,2.25992823605554,2.26172831430253,2.26173831473723,2.26292836646719,2.26343838863717,2.26483844949594,2.26568848644591,2.26678853426352,2.2676585720829,2.26849860859816,2.26976866380576,2.27067870336396,2.2720187616145,2.27260878726212,2.27333881899563,2.27521890072026,2.27547891202261,2.27500889159145,2.27667896418727,2.27842904026073,2.27980910025009,2.2812791641518,2.28174918458296,2.28315924587644,2.28473931455991,2.28642938802514,2.28740943062628,2.29040956103793,2.29354969753546,2.30020998704933,2.35910254703009,2.37356317561426,2.37639329863592,2.37783336123351,2.3781733760135,2.37896341035523,2.29055956755852,2.28983953625972,2.28991953973736,2.29039956060323,2.2905295662544,2.29130960016143,2.29196962885199,2.29287966841019,2.29277966406314,2.29302967493078,2.29362970101311,2.29422972709544,2.29423972753014,2.29562978795421,2.29576979404009,2.29637982055712,2.2966998344677,2.29721985707239,2.29882992705997,2.29726985924591,2.29721985707239,2.29922994444819,2.30012998357169,2.30054000139462,2.30076001095814,2.30107002443401,2.30264009268277,2.30272009616042,2.3048701896221,2.30408015528037,2.30641025656675,2.30658026395674,2.30769031220906,2.30848034655079,2.30896036741666,2.31233051391241,2.31788075517397,2.31444060563528,2.31761074343692,2.40480453363428,2.41377492356512,2.41616502745974,2.41764509179615,2.41740508136322,2.41783510005556,2.42181527306835,2.42294532219007,2.42133525220249,2.42070522481604,2.42429538087532,2.4251654186947,2.42744551780755,2.42674548737817,2.42189527654599,2.42144525698425,2.42835555736575,2.42651547737994,2.42873557388456,2.43848599772244,2.43542586470255,2.4309856716933,2.43233573037855,2.43138568908152,2.43123568256094,2.43062565604391,2.43059565473979,2.43095567038919,2.42964561344277,2.34022172630608,2.33751160850089,2.3364415619874,2.33446147591571,2.33466148460982,2.33533151373509,2.33602154372977,2.33720159502502,2.33755161023971,2.33756161067442,2.33923168327024,2.34107176325605,2.3427818375907,2.3433318614995,2.34519194235472,2.34817207189697
2.22983692802665,2.23103698019131,2.2311869867119,2.23160700496953,2.23320707452241,2.23384710234356,2.23473714103235,2.2362672075423,2.23668722579993,2.23807728622399,2.23879731752279,2.24039738707567,2.24094741098447,2.24173744532621,2.24375753313672,2.24435755921905,2.24549760877548,2.24605763311899,2.24783771049657,2.24909776526947,2.24981779656826,2.25069783482235,2.25180788307466,2.25263791915522,2.25379796958106,2.25458800392279,2.2558680595651,2.25646808564743,2.25794814998384,2.25828816476383,2.2594982173632,2.26061826605022,2.26170831343312,2.26198832560487,2.26379840428657,2.26415841993597,2.26547847731709,2.26667852948175,2.26737855991114,2.26846860729404,2.26909863468049,2.27012867945516,2.27109872162159,2.27213876683096,2.27273879291329,2.2736488324715,2.27580892636789,2.276008935062,2.27672896636079,2.27812902721957,2.27983910155421,2.28165918067061,2.28248921675117,2.28407928586934,2.28586936368163,2.28823946670684,2.29060956973204,2.29177962059259,2.3514922162192,2.35674244443959,2.36019259441299,2.37449321604187,2.37711332993472,2.37746334514941,2.37834338340349,2.37111306911141,2.28983953625972,2.28936951582856,2.28875948931152,2.28967952930443,2.29041956147264,2.2908995823385,2.29087958146909,2.29169961711494,2.29189962580905,2.29278966449784,2.29313967971254,2.29323968405959,2.29519976926187,2.29384971057663,2.29502976187188,2.29806989402235,2.29601980490773,2.29626981577536,2.29680983924946,2.29733986228885,2.29803989271824,2.29866992010469,2.29897993358056,2.29971996574876,2.30038999487403,2.30145004095282,2.3010500235646,2.30271009572571,2.30325011919981,2.30382014397802,2.30629025135028,2.30515020179386,2.30694027960614,2.30732029612495,2.30906037176371,2.31094045348835,2.3146706156335,2.31888079864452,2.41202484749165,2.41200484662224,2.41435494877804,2.41487497138273,2.41619502876385,2.41702506484441,2.41621502963326,2.41639503745796,2.4208252300325,2.41915515743668,2.41952517352079,2.42257530610597,2.42295532262478,2.42704550041933,2.42632546912054,2.4151949852933,2.41885514439552,2.42411537305062,2.4260754582529,2.42813554780223,2.42892558214397,2.42775553128342,2.42767552780578,2.42960561170394,2.42977561909394,2.4302556399598,2.4304256473498,2.43130568560388,2.431335686908,2.43108567604036,2.43102567343213,2.33932168718259,2.33702158720032,2.33523150938803,2.33235138419285,2.33526151069215,2.3346314833057,2.33400145591926,2.33471148678335,2.33588153764389,2.33724159676384,2.33798162893205,2.33901167370672,2.34013172239373,2.34314185324009,2.34565196235118
2.23156700323071,2.22957691672431,2.2319270188801,2.23126699018954,2.23197702105363,2.23248704322361,2.23496715103058,2.23516715972469,2.23592719276231,2.23731725318637,2.23806728578929,2.2388073179575,2.24105741576624,2.24128742576446,2.24233747140854,2.2431675074891,2.24485758095433,2.24554761094901,2.24728768658777,2.24803771919068,2.24870774831595,2.25033781917295,2.2509778469941,2.25203789307289,2.25234790654876,2.25417798609987,2.25534803696041,2.25591806173863,2.25608806912862,2.25752813172621,2.25863817997852,2.25993823649024,2.26073827126668,2.2622283360378,2.26424842384832,2.26434842819537,2.26482844906124,2.26540847427416,2.26637851644059,2.26814859338347,2.26863861468404,2.26934864554813,2.27099871727454,2.27135873292393,2.27248878204566,2.2743888646397,2.27477888159322,2.27562891854319,2.27761900504958,2.27898906460424,2.28083914502476,2.28175918501767,2.28396928108758,2.28606937237574,2.28805945888214,2.29031955712558,2.36326272786758,2.37016302781439,2.37224311823313,2.37351317344073,2.37555326212066,2.37648330254827,2.37697332384884,2.37706332776119,2.37637329776651,2.36756291479095,2.28995954147619,2.29056956799322,2.28899949974446,2.28956952452267,2.28970953060855,2.29019955190912,2.29061957016675,2.29087958146909,2.29149960842083,2.291799621462,2.29208963406846,2.29278966449784,2.29362970101311,2.29329968666783,2.29350969579664,2.29518976882717,2.29530977404363,2.29533977534775,2.29642982273065,2.30023998835345,2.29663983185947,2.29793988837118,2.29867992053939,2.29865991966998,2.29961996140171,2.30057000269873,2.30129003399753,2.3023200787722,2.30240008224984,2.30357013311039,2.30420016049683,2.3048701896221,2.31056043696954,2.30816033264022,2.31246051956359,2.31425059737587,2.40489453754663,2.40742464752712,2.40984475272585,2.41108480662934,2.41318489791749,2.41765509223086,2.41413493921452,2.41474496573155,2.41496497529508,2.41561500355093,2.42092523437956,2.41999519395195,2.42111524263896,2.41840512483377,2.42179527219894,2.42511541652117,2.41497497572978,2.41455495747215,2.41941516873903,2.42093523481427,2.42124524829014,2.42107524090014,2.42260530741009,2.42562543869115,2.42614546129584,2.42494540913118,2.42745551824226,2.4315256951674,2.4291655925769,2.42902558649102,2.43103567386683,2.43128568473447,2.43046564908862,2.42955560953042,2.33851165197144,2.33664157068151,2.33439147287277,2.33473148765276,2.33419146417866,2.33403145722337,2.33519150764921,2.33544151851685,2.33526151069215,2.33718159415561,2.33877166327379,2.33878166370849,2.34064174456372,2.34377188062654
2.22818685630024,2.22888688672963,2.22918689977079,2.23055695932545,2.23070696584603,2.23266705104831,2.23304706756712,2.23478714320588,2.23542717102703,2.23651721840993,2.23788727796459,2.23949734795218,2.24072740142095,2.24127742532976,2.24175744619562,2.24258748227618,2.24421755313318,2.24905776353064,2.24602763181487,2.24717768180601,2.24823772788479,2.2486177444036,2.25015781134825,2.25149786959879,2.25167787742349,2.25265792002463,2.25425798957751,2.2549580200069,2.25546804217688,2.25697810781741,2.2582381625903,2.25918820388733,2.25971822692672,2.26051826170316,2.26145830256548,2.26325838081247,2.26399841298068,2.26554848036003,2.26596849861766,2.26656852469999,2.26824859773052,2.26884862381285,2.27063870162514,2.2711087220563,2.27233877552507,2.27372883594914,2.27477888159322,2.27638895158081,2.2781890298278,2.27995910677067,2.28193919284237,2.28385927630582,2.28644938889455,2.28952952278385,2.36127264136119,2.36096262788531,2.36168265918411,2.37031303433497,2.3716430921508,2.37232312171078,2.37429320734776,2.37607328472534,2.37959343774168,2.37506324082009,2.37679331602414,2.36835294913269,2.28892949670152,2.28844947583565,2.28876948974623,2.28924951061209,2.28946952017562,2.2898095349556,2.28999954321501,2.29031955712558,2.29138960363907,2.29126959842261,2.29146960711672,2.29278966449784,2.29278966449784,2.29312967927783,2.29393971448898,2.29462974448366,2.29402971840133,2.29526977230481,2.29540977839069,2.29617981186301,2.2963298183836,2.29708985142122,2.29787988576295,2.29912994010114,2.29921994401349,2.30010998270228,2.30027999009227,2.30078001182755,2.30229007746808,2.30369013832685,2.30498019440386,2.30606024135206,2.30779031655611,2.30962039610722,2.3119404969589,2.40443451755017,2.40382449103314,2.41046477967759,2.4093847327294,2.40944473533763,2.41067478880641,2.41234486140223,2.41426494486569,2.41572500833269,2.41503497833801,2.41339490704631,2.4179151035332,2.42527542347646,2.31895080168746,2.31944082298803,2.3192008125551,2.32208093775029,2.41340490748102,2.41649504180502,2.42147525828836,2.41995519221312,2.42021520351547,2.42024520481958,2.42107524090014,2.42252530393244,2.42420537696297,2.42364535261946,2.42800554215106,2.4255354347788,2.42684549172522,2.42548543260527,2.43171570342681,2.43040564648038,2.42869557214574,2.42951560779159,2.42494540913118,2.34072174804136,2.33700158633091,2.33361143896574,2.33283140505871,2.33309141636105,2.33422146548278,2.33531151286568,2.33477148939158,2.33693158328797,2.33659156850798,2.3382616411038,2.33991171283021,2.34205180585719
2.2272068136991,2.22826685977789,2.22913689759727,2.22995693324312,2.23111698366896,2.23195702018422,2.23352708843299,2.23433712364413,2.23503715407352,2.23641721406288,2.23728725188226,2.23818729100575,2.23891732273926,2.24046739011861,2.24173744532621,2.24209746097561,2.24347752096497,2.24468757356434,2.24700767441601,2.24646765094192,2.24797771658245,2.24858774309949,2.2493377757024,2.25063783221412,2.25174788046643,2.25246791176522,2.25349795653989,2.25464800653103,2.25560804826275,2.25667809477624,2.25762813607327,2.25907819910557,2.25962822301437,2.25979823040436,2.26178831691076,2.26252834907897,2.2638484064601,2.26492845340829,2.26556848122944,2.26645851991823,2.26759856947466,2.26836860294699,2.26997867293457,2.27243877987213,2.27246878117625,2.27424885855383,2.27587892941083,2.27748899939841,2.28104915415357,2.28198919501589,2.28426929412875,2.2859893688981,2.28977953365149,2.36304271830406,2.36390275568873,2.36159265527176,2.36315272308582,2.36415276655637,2.37192310432255,2.37217311519019,2.374183202566,2.37308315474839,2.37385318822072,2.37287314561958,2.37077305433142,2.37367318039602,2.28864948452976,2.28771944410215,2.28825946757625,2.28863948409506,2.28883949278917,2.28928951235092,2.29017955103971,2.28985953712913,2.29044956277676,2.2905295662544,2.29165961537612,2.29200963059081,2.29194962798258,2.29309967797372,2.29431973100779,2.29375970666428,2.29408972100956,2.29427972926897,2.29454974100601,2.2956197875195,2.29619981273242,2.29694984533534,2.29758987315649,2.29819989967353,2.29943995357701,2.29976996792229,2.2999599761817,2.301240031824,2.3019700635575,2.30295010615864,2.3039601500639,2.30629025135028,2.30842034394256,2.40261443843377,2.40301445582199,2.40402449972725,2.40479453319957,2.40691462535714,2.40717463665948,2.40892471273295,2.40803467404416,2.41179483749343,2.40940473359881,2.40688462405302,2.41143482184403,2.41925516178374,2.31637068953344,2.3148406230235,2.31670070387872,2.31646069344579,2.31783075300044,2.3211908990615,2.31983083994155,2.32136090645149,2.34662200451761,2.4199051900396,2.41856513178906,2.42255530523656,2.4208252300325,2.420095198299,2.41909515482845,2.42085523133662,2.42195527915423,2.42268531088773,2.42514541782529,2.42402536913827,2.42522542130293,2.42790553780401,2.4278855369346,2.42891558170926,2.42537542782351,2.42309532871066,2.33742160458854,2.33514150547568,2.33500149938981,2.3333514276634,2.3324413881052,2.33349143374928,2.33285140592812,2.33368144200868,2.33593153981742,2.33701158676562,2.34218181150837,2.33983170935257
2.22617676892443,2.22760683108732,2.22772683630379,2.228296861082,2.23005693759017,2.23131699236307,2.23312707104476,2.23334708060829,2.2344671292953,2.23527716450645,2.23607719928289,2.2380972870934,2.23853730622045,2.23943734534394,2.24052739272684,2.24197745575914,2.24233747140854,2.24331751400968,2.24487758182374,2.24603763224958,2.24708767789366,2.2482577287542,2.2491577678777,2.24949778265769,2.25127786003527,2.25204789350759,2.25268792132875,2.25374796740753,2.25504802391925,2.25572805347922,2.25751813129151,2.25761813563856,2.25898819519322,2.26060826561551,2.26114828908961,2.26183831908429,2.26290836559778,2.2645884386283,2.26550847862121,2.26617850774648,2.26781857903818,2.26901863120285,2.27161874422628,2.2716587459651,2.27374883681855,2.27513889724262,2.27702897940196,2.27970909590304,2.28158917762767,2.2850893297746,2.28876948974623,2.36175266222705,2.36197267179057,2.36381275177639,2.36501280394105,2.36442277829342,2.36523281350457,2.36821294304681,2.37069305085378,2.37112306954611,2.37337316735485,2.37252313040489,2.37124307476258,2.37279314214193,2.37966344078462,2.2905395666891,2.28876948974623,2.2905395666891,2.28773944497156,2.28755943714686,2.28867948583388,2.28807945975155,2.28939951713268,2.28936951582856,2.29019955190912,2.28977953365149,2.29044956277676,2.29134960190025,2.29204963232964,2.29327968579842,2.29274966275902,2.29322968362489,2.29339969101488,2.29437973361602,2.2945297401366,2.29538977752128,2.29628981664477,2.296519826643,2.2968898427271,2.29748986880944,2.29894993227644,2.30083001400108,2.3001399840064,2.30126003269341,2.30181005660222,2.30385014528214,2.30463017918917,2.30902037002489,2.40278444582376,2.40207441495967,2.40269444191141,2.40346447538374,2.40509454624074,2.4046745279831,2.40505454450191,2.40572457362718,2.4052145514572,2.40637460188304,2.40686462318361,2.40715463579007,2.31367057216295,2.31299054260298,2.31293053999474,2.31345056259943,2.31356056738119,2.3143005995494,2.31624068388227,2.31614067953521,2.32013085298271,2.31839077734395,2.32402102208316,2.41758508918792,2.41750508571028,2.41529498964036,2.41426494486569,2.41787510179438,2.41669505049913,2.41871513830964,2.42061522090369,2.42049521568722,2.42741551650344,2.41854513091965,2.4182851196173,2.41648504137031,2.42545543130116,2.42550543347468,2.42496541000059,2.42488540652294,2.34167178933838,2.33576153242743,2.3335314354881,2.33230138201932,2.33142134376523,2.33203137028227,2.33216137593344,2.33288140723224,2.33484149243452,2.33542151764744,2.33667157198563,2.33726159763325
2.22604676327326,2.22743682369733,2.22893688890316,2.22879688281728,2.22930690498726,2.23097697758308,2.23284705887301,2.23240703974597,2.23424711973178,2.2351871605941,2.23650721797523,2.2380872866587,2.23865731143691,2.23914733273748,2.2400773731651,2.24265748531912,2.24274748923147,2.2435375235732,2.24440756139258,2.24528759964667,2.24652765355015,2.24813772353774,2.24840773527479,2.25002780569708,2.25091784438587,2.25148786916408,2.25195788959524,2.25345795480107,2.25447799914103,2.25525803304806,2.25600806565097,2.25832816650265,2.2587781860644,2.25995823735965,2.26031825300905,2.2618683203884,2.26306837255307,2.26414841950126,2.26519846514534,2.26589849557473,2.26808859077523,2.26935864598283,2.27071870510278,2.27240877856801,2.27541890941437,2.27720898722666,2.27879905634483,2.28311924413762,2.36078262006062,2.360022587023,2.35997258484947,2.36204267483351,2.36325272743288,2.36501280394105,2.36466278872635,2.36569283350102,2.36604284871571,2.36754291392154,2.36896297564972,2.37100306432965,2.37070305128848,2.36955300129735,2.37232312171078,2.36690288610039,2.36623285697512,2.28982953582501,2.28933951452444,2.28887949452799,2.28829946931507,2.28737942932216,2.28855948061741,2.2881694636639,2.28913950583033,2.28919950843857,2.28953952321855,2.29009954756206,2.29057956842793,2.29074957581792,2.2912595979879,2.29165961537612,2.29221963971963,2.29280966536726,2.29340969144959,2.29445973709367,2.29368970362134,2.29532977491304,2.29682984011887,2.29660983055535,2.29674983664123,2.29755987185237,2.2983299053247,2.29858991662704,2.29958996009759,2.30186005877574,2.30373014006567,2.30529020787973,2.30932038306605,2.40097436714206,2.40045434453738,2.40094436583795,2.40440451624606,2.40191440800438,2.40259443756436,2.40289445060552,2.40265444017259,2.40297445408317,2.40391449494549,2.40362448233903,2.4037544879902,2.31219050782654,2.31135047131127,2.312480520433,2.3115804813095,2.31328055520944,2.31252052217182,2.31318055086238,2.31296054129886,2.31495062780526,2.31531064345466,2.31631068692521,2.31639069040285,2.31996084559272,2.40530455536955,2.41096480141287,2.41344490921984,2.41296488835397,2.4157450092021,2.41722507353852,2.41818511527025,2.4177350957085,2.41824511787848,2.41806511005378,2.4180951113579,2.415374993118,2.41678505441148,2.41659504615207,2.42545543130116,2.42522542130293,2.42113524350838,2.33967170239728,2.33631155633623,2.33459148156688,2.33268139853813,2.3320813724558,2.33334142722869,2.33264139679931,2.33239138593167,2.33718159415561,2.33663157024681,2.3359015385133
2.22510672241095,2.22586675544856,2.22734681978498,2.2286568767314,2.22960691802842,2.23041695323957,2.23124698932013,2.23292706235065,2.23383710190886,2.23474714146706,2.23588719102349,2.23719724796991,2.23770727013989,2.23832729709163,2.23984736316687,2.24048739098802,2.24183744967327,2.24272748836206,2.24420755269847,2.24517759486491,2.24633764529075,2.2475276970207,2.24799771745186,2.2487977522283,2.24953778439651,2.25128786046997,2.252237901767,2.25279792611051,2.25537803826453,2.25502802304983,2.25592806217333,2.25738812564034,2.25879818693381,2.25874818476028,2.26136829865313,2.26160830908606,2.26246834647073,2.26337838602894,2.26588849514002,2.26785858077701,2.26848860816345,2.27016868119398,2.27262878813153,2.27487888594027,2.27663896244844,2.28386927674053,2.34838208102578,2.35874253138069,2.35892253920539,2.36082262179944,2.3618426661394,2.36271270395878,2.36279270743642,2.36521281263516,2.3663828634957,2.36419276829519,2.36512280872281,2.36598284610748,2.36649286827746,2.36727290218449,2.36753291348684,2.36818294174269,2.367832926528,2.36718289827214,2.36553282654573,2.28919950843857,2.28857948148682,2.28840947409683,2.2872594241057,2.28746943323451,2.28767944236333,2.28764944105921,2.28819946496802,2.28898949930975,2.28914950626504,2.28866948539917,2.29008954712736,2.29041956147264,2.29061957016675,2.29094958451203,2.29208963406846,2.29220963928493,2.29281966580196,2.29314968014724,2.29359969970899,2.29457974231013,2.29516976795776,2.29648982533888,2.29634981925301,2.29686984185769,2.29968996444465,2.29871992227821,2.30056000226403,2.30216007181691,2.30554021874737,2.30546021526973,2.38791379941667,2.39533412196816,2.3990342828092,2.40010432932269,2.39978431541211,2.40070435540502,2.40118437627088,2.40000432497563,2.40033433932091,2.40006432758386,2.40114437453206,2.40320446408139,2.40045434453738,2.30954039262958,2.30963039654193,2.30917037654547,2.31097045479246,2.31098045522717,2.31115046261716,2.3119404969589,2.3119504973936,2.3130305443418,2.31419059476764,2.31634068822932,2.31742073517752,2.31727072865694,2.41508498051154,2.41452495616803,2.41271487748633,2.41396493182452,2.41400493356335,2.41317489748279,2.41473496529685,2.42125524872484,2.41657504528266,2.41825511831319,2.41742508223263,2.41744508310204,2.41623503050267,2.41652504310913,2.42139525481072,2.4238953634871,2.42232529523833,2.42293532175537,2.33714159241679,2.33254139245225,2.3306413098582,2.3300912859494,2.33234138375814,2.33101132594231,2.33174135767581,2.33304141418753,2.33240138636637,2.33439147287277
2.22486671197801,2.22624677196737,2.2272068136991,2.2275568289138,2.22835686369024,2.23005693759017,2.23086697280132,2.2324570419195,2.23308706930594,2.23474714146706,2.23474714146706,2.23670722666934,2.23758726492342,2.23829729578751,2.23904732839043,2.24140743098093,2.24114741967858,2.24230747010442,2.24391754009201,2.24457756878258,2.24590762659841,2.24597762964135,2.24748769528188,2.24786771180069,2.24925777222475,2.25023781482589,2.25198789089936,2.25202789263818,2.25290793089227,2.25498802131101,2.25598806478156,2.2567780991233,2.25770813955091,2.25868818215205,2.26030825257434,2.26175831560664,2.26271835733837,2.26432842732596,2.26595849818296,2.26842860555522,2.26997867293457,2.27153874074863,2.27331881812621,2.2796490932948,2.35591240835903,2.35575240140374,2.35654243574548,2.35780249051837,2.35896254094421,2.35956256702654,2.35986258006771,2.36085262310355,2.36154265309823,2.36258269830761,2.3620226739641,2.36313272221641,2.36364274438639,2.36409276394814,2.36485279698576,2.36432277394637,2.36875296652091,2.36479279437753,2.36699289001274,2.36688288523098,2.36971300825264,2.28792945323097,2.28759943888568,2.28645938932926,2.28774944540627,2.28813946235978,2.28795945453508,2.28717942062805,2.28767944236333,2.2878094480145,2.2885294793133,2.28894949757093,2.28952952278385,2.28958952539208,2.2907095740791,2.29069957364439,2.29118959494496,2.29138960363907,2.29174961928847,2.29287966841019,2.29311967884313,2.2966998344677,2.29475975013483,2.29514976708835,2.29571979186656,2.29621981360184,2.3006900079152,2.30006998096346,2.30021998748404,2.30056000226403,2.30889036437372,2.38958387201249,2.39350404241705,2.39581414283402,2.39679418543516,2.39733420890926,2.39772422586277,2.39818424585923,2.39711419934574,2.39707419760692,2.39734420934396,2.39815424455511,2.40351447755726,2.31002041349544,2.31028042479778,2.30783031829493,2.31174048826479,2.30857035046314,2.30934038393547,2.30954039262958,2.30943038784782,2.31112046131305,2.31217050695713,2.31222050913065,2.31414059259411,2.31311054781944,2.31709072083224,2.31601067388404,2.31808076386808,2.41509498094625,2.41422494312687,2.41221485575106,2.41093480010875,2.4110148035864,2.41305489226632,2.41254487009634,2.41430494660451,2.42173526959071,2.41703506527912,2.41723507397323,2.41776509701262,2.41935516613079,2.41978518482313,2.42428538044061,2.42155526176601,2.42121524698602,2.42079522872839,2.33424146635219,2.33166135419817,2.33085131898702,2.33124133594054,2.33143134419994,2.33031129551292,2.33283140505871,2.3351715067798,2.33401145635396
2.22462670154508,2.22459670024096,2.2257467502321,2.22622677109796,2.22866687716611,2.22840686586376,2.23120698758131,2.23198702148834,2.2339071049518,2.23404711103767,2.23456713364236,2.23589719145819,2.23732725362108,2.2380872866587,2.23888732143514,2.23937734273571,2.24110741793976,2.24149743489328,2.24221746619207,2.24400754400436,2.24520759616902,2.24595762877194,2.24599763051076,2.24773770614952,2.24841773570949,2.25075783743058,2.25062783177941,2.25167787742349,2.25248791263463,2.25458800392279,2.25527803391747,2.25638808216978,2.25900819606263,2.25856817693559,2.26016824648847,2.26187832082311,2.2631283751613,2.26637851644059,2.26883862337815,2.26886862468226,2.27133873205452,2.27549891289202,2.3533122953356,2.35464235315143,2.35472235662908,2.35566239749139,2.35628242444314,2.35710246008899,2.3584025166007,2.35856252355599,2.35913254833421,2.35934255746302,2.36030259919475,2.3618426661394,2.3603926031071,2.36133264396942,2.36218268091939,2.36282270874054,2.36205267526822,2.36297271526112,2.36362274351698,2.36283270917525,2.36326272786758,2.36320272525935,2.3594925639836,2.28792945323097,2.28670940019689,2.28668939932748,2.28630938280867,2.2863493845475,2.28696941149924,2.28703941454218,2.287079416281,2.28769944323274,2.28833947105389,2.2885294793133,2.28906950278739,2.28983953625972,2.28863948409506,2.29013954930088,2.29060956973204,2.29154961059436,2.29201963102552,2.29232964450139,2.29285966754078,2.29328968623312,2.29399971709721,2.29468974709189,2.29544978012951,2.29628981664477,2.29679983881475,2.29900993488467,2.29965996314053,2.30285010181159,2.38712376507493,2.38879383767075,2.39120394243478,2.39301402111648,2.3946840937123,2.3961441571793,2.39524411805581,2.39603415239754,2.39688418934751,2.39629416369989,2.39589414631167,2.39656417543693,2.3995943071527,2.30822033524845,2.30691027830203,2.30663026613027,2.30737029829848,2.30769031220906,2.30768031177435,2.30748030308024,2.30887036350431,2.309220378719,2.3114004734848,2.31120046479069,2.31144047522362,2.31278053347416,2.3126605282577,2.31481062171938,2.31524064041172,2.40474453102604,2.40607458884188,2.40578457623542,2.41016476663643,2.41006476228937,2.4102947722876,2.41206484923048,2.41160482923402,2.4139249300857,2.41467496268861,2.41806511005378,2.41657504528266,2.41724507440793,2.41943516960844,2.41824511787848,2.41928516308786,2.42000519438665,2.41867513657082,2.33486149330393,2.33145134506935,2.33011128681881,2.32849121639652,2.32869122509063,2.32990127769,2.33207137202109,2.33161135202464,2.3322713807152
2.22395667241981,2.22652678413913,2.22825685934318,2.22662678848618,2.22813685412672,2.22845686803729,2.23014694150252,2.23120698758131,2.23261704887478,2.23416711625414,2.23465713755471,2.2351871605941,2.23673722797345,2.23785727666047,2.23835729839575,2.23867731230632,2.23945734621335,2.24141743141563,2.24251747923324,2.2444375626967,2.24390753965731,2.24515759399549,2.24530760051608,2.24749769571658,2.24829773049303,2.24927777309417,2.25110785264527,2.25157787307643,2.25248791263463,2.25376796827694,2.25541804000335,2.25593806260804,2.25780814389797,2.25920820475674,2.26054826300728,2.26288836472837,2.26507845992887,2.26614850644236,2.27025868510633,2.35281227360032,2.35006215405631,2.35083218752863,2.35248225925504,2.35438234184909,2.35505237097436,2.35667244139665,2.35609241618373,2.3565724370496,2.35615241879196,2.35669244226606,2.3574824766078,2.35645243183313,2.35763248312838,2.35892253920539,2.35383231794028,2.36042260441122,2.36194267048645,2.36063261354003,2.3613026426653,2.36136264527354,2.3611126344059,2.36189266831293,2.36045260571533,2.36069261614827,2.35914254876891,2.28775944584097,2.28737942932216,2.28632938367808,2.28628938193926,2.28623937976573,2.2863593849822,2.28679940410924,2.28742943149569,2.28724942367099,2.28713941888923,2.28867948583388,2.28862948366035,2.28883949278917,2.28942951843679,2.28956952452267,2.28983953625972,2.29069957364439,2.29140960450848,2.29186962450494,2.29318968188606,2.29319968232077,2.29336968971076,2.29457974231013,2.29580979577891,2.29685984142299,2.29794988880589,2.30061000443755,2.30104002312989,2.38584370943263,2.38773379159197,2.38886384071369,2.39035390548481,2.39189397242946,2.39166396243123,2.3923239911218,2.39310402502883,2.39330403372294,2.39391406023997,2.39728420673573,2.39661417761046,2.39302402155118,2.30711028699614,2.3052302052715,2.30610024309088,2.30513020092445,2.30693027917144,2.30646025874028,2.30673027047733,2.30707028525732,2.30702028308379,2.30919037741488,2.31043043131837,2.30942038741311,2.31000041262603,2.31209050347948,2.31183049217714,2.31821076951925,2.31726072822223,2.31832077430102,2.40427451059488,2.40241442973966,2.40924472664352,2.40778466317652,2.40737464535359,2.40769465926417,2.40867470186531,2.40873470447354,2.40893471316765,2.41430494660451,2.41258487183516,2.41272487792104,2.41425494443098,2.41600502050445,2.41659504615207,2.41793510440261,2.41811511222731,2.41802510831496,2.33119133376701,2.33056130638056,2.32886123248062,2.32892123508886,2.32957126334471,2.32970126899589,2.3306313094235,2.33203137028227
2.21986649462526,2.22090653983463,2.22402667546275,2.22518672588859,2.22754682847909,2.22874688064375,2.22994693280841,2.23130699192836,2.23330707886946,2.23321707495711,2.23414711538473,2.2360871997176,2.23677722971228,2.23738725622931,2.23867731230632,2.23955735056041,2.24082740576801,2.24109741750506,2.24161744010974,2.24265748531912,2.24328751270556,2.24359752618144,2.24456756834787,2.24682766659132,2.24852774049125,2.24913776700829,2.25009780874002,2.25152787090291,2.25275792437168,2.25455800261868,2.25663809303742,2.25839816954559,2.25871818345617,2.26083827561374,2.26226833777662,2.26539847383945,2.35514237488671,2.35264226621033,2.35359230750735,2.35218224621388,2.35266226707974,2.3524022557774,2.35399232489557,2.3545923509779,2.3542223348938,2.35418233315498,2.35608241574903,2.35487236314966,2.35504237053965,2.35507237184377,2.35541238662376,2.35544238792787,2.35590240792433,2.35563239618728,2.35376231489735,2.35920255137715,2.35831251268835,2.35871253007657,2.35916254963832,2.35937255876714,2.35970257311242,2.36081262136473,2.35726246704428,2.35919255094244,2.35923255268126,2.28706941584629,2.28665939802337,2.28586936368163,2.2861793771575,2.28602937063692,2.28700941323806,2.28651939193749,2.28640938715573,2.28687940758689,2.28694941062983,2.28766944192862,2.2883494714886,2.28880949148505,2.28948952104503,2.28956952452267,2.29002954451912,2.29027955538676,2.29112959233673,2.29227964232786,2.29272966188961,2.29301967449607,2.29365970231722,2.29459974317954,2.29643982316536,2.29692984446593,2.29803989271824,2.30038999487403,2.38383362205682,2.38411363422857,2.38495367074384,2.38795380115549,2.38865383158488,2.38962387375131,2.39012389548659,2.39001389070482,2.3914139515636,2.3925039989465,2.39204397895004,2.39212398242769,2.39357404545999,2.39479409849406,2.30438016832153,2.30430016484389,2.30459017745035,2.30379014267391,2.30447017223388,2.30382014397802,2.30685027569379,2.30608024222147,2.30639025569734,2.30558022048619,2.30701028264908,2.30794032307669,2.3099504104525,2.31047043305719,2.31244051869417,2.31214050565301,2.31203050087125,2.31927081559804,2.40439451581135,2.40166439713675,2.40125437931382,2.40468452841781,2.40732464318006,2.40674461796714,2.40656461014245,2.40767465839476,2.40838468925885,2.40809467665239,2.4104747801123,2.41157482792991,2.41176483618931,2.41294488748456,2.4148349696439,2.42102523872662,2.41732507788558,2.41765509223086,2.33405145809278,2.32925124943414,2.33090132116055,2.32796119335713,2.3310013255076,2.32903123987062,2.33265139723401,2.33017128942705
2.22068653027111,2.2213865607005,2.2239366715504,2.22573674979739,2.22706680761323,2.22818685630024,2.22933690629138,2.23040695280487,2.23163700627364,2.23183701496775,2.23306706843653,2.2346371366853,2.2373572549252,2.23715724623109,2.23903732795572,2.23829729578751,2.23928733882336,2.24109741750506,2.24194745445503,2.24253748010265,2.24358752574673,2.24392754052672,2.24603763224958,2.24736769006541,2.24776770745363,2.24910776570417,2.25031781830354,2.2524179095917,2.25489801739866,2.2573281230321,2.25675809825389,2.25936821171203,2.35127220665567,2.35236225403857,2.35290227751267,2.35248225925504,2.35206224099741,2.35234225316916,2.35214224447505,2.35290227751267,2.35317228924972,2.3525822636021,2.35373231359323,2.35238225490799,2.35274227055738,2.35287227620856,2.35311228664149,2.35305228403326,2.35226224969152,2.35348230272559,2.35274227055738,2.35402232619969,2.35427233706733,2.35421233445909,2.35447234576144,2.35587240662021,2.35615241879196,2.35735247095663,2.3569424531337,2.3564024296596,2.35678244617841,2.35848252007835,2.35797249790837,2.35656243661489,2.28844947583565,2.28719942149746,2.28575935889987,2.28553934933635,2.28583936237751,2.28572935759575,2.28619937802691,2.28640938715573,2.28630938280867,2.28645938932926,2.28729942584452,2.28782944888391,2.28747943366922,2.28848947757448,2.28957952495738,2.28976953321678,2.28975953278208,2.29010954799677,2.29050956538499,2.29126959842261,2.29238964710962,2.29319968232077,2.29349969536194,2.29471974839601,2.29588979925655,2.29839990836764,2.29927994662172,2.37753334819235,2.38443364813915,2.38426364074916,2.38396362770799,2.3859837155185,2.38735377507316,2.3877937942002,2.38801380376372,2.38911385158133,2.38837381941312,2.38908385027721,2.38871383419311,2.38896384506075,2.39337403676588,2.30465018005858,2.30333012267745,2.30314011441805,2.30335012354686,2.30496019353445,2.30662026569557,2.30456017614623,2.30415015832331,2.30453017484211,2.30598023787441,2.30566022396384,2.30696028047555,2.30773031394788,2.31124046652951,2.30870035611431,2.3103004256672,2.31276053260475,2.31255052347593,2.31536064562818,2.40545456189013,2.40293445234434,2.39975431410799,2.40164439626733,2.40201441235144,2.40345447494903,2.40387449320666,2.40550456406366,2.4068446223142,2.40698462840008,2.40843469143238,2.40838468925885,2.41068478924112,2.41075479228405,2.41351491226278,2.41460495964568,2.41556500137741,2.41459495921097,2.41526498833624,2.33047130246821,2.32942125682413,2.32776118466302,2.32836121074535,2.32777118509772,2.32963126595295,2.32922124813002
2.22145656374343,2.22313663677396,2.22380666589923,2.22569674805857,2.22605676370797,2.2279368454326,2.22903689325021,2.23061696193368,2.23379710017003,2.2322770340948,2.229926931939,2.2366372236264,2.23695723753698,2.23658722145287,2.23839730013457,2.23838729969986,2.23895732447808,2.24025738098979,2.24201745749796,2.24241747488618,2.24323751053204,2.24393754096142,2.24586762485959,2.24728768658777,2.24954778483121,2.25020781352178,2.2522479022017,2.25547804261158,2.34907211102046,2.35210224273623,2.35378231576676,2.3527722718615,2.34937212406163,2.3522322483874,2.35323229185795,2.35189223360742,2.35185223186859,2.35211224317094,2.3507721849204,2.35171222578272,2.35180222969507,2.35220224708329,2.35252226099386,2.35212224360564,2.35169222491331,2.35170222534801,2.352042240128,2.35081218665922,2.35178222882566,2.35198223751977,2.35269226838386,2.35157221969684,2.35249225968975,2.35212224360564,2.3551223740173,2.35352230446441,2.35454234880438,2.35411233011204,2.35526238010317,2.35618242009608,2.35696245400311,2.35576240183845,2.35569239879551,2.35660243835371,2.35816250616777,2.28724942367099,2.2856393536834,2.28613937541868,2.28550934803223,2.28560935237929,2.28534934107694,2.2859893688981,2.28576935933458,2.28624938020044,2.28665939802337,2.28720942193217,2.28730942627922,2.28801945714332,2.28856948105212,2.28942951843679,2.28974953234737,2.29018955147441,2.29085958059968,2.29108959059791,2.29232964450139,2.29329968666783,2.29391971361957,2.29567979012774,2.29641982229595,2.29785988489354,2.37642329994003,2.37822337818703,2.38001345599931,2.38236355815511,2.38638373290672,2.38400362944681,2.38566370160793,2.38557369769558,2.38655374029672,2.38459365509444,2.38750378159374,2.38686375377259,2.38502367378677,2.38998388940071,2.304500173538,2.30317011572217,2.30313011398334,2.30222007442514,2.30165004964693,2.30263009224807,2.30242008311925,2.30325011919981,2.30366013702274,2.30480018657916,2.30408015528037,2.304500173538,2.30558022048619,2.30590023439677,2.30761030873141,2.30790032133787,2.30772031351317,2.30863035307137,2.31163048348303,2.31342056129531,2.40771466013358,2.39498410675346,2.39927429324213,2.3988642754192,2.40118437627088,2.40054434844973,2.40295445321376,2.40403450016195,2.4039444962496,2.40540455971661,2.40524455276132,2.40587458014777,2.40768465882946,2.40959474185822,2.41171483401578,2.41513498268507,2.41496497529508,2.41516498398919,2.41359491574042,2.33075131463997,2.32782118727125,2.32650112989012,2.32762117857714,2.32690114727834,2.3275411750995,2.32724116205833
2.2215765689599,2.22323664112101,2.22420668328745,2.2246667032839,2.2261167663162,2.22715681152557,2.22875688107846,2.23040695280487,2.22353665416218,2.2232166402516,2.228466868472,2.23567718189467,2.2360972001523,2.23713724536167,2.23770727013989,2.23799728274635,2.23984736316687,2.24014737620803,2.24061739663919,2.24168744315268,2.24329751314027,2.24435755921905,2.24690767006896,2.2486077439689,2.34776205407404,2.34944212710457,2.35003215275219,2.35227225012623,2.3518622323033,2.35024216188101,2.35174222708683,2.35246225838563,2.35220224708329,2.3527722718615,2.35209224230153,2.35107219796156,2.34966213666809,2.3495021297128,2.34977214144985,2.35040216883629,2.34977214144985,2.35285227533914,2.34976214101514,2.35010215579513,2.35035216666277,2.34910211232458,2.34939212493104,2.34876209754459,2.35000215144807,2.34989214666631,2.35119220317803,2.34971213884161,2.34964213579868,2.34991214753572,2.35248225925504,2.35193223534624,2.3562224218349,2.35317228924972,2.35395232315675,2.35362230881147,2.35357230663794,2.35344230098677,2.35409232924263,2.35548238966669,2.28839947366213,2.28679940410924,2.28570935672634,2.28546934629341,2.28468931238638,2.28530933933812,2.28505932847048,2.28522933586048,2.28567935542223,2.28603937107163,2.28694941062983,2.28661939628454,2.28730942627922,2.28719942149746,2.28839947366213,2.28887949452799,2.2894495193062,2.2905295662544,2.29026955495206,2.29084958016498,2.29276966362843,2.29304967580019,2.29332968797194,2.29572979230127,2.29681983968417,2.29986997226935,2.37792336514586,2.37909341600641,2.38100349903516,2.38236355815511,2.38213354815688,2.38275357510862,2.3828935811945,2.38330359901743,2.38323359597449,2.38399362901211,2.38337360206037,2.38420363814092,2.38381362118741,2.3854336916097,2.30059000356814,2.30274009702983,2.29991997444287,2.30164004921222,2.30094001878284,2.30060000400285,2.30059000356814,2.30261009137866,2.30224007529455,2.30260009094395,2.30385014528214,2.3039501496292,2.30449017310329,2.30428016397448,2.30474018397093,2.30597023743971,2.30708028569202,2.31025042349367,2.30952039176016,2.31168048565656,2.31711072170165,2.39718420238868,2.39542412588051,2.39612415630989,2.40023433497386,2.39749421586455,2.39765422281983,2.39944430063212,2.40256443626024,2.4019444093085,2.40256443626024,2.40438451537664,2.4072146383983,2.40692462579184,2.40697462796537,2.40747464970065,2.40714463535536,2.40892471273295,2.4101047640282,2.40891471229824,2.32740116901362,2.32560109076663,2.32506106729253,2.32745117118715,2.32759117727302,2.32695114945187
2.22115655070227,2.22208659112988,2.2233966480763,2.22458669980626,2.2261167663162,2.22644678066148,2.22832686238612,2.23105698106072,2.220486521577,2.21889645245882,2.22130655722285,2.2317370106207,2.23517716015939,2.23685723318992,2.23762726666225,2.23840730056927,2.23811728796282,2.23949734795218,2.24016737707744,2.24147743402387,2.24248747792912,2.24572761877371,2.25119785655762,2.34559195974294,2.3458819723494,2.34847208493813,2.34980214275396,2.35159222056625,2.35020216014218,2.3505921770957,2.35121220404744,2.35159222056625,2.35112220013509,2.35072218274687,2.35376231489735,2.3480520666805,2.34829207711343,2.34770205146581,2.34682201321172,2.34819207276638,2.34902210884693,2.34735203625111,2.34815207102756,2.35166222360919,2.34848208537284,2.34771205190051,2.3482320745052,2.34804206624579,2.34777205450875,2.34760204711875,2.34819207276638,2.34765204929228,2.34835207972167,2.34829207711343,2.34928212014928,2.35233225273446,2.35067218057334,2.35119220317803,2.35175222752154,2.35260226447151,2.35164222273978,2.35214224447505,2.35287227620856,2.35176222795624,2.28647939019867,2.28519933455636,2.28533934064224,2.2850893297746,2.28432929673698,2.28415928934699,2.28514933238283,2.28509933020931,2.28463931021285,2.28586936368163,2.28615937628809,2.28608937324515,2.2876294401898,2.28732942714864,2.28782944888391,2.28884949322387,2.28935951539385,2.28972953147796,2.28992954017207,2.29068957320969,2.29139960407378,2.2925196527608,2.29459974317954,2.29663983185947,2.29896993314585,2.3770933290653,2.38011346034637,2.37810337297056,2.3790834155717,2.37923342209228,2.38001345599931,2.38076348860223,2.38137351511926,2.38290358162921,2.38218355033041,2.38200354250571,2.38204354424453,2.38206354511394,2.38410363379387,2.30210006920868,2.30277009833395,2.30108002486871,2.30062000487226,2.30111002617283,2.30063000530697,2.30058000313344,2.30033999270051,2.30132003530165,2.30145004095282,2.30261009137866,2.30366013702274,2.30369013832685,2.30321011746099,2.30413015745389,2.30438016832153,2.30503019657739,2.30637025482793,2.30711028699614,2.30907037219842,2.31232051347771,2.31301054347239,2.39766422325454,2.39403406545644,2.39329403328823,2.39673418282693,2.39547412805403,2.39669418108811,2.39731420803985,2.39852426063921,2.40214441800261,2.40178440235321,2.40120437714029,2.40695462709596,2.40506454493662,2.40585457927835,2.40689462448773,2.40636460144834,2.4110248040211,2.40927472794764,2.33309141636105,2.32766118031596,2.32510106903135,2.32516107163958,2.32656113249836,2.3270011516254,2.32598110728544
2.22031651418701,2.22129655678815,2.22296662938397,2.22382666676864,2.22514672414977,2.22696680326617,2.2275568289138,2.22089653939992,2.21387623423666,2.21824642420296,2.22149656548226,2.23388710408238,2.23531716624527,2.23612720145642,2.23675722884287,2.23746725970696,2.23860730926339,2.2391773340416,2.24010737446921,2.24071740098625,2.24368753009379,2.24542760573254,2.33504150112863,2.3375316093703,2.34668200712584,2.34997215014396,2.35211224317094,2.35315228838031,2.35181223012977,2.35317228924972,2.3544023427185,2.35233225273446,2.34946212797398,2.34971213884161,2.35651243444136,2.34703202234054,2.34675201016878,2.34509193800767,2.34572196539412,2.34307185019716,2.34483192670533,2.34759204668405,2.34812206972344,2.34537195017942,2.34594197495764,2.3460519797394,2.34663200495232,2.34665200582173,2.34576196713294,2.34580196887176,2.34522194365884,2.34572196539412,2.3462319875641,2.3469620192976,2.34731203451229,2.3485920901546,2.34889210319576,2.34997215014396,2.35021216057689,2.35044217057512,2.35074218361628,2.35177222839095,2.35014215753395,2.35084218796334,2.28626938106985,2.28569935629164,2.28510933064401,2.2836392667423,2.28387927717523,2.283989281957,2.28456930716991,2.28596936802869,2.28524933672989,2.28579936063869,2.28608937324515,2.28648939063337,2.28649939106808,2.28676940280513,2.28801945714332,2.28844947583565,2.28808946018625,2.28957952495738,2.29032955756029,2.29105958929379,2.29417972492191,2.29305967623489,2.29590980012596,2.29753987098296,2.37355317517955,2.37698332428354,2.37623329168063,2.37640329907062,2.37777335862528,2.37918341991876,2.37800336862351,2.37862339557525,2.37918341991876,2.37931342556993,2.3799834546952,2.38119350729456,2.38248356337157,2.37535325342655,2.37412319995777,2.3021400709475,2.30020998704933,2.29945995444642,2.29883992749468,2.29765987619943,2.29933994922995,2.29921994401349,2.29961996140171,2.30201006529633,2.30113002704224,2.30023998835345,2.30223007485985,2.30156004573458,2.3021400709475,2.30353013137156,2.30407015484566,2.30424016223566,2.30482018744857,2.30591023483148,2.3074002996026,2.30947038958664,2.31258052478005,2.39104393547949,2.38989388548836,2.39084392678538,2.39249399851179,2.39358404589469,2.39510411196993,2.39407406719526,2.39621416022224,2.39785423151395,2.40101436888089,2.39961430802212,2.40206441452497,2.40345447494903,2.40441451668076,2.40690462492243,2.40740464665771,2.41088479793523,2.41068478924112,2.41417494095334,2.32695114945187,2.32637112423895,2.32321098687201,2.32443103990608,2.32433103555903,2.32540108207252
2.22033651505642,2.22116655113697,2.22136655983108,2.22253661069163,2.22422668415686,2.22552674066858,2.22706680761323,2.22780683978143,2.2279368454326,2.21770640072887,2.22046652070759,2.23362709278004,2.23458713451177,2.23637721232406,2.23638721275876,2.23756726405401,2.2384473023081,2.23829729578751,2.23918733447631,2.2411774209827,2.24393754096142,2.24595762877194,2.24653765398486,2.33666157155092,2.34213180933484,2.3433318614995,2.35399232489557,2.35030216448924,2.35100219491863,2.3531322875109,2.34973213971103,2.34955213188633,2.35028216361983,2.35182223056448,2.34111176499487,2.34870209493636,2.34668200712584,2.3467820114729,2.34771205190051,2.34320185584833,2.34391188671242,2.34471192148886,2.34403189192888,2.34391188671242,2.34613198321704,2.34465191888063,2.34456191496828,2.3438718849736,2.34353187019361,2.34372187845301,2.34485192757474,2.34416189758006,2.34430190366593,2.34464191844592,2.34604197930469,2.34661200408291,2.34757204581464,2.34821207363579,2.34863209189342,2.35145221448037,2.3505921770957,2.34806206711521,2.34731203451229,2.34858208971989,2.2845493063005,2.28379927369759,2.28328925152761,2.2836292663076,2.28376927239347,2.28367926848112,2.28431929630228,2.2852693375993,2.2850793293399,2.28596936802869,2.28561935281399,2.28626938106985,2.28603937107163,2.28656939411102,2.28672940106631,2.28783944931862,2.28885949365858,2.28932951408974,2.2899895427803,2.29118959494496,2.29240964797904,2.29323968405959,2.29554978447657,2.29852991401881,2.37058304607202,2.37277314127252,2.37421320387012,2.37498323734244,2.37609328559475,2.37477322821363,2.37897341078994,2.37686331906708,2.37769335514764,2.37731333862883,2.37721333428177,2.37678331558943,2.37442321299893,2.37349317257132,2.29997997705111,2.30009998226757,2.29867992053939,2.30009998226757,2.2981498975,2.29907993792761,2.29843991010646,2.29773987967707,2.29871992227821,2.29864991923527,2.30015998487581,2.29984997139994,2.3001399840064,2.30028999052698,2.30236008051102,2.30252008746631,2.30314011441805,2.30354013180627,2.30460017788505,2.30570022570266,2.30920037784959,2.3094003865437,2.31040043001425,2.39036390591952,2.38829381593548,2.38840382071724,2.38994388766189,2.39144395286771,2.39254400068532,2.39394406154409,2.39592414761578,2.39431407762819,2.39520411631698,2.39597414978931,2.39935429671977,2.40058435018855,2.40089436366442,2.4066646144895,2.40514454841426,2.40942473446822,2.40718463709419,2.4082946853465,2.32873122682945,2.32469105120843,2.32303097904731,2.32418102903844,2.32441103903667,2.3242810333855
2.21947647767174,2.22124655461462,2.22217659504223,2.22312663633925,2.22405667676687,2.2246567028492,2.22655678544324,2.22764683282614,2.22801684891025,2.22766683369556,2.23029694802311,2.2317470110554,2.23457713407706,2.23532716667998,2.23584718928466,2.2362672075423,2.23737725579461,2.23865731143691,2.23900732665161,2.23993736707922,2.24227746880031,2.24386753791848,2.24356752487732,2.2440775470473,2.24634764572545,2.24797771658245,2.24831773136244,2.24924777179005,2.25091784438587,2.25228790394052,2.2535179574093,2.25427799044692,2.25673809738448,2.25781814433267,2.25977822953495,2.26159830865136,2.26304837168365,2.26592849687884,2.26967865989341,2.34484192714003,2.34637199364997,2.34284184019893,2.34192180020602,2.34199180324896,2.34307185019716,2.3433418619342,2.34268183324364,2.342431822376,2.34147178064427,2.34210180803072,2.34145177977486,2.34147178064427,2.34211180846543,2.34311185193598,2.34322185671774,2.34407189366771,2.34585197104529,2.34788205929051,2.34826207580932,2.34314185324009,2.34372187845301,2.34298184628481,2.34694201842819,2.286909408891,2.28740943062628,2.28407928586934,2.28371927021995,2.28302924022527,2.28322924891938,2.28321924848467,2.2839992823917,2.28400928282641,2.28482931847226,2.28500932629696,2.28536934194636,2.28602937063692,2.2861793771575,2.28654939324161,2.2872694245404,2.28784944975332,2.28821946583743,2.28936951582856,2.29066957234028,2.29099958668556,2.29295967188784,2.29392971405427,2.29805989358765,2.3712830765014,2.37063304824554,2.37185310127962,2.37282314344605,2.37388318952484,2.37507324125479,2.37622329124592,2.378903407747,2.3749032338648,2.37692332167531,2.37625329255004,2.37732333906353,2.37548325907772,2.37467322386657,2.37425320560894,2.30009998226757,2.29867992053939,2.29743986663591,2.29719985620298,2.29871992227821,2.29860991749645,2.29848991227999,2.29820990010823,2.29783988402413,2.29857991619234,2.29860991749645,2.29965996314053,2.30015998487581,2.30007998139816,2.30065000617638,2.30182005703692,2.30346012832863,2.30298010746276,2.30363013571862,2.30438016832153,2.30572022657207,2.30604024048265,2.30889036437372,2.39034390505011,2.38908385027721,2.38675374899083,2.38808380680666,2.38899384636486,2.39181396895182,2.39057391504833,2.39198397634181,2.39425407501996,2.3954041250111,2.39611415587519,2.39674418326163,2.39782423020983,2.3990442832439,2.40126437974852,2.40638460231775,2.40758465448241,2.40783466535005,2.40597458449482,2.33151134767758,2.32563109207074,2.32308098122084,2.32593110511191,2.32341099556612,2.32278096817967
2.21935647245528,2.22039651766465,2.22172657548048,2.22299663068808,2.22401667502804,2.22534673284388,2.22650678326972,2.22754682847909,2.22740682239321,2.22808685195319,2.23008693889429,2.2319170184454,2.23419711755825,2.23668722579993,2.23553717580879,2.23592719276231,2.23690723536345,2.23785727666047,2.23903732795572,2.24032738403273,2.24102741446212,2.24149743489328,2.24219746532266,2.24413754965553,2.24398754313495,2.24493758443197,2.24654765441956,2.24880775266301,2.24925777222475,2.25070783525705,2.25201789220348,2.25346795523578,2.25516802913571,2.25634808043096,2.2580481543309,2.26041825735611,2.26148830386959,2.26365839820069,2.26654852383058,2.26914863685402,2.27296880291152,2.340801751519,2.34044173586961,2.34074174891077,2.34153178325251,2.34089175543135,2.34056174108607,2.34005171891609,2.34020172543667,2.33961169978905,2.33961169978905,2.34010172108962,2.34037173282667,2.34106176282135,2.34221181281248,2.34318185497892,2.34404189236359,2.34481192583591,2.34617198495586,2.34266183237423,2.340801751519,2.3422418141166,2.33884166631672,2.28660939584984,2.28493932325402,2.2839992823917,2.28389927804465,2.28298923848644,2.28295923718233,2.28310924370291,2.28386927674053,2.28353926239525,2.28397928152229,2.28476931586402,2.2850893297746,2.28575935889987,2.28614937585339,2.28630938280867,2.28703941454218,2.28765944149392,2.28812946192508,2.2894395188715,2.29002954451912,2.29135960233496,2.29395971535839,2.29499976056776,2.36666287566746,2.36852295652268,2.36960300347088,2.370923060852,2.37153308736904,2.37369318126543,2.37143308302198,2.37511324299361,2.37645330124415,2.37305315344428,2.37307315431369,2.37290314692369,2.3725431312743,2.37176309736727,2.37632329559298,2.29963996227112,2.29825990228176,2.29749986924414,2.2970698505518,2.29636982012242,2.29652982707771,2.29624981490595,2.29747986837473,2.29659983012064,2.29719985620298,2.29769987793825,2.29913994053584,2.29861991793116,2.29888992966821,2.30018998617992,2.29930994792584,2.30038999487403,2.30086001530519,2.30239008181514,2.30294010572394,2.30383014441273,2.30440016919094,2.3099504104525,2.31073044435953,2.38607371943085,2.38499367248266,2.38569370291204,2.38671374725201,2.38587371073674,2.3874337785508,2.38916385375486,2.39021389939894,2.39021389939894,2.39117394113066,2.39512411283934,2.39474409632053,2.39461409066936,2.39812424325099,2.4015843936591,2.40243443060907,2.40698462840008,2.40599458536423,2.40500454232839,2.32857121987416,2.32536108033369,2.32277096774497,2.32133090514737,2.32309098165554,2.3231909860026
2.21935647245528,2.21988649549467,2.2208465372264,2.22207659069518,2.22347665155395,2.2244866954592,2.22508672154153,2.22724681543792,2.22704680674381,2.22913689759727,2.23042695367428,2.23253704539714,2.23362709278004,2.23358709104122,2.23652721884464,2.23721724883932,2.2366472240611,2.23781727492165,2.23838729969986,2.23926733795395,2.24093741054977,2.24100741359271,2.24221746619207,2.24258748227618,2.24384753704907,2.24478757791139,2.24592762746782,2.24668766050544,2.24857774266478,2.24978779526415,2.25092784482058,2.25215789828935,2.25397797740576,2.25533803652571,2.2573181225974,2.25848817345794,2.26075827213609,2.2625783512525,2.26489845210417,2.27119872596865,2.27330881769151,2.34094175760488,2.33875166240437,2.33809163371381,2.33872166110026,2.33938168979082,2.33901167370672,2.33793162675852,2.33824164023439,2.33824164023439,2.33834164458145,2.33847165023262,2.33894167066378,2.33965170152787,2.34128177238487,2.3411617671684,2.34150178194839,2.34437190670887,2.34516194105061,2.34241182150659,2.33889166849025,2.33914167935789,2.33913167892318,2.28505932847048,2.28414928891228,2.28379927369759,2.28257922066352,2.28289923457409,2.28342925761349,2.2829092350088,2.28317924674585,2.28358926456877,2.28452930543109,2.28551934846694,2.28565935455281,2.28569935629164,2.28586936368163,2.28593936672457,2.286909408891,2.28808946018625,2.28809946062096,2.28901950061387,2.29064957147087,2.29299967362666,2.29315968058195,2.36599284654219,2.3674629104439,2.36825294478563,2.3689229739109,2.36933299173383,2.36942299564618,2.37030303390026,2.3714630843261,2.3712730760667,2.37275314040311,2.37132307824022,2.37139308128316,2.3725431312743,2.371093068242,2.37052304346378,2.37224311823313,2.29982997053052,2.29783988402413,2.29622981403654,2.29582979664832,2.29611980925478,2.29607980751596,2.2963398188183,2.29600980447302,2.29610980882007,2.29676983751064,2.29739986489709,2.29744986707061,2.29804989315294,2.29756987228708,2.29858991662704,2.29910993923173,2.29990997400817,2.30028999052698,2.3014200396487,2.30314011441805,2.3035901339798,2.3037701418045,2.30651026091381,2.30748030308024,2.38629372899437,2.38377361944859,2.38250356424099,2.38390362509976,2.38548369378323,2.38557369769558,2.38709376377082,2.38689375507671,2.38885384027899,2.38921385592838,2.39044390939716,2.39166396243123,2.39301402111648,2.3936040467641,2.39618415891812,2.40512454754485,2.39989432019387,2.40291445147493,2.40371448625138,2.40446451885429,2.32325098861083,2.32191093036029,2.32086088471621,2.32130090384326,2.32144090992913
2.21833642811531,2.2192164663694,2.22029651331759,2.22096654244286,2.22289662634103,2.22386666850746,2.22525672893153,2.22535673327858,2.22744682413203,2.22819685673495,2.23044695454369,2.2310169793219,2.23205702453128,2.23516715972469,2.23543717146174,2.23711724449226,2.23509715668175,2.23789727839929,2.23795728100753,2.23998736925275,2.24001737055686,2.24100741359271,2.24169744358739,2.24212746227973,2.24406754661259,2.2444375626967,2.24503758877903,2.2466276578972,2.24750769615129,2.24914776744299,2.25033781917295,2.25167787742349,2.25309793915167,2.25443799740221,2.2562280752145,2.25773814085503,2.25903819736674,2.26196832473546,2.26296836820601,2.26751856599702,2.27257878595801,2.27593893201906,2.33624155329329,2.33727159806796,2.33686158024503,2.33809163371381,2.33709159024326,2.3360715459033,2.33612154807682,2.33648156372622,2.33691158241856,2.33729159893737,2.33778162023794,2.33976170630963,2.33968170283199,2.34148178107898,2.34168178977309,2.34175179281603,2.3435218697589,2.34289184237246,2.33943169196435,2.33841164762439,2.33984170978728,2.28608937324515,2.28355926326466,2.2832792510929,2.28383927543641,2.28304924109468,2.2819991954506,2.28278922979233,2.28289923457409,2.28354926282995,2.28425929369404,2.2834592589176,2.28413928847758,2.28530933933812,2.28559935194458,2.2863593849822,2.28712941845453,2.28814946279449,2.28837947279271,2.28936951582856,2.29189962580905,2.29291967014902,2.29556978534598,2.36603284828101,2.36673287871039,2.36785292739741,2.36828294608975,2.36840295130621,2.36785292739741,2.36920298608266,2.36806293652623,2.36979301173028,2.36958300260146,2.36960300347088,2.3703630365085,2.37069305085378,2.36922298695207,2.37008302433674,2.36919298564795,2.29727985968062,2.29694984533534,2.29563978838892,2.29564978882362,2.29477975100424,2.29393971448898,2.29509976491482,2.2956097870848,2.2961598109936,2.29619981273242,2.29598980360361,2.29782988358942,2.29772987924237,2.29725985881121,2.29958996009759,2.29825990228176,2.29888992966821,2.29916994183996,2.30138003790988,2.30060000400285,2.30275009746453,2.30354013180627,2.30417015919272,2.30497019396916,2.37928342426581,2.38131351251103,2.38026346686695,2.38127351077221,2.38279357684745,2.38360361205859,2.3857937072591,2.38492366943972,2.38621372551673,2.38730377289963,2.38959387244719,2.39039390722363,2.39104393547949,2.3950441093617,2.39576414066049,2.39768422412395,2.40406450146607,2.40604458753776,2.40282444756258,2.40529455493485,2.32796119335713,2.32244095339969,2.3212008994962,2.32170092123148,2.32062087428328
2.2172163794283,2.21897645593647,2.21970648766997,2.22119655244109,2.22167657330695,2.22369666111747,2.22470670502272,2.22488671284742,2.22669679152912,2.22758683021791,2.22922690150962,2.23078696932368,2.2302869475884,2.23298706495889,2.23423711929708,2.23530716581057,2.2368172314511,2.23778727361753,2.23780727448694,2.23900732665161,2.23925733751924,2.24021737925097,2.24163744097916,2.24170744402209,2.24311750531557,2.24438756052317,2.24477757747669,2.24617763833546,2.24747769484717,2.24864774570772,2.24913776700829,2.25144786742526,2.25261791828581,2.25390797436282,2.25488801696396,2.25691810520918,2.25860817867441,2.26009824344553,2.26310837429189,2.26593849731355,2.27067870336396,2.33271139984225,2.33455147982806,2.33437147200336,2.33557152416802,2.3362615541627,2.33514150547568,2.33443147461159,2.33460148200159,2.33464148374041,2.33547151982097,2.33602154372977,2.33628155503211,2.33635155807505,2.33768161589088,2.33805163197499,2.33860165588379,2.34167178933838,2.34267183280893,2.34164178803427,2.34113176586429,2.34223181368189,2.33875166240437,2.28509933020931,2.28389927804465,2.28210920023236,2.28207919892824,2.28270922631469,2.2823592111,2.28289923457409,2.28274922805351,2.28303924065997,2.28355926326466,2.28388927760994,2.28441930064933,2.28527933803401,2.28548934716282,2.28557935107517,2.28701941367276,2.28700941323806,2.28842947496624,2.28978953408619,2.29248965145668,2.29391971361957,2.35817250660248,2.36422276959931,2.36578283741337,2.36750291218272,2.36532281741692,2.36571283437043,2.36603284828101,2.36630286001806,2.36718289827214,2.36723290044567,2.37066304954966,2.36740290783566,2.36776292348506,2.3690929813009,2.3691029817356,2.36924298782148,2.29780988272001,2.29591980056067,2.29528977317422,2.29426972883426,2.29548978186833,2.29426972883426,2.29414972361779,2.29302967493078,2.29492975752482,2.29508976448011,2.29515976752305,2.29545978056422,2.29761987446061,2.29634981925301,2.29689984316181,2.29720985663768,2.29701984837828,2.29974996705288,2.2983399057594,2.29909993879702,2.29980996966111,2.30327012006922,2.30245008442337,2.30400015180272,2.3065002604791,2.31034042740602,2.37921342122287,2.38032346947518,2.37958343730698,2.38036347121401,2.38098349816575,2.38278357641274,2.38299358554156,2.38371361684035,2.38478366335384,2.38655374029672,2.3876037859408,2.38804380506784,2.39053391330951,2.39615415761401,2.39691419065163,2.39914428759096,2.39789423325277,2.40040434236385,2.40015433149621,2.32236094992204,2.32037086341564,2.31950082559627,2.31899080342628,2.32003084863566
2.21731638377535,2.21803641507415,2.21927646897763,2.22071653157523,2.2217665772193,2.22285662460221,2.22418668241804,2.22470670502272,2.22718681282969,2.2273868215238,2.22849686977611,2.23067696454191,2.23123698888542,2.2317470110554,2.23457713407706,2.23407711234179,2.23531716624527,2.23598719537054,2.23684723275522,2.23806728578929,2.23923733664983,2.24027738185921,2.24110741793976,2.24179744793444,2.2429874996644,2.24421755313318,2.24489758269315,2.24593762790252,2.24721768354483,2.24830773092773,2.24986779874179,2.25152787090291,2.25179788263995,2.25393797566693,2.25444799783692,2.25621807477979,2.25825816345971,2.260218248662,2.26398841254597,2.26532847079651,2.27067870336396,2.3311713328976,2.33113133115878,2.33237138506226,2.3333614280981,2.33360143853104,2.33428146809101,2.33349143374928,2.33359143809633,2.33257139375637,2.33515150591039,2.33488149417334,2.3346314833057,2.33563152677625,2.33657156763857,2.33727159806796,2.33791162588911,2.33854165327556,2.33931168674788,2.34072174804136,2.34113176586429,2.34355187106302,2.28567935542223,2.28456930716991,2.2825492193594,2.28189919110354,2.28192919240766,2.2816391798012,2.28201919632001,2.28248921675117,2.28279923022704,2.28265922414116,2.28364926717701,2.28440930021463,2.2843692984758,2.28510933064401,2.28519933455636,2.28608937324515,2.28614937585339,2.28691940932571,2.28880949148505,2.29007954669265,2.29162961407201,2.35726246704428,2.35706245835017,2.35708245921958,2.36483279611635,2.36354274003934,2.36418276786049,2.36386275394991,2.36380275134168,2.36544282263338,2.36520281220045,2.36572283480514,2.36573283523984,2.36558282871926,2.36605284915042,2.36911298217031,2.36008258963123,2.35961256920007,2.29610980882007,2.29537977708657,2.29368970362134,2.29350969579664,2.29453974057131,2.29321968319018,2.29320968275548,2.29384971057663,2.29440973492014,2.29405971970545,2.29447973796308,2.29490975665541,2.29476975056954,2.29609980838537,2.29583979708303,2.29683984055358,2.29639982142653,2.29690984359652,2.29876992445174,2.29917994227467,2.29961996140171,2.30010998270228,2.301240031824,2.30445017136447,2.30436016745212,2.37275314040311,2.37715333167354,2.37771335601705,2.37760335123528,2.3794534316558,2.38358361118918,2.38067348468988,2.38149352033573,2.38532368682794,2.38202354337512,2.38475366204973,2.38428364161857,2.38731377333434,2.38772379115726,2.39283401329178,2.39448408501819,2.3957741410952,2.40056434931914,2.39936429715448,2.39894427889685,2.32389101643198,2.32127090253914,2.31907080690393,2.32041086515447,2.31991084341919
2.21679636117067,2.21761639681652,2.21912646245705,2.22052652331582,2.22151656635167,2.2212065528758,2.22327664285984,2.22438669111215,2.22621677066326,2.22748682587086,2.228296861082,2.22989693063488,2.23107698193014,2.23108698236484,2.23283705843831,2.23429712190531,2.23624720667288,2.23593719319701,2.23762726666225,2.23793728013812,2.23915733317219,2.23962735360335,2.2409874127233,2.24211746184502,2.24246747705971,2.24413754965553,2.24484758051962,2.24596762920664,2.2473376887613,2.24846773788302,2.24930777439828,2.25032781873824,2.252067894377,2.25268792132875,2.25512802739689,2.25635808086567,2.25761813563856,2.26019824779258,2.26161830952077,2.26683853643704,2.27050869597397,2.33097132420349,2.33044130116409,2.33168135506758,2.33239138593167,2.33213137462933,2.33239138593167,2.33151134767758,2.33133133985288,2.33114133159348,2.33148134637347,2.33176135854522,2.33285140592812,2.33323142244693,2.33549152069038,2.33633155720564,2.33694158372268,2.33808163327911,2.33883166588202,2.3393516884867,2.34078175064959,2.3395216958767,2.28449930412698,2.28285923283527,2.28188919066884,2.28211920066706,2.28149917371532,2.28202919675471,2.2819991954506,2.28171918327884,2.28273922761881,2.28270922631469,2.28286923326998,2.28392927934876,2.283989281957,2.28426929412875,2.28513933194813,2.2859893688981,2.28685940671748,2.28742943149569,2.28842947496624,2.29066957234028,2.29427972926897,2.35500236880083,2.35663243965783,2.35868252877246,2.36087262397296,2.36339273351875,2.36235268830938,2.36227268483174,2.36284270960995,2.36381275177639,2.36501280394105,2.36399275960108,2.36371274742933,2.36415276655637,2.36319272482464,2.36204267483351,2.36078262006062,2.29716985489886,2.29533977534775,2.29365970231722,2.29298967319196,2.29287966841019,2.29212963580728,2.29237964667492,2.29341969188429,2.29296967232254,2.29219963885022,2.29520976969658,2.29348969492723,2.29351969623135,2.29390971318486,2.29421972666073,2.29549978230304,2.29511976578423,2.29658982968594,2.29619981273242,2.29722985750709,2.2977898818506,2.29803989271824,2.29949995618524,2.30005998052875,2.30184005790633,2.307590307862,2.31173048783008,2.37711332993472,2.37497323690774,2.37603328298652,2.37790336427645,2.37769335514764,2.37919342035346,2.37972344339285,2.38043347425694,2.38101349946986,2.38227355424276,2.38276357554333,2.38430364248798,2.38719376811787,2.39499410718817,2.39134394852066,2.39230399025239,2.39670418152281,2.39703419586809,2.39679418543516,2.39869426802921,2.32189092949088,2.31893080081805,2.31989084254978,2.32203093557676
