2.33504237574067,2.335243531087,2.33526294441273,2.33603250856532,2.3364662450901,2.33704346205267,2.33741043606729,2.33793720913533,2.33768719293847,2.33851233616343,2.33945976902981,2.34000345540987,2.34000533737836,2.34075108561343,2.33918903089179,2.33758683815503,2.33674944259699,2.33588321530418,2.33491300179192,2.33525607467181,2.33607279743057,2.32786586256169,2.28221448552531,2.28117228502815,2.28010850363455,2.28027453032477,2.27961536496048,2.27919940687947,2.2800066324041,2.27881703814442,2.2790222631592,2.27869101393105,2.27874710109533,2.27870578451181,2.27884792979549,2.2788337133653,2.27895532500359,2.27905569344648,2.27938863113727,2.27965448867481,2.2800474217635,2.28034164323568,2.28089511123511,2.28153808838572,2.28111030690532,2.28143804177564,2.28141695645577,2.28153725324784,2.28178369079932,2.28204465292284,2.2823842083372,2.28239008649811,2.28267903858682,2.28245910615907,2.28367803973905,2.28387227392542,2.28392308209169,2.28384136863848,2.28476176040422,2.28536106583736,2.28625236439643,2.28708460371915,2.28795171299654,2.28897276832828,2.2898349220224,2.29092912068771,2.31741093416185,2.35705531310982,2.36310112600902,2.36362878331775,2.36443496542685,2.36461746799868,2.36471202849777,2.36497067829998,2.36527709120358,2.36542328784187,2.36562224398665,2.36551245622887,2.36591542506384,2.36690429366789,2.36751012096516,2.36737463527553,2.36734767923082,2.36779359145842,2.36883594091186,2.36860454075149,2.36815361474101,2.36707952710803,2.36721878430869,2.36714939886947,2.36747727178542,2.36722507145722,2.36677936040857,2.36731416940883,2.36662842347946,2.36750884549404,2.36742471469233,2.36884635388049,2.29489660798375,2.29373491013882,2.29354361760101,2.29313004842941,2.29250872339696,2.29221102254467,2.29249492075712,2.29236552959312,2.29189581984984,2.29209172831516,2.29149353864557,2.2920891387336,2.2914949945626,2.29214374299028,2.29222020944983,2.2921520223392,2.29185804716022,2.29219400946732,2.292344279678,2.29247825553523,2.29282021003608,2.29263364128292,2.29312516644907,2.29320642150891,2.29348983038921,2.29336421673855,2.29393093426475,2.29376373353644,2.29439727504417,2.29460460157309,2.29452729491218,2.29528175947143,2.29590433570547,2.29589206272814,2.29619206107956,2.2968808483493,2.29925643432882,2.29740936685679,2.29774114218178,2.29812768447755,2.29894928326473,2.29925682049306,2.29986463623118,2.3008436659022,2.30166715272941,2.30262322310682,2.30390039492392,2.30650758351432,2.35128211960768,2.38086574702857,2.37941883949857,2.37781131457272,2.3783199442631,2.37890556667426,2.37924269681496,2.37938890382077,2.38026250340251,2.38109792470441,2.38165348328034,2.38185850254937,2.38224269068462,2.38269543063686,2.38330985023088,2.38394317169817,2.38433743695369,2.38399505360081,2.38530338908337,2.38581253366437,2.38661997749769,2.38651272145062,2.38789755456911,2.38800482026144,2.38886609395226,2.389583794202,2.39003777936582,2.39159591017853,2.39381756509178,2.3944530506664
2.33415398050991,2.33475476148291,2.33479212582261,2.33534760925384,2.33596335779777,2.33646286160331,2.33690390646345,2.33710847319034,2.33751007546215,2.33751538231154,2.33904131633677,2.33935999162898,2.34018426189132,2.34044771730448,2.34114933381271,2.33749683501164,2.33645363782185,2.33484100116788,2.33514071962078,2.33515670651644,2.33557080559909,2.32352791681569,2.28134149024053,2.28014231360419,2.27970560603388,2.27984580965399,2.27921461115805,2.27872635594441,2.27855663324268,2.27849336648109,2.27850613209435,2.2784913449355,2.27835272106903,2.27857693288617,2.27883451222138,2.2788520923758,2.27882983713035,2.27906547361185,2.27981013003945,2.27990074947781,2.2801456298461,2.28023664071826,2.28054248623329,2.28093284876225,2.28128169772941,2.28141293855059,2.28133063500421,2.28150362368276,2.28171699984479,2.2820075779672,2.28229808805308,2.28239309417,2.28254418244897,2.28270349599022,2.28338669929616,2.28362449041639,2.28388801489257,2.28443752212675,2.28453564579833,2.28570994211521,2.2874630289767,2.28770981475096,2.28836889991294,2.28887308032441,2.29001283371155,2.29180882031338,2.33200397333324,2.35911790730736,2.3628073005013,2.36335482523772,2.36375164664474,2.36429330951034,2.36454900380165,2.36466898386103,2.36458526552485,2.36478295538713,2.36489877572406,2.36511176118358,2.36491490841743,2.36578175671689,2.36691006615837,2.36665860993477,2.36626341174831,2.36661355950959,2.36707256478995,2.36714849160398,2.36687183443399,2.36646601648655,2.36640676643971,2.36658688956193,2.36694077315791,2.36647263751843,2.36581377788288,2.36567793029573,2.36632855361618,2.36545274789552,2.36592855742853,2.36712788057101,2.29411303380757,2.29388665191851,2.29293073264876,2.29274806603161,2.29274458468056,2.29229861785118,2.2924189268681,2.29135246429384,2.29154359275093,2.29153911124006,2.29189165657581,2.2914589226605,2.29182881428432,2.29220749538901,2.29404728078148,2.29211290636414,2.2922058498519,2.29215455803215,2.29224253172327,2.29275413677562,2.29185999051428,2.29258476182755,2.29264908337011,2.29287304132374,2.29277693608983,2.29282887974072,2.29313365998683,2.29370055476894,2.2939775058852,2.29399990409096,2.29460345058003,2.29513538474439,2.29548822931112,2.29557907969985,2.29573176387537,2.29662844816215,2.29725910926414,2.29743143115782,2.29744001887054,2.29761233995222,2.29815222134648,2.29911816232897,2.30024894065211,2.30034539777321,2.30090393253608,2.30145023901336,2.30336761137813,2.30855487320634,2.34673055659707,2.37879432549517,2.37786960388585,2.37701556207475,2.37775871925325,2.37788172191573,2.37799603313086,2.37854179908399,2.37909670185385,2.37956831537837,2.38041089367896,2.38075041181124,2.38133478668151,2.38173697004584,2.38263674294843,2.38296958853531,2.38333193739164,2.38342751502174,2.38348265179289,2.38510873502605,2.38557759559254,2.3859455614217,2.38640372515291,2.3871541638623,2.38794109088249,2.38888440946754,2.38980616502661,2.39110253986378,2.39249979393546,2.39355428165405
2.3346063131277,2.33467351058864,2.33532654590841,2.33605497718172,2.33552837836994,2.33620606473729,2.33628478010828,2.33703440309419,2.33661539945585,2.3373745677803,2.33778101723543,2.33860814548662,2.33900634291315,2.3398937885317,2.33927742838086,2.33702391202125,2.33623210278964,2.33534048422086,2.3349250492937,2.33540909565281,2.33542547617129,2.31668152052109,2.28166356846688,2.28081989839727,2.28011621798741,2.27926414099842,2.27902931416977,2.2788032887574,2.27910009023815,2.27841415022939,2.27865236879656,2.27846512198038,2.27839754620135,2.2782999560699,2.27860123166443,2.27864632725797,2.27868471702422,2.27877550323123,2.27981853628735,2.27996392966403,2.28018198971492,2.28004319104428,2.2801013375533,2.2804301307284,2.28112853619485,2.28123635880521,2.28116653629198,2.28137687100245,2.28150001592192,2.28185414459227,2.28215275527563,2.28231078033959,2.2829129472247,2.28307678304123,2.2837477677936,2.28380401001968,2.28405715644365,2.28438297910715,2.28547901780332,2.28593841390209,2.28753829365166,2.28806865715935,2.28880443942673,2.28993321635034,2.29082402987649,2.35439605040867,2.35406797088433,2.36257990086512,2.36205655502281,2.36325325544635,2.36415967505412,2.36406483882357,2.36433410389559,2.3642035241426,2.36445420726184,2.36401290086684,2.3641373490516,2.36433033612995,2.36444750503839,2.36480635749347,2.3666897970497,2.36582718413673,2.36532595744219,2.36560207717135,2.36555695637616,2.36574318285591,2.36574319108735,2.36537870110467,2.36561672862297,2.36607508328328,2.36633349479864,2.36583398965652,2.36521389499298,2.36546875701043,2.3656694320998,2.36480747751874,2.34642177790254,2.29430826633301,2.29368462350081,2.29386510643214,2.29307954659728,2.29245405966284,2.29199959124424,2.29226919663099,2.29141528402593,2.29146018767552,2.29103332289516,2.29090319437413,2.29078977048503,2.29132892539405,2.29084475147931,2.29137753390461,2.29134907868063,2.29171702043466,2.29176103425843,2.29207810217859,2.29181935737388,2.29185374758554,2.29159423879671,2.2923572869049,2.29277737572744,2.29267855106207,2.29291766605992,2.2928585013313,2.29313429504214,2.29407091100364,2.29393603989997,2.29436515536338,2.29461203209565,2.2949218981834,2.29491796771296,2.29516262767954,2.29538225049101,2.29577864763527,2.29686724258078,2.29677520671668,2.29708285186658,2.29754175138706,2.29817000916897,2.29933305236066,2.29915062011439,2.29975421456057,2.30001018198137,2.30143038192088,2.30226977267937,2.30505202204629,2.34378509783532,2.37679762897091,2.37615099112034,2.37576672626522,2.37610333692567,2.37682016375463,2.37695664241417,2.37794698896292,2.37852511047713,2.37905643911178,2.37934238547682,2.37945093693084,2.38045909586266,2.38065107849647,2.38067885631563,2.38169900539423,2.38231998163189,2.38243195960674,2.38325299500333,2.3842397800625,2.38492972975994,2.38566772941637,2.38587796331065,2.38559771280554,2.38723379093887,2.38768041353415,2.38808500327442,2.38920968688704,2.39106318142388,2.39306562826322
2.33425284192939,2.33416876665735,2.33416441828151,2.33441783897558,2.33440916709851,2.33467368208749,2.33520484940768,2.33515924027242,2.33589048715715,2.33653798105509,2.33755134019524,2.3378722895204,2.33825068192578,2.33922685584466,2.33903954285548,2.33673892274551,2.33649428465187,2.3357442859732,2.33574185423734,2.33574014343256,2.33583837418459,2.30705708535073,2.28104855470726,2.28013681919116,2.28040877272741,2.27939271589374,2.27867989668138,2.27840598412071,2.27861140315335,2.2790156278283,2.27876692677727,2.27858356106838,2.27866175705015,2.27832133021611,2.27860416122175,2.27853993575535,2.27858485116931,2.27888928762969,2.27895962270926,2.27957502459418,2.27956283003679,2.27985956560159,2.2803058879909,2.28041960500365,2.28067742468266,2.28096062218907,2.28096527533348,2.28082199132668,2.28103288161599,2.28131032104996,2.28182704143723,2.28201311949457,2.28211834208546,2.28258240414995,2.28297301360496,2.2836719455294,2.2839798886173,2.28451477454074,2.28489486742205,2.28595411503665,2.28714053202092,2.28824848433197,2.28942835552528,2.28994596822259,2.29241751508892,2.35517804117701,2.35562626047144,2.35800824291574,2.3612433027103,2.36238356006698,2.36311924416587,2.36349239538951,2.36381545522566,2.36347972885754,2.36270641879088,2.3630678992912,2.36296578949381,2.36276232870881,2.36339786378325,2.36390287025724,2.36445570455807,2.36460314079532,2.36449763943295,2.3645967355474,2.36480048842837,2.36478382888357,2.36486011619911,2.36484843874733,2.36487574120005,2.36507767584283,2.36511641961127,2.36514402533913,2.36477494855183,2.3655236231516,2.36579749435357,2.3665895480049,2.33514563295522,2.29360801033266,2.29277861083981,2.29231134872235,2.29247933952056,2.29176278064786,2.29158805983372,2.29145766151308,2.29178887003025,2.29082198406278,2.29082789688628,2.29081375356365,2.29087205173699,2.29090859568035,2.29080678487438,2.29077523284988,2.29105790908103,2.29053535900018,2.29143279068747,2.29111630332952,2.2912018486176,2.29137242184822,2.29147250761257,2.29270067320008,2.29229506032954,2.29247156403913,2.29270458840774,2.29263201399466,2.29297214696353,2.29314032723322,2.29354744022745,2.29395277673956,2.2943823117447,2.29423564171413,2.29512094256619,2.29489321778549,2.29498813768098,2.29575930619726,2.29617877688873,2.29681167648752,2.2967349180481,2.29687695953148,2.2981573987212,2.29787019376835,2.29850018008993,2.29920225795566,2.299926741638,2.30091887836201,2.30349449293316,2.30502953608613,2.34207331350881,2.37619849457001,2.37497033102272,2.37523257128732,2.37581338542024,2.37610503311896,2.37646243835132,2.37758676963312,2.37764467121205,2.37813387119413,2.37843441434439,2.37865830940303,2.37906291983889,2.37957969042083,2.37983908224638,2.38067416173019,2.38119565284769,2.38174199464949,2.38279605166728,2.38322887804887,2.38359039004711,2.38379815900257,2.38375718346473,2.38479542510744,2.38596418263358,2.38659398608959,2.38693668301604,2.38793216700698,2.39039028655188,2.39154998337146
2.33412930787917,2.33333777038304,2.33307515832297,2.3335387653016,2.33346275129651,2.33377458779349,2.33451884970438,2.33534814664507,2.33547982112718,2.33673214921971,2.33694559220743,2.3373404448478,2.33780849515867,2.33830833312311,2.33812182645538,2.33739145634413,2.33691343344749,2.33695274106109,2.33659789648474,2.33734709862019,2.33784963238965,2.29811271753158,2.28192497870839,2.28022188210784,2.279752596527,2.27857705090498,2.27837945052271,2.27786220256906,2.2783498713988,2.28013691193352,2.27889382777531,2.27855326455643,2.27867774880975,2.2785418775129,2.278466124076,2.27855226604999,2.27846209670683,2.2784216444656,2.27898913635809,2.2793939759218,2.27951678632629,2.27961878253583,2.27989387278396,2.28032583199576,2.28019511851871,2.28087885471,2.28089831914128,2.28129355486538,2.28104117224333,2.2814188251275,2.28151836882309,2.28196967646515,2.28246923609899,2.28265155302134,2.28323511552373,2.28376639306315,2.28411203732471,2.28428680344448,2.2855356085302,2.28617034813707,2.28737769512158,2.28853819051947,2.28896041008438,2.29061845135622,2.29282619272286,2.35585802139644,2.3562744817476,2.35885555532229,2.36086668285249,2.36252826116295,2.36325970345837,2.36269436480162,2.36268054250476,2.36164982146404,2.36176330410759,2.36190949787898,2.36204811739541,2.36168328592127,2.3621023301175,2.36230315499792,2.36311427785851,2.36347704068479,2.36339478865537,2.36399699681757,2.36357453372763,2.3641529478088,2.36380726807733,2.36360021289699,2.3638152566231,2.36475545903598,2.36482485480966,2.36484159828179,2.36478679400902,2.36474037866852,2.36455264793106,2.36571704106841,2.32210032993226,2.2935694902763,2.29262966127956,2.292088157657,2.29119000794292,2.29103849393441,2.29043731579134,2.29016458760522,2.29062491780066,2.290431484809,2.29027691357898,2.29041968670443,2.29033305069264,2.29145539301473,2.29018523601089,2.29037682590301,2.29040863076059,2.29070488870506,2.2911444318744,2.29043666142852,2.2906660129312,2.29063017119476,2.29105304817856,2.2912182327389,2.29235150711683,2.29217315274268,2.29215718415182,2.29234897762547,2.29256124147887,2.2930659913377,2.29303270593524,2.29317991742908,2.29347982833408,2.29423706658332,2.29444376063912,2.2944813568947,2.29436464997101,2.29550140897908,2.29511429185937,2.29562693049749,2.29610876986829,2.29667506882815,2.29734748663937,2.2981018180976,2.29855200679337,2.29912434720771,2.29959873764163,2.30133391395763,2.30218347585382,2.30455125821416,2.34096723731859,2.37564141275735,2.37350881527116,2.37490120706289,2.37520748460641,2.37526578417514,2.37533440647507,2.37592831533845,2.37675822138826,2.376625454489,2.37732565250513,2.37743814440607,2.37821225905053,2.37863319151866,2.37925318801313,2.37984414562071,2.38008104272334,2.38028206125666,2.38204037413172,2.38187120850157,2.38263774385139,2.38288411049437,2.38312906394035,2.38339764166317,2.38480118066081,2.38539213270674,2.38575166394455,2.38694594887838,2.38812189038817,2.39001845984323
2.3316302502716,2.33219701422693,2.33216774830579,2.33257350340547,2.33272846904731,2.33325414516803,2.33378609516943,2.3341600768841,2.33460781781622,2.33480258016778,2.33609863110658,2.33650314057228,2.33724394089777,2.33769413311323,2.33713449478368,2.33734993794092,2.33701958455474,2.3368377056145,2.33747780358079,2.33790962134109,2.33697368672327,2.29229907401195,2.28080131830174,2.28088752592375,2.27988997270245,2.2789854303718,2.27824686921643,2.27775959257254,2.27801847434088,2.27829059320719,2.27859789844874,2.27823485720098,2.27803782492322,2.27831302345487,2.27855385955228,2.27848395855316,2.27837948395211,2.27843236789757,2.27835268796366,2.27930687560117,2.27922016792279,2.27947764509818,2.2797164960855,2.27999432291498,2.28068753159972,2.28065814511528,2.28083052796769,2.28107163245116,2.28138496528562,2.28146043169836,2.28179240143023,2.28194053945236,2.28231267820322,2.2832319743405,2.28344840900647,2.28443679265054,2.28428406298064,2.28442367277599,2.28531196372424,2.2871245588589,2.28786647592389,2.28922687332164,2.29027756757317,2.29202063884733,2.35298975782853,2.35335953560852,2.35562000853384,2.35726766427038,2.36003681768916,2.36147654458486,2.36157056002027,2.36136694137638,2.36091654715516,2.36078812721653,2.36044470560962,2.3610081986926,2.36126390107528,2.36145227085309,2.3620121093159,2.36258338453809,2.36221214436151,2.36270923600074,2.36262585085656,2.36228393381076,2.36240734427593,2.36263451896598,2.36276179220472,2.36243865159486,2.36359664717353,2.36374085640242,2.36473938733158,2.36456892103353,2.36486243692973,2.36523862904708,2.35449726110837,2.35446500063239,2.31199267787378,2.29267215215761,2.29210528346888,2.29058152261181,2.29076525953083,2.29039199210382,2.29046610126256,2.29022387013719,2.29050984021174,2.2897759874894,2.29000311945316,2.29002454104544,2.28993181869832,2.28968249082376,2.28992794038505,2.2899342804375,2.28994888860776,2.29029062145046,2.29057124327402,2.2906885154342,2.29041894258374,2.29054328502785,2.29049696410333,2.29140150687891,2.29211635794697,2.2918999075261,2.29223396634759,2.2920618573783,2.29237686169055,2.29266986447387,2.29276077336275,2.29267513316024,2.29304555544874,2.29330075348753,2.29408517369524,2.29414667006892,2.29454709187632,2.29432185164658,2.29477655190746,2.2950663211607,2.29572488578699,2.29606834631613,2.29666639809265,2.29677337631449,2.29863674002893,2.29873579554379,2.29944737770072,2.30087328987412,2.30261489194605,2.3043104629482,2.34005582850731,2.37466492768664,2.37312117764594,2.37332849263966,2.37384853379638,2.37423820531932,2.37429053906319,2.37476781607914,2.37571282585652,2.37626669707419,2.37672600007838,2.37704346141162,2.37806139943756,2.37766236017747,2.37887339310152,2.37907857463777,2.37901814872274,2.3798325496771,2.37999891439746,2.38101991334525,2.38169201542799,2.38231375337541,2.38202582698242,2.38362733641545,2.38341405769368,2.38438721210786,2.38494764914919,2.3859254729182,2.38768762586863,2.3893334011743
2.33108168426549,2.3314012693851,2.33218344271274,2.33180418530969,2.33249131014615,2.33276197455431,2.33321591906381,2.33358665369818,2.33416312765941,2.3348040042145,2.33469992043815,2.33539165449473,2.33573358598012,2.33569102682003,2.33629799694477,2.33689817341671,2.33691170942082,2.33685045173896,2.33785681325947,2.33822615333723,2.33830265386098,2.28852344023073,2.27963700142099,2.2794712430831,2.27861877144753,2.27857480490813,2.2782939951767,2.27820409513882,2.27788006914729,2.27854151446207,2.27824009069196,2.27795621051879,2.27776761353359,2.27798893323251,2.27818059101977,2.27842437337071,2.27841357727672,2.27842896109332,2.27876301568526,2.27879233546904,2.27926954375702,2.27935795103903,2.27968082338807,2.28033736267277,2.28068580229182,2.28062837640005,2.28063433753679,2.28097355684428,2.28106604089741,2.28168864432558,2.28167014695978,2.28195490242639,2.28228643362922,2.28302242038256,2.28359368318048,2.2843350412117,2.28460031007957,2.28491139160488,2.28599373424356,2.28776044269172,2.28902800873829,2.28989724163541,2.29020844165938,2.35260395098181,2.3526421979235,2.35394819808853,2.35559015623342,2.35838859927807,2.36003484666278,2.35938462998375,2.35961451529679,2.36010477147091,2.35981076961236,2.35999089148798,2.35977304482198,2.36031589363914,2.36068580455274,2.36072857766579,2.36162923648854,2.36261922318934,2.3632694214153,2.36237796064819,2.36209237831182,2.3619623181193,2.36182292968976,2.3617049132401,2.3617237572884,2.36171125276791,2.36185235428244,2.36335123551254,2.36444532060889,2.36379054019967,2.36301692190139,2.35475008174313,2.35417452298687,2.29229944326475,2.29307789814159,2.29237498799592,2.29131242756189,2.29085171825128,2.28972684826043,2.28990671201607,2.28953705076177,2.28988515603293,2.28988296316311,2.28963387365189,2.28964524967301,2.29019982153066,2.28928382874116,2.28964689804781,2.29003193677762,2.28981437544687,2.28991990082223,2.28986910453841,2.29036777394939,2.2898134851752,2.29002748241131,2.2901638960641,2.29041017403288,2.29074479188756,2.29102957773499,2.2911828322243,2.291216840745,2.29177714751263,2.29183131302427,2.29252392427751,2.29240019963442,2.29263000870546,2.29257744035749,2.29316022836165,2.2932277181639,2.29382578933671,2.29414093066237,2.29453022399268,2.29472443226566,2.29540999584701,2.29544566703001,2.29597303861317,2.29641337792067,2.29724363341783,2.29762486073933,2.29832248120388,2.29857866410888,2.30020806858819,2.30088061607614,2.30366809753167,2.33919481801188,2.37093257919584,2.37177415558323,2.37408326825778,2.37308736476831,2.37340328086915,2.37363693101491,2.37466353635532,2.37510868242967,2.37549083508804,2.37607170586341,2.37669733719171,2.37653436193933,2.37736681020233,2.37807290078724,2.37860971882499,2.37884534097812,2.37966722752402,2.37921362854928,2.37989040207287,2.38086931484739,2.38147016101443,2.38097443954717,2.38189207217168,2.38293323253129,2.38348579491379,2.38396402839895,2.38544367508025,2.39097871531788,2.38889765168083
2.33005600986448,2.33032946999688,2.33044077668826,2.33096161084164,2.33139484849463,2.33245710452964,2.33258582131793,2.33287668872749,2.33346244110018,2.33372231546279,2.33401972331997,2.33461330758633,2.3347676002989,2.33550161696886,2.33580128027506,2.3368066133684,2.33680162166885,2.33728195514076,2.33830988762498,2.33787591836854,2.28085731515811,2.28092488174181,2.28035688002838,2.28029044329384,2.27849838777649,2.27848056450087,2.27810256825498,2.27795600118062,2.27801728641798,2.27752937486843,2.27773911658143,2.27768677006863,2.27780830439742,2.27791621386986,2.27836920626589,2.27855324346481,2.27844042417225,2.27876502541602,2.27871104541599,2.27914832939918,2.279082925248,2.2793790456603,2.27967225046834,2.27966289756386,2.28015997871333,2.28025813508609,2.28044147340824,2.28059179248808,2.28102038272149,2.2813467338867,2.28176419319345,2.28198409550278,2.28240514862124,2.28292939575487,2.28350390746194,2.28434077917681,2.28468749567244,2.28545498462283,2.2860979753573,2.28796180226193,2.28913400926901,2.29028027927961,2.29040938459373,2.35197970312726,2.35257250030685,2.35399337795761,2.3550876068735,2.35555400931389,2.35831504144817,2.3590861328356,2.35938159078112,2.35953131670969,2.35962828673227,2.35983807917555,2.35950923021854,2.36027159183795,2.36013113149385,2.36015078722234,2.36067483510345,2.36105121044376,2.36116152739384,2.36141688231821,2.36152428509742,2.36088079217394,2.36122062446029,2.36061549595195,2.36096734818823,2.36101241063241,2.36123088910247,2.36138376369251,2.36305900637597,2.36252110251062,2.36503897173984,2.35343903827246,2.35317176237695,2.29237376418235,2.29270267489922,2.29171034133533,2.29077167761498,2.29004350784276,2.29020744626313,2.2896106362418,2.28957953037813,2.28911562886697,2.28930798359276,2.28926678933334,2.28920613407953,2.28897960153032,2.28896109886319,2.28951335625674,2.28926499187668,2.28940424375598,2.28965990273923,2.28957707516691,2.28940870516847,2.28962292902627,2.2896740568916,2.2899740804975,2.2899821780453,2.29014612017203,2.29027058357992,2.29063671643649,2.2912658421159,2.2912476781533,2.2921000215848,2.29207960694286,2.29219530171351,2.29193641517177,2.29255522616337,2.29238255617963,2.2932691921321,2.29357900304136,2.29440506692916,2.29448670965017,2.29447373391242,2.2948731759875,2.29514525466836,2.29531127730511,2.29602786797423,2.29661313650228,2.29785486694769,2.29788730420476,2.29835350773543,2.29908995161954,2.30070981412661,2.30237455231433,2.33841783593738,2.36933214308149,2.37147060349144,2.37378164049472,2.37243326376804,2.37261600026056,2.37262099250207,2.3734314993359,2.37366762312023,2.37474119929291,2.37521864413477,2.37563460059682,2.37601131140372,2.37702132232007,2.37963655369617,2.37802906986317,2.37738521898862,2.37800507333843,2.37893842207696,2.38082809352567,2.38013616747333,2.3796629444505,2.37955164331779,2.38142522475636,2.3809132838028,2.38239014519492,2.38306834542292,2.38804822318391,2.38889744857586,2.38827815540802
2.32894436882074,2.32925244406753,2.3293405558104,2.3298736879874,2.33080277335214,2.33120662753422,2.33198138152477,2.33252168893071,2.33295828953017,2.33314315164969,2.33373075781525,2.33414763565851,2.33457652132476,2.33524322085056,2.33590660176441,2.33606520639658,2.33632081107255,2.33701360954587,2.33675957050651,2.33640640737288,2.28101233751608,2.28090328984958,2.28034652574712,2.27982321212781,2.27878788729432,2.27878313227837,2.27800798317859,2.27755458661648,2.27815169776377,2.27779858377938,2.27744766379298,2.27749445738314,2.27761585237793,2.2777348993361,2.27775983597147,2.27841322657738,2.27840425029293,2.27847586228519,2.27888536782943,2.27866850305984,2.27921852205326,2.27931463465528,2.27971953439114,2.27962144032948,2.27980626839233,2.28003625183459,2.28032522541108,2.28085907447293,2.28112572412035,2.28153300140368,2.28181630765158,2.28199309767356,2.2823948495771,2.28300064198652,2.28375121960048,2.28429390551879,2.28486909401911,2.28539541297046,2.28663186951302,2.28745058829839,2.28923259734253,2.30807840371035,2.34868885197945,2.35376107013783,2.35323117527967,2.35433876232849,2.35496206685546,2.35539516258315,2.35656427523276,2.35842204420342,2.35870027263123,2.35897121546671,2.35971918817646,2.35878456385247,2.35841596645111,2.35945019297111,2.35946765941096,2.35972374608477,2.36096659134827,2.36013878988248,2.36045814925363,2.36034847619795,2.36024182468774,2.3599104008544,2.35960956834626,2.3596837054998,2.36008317946931,2.36062484570865,2.35929523908766,2.35874420320907,2.35721567566861,2.35793607361276,2.35610950496771,2.35404997288658,2.35425825904985,2.29185899905549,2.29196282817509,2.29109226331708,2.29011986396689,2.29019118737132,2.28949816861502,2.28931741130371,2.28899636204909,2.2890629688302,2.2889159135811,2.28884337298358,2.28879840133494,2.2888527810532,2.28888418766928,2.28904104961561,2.28905680018609,2.28896034398645,2.28897411468102,2.28905109397471,2.289067082853,2.28929787271952,2.28935951127424,2.28955795692624,2.28959540545988,2.28993337390103,2.28981421545835,2.29007290167714,2.29014044221704,2.29105545892799,2.29259636988454,2.29248765614842,2.29206345738737,2.29256081711555,2.29246554662145,2.29259697566755,2.29262197476499,2.29327658172259,2.29385204752492,2.29379361333194,2.29391305053883,2.29455536905532,2.29462464407378,2.29500396345743,2.29507410845422,2.2964566569831,2.29695767307044,2.29764147230891,2.29822607211071,2.29916578776083,2.30165842485557,2.30508036305603,2.3377572365425,2.36773145850276,2.37163478947134,2.37208730498893,2.37132978285948,2.37169917268073,2.37185081106326,2.37223771272255,2.3732127865498,2.37353056549814,2.37433255406885,2.3748936147778,2.37523520875335,2.37616880038183,2.37630961317612,2.37662429520814,2.37622450353146,2.37691618223332,2.37771582399862,2.37953279250198,2.37901424568302,2.37906508191931,2.37873437722285,2.38081164193954,2.38092740601325,2.3815802019625,2.38218091148666,2.38428850039372,2.38485198322623,2.38603007278205
2.32821233875558,2.32847699792537,2.32851586123251,2.32944336086024,2.32993601137411,2.33109806031152,2.33130575197299,2.33180741751322,2.33209990046848,2.33277212205476,2.33317631475139,2.33379980165467,2.3345238618703,2.33569960129143,2.334691603433,2.33532180633739,2.33540925598422,2.33617186322569,2.33731961782028,2.33665951472774,2.3358459989997,2.28062071744211,2.2789552771036,2.27876072780343,2.27808953268165,2.27785978625771,2.27766655978674,2.27727070865439,2.27742009830091,2.27681949915964,2.27728740605671,2.27731679215016,2.27748529806804,2.2778055473895,2.27789825301468,2.27833825204352,2.27819606997399,2.27837514241012,2.27831667418982,2.2788423520177,2.27937869878945,2.27938136791574,2.27950242028893,2.27954263602125,2.27965002461743,2.27983866468665,2.28017754201836,2.28062510749206,2.28093868457332,2.28129027143257,2.28172320711008,2.28198761763283,2.28227618897445,2.28302212043842,2.28351491277016,2.28437023316222,2.28485209871707,2.28531789943621,2.28661656858738,2.2880702232686,2.28932261002563,2.32001478832306,2.3504993003683,2.35341576673055,2.35376787836972,2.35418297666097,2.35517371575488,2.35631676723366,2.35680087164793,2.35695706516983,2.35767401999596,2.3577059489855,2.35772847050087,2.35746658095708,2.35771142504792,2.35816586993647,2.35837147473393,2.35850390548593,2.35835944993384,2.36030341450649,2.3599125974455,2.3594068963899,2.35869922463761,2.3591648934223,2.35884337994695,2.35913032408258,2.35923098411167,2.35917546822189,2.35884627639013,2.35701158665196,2.35637445336306,2.356258110646,2.35588151611216,2.35592862938064,2.29270319983255,2.29157060153253,2.29130776545474,2.2905173491136,2.28983909694661,2.28920131043714,2.28924052343149,2.28887675098542,2.28888735107187,2.28894600066949,2.28882508236097,2.2885388547397,2.28856693488692,2.28856512517194,2.28828093816417,2.2882692135919,2.2886149473095,2.28868096677356,2.28888752721725,2.28920188578645,2.28869797450331,2.28875268412633,2.2888720491561,2.28899710450278,2.28911985232284,2.28949269883797,2.28953497440285,2.28963094793514,2.28972147346867,2.2900602942166,2.29093148993058,2.29128532360338,2.29153459836442,2.29164201025995,2.29401452098071,2.29269229762674,2.29269308483023,2.29276757045268,2.2931570214402,2.29271670583276,2.2939202647987,2.29397176338442,2.29435979487728,2.2947069779038,2.29575066660533,2.29548752200591,2.29629996859602,2.29702603656067,2.29766820905578,2.29875828382826,2.30078114446503,2.30189642967613,2.33709131593088,2.37075761329251,2.36998120874214,2.37092981786096,2.37096897007408,2.37115630392137,2.37104646772191,2.37147706989882,2.37223967284784,2.37287029892067,2.37342827747249,2.37389153448429,2.37491531616786,2.37523639084585,2.3754489198445,2.37547146375654,2.37530747361029,2.37527412821657,2.37625863959644,2.37618846562557,2.37730587415058,2.37754802993955,2.37872366531986,2.3795643170942,2.37990637912238,2.38054921135323,2.38104944403804,2.38267817000677,2.38364937419495,2.3854192739361
2.32750802710876,2.32787528857262,2.32796747532492,2.3282846145046,2.32955690939306,2.33006159055264,2.33068189058455,2.33099017674605,2.33195691318076,2.33198055210067,2.33281028590681,2.33315015434532,2.33375829510579,2.33454129793845,2.33293734880078,2.33309647015507,2.33376606043837,2.33379722069527,2.33426119937347,2.33349131194759,2.28016338521407,2.28022802864831,2.27877659276343,2.27809429199077,2.2787464424344,2.27768984503338,2.27775494764523,2.27820916031253,2.27727218104372,2.27709974085493,2.27711714969522,2.27725781976098,2.27753752249557,2.27726592610542,2.27783467771879,2.27810503001847,2.27813862382317,2.27815000947586,2.2784874366432,2.27839602259612,2.27911689533313,2.2792235475737,2.27957552173458,2.27936440795863,2.2795381944732,2.2798800143185,2.28006949830481,2.28023402425768,2.28089802291589,2.28139775084404,2.28195800695718,2.28197150336261,2.28235255065939,2.28254270727792,2.28400374415846,2.28446605773361,2.28535487993199,2.28630960458689,2.28732871160716,2.28899525666201,2.29003697378042,2.33240228280198,2.35036014075381,2.35139513987369,2.35233372750176,2.35391656725809,2.35495850868517,2.35632753798844,2.35618741378426,2.35663398674186,2.35602269807582,2.35654797497667,2.35656231617251,2.35700084486331,2.3563191524088,2.35706381713216,2.35730133874177,2.35763443269874,2.35796730996258,2.35824242397945,2.35829359034303,2.35827221948839,2.35828520797903,2.35819300834452,2.35805680276261,2.35808993390694,2.35822889176576,2.35845398481524,2.35628910762251,2.35608052732922,2.35448209504049,2.35484571175698,2.35479818700528,2.3554453826833,2.29202322785189,2.29111485983334,2.29069949116226,2.28988566810301,2.28939329355379,2.28988121907357,2.28866908318868,2.28855417044446,2.28821367754609,2.28846573904687,2.28871196988319,2.28838906500541,2.28845230868099,2.28861062162665,2.28844037503689,2.28815136297615,2.2882566277037,2.28814795203455,2.28826981025899,2.28831736309844,2.28845122451831,2.28845829959465,2.28863441421233,2.28886240798623,2.2885595114294,2.28930215818609,2.28926211194675,2.28953515877978,2.28969083077323,2.29077549928833,2.28992817519073,2.29054964808024,2.29085260786264,2.29114423180074,2.29238187728473,2.29281506389603,2.29227249693165,2.29246922783923,2.2926130979505,2.2933775067505,2.29393936915076,2.29356747885888,2.29375030897657,2.29419438422528,2.29432329872878,2.29552610139055,2.29617540909545,2.2971103894788,2.29847499592921,2.30055672298452,2.30102927582808,2.30330526472267,2.336240932026,2.36931973320664,2.37067201210981,2.37053642959237,2.37029555098664,2.37042463347875,2.37071343298992,2.37078780271972,2.37195895298946,2.37169269746908,2.37266172910477,2.37302831008686,2.37426323034988,2.37510058785636,2.37473157111462,2.37465533668264,2.37434033664288,2.37425980765499,2.37519584753937,2.37538377699829,2.37606228811338,2.37654936747903,2.37731934071575,2.37770526362999,2.37925302306522,2.37959558940937,2.38005098103001,2.38101924195739,2.38332358018832,2.3853364074341
2.32799300721519,2.32755302588902,2.3275356133901,2.32820088868406,2.32821770505242,2.32969890757349,2.32992675560353,2.33052931850684,2.33083305977509,2.33188524247866,2.33193076102519,2.33238366705053,2.33257368450337,2.33287519807377,2.33243684056993,2.33258136469112,2.33290036611648,2.33388463742157,2.33354169271342,2.33222917622395,2.28076051378793,2.28007190281941,2.27882333837916,2.27796136437702,2.27791767872202,2.27806087965365,2.2776344073863,2.27745376881461,2.27748330898721,2.27693631822534,2.27712863677568,2.27713652812527,2.27738819368366,2.27725688191296,2.27727546574376,2.27790955114248,2.27795588220941,2.2782307745556,2.27809193794901,2.27870940912776,2.27857351352842,2.27922771468754,2.28015081767015,2.27930356172812,2.27963597432163,2.28002950573467,2.28014993598222,2.28061728865457,2.28098758456382,2.28134602979182,2.28175314652072,2.28194428113754,2.28213696959842,2.28294463795561,2.28344937569847,2.2847775367251,2.28562125682532,2.28629218391795,2.28796462212303,2.28883751146367,2.35261983068396,2.35083393719178,2.35123698472957,2.35089364599179,2.35227325753865,2.35381603575897,2.35456895263142,2.35501329105397,2.35533955992646,2.35539839379344,2.35514241624642,2.35557427602922,2.35592200911801,2.35548159665592,2.3558954567209,2.35546702213274,2.35604011313229,2.35602371452619,2.35639548055776,2.35761561114565,2.35668981615815,2.3573470322296,2.35722617210263,2.35729602109306,2.3570364323302,2.35746765403371,2.35719211541023,2.35658720558373,2.35647949716397,2.35425318399261,2.35344113027929,2.3537650768306,2.35387601402402,2.35421587884858,2.29136230388913,2.290335656782,2.2901553316919,2.28966227902193,2.28950745927118,2.28835868560015,2.2884805421736,2.28828713216044,2.28837799594345,2.28835628733389,2.28825915497567,2.28816232737317,2.28828452031123,2.28859727482309,2.2880603358875,2.28788566108368,2.28754673811185,2.28779989522681,2.28803081572776,2.28836173238388,2.28816802346602,2.28846457764541,2.28837283536782,2.28851372152372,2.28898228626797,2.28939655772656,2.2892524671556,2.28945062959106,2.28995880293923,2.2905035281816,2.28994946915075,2.29001117560173,2.29068992006781,2.29138386892738,2.29401623665681,2.29225126329026,2.29189349339164,2.29189280640126,2.29230539265619,2.29316039377079,2.29337957254991,2.29309777722212,2.29348016627281,2.29349814487252,2.29452152018041,2.29498308678159,2.29589135682917,2.29632053814817,2.29676032115189,2.29868135463237,2.3000777402739,2.3004945791309,2.33516858454746,2.36927474453697,2.36808557867421,2.36974809271572,2.3696754281814,2.36985733115008,2.37017304458792,2.37050933391526,2.37122144190522,2.37168960413896,2.37209496890895,2.37273251371362,2.37265482177551,2.37331006569992,2.37347869836779,2.37367535850808,2.37403393429439,2.37355109568457,2.3744287394313,2.3750380017952,2.37521642829948,2.37516523121574,2.37622772760969,2.3765439847201,2.37759888885888,2.37823868833003,2.37847248180476,2.38017520687799,2.38375573235006,2.38390849901685
2.3265792311367,2.32680819472551,2.32700712828825,2.3272668818009,2.32865274706343,2.32873829979241,2.32926269337797,2.32944367296399,2.3305379848893,2.33119985387509,2.33143648885929,2.33171557392338,2.33214957164175,2.33201043268992,2.33152386391399,2.33114150877406,2.33136772896479,2.33151953033988,2.33377974174486,2.33420487945028,2.27943851475575,2.27936428489177,2.27834873798142,2.27779207772262,2.27726260289417,2.27785082492891,2.27738735530113,2.27731381411908,2.27710536390684,2.27710780954109,2.27708799493831,2.27706947029036,2.2772968377732,2.2772151406443,2.27772351666453,2.27816385742518,2.27801995618757,2.27805112134199,2.2784285514041,2.27831362736346,2.27880452054326,2.27893703337007,2.27914947425017,2.2792331897434,2.27947663532039,2.27988455651599,2.2800140208016,2.28028508213041,2.28063970711519,2.28114074180723,2.28162084746667,2.28183474827159,2.28240586457211,2.28288392863759,2.28409063869649,2.28530361780774,2.28628565796074,2.2871582740857,2.28818798867018,2.28988568786291,2.35149125254006,2.3506456457404,2.35089451387261,2.35167946054581,2.3520335579545,2.35346229221913,2.35411848352728,2.35463731882455,2.35464413903971,2.35457696965956,2.35457152650469,2.35485602794474,2.35485443297853,2.35495718586226,2.35459412962234,2.35503354556353,2.35524556289905,2.35516244244859,2.35539380391382,2.35610229850557,2.35653084735417,2.35676670243429,2.35749039982288,2.35661310268117,2.35694352917962,2.35652921766708,2.35629447574142,2.35606810602667,2.35404955476524,2.35303909447403,2.35266028866793,2.35318792629656,2.35327034049014,2.35374960997326,2.29089924153157,2.28995468405307,2.2895956605922,2.28910498276559,2.28854123524178,2.28811941094733,2.28812125758217,2.28807610519922,2.28805354470805,2.28796379513012,2.28802538860118,2.28789990562292,2.28824895919643,2.28845494205612,2.28844316370746,2.28753299231694,2.28724213629297,2.28729553817728,2.28738840892846,2.28754061719092,2.28792042361614,2.28785914862434,2.28806275161733,2.28830115024359,2.28821604851895,2.28885483557284,2.2891342524841,2.2893680466637,2.28981213472635,2.28941649790437,2.28990946916143,2.29018496446697,2.29026905343487,2.29075066037019,2.29116176481572,2.29146766028431,2.29106377362084,2.2914631240423,2.29144051386679,2.29304826574909,2.29307642059309,2.29314235324865,2.29318472790518,2.29374040104068,2.2936730733803,2.29499734851012,2.29557595665234,2.29609668261179,2.29617841678538,2.29708570880651,2.29871982492394,2.30019992336895,2.33387389442458,2.36818212818908,2.36886882844759,2.36821076220536,2.36857705601393,2.36855226889813,2.36878695495375,2.36937136471293,2.37043251223453,2.37066266546169,2.37150133789292,2.37152170417685,2.37174055250483,2.37174599936147,2.37186947598973,2.3725924665045,2.37261034123812,2.37332841312122,2.37307624799121,2.37363639083452,2.37402274077561,2.37448670787345,2.37476067727062,2.3759718755453,2.37650562732279,2.3772665349349,2.37773792043918,2.37904431370518,2.38178022686868,2.38263017554915
2.3260814282225,2.32607916304913,2.32617761479359,2.32687120225151,2.3272184847192,2.32779973025875,2.32843525754123,2.32903470864045,2.32967388107941,2.33038582815616,2.3304897512431,2.33097077923222,2.33130897740905,2.33141732737248,2.33212446386258,2.32971100424296,2.33000590388633,2.3296757126534,2.33006196779726,2.33127764444874,2.27904412717145,2.27895850079384,2.27806589792415,2.2772935115903,2.2768776630284,2.27765628757563,2.27705436763953,2.27668056327675,2.27725392327993,2.27673221610776,2.27690904892567,2.2767618586224,2.27670252527999,2.27704059661203,2.27758752565702,2.27786847294784,2.27781595073446,2.27806045530203,2.27827860977482,2.27876657611542,2.27902804913834,2.2788658719217,2.27895213840483,2.27903565784081,2.27946225985598,2.27976712213351,2.27998400822829,2.28006350474708,2.28073422429696,2.28100012246031,2.28109783867087,2.28175842845325,2.28202741780935,2.28328881303777,2.2841242306033,2.28564085721047,2.28702976700791,2.2884079449865,2.28931618947199,2.29132451631702,2.35143423561821,2.35047563865987,2.35055005602787,2.35101101869675,2.35240391983773,2.35356897268093,2.35393207920789,2.35445933197333,2.35415014169876,2.35373241251272,2.35409620299123,2.35407822997655,2.35427347967921,2.35394745343754,2.35397549260486,2.35404796823426,2.35472556806603,2.35582044645724,2.35455370992163,2.35516928789636,2.35552352427339,2.3559152151646,2.35636554844865,2.35597965226872,2.35587555846409,2.35556202561948,2.35534846825024,2.35486059466831,2.35415404737365,2.35269443560282,2.3531510924984,2.35294343703396,2.35353723140015,2.35393689547218,2.28974011039949,2.28913485342318,2.28914935394434,2.2886296544118,2.28830493377356,2.287862726647,2.2880499177843,2.2878450603778,2.28789170318156,2.28788212629776,2.28795605521752,2.28839803433844,2.28819105490748,2.288744256771,2.28747318600879,2.2876358210086,2.28705539443804,2.28716954783666,2.28728483889708,2.28690866485165,2.28765169908851,2.28757924298307,2.28781446303856,2.28823945099653,2.28835334004837,2.28889778361787,2.28884924078076,2.28908121652473,2.28947487187285,2.28946659008388,2.28975611684009,2.28966382941548,2.28987038566477,2.29008142745796,2.29095841877838,2.29072967766622,2.29105963485087,2.29112075353832,2.29157014801415,2.29276040483532,2.29318995412431,2.29251242767523,2.29295805003817,2.29321926466896,2.29436695610893,2.29586953070284,2.29660242955505,2.29594174161669,2.29622480070384,2.29728484003999,2.299053338692,2.30032032144407,2.33205796314027,2.36766408692,2.36740210553125,2.36703494504638,2.36672871662322,2.36737944913774,2.36735544536068,2.36870386426342,2.36884286293488,2.37017595193708,2.37117796890049,2.37346756377704,2.37106112346445,2.37150093384515,2.37184347569529,2.37193789185478,2.37218539808615,2.37211449979399,2.37202936087093,2.37219716873061,2.37308528545207,2.37346591145328,2.37421407157576,2.37537004047921,2.37586950292371,2.37629967229645,2.37656602496642,2.37882325731057,2.38123719765292,2.38188979289429
2.32472105193682,2.32527266191476,2.32565054663869,2.32615754049777,2.32730928038987,2.3274932201594,2.32811445377279,2.32848172936829,2.32897071339899,2.32966610103196,2.33013016593832,2.3303173990121,2.3302920119542,2.33097035649805,2.33204625665198,2.32962786860172,2.32936189582896,2.32929225662504,2.32922410770677,2.27986338261163,2.27904042154747,2.27868679193841,2.27802638742033,2.27695612997784,2.27640211517256,2.27683050440933,2.2764710244373,2.2763958287393,2.27657614525305,2.27730346515179,2.2766327390884,2.27677265021405,2.27677005888091,2.27736272615448,2.2772189209609,2.27762853614065,2.27768944926617,2.27777572582099,2.27911043716906,2.27888052429297,2.27869742417325,2.27863984111471,2.27869051981888,2.27917923668506,2.27912743215433,2.27991820029488,2.28009463787156,2.28082860513272,2.28100406057322,2.2814726779737,2.28150291530015,2.28201736012942,2.28283618307958,2.28346299927106,2.28498154998901,2.2859646646401,2.28747619604717,2.28885107712886,2.28994747573772,2.35108986640894,2.35059451650159,2.35046986119314,2.3507157205945,2.35079841524527,2.35201198977252,2.3536025394988,2.3533805171937,2.35340967908607,2.35329883107433,2.35263236930422,2.3533037658705,2.35324047192403,2.35306896211637,2.35296051029783,2.35287528892648,2.35329608569654,2.35361012137575,2.35372193462078,2.35393110090245,2.3543981040215,2.35459755869833,2.35467122326364,2.35453810484417,2.35462228311883,2.35501335184509,2.35454271594226,2.3545717426677,2.35423783363985,2.35377790115674,2.35292564280903,2.35342294811628,2.35293130024455,2.353226267157,2.3544126267558,2.28987671353097,2.28941403660653,2.28884515366197,2.28841674186775,2.28766744200254,2.28763444298194,2.28781929195821,2.28754646331441,2.28764205473454,2.28740841896036,2.28757621709898,2.28774477046414,2.28785924466322,2.28776459013541,2.28738192964213,2.28723269586776,2.28734246199299,2.28692168259974,2.28661685222517,2.28704466907162,2.28731312367752,2.28736338385622,2.28751697394557,2.28759459431228,2.28799564217568,2.28865409589275,2.28877784484929,2.28876470180527,2.28906528970248,2.28883896048288,2.28914384084839,2.28913133824402,2.28936921935287,2.28962736279829,2.29016824495722,2.29057668899646,2.29056722124859,2.29092901238018,2.29104676284427,2.29162733129612,2.29173419529996,2.29226111521218,2.29258130612731,2.2929899778107,2.29365354424695,2.29376509524888,2.29470297879184,2.29530965494566,2.29535033016234,2.29642083525834,2.29730173518974,2.30456889370829,2.32918585310485,2.36804567534271,2.36675968718967,2.3662995929787,2.36591763497817,2.36629268466996,2.36658596682152,2.36728845276187,2.36878907726,2.36980541792074,2.36990808889617,2.36959944208084,2.36978101288822,2.36991980832252,2.37070802888548,2.37107421582077,2.37152068420163,2.37161231353867,2.37036043187906,2.3710999349428,2.3720201215027,2.37299713334881,2.3728341658929,2.37385505952352,2.37434005527843,2.37543736241355,2.37593868297089,2.37856895642717,2.38049015024811,2.38152881711992
2.3241608667351,2.32459876248432,2.3253010226629,2.32597674865769,2.32663077902824,2.32747854674167,2.32762087882072,2.3284899995638,2.32836016180533,2.32943563502482,2.32970407943247,2.32982479444101,2.33011883189851,2.33060898147994,2.33124894754597,2.32944520407643,2.32883009275156,2.32797550294255,2.3289395193552,2.27964344495038,2.27863510825561,2.27843110118785,2.27807338948579,2.27698135238201,2.27638138633133,2.2760911664426,2.27605937571759,2.27562130366536,2.27631817882943,2.27618541203285,2.276857085615,2.27680278013294,2.27730872980647,2.27698900725401,2.2773053108984,2.2775034019249,2.27757447232966,2.27780874398163,2.27814989851612,2.27867939669529,2.27837051303621,2.27849927003301,2.27863273909657,2.27878737960565,2.27964582089353,2.27964746925906,2.28004565371372,2.28027111396792,2.2812472687627,2.28152487615395,2.28188691930119,2.28230313540395,2.28267476240678,2.2840025765053,2.28519740597236,2.28644329573304,2.28788719313655,2.28818257975974,2.35126390885232,2.35052316468883,2.3505484624393,2.35013765712662,2.35034640240154,2.35093911834458,2.35151461158577,2.35184806080146,2.35249037158215,2.35291372822685,2.35244776184505,2.35185236112988,2.3520573795498,2.35223473353898,2.35228569618631,2.35221361395228,2.35276777319354,2.35244590391724,2.35272886640499,2.35275466120376,2.35297560270882,2.35344359626357,2.35325854000998,2.35372823933606,2.35378130947828,2.35429972944912,2.35434837960934,2.35415298250681,2.35404729972145,2.35395702724092,2.3534971059828,2.35332084360081,2.35389544189963,2.353060145965,2.3541658880697,2.29036395281753,2.28952498968813,2.28909079412391,2.28867859939529,2.28816763206307,2.28755439469167,2.28697605797643,2.28701346164105,2.28699499665917,2.28684240744932,2.28668922522,2.28709788065219,2.28839947426312,2.28747607416202,2.28711722892523,2.28644792803901,2.28704977022521,2.28689945500639,2.28689227547067,2.28693809293356,2.28657236842073,2.28699808536606,2.28732134183799,2.28741475246762,2.28759908973472,2.28774976405511,2.28845539357203,2.28815546847881,2.28837531355095,2.28852082405611,2.28869417935743,2.28880010985053,2.28888733628094,2.28907437079698,2.28927584611973,2.28991392045142,2.29065524805515,2.29048981740257,2.2907132427022,2.29123068902791,2.29112403982939,2.2922353358766,2.2924431520675,2.29261443552865,2.29270696923629,2.29359782471289,2.29374267244047,2.29489960183105,2.29504225247666,2.29543349663409,2.29668476284934,2.29753416833452,2.29914734102947,2.32497837680451,2.36774168647789,2.36572806667485,2.36517321605991,2.36504845294467,2.36560106482529,2.36566251022391,2.36719257197151,2.36791239009513,2.36807681879671,2.36840843402534,2.36837199669508,2.36880837875547,2.36939454657094,2.36952808260232,2.36996270632724,2.37004488483267,2.36985867955685,2.37008441918825,2.3705005887631,2.3712480882097,2.37163025913524,2.37241005279231,2.37314600995198,2.3751578417112,2.37497256041218,2.37530750947796,2.37693269892109,2.3789014867318,2.38107192059677
2.32290325057545,2.32374222141408,2.32418286554123,2.32472140020586,2.32642179498905,2.32639923028275,2.32672242482864,2.32701821004185,2.32811419226006,2.32841106889886,2.32876134232982,2.32926051950907,2.32948591158358,2.32999917278383,2.32985071947065,2.32874348563956,2.32849831815485,2.32803866127842,2.32909378499756,2.2793669874461,2.27856447443934,2.27802643621897,2.27717554203782,2.27641710170694,2.27617694701085,2.27591002620146,2.27588932507457,2.27612023730551,2.27599253185196,2.27665903184396,2.27710311602565,2.27681527717345,2.27670777810149,2.27724201809228,2.27687558638264,2.27790320683146,2.27753958642665,2.27750739166361,2.27830309824062,2.27821997586071,2.27869188423323,2.27852560938021,2.27849507257759,2.27892112236941,2.28007339281485,2.2802459627826,2.28002549127985,2.28024641727406,2.28060145903802,2.28140035137105,2.28213068719599,2.28265991861101,2.28364676629454,2.28407760010382,2.28605309306532,2.28680668723642,2.28873242219113,2.2891386764718,2.34990161618144,2.35035848369293,2.34954907866517,2.34976866594067,2.35017045339784,2.35053739553378,2.35094167475788,2.35120243740968,2.35187241890866,2.35289778810828,2.35173878438652,2.35116065173141,2.35129048226858,2.35141574668877,2.35131902291355,2.35155388438092,2.35149746007181,2.3520698629771,2.3519077627421,2.35169775271952,2.35210972095239,2.35215957816365,2.35275189231938,2.35300493953652,2.35311435644397,2.35360752756957,2.35346469579394,2.35384150803991,2.35348089285128,2.35336698700148,2.35319809979736,2.35357221198947,2.35246829331347,2.33214930884943,2.29070253274852,2.29064129009973,2.28882465624277,2.28861607965964,2.28815765828379,2.28792614768889,2.28812750769065,2.28696506247005,2.2866131306923,2.2867251578988,2.28690580169125,2.28627581926127,2.28666190041526,2.28688659790894,2.28704317638742,2.28689998015026,2.2867896452781,2.28615782385989,2.28709889202107,2.28678782238065,2.28675329157245,2.28703678224257,2.2867586914662,2.28740695535909,2.28736651412428,2.28772282185599,2.28858432803798,2.28782150405854,2.28792528138888,2.28794486822661,2.2883995572819,2.28868037734442,2.28905647689428,2.28866360327694,2.28890694511497,2.28916382977577,2.28975098307187,2.28977137692667,2.29010222754422,2.29063784567851,2.29121700073231,2.29173494330945,2.29195703836305,2.29251199126324,2.29251024255783,2.29285448998852,2.294035417369,2.29339593648199,2.29406518084741,2.29476709479471,2.29541422537741,2.2960180293396,2.29722506006606,2.29869010204391,2.3199796304511,2.36584319784487,2.36498912131919,2.36458036228813,2.36462745226279,2.36496439831088,2.36522784205403,2.36590573271441,2.36672286305393,2.36729502618547,2.36768336170907,2.36760418991557,2.36842191668877,2.36888896196076,2.36929464472291,2.36907912551125,2.36875940566087,2.36949084311944,2.36889904807388,2.3699764268062,2.37024472279386,2.3706634108059,2.37056499705275,2.37231365690858,2.37313693012616,2.3738343116648,2.37413489168879,2.37576464366975,2.37827243126178,2.37951906346615
2.32274886772877,2.3231612367914,2.32356623227182,2.32403034451654,2.32458211605824,2.32500049173601,2.3256491623167,2.32578206376266,2.32731442132114,2.32804035305358,2.32853693744973,2.32876338428028,2.32924696467246,2.32918802580649,2.32963590946298,2.32926564358344,2.32920091070643,2.32997120093308,2.3300465974843,2.27941159509163,2.27857123285039,2.27762131063159,2.27677198263446,2.27602557714843,2.27622351596811,2.27604090413324,2.27603669253115,2.27636655644189,2.27651068302603,2.27626965114484,2.27671864249245,2.27640928095917,2.27651177485266,2.27661576959825,2.27722781171269,2.27717454238576,2.27732823687885,2.27751514636732,2.27793926351593,2.27858981223265,2.27881605941311,2.27857025953802,2.2785793857496,2.27884561474976,2.27992658833199,2.2803920969252,2.28008235603765,2.27990619901528,2.28097720978705,2.28143258431502,2.28236536371683,2.28280579949205,2.28355928748265,2.28551726144177,2.28593977650255,2.2883863880544,2.28972676942575,2.29040625617483,2.34891564457853,2.34903335502538,2.34885461584623,2.34920705441594,2.34951281654116,2.35011274168379,2.35051042103354,2.35089498621281,2.35056288666424,2.35045443701423,2.34995660188207,2.35041266415903,2.35055499689092,2.35066666675509,2.35080658562867,2.35066700519614,2.35111689115643,2.35106934328038,2.35116771615286,2.35104140841803,2.35125990932047,2.35156798073283,2.35219689011536,2.35241340441034,2.35277010319399,2.35272140584126,2.35239409466895,2.35239395203511,2.35256795793562,2.352760900779,2.35296308648864,2.35350901596443,2.35309145362506,2.31807075228522,2.29115397980401,2.28936392555957,2.28877175029597,2.28816847597969,2.28778831713375,2.28743136952118,2.28734249903244,2.28618549368714,2.28677828997958,2.28646470090356,2.28639668494856,2.2863574457154,2.28660961184204,2.28744858177946,2.28669722843021,2.28649600895205,2.28613625074236,2.2868999846206,2.28696928530761,2.28664919750892,2.2867577965362,2.28675653006063,2.28653387865366,2.28695841761036,2.28702982312081,2.28738394884888,2.28765958870589,2.28754988772596,2.28708047227409,2.28755264773114,2.28760331508597,2.2882784955487,2.28827581382461,2.28872143929588,2.28870443370237,2.28911299993552,2.28925865574491,2.28944038493684,2.29001637859844,2.29038923136373,2.29115224445223,2.29188786139924,2.29180225309596,2.29198087798672,2.29241967760882,2.29318025453108,2.29298260446795,2.29404088321132,2.29431088161736,2.2946205679063,2.29492141722431,2.29629281431848,2.29747878872211,2.29942491418628,2.31575699564528,2.36416795458095,2.36394528657415,2.36416612766572,2.3639332646099,2.36452870919381,2.36474318083146,2.36560903051474,2.36562371271246,2.36624844196471,2.3667775176705,2.36722004484161,2.36770743311057,2.36812751578448,2.36795738862982,2.36818128746549,2.36829027029406,2.3681958830498,2.3683686068302,2.36842338626818,2.36939252015866,2.36982838900547,2.37113966490597,2.37088425253991,2.37168122800737,2.37299628146605,2.37360899844413,2.37585784859121,2.37642475006612,2.37852603767573
2.32231431547504,2.32279383632345,2.32317314540875,2.3235978206435,2.3239596537446,2.32391651386747,2.32514189879493,2.32629592170111,2.32669499269415,2.32736215161553,2.32784036921606,2.32827019585135,2.32857995953741,2.32881663839743,2.32872404971113,2.32936552371889,2.32900035592575,2.32959178822567,2.28015426187668,2.27981025180345,2.27788845223545,2.27744973440028,2.27662416694697,2.2760024801497,2.27572327080882,2.27559633389079,2.27563273797971,2.27584343285303,2.27569637235552,2.27636382389171,2.27589860427772,2.27620936617508,2.2761438787449,2.27651592481803,2.27663179590084,2.27721654412572,2.27724223253964,2.27747352841866,2.27781800150484,2.2778947504797,2.27876151976287,2.2785324849092,2.27857814639449,2.27903781525745,2.27913224245006,2.27962274296105,2.27978855772991,2.28026784291028,2.28104959664691,2.28156889154039,2.28211214969051,2.28276320902771,2.28354871108836,2.28463586833876,2.28605642478828,2.28850076358007,2.31012734746006,2.34642553785932,2.34712328529591,2.34804619845035,2.34834456437151,2.34856001155467,2.34862481894838,2.34847363630275,2.34958476736384,2.34917226910986,2.34932630675005,2.34859071863035,2.34913607669242,2.34968463721928,2.34974039805945,2.34983129377576,2.34998977265291,2.35014162024131,2.34984262780602,2.3505373451599,2.35049616959746,2.3505822627546,2.35066879985695,2.35050772160861,2.35157219909481,2.35156485763251,2.35154837226928,2.35202657307464,2.35211066452527,2.35159208908316,2.35155978828986,2.35150070648777,2.3507530609456,2.35265182573869,2.29170211819304,2.29114316872938,2.29085422295603,2.28942625580841,2.28805847535012,2.28759003011195,2.28729282513258,2.2871651253102,2.28682881889653,2.28642184921431,2.28642718709602,2.28621557319671,2.28607387835694,2.28611916680647,2.28648115618313,2.28633370638218,2.28621259974041,2.28579098253682,2.28601589863547,2.28583239185089,2.28621023732256,2.28614259002926,2.28617948616364,2.28644022209116,2.28608577286415,2.28621373374725,2.28656947724439,2.28688974662552,2.28735554542205,2.28716336020085,2.28727823313246,2.28728983987823,2.28783722642301,2.28880166734692,2.2886097588762,2.28821977269323,2.28845122510711,2.28842927400992,2.28909714371829,2.28911958043192,2.28957472132803,2.29004186701005,2.29032142226363,2.29102923529661,2.29127547938993,2.29172391548298,2.29194346339714,2.29235338241057,2.29277165733551,2.29386229680506,2.29417760620723,2.29443798366033,2.29508795718211,2.29720285614232,2.29739474594913,2.30163649497253,2.3138293759071,2.36614511252794,2.36439760977024,2.36346570735822,2.36369082671602,2.36424082039677,2.36490225407919,2.36483590292861,2.36538050461001,2.36573750104947,2.36632312721415,2.36652330573612,2.36717466317393,2.36660576046403,2.36700904329324,2.36725870710737,2.36704444948025,2.36725361574862,2.36784881608834,2.36815903154575,2.36854407213762,2.36921772192827,2.37004384990418,2.37125718107631,2.37200238803101,2.37264132161814,2.37352788795648,2.37494204588669,2.37598887711942,2.37725000485391
2.32199639692737,2.32226486028306,2.32279626786015,2.32322883227927,2.32378715633751,2.32373088552797,2.32481067224778,2.32552962377157,2.32663724311238,2.32706835978602,2.3272748751997,2.32755084662254,2.32791457586662,2.32822068934126,2.32852128162156,2.32869592218973,2.32900164807916,2.32968726296085,2.33025466271951,2.27805723898516,2.27772544605376,2.27707094014426,2.27673465563413,2.27582498637142,2.27569448709282,2.27558561644175,2.27560057597638,2.27548912996648,2.27568506154258,2.2757477182527,2.27600380029089,2.27613359479558,2.2767987093235,2.27603384946754,2.27680407194823,2.27712396510611,2.27715507187519,2.27722377006845,2.27755203986462,2.27782743480463,2.27827746712497,2.27841645795295,2.27879226395054,2.27902547815741,2.27914417583314,2.27945203374548,2.2797162006173,2.27976507361593,2.2808767634178,2.28147543589935,2.28219208168338,2.28267074754439,2.28309366156109,2.28484885268847,2.28666608248346,2.28922828324652,2.32414825842631,2.34611964189489,2.34674562815886,2.34752391080463,2.34794262305584,2.34828693917665,2.34832840215465,2.34849351485785,2.34837387817089,2.34845753237579,2.34845329718702,2.34863085699778,2.34825815953414,2.34849494845732,2.34862682500151,2.34889265136857,2.348955218095,2.34889235668354,2.34906371406236,2.34931290328995,2.3496628124438,2.34981396840501,2.35007906342239,2.35064086174058,2.35031158982837,2.350681702161,2.35082084981765,2.35066534151221,2.35089617790584,2.35053048525771,2.35061710453513,2.35067630686626,2.35032253665665,2.35055823131759,2.34993013525987,2.29030373429636,2.28942656328347,2.28883319142584,2.28733535829184,2.28700114163719,2.28679454156182,2.28650671296852,2.28657010555944,2.28577836792211,2.28597257299412,2.28582600046822,2.28579157079382,2.28582210753722,2.28602598261323,2.28664672936023,2.2859632731113,2.28563007727673,2.28555155487797,2.28590974377697,2.28553494146001,2.28571410952215,2.28584660217924,2.28577445683181,2.28632999209591,2.28606036118536,2.28625038916715,2.28647618209497,2.28662182999214,2.28702770320881,2.28696692259793,2.28707861424399,2.28691160605341,2.28787292409733,2.28749223654582,2.28816814858936,2.28825102283719,2.28876126664656,2.28919427084661,2.28963073098944,2.28957640292425,2.28988387323164,2.29019761030095,2.2905839295845,2.29125342651243,2.29103320171005,2.29149351662148,2.29187362672254,2.29302945290217,2.29490708439594,2.29397652509364,2.29421783978007,2.29437870080352,2.29793487734919,2.29721917185801,2.29915255009736,2.31300003238865,2.36392044022551,2.36319918099412,2.36284414924531,2.36305068692982,2.36385673699143,2.36438576924826,2.36438169071106,2.36467668355866,2.36539824265984,2.3657225431403,2.36626589605491,2.36568115857137,2.36621635278041,2.36642858382533,2.3666889588827,2.36705895196188,2.36746451242981,2.36675432223851,2.36666635657243,2.36764127366355,2.36812725238545,2.36948474264626,2.37011378423042,2.37138240439472,2.3719922924949,2.37242403355012,2.37334257508384,2.37406535789296,2.37635316171157
2.32138045665748,2.32181503948881,2.32219427154542,2.32334079973143,2.32337526187145,2.32398608931294,2.32460353249997,2.32561632011555,2.32578902451355,2.32668645038313,2.32667454790877,2.32711855419098,2.32724397456474,2.32756892960905,2.32778873345992,2.3287880939871,2.32870755211423,2.32984505564142,2.27946679026129,2.27820270172312,2.27686077257251,2.27689377682956,2.2764594910226,2.27621701082346,2.27601127956213,2.27597034933408,2.27559052450704,2.27548837596248,2.27537393028132,2.2758417008489,2.27599605434994,2.27609197656234,2.2762133071788,2.27642249797124,2.27623170417124,2.27715780515909,2.27717850582392,2.27753197392713,2.27795813982455,2.277630553138,2.27788556170492,2.27815691791213,2.27843793759992,2.27893348534127,2.27903688997276,2.27942581614267,2.27968933468998,2.28019536677434,2.28045218921861,2.28166013230734,2.28205987634025,2.28282324786457,2.28339807844406,2.28518244701349,2.28656290115147,2.34490920940185,2.34431302585873,2.34504786599719,2.34586743916326,2.34711154558132,2.34769944127694,2.34788418389202,2.34819511451253,2.34890661386546,2.34782146677823,2.3475520662664,2.34783566419889,2.34771504778243,2.34804631281201,2.34724310591333,2.34801654675225,2.34800901390029,2.34787994857365,2.34850023930242,2.34826629238352,2.34858551153616,2.34897771292632,2.3492483452121,2.35138014617059,2.35019019419418,2.34988374557193,2.34991860223933,2.34986979713559,2.35017015694446,2.3499365468574,2.34933458857219,2.34956835543924,2.34949200533899,2.34988975391032,2.34930454344398,2.29062218798636,2.28972913185566,2.28846902691681,2.28834758618088,2.28748958419771,2.28659872513039,2.28648903570634,2.2866745959396,2.28633853076986,2.28581717982516,2.28549990885504,2.28573898713353,2.28565259798939,2.28597964985932,2.28636431266962,2.28592155445435,2.28562269850521,2.28519556150342,2.28551734030559,2.28561784804563,2.28543764937309,2.28543851970572,2.28550442046564,2.28603089235836,2.28583313996834,2.28620146998452,2.2860523058944,2.28605357966475,2.28656672870169,2.2865547950581,2.28699216621649,2.28680929623995,2.28695433963187,2.28737263696234,2.28777576038687,2.28780710447753,2.28811109386684,2.28821587391329,2.28901892075239,2.28903212092723,2.28967979196667,2.28992647491255,2.29052818601877,2.29067307410294,2.29034710773774,2.29066176678844,2.29118940234155,2.29191258919168,2.29246244908187,2.29298636422289,2.29380658572705,2.29380108231891,2.2940738336001,2.29539102777816,2.29781321289235,2.29857669329514,2.30782417261059,2.29998056127091,2.36356277311401,2.36259006872761,2.36371787672031,2.36356164105528,2.36377511780767,2.36386376733869,2.36445007246082,2.36443143858393,2.36508927694296,2.36539818901518,2.36548542170251,2.36534699299955,2.36551774705638,2.365884780956,2.36577251554644,2.36604191721476,2.36549484623943,2.3663882197084,2.36679804938411,2.3665968697767,2.36815137076408,2.36995093264124,2.37116585655538,2.37127935860553,2.37132703657697,2.37199890508635,2.37471706722446,2.37564868434945
2.32058731060333,2.32107585783815,2.32169042377526,2.32304675966763,2.32378185590965,2.32384387292199,2.3243488995308,2.32477583929393,2.32544680798437,2.32576294479394,2.32658203846429,2.32659980559577,2.32683188499086,2.32683337672828,2.3272667269181,2.32767369907715,2.32830458829565,2.32891251528823,2.32948377589682,2.2772814598202,2.27683150138716,2.27674743692883,2.27675363611143,2.2762250065609,2.27605547970878,2.27640268089407,2.27566095776549,2.27535380513009,2.27546328102364,2.27571469332699,2.27609217535395,2.27588575863986,2.27620657981219,2.27611932193816,2.2768389769016,2.27677665298882,2.27704987913004,2.27752588599696,2.27757985912391,2.27800476942762,2.27799287302591,2.27819575129172,2.27834354980218,2.27899775774166,2.27915406102981,2.27967984182755,2.27985000821065,2.28002699017504,2.28089526246215,2.28135541497658,2.28255020237372,2.28322169071316,2.28358567884416,2.28595473696428,2.28739248594614,2.3450012407716,2.34444240273336,2.34512324981361,2.34579569352769,2.34692876278792,2.34749337411897,2.34764211507852,2.34755181471762,2.34786494863415,2.34660048709874,2.34691238210758,2.34702694419618,2.3472767827246,2.34665572738208,2.34724185085765,2.34697694774689,2.34729664188588,2.34727665272108,2.34740850233106,2.34771249073219,2.3480758780133,2.34827054257473,2.3485061283758,2.34900112462804,2.34946820647458,2.34926776145275,2.34921313824106,2.34900781950552,2.34915322853008,2.34918900839532,2.34875431116147,2.34895899164923,2.3491847104185,2.35068270482588,2.35095880418938,2.28954688755226,2.28927577957653,2.28841694588259,2.2880024344393,2.28691444301442,2.2862227118718,2.28608895791591,2.28590573662163,2.28596561615117,2.28590121403384,2.28613385450535,2.28578704385722,2.2861574405001,2.28591920221441,2.28565091633372,2.28580892135228,2.28548503668335,2.28548172317263,2.28519037228704,2.28581550158378,2.28530241534251,2.28526182620904,2.28530615021533,2.28570050963725,2.28595803498379,2.28579826458736,2.28582421276975,2.28595693815011,2.28626299543181,2.28635865246619,2.2864317883419,2.2867964721632,2.28720058149626,2.28762318623436,2.28703008323903,2.28802678800384,2.28793600104018,2.28835665858925,2.28854886700592,2.2893332013396,2.28906290467907,2.28964288266022,2.29057178973492,2.29059947237197,2.2910045698192,2.29048004511689,2.29081123838375,2.29123069591324,2.29151560764528,2.29260163018218,2.29271209223161,2.2936479858971,2.2944645302436,2.29692804644602,2.29831934180275,2.29838850932344,2.30786728087622,2.36120038415083,2.36094253459799,2.36330523146603,2.362556034067,2.36290806037044,2.3633731379331,2.36356018396644,2.36381566791935,2.36406056363046,2.36452149471632,2.36476377887011,2.36482342342025,2.36443473156072,2.36529124175202,2.36543771361927,2.36542477438761,2.36521910754474,2.36532094153329,2.36695696061901,2.36667896457626,2.36689745904462,2.36761287143483,2.37077949255277,2.37087384892368,2.3706053655703,2.37034599645313,2.37141259828458,2.373667287893,2.37590738399009
2.31983027194575,2.32056679956842,2.32112404335081,2.32260493663537,2.32307468990828,2.32345056574028,2.32377525608451,2.32440502190083,2.324616640887,2.32586596922702,2.32602844966128,2.3262438896871,2.32649534261744,2.32653987013749,2.32659631888478,2.32736792280228,2.32851623856789,2.33192292808224,2.33002512486517,2.27717920335684,2.27672359780973,2.27659476472072,2.27664277785771,2.2756931883064,2.27568215131876,2.27564247825035,2.27542976900152,2.27520299134288,2.27525148155395,2.27537263028814,2.27547013411458,2.27556087892295,2.27550548831771,2.27603406782911,2.27627017288498,2.27672313260766,2.27692203764307,2.27724060217294,2.2777637249806,2.27786830169748,2.27823716858872,2.27825186537651,2.27887209909182,2.27908921004701,2.27934419827134,2.27996309491765,2.27998604964362,2.28032934237425,2.28086784196258,2.28189560967067,2.28289999927218,2.28382825990678,2.28489378271521,2.28553024817065,2.34275765196723,2.34452450687742,2.34446425264162,2.34499493977458,2.34586495392943,2.34714450154104,2.34744663307778,2.34726986912609,2.3472104224912,2.34633730447814,2.34662340513989,2.34639062696678,2.34655039466441,2.34648852870327,2.34629347563264,2.34595789547332,2.34665078109848,2.34671324390137,2.34706738197929,2.34629554484636,2.34676043749584,2.34729409683958,2.34758708712517,2.34759556904917,2.34820559324487,2.34842551878807,2.34860114043682,2.34854025120577,2.34833455425411,2.34857177149421,2.34825423036767,2.34871344329846,2.34818068973692,2.34835878579083,2.3483833422099,2.34817526206517,2.28971126373533,2.28909081842552,2.28814341084167,2.28792447887993,2.28675325779254,2.28597165408302,2.28579601128902,2.28560020410656,2.2854932743273,2.28550395241891,2.28546807589934,2.28559410210832,2.28557269755893,2.28549473867572,2.28482359621366,2.28523884286635,2.28519478020062,2.28529412810292,2.28516890626295,2.28520103680647,2.2854032211152,2.28510308106077,2.2850516217761,2.28534553764049,2.28573418714514,2.28565723812247,2.2856295797235,2.28576176502761,2.2860706209644,2.28598829796299,2.28643985058853,2.28645562148094,2.2869298378584,2.28668582385124,2.28719703102372,2.28721401966063,2.2877071023022,2.28818937814579,2.28867002574153,2.28889891743222,2.28935183419606,2.28925684533119,2.28917910826109,2.29007137994451,2.29040762536056,2.29056023394386,2.29047442255838,2.29031354106856,2.29097514732234,2.29149686680427,2.29254829571525,2.29319732510591,2.29444358245078,2.29514774791147,2.29848151055325,2.29851283017322,2.30905222448539,2.35999345508277,2.36063001820384,2.3611542942153,2.36121287771435,2.36202301677195,2.36234767143158,2.36290086661381,2.36337587916727,2.36399151154749,2.36408056336543,2.36429533362297,2.36419737768056,2.36461287900576,2.36455601242424,2.36504755962372,2.36632897981527,2.36485195227171,2.3649380263235,2.36560336481711,2.36579986457323,2.36609973370869,2.36634059378679,2.36734163659032,2.36948436886638,2.36968235411887,2.36939884689756,2.37116622017366,2.37231275969183,2.37498145656335
2.31965427775333,2.31996711612856,2.32035865460938,2.3210755925196,2.32213142349682,2.32282932968881,2.32332560460209,2.32357037858704,2.324369934361,2.32459460039444,2.32526198536761,2.32551512141091,2.32589953175618,2.32597251810884,2.32612916248366,2.3264291698985,2.32685057053033,2.32685705645773,2.27813972386642,2.27704846769412,2.27638974985852,2.27648664320313,2.27623142334814,2.27575433512486,2.27547327454273,2.27574198035521,2.2753191267877,2.27527149116497,2.27526191980836,2.27510015092245,2.27533356272819,2.27543293270465,2.27566253897739,2.27573662443223,2.27618696108262,2.27643698135546,2.27678439271444,2.27746071848086,2.27751871315142,2.27788173981451,2.27791580581155,2.27814392214102,2.27826815633712,2.27879317096217,2.27923313421283,2.28007155940666,2.28004683250094,2.28026060465422,2.28151231046898,2.28228959698046,2.28325968970251,2.28434055535558,2.28499376626795,2.28631393840099,2.34348971894814,2.3447559863076,2.34434964470453,2.34451467414947,2.34560164280013,2.34666482655016,2.3473291679522,2.34693161318847,2.34655821146112,2.34594565704864,2.34549797920033,2.3459920665261,2.34571895557233,2.34578243863269,2.34530871175834,2.34560407518379,2.34589408334786,2.34594819499317,2.34581611780971,2.34594787915921,2.34609074555267,2.34708970684863,2.34694602410206,2.34714324910478,2.34708145606409,2.34776491611196,2.34810401294414,2.34799665454477,2.34775312043913,2.34737069694761,2.34776454662407,2.34715187998768,2.34707145062477,2.34706362331933,2.34659102506624,2.29123477308468,2.28928408194273,2.28862797587957,2.28771899252895,2.28708008878251,2.28628401343956,2.28662614017231,2.28577243736138,2.28532202683532,2.28548558505284,2.28514753948585,2.28552273535156,2.28537469724038,2.2855465006959,2.28519017803629,2.28527505110073,2.28494677655129,2.28486971355142,2.285022327898,2.28472602376088,2.28540651810618,2.28509898423995,2.28489485412807,2.28468394600245,2.28491135706958,2.28539078848882,2.28521953067944,2.28542100966065,2.28561133468814,2.28579044934766,2.28576173275676,2.28575587242228,2.28616233301182,2.28628987627063,2.28680326505299,2.28663069198666,2.28718675751879,2.28734418326287,2.28769356935554,2.28788743267558,2.28847409554551,2.28869205485164,2.28879129603603,2.28889561711861,2.28951037821584,2.2899950441665,2.29017685345297,2.29030543677393,2.29070125534002,2.29075257699031,2.2912701340764,2.29176739688436,2.29275881282325,2.29300296876785,2.29496725512226,2.29824769804023,2.30102356650831,2.31198545851295,2.36068989233687,2.36041001301683,2.36036568336304,2.36117251729425,2.36150568078127,2.36171774617582,2.362129847098,2.36283709402027,2.36304189039349,2.36352903495674,2.36377026841545,2.36360430454905,2.36347090644892,2.36312796353508,2.36373519297417,2.36369735416748,2.36344251998459,2.36355089867071,2.364515933515,2.36474094527684,2.36473446904284,2.36534940303943,2.36611417277543,2.36942666871257,2.3692138481164,2.36966181138966,2.37013226257042,2.37266517439998,2.37386923689332
2.31892717781292,2.31951108250964,2.31990650178372,2.32080601507327,2.32138886542604,2.32235502670986,2.32272715240929,2.32331139546535,2.32342439696065,2.32396471193718,2.32441483177451,2.32491239991301,2.32521160493479,2.32561875353091,2.325930152278,2.32627343101056,2.32626388650415,2.32594452957545,2.27810628671255,2.2768065608976,2.27694977876517,2.27635369654434,2.27651992851062,2.27573857158044,2.2755797476112,2.27515352601548,2.27519556190982,2.27527890618426,2.27528990185655,2.27525709199952,2.27545513290334,2.27539207961195,2.27548329246316,2.27567505640036,2.27569707626528,2.27625489763813,2.27659664841386,2.27700752861569,2.27738814389573,2.27728289383443,2.27788125357724,2.27799189834307,2.27848922767923,2.27842537526442,2.27889902761061,2.27945383166042,2.28005627744085,2.28065122186416,2.28155180146241,2.28278790235335,2.28421462132994,2.28491459062984,2.28559265350255,2.28741337008571,2.34278911189434,2.3442246004055,2.34395019087804,2.3442777495989,2.34484551557183,2.34580987838883,2.34671816919706,2.346353998405,2.34645210579359,2.34581174090178,2.34564146615019,2.34477600898064,2.34497569420604,2.34457861117521,2.34457343028551,2.34435371899776,2.34510853606488,2.34512552272496,2.34503390074373,2.34505047168537,2.34513757831225,2.34564110937622,2.34612536871775,2.34617437888044,2.34663979890813,2.34693148368159,2.34763480983164,2.3474622827736,2.34758799712337,2.34754071055355,2.34707268555236,2.34576307236569,2.34572813682728,2.34592370231984,2.34657212062173,2.28929826023592,2.28863497111807,2.28819191823811,2.2871200316867,2.28654906774264,2.28578233387706,2.28567785849574,2.28534375582445,2.28512885478113,2.28509150266449,2.28525166874579,2.28511147113164,2.28522205670674,2.28535569700855,2.28562654780749,2.28494965955375,2.28475984196025,2.28452040787409,2.28420216924935,2.28452063377241,2.28494735396578,2.28496862451958,2.28472969213149,2.28464620412573,2.285083631654,2.28512838708686,2.2850010718823,2.28534062346397,2.28604424720698,2.28553675866858,2.28561552065316,2.28602356480974,2.2859746323736,2.28617195495373,2.28622850933307,2.2868849596782,2.28665891168336,2.28712219902101,2.28745103106486,2.28768562625294,2.28858240461889,2.28856981772419,2.28869582225297,2.28881525513201,2.28973073162619,2.28927718906261,2.28999672365367,2.29000975523962,2.28993487113028,2.29143204078067,2.29124773237885,2.29250639138988,2.29263187741936,2.29323027964392,2.29410481648128,2.30109460874703,2.29951229279474,2.31620815384007,2.35898213771237,2.35945828771828,2.35991439304699,2.36107578503511,2.36110735503141,2.36121160674933,2.36181486009094,2.36196876478957,2.36281936994874,2.36285312700372,2.36304338717553,2.36237546602543,2.36292150140775,2.36256408146777,2.36297766928967,2.36330876665205,2.36244096183934,2.36287542991169,2.36348627676088,2.36387245010117,2.36366134972076,2.36483848590776,2.36549192627277,2.36696169457374,2.36786648842117,2.36819716501265,2.36882407425514,2.37026482413555,2.37237358921333
2.31861973445223,2.31914472749708,2.31991824977833,2.32033867934182,2.3209798176258,2.32170095714794,2.32230921391622,2.32271660948992,2.32333120048889,2.32334197952189,2.32406159815357,2.324333979089,2.32452093024204,2.32528507303199,2.32562100314579,2.32662610156024,2.32584734835167,2.32508170585471,2.27849888608661,2.27685374210298,2.27580566725062,2.27603038821925,2.2759818393391,2.27550561881583,2.27504285177145,2.27513845605292,2.27496815449171,2.27513991490331,2.27512840030909,2.27529034650528,2.27515641646134,2.27541819155456,2.27589174656568,2.27579182996032,2.27615420434295,2.27602858839206,2.27638869608921,2.2768906409882,2.276930883828,2.27766796307483,2.27793369819564,2.27796247693806,2.27806431455272,2.27884413576126,2.27878339311887,2.2798202821446,2.2801190883987,2.28063417497517,2.28165625919496,2.28301068909409,2.28465100292269,2.28541368441923,2.28571470067081,2.33951135307419,2.34133603818075,2.34225462662462,2.34304238814918,2.34329356152087,2.34398011789933,2.34442285810306,2.34600586952017,2.34537661001258,2.34513896652826,2.34459994023308,2.34403701711156,2.34485732572302,2.34433763877426,2.34433753476451,2.34417784079955,2.34414766912905,2.34408233071373,2.3445365990038,2.34462416202445,2.34443472167518,2.34446385050669,2.34501046729747,2.34542001749597,2.34593655957926,2.34590717571362,2.34625558364011,2.34611984047421,2.34665134595616,2.34717636941999,2.34718260674335,2.34687474426025,2.3443061507354,2.34486340432372,2.34518581091399,2.34584542751826,2.28814522902437,2.28793735112988,2.28767958441154,2.28740227383633,2.286023099933,2.28577815438003,2.2853931720124,2.28511047458532,2.28481025219271,2.28513979748195,2.28499399681865,2.28511450872085,2.28502457996585,2.28523945574201,2.28548508899638,2.28437311357083,2.28417682873801,2.28426740899199,2.28450663721097,2.28438420596773,2.28451349910683,2.28459239666917,2.28471270497286,2.28493253339001,2.2847091941834,2.28468872576902,2.28498265715886,2.28506856307822,2.28527926652352,2.28556704603042,2.28540179979165,2.28568801547285,2.28590385761574,2.28624089010546,2.28635074936467,2.28626322314075,2.28731211048234,2.28703328821364,2.28700557013829,2.28720434215949,2.28764617679076,2.28807829820317,2.28841629343494,2.28914724248416,2.28947990152503,2.2896256342811,2.28947635753845,2.28989999569324,2.29039581974572,2.29016055293672,2.29175279661708,2.29198089404707,2.29260805161566,2.29299163988658,2.29416965259137,2.29599902243817,2.29788424538348,2.32048162352727,2.35858843433669,2.36024342469294,2.36096871599137,2.36034144772572,2.36046189983381,2.36075834277551,2.36079919250295,2.3616936874004,2.3617521207155,2.3622743824292,2.36241610295944,2.36220647365674,2.36190389560816,2.36193028876361,2.36217705914067,2.36208003011673,2.36247735060255,2.36214703115081,2.36303585246524,2.36331095753185,2.36360050153414,2.3642161626676,2.36526635870118,2.36628585258542,2.36704154163033,2.36758795907475,2.36869562023069,2.37022302567562,2.37212080329896
2.31800988937037,2.31859033365497,2.31907156344554,2.31994897306591,2.32035462071372,2.32116373856357,2.32174455188108,2.32235168366517,2.32265241295912,2.32339572002983,2.32349439041442,2.3239344597559,2.32417945522809,2.32483137700339,2.32724492887096,2.32723953958732,2.31996684309145,2.27998760247049,2.28025601776526,2.27604399027535,2.27562987384287,2.27561108635595,2.27583308819288,2.27497575259094,2.27529136274299,2.2745289622091,2.27484926413518,2.27503473893723,2.27532658811551,2.27535162700479,2.27514740042564,2.27532459768046,2.27558926356699,2.27568689220578,2.27612884939691,2.27602373152998,2.27635249858371,2.27667403596898,2.27707775496421,2.27741560987676,2.27778169269838,2.27770122324992,2.27763528357411,2.27845991117657,2.27944598008026,2.2797293753082,2.28033193574333,2.28099603970778,2.28193758901745,2.28287527275359,2.2845062197059,2.28572192923026,2.28616868134711,2.33778826098707,2.34055247385568,2.3423992136339,2.34267944532004,2.34310239088468,2.34349455204479,2.34376386599961,2.34411842755253,2.34382132362279,2.34415823480048,2.34368800394117,2.34401681153218,2.34312496591108,2.34349935745873,2.34316276297282,2.34361648377646,2.34373178035923,2.34383720147023,2.34409863970344,2.34432855441858,2.34414203832593,2.34439810227907,2.3445013073823,2.34483529188671,2.34485663912109,2.34539885831263,2.34534136105059,2.34558160878521,2.34566486671162,2.34556914858386,2.34651913100592,2.3462266059297,2.34418417760878,2.34428653636255,2.34484861313973,2.28961600939903,2.28893492642965,2.28773737252046,2.28744804396662,2.28672374337779,2.28618112107972,2.28531287470253,2.28502805645698,2.28483829940772,2.28473559206506,2.28484736049722,2.28474391609662,2.28494187639359,2.28472576794721,2.28438696892419,2.28454672421842,2.28477822692689,2.28416496049451,2.28420842952956,2.28422833146708,2.28441023368426,2.28432861608127,2.2846990056491,2.2845105091675,2.28462157583916,2.28427567357944,2.28445345850886,2.28457844576851,2.28476784871805,2.28520416210186,2.28541501368748,2.28563693383148,2.28579963783372,2.28571362538869,2.28582286172088,2.28573329358921,2.28633868862829,2.28721777939926,2.28689013995587,2.28679161187907,2.28662001415091,2.28709585049665,2.28766715384704,2.28822687927067,2.28845252320045,2.28904148515716,2.28907635896293,2.28963828483445,2.28985712292859,2.29041583368297,2.29054890579028,2.29081480376216,2.29192324279173,2.29241925108586,2.29362875617186,2.29339133613441,2.29492236636335,2.29939274735606,2.32379486085632,2.3577257946159,2.35791554225712,2.3588040134461,2.35915958194197,2.35962421582422,2.35975186064849,2.36031036896596,2.36086408909048,2.36161695379771,2.36155530785005,2.36179140427775,2.36114300783818,2.36163402036645,2.36125902522599,2.36162694258076,2.36194434940444,2.36179421955949,2.36206908924788,2.36228687316289,2.36288721511618,2.36368978809343,2.36366085095396,2.3645306163379,2.36537808332191,2.36626242903388,2.36704905706963,2.36784997268637,2.37032541968564,2.37261761793118
2.31773417270003,2.31817676481872,2.31855987566676,2.31957644635308,2.32039140611477,2.32084171536578,2.32151523506898,2.32182062469449,2.32272328461693,2.32311689259004,2.32357628673644,2.32371471511441,2.32391594157215,2.3244952316597,2.32581811417012,2.32534244804806,2.31552401428763,2.27898685670735,2.27821322590199,2.27637449033529,2.27543442911853,2.27556260919594,2.27562842414519,2.27519938564769,2.27473833374252,2.2749691386716,2.27481215345183,2.27502109558513,2.27532833104594,2.2755301901118,2.27530082223014,2.27543534883009,2.27578800675463,2.27597752122387,2.27612174758584,2.27624401800831,2.27637024838049,2.27675353759375,2.27683546963738,2.27745945073206,2.27770809494436,2.27788800094625,2.27815112432064,2.27911175278949,2.2792348081445,2.27989140952904,2.28037959565622,2.2812187488946,2.28203587165615,2.28325075023292,2.28446268414253,2.28603685913406,2.28652604726377,2.33968090395969,2.34002231280435,2.34090847202441,2.3423278663852,2.34349625695456,2.3436697738069,2.34366074165696,2.34032744521967,2.34174844676174,2.34302428601817,2.34330864846796,2.34301965446517,2.34383517172424,2.34301683557146,2.34260731898714,2.34276249292166,2.3429674767964,2.34356723919156,2.34376242823192,2.34444368979193,2.34400371987781,2.34351642952588,2.34395285269837,2.3442225704055,2.34462532926759,2.34437194146514,2.345060954197,2.34503124606085,2.34495504721843,2.34453033839508,2.34437297231419,2.34340714145425,2.34453745079326,2.34406373447844,2.34403189159725,2.34312008922788,2.28825457506575,2.28788640392016,2.28701297471032,2.28644367754935,2.28573865593812,2.28532932415264,2.28501917320977,2.28481876690646,2.28481333621933,2.28458284530737,2.28464644489743,2.2854307393301,2.28472576209806,2.28449964127526,2.28459307949313,2.28408319181576,2.28424850907124,2.28404178113404,2.28437563821999,2.28441799801592,2.2845236766932,2.28431250749034,2.28444171673129,2.28456998007118,2.28499125521281,2.28428398909435,2.28411788474308,2.28441527997851,2.28465994845514,2.28530614025164,2.2851617556706,2.28600922306316,2.28549995602268,2.28535200973024,2.28579848409056,2.28586250177026,2.28704620626261,2.28663861404738,2.28638778476358,2.28717384212937,2.2873149066133,2.28829713005047,2.28812590533342,2.28839805324526,2.28884124717303,2.2887719884277,2.28949641040363,2.2895721964364,2.28980710002989,2.2902532642111,2.29148129199831,2.29177729114979,2.29208956081703,2.29205869009241,2.29259286074664,2.29539373440459,2.29687704990372,2.32586100359228,2.35787622085785,2.35733297085139,2.35744064394051,2.35811114577356,2.35896531536172,2.35941813144304,2.35982756866289,2.3602160913854,2.36044114163104,2.36085316274706,2.36076766812621,2.36087178922729,2.36068361093646,2.36101514415992,2.36101065257906,2.36123934318356,2.36086441926395,2.3614406834491,2.36152790389211,2.36185056927054,2.36201502128445,2.36231196190919,2.36362339777342,2.36410914999411,2.36545803136124,2.36625637582149,2.3673155169453,2.36967592904528,2.37150706736099
2.31730794094135,2.31779182712915,2.31841336849344,2.31937285682445,2.32023526191492,2.32094297498911,2.32130846899011,2.32216483041366,2.32261532819554,2.32317156555578,2.32318385244517,2.32343164866017,2.32381579059401,2.32395378773706,2.32456512552606,2.32509282188631,2.30804632053211,2.27840374424939,2.27721431014866,2.27542959386248,2.27548671746782,2.27532076741952,2.27565350496047,2.27479649606361,2.27497815358462,2.27486203740372,2.27475728423149,2.2748245495201,2.27500275057451,2.27532902465952,2.2753049332104,2.2754082629276,2.27588542185055,2.27581613268631,2.27602618005181,2.27622685864037,2.2764175151325,2.27683129116526,2.27683097861332,2.27761291215127,2.27777578779256,2.27792629172314,2.27836416494837,2.2785986406569,2.27962204835277,2.27974379623235,2.28056032634532,2.28119295519881,2.28240906956406,2.28368824079218,2.2853378233146,2.30468578497047,2.33896486067245,2.33915027653873,2.34000949451377,2.34104325062953,2.34206848884341,2.34326785743693,2.34325582206725,2.34309196606706,2.33951604447897,2.33978537965806,2.33858862421263,2.34095739422171,2.34275086135501,2.34261913161921,2.34230368616229,2.3422421190677,2.3414697618092,2.34213480823509,2.34324859219919,2.34282184050718,2.34251536236485,2.3423006568275,2.34300610484913,2.34331971775101,2.34367812561999,2.34389733026409,2.34437261706261,2.34595926821284,2.3452337368214,2.34434557570766,2.34368032227217,2.34357520498108,2.34374277391271,2.34362907791543,2.34371822456408,2.34472786714477,2.28954747517769,2.28775129917412,2.28690879764004,2.28671012197648,2.28621621869221,2.28585514367551,2.28452712275628,2.28487703893096,2.28457695815475,2.28442694278598,2.28489506615553,2.28442265275594,2.28483147422877,2.28426588226646,2.28394292927713,2.28369237558731,2.28393519049052,2.28377078180853,2.28381703365304,2.28383059993815,2.28409111167823,2.2841452779975,2.28428467848243,2.28417998803916,2.28437528412668,2.28420686792894,2.28414133801448,2.28406781029597,2.28418518836431,2.28447439407261,2.28474890320877,2.28492356026729,2.28471489137041,2.28513158600906,2.28545927725457,2.28596216871005,2.28594053025221,2.28654476791916,2.28634400358394,2.28627994506427,2.28710625813178,2.28740307573534,2.28794475035841,2.28805835389391,2.2882703189629,2.28858916170222,2.28860874938844,2.28897281638684,2.28928135040881,2.28955129488986,2.29022182148298,2.29017236677947,2.29131955061264,2.29170481903044,2.29235658843738,2.29291579662246,2.29385775801746,2.29429239438228,2.32682181207869,2.35823530817011,2.35748758042289,2.3573063631286,2.35805446028084,2.35869940537069,2.3592313871683,2.35958702170472,2.35993856239885,2.36006616488811,2.36016172555522,2.36033655201727,2.36002484287375,2.3605054171732,2.35977289598546,2.3600842034358,2.35998383958173,2.36008703985115,2.36026208576841,2.36067898898946,2.36115662587179,2.36131176511266,2.36212861886933,2.36254522980687,2.36342857939163,2.365161325591,2.36704671222787,2.36752462846219,2.36901966741203,2.37032348042677
2.31664085333944,2.31735281642812,2.31797653409645,2.31914651149197,2.31995598820743,2.32052940901776,2.32100966599001,2.32113627145364,2.32332789882059,2.32283825254758,2.32308278820534,2.32303512307053,2.32318725450227,2.32335103244038,2.32319857315263,2.32342628679598,2.29919311590681,2.27816362730999,2.27649284024448,2.27563744790658,2.27523026008572,2.27511894713257,2.27488722165231,2.27483730110199,2.274829112026,2.27473640237004,2.27465385616348,2.27471216013748,2.27489379156808,2.27506973364613,2.27513097499956,2.27526381040036,2.27537174803061,2.2755270318952,2.27579119292034,2.27588379616411,2.2763413132126,2.27680530585202,2.27706692884976,2.27749214430854,2.2777274449846,2.27802069483024,2.27843616222222,2.27888211747464,2.27927205442777,2.28034782880545,2.2806646320376,2.28124233541589,2.28235305022989,2.28435990516059,2.28542986494433,2.31762040690109,2.33819518290558,2.33955031446726,2.34028996602465,2.34122545741224,2.34173693518224,2.34217849463085,2.34169997655525,2.34096495893269,2.3391844127283,2.33927500302182,2.33819781366992,2.3400082057831,2.341140882029,2.34125699704745,2.34113910589869,2.3406241405467,2.34017881256064,2.34083218407837,2.34166740894894,2.34171729099228,2.34152109489044,2.34125727010069,2.3419318390651,2.34265661627994,2.34302973098267,2.34334464162967,2.34376545759313,2.34616519116813,2.34379341192077,2.34366617215648,2.34332879329457,2.34349563798338,2.34294922400183,2.3430003446163,2.34314442047077,2.34373448319258,2.28923089116676,2.28781333421887,2.28734538902076,2.28645340186186,2.2860108838462,2.28537099496561,2.28546646377252,2.2844294041158,2.28443640658215,2.28454400489616,2.28387875550253,2.28389940528135,2.28381310356257,2.28389546748086,2.28372378843809,2.28398751297365,2.28362709641096,2.28337150973261,2.28339544950755,2.28373302955125,2.28337558115526,2.28360762683717,2.28375182539224,2.28411615210192,2.28463276145028,2.28398156097384,2.2837737345042,2.28375952373922,2.28402911125704,2.28439742626869,2.2844704387106,2.28416170658601,2.28465783241883,2.28483318790516,2.28525337806233,2.28536138180133,2.28542708430223,2.28600751077502,2.28607403529731,2.2863971751416,2.28631843678312,2.2869664525229,2.28768577493336,2.28772851868987,2.28825561565866,2.28773034403803,2.28791412021785,2.28912603987664,2.28909875305075,2.2893290045145,2.29009863092097,2.29095431216281,2.29103192863384,2.29163014653069,2.2918083975482,2.29270547043152,2.29393899653134,2.29666546768975,2.32700148657282,2.35810557418513,2.35755650234122,2.35665610000337,2.35769391802654,2.35837413141639,2.35893011682295,2.35903553353787,2.35946659531477,2.35956514179813,2.35962216438461,2.35925161034508,2.35925856033474,2.35909175820685,2.3593961960456,2.35940871565858,2.35920291939184,2.35924647553523,2.35940663443091,2.359986050096,2.36046131493053,2.36061857470149,2.36135475239085,2.36182921022931,2.36344993787126,2.36443551053153,2.36533495813612,2.36592317554906,2.36839671789347,2.37070745723214
2.31661461574579,2.31699236378338,2.31740671569112,2.31874366541544,2.31946141153346,2.32032658492229,2.32065660969287,2.32121112839087,2.3226131663963,2.32200594858604,2.32206287340394,2.32246404288528,2.32256544160718,2.32226471604187,2.32330262628684,2.32379740846769,2.29043121506215,2.27738171559941,2.27685136435876,2.27515712191632,2.27530550320285,2.27490981565807,2.27485031826711,2.27492381249214,2.27450223244559,2.27468282624715,2.27454615589997,2.27461806484787,2.27461292201425,2.2751479571915,2.27518875711873,2.27529048257866,2.27572969690101,2.27564441877368,2.27571287613452,2.27628298299141,2.27648088778555,2.27687193139031,2.27698498169033,2.2775878142267,2.27765799076305,2.27804891120634,2.27843961780445,2.27864944497059,2.27957258405091,2.28048517775713,2.28109855451431,2.28157475200511,2.28340246871912,2.28412623674108,2.33631406651229,2.33618033356631,2.3372120126299,2.33860454053001,2.33962089419611,2.34169644177692,2.34135951130574,2.34131116125662,2.34165239638766,2.34159552605485,2.34238212698115,2.33959260200179,2.33802454144588,2.33890352885251,2.34053601475326,2.34060837457199,2.34040652470622,2.34020822067555,2.33975784224674,2.34051308446731,2.34072259908673,2.34086768683553,2.3406078009698,2.34076173287626,2.34259234518287,2.34227258521536,2.34248581259485,2.34281022303779,2.34258205593223,2.3430163053109,2.34284876886499,2.3429293714163,2.34317139408884,2.34300370722543,2.34418691327448,2.3430219694241,2.33345523483225,2.28864086994352,2.28803287456877,2.28719495390073,2.28644954022863,2.28581437218424,2.28513834802033,2.2850955061474,2.28460765717216,2.28453427009101,2.28431357152538,2.28433922810444,2.28417737683344,2.2835421411664,2.2838190369724,2.28369418530241,2.28392483194355,2.28355032898323,2.28325142554022,2.28281962123868,2.28318256361426,2.28326294184136,2.28347712100533,2.28338656929715,2.28409220560086,2.28371164819745,2.28352259713746,2.28395149265239,2.2836034938975,2.28379063873967,2.28377580863903,2.28395237252603,2.28369961625644,2.28424956988864,2.284465053011,2.28465125731393,2.28468109563125,2.285066644003,2.28535186979651,2.28555791665284,2.28567586597521,2.28567227635339,2.28634864401819,2.28685209537077,2.28691653582606,2.28724482460577,2.28727211813573,2.2876888270511,2.28739501410093,2.28843159319741,2.28886731774715,2.28920176792022,2.29011930621981,2.2902739223714,2.29125211592539,2.29161525235074,2.2924941620267,2.29320144494106,2.29418980098986,2.29592302004825,2.32678156820376,2.3571218427253,2.35650891316388,2.35642564513975,2.35696913064047,2.35819137451578,2.35920489023341,2.35904458365948,2.35908518559682,2.35915806956298,2.35912355251249,2.35925720453598,2.35884204232709,2.35902648150644,2.35881652098305,2.35896749849062,2.35889651102857,2.35944736034841,2.36017440664518,2.35951084946006,2.36008959268963,2.36063925792293,2.36067890134059,2.361725891091,2.36317907598834,2.36394656085222,2.36410504344747,2.36603225709844,2.36729543111641,2.36970795834996
2.31606421091402,2.31661064192529,2.31716611937524,2.31794335876153,2.31950213844634,2.31984075932889,2.32055569436676,2.32101188979584,2.32195092845575,2.32163178381933,2.3221764055782,2.32220394756782,2.32238552835837,2.32300095686429,2.32208565056506,2.32338480676509,2.28416140739997,2.27727230389307,2.27581761545923,2.27544083466963,2.27478047026709,2.27479407964085,2.27501569131203,2.27447115260704,2.27475436385752,2.27461085737112,2.27456542892499,2.27461356385378,2.27484759067499,2.27501365203065,2.27527504974353,2.27516918897406,2.27525617170727,2.27576704073726,2.27583088959844,2.27672026607821,2.2765913036912,2.27695233479891,2.27786746427427,2.2773149861053,2.27860441101845,2.27832043393902,2.27849377323363,2.27895633323177,2.27958733596315,2.2810798542324,2.28137854118468,2.28215332865344,2.28302527765337,2.28463425070331,2.33651911051802,2.33628241512493,2.33717115908451,2.33839417247383,2.34004884017578,2.3403998012412,2.34063967196773,2.34064379780105,2.34069538395899,2.33997261250027,2.33870545940056,2.33894988479858,2.3385765496822,2.33952000705901,2.33998411629531,2.33992305388056,2.33960324626426,2.33981582468351,2.33967807275792,2.34037820001042,2.34028984177487,2.34027654907884,2.34034215985474,2.34065609679524,2.34137075580842,2.34145583757386,2.34180216477966,2.34194207063117,2.34222673741248,2.34219098236693,2.34191178231905,2.34219301377114,2.34197963260031,2.34111437319443,2.34169305988922,2.34231194228795,2.32622707743611,2.28919358960081,2.28763536320254,2.28662376880788,2.28570013427675,2.28550538638673,2.28505639814699,2.2846641364687,2.28426406911491,2.28417695637282,2.28401331774493,2.2841844308979,2.28410018153624,2.28378889531121,2.28370597134787,2.28352567612721,2.28327321648937,2.28332767792461,2.28359692361608,2.28303920186278,2.28306703183727,2.28362927276216,2.2831730216282,2.2833386386754,2.28343814933818,2.28353568766016,2.2835638791437,2.28387101836188,2.28365481837499,2.28382736463507,2.28366583091772,2.28353556253443,2.2840912091044,2.2840255818445,2.28465812529986,2.28451916018372,2.28475391801812,2.28498587778653,2.28523829528818,2.28549248826124,2.28549408008986,2.28572825983103,2.28635650436856,2.28655515723742,2.28698378425863,2.28710471660186,2.28747501431962,2.28746640952576,2.28798271520561,2.28857991180888,2.2887266698165,2.28924483445115,2.28949953264362,2.29030056181441,2.29054928116756,2.29162670383807,2.29236479103358,2.2934209998467,2.29476204209469,2.29560854566518,2.32645554845243,2.35723528492805,2.35746005316467,2.35650435839268,2.35650751525704,2.35802435881788,2.36036153436417,2.35856355889848,2.35816866253437,2.35818858960131,2.35862177518701,2.35865691526381,2.35884550753244,2.35803204141445,2.35832325178982,2.35846515614084,2.358520111935,2.3589682385083,2.35913885431389,2.35932291419473,2.35967777485837,2.35991711668145,2.36060545718878,2.36124700919003,2.36313872907219,2.36359531831077,2.36462353611743,2.36546508349887,2.36699471007878,2.36856452002942
