2.32056500159498,2.31847078185714,2.31889959827965,2.3187200937307,2.31962758895042,2.31807188285946,2.3190292404539,2.31884973590494,2.31888962580471,2.31947800182629,2.32108357029197,2.31980709349938,2.32054505664509,2.32098384554255,2.32168191878849,2.32179161601285,2.32091403821795,2.32810419265118,2.32271905618247,2.32511245016856,2.32591024816393,2.32679779843377,2.32711691763192,2.32700722040756,2.32729642218088,2.32729642218088,2.32798452295188,2.32938066944377,2.32843328432427,2.27688556134871,2.27749388232018,2.27548941485682,2.27455200221227,2.27362456204265,2.27351486481829,2.27434258023848,2.27349491986841,2.27399354361551,2.27404340599022,2.274252827964,2.27423288301412,2.27429271786377,2.2748910663603,2.27561905703107,2.27472153428628,2.27525007545821,2.27600798355381,2.27628721285219,2.27670605679975,2.27640688255149,2.27631713027701,2.27708501084755,2.27786286389303,2.27793267121763,2.277523799745,2.27824181794083,2.27887008386218,2.27959807453295,2.28036595510349,2.28179201902021,2.28267956929005,2.2842552203309,2.28557158702325,2.2889722009785,2.34720148216525,2.34664302356849,2.34630395942046,2.34684247306733,2.34788958293625,2.34834831678359,2.34834831678359,2.34918600467872,2.3475206013634,2.34762032611282,2.34689233544205,2.34864749103185,2.34835828925853,2.34843806905807,2.3487771332061,2.34861757360702,2.34905636250447,2.34905636250447,2.34893669280517,2.34920594962861,2.34963476605111,2.35046248147131,2.35058215117061,2.35068187592003,2.35118049966714,2.35087135294393,2.35030292187223,2.35109074739266,2.35211791231169,2.35102094006806,2.28922151285205,2.28864310930541,2.28633946759379,2.28562144939796,2.28620982541955,2.28506299080121,2.2849433211019,2.28441477992997,2.28371670668403,2.28398596350746,2.28393610113275,2.28485356882742,2.28388623875804,2.28503307337638,2.28328789026152,2.28407571578194,2.2837565965838,2.28450453220445,2.28484359635248,2.28485356882742,2.28405577083206,2.2845643670541,2.28594056859611,2.28668850421677,2.28543197237406,2.28510288070098,2.28460425695387,2.28545191732395,2.28493334862696,2.28679820144113,2.28621979789449,2.2867682840163,2.28663864184206,2.28754613706178,2.28766580676109,2.28757605448661,2.28832399010726,2.29024867777108,2.28964035679962,2.28901209087827,2.28964035679962,2.29009909064695,2.29034840252051,2.29188416366158,2.29170465911263,2.29272185155672,2.293190557879,2.29364929172633,2.29517508039247,2.29695018093216,2.36158179103171,2.36148206628229,2.3614122589577,2.3614122589577,2.3622898367526,2.36385551531851,2.36372587314426,2.36366603829461,2.36395524006793,2.364802900438,2.36488268023754,2.36585998278186,2.36552091863383,2.36591981763152,2.3670068174002,2.36560069843337,2.36579017545727,2.36687717522595,2.3676949181712,2.36790434014499,2.36905117476333,2.37035756898074,2.37186341269699,2.37105564222668,2.37383796273552,2.3740473847093,2.3771288794664,2.37696931986733,2.37802640221119,2.38268354800914,2.38187577753883,2.3821051444625
2.31797215811004,2.31820152503371,2.31877992858035,2.31838102958267,2.31731397476386,2.3175832315873,2.31736383713857,2.3185306167068,2.31785248841074,2.31819155255877,2.319527864201,2.31878990105529,2.31983701092421,2.32100379049243,2.32107359781702,2.32152235918942,2.32129299226575,2.32098384554255,2.32442434939756,2.32433459712308,2.32472352364582,2.32554126659107,2.32638892696115,2.32689752318319,2.32638892696115,2.3273263396057,2.32718672495651,2.32715680753169,2.32761554137902,2.27724457044662,2.27547944238188,2.27539966258234,2.27391376381597,2.27322566304497,2.2739436812408,2.27300626859624,2.27349491986841,2.2736345345176,2.27330544284451,2.27402346104034,2.27390379134103,2.2741331582647,2.27429271786377,2.27507057090925,2.27478136913593,2.27555922218141,2.27618748810277,2.27625729542736,2.27658638710045,2.27673597422458,2.27669608432481,2.27707503837261,2.27703514847284,2.27763349696937,2.2779027537928,2.27937868008423,2.27901967098631,2.27958810205801,2.28042578995314,2.28226072534249,2.28284910136407,2.28446464230468,2.28568128424762,2.34397040028402,2.34446902403112,2.34624412457081,2.3460047851722,2.34662307861861,2.34682252811745,2.34614439982139,2.34781977561166,2.34684247306733,2.34624412457081,2.34654329881907,2.34902644507965,2.34816881223463,2.34712170236571,2.34777988571189,2.34780980313672,2.34741090413903,2.34882699558081,2.34838820668336,2.34783972056154,2.34826853698405,2.34969460090077,2.34907630745436,2.35016330722304,2.34970457337571,2.35193840776273,2.34918600467872,2.34918600467872,2.3469521702917,2.35101096759312,2.35294562773188,2.28822426535784,2.28699765093997,2.28792509110958,2.2855117521736,2.28574111909727,2.28509290822603,2.28524249535017,2.28499318347661,2.28403582588217,2.28410563320677,2.28376656905874,2.28457433952905,2.28431505518055,2.28384634885828,2.28361698193461,2.28359703698472,2.28372667915897,2.28366684430932,2.28431505518055,2.28402585340723,2.28433500013044,2.28442475240492,2.28389621123299,2.28518266050051,2.28510288070098,2.28528238524993,2.28516271555063,2.28561147692302,2.28600040344576,2.28621979789449,2.28622977036943,2.28625968779426,2.28718712796387,2.28700762341491,2.28712729311422,2.28713726558916,2.28786525625993,2.28843368733163,2.28906195325298,2.2887827239546,2.29057776944417,2.29000933837247,2.29015892549661,2.29182432881193,2.29214344801008,2.29201380583583,2.29479612634467,2.2946365667456,2.29630197006092,2.30033084993752,2.29792748347648,2.36207044230388,2.36108316728461,2.36067429581199,2.36175132310573,2.362738598125,2.36313749712268,2.36307766227303,2.3639951299677,2.36490262518742,2.36476301053824,2.36444389134009,2.36647827622827,2.36471314816353,2.36453364361457,2.36569045070785,2.36639849642874,2.36606940475565,2.36793425756981,2.36765502827144,2.36963955078491,2.36943012881112,2.37243184376869,2.37145454122436,2.37345900868772,2.37512441200305,2.37490501755432,2.37752777846409,2.37882420020656,2.37837543883416,2.38199544723813,2.381845860114
2.31730400228892,2.31814169018406,2.31862036898127,2.31767298386178,2.31688515834135,2.31798213058498,2.31715441516479,2.31716438763973,2.31714444268985,2.31765303891189,2.31879987353023,2.31858047908151,2.31891954322954,2.32007635032282,2.32099381801749,2.32105365286714,2.32150241423953,2.32186142333745,2.32333734962887,2.3237462211015,2.32515234006833,2.32482324839524,2.32513239511845,2.32523211986787,2.32610969766277,2.32614958756254,2.32687757823331,2.32727647723099,2.32897179797114,2.27974766165708,2.27488109388535,2.27455200221227,2.2736345345176,2.2741331582647,2.27373425926702,2.27323563551991,2.27288659889694,2.27326555294474,2.27442236003802,2.27341514006887,2.2740633509401,2.27408329588999,2.27429271786377,2.27500076358466,2.27521018555844,2.27573872673037,2.27564897445589,2.27564897445589,2.27560908455613,2.27682572649906,2.27671602927469,2.27789278131786,2.27857090961392,2.2777132767689,2.27807228586682,2.27868060683828,2.27958810205801,2.27986733135639,2.2804856248028,2.28204133089376,2.28396601855758,2.28515274307569,2.34238477676823,2.34356152881139,2.34448896898101,2.34520698717684,2.34575547329865,2.34585519804807,2.34522693212672,2.34557596874969,2.34689233544205,2.34664302356849,2.34665299604344,2.34617431724622,2.34662307861861,2.34578539072348,2.34608456497174,2.34622417962093,2.34667294099332,2.34711172989077,2.34744082156386,2.34698208771652,2.34719150969031,2.34825856450911,2.34784969303648,2.34822864708428,2.34781977561166,2.34857768370725,2.34837823420841,2.35024308702258,2.34985416049984,2.34673277584297,2.34696214276664,2.34935553675274,2.28682811886595,2.28605026582047,2.2857012291975,2.28543197237406,2.28480370645271,2.28408568825688,2.28417544053136,2.28409566073183,2.28448458725457,2.28355714708496,2.28367681678426,2.28395604608264,2.2837565965838,2.28432502765549,2.28402585340723,2.28388623875804,2.28355714708496,2.28386629380816,2.28365687183438,2.28405577083206,2.28341753243577,2.28443472487986,2.28396601855758,2.28408568825688,2.28420535795619,2.2851327981258,2.28484359635248,2.2845643670541,2.28502310090144,2.28612007314507,2.28620982541955,2.28595054107105,2.28605026582047,2.28704751331468,2.28732674261306,2.2877156691358,2.28817440298313,2.28864310930541,2.28792509110958,2.28854338455599,2.28927137522676,2.28972013659916,2.28995947599776,2.29102653081657,2.2921733654349,2.29158498941332,2.29192405356135,2.29622219026139,2.29415788794838,2.29734907992984,2.36112305718438,2.35940779149434,2.35954740614353,2.3606543508621,2.36119286450897,2.36174135063079,2.3622898367526,2.36257903852592,2.36541122140947,2.36358625849507,2.36345661632082,2.36450372618974,2.36426438679113,2.36633866157908,2.36385551531851,2.36375579056909,2.36491259766237,2.36592979010646,2.36569045070785,2.36542119388441,2.36633866157908,2.36760516589673,2.37021795433155,2.37121520182575,2.37109553212645,2.37150440359908,2.37361856828679,2.3751842468527,2.37820590676015,2.38050954847176,2.3815367133908,2.38079875024509
2.31615716767058,2.31716438763973,2.31702477299054,2.31652614924344,2.31652614924344,2.31630675479472,2.31585799342232,2.31621700252024,2.31634664469448,2.31710455279008,2.32017607507224,2.31821149750865,2.3184608093822,2.31920874500286,2.32027579982166,2.32100379049243,2.3213528271154,2.32252957915857,2.3230581203305,2.3230581203305,2.32421492742378,2.32446423929733,2.32439443197273,2.32484319334513,2.32503267036903,2.32621939488713,2.32766540375373,2.32787482572752,2.32902166034585,2.27643679997632,2.27479134161088,2.27459189211203,2.27362456204265,2.27460186458698,2.27370434184219,2.27298632364636,2.27288659889694,2.27341514006887,2.27341514006887,2.27385392896632,2.27443233251296,2.27407332341505,2.27513040575891,2.27435255271342,2.27495090120995,2.2753896901074,2.27556919465636,2.27603790097863,2.27677586412435,2.27621740552759,2.27605784592852,2.27690550629859,2.27781300151832,2.27792269874269,2.27814209319141,2.27875041416288,2.27942854245894,2.28038590005338,2.28099422102484,2.28289896373878,2.28455439457916,2.34381084068495,2.34234488686846,2.34239474924317,2.34530671192626,2.34480808817915,2.3461942621961,2.34559591369958,2.34587514299795,2.34444907908124,2.34482803312904,2.34517706975201,2.34501751015294,2.34541640915062,2.3454363541005,2.34603470259703,2.34514715232718,2.34575547329865,2.34564577607429,2.34633387684529,2.34622417962093,2.34677266574274,2.34636379427012,2.34749068393857,2.34717156474042,2.34684247306733,2.34691228039193,2.34680258316757,2.34725134453996,2.34787961046131,2.34718153721537,2.34805911501027,2.34604467507197,2.34575547329865,2.286648614317,2.28531230267476,2.28543197237406,2.2848236514026,2.28417544053136,2.28448458725457,2.28392612865781,2.28300866096314,2.28314827561233,2.2835671195599,2.28319813798704,2.28348733976036,2.2831183581875,2.28304855086291,2.28297874353832,2.2835671195599,2.28308844076268,2.28252998216592,2.28333775263623,2.28359703698472,2.28347736728542,2.28343747738565,2.28352722966013,2.28401588093229,2.28374662410885,2.284065743307,2.28473389912812,2.28534222009959,2.28488348625225,2.28642921986827,2.28497323852673,2.28581092642186,2.2864591372931,2.28656883451746,2.28692784361538,2.288024815859,2.28754613706178,2.28780542141028,2.28860321940564,2.28886250375414,2.28919159542723,2.28903203582815,2.29000933837247,2.29012900807178,2.29115617299081,2.2911761179407,2.29121600784047,2.29432742002239,2.29660114430918,2.29705987815652,2.36089369026071,2.35732354423145,2.36010586474029,2.36101335996002,2.3623596440772,2.36136239658299,2.3612227819338,2.36207044230388,2.3623596440772,2.36295799257372,2.36299788247349,2.36288818524913,2.36566053328302,2.36288818524913,2.36281837792453,2.36300785494843,2.36334691909646,2.36331700167164,2.366697670677,2.36668769820206,2.36620901940484,2.36736582649812,2.36689712017584,2.3682633492429,2.37319972433923,2.37180357784734,2.37458589835617,2.37309002711486,2.37519421932764,2.37724854916571,2.3782657416098,2.38321208918107
2.31605744292116,2.3160674153961,2.31523969997591,2.31684526844159,2.31536934215016,2.3146912138541,2.31531947977545,2.31508014037684,2.31538928710004,2.31573832372302,2.31656603914321,2.31700482804066,2.31749347931282,2.31861039650633,2.32000654299822,2.32171183621332,2.3226093589581,2.32156224908919,2.32224037738525,2.32297834053096,2.32369635872679,2.32440440444768,2.32430467969826,2.32403542287482,2.32375619357644,2.3263290921115,2.32472352364582,2.32788479820246,2.32594016558875,2.27678583659929,2.27453205726238,2.27360461709277,2.27385392896632,2.27296637869648,2.2731857731452,2.27371431431713,2.27310599334567,2.27300626859624,2.27304615849601,2.27333536026933,2.27319574562014,2.2741331582647,2.27374423174196,2.27405337846516,2.27448219488767,2.27468164438651,2.27516032318373,2.27521018555844,2.27697531362319,2.2766462219501,2.27648666235103,2.27672600174964,2.27678583659929,2.27764346944431,2.27787283636798,2.27891994623689,2.28069504677658,2.27964793690766,2.2820513033687,2.28296877106337,2.28452447715434,2.34227507954387,2.34220527221927,2.3421653823195,2.34375100583529,2.34513717985224,2.34553607884992,2.34517706975201,2.34472830837962,2.34392053790931,2.34408009750838,2.34460863868031,2.34898655517988,2.34393051038425,2.34448896898101,2.34408009750838,2.34425960205734,2.34388064800954,2.34397040028402,2.34483800560398,2.34514715232718,2.34528676697637,2.34589508794784,2.34636379427012,2.3456258311244,2.34651338139425,2.34607459249679,2.34623415209587,2.34658318871884,2.34565574854923,2.34736104176432,2.34610450992162,2.34468841847985,2.2876458618112,2.28627963274414,2.28607021077036,2.28447461477963,2.28422530290607,2.28348733976036,2.28320811046198,2.28308844076268,2.28255989959075,2.28353720213507,2.2831881655121,2.28323802788681,2.28291890868866,2.28259978949052,2.28305852333785,2.28307846828774,2.28275934908959,2.28357709203484,2.28339758748588,2.28342750491071,2.28344744986059,2.28358706450978,2.28345742233553,2.28310838571256,2.28329786273646,2.28414552310654,2.28321808293693,2.28333775263623,2.28432502765549,2.28414552310654,2.28496326605179,2.28476381655295,2.2851327981258,2.28542199989912,2.2871472380641,2.28500315595156,2.28681814639101,2.28673836659148,2.28680817391607,2.28812454060842,2.28846360475645,2.28804476080889,2.2882841002075,2.28917165047734,2.28956057700008,2.29015892549661,2.2914852646639,2.29390857607482,2.29278168640637,2.29610252056208,2.29826654762451,2.35673516820987,2.36050476373797,2.36237958902708,2.35934795664469,2.35907869982126,2.36064437838716,2.36074410313658,2.36132250668322,2.36196074507951,2.36224994685283,2.36197071755446,2.36258901100086,2.36270868070017,2.36180118548044,2.36246934130156,2.36260895595075,2.36215022210341,2.36175132310573,2.36397518501781,2.36410482719206,2.3643042766909,2.36652813860298,2.36628879920437,2.36787442272016,2.36860241339093,2.36956974346031,2.37320969681417,2.37332936651347,2.37523410922741,2.3759421549483,2.37698926481721,2.38375060282794
2.31561865402371,2.31634664469448,2.31523969997591,2.31602752549634,2.31406294793275,2.31424245248171,2.31506019542696,2.31520978255109,2.31480091107846,2.31509011285178,2.31645634191885,2.31647628686873,2.31776273613626,2.31760317653718,2.31801204800981,2.31894946065436,2.31999657052328,2.32092401069289,2.32131293721563,2.32164202888872,2.3224198819342,2.32273900113235,2.32335729457876,2.32347696427806,2.32322765240451,2.32395564307528,2.32423487237366,2.32465371632123,2.27630715780207,2.27409326836493,2.27398357114057,2.27544952495705,2.27397359866563,2.27327552541968,2.27348494739346,2.27373425926702,2.2729962961213,2.27289657137188,2.27335530521922,2.27340516759393,2.27332538779439,2.27338522264404,2.27405337846516,2.27422291053918,2.27426280043895,2.27661630452527,2.27536974515752,2.27689553382365,2.2755791671313,2.27639691007655,2.27611768077817,2.27670605679975,2.27735426767099,2.27796258864245,2.27793267121763,2.27923906543504,2.27982744145662,2.28095433112507,2.28168232179585,2.28342750491071,2.28470398170329,2.3438706755346,2.34214543736962,2.34208560251997,2.34306290506429,2.3443692992817,2.34561585864946,2.34507734500259,2.3436811985107,2.34323243713831,2.3431825747636,2.34367122603576,2.34320251971348,2.34304296011441,2.34327232703807,2.34364130861093,2.34383078563483,2.34281359319074,2.3434219141622,2.34411001493321,2.3452468770766,2.34490781292857,2.34491778540351,2.34520698717684,2.34591503289772,2.34514715232718,2.34522693212672,2.34479811570421,2.34507734500259,2.34500753767799,2.34572555587382,2.34432940938193,2.3416667585724,2.28659875194229,2.28614001809495,2.28560150444808,2.28507296327615,2.28392612865781,2.28303857838797,2.28335769758611,2.28334772511117,2.28328789026152,2.28284910136407,2.28370673420909,2.28244022989144,2.28304855086291,2.28298871601326,2.28288899126384,2.28278926651442,2.28220089049283,2.28313830313739,2.28331780768635,2.28247014731627,2.28245020236639,2.28290893621372,2.28300866096314,2.28322805541187,2.28316822056221,2.28390618370793,2.28348733976036,2.2834973122353,2.28360700945967,2.28505301832627,2.28477378902789,2.28420535795619,2.28443472487986,2.28541202742418,2.28567131177267,2.28642921986827,2.28635941254368,2.28632949511885,2.28728685271329,2.28726690776341,2.28858327445576,2.28767577923603,2.28829407268244,2.28864310930541,2.28901209087827,2.2891616780024,2.28970019164927,2.29150520961379,2.29616235541173,2.29473629149502,2.30027101508787,2.35746315888064,2.35924823189527,2.35823103945118,2.35826095687601,2.35894905764701,2.35959726851824,2.36098344253519,2.36001611246581,2.3611031122345,2.36157181855677,2.36132250668322,2.36144217638253,2.3602753968143,2.36134245163311,2.36062443343728,2.36083385541106,2.36083385541106,2.36238956150202,2.36260895595075,2.36305771732314,2.36326713929693,2.36409485471712,2.37009828463224,2.36654808355287,2.36846279874174,2.3702777891812,2.37341911878795,2.37301024731533,2.37353878848726,2.37751780598914,2.37695934739239,2.37803637468613
2.31483082850329,2.31357429666059,2.31340476458657,2.31367402141001,2.31354437923576,2.31345462696128,2.31384355348402,2.31505022295201,2.31422250753182,2.31468124137916,2.31498041562742,2.31552890174923,2.31647628686873,2.31752339673765,2.31844086443232,2.31812174523417,2.31964753390031,2.32023590992189,2.32113343266668,2.32150241423953,2.32202098293652,2.32228026728502,2.32220048748548,2.32321767992957,2.32266919380776,2.32325756982934,2.32477338602053,2.27707503837261,2.27643679997632,2.27480131408582,2.2758883138545,2.27352483729323,2.27314588324543,2.2738738739162,2.27295640622153,2.27440241508813,2.27320571809509,2.27321569057003,2.27324560799485,2.27367442441736,2.27312593829555,2.27369436936725,2.273564727193,2.27384395649138,2.27454202973732,2.27509051585914,2.27562902950601,2.27526004793315,2.27580853405497,2.27615757067794,2.27650660730091,2.27662627700022,2.27680578154917,2.2770251759979,2.2786606618884,2.27907950583597,2.28019642302948,2.28106402834944,2.28298871601326,2.28535219257453,2.33907391508746,2.33911380498723,2.34068945602808,2.34110829997564,2.34489784045363,2.34605464754691,2.3452468770766,2.3451272073773,2.34351166643668,2.34402026265873,2.34297315278981,2.34264406111672,2.3421653823195,2.34233491439352,2.34175651084688,2.34195596034572,2.34246455656777,2.34289337299027,2.34263408864178,2.34324240961325,2.34304296011441,2.34272384091626,2.34437927175664,2.34500753767799,2.34437927175664,2.34302301516452,2.34554605132487,2.34356152881139,2.34540643667568,2.34634384932023,2.34378092326012,2.34626406952069,2.34259419874201,2.28605026582047,2.28509290822603,2.28395604608264,2.28446464230468,2.28409566073183,2.28374662410885,2.28291890868866,2.28302860591303,2.28285907383901,2.28286904631395,2.28277929403947,2.28251003721604,2.28351725718519,2.28259978949052,2.2824302574165,2.28220089049283,2.28241031246662,2.2823105877172,2.28225075286754,2.28271945918982,2.28270948671488,2.28257984454063,2.28278926651442,2.28289896373878,2.28345742233553,2.28296877106337,2.28341753243577,2.28357709203484,2.28323802788681,2.28557158702325,2.28439483498009,2.28411560568171,2.28512282565086,2.28557158702325,2.28479373397777,2.28694778856526,2.28611010067012,2.28685803629078,2.28667853174182,2.28720707291375,2.2871472380641,2.28756608201167,2.28905198077804,2.28835390753209,2.28825418278267,2.29026862272097,2.29008911817201,2.29064757676877,2.29241270483351,2.29527480514189,2.29675073143331,2.35982663544191,2.35963715841801,2.3570044250333,2.35873963567322,2.35869974577346,2.35887925032241,2.3590188649716,2.35991638771639,2.35933798416975,2.36031528671407,2.35995627761616,2.35999616751593,2.36017567206488,2.35985655286674,2.36007594731546,2.36067429581199,2.36044492888832,2.36100338748507,2.36193082765469,2.36208041477882,2.36253914862615,2.36406493729229,2.36294802009878,2.36657800097769,2.36664780830229,2.36766500074638,2.37057696342946,2.37039745888051,2.3743066690578,2.37495487992903,2.37749786103926,2.37733830144019
2.31328509488727,2.31366404893507,2.31294603073924,2.31275655371534,2.31282636103993,2.31284630598982,2.31302581053877,2.31323523251256,2.31338481963669,2.31353440676082,2.31432223228124,2.31466129642927,2.31595771817174,2.31685524091653,2.31766301138684,2.31888962580471,2.31877992858035,2.32050516674533,2.32042538694579,2.32093398316784,2.32107359781702,2.32157222156413,2.32179161601285,2.32255949658339,2.32737620198041,2.32388583575069,2.32243982688409,2.32809422017624,2.27667613937493,2.27429271786377,2.27401348856539,2.27519024060856,2.27292648879671,2.27271706682292,2.27276692919764,2.27269712187304,2.27258742464868,2.27295640622153,2.27312593829555,2.27361458956771,2.27392373629092,2.27379409411667,2.27384395649138,2.27447222241273,2.27483123151064,2.27495090120995,2.2750107360596,2.27522015803338,2.27515035070879,2.27613762572806,2.27545949743199,2.2762672679023,2.27729443282134,2.27780302904338,2.27910942326079,2.27931884523458,2.28043576242809,2.28189174376963,2.2835671195599,2.28495329357684,2.33780741076982,2.33980190575823,2.33997143783225,2.34045011662947,2.34131772194943,2.34167673104734,2.34439921670653,2.34433938185688,2.34214543736962,2.34155706134804,2.34189612549607,2.34098863027634,2.34118807977518,2.34151717144827,2.34145733659862,2.34167673104734,2.34194598787078,2.34252439141742,2.34176648332182,2.34194598787078,2.34234488686846,2.34226510706892,2.34371111593552,2.3431825747636,2.34340196921232,2.34351166643668,2.34390059295942,2.34192604292089,2.34001132773202,2.3421653823195,2.34393051038425,2.34469839095479,2.28609015572024,2.28627963274414,2.2846341743787,2.28470398170329,2.28333775263623,2.28353720213507,2.28270948671488,2.28226072534249,2.28284910136407,2.28313830313739,2.28302860591303,2.28273940413971,2.28230061524225,2.28239036751673,2.28275934908959,2.28210116574341,2.28228067029237,2.28249009226615,2.28263967939029,2.28168232179585,2.28229064276731,2.28353720213507,2.28234050514202,2.28295879858843,2.28281918393924,2.28319813798704,2.28293885363855,2.28321808293693,2.28338761501094,2.2838762662831,2.28385632133322,2.28359703698472,2.28427516528078,2.28488348625225,2.28386629380816,2.28480370645271,2.28515274307569,2.28583087137175,2.28618988046966,2.28631952264391,2.2872170453887,2.2876458618112,2.28768575171097,2.28833396258221,2.28906195325298,2.28923148532699,2.28982983382352,2.29160493436321,2.28993953104788,2.29168471416274,2.29092680606715,2.29860561177254,2.35608695733863,2.35371350830242,2.35597726011427,2.3586399109238,2.35812134222682,2.35890916774724,2.35898894754678,2.3595872960433,2.35945765386905,2.35963715841801,2.35881941547276,2.35932801169481,2.35928812179504,2.35969699326766,2.35923825942033,2.35990641524145,2.35960724099318,2.36106322233473,2.36026542433936,2.36119286450897,2.36308763474797,2.36414471709183,2.36412477214194,2.36482284538789,2.36954979851043,2.37051712857981,2.37020798185661,2.37107558717657,2.37307008216498,2.37390777006011,2.37565295317498,2.37678981531837
2.31194878324503,2.31169947137148,2.31237759966754,2.31344465448634,2.31263688401603,2.31206845294433,2.31215820521881,2.31227787491812,2.31277649866522,2.31314548023808,2.31417264515711,2.31451170930514,2.31506019542696,2.31643639696896,2.31832119473301,2.31762312148707,2.31855056165668,2.31881981848012,2.3195976715256,2.32039546952096,2.32095392811772,2.32127304731587,2.32177167106297,2.32226032233513,2.32311795518015,2.32236004708455,2.32472352364582,2.27656644215056,2.27600798355381,2.27473150676122,2.27303618602107,2.27254753474891,2.27304615849601,2.27255750722385,2.27221844307582,2.27269712187304,2.27291651632177,2.27300626859624,2.27293646127165,2.27281679157235,2.27398357114057,2.27349491986841,2.27412318578976,2.27437249766331,2.27474147923616,2.27485117646053,2.27474147923616,2.27513040575891,2.2753896901074,2.27594814870416,2.27637696512666,2.27737421262087,2.27682572649906,2.27786286389303,2.27887008386218,2.27963796443272,2.28051554222762,2.28118369804874,2.28347736728542,2.33885452063874,2.33748829157167,2.33747831909673,2.33824619966727,2.34111827245059,2.34124791462483,2.34217535479445,2.33630156705357,2.34149722649838,2.3414772815485,2.34111827245059,2.34073931840279,2.34209557499491,2.34026063960557,2.34045011662947,2.34062962117842,2.34131772194943,2.3419759052956,2.33723897969812,2.34053986890395,2.3412878045246,2.34183629064642,2.34225513459398,2.34187618054618,2.3422351896441,2.34286345556545,2.34267397854155,2.34277370329097,2.34300307021464,2.34037033682993,2.34162686867263,2.34029055703039,2.28756608201167,2.28596051354599,2.28525246782511,2.28326794531164,2.28416546805642,2.28298871601326,2.28293885363855,2.28255989959075,2.28229064276731,2.28227069781743,2.28191168871951,2.28245020236639,2.28160254199631,2.2823105877172,2.2822407803926,2.28210116574341,2.28239036751673,2.28161251447125,2.28322805541187,2.28222083544272,2.28221086296778,2.28306849581279,2.28247014731627,2.28208122079353,2.28194160614434,2.2825000647411,2.28230061524225,2.28298871601326,2.28307846828774,2.28347736728542,2.28328789026152,2.28327791778658,2.28352722966013,2.28457433952905,2.28441477992997,2.2836867892592,2.28455439457916,2.2850131284265,2.28637935749356,2.28630955016897,2.28675831154136,2.28677825649124,2.28728685271329,2.28662866936711,2.28773561408568,2.28816443050819,2.28842371485669,2.29020878787132,2.29027859519591,2.29021876034626,2.29075727399313,2.29367920915116,2.29718952033077,2.35499995756995,2.35942773644423,2.35469081084674,2.35516948964396,2.35681494800941,2.3578321404535,2.35780222302867,2.35762271847971,2.3581412871767,2.35804156242728,2.35874960814817,2.35797175510269,2.35849032379967,2.35905875487137,2.35837065410037,2.35915847962079,2.35929809426998,2.35913853467091,2.35926817684515,2.36023550691454,2.36268873575028,2.36187099280504,2.3628582678243,2.36493254261225,2.36911100961298,2.36619904692989,2.37349889858749,2.37100577985197,2.37098583490209,2.3726711831673,2.37395763243482,2.3754933935759
2.31125070999909,2.31145015949793,2.3119886731448,2.31250724184179,2.31110112287495,2.31115098524966,2.31116095772461,2.31139032464827,2.31192883829515,2.31253715926661,2.3132452049875,2.31404300298286,2.3146214065295,2.31586796589726,2.31653612171838,2.31797215811004,2.3183411396829,2.31938824955181,2.31996665309845,2.32052511169521,2.32013618517247,2.32069464376923,2.32150241423953,2.32179161601285,2.32218054253559,2.3218015884878,2.32261933143305,2.27666616689998,2.27447222241273,2.27329547036956,2.27355475471806,2.27449216736261,2.27237800267489,2.27251761732408,2.27265723197327,2.27266720444821,2.27273701177281,2.27278687414752,2.272876626422,2.27339519511899,2.27331541531945,2.27374423174196,2.27439244261319,2.27336527769416,2.27450213983756,2.27532985525775,2.27443233251296,2.27536974515752,2.27560908455613,2.27559911208118,2.27536974515752,2.27669608432481,2.27736424014593,2.27798253359234,2.27889002881207,2.27996705610581,2.28094435865013,2.28316822056221,2.28453444962928,2.3369497779248,2.33738856682225,2.33766779612063,2.3389642178631,2.34186620807124,2.34098863027634,2.34203574014526,2.33668052110136,2.33572316350693,2.33712928247376,2.33960245625939,2.34111827245059,2.34000135525707,2.3394628416102,2.33879468578908,2.33971215348375,2.34108835502576,2.34053986890395,2.34082907067727,2.34035039188005,2.34087893305198,2.34100857522622,2.34189612549607,2.34182631817147,2.34065953860325,2.34346180406197,2.34208560251997,2.34101854770117,2.34142741917379,2.34187618054618,2.34214543736962,2.33621181477909,2.28755610953673,2.28500315595156,2.28469400922835,2.28535219257453,2.284065743307,2.28335769758611,2.28196155109422,2.28240033999168,2.2818618263448,2.28296877106337,2.28262970691534,2.28265962434017,2.28218094554295,2.28175212912044,2.28128342279816,2.28165240437102,2.28203135841882,2.28187179881975,2.28173218417056,2.28171223922067,2.28169229427079,2.28181196397009,2.28217097306801,2.28152276219677,2.28177207407032,2.28328789026152,2.28144298239724,2.28270948671488,2.28322805541187,2.28291890868866,2.28325797283669,2.28454442210422,2.28419538548125,2.28367681678426,2.2853920824743,2.28421533043113,2.2853222751497,2.2857012291975,2.28563142187291,2.28597048602094,2.28609015572024,2.28648905471792,2.28677825649124,2.28652894461769,2.28800487090912,2.28770569666086,2.28834393505715,2.28886250375414,2.2898497787734,2.29042818232004,2.29134565001471,2.29165479673792,2.291983888411,2.35611687476346,2.35495009519524,2.35462100352215,2.35709417730778,2.35655566366091,2.35691467275883,2.35748310383052,2.35739335155605,2.35878949804794,2.35756288363006,2.35765263590454,2.35892911269712,2.35765263590454,2.35727368185674,2.35789197530315,2.35816123212658,2.35816123212658,2.35899892002172,2.35899892002172,2.35991638771639,2.36031528671407,2.36090366273565,2.36123275440874,2.36498240498696,2.36387546026839,2.36762511084661,2.36775475302086,2.37005839473247,2.37263129326753,2.37372826551116,2.37519421932764,2.37504463220351
2.31106123297519,2.31086178347634,2.31061247160279,2.31058255417797,2.3107321413021,2.31105126050024,2.31089170090117,2.31122079257426,2.31140029712322,2.31176927869607,2.3125571042165,2.31345462696128,2.31439203960584,2.31506019542696,2.31602752549634,2.31714444268985,2.31766301138684,2.31811177275923,2.31766301138684,2.31976720359961,2.32046527684556,2.32041541447085,2.32112346019173,2.32072456119405,2.3204752493205,2.32212070768594,2.32172180868826,2.2769553686733,2.27374423174196,2.27322566304497,2.27312593829555,2.2728068190974,2.27243783752455,2.27293646127165,2.2726173420735,2.27229822287536,2.2724976723742,2.27253756227397,2.2729962961213,2.27315585572038,2.27319574562014,2.2737542042169,2.27353480976817,2.27332538779439,2.27403343351528,2.27502070853454,2.27521018555844,2.27514037823385,2.27506059843431,2.27631713027701,2.27637696512666,2.27707503837261,2.2781620381413,2.27846121238956,2.27944848740882,2.28031609272878,2.28184188139492,2.28320811046198,2.33407770514148,2.3356932460821,2.33742845672202,2.33809661254314,2.33873485093943,2.33999138278213,2.3389642178631,2.33714922742364,2.33817639234268,2.33502509026098,2.33892432796333,2.3383957867914,2.33872487846449,2.33960245625939,2.3376378786958,2.33824619966727,2.33883457568885,2.33890438301345,2.33907391508746,2.34049997900418,2.33734867692248,2.34001132773202,2.34101854770117,2.34156703382298,2.34036036435499,2.34091882295174,2.34050995147912,2.34169667599723,2.34044014415453,2.34019083228097,2.34036036435499,2.34019083228097,2.34060967622854,2.2863893299685,2.28572117414738,2.28424524785596,2.2850131284265,2.28307846828774,2.28196155109422,2.28273940413971,2.28241031246662,2.28096430360002,2.28206127584364,2.2818618263448,2.28130336774805,2.28199146851905,2.2818618263448,2.28218094554295,2.28252998216592,2.28116375309886,2.28198149604411,2.28178204654527,2.28135323012276,2.28135323012276,2.28169229427079,2.28230061524225,2.28210116574341,2.28217097306801,2.28192166119446,2.28229064276731,2.2829288811636,2.28294882611349,2.28260976196546,2.28314827561233,2.28312833066245,2.28334772511117,2.28335769758611,2.28346739481048,2.28431505518055,2.2846341743787,2.28497323852673,2.28472392665318,2.28647908224298,2.28594056859611,2.28602034839565,2.28597048602094,2.2887827239546,2.28781539388522,2.28818437545808,2.28837385248198,2.28869297168012,2.2896603017495,2.29008911817201,2.29113622804093,2.29359942935162,2.29717954785582,2.3561268472384,2.35551852626694,2.35582767299014,2.35451130629779,2.35677505810964,2.35878949804794,2.35820112202635,2.35771247075419,2.35758282857994,2.35721384700709,2.3571939020572,2.35737340660616,2.35692464523377,2.35615676466323,2.35607698486369,2.35696453513354,2.35824101192612,2.36069424076187,2.35851026874956,2.35938784654446,2.36038509403867,2.36044492888832,2.36048481878809,2.36269870822523,2.36493254261225,2.36581012040715,2.36904120228838,2.37020798185661,2.37016809195684,2.3727908528666,2.37292049504085,2.37470556805548
2.31058255417797,2.31132051732368,2.31003406805615,2.30987450845708,2.30983461855731,2.31012382033063,2.31043296705384,2.31043296705384,2.31082189357658,2.31144018702298,2.31269671886569,2.31287622341464,2.3141227827824,2.31456157167985,2.31517986512626,2.31662587399286,2.3175832315873,2.31799210305992,2.31904918540378,2.31879987353023,2.32152235918942,2.3195976715256,2.31975723112467,2.32010626774764,2.32107359781702,2.32145255186482,2.27657641462551,2.2752002130835,2.27368439689231,2.27372428679207,2.27273701177281,2.27293646127165,2.27284670899717,2.27205888347675,2.2728068190974,2.27311596582061,2.27225833297559,2.27263728702339,2.27371431431713,2.27297635117142,2.27307607592084,2.27343508501875,2.27358467214288,2.27443233251296,2.2740633509401,2.27480131408582,2.27608776335334,2.2755791671313,2.27603790097863,2.27641685502643,2.2769553686733,2.27708501084755,2.27732435024616,2.27811217576658,2.27947840483365,2.28077482657612,2.28256987206569,2.2835671195599,2.33503506273592,2.33606222765496,2.33670046605125,2.34168670352228,2.33845562164105,2.33833595194175,2.33866504361484,2.33945286913526,2.33520459480994,2.33400789781689,2.3363813468531,2.33769771354546,2.33759798879604,2.33698966782457,2.3374484016719,2.33747831909673,2.33780741076982,2.33848553906588,2.34134763937425,2.33824619966727,2.33764785117075,2.33939303428561,2.33993154793248,2.33888443806356,2.34101854770117,2.33962240120928,2.3400312726819,2.34048003405429,2.34039028177981,2.34009110753155,2.33981187823318,2.34037033682993,2.28665858679194,2.2853920824743,2.28577103652209,2.28445466982974,2.28338761501094,2.28284910136407,2.28480370645271,2.28252998216592,2.28220089049283,2.28201141346893,2.28315824808727,2.28091444122531,2.280794771526,2.28114380814897,2.28149284477195,2.28168232179585,2.2818618263448,2.28134325764782,2.28134325764782,2.2810540558745,2.28085460637565,2.28104408339955,2.28195157861928,2.2813632025977,2.28147289982206,2.28157262457148,2.28206127584364,2.28209119326847,2.28215102811812,2.28181196397009,2.28277929403947,2.28216100059307,2.2829288811636,2.28307846828774,2.2835671195599,2.28307846828774,2.28346739481048,2.28458431200399,2.28404579835712,2.28467406427847,2.28578100899704,2.28530233019982,2.28588073374646,2.28616993551978,2.28584084384669,2.28644916481816,2.28726690776341,2.28736663251283,2.28811456813348,2.28936112750124,2.29051793459452,2.29757844685351,2.29291132858062,2.29501552079339,2.35578778309037,2.35455119619756,2.35523929696856,2.35384315047667,2.35459108609732,2.35617670961311,2.35618668208806,2.35656563613585,2.35624651693771,2.35749307630547,2.35722381948203,2.35648585633632,2.35608695733863,2.35652574623609,2.35641604901172,2.35633626921219,2.35632629673724,2.35787203035326,2.35767258085442,2.35792189272798,2.35866982834863,2.35974685564237,2.36127264430851,2.36313749712268,2.36464334083893,2.3648727077626,2.36661789087746,2.36975922048421,2.37054704600464,2.37202297229606,2.37306010969004,2.37458589835617
2.31075208625198,2.30986453598214,2.30950552688422,2.30944569203457,2.30999417815638,2.30977478370766,2.31000415063133,2.31041302210395,2.3106623339775,2.31232773729283,2.31222801254341,2.31264685649098,2.31356432418565,2.31407292040769,2.3151898376012,2.31565854392348,2.31665579141769,2.31901926797896,2.31822146998359,2.31867023135599,2.3183411396829,2.31881981848012,2.32056500159498,2.31980709349938,2.3212331574161,2.32206087283629,2.27684567144894,2.27535977268257,2.27368439689231,2.27272703929787,2.27239794762478,2.27269712187304,2.272876626422,2.27217855317605,2.27259739712362,2.27251761732408,2.27209877337652,2.27204891100181,2.27246775494937,2.27267717692316,2.27294643374659,2.27354478224312,2.27378412164173,2.27350489234335,2.27474147923616,2.27516032318373,2.27509051585914,2.27507057090925,2.27517029565867,2.27611768077817,2.27674594669952,2.27690550629859,2.27737421262087,2.27937868008423,2.27987730383133,2.28081471647589,2.28359703698472,2.28549180722372,2.33492536551156,2.3355735763828,2.33632151200345,2.33633148447839,2.33705947514916,2.33884454816379,2.33723897969812,2.33684008070044,2.33656085140206,2.33544393420855,2.33788719056936,2.33690988802503,2.3380866400682,2.33575308093175,2.33546387915843,2.33690988802503,2.3376378786958,2.33709936504893,2.33738856682225,2.33857529134036,2.33826614461715,2.33862515371507,2.33830603451692,2.33911380498723,2.33914372241206,2.33895424538816,2.33883457568885,2.3397221259587,2.33989165803271,2.33895424538816,2.34162686867263,2.34226510706892,2.33547385163337,2.28603032087059,2.28415549558148,2.28353720213507,2.28285907383901,2.28241031246662,2.28321808293693,2.281482872297,2.28158259704643,2.28123356042345,2.28118369804874,2.28107400082438,2.2806052945021,2.28229064276731,2.28177207407032,2.28152276219677,2.28026623035407,2.28043576242809,2.28035598262855,2.28012661570488,2.28055543212739,2.28114380814897,2.28081471647589,2.28132331269793,2.28108397329932,2.28116375309886,2.28099422102484,2.28135323012276,2.28221086296778,2.28204133089376,2.28201141346893,2.28207124831859,2.28274937661465,2.28228067029237,2.28294882611349,2.2831881655121,2.28335769758611,2.28315824808727,2.28361698193461,2.28397599103252,2.28420535795619,2.28468403675341,2.28522255040028,2.28592062364623,2.28643919234321,2.28651897214275,2.28737660498777,2.28881264137943,2.28839379743186,2.28982983382352,2.29132570506483,2.29196394346112,2.29311077807946,2.29392852102471,2.35868977329851,2.35557836111659,2.3541822146247,2.35316502218061,2.35493015024535,2.35552849874188,2.35515951716902,2.35660552603562,2.35639610406184,2.35611687476346,2.35571797576578,2.3556282234913,2.35559830606647,2.35564816844118,2.35587753536485,2.35535896666786,2.35558833359153,2.35754293868018,2.35627643436253,2.35724376443191,2.35763269095465,2.36064437838716,2.36128261678345,2.36222002942801,2.36345661632082,2.3650621847865,2.3671962944241,2.36840296389209,2.37086616520278,2.3712251743007,2.37293046751579,2.37470556805548
2.30856811423967,2.30961522410859,2.30896701323735,2.3089071783877,2.3092861324355,2.30880745363828,2.30925621501067,2.30980470113249,2.30981467360743,2.31076205872692,2.31134046227356,2.31188894839538,2.31277649866522,2.31385352595897,2.31426239743159,2.31514994770144,2.31654609419332,2.31706466289031,2.31753336921259,2.31916885510309,2.31903921292884,2.31953783667595,2.31821149750865,2.31980709349938,2.32152235918942,2.32290853320637,2.3224896892588,2.27459189211203,2.27328549789462,2.27330544284451,2.27219849812594,2.27170984685378,2.27172979180366,2.27169987437883,2.27171981932872,2.2721187183264,2.27178962665331,2.2728068190974,2.27262731454845,2.27240792009972,2.2728068190974,2.27285668147211,2.27304615849601,2.27329547036956,2.27322566304497,2.27450213983756,2.27636699265172,2.27530991030786,2.27545949743199,2.27591823127933,2.27636699265172,2.27665619442504,2.27820192804106,2.27877035911276,2.28027620282901,2.28172221169561,2.28307846828774,2.33319015487164,2.33411759504125,2.33475583343755,2.33514475996029,2.3370195852494,2.33767776859557,2.3373287319726,2.33692983297492,2.33591264053083,2.33520459480994,2.33504503521086,2.33602233775519,2.33778746581993,2.33457632888859,2.33505500768581,2.33497522788627,2.3348156682872,2.3353142920343,2.33630156705357,2.33667054862642,2.33724895217306,2.33706944762411,2.33730878702272,2.3380168327436,2.33855534639047,2.33919358478677,2.33833595194175,2.33895424538816,2.33929330953619,2.33968223605893,2.33841573174128,2.33925341963642,2.33675032842596,2.28632949511885,2.28477378902789,2.284065743307,2.28355714708496,2.28294882611349,2.28195157861928,2.28277929403947,2.28104408339955,2.28218094554295,2.28144298239724,2.28192166119446,2.28087455132554,2.28076485410118,2.28082468895083,2.28053548717751,2.28074490915129,2.2802263404543,2.2802263404543,2.28040584500326,2.28077482657612,2.28097427607496,2.28100419349979,2.28120364299863,2.2806052945021,2.28108397329932,2.28077482657612,2.28063521192693,2.28077482657612,2.28064518440187,2.28093438617519,2.28196155109422,2.28249009226615,2.28273940413971,2.28220089049283,2.28273940413971,2.28297874353832,2.28329786273646,2.28287901878889,2.28374662410885,2.28420535795619,2.28427516528078,2.28457433952905,2.28510288070098,2.2855815594982,2.28636938501862,2.28592062364623,2.287336715088,2.28725693528846,2.28787522873487,2.28949076967549,2.29024867777108,2.29233292503398,2.29354956697691,2.29308086065463,2.35444149897319,2.35202816003721,2.35284590298246,2.35252678378431,2.35480050807111,2.35457114114744,2.35569803081589,2.35518943459385,2.35554844369176,2.35552849874188,2.35466089342192,2.35467086589686,2.35564816844118,2.35546866389223,2.35545869141728,2.35396282017597,2.35511962726925,2.35490023282053,2.35561825101636,2.35610690228852,2.35683489295929,2.35902883744655,2.35968702079272,2.3617214056809,2.36381562541874,2.36500234993684,2.36529155171017,2.36709656967468,2.36805392726912,2.37012820205707,2.37177366042251,2.37219250437008
2.30901687561206,2.30792987584338,2.30853819681484,2.30760078417029,2.3079597932682,2.30809940791739,2.30858805918955,2.31025346250488,2.30949555440928,2.31029335240465,2.31082189357658,2.31132051732368,2.31215820521881,2.3130557279636,2.31416267268217,2.31508014037684,2.3161372227207,2.31629678231977,2.31722422248939,2.31786246088568,2.31817160760888,2.31856053413162,2.31783254346085,2.31929849727734,2.32134285464046,2.31586796589726,2.2756988368306,2.2738738739162,2.27350489234335,2.27215860822617,2.27217855317605,2.2713608102308,2.27260736959856,2.2714306175554,2.27120125063173,2.27145056250528,2.27141067260551,2.27210874585146,2.2724976723742,2.27251761732408,2.2741331582647,2.27297635117142,2.27331541531945,2.27316582819532,2.27458191963709,2.27412318578976,2.27533982773269,2.2748212590357,2.27580853405497,2.27575867168026,2.27648666235103,2.27766341439419,2.27802242349211,2.27977757908191,2.28063521192693,2.28313830313739,2.28446464230468,2.33244221925099,2.3329907053728,2.33534420945913,2.33571319103198,2.33687997060021,2.33705947514916,2.33554365895797,2.33484558571202,2.33507495263569,2.33429709959021,2.33421731979067,2.33411759504125,2.33382839326793,2.33370872356863,2.33314029249693,2.33324001724635,2.33406773266654,2.33401787029183,2.33517467738511,2.33515473243523,2.33611209002967,2.33647109912758,2.33652096150229,2.33697969534963,2.33754812642132,2.33775754839511,2.33816641986773,2.33733870444754,2.33755809889627,2.33739853929719,2.33711930999882,2.3380866400682,2.33783732819464,2.28462420190376,2.28424524785596,2.28412557815665,2.28272943166476,2.28248011979121,2.28219091801789,2.28153273467171,2.28099422102484,2.28077482657612,2.28120364299863,2.28096430360002,2.28118369804874,2.280106670755,2.28023631292925,2.28052551470257,2.28072496420141,2.28121361547357,2.2802961477789,2.28055543212739,2.28030612025384,2.2808645788506,2.28045570737797,2.280106670755,2.28051554222762,2.2806751018267,2.28123356042345,2.28031609272878,2.28068507430164,2.28028617530396,2.28131334022299,2.28184188139492,2.28150281724689,2.28275934908959,2.28200144099399,2.28334772511117,2.28285907383901,2.28301863343808,2.28308844076268,2.28333775263623,2.28427516528078,2.28450453220445,2.28478376150283,2.28516271555063,2.28519263297546,2.28680817391607,2.2868380913409,2.28725693528846,2.28722701786364,2.2875261921119,2.28949076967549,2.28964035679962,2.29036834747039,2.29075727399313,2.29417783289826,2.35569803081589,2.35336447167945,2.35280601308269,2.35290573783211,2.35387306790149,2.35393290275115,2.35439163659848,2.35572794824072,2.35546866389223,2.35504981994466,2.35395284770103,2.35379328810196,2.35454122372261,2.35406254492539,2.3549401227203,2.35472072827157,2.35440160907342,2.35423207699941,2.35597726011427,2.35568805834095,2.35605703991381,2.35933798416975,2.36056459858762,2.36089369026071,2.36169148825608,2.36550097368395,2.36526163428534,2.36596968000623,2.36988886265846,2.37032765155591,2.37157421092367,2.3764407786954
2.30742127962133,2.30763070159511,2.307650646545,2.30772045386959,2.30812932534222,2.30862794908932,2.30869775641392,2.30858805918955,2.30834871979094,2.30988448093202,2.31063241655268,2.31091164585105,2.31205848046939,2.31306570043854,2.31404300298286,2.31443192950561,2.31535936967522,2.31617711262047,2.31653612171838,2.31762312148707,2.31746356188799,2.31750345178776,2.318151662659,2.31928852480239,2.31873006620564,2.27636699265172,2.27408329588999,2.27305613097095,2.27295640622153,2.27220847060088,2.27304615849601,2.27248769989926,2.27165001200412,2.27161012210435,2.27212869080134,2.27288659889694,2.27172979180366,2.27312593829555,2.27290654384682,2.27258742464868,2.27291651632177,2.27335530521922,2.27316582819532,2.27367442441736,2.27410324083987,2.27372428679207,2.27395365371574,2.27510048833408,2.27577861663014,2.27618748810277,2.27685564392388,2.27731437777122,2.2782817078406,2.28026623035407,2.28180199149515,2.28297874353832,2.33253197152546,2.33217296242755,2.33320012734658,2.33394806296724,2.33505500768581,2.33568327360716,2.33669049357631,2.33686002565032,2.33457632888859,2.33379847584311,2.33321009982152,2.33402784276677,2.33279125587396,2.3344367142394,2.33277131092407,2.33241230182616,2.33257186142523,2.33363891624403,2.33363891624403,2.33486553066191,2.33473588848766,2.33549379658326,2.33549379658326,2.33558354885774,2.33687997060021,2.33709936504893,2.33738856682225,2.33703953019928,2.33720906227329,2.3375182089965,2.33682013575055,2.33520459480994,2.33572316350693,2.28622977036943,2.28441477992997,2.28352722966013,2.28382640390839,2.28316822056221,2.28080474400094,2.28133328517287,2.28152276219677,2.28132331269793,2.28146292734712,2.28074490915129,2.28075488162623,2.28057537707728,2.28077482657612,2.28064518440187,2.28056540460233,2.28076485410118,2.28025625787913,2.28088452380048,2.28096430360002,2.28104408339955,2.28099422102484,2.28024628540419,2.28310838571256,2.2806751018267,2.28254992711581,2.28072496420141,2.28119367052368,2.28102413844967,2.28171223922067,2.28157262457148,2.28130336774805,2.28157262457148,2.28145295487218,2.28201141346893,2.28407571578194,2.28259978949052,2.2829986884882,2.28278926651442,2.28336767006106,2.28355714708496,2.28361698193461,2.28424524785596,2.28458431200399,2.28488348625225,2.28600040344576,2.28698767846503,2.28665858679194,2.28841374238174,2.28765583428615,2.28811456813348,2.28979991639869,2.29077721894301,2.29175452148734,2.29409805309872,2.3493954266525,2.35287582040729,2.35265642595856,2.35302540753142,2.35423207699941,2.35364370097783,2.35359383860312,2.35409246235022,2.35546866389223,2.35365367345277,2.35417224214976,2.35413235224999,2.35276612318292,2.35381323305184,2.35383317800173,2.35305532495624,2.35388304037644,2.35510965479431,2.35483042549593,2.35515951716902,2.35713406720755,2.35779225055373,2.3582110945013,2.36353639612036,2.36142223143264,2.363426698896,2.36459347846422,2.36530152418511,2.3686423032907,2.37033762403085,2.37051712857981,2.37417702688355
2.30755092179558,2.30806949049256,2.30770050891971,2.30710216042318,2.30703235309859,2.30756089427052,2.30792987584338,2.30789995841855,2.30835869226588,2.31043296705384,2.30994431578167,2.31116095772461,2.31144018702298,2.31312553528819,2.31439203960584,2.31554884669912,2.315568791649,2.31557876412394,2.31592780074692,2.31650620429356,2.3170148005156,2.31776273613626,2.31773281871143,2.31899932302907,2.31572835124807,2.27527002040809,2.27505062595937,2.27324560799485,2.27091204885841,2.27071259935957,2.27161012210435,2.2714306175554,2.27152036982988,2.27139072765563,2.27120125063173,2.2719292413025,2.27274698424775,2.27231816782524,2.2724278650496,2.27267717692316,2.27281679157235,2.27340516759393,2.27321569057003,2.27348494739346,2.27354478224312,2.27491101131018,2.27427277291389,2.27479134161088,2.27544952495705,2.2765265522508,2.27662627700022,2.27742407499558,2.27890000128701,2.28057537707728,2.28211113821835,2.28390618370793,2.33149483413149,2.33347935664496,2.33309043012222,2.33353919149461,2.33427715464033,2.33525445718465,2.33647109912758,2.33544393420855,2.33578299835658,2.33179400837975,2.33263169627488,2.33220287985238,2.33236243945145,2.33142502680689,2.33191367807906,2.33198348540365,2.331923650554,2.33269153112454,2.33305054022245,2.33389820059253,2.33335968694566,2.33465610868812,2.33488547561179,2.33534420945913,2.33597247538048,2.3356932460821,2.33673038347608,2.33614200745449,2.33640129180299,2.33652096150229,2.33720906227329,2.33509489758558,2.33633148447839,2.28523252287522,2.2841355506316,2.28411560568171,2.28296877106337,2.28309841323762,2.2822407803926,2.28113383567403,2.28128342279816,2.28094435865013,2.2813632025977,2.28153273467171,2.28040584500326,2.28045570737797,2.28083466142577,2.28075488162623,2.28063521192693,2.28095433112507,2.27993713868098,2.28066512935176,2.28038590005338,2.28068507430164,2.27993713868098,2.2804158174782,2.28007675333017,2.28061526697704,2.28004683590535,2.28004683590535,2.28019642302948,2.2808645788506,2.28026623035407,2.28027620282901,2.28171223922067,2.281482872297,2.28164243189608,2.28213108316824,2.28214105564318,2.28253995464086,2.28381643143345,2.28358706450978,2.28333775263623,2.28333775263623,2.28480370645271,2.28497323852673,2.28412557815665,2.28506299080121,2.2855815594982,2.28586078879657,2.28806470575877,2.28739654993765,2.28880266890448,2.29004922827224,2.2892813477017,2.29386868617506,2.29229303513421,2.29264207175718,2.35179879311354,2.35031289434718,2.35153950876505,2.35106082996783,2.35238716913513,2.35319493960543,2.35301543505648,2.35331460930474,2.3531151598059,2.35334452672957,2.35272623328316,2.3527362057581,2.3532348295052,2.3526663984335,2.35338441662933,2.35245697645972,2.35237719666018,2.35528915934327,2.35442155402331,2.35486034292076,2.35584761794002,2.35774238817902,2.35822106697624,2.35963715841801,2.36155187360689,2.36313749712268,2.36500234993684,2.36560069843337,2.3670068174002,2.36841293636703,2.37083624777796,2.37028776165614
2.30747114199604,2.30662348162596,2.30728166497214,2.30674315132527,2.30728166497214,2.30709218794824,2.30721185764755,2.30759081169534,2.30799968316797,2.30862794908932,2.30972492133295,2.31015373775546,2.31088172842623,2.31178922364596,2.3130557279636,2.31357429666059,2.3146214065295,2.31487071840306,2.3158280759975,2.31624691994506,2.31728405733904,2.31696493814089,2.31765303891189,2.31489066335294,2.31639650706919,2.27535977268257,2.27431266281366,2.27332538779439,2.27159017715447,2.27100180113289,2.27133089280598,2.27149045240505,2.27088213143358,2.27075248925934,2.27123116805656,2.27153034230482,2.2713608102308,2.27195915872733,2.27227827792547,2.27235805772501,2.27264725949833,2.27334533274428,2.27313591077049,2.27330544284451,2.27377414916678,2.27415310321458,2.27446224993779,2.27547944238188,2.27658638710045,2.27616754315288,2.27742407499558,2.27865068941346,2.27926898285986,2.27998700105569,2.28163245942114,2.28320811046198,2.33216298995261,2.33214304500272,2.33310040259716,2.33298073289786,2.33353919149461,2.33335968694566,2.33402784276677,2.33390817306747,2.33188376065423,2.3318538432294,2.33205329272824,2.33170425610527,2.33044772426257,2.33145494423172,2.33164442125562,2.33266161369971,2.33109593513381,2.33132530205747,2.33195356797882,2.33253197152546,2.33368877861874,2.33371869604357,2.33445665918928,2.33470597106283,2.33483561323708,2.33513478748534,2.33543396173361,2.33573313598187,2.33729881454777,2.3378971630443,2.33687997060021,2.33819633729256,2.28671842164159,2.28457433952905,2.2834973122353,2.28317819303716,2.28294882611349,2.28194160614434,2.28112386319909,2.28040584500326,2.28052551470257,2.28055543212739,2.2810540558745,2.28001691848052,2.28002689095546,2.28065515687681,2.28089449627542,2.28044573490303,2.280106670755,2.28014656065477,2.28011664322994,2.27999697353064,2.28012661570488,2.27969779928237,2.27983741393156,2.2797975240318,2.27964793690766,2.2802961477789,2.28088452380048,2.27977757908191,2.27998700105569,2.27983741393156,2.27996705610581,2.280794771526,2.28039587252832,2.28038590005338,2.28099422102484,2.28169229427079,2.28282915641418,2.28233053266708,2.28215102811812,2.28264965186523,2.28329786273646,2.2834973122353,2.28334772511117,2.28350728471025,2.28404579835712,2.28467406427847,2.28549180722372,2.28580095394692,2.28580095394692,2.28600040344576,2.28670844916665,2.28838382495692,2.28923148532699,2.29050796211958,2.29127584269012,2.29650141955976,2.3517888206386,2.35004363752374,2.35184865548825,2.35149961886528,2.35149961886528,2.3526663984335,2.35237719666018,2.35274617823304,2.35243703150984,2.35302540753142,2.35328469187991,2.35221763706111,2.35206804993698,2.35245697645972,2.35198827013744,2.35220766458617,2.35210793983675,2.3531151598059,2.35486034292076,2.35387306790149,2.35586756288991,2.35649582881126,2.35732354423145,2.35945765386905,2.35993633266627,2.36466328578881,2.36346658879577,2.36464334083893,2.3660594322807,2.36791431261993,2.36804395479418,2.36964952325985
2.30812932534222,2.30764067407006,2.30660353667608,2.30667334400067,2.30648386697678,2.30714205032295,2.30564617908164,2.30706227052342,2.30756089427052,2.30831880236612,2.30887726096287,2.31013379280557,2.31077203120187,2.31170944384642,2.31272663629051,2.31384355348402,2.31474107622881,2.3150003605773,2.31517986512626,2.31597766312163,2.31649623181861,2.31748350683788,2.31725413991421,2.31540923204993,2.31681535101676,2.2740633509401,2.27336527769416,2.27256747969879,2.27152036982988,2.2710516635076,2.27057298471038,2.27030372788694,2.2705530397605,2.27052312233567,2.27128103043127,2.27198907615215,2.27080235163405,2.27238797514984,2.27269712187304,2.27289657137188,2.27256747969879,2.27324560799485,2.27328549789462,2.27402346104034,2.27392373629092,2.27448219488767,2.27418302063941,2.27530991030786,2.27608776335334,2.27660633205033,2.27737421262087,2.27852104723921,2.27967785433249,2.28055543212739,2.28354717461001,2.33180398085469,2.33139510938207,2.33220287985238,2.33206326520319,2.33208321015307,2.33212310005284,2.33288100814844,2.3323026046018,2.33100618285933,2.33037791693798,2.33027819218856,2.33183389827952,2.33083665078531,2.33023830228879,2.33086656821014,2.33156464145608,2.33030810961338,2.3302183573389,2.33050755911222,2.33136519195724,2.3329907053728,2.33196354045377,2.33333974199577,2.33414751246608,2.33438685186469,2.33471594353778,2.33510487006052,2.3351248150104,2.33440679681457,2.3358129157814,2.33357908139438,2.33691986049997,2.33277131092407,2.28581092642186,2.28441477992997,2.28478376150283,2.28242028494156,2.28196155109422,2.28263967939029,2.28099422102484,2.28030612025384,2.28070501925152,2.28042578995314,2.2833078352114,2.28051554222762,2.28012661570488,2.27986733135639,2.28068507430164,2.28031609272878,2.27976760660697,2.28021636797936,2.28001691848052,2.27980749650674,2.28042578995314,2.27993713868098,2.27990722125616,2.27984738640651,2.27976760660697,2.27988727630627,2.28071499172647,2.2800368634304,2.28061526697704,2.28033603767867,2.28050556975268,2.2804856248028,2.28056540460233,2.28028617530396,2.28077482657612,2.28133328517287,2.28173218417056,2.28192166119446,2.28242028494156,2.28195157861928,2.28328789026152,2.28374662410885,2.28458431200399,2.28471395417824,2.28454442210422,2.28416546805642,2.28488348625225,2.28543197237406,2.28582089889681,2.28612007314507,2.28699765093997,2.28757605448661,2.28923148532699,2.28981986134858,2.29203375078572,2.35225752696088,2.35237719666018,2.35048242642119,2.35282595803258,2.35088132541887,2.35225752696088,2.3518586279632,2.35230738933559,2.35251681130937,2.35263648100868,2.35189851786296,2.35234727923536,2.35213785726157,2.35199824261239,2.35228744438571,2.35187857291308,2.35199824261239,2.35237719666018,2.35270628833327,2.3534243065291,2.35356392117829,2.35498998509501,2.35637615911195,2.3566952783101,2.35864988339875,2.36038509403867,2.36147209380735,2.36317738702245,2.36378570799391,2.36653811107792,2.36823343181808,2.36889161516425,2.36963955078491
2.30668331647562,2.3045691517879,2.30590546343014,2.30608496797909,2.30595532580485,2.30662348162596,2.3067032614255,2.3070822154733,2.30731158239697,2.30789995841855,2.30893709581252,2.30981467360743,2.31069225140233,2.31155985672229,2.31295600321418,2.3134346820114,2.31558873659889,2.31483082850329,2.31482085602835,2.31511005780167,2.31489066335294,2.3158280759975,2.31476102117869,2.31478096612858,2.31413275525734,2.31181914107078,2.27384395649138,2.27175970922849,2.2711713332069,2.27102174608277,2.272188525651,2.27386390144126,2.27054306728555,2.2713608102308,2.27118130568185,2.27168990190389,2.27195915872733,2.27179959912825,2.27231816782524,2.27256747969879,2.27347497491852,2.27300626859624,2.27436252518837,2.27524010298327,2.27386390144126,2.2743226352886,2.27442236003802,2.27526004793315,2.27605784592852,2.27669608432481,2.27770330429396,2.27921912048515,2.27975763413203,2.28108397329932,2.32973967854168,2.33092640305979,2.33106601770898,2.33088651316002,2.3312854121577,2.33142502680689,2.33158458640597,2.33164442125562,2.33158458640597,2.33039786188786,2.32977956844145,2.33010866011454,2.32911141262033,2.32860281639829,2.32947042171825,2.32888204569667,2.32928094469435,2.32946044924331,2.32950033914307,2.32947042171825,2.33052750406211,2.33095632048462,2.33210315510295,2.33225274222709,2.33381842079299,2.33387825564264,2.33398795286701,2.33463616373824,2.33472591601272,2.33414751246608,2.33504503521086,2.33470597106283,2.33191367807906,2.33324001724635,2.28536216504947,2.28549180722372,2.28376656905874,2.28237042256685,2.28218094554295,2.28165240437102,2.28149284477195,2.28088452380048,2.28026623035407,2.28119367052368,2.2810540558745,2.28062523945199,2.28050556975268,2.27996705610581,2.28018645055454,2.27939862503411,2.27958810205801,2.27984738640651,2.28007675333017,2.27976760660697,2.27954821215824,2.27980749650674,2.27990722125616,2.27969779928237,2.28052551470257,2.28025625787913,2.2796080470079,2.27975763413203,2.28024628540419,2.28078479905106,2.28033603767867,2.28037592757843,2.28014656065477,2.28183190891998,2.28082468895083,2.28120364299863,2.28166237684596,2.28160254199631,2.28223080791766,2.28187179881975,2.28255989959075,2.28296877106337,2.28416546805642,2.28338761501094,2.28365687183438,2.28438486250515,2.28439483498009,2.28490343120213,2.28528238524993,2.2863893299685,2.28696773351514,2.28763588933626,2.28869297168012,2.28967027422445,2.29054785201935,2.29697012588204,2.35389301285138,2.35355394870335,2.35203813251215,2.35083146304416,2.3518586279632,2.35217774716134,2.35188854538802,2.35209796736181,2.35157939866482,2.35220766458617,2.35076165571957,2.35196832518756,2.35149961886528,2.35325477445509,2.35062204107038,2.35111069234254,2.35165917846436,2.35262650853374,2.3528558754574,2.3531151598059,2.35369356335254,2.35496006767018,2.35590745278968,2.35639610406184,2.36196074507951,2.36096349758531,2.36364609334472,2.36535138655982,2.36571039565773,2.36699684492526,2.36804395479418,2.36829326666773
2.3072018851726,2.3063243073777,2.3053270598835,2.30584562858048,2.30550656443245,2.3065835917262,2.30607499550415,2.30692265587423,2.30722183012249,2.30774039881948,2.30858805918955,2.30995428825662,2.31076205872692,2.31155985672229,2.3121781501687,2.31338481963669,2.3139333057585,2.31449176435526,2.31547903937452,2.31740372703834,2.31523969997591,2.31539925957499,2.31595771817174,2.31502030552719,2.31542917699981,2.27558913960624,2.27322566304497,2.27194918625239,2.27166995695401,2.27088213143358,2.27122119558161,2.27107160845748,2.27113144330714,2.2711713332069,2.27146053498022,2.27116136073196,2.27142064508046,2.27214863575123,2.27210874585146,2.27251761732408,2.27194918625239,2.2729962961213,2.2746317820118,2.27393370876586,2.27391376381597,2.2746317820118,2.27558913960624,2.27551933228165,2.27600798355381,2.27668611184987,2.27749388232018,2.2788501389123,2.28107400082438,2.28331780768635,2.33209318262801,2.32979951339134,2.32998899041524,2.33045769673751,2.33175411847998,2.33084662326025,2.33084662326025,2.33057736643682,2.33010866011454,2.32921113736975,2.3289618254962,2.32851306412381,2.32832358709991,2.32853300907369,2.32851306412381,2.32831361462497,2.32829366967508,2.32822386235049,2.32866265124794,2.33020838486396,2.32979951339134,2.33039786188786,2.33141505433195,2.3324222743011,2.3324222743011,2.33333974199577,2.33370872356863,2.33459627383847,2.33425720969044,2.33415748494102,2.33394806296724,2.33388822811759,2.33258183390017,2.33250205410064,2.28489345872719,2.28305852333785,2.28264965186523,2.28247014731627,2.28147289982206,2.2810540558745,2.28051554222762,2.28054545965245,2.28031609272878,2.28099422102484,2.28005680838029,2.28049559727774,2.280106670755,2.27954821215824,2.27957812958307,2.27969779928237,2.27985735888145,2.27974766165708,2.27992716620604,2.27983741393156,2.27949834978353,2.27948837730859,2.27976760660697,2.27998700105569,2.2797277167072,2.27975763413203,2.27983741393156,2.27964793690766,2.2797975240318,2.2799171937311,2.27977757908191,2.2810540558745,2.28165240437102,2.28179201902021,2.28199146851905,2.28118369804874,2.28177207407032,2.28170226674573,2.28216100059307,2.28249009226615,2.28241031246662,2.28276932156453,2.28347736728542,2.28396601855758,2.28402585340723,2.28403582588217,2.28445466982974,2.28535219257453,2.2861998529446,2.28599043097082,2.28710734816433,2.28781539388522,2.28857330198082,2.28952068710031,2.29283154878108,2.29660114430918,2.35270628833327,2.34999377514903,2.3531151598059,2.35113063729242,2.35194838023767,2.35160931608964,2.35177884816366,2.35193840776273,2.35133008679127,2.35067190344509,2.3514098665908,2.35105085749289,2.35208799488686,2.34943531655227,2.35152953629011,2.35155945371493,2.35277609565787,2.35205807746204,2.35241708655995,2.35214782973652,2.3533046368298,2.35451130629779,2.35580772804026,2.35728365433168,2.35801164500245,2.3611031122345,2.3646134234141,2.36415468956677,2.36576025803244,2.37004842225753,2.36781458787051,2.36855255101622
2.3043098674394,2.3048782985111,2.30462898663755,2.30463895911249,2.30518744523431,2.30515752780948,2.30583565610554,2.30664342657585,2.30788998594361,2.30731158239697,2.30863792156426,2.30950552688422,2.31044293952878,2.31117093019955,2.31298592063901,2.31332498478704,2.31414272773229,2.31454162672997,2.31519981007615,2.31501033305225,2.31508014037684,2.31501033305225,2.31509011285178,2.31668570884251,2.31778268108614,2.27422291053918,2.27291651632177,2.2715502872547,2.2710516635076,2.27060290213521,2.27030372788694,2.27185943397791,2.27053309481061,2.27056301223544,2.27121122310667,2.27153034230482,2.27144059003034,2.27178962665331,2.27271706682292,2.2719292413025,2.27232814030018,2.27320571809509,2.273564727193,2.27414313073964,2.27420296558929,2.27467167191157,2.27485117646053,2.27549938733176,2.27628721285219,2.27655646967562,2.27781300151832,2.27955818463318,2.27978755155685,2.32819394492566,2.32819394492566,2.33048761416234,2.32980948586628,2.33023830228879,2.33036794446303,2.3299092106157,2.32978954091639,2.32916127499504,2.32887207322172,2.32828369720014,2.3280842477013,2.32784490830269,2.32727647723099,2.32730639465582,2.32691746813308,2.32754573405443,2.32775515602821,2.32818397245072,2.32795460552705,2.32849311917392,2.32883218332196,2.32976959596651,2.33044772426257,2.331923650554,2.33248210915075,2.33268155864959,2.33399792534195,2.33378850336816,2.333299852096,2.3324920816257,2.33296078794797,2.33422729226562,2.33263169627488,2.28578100899704,2.28377654153368,2.28351725718519,2.28282915641418,2.28077482657612,2.28164243189608,2.28133328517287,2.28020639550442,2.27988727630627,2.28027620282901,2.27968782680743,2.28007675333017,2.27965790938261,2.27966788185755,2.27998700105569,2.27990722125616,2.27958810205801,2.27946843235871,2.2795382396833,2.27969779928237,2.27992716620604,2.2796080470079,2.27989724878122,2.27908947831091,2.27947840483365,2.27939862503411,2.28026623035407,2.27963796443272,2.27946843235871,2.28002689095546,2.27964793690766,2.27947840483365,2.27992716620604,2.2802263404543,2.27998700105569,2.28034601015361,2.280794771526,2.28139312002253,2.28245020236639,2.2821211106933,2.28177207407032,2.28225075286754,2.28239036751673,2.28253995464086,2.28326794531164,2.28371670668403,2.28342750491071,2.28523252287522,2.28519263297546,2.28660872441723,2.28670844916665,2.28659875194229,2.2882841002075,2.28922151285205,2.2895406320502,2.29310080560452,2.29892473097069,2.34765024353764,2.35092121531864,2.35318496713049,2.35203813251215,2.35112066481748,2.35138992164092,2.35077162819451,2.35079157314439,2.35069184839497,2.35039267414671,2.3512203895669,2.35192843528779,2.35007355494857,2.34999377514903,2.35063201354532,2.351030912543,2.35063201354532,2.3514796739154,2.35171901331401,2.35209796736181,2.35312513228084,2.35659555356068,2.3539927376008,2.35651577376114,2.35788200282821,2.36000613999087,2.36481287291295,2.3639951299677,2.36511204716121,2.36548102873406,2.36727607422364,2.3675054411473
2.30404061061597,2.30411041794056,2.30481846366145,2.30407052804079,2.30442953713871,2.30436970228906,2.30529714245867,2.30580573868071,2.30644397707701,2.30726172002226,2.30823902256658,2.30932602233527,2.31021357260511,2.31083186605152,2.31173936127125,2.3117293887963,2.31204850799445,2.3128662509397,2.31254713174155,2.3141227827824,2.31441198455572,2.31421253505688,2.31479093860352,2.31568846134831,2.27445227746285,2.27202896605192,2.27256747969879,2.27186940645285,2.27106163598254,2.27034361778671,2.27088213143358,2.27018405818764,2.2713608102308,2.27140070013057,2.27051314986073,2.27056301223544,2.27257745217374,2.27167992942895,2.27220847060088,2.27221844307582,2.27253756227397,2.27327552541968,2.27285668147211,2.27342511254381,2.27381403906655,2.27548941485682,2.2753896901074,2.27561905703107,2.27577861663014,2.27793267121763,2.27900969851137,2.28008672580511,2.28323802788681,2.32363652387714,2.3348156682872,2.32910144014539,2.32994910051547,2.33020838486396,2.33062722881153,2.33045769673751,2.3298394032911,2.32870254114771,2.32792468810223,2.32728644970593,2.32787482572752,2.32611967013771,2.32565096381543,2.32593019311381,2.32617950498736,2.32626925726184,2.32672799110918,2.32714683505675,2.32748589920478,2.32800446790176,2.32825377977532,2.32899174292103,2.33029813713844,2.33073692603589,2.33005879773983,2.33151477908137,2.33278128339902,2.33203334777836,2.33307048517234,2.3320433202533,2.33168431115539,2.33217296242755,2.28634944006874,2.28536216504947,2.28397599103252,2.28317819303716,2.28296877106337,2.28189174376963,2.28120364299863,2.28087455132554,2.27982744145662,2.28019642302948,2.28069504677658,2.27999697353064,2.27978755155685,2.28016650560465,2.27994711115593,2.27985735888145,2.27976760660697,2.27948837730859,2.28024628540419,2.27965790938261,2.28007675333017,2.28015653312971,2.27973768918214,2.27939862503411,2.279418569984,2.27946843235871,2.27914931316056,2.27945845988376,2.27936870760929,2.27935873513434,2.27951829473342,2.27973768918214,2.28076485410118,2.27987730383133,2.2797277167072,2.27992716620604,2.2809842485499,2.28170226674573,2.28043576242809,2.28178204654527,2.28116375309886,2.28131334022299,2.28183190891998,2.28258981701557,2.28309841323762,2.28238039504179,2.28331780768635,2.28371670668403,2.28386629380816,2.28446464230468,2.28519263297546,2.28571120167244,2.28675831154136,2.28843368733163,2.29029854014579,2.28892233860379,2.29465651169548,2.35301543505648,2.3487771332061,2.34766021601258,2.35346419642887,2.34885691300563,2.35087135294393,2.35092121531864,2.35088132541887,2.35027300444741,2.34966468347594,2.34955498625158,2.34926578447826,2.3498441880249,2.34857768370725,2.34980429812513,2.34970457337571,2.34914611477895,2.35042259157154,2.35111069234254,2.35124033451679,2.35087135294393,2.35500993004489,2.35629637931242,2.35498998509501,2.3573833790811,2.35868977329851,2.36193082765469,2.36154190113195,2.36484279033777,2.36403501986746,2.36498240498696,2.36809381716889,2.36811376211877
2.30356193181875,2.30337245479485,2.30355195934381,2.30374143636771,2.30370154646794,2.30421014268998,2.30476860128674,2.30518744523431,2.30732155487191,2.30745119704616,2.30799968316797,2.30961522410859,2.30974486628283,2.31052271932831,2.31240751709237,2.31181914107078,2.31204850799445,2.31239754461742,2.31264685649098,2.31289616836453,2.31403303050792,2.31425242495665,2.3156385989736,2.31600758054645,2.27359464461783,2.27197910367721,2.27174973675354,2.2713608102308,2.27059292966026,2.27031370036189,2.27004444353845,2.27042339758625,2.27022394808741,2.2703635627366,2.27091204885841,2.27116136073196,2.27142064508046,2.27165998447907,2.2716200945793,2.27222841555076,2.2726871493981,2.27266720444821,2.27292648879671,2.27335530521922,2.27420296558929,2.27450213983756,2.27505062595937,2.27584842395473,2.2763370752269,2.27768335934408,2.27864071693851,2.28054545965245,2.28234050514202,2.3246237988964,2.33157461393102,2.33049758663728,2.33011863258948,2.3307867884106,2.33020838486396,2.33017846743914,2.32797455047694,2.32838342194956,2.32687757823331,2.32623933983702,2.32665818378458,2.32599002796347,2.32575068856486,2.32598005548852,2.32516231254327,2.32558115649084,2.32609972518783,2.32842331184933,2.32662826635976,2.32715680753169,2.32782496335281,2.32871251362265,2.32916127499504,2.33048761416234,2.3314748891816,2.33136519195724,2.33175411847998,2.33156464145608,2.33159455888091,2.33148486165655,2.33194359550388,2.32623933983702,2.28580095394692,2.28460425695387,2.28376656905874,2.28287901878889,2.28203135841882,2.28241031246662,2.28059532202716,2.28106402834944,2.28008672580511,2.27967785433249,2.27974766165708,2.28002689095546,2.27993713868098,2.27993713868098,2.27955818463318,2.28052551470257,2.27918920306033,2.27945845988376,2.27904958841114,2.27874044168794,2.27931884523458,2.27970777175732,2.27973768918214,2.27990722125616,2.27889002881207,2.2791592856355,2.27907950583597,2.27909945078585,2.27975763413203,2.27958810205801,2.28002689095546,2.27955818463318,2.27956815710813,2.27958810205801,2.28047565232786,2.28023631292925,2.28078479905106,2.28052551470257,2.28179201902021,2.2811737255738,2.28137317507264,2.28141306497241,2.28091444122531,2.28204133089376,2.28162248694619,2.28317819303716,2.28392612865781,2.28672839411653,2.28572117414738,2.28509290822603,2.28498321100167,2.28603032087059,2.28731677013812,2.28939104492607,2.2884735772314,2.2902287328212,2.29180438386205,2.34906633497942,2.34979432565019,2.34844804153301,2.34924583952837,2.34936550922768,2.34945526150216,2.34993394029938,2.34964473852606,2.34982424307501,2.34922589457849,2.34926578447826,2.34922589457849,2.3499638577242,2.34853779380749,2.3492757569532,2.34942534407733,2.34980429812513,2.34969460090077,2.35164920598941,2.3506020961205,2.35125030699173,2.35341433405416,2.35360381107806,2.35450133382284,2.35584761794002,2.36022553443959,2.35986652534168,2.36190091022986,2.3633568915714,2.363426698896,2.36473309311341,2.36725612927375,2.36812373459371
2.30304336312176,2.30300347322199,2.30339239974473,2.30325278509554,2.30359184924357,2.30377135379253,2.30452926188813,2.30524728008396,2.30593538085496,2.30667334400067,2.3075808392204,2.31033324230441,2.30854816928978,2.30916646273619,2.30984459103225,2.3108518110014,2.31231776481789,2.31344465448634,2.31349451686105,2.31380366358426,2.3140031130831,2.31490063582788,2.3151898376012,2.31552890174923,2.27442236003802,2.27222841555076,2.27081232410899,2.27153034230482,2.27057298471038,2.27027381046212,2.27059292966026,2.27109155340737,2.27093199380829,2.27112147083219,2.27101177360783,2.27085221400876,2.27131094785609,2.27168990190389,2.27139072765563,2.27210874585146,2.27322566304497,2.27320571809509,2.2734450574937,2.27322566304497,2.27358467214288,2.27417304816447,2.27442236003802,2.2758883138545,2.27763349696937,2.2774041300457,2.27942854245894,2.28207124831859,2.33269153112454,2.33182392580458,2.33130535710759,2.33100618285933,2.33167433868045,2.33039786188786,2.3302183573389,2.3318538432294,2.32826375225026,2.32700722040756,2.32762551385396,2.32527200976764,2.32533184461729,2.32523211986787,2.32474346859571,2.32490302819478,2.32439443197273,2.32486313829501,2.32509250521868,2.32554126659107,2.32621939488713,2.3268277158586,2.32734628455559,2.32882221084701,2.32966987121709,2.33006877021477,2.33050755911222,2.33129538463265,2.33087654068508,2.33179400837975,2.33172420105516,2.33083665078531,2.33010866011454,2.32905157777068,2.28388623875804,2.28347736728542,2.28317819303716,2.28241031246662,2.28197152356917,2.28101416597473,2.28090446875036,2.28116375309886,2.28040584500326,2.28027620282901,2.28006678085523,2.27994711115593,2.27955818463318,2.27938865255917,2.28011664322994,2.28018645055454,2.27835151516519,2.27944848740882,2.2790396159362,2.279418569984,2.27889002881207,2.27925901038492,2.27939862503411,2.27868060683828,2.27919917553527,2.2788501389123,2.27936870760929,2.27902964346126,2.27995708363087,2.27911939573573,2.27957812958307,2.2795382396833,2.27944848740882,2.27969779928237,2.27969779928237,2.28082468895083,2.28073493667635,2.28118369804874,2.28097427607496,2.2824302574165,2.28142303744735,2.28143300992229,2.28178204654527,2.28340755996082,2.28223080791766,2.28286904631395,2.28352722966013,2.28420535795619,2.28504304585132,2.28419538548125,2.28528238524993,2.28571120167244,2.28668850421677,2.28655886204252,2.28885253127919,2.29084702626761,2.2926221268073,2.34805911501027,2.34751062888845,2.34888683043046,2.34932561932791,2.34952506882675,2.34899652765482,2.34938545417756,2.35077162819451,2.34974446327548,2.34909625240424,2.3487073258815,2.34903641755459,2.34985416049984,2.34737101423926,2.34737101423926,2.34845801400795,2.3505322887959,2.34914611477895,2.34950512387687,2.35143978401563,2.35114060976737,2.3523572517103,2.35345422395393,2.35518943459385,2.35634624168713,2.35694459018365,2.36231975417743,2.36025545186442,2.36284829534936,2.36462339588905,2.36387546026839,2.36879189041483,2.36920076188746
2.30254473937466,2.30277410629833,2.30239515225053,2.30316303282107,2.30323284014566,2.30370154646794,2.30407052804079,2.30499796821041,2.30595532580485,2.30685284854963,2.3072018851726,2.30886728848793,2.30801962811785,2.30868778393897,2.30979472865754,2.3114202420731,2.31232773729283,2.3130557279636,2.31361418656036,2.31349451686105,2.31458151662974,2.31593777322186,2.3126767739158,2.31589788332209,2.27304615849601,2.27161012210435,2.27146053498022,2.27092202133335,2.27021397561247,2.27071259935957,2.27121122310667,2.27052312233567,2.27083226905887,2.27037353521154,2.27083226905887,2.27112147083219,2.27088213143358,2.2711713332069,2.27177965417837,2.27255750722385,2.27332538779439,2.2733752501691,2.27307607592084,2.27332538779439,2.2763370752269,2.27484120398559,2.27641685502643,2.27609773582829,2.27690550629859,2.27826176289072,2.2795382396833,2.28178204654527,2.32537173451706,2.32113343266668,2.33180398085469,2.32262930390799,2.33174414600504,2.33045769673751,2.33081670583543,2.33098623790944,2.32656843151011,2.32731636713076,2.32615956003748,2.32545151431659,2.32463377137134,2.32436451454791,2.32429470722331,2.32437448702285,2.32434456959802,2.32434456959802,2.32440440444768,2.32513239511845,2.32535178956717,2.32609972518783,2.32623933983702,2.32818397245072,2.3287723484723,2.32992915556558,2.33035797198809,2.33086656821014,2.33133527453242,2.3312854121577,2.33079676088554,2.33210315510295,2.33218293490249,2.33151477908137,2.28578100899704,2.28181196397009,2.2836867892592,2.28245020236639,2.28233053266708,2.28057537707728,2.28111389072415,2.28026623035407,2.28002689095546,2.27954821215824,2.27992716620604,2.27989724878122,2.27957812958307,2.2793487626594,2.2795382396833,2.27988727630627,2.27906953336102,2.27917923058539,2.2793487626594,2.27921912048515,2.27887008386218,2.27843129496473,2.2788501389123,2.27981746898168,2.27959807453295,2.28023631292925,2.27853101971415,2.27912936821068,2.27996705610581,2.27955818463318,2.27984738640651,2.27981746898168,2.27945845988376,2.27955818463318,2.27910942326079,2.28021636797936,2.27968782680743,2.28018645055454,2.28133328517287,2.28149284477195,2.28296877106337,2.28157262457148,2.2822407803926,2.28213108316824,2.2829986884882,2.28370673420909,2.28371670668403,2.28376656905874,2.28438486250515,2.28491340367708,2.28552172464854,2.28575109157221,2.2863893299685,2.28786525625993,2.29036834747039,2.29070741161842,2.29132570506483,2.34729123443973,2.34576544577359,2.3480192251105,2.34804914253533,2.34911619735413,2.34865746350679,2.34960484862629,2.34907630745436,2.34884694053069,2.34841812410818,2.34856771123231,2.34867740845668,2.34780980313672,2.34804914253533,2.34834831678359,2.34799928016061,2.34823861955922,2.34887685795552,2.35005360999868,2.35225752696088,2.35092121531864,2.35184865548825,2.35386309542655,2.3561268472384,2.35570800329084,2.35746315888064,2.35838062657531,2.3602753968143,2.36551094615889,2.36351645117048,2.36453364361457,2.36517188201086,2.36607937723059
2.30195636335308,2.30194639087813,2.3022455651264,2.30218573027674,2.30306330807165,2.30351206944404,2.30393091339161,2.30465890406238,2.3055663992821,2.30568606898141,2.30665339905079,2.30761075664523,2.30885731601299,2.30955538925893,2.3105426642782,2.31122079257426,2.31328509488727,2.31256707669144,2.31311556281325,2.3121083428441,2.31548901184947,2.31783254346085,2.3127465812404,2.31519981007615,2.27305613097095,2.27099182865795,2.27126108548138,2.27054306728555,2.26971535186536,2.26987491146443,2.26949595741664,2.27045331501107,2.27031370036189,2.27019403066258,2.27016411323775,2.27049320491084,2.27045331501107,2.27153034230482,2.27216858070111,2.27257745217374,2.27247772742432,2.27273701177281,2.27286665394706,2.27373425926702,2.27351486481829,2.27475145171111,2.2755791671313,2.2758883138545,2.27690550629859,2.2788501389123,2.28066512935176,2.32477338602053,2.32558115649084,2.3284632017491,2.32166197383861,2.3287723484723,2.33259180637512,2.32201101046158,2.33296078794797,2.32641884438597,2.32638892696115,2.32554126659107,2.32445426682239,2.32530192719246,2.32361657892725,2.32368638625185,2.32360660645231,2.32375619357644,2.32323762487945,2.32353679912772,2.32411520267436,2.3244343218725,2.32498280799432,2.3248830832449,2.3266382388347,2.32742606435512,2.32849311917392,2.32861278887323,2.32954022904284,2.33018843991408,2.32962998131732,2.33032805456327,2.33057736643682,2.33042777931269,2.33053747653705,2.33281120082384,2.2845643670541,2.28289896373878,2.28392612865781,2.28076485410118,2.28152276219677,2.28149284477195,2.28107400082438,2.28062523945199,2.27976760660697,2.27985735888145,2.28047565232786,2.27962799195778,2.27959807453295,2.279418569984,2.27909945078585,2.27959807453295,2.2786606618884,2.2790396159362,2.27898975356149,2.27874044168794,2.27954821215824,2.2784711848645,2.27879030406265,2.27864071693851,2.27873046921299,2.2793487626594,2.27843129496473,2.27881024901253,2.27846121238956,2.27967785433249,2.28014656065477,2.27951829473342,2.27888005633712,2.27914931316056,2.27975763413203,2.27993713868098,2.28037592757843,2.27983741393156,2.28035598262855,2.28130336774805,2.28151278972183,2.28200144099399,2.28129339527311,2.28182193644504,2.28215102811812,2.28230061524225,2.28297874353832,2.28389621123299,2.28393610113275,2.28407571578194,2.28587076127152,2.28512282565086,2.28782536636016,2.28724696281352,2.29120603536552,2.29088691616738,2.29201380583583,2.34677266574274,2.34773999581212,2.347071839991,2.34749068393857,2.34891674785529,2.34898655517988,2.34930567437803,2.34874721578127,2.34809900491004,2.3485178488576,2.34816881223463,2.34779983066177,2.34772005086224,2.34728126196479,2.34762032611282,2.34790952788614,2.34800925263556,2.351030912543,2.3502231420727,2.34998380267409,2.35007355494857,2.35298551763165,2.35375339820219,2.35455119619756,2.35557836111659,2.35718392958226,2.35843048895002,2.35995627761616,2.3617214056809,2.36333694662152,2.36422449689136,2.36477298301318,2.36552091863383
2.30140787723126,2.30162727167999,2.30219570275169,2.30277410629833,2.30291372094751,2.30256468432454,2.30387107854195,2.30432981238929,2.30539686720809,2.30593538085496,2.30661350915102,2.30778028871924,2.3087177013638,2.30991439835685,2.31103131555036,2.31128062742391,2.31183908602067,2.31278647114016,2.31171941632136,2.31077203120187,2.3111110953499,2.30888723343781,2.31502030552719,2.30813929781716,2.2719292413025,2.27189932387767,2.27084224153382,2.2699846086888,2.26983502156467,2.27080235163405,2.26981507661478,2.26977518671501,2.27027381046212,2.27020400313752,2.27108158093243,2.27096191123312,2.27109155340737,2.27145056250528,2.27122119558161,2.27204891100181,2.27259739712362,2.27272703929787,2.27315585572038,2.27310599334567,2.27391376381597,2.27480131408582,2.27610770830323,2.2760777908784,2.27763349696937,2.27899972603643,2.32545151431659,2.32577063351474,2.326069807763,2.32560110144072,2.32921113736975,2.32726650475605,2.32700722040756,2.32762551385396,2.32816402750084,2.32486313829501,2.32513239511845,2.32379608347621,2.32426478979849,2.32376616605138,2.32268913875764,2.3233672670537,2.32263927638293,2.32297834053096,2.32307806528038,2.32338721200358,2.32334732210382,2.32379608347621,2.32439443197273,2.32459388147158,2.32605983528806,2.32746595425489,2.32788479820246,2.32861278887323,2.3287723484723,2.32899174292103,2.32910144014539,2.3299092106157,2.32946044924331,2.3300986876396,2.33503506273592,2.28572117414738,2.28441477992997,2.28335769758611,2.2829986884882,2.281482872297,2.28091444122531,2.28043576242809,2.2797277167072,2.27985735888145,2.27980749650674,2.27935873513434,2.27927895533481,2.27939862503411,2.27965790938261,2.27938865255917,2.27933879018446,2.27872049673805,2.27858088208886,2.2789698086116,2.27892991871183,2.27870055178817,2.27907950583597,2.27852104723921,2.2786606618884,2.27884016643736,2.27868060683828,2.27898975356149,2.2790396159362,2.27926898285986,2.27824181794083,2.27849112981438,2.28016650560465,2.28009669828006,2.27957812958307,2.27925901038492,2.27950832225847,2.27998700105569,2.27959807453295,2.28019642302948,2.28026623035407,2.28058534955222,2.28166237684596,2.28121361547357,2.28143300992229,2.28152276219677,2.28133328517287,2.28156265209654,2.28334772511117,2.2831183581875,2.28369676173414,2.28414552310654,2.28612007314507,2.2862696602692,2.28488348625225,2.28769572418591,2.28887247622908,2.29303099827992,2.34719150969031,2.34469839095479,2.34613442734645,2.3469521702917,2.34819872965946,2.35211791231169,2.34842809658312,2.34871729835644,2.34811894985992,2.34792947283602,2.3473311243395,2.34729123443973,2.34723139959008,2.34737101423926,2.34762032611282,2.34730120691467,2.34712170236571,2.34698208771652,2.3483283718337,2.34899652765482,2.34987410544972,2.35016330722304,2.35157939866482,2.35242705903489,2.35369356335254,2.35515951716902,2.35748310383052,2.35861996597392,2.36004602989064,2.36553089110877,2.36339678147117,2.36434416659067,2.36493254261225,2.36446383628997
2.30108875803312,2.30123834515725,2.30145773960597,2.30201619820273,2.30221564770157,2.30247493205006,2.30376138131759,2.30426000506469,2.30480849118651,2.30548661948257,2.30611488540392,2.3074611695211,2.30829885741623,2.30910662788654,2.31034321477936,2.31081192110163,2.31150999434758,2.31230779234294,2.31302581053877,2.31208839789422,2.31152993929746,2.30653372935149,2.3065835917262,2.30779026119419,2.27269712187304,2.27140070013057,2.26983502156467,2.27037353521154,2.27084224153382,2.27015414076281,2.27019403066258,2.2701740857127,2.27038350768648,2.27103171855771,2.27068268193474,2.27066273698486,2.27125111300644,2.27097188370806,2.27175970922849,2.27190929635262,2.27232814030018,2.27272703929787,2.27303618602107,2.27374423174196,2.27498081863477,2.27522015803338,2.27594814870416,2.27730440529628,2.27749388232018,2.27973768918214,2.28122358794851,2.32340715695347,2.32497283551937,2.32686760575837,2.32722661485628,2.32711691763192,2.32700722040756,2.32791471562728,2.3256908537152,2.32577063351474,2.32465371632123,2.32514236759339,2.32337723952864,2.32304814785555,2.32197112056181,2.32213068016088,2.32198109303675,2.32203095541146,2.32290853320637,2.32261933143305,2.32283872588177,2.32340715695347,2.32429470722331,2.32465371632123,2.32587035826416,2.32674793605906,2.32753576157949,2.32729642218088,2.32840336689945,2.32829366967508,2.32873245857254,2.32960006389249,2.32820391740061,2.32928094469435,2.32918121994493,2.28484359635248,2.28371670668403,2.28345742233553,2.28235047761697,2.28184188139492,2.28126347784828,2.28052551470257,2.28007675333017,2.28008672580511,2.2800368634304,2.27978755155685,2.27912936821068,2.27913934068562,2.27954821215824,2.27931884523458,2.27873046921299,2.27906953336102,2.2787803315877,2.27957812958307,2.27920914801021,2.2785908545638,2.27856093713898,2.27867063436334,2.2784013775399,2.27869057931323,2.2786606618884,2.27865068941346,2.27892991871183,2.27888005633712,2.27939862503411,2.27864071693851,2.27968782680743,2.2789698086116,2.27924903790998,2.27947840483365,2.27939862503411,2.27932881770952,2.28000694600558,2.27963796443272,2.27990722125616,2.28008672580511,2.28051554222762,2.28104408339955,2.28165240437102,2.28321808293693,2.28258981701557,2.28339758748588,2.28340755996082,2.28422530290607,2.28446464230468,2.28407571578194,2.28515274307569,2.28516271555063,2.28641924739333,2.28908189820286,2.28906195325298,2.29078719141796,2.2924326497834,2.34611448239656,2.34697211524158,2.3478297480866,2.34826853698405,2.34990402287455,2.34826853698405,2.34802919758544,2.34736104176432,2.34773999581212,2.34740093166409,2.34762032611282,2.34672280336803,2.34666296851838,2.34608456497174,2.34648346396942,2.34666296851838,2.34694219781676,2.34769013343741,2.34903641755459,2.34894666528011,2.35018325217293,2.35222760953605,2.35267637090845,2.35356392117829,2.35573792071566,2.35671522325998,2.36243942387673,2.36012580969017,2.36262890090063,2.36259898347581,2.36358625849507,2.36377573551897,2.36409485471712
2.30115856535771,2.30125829010713,2.30106881308323,2.30156743683033,2.30197630830296,2.30299350074705,2.30363173914334,2.30394088586655,2.30485835356122,2.30542678463292,2.30597527075473,2.30719191269766,2.30808943544245,2.30927615996056,2.31042299457889,2.31080194862669,2.31129059989885,2.31127065494897,2.31165958147171,2.31144018702298,2.31475104870375,2.3124872968919,2.30509769295983,2.30641405965218,2.27169987437883,2.2710516635076,2.26987491146443,2.26980510413984,2.26975524176513,2.26948598494169,2.2697951316649,2.27026383798718,2.27033364531177,2.27100180113289,2.27024389303729,2.27181954407814,2.27177965417837,2.2716200945793,2.27190929635262,2.27229822287536,2.27256747969879,2.27267717692316,2.27300626859624,2.27358467214288,2.27494092873501,2.27581850652991,2.27600798355381,2.27641685502643,2.27862077198863,2.28007675333017,2.32543156936671,2.32542159689177,2.32504264284397,2.32529195471752,2.3280842477013,2.3275158166296,2.32561107391567,2.32473349612076,2.32451410167204,2.32435454207297,2.32313790013003,2.32404539534976,2.32498280799432,2.32389580822563,2.32218054253559,2.32127304731587,2.32080434099359,2.32126307484092,2.32155227661424,2.32166197383861,2.32207084531123,2.32288858825648,2.32373624862656,2.32492297314466,2.32525206481775,2.32622936736208,2.32688755070825,2.32761554137902,2.32917124746999,2.32831361462497,2.32864270629806,2.32994910051547,2.32753576157949,2.32866265124794,2.327964578002,2.2841355506316,2.28361698193461,2.28272943166476,2.28332778016129,2.28156265209654,2.28057537707728,2.27986733135639,2.27981746898168,2.27977757908191,2.27976760660697,2.28082468895083,2.28025625787913,2.28036595510349,2.27995708363087,2.27890997376195,2.27873046921299,2.27889002881207,2.27898975356149,2.27935873513434,2.27841135001485,2.27919917553527,2.27855096466404,2.2789698086116,2.27871052426311,2.27857090961392,2.27963796443272,2.27943851493388,2.27918920306033,2.27894986366172,2.27861079951369,2.27906953336102,2.27879030406265,2.27951829473342,2.27968782680743,2.27949834978353,2.279418569984,2.27981746898168,2.27981746898168,2.27971774423226,2.27977757908191,2.28007675333017,2.28102413844967,2.28099422102484,2.28160254199631,2.28183190891998,2.28230061524225,2.28290893621372,2.28289896373878,2.28340755996082,2.28400590845735,2.28365687183438,2.28436491755526,2.28404579835712,2.28694778856526,2.28796498100935,2.28898217345344,2.29002928332236,2.33929330953619,2.34865746350679,2.34616434477127,2.34792947283602,2.34783972056154,2.34833834430865,2.34884694053069,2.34892672033023,2.34709178494089,2.347071839991,2.34727128948984,2.34700203266641,2.34628401447058,2.34631393189541,2.34647349149448,2.34639371169494,2.34628401447058,2.34717156474042,2.34755051878822,2.34829845440888,2.34943531655227,2.35042259157154,2.35215780221146,2.35242705903489,2.35389301285138,2.35489026034559,2.35693461770871,2.36352642364542,2.36143220390758,2.36151198370712,2.36233969912731,2.36345661632082,2.36476301053824,2.36387546026839
2.30085939110945,2.30087933605933,2.30119845525748,2.30123834515725,2.30183669365377,2.30258462927443,2.30327273004543,2.30407052804079,2.30435972981411,2.30522733513407,2.30618469272851,2.30711213289813,2.30747114199604,2.30882739858816,2.31026343497982,2.31001412310627,2.31099142565059,2.31080194862669,2.30998420568144,2.31060249912785,2.30993434330673,2.31221804006847,2.31079197615175,2.30700243567376,2.27207882842663,2.27101177360783,2.27101177360783,2.27011425086304,2.26981507661478,2.26936631524239,2.27022394808741,2.27050317738578,2.27007436096328,2.27020400313752,2.27053309481061,2.27134086528092,2.27121122310667,2.27128103043127,2.27156025972964,2.27176968170343,2.27277690167258,2.27271706682292,2.27297635117142,2.27414313073964,2.27437249766331,2.27527002040809,2.27610770830323,2.27763349696937,2.27975763413203,2.28069504677658,2.3243146521732,2.32444429434744,2.32489305571984,2.32686760575837,2.32594016558875,2.32633906458644,2.32750584415466,2.32468363374605,2.32451410167204,2.32449415672215,2.32294842310613,2.32209079026112,2.32244979935903,2.32125310236598,2.32163205641378,2.32112346019173,2.32092401069289,2.3210436803922,2.32096390059266,2.3209738730676,2.32210076273606,2.3216121114639,2.32325756982934,2.32392572565046,2.32532187214235,2.325381706992,2.3261396150876,2.32722661485628,2.32793466057717,2.3282737247252,2.32804435780153,2.32749587167972,2.33101615533427,2.32807427522636,2.32650859666045,2.28471395417824,2.28403582588217,2.2829288811636,2.28216100059307,2.28202138594388,2.28066512935176,2.27993713868098,2.27987730383133,2.27971774423226,2.28085460637565,2.27946843235871,2.2797277167072,2.2793487626594,2.27961801948284,2.27983741393156,2.27975763413203,2.27868060683828,2.27852104723921,2.27852104723921,2.27892991871183,2.27870055178817,2.27880027653759,2.27961801948284,2.28045570737797,2.27962799195778,2.27905956088608,2.27891994623689,2.27898975356149,2.27834154269025,2.27810220329164,2.27889002881207,2.27966788185755,2.27837146011508,2.27931884523458,2.27916925811044,2.27971774423226,2.27888005633712,2.28053548717751,2.27984738640651,2.27985735888145,2.28026623035407,2.28050556975268,2.28042578995314,2.28134325764782,2.28164243189608,2.28201141346893,2.28265962434017,2.28282915641418,2.2835671195599,2.28420535795619,2.28398596350746,2.28445466982974,2.28622977036943,2.28690789866549,2.28694778856526,2.28922151285205,2.28937109997618,2.33680019080067,2.3443692992817,2.34537651925085,2.34792947283602,2.34736104176432,2.34838820668336,2.34789955541119,2.34907630745436,2.34709178494089,2.34708181246594,2.34675272079286,2.34685244554228,2.3468823629671,2.34567569349911,2.34608456497174,2.34616434477127,2.34630395942046,2.34700203266641,2.34818875718451,2.34846798648289,2.34914611477895,2.3493954266525,2.35096110521841,2.35326474693003,2.35320491208038,2.3547506456964,2.35647588386137,2.36004602989064,2.36140228648276,2.36207044230388,2.36202057992917,2.36185104785515,2.36142223143264,2.36325716682198
2.30102892318346,2.300420602212,2.3014178497062,2.30096908833381,2.3016073267301,2.30170705147952,2.30188655602848,2.30364171161829,2.30399074824126,2.30465890406238,2.30540683968303,2.30659356420114,2.30718194022272,2.30831880236612,2.30953544430905,2.30986453598214,2.31015373775546,2.31052271932831,2.30914651778631,2.30963516905847,2.3106623339775,2.31134046227356,2.31011384785569,2.3080296005928,2.2711713332069,2.27128103043127,2.270293755412,2.26971535186536,2.26940620514216,2.26964554454077,2.26966548949065,2.26988488393938,2.26969540691548,2.27000455363868,2.270293755412,2.26995469126397,2.27103171855771,2.27152036982988,2.27120125063173,2.27203893852686,2.27288659889694,2.27323563551991,2.27281679157235,2.27353480976817,2.2743226352886,2.27529993783292,2.27638693760161,2.27756368964477,2.27918920306033,2.32189134076227,2.32502269789408,2.32428473474837,2.32566093629038,2.325381706992,2.32635900953632,2.3262592847869,2.32532187214235,2.32331740467899,2.32380605595115,2.32242985440915,2.32158219403907,2.32243982688409,2.32179161601285,2.32113343266668,2.32121321246621,2.32006637784788,2.32026582734672,2.32073453366899,2.32074450614394,2.32072456119405,2.32115337761656,2.32151238671448,2.32219051501054,2.32373624862656,2.32440440444768,2.32559112896578,2.32621939488713,2.32696733050779,2.32709697268204,2.32774518355327,2.32723658733122,2.32735625703053,2.3268277158586,2.32748589920478,2.28503307337638,2.28393610113275,2.28321808293693,2.28710734816433,2.28139312002253,2.28103411092461,2.28030612025384,2.28033603767867,2.28015653312971,2.27956815710813,2.28002689095546,2.27964793690766,2.27996705610581,2.27959807453295,2.27940859750905,2.27923906543504,2.27904958841114,2.27854099218909,2.27894986366172,2.27832159774037,2.2789698086116,2.27908947831091,2.27966788185755,2.27851107476427,2.27883019396241,2.27943851493388,2.27881024901253,2.2782817078406,2.27904958841114,2.27857090961392,2.2788501389123,2.27820192804106,2.27907950583597,2.27895983613666,2.27865068941346,2.27851107476427,2.27936870760929,2.27855096466404,2.27904958841114,2.27933879018446,2.27984738640651,2.27959807453295,2.28030612025384,2.2804158174782,2.28066512935176,2.2812435328984,2.28135323012276,2.28240033999168,2.2829288811636,2.28331780768635,2.28314827561233,2.28366684430932,2.28423527538102,2.28510288070098,2.28661869689217,2.28661869689217,2.28906195325298,2.33777749334499,2.34272384091626,2.34698208771652,2.3455061614251,2.34729123443973,2.34770010591235,2.34711172989077,2.3483981791583,2.3466928859432,2.34648346396942,2.34773002333718,2.34671283089309,2.34587514299795,2.34542638162556,2.34536654677591,2.34573552834876,2.34622417962093,2.34590506042278,2.34599481269726,2.34791950036108,2.3479494177859,2.34886688548058,2.34991399534949,2.35133008679127,2.35179879311354,2.35309521485601,2.35440160907342,2.36114300213426,2.35979671801708,2.36237958902708,2.36181115795538,2.36094355263542,2.36119286450897,2.36087374531083,2.36127264430851
