1.50006349303227,1.50998740896173,1.60253529887309,1.60894576367823,1.61990710249754,1.63440503387037,1.64065878913933,1.64194518743067,1.64483904957884,1.64884202403621,1.64830810717573,1.65244410953269,1.67720929006718,1.69636839166399,1.72932199241703,1.7343811898141,1.82331953091182,1.85083751707445,1.83080568732686,1.82956697957428,1.8268212858788,1.74963556675722,1.7302426749819,1.66461761436006,1.54467684369858,1.45494128551286,1.46572870355844,1.47773925110551,1.52532424644124,1.79224677141717,1.79300879808709,1.71468465128768,1.65179375460202,1.56167509778074,1.40510918314633,1.35275533686824,1.3533524580881,1.39621349565268,1.39742892148079,1.39911425617287,1.4021785435128,1.40114421243095,1.40274609888566,1.40757229632322,1.40636363285016,1.40744393544371,1.40782506269926,1.4181918628675,1.46306227146059,1.4723905981046,1.4872403872565,1.42765126084986,1.39358038506426,1.42427875873208,1.44643838949303,1.53020122015727,1.52704638570297,1.52383065686889,1.51239351383288,1.50959416770463,1.51457400846693,1.36734219660432,1.26869772190644,1.26547036916623,1.29715493001561,1.38059667077123,1.49673202822056,1.50123046271135,1.50640508349607,1.28290228677939,1.19246497384777,1.18863105211748,1.18737683145635,1.22231440620234,1.26140937674022,1.24255516972865,1.22183877142871,1.22078504538592,1.22054050397593,1.23353632954202,1.23828058383011,1.29638908467909,1.35702751527967,1.39070096169863,1.4361253077856,1.48304930445391,1.49225228120966,1.29199964934158,1.19369263539067,1.20807104062045,1.21236364858275,1.24501205352208,1.29939678149093,1.37840374880132,1.45507287027172,1.46674476154026,1.48487090550136,1.39024649520474,1.13092208846308,1.12259136020807,1.16009653202456,1.25850015917056,1.31845433604797,1.36466705218043,1.38415849653106,1.36375571893854,1.367248848264,1.34560595548621,1.09390831798775,1.09474440094964,1.11118911227867,1.1233299799695,1.12839945426278,1.15006011838017,1.16836727137815,1.19113397206423,1.181501432152,1.0670331459452,1.06945254817976,1.07083098028759,1.09344014763551,1.11654209076014,1.13230654784708,1.13629030795701,1.14354061763611,1.15591153559064,1.11673333288633,1.07215048094846,1.06116306237349,1.0878850232618,1.10538519005608,1.12534209509358,1.14181111455032,1.12496780776534,1.06911820738883,1.02773527168535,1.02507142189592,1.03792384800104,1.07100287258953,1.09118779237176,1.10362204115177,1.11357425040005,1.10785280562852,1.10216800992289,1.09704504159046,1.01832901517961,1.01720117289271,1.03099626163516,1.05604347849937,1.07119571497561,1.07385879614733,1.15124651943218,1.1134502916129,1.09535037514856,1.06701939555547,1.03436372336864,1.03636473379596,1.04049154841292,1.04720000099048,1.05382482202506,1.0441390486749,1.03849501453866,1.01201196851034,0.988234616806966,0.979124067891992,1.03560236277729,1.12501093592642,1.17045697249109,1.23454481695135,1.24280236569642,1.09066708654899,1.07585762974002,1.04481871484457,1.04490079184804
1.50776516287715,1.50304774828199,1.60010570546862,1.57026586527028,1.56816398711285,1.57456278549672,1.58211643230004,1.61007997015704,1.640362685096,1.65328688814659,1.63327729993551,1.64030268780563,1.6701133413583,1.67167334521355,1.75687341975068,1.7242610318128,1.79493284886325,1.88635044522483,1.83503941534184,1.83224701769648,1.85105110725547,1.74479402363769,1.71087090600046,1.66524169541124,1.57181031964123,1.440514407714,1.48552455031165,1.47468404143862,1.57522727299981,1.7941035858588,1.79638782682937,1.75870003933908,1.62021796225094,1.50733000020467,1.36420077568084,1.34613131921881,1.33872443872306,1.41473689962808,1.49860583330288,1.53197041397011,1.40774840073354,1.37280317654754,1.3708965192197,1.41604094051427,1.36881090995771,1.38604856259723,1.39516170766815,1.39928596049938,1.5310699940025,1.56786503783705,1.5676450483346,1.36362988131483,1.31759974874248,1.40870319352408,1.40830618023706,1.56161730279164,1.56800759654842,1.59581134622059,1.59730304331365,1.49591267245617,1.52404315038699,1.31458224250344,1.27689119263307,1.2584598777316,1.30198797248671,1.43563999917063,1.65987999834126,1.51653316602079,1.51627731387549,1.50206155048116,1.19419726923243,1.1885499609924,1.18346419903096,1.22069850848202,1.28680002092026,1.22303317072965,1.22265064182277,1.23980578019281,1.22188744516575,1.24578318691419,1.25719352070811,1.29770809830292,1.307269945234,1.35118982620349,1.40547335355554,1.46808016831194,1.52317024738495,1.44803999917063,1.17519559077104,1.20904389101633,1.23384689391025,1.24238120397272,1.28203309655184,1.38704259609885,1.52688015363851,1.44194495230021,1.50423166383881,1.35674997201991,1.11468964913316,1.11501934679039,1.18935664833606,1.29567017629928,1.31963270542533,1.37249845768826,1.45264003830056,1.36133066064359,1.37161082643401,1.34738128925594,1.02963654080337,1.02759954306682,1.04636138106851,1.14187429621443,1.13813263084064,1.12994987298395,1.1202112309609,1.2162534276331,1.16161749179593,1.06431923617292,1.00529970728706,1.05353603173629,1.1223403925486,1.170566202425,1.10528621056661,1.25327999917063,1.35469999834126,1.26107999917063,1.11835337401155,1.0446284441394,1.02687513611061,1.04347739641305,1.09508470437935,1.11318888298076,1.16125161092752,1.2009524505218,1.06666634753829,1.02360382623537,1.02266244283295,1.02193562268648,1.04581237679713,1.04522050913199,1.09735265125318,1.1252716685481,1.05763097226696,1.13664185836725,1.13916854985941,1.02024564541326,1.01728165917938,1.02897881446346,1.09120051795508,1.07698393426276,1.01856971205999,1.21872005054263,1.11837287404768,1.14109038038308,1.07016503723496,1.02124668776578,1.02123043283625,1.0846446614434,1.24001999834126,1.09480983843623,1.14923775414516,1.14344932507327,0.992322758862093,1.00723671037575,0.970005761430021,1.02469047307413,1.09962992462257,1.12554830736342,1.22205963229272,1.24843488864966,1.09022886860701,1.07169131805098,1.04164186069328,1.0417261530112
1.49891039759636,1.50025049621404,1.53146475635517,1.59813558370753,1.60640488867599,1.6243285728085,1.62951801276142,1.63159584376099,1.64406716114145,1.64595006726601,1.63710622575054,1.67154113767033,1.67289311196642,1.67666556838455,1.72125334097184,1.75697546910007,1.79626990464417,1.79405413870019,1.79035272997345,1.78759789621784,1.78627930794065,1.76563125468872,1.71557824459964,1.66950880529541,1.53053958613074,1.48092556129051,1.48376163002331,1.50211093308482,1.5744643238422,1.79461006436658,1.7952453431203,1.70921647469181,1.6517989556316,1.56167539413189,1.37721840293501,1.37732157267914,1.42587686354791,1.4566362670695,1.49712975425886,1.49638690231154,1.41985657112635,1.41675947051648,1.41483856299446,1.41464007406997,1.3776076852034,1.39200571540651,1.43434639855712,1.45319311233047,1.46091222311,1.46315091723317,1.46754612056877,1.39430935568928,1.37032797292068,1.38579500727629,1.427752731661,1.52879396903527,1.57931125785,1.59657117374997,1.59701342809787,1.51240523062501,1.38458736765541,1.31407309784252,1.31219506176797,1.30934668038947,1.3053963122675,1.34411584361907,1.37961051972368,1.51758191888392,1.51748781993684,1.50245102514491,1.21018986622718,1.19940400589906,1.226659867531,1.23751369378518,1.24637621967937,1.24163441092349,1.24035180911325,1.23757842719289,1.23548844576796,1.2382961279072,1.24195228201511,1.29387120115512,1.34181889342127,1.39935250861138,1.42954030227318,1.44827571867454,1.35002298814188,1.30376640090145,1.1882623745094,1.19809953915912,1.2165260700131,1.2253134324457,1.2946492016739,1.40534043314962,1.48999134949578,1.47104768260543,1.43901924014382,1.20531045717656,1.12033486954966,1.12433187686049,1.17086318381707,1.24972742247885,1.28143749647125,1.32388355841127,1.35137047366483,1.35254426692625,1.3515034727903,1.13346748941388,1.0505874501977,1.04924715408576,1.04611537257816,1.14027291965953,1.13737058401836,1.13327196194873,1.12560159979028,1.13117078371788,1.13606100055382,1.09663098223523,1.05662997797963,1.05507359459564,1.09010484908067,1.15864354742225,1.15026277025594,1.13973366580486,1.13233864929873,1.12984251516555,1.10575383832962,1.05153043149714,1.04248086123999,1.04385073494828,1.09751471290432,1.1019519842694,1.17622992928465,1.18810391578603,1.0610615720562,1.04887481592929,1.04702567875251,1.04724636535993,1.04741386571592,1.04693478653251,1.06581599395498,1.08657215820723,1.08732287570553,1.08740241592771,1.05548844577742,1.01872959074397,1.01781298757596,1.02987504035983,1.0817367395891,1.08241488503169,1.08356491094224,1.08453369124272,1.06936893230125,1.05885485068997,1.04875344509567,1.02353546457666,1.0231772163186,1.07771967089162,1.14786337738681,1.14803518350505,1.14764817144052,1.14596565446319,1.06777656636671,0.992935249721395,0.982144719728976,1.00211501313979,1.06792532262824,1.1140786394036,1.11635685563568,1.12081569677732,1.11465947420518,1.05741948678987,1.0424523604556,1.04294472303256
1.44705975543308,1.41546972418578,1.47575621326956,1.61393528765786,1.62568442904724,1.80912529030953,1.77856796891883,1.79670714084535,1.79449740055318,1.78951650891956,1.62825142167045,1.71806545392554,1.69496209086008,1.68662712970229,1.68565120221873,1.76563305176852,1.79914324896858,1.77086692850947,1.78783861858189,1.78447845011706,1.78343042597023,1.77851278493212,1.71794715645412,1.67845792764605,1.48590952935514,1.47621173668586,1.46520160371937,1.52431868173183,1.57358727219581,1.79554048241589,1.79569050785545,1.68106166335031,1.66546650252708,1.68268879344816,1.37502107044703,1.3755000051018,1.49965999922377,1.57981333208928,1.58006666542261,1.49623933783257,1.42345833873769,1.65372008363562,1.60962991387627,1.45527146938578,1.37286224234297,1.3977420110343,1.5679401029599,1.46742877757701,1.45877483831401,1.45944011872222,1.47121240493097,1.42295688179782,1.30895968710746,1.35622403336146,1.44806859230019,1.50983506030278,1.58780088255931,1.67324999875595,1.67568999875595,1.52330459575455,1.31504042322162,1.31488703307742,1.33914562774312,1.311275647518,1.26142049473376,1.25957810074999,1.24654118758875,1.61620166542261,1.61676833208928,1.50242617263198,1.22620498270822,1.18145500065062,1.25637934264339,1.25180718891375,1.25533276558988,1.28581683917395,1.36001008834936,1.23327061714457,1.23121595383439,1.22996493700244,1.23217818751427,1.29064581327612,1.36430419202915,1.48756005550016,1.57866030228788,1.51965884711131,1.29272000082947,1.24937000082313,1.17745887445905,1.15597736179254,1.15800358767534,1.1738759527839,1.3047598999347,1.42620892513739,1.50948911354245,1.50218782850036,1.41979982885,1.15471322543416,1.10241446178349,1.12868165352253,1.16193245094279,1.23674862370191,1.13751000165865,1.31142387727762,1.34852092185097,1.27866948105558,1.34826935340519,1.07829414262748,1.05014207477906,1.04997882280915,1.04148928464748,1.16683623682871,1.16681938049869,1.14326882126331,1.1095968103434,1.11076667589087,1.13923637244626,1.12697811086374,1.05687626163345,1.05425517241237,1.00486971205147,1.18051279971638,1.18081198808174,1.12984686398381,1.10471262408879,1.12620680167166,1.09101453132797,1.07166524998184,1.03978846175592,0.995717628854139,1.10139151231306,1.0937120768287,1.19199021655954,1.28607999834126,1.05414266719293,1.04927574971588,1.04337501121484,1.04713178553604,1.0480222325486,1.03012495670644,1.00081861061415,1.08338584527567,1.0856080528899,1.08479575134139,1.00452997263024,0.96943004229165,0.995661160383119,1.02992230241775,1.0813598982455,1.11941221487949,1.10826585811841,1.08541259992382,1.00456694687558,1.0122209758467,1.0166050374434,1.02540965857581,1.00950305742278,1.07135085738406,1.14859661292466,1.1491127069992,1.41406999834126,1.17023020736858,1.12635316135103,0.987799506360028,0.948404529631497,0.977674947007866,1.02604797598735,1.11239733298674,1.11340071413247,1.12464483639099,1.22652030375705,1.04893230297546,1.00886650833593,1.00063693188799
1.4854573143987,1.48233566974705,1.47911026035482,1.53513396538532,1.59807639036075,1.64593337343082,1.78639483277899,1.79500064513593,1.79437831246212,1.68181926372004,1.65845661434314,1.67916232182305,1.69474358104165,1.71020415194956,1.72360042375966,1.7548466781924,1.7668632614862,1.76801748984702,1.77897634925337,1.77853834350996,1.75708965155503,1.74678885400174,1.71381200908318,1.60744024231433,1.48824363196002,1.47891058877907,1.48015490204278,1.56998659050593,1.61537581402754,1.7905801856124,1.78229158851623,1.71792164285782,1.65940825954951,1.58161387714256,1.3852505940831,1.37910287606058,1.44507498373382,1.50705467536604,1.50471538764325,1.50106077092305,1.50950115605379,1.526375131434,1.50159579521853,1.42540464138684,1.4108853729828,1.41366538561664,1.51557655092124,1.50646198096838,1.49533010248433,1.48520026677686,1.4768852328,1.39844720807441,1.36153680626279,1.37993150289885,1.41308108019781,1.45590110763495,1.43165727043306,1.40822242120968,1.38561307635778,1.36269969184307,1.31446909748528,1.31434666495473,1.34465050960823,1.35217290950093,1.35606291329657,1.36787189436462,1.37293295858299,1.37527783615089,1.38745169885835,1.38363352448578,1.23751438221027,1.23350007481747,1.24228859947764,1.25193355103084,1.25755361415097,1.29103053528845,1.29348214756894,1.2770401611173,1.25543828116277,1.26018753250843,1.28072610632023,1.29885131596921,1.36153296506503,1.43882041607154,1.55019952979806,1.53556248740968,1.35054929687728,1.30374700542025,1.17285611630205,1.17033880249531,1.17188852455176,1.17567720184352,1.24241481566118,1.24426237245271,1.25631915105801,1.25719999929056,1.26070745347921,1.14143896270431,1.11710669437706,1.13384588453936,1.16532175924899,1.23593360166832,1.23343422671443,1.30168281370426,1.33921147674238,1.3426978559912,1.34532731935187,1.08102242878286,1.07702054116943,1.07441501459483,1.0688444625257,1.12187873074627,1.14216716493721,1.13428078102226,1.11920465508929,1.12443400090117,1.13050405451714,1.12448595589345,1.05627864903444,1.05433664650697,1.0506455018992,1.10624906811593,1.13852629511153,1.13511878869026,1.12966265753055,1.12656990228751,1.1087241160684,1.05199802122812,1.03731982086848,1.03600670614492,1.10683642211153,1.10955318345321,1.11678320501309,1.11190004746903,1.07881400105122,1.06848998377617,1.05729055119666,1.0478083926281,1.04603704481718,1.02742162815561,1.02550562334693,1.05636389746236,1.0864214177707,1.08620656366138,1.05191545938864,0.980669364846828,0.983532561700397,1.02455928476278,1.03944081145921,1.05681408509689,1.05316661965085,1.04535842028567,1.01682514291226,1.01449016913098,1.01460134471545,1.01178444706326,1.00985257253245,1.07413784005163,1.12278483158831,1.13184333722396,1.17773331153332,1.12565115370205,1.10558028882755,1.04004301102376,1.00121095912533,1.00873717205371,1.04620655346598,1.13485139357027,1.15065155388331,1.16885913882643,1.1916139276901,1.04578574468133,1.02665854496878,1.02122810079253
1.5634400740071,1.55273032229716,1.46601148613411,1.45485953951389,1.57858395442905,1.59618130065461,1.83598483340025,1.85736286666299,1.85968229661929,1.56407654476934,1.5382208377042,1.59938268870344,1.69320067355321,1.71599888164989,1.78217215264745,1.73096474495131,1.76798861420701,1.76731400175918,1.79942082567861,1.76115154310915,1.73158489422939,1.71528243495398,1.68314783023997,1.5625680988624,1.48988328565134,1.45599552274353,1.48060078469909,1.62820095476987,1.6497300580631,1.83358025137652,1.76539153517966,1.7201033322917,1.62901585513435,1.52732999917439,1.3981518872879,1.3666847365826,1.36954073895515,1.50869360746663,1.46605516465111,1.39170000149916,1.69274999834126,1.55472250254843,1.47246006671954,1.4059269002027,1.40710956826579,1.41550331494354,1.5234747158523,1.53757749174426,1.55728864247789,1.65747411772522,1.63395587978667,1.38216064269715,1.28229981324603,1.41665857253562,1.35675337059724,1.51383014190797,1.31982722118721,1.31715851747336,1.31612462200393,1.32301771357666,1.30982984371168,1.25894970844563,1.34752242280475,1.39463733604539,1.37536299191674,1.37219846772767,1.40632213072582,1.35822675971168,1.40226486588834,1.37845658019355,1.24239353665794,1.22806549516772,1.22737315408016,1.25107967234982,1.25811968815685,1.29513733953061,1.29645381036437,1.31661989259798,1.25260176949143,1.26828803450089,1.29997412382521,1.31179972998622,1.35951849425479,1.39748190840676,1.60101833263877,1.60053166597211,1.53795336232229,1.53988670337468,1.13265818485176,1.16656780470896,1.19438530088666,1.17751047210456,1.21217972764949,1.24230937859181,1.25527229676679,1.25361496064067,1.26357854442258,1.13656118659459,1.09214674882625,1.13661836440121,1.1696994227458,1.23848985769846,1.23062133231522,1.27415642175251,1.33715715282167,1.34468929597731,1.37029162623786,1.08430313223548,1.07767927866874,1.07594946614497,1.06233800343556,1.09497784533136,1.16683684089115,1.08863718063674,1.08838560657679,1.15432499275882,1.13777363216278,1.12268550037361,1.05734681118697,1.05641973867049,1.04725583708839,1.05496455169155,1.15105138388264,1.26366693913197,1.25011305837992,1.12680649204635,1.12227328807228,1.00667105793172,1.03625629864701,1.03484869038664,1.21578668396556,1.21693334687908,1.13141486488303,1.10156864029498,1.09021840985806,1.09527372707589,1.17521000268922,1.04956604621866,1.04237100743939,0.970527721757663,1.0239021308514,1.01314902780616,1.25771999834126,1.13904000737595,1.10293002840042,0.978138213877332,0.972254018115234,1.0203324779829,1.02274904121541,1.05913027626328,1.04802183034763,1.04016323473174,1.01782309566843,1.00172807605893,1.01588578941477,0.98731236353143,0.969720340956509,1.07681436373314,1.10464030059338,1.09505031372464,1.2480201084109,1.07300474074192,1.08726144178262,1.08553533493247,0.99196922197604,1.02164469585585,1.07131456636358,1.24352999917063,1.32528015416392,1.33018164174087,1.33747828709344,1.04409150548908,1.04641159515842,1.00880464933578
1.5573219893897,1.55380140786076,1.46926151088719,1.47042905809606,1.53724366036695,1.56972920807644,1.65313382868501,1.68229044450213,1.60362116324994,1.55248076425789,1.54450277810497,1.58081046965679,1.63046554557159,1.73140846728233,1.76337710401051,1.76321029423205,1.76368923609546,1.76169250602708,1.75748571714283,1.75800931075815,1.76019001711724,1.74429368089754,1.69060415391503,1.55715895811685,1.49473861693135,1.49685779318391,1.55131051488113,1.63210884312348,1.69081978232412,1.80177777097992,1.78527302845437,1.74462136979403,1.65697147592704,1.58164335092074,1.39312647050371,1.3670769804089,1.36785671762359,1.49546674715156,1.48882073973933,1.49562131127373,1.51880602640239,1.53065470481226,1.45131416046764,1.40617404070613,1.40693486306065,1.46911999534236,1.52131731544087,1.54748087257879,1.55231013152809,1.46927993029664,1.43360147299561,1.35837252986661,1.33588603428798,1.35959738382583,1.36753771697405,1.43661609266855,1.31955383322623,1.31826623705538,1.31775428463878,1.31875668379481,1.3131239254487,1.31016789568318,1.32963486171306,1.34982450689766,1.36774740105115,1.36864860463214,1.4092264797456,1.41023570140264,1.40774493543828,1.32814671410187,1.24575048157429,1.24338981271863,1.25992901921374,1.26489779919135,1.27397870380524,1.29280033059096,1.29395464513523,1.29432692622696,1.25699222433149,1.26744848895671,1.30648984425045,1.30866194573605,1.36576870945932,1.41188208945703,1.47339200877301,1.47824795617427,1.47805451111866,1.47636455778314,1.15338247277547,1.15886157931902,1.20221903960835,1.21207318214349,1.24148286128997,1.24368656411704,1.25626573479919,1.25713474076259,1.2606425672748,1.12757611710314,1.11952955931565,1.14047572093792,1.17174289075911,1.20292970448132,1.22138010142187,1.31337844757955,1.34052164868681,1.3427903663151,1.33302036353326,1.14083687267519,1.0774512532867,1.07626079090298,1.07381061240647,1.09569612060072,1.09596322338097,1.09489149833234,1.12933057646354,1.14799810570778,1.14501229094802,1.13249080272133,1.06461841318292,1.05713335506633,1.05306015716663,1.06003491883845,1.11181783706667,1.17110582424731,1.18723408426349,1.12956985958373,1.1051478306328,1.06518552497062,1.04180333853785,1.04965857421248,1.13357792270836,1.14426140781068,1.13572769919652,1.12481679531843,1.1078450329398,1.07914152190656,1.07117896225894,1.05851087422962,1.03522654565324,1.02503588992764,1.06179045448562,1.08736454329959,1.11335352518016,1.08039020307784,1.04626787110216,0.977548579024015,0.975833183682175,1.00202710797424,1.01957223472632,1.04944444663394,1.04859517531185,1.03306076408871,1.01562437986941,1.01489307989936,1.01392655733655,0.989051317106254,0.98954909692489,1.0994892534527,1.13172672883095,1.15928187653512,1.18665271577784,1.07068034983945,1.06643499244126,1.06238894286938,1.00319284476319,1.01878706666376,1.05342362978478,1.11401755975826,1.2934562215474,1.29388616561215,1.23270244491818,1.05372747485335,1.02985907364434,1.0217830092169
1.57298609635963,1.58318415585763,1.43008968115051,1.46940806782148,1.49972493940204,1.51726024880562,1.63205981288883,1.95887999834126,1.52990720937244,1.48675267895366,1.5267401161957,1.53246032330153,1.58548567579848,1.74135349726864,1.75829291334431,1.77520205396032,1.84032999917063,1.90423999834126,0.00484730572164758,1.88776999834126,1.78953720473007,1.76343075105312,1.69664190273988,1.55166743019146,1.47057453985999,1.49633901170098,1.64502264362045,1.6400624542423,1.83533406195049,1.83444091879617,1.8184023241443,1.8214297114212,1.67660501631757,1.70751485310886,1.38631768122039,1.36567593778292,1.36576053824903,1.53023010615799,1.37405442911475,1.50295678688312,1.50293965558822,1.54835873853347,1.40133536329605,1.40503592805429,1.40689123660413,1.52374955096132,1.5184599459465,1.68235999834126,1.56227187795644,1.38883998500352,1.38667998833882,1.28684648946763,1.28603319431467,1.31924539729863,1.38172077801172,1.51307017337757,1.30503982961284,1.57045166917094,1.57053833694351,1.45637999917063,1.39370007402833,1.29573523938891,1.30270366121887,1.33455104028684,1.36719824465237,1.36644301434879,1.68137016149955,1.63734859967779,1.6247846814726,1.24978222564408,1.24880477526303,1.24030553552971,1.33121226038125,1.33112950756184,1.4443499987451,1.28927048232933,1.29163284833694,1.29309985129114,1.24971079900949,1.26761983267387,1.31248806055725,1.26057876565276,1.37176807547168,1.42745354356565,1.46987838147126,1.47933393705565,1.47960783972073,1.47365272426954,1.14665027387444,1.15453532169592,1.22427560947914,1.23299841737513,1.38562076865964,1.44153045901457,1.40348287167982,1.41241096864482,1.40586631038799,1.10644395464805,1.11130840602843,1.14396860483076,1.17460292187368,1.17433249987571,1.21252407899005,1.45483851112162,1.46091148638987,1.40919999919669,1.32983260002027,1.32506356167777,1.05311854333289,1.04112945535972,1.07011066322614,1.14988077100734,1.09711863546368,1.09331049929491,1.14931074085469,1.15955823460589,1.19684708454924,1.1821336293937,1.07381712452402,1.07740209621424,1.04656479620712,1.07374931130896,1.04710389282657,1.15395167164933,1.23090024058212,1.13217251024656,1.08806692191259,1.08877116517057,1.01736667546318,1.06365599441641,1.1182092574747,1.15780708355314,1.156371658472,1.15496752869826,1.12202471549978,1.06881800189614,1.06697898409928,1.06548282601649,1.02991093593298,1.01528055920891,1.13363178326954,1.15421483964593,1.15645386883682,0.978154685704043,0.991814755171154,0.967403244642326,0.958328024242745,0.965794632006387,1.01431233292442,1.05073243933818,1.07920292320502,1.02572146773866,1.00396537594669,1.01390572509888,1.01303831858151,0.976817222047747,0.988533190551054,1.13093031534995,1.17282204073688,1.26270514438335,1.27934632370292,1.04222055025615,1.00636497840541,1.05728727511705,0.978738450099588,1.01378398471331,1.04230100592659,1.04414612108285,1.2944228899082,1.2956907475375,1.17842072934043,1.06388485073338,0.985086403789953,1.00123697833232
1.49172871029419,1.52894930175284,1.50980809810002,1.49232823595944,1.50686544505817,1.51247661739761,1.5588126701079,1.57704025071698,1.51614772403506,1.50351422703911,1.5112201860226,1.5370955495496,1.58030086534004,1.73281972708911,1.75187574438551,1.79834762684496,1.83028162042688,1.86768141674998,1.87934572637003,1.8850998180623,1.81992401886591,1.79927722269746,1.68836715087274,1.55129734268643,1.5010186595533,1.51066700636157,1.62392153363536,1.66551128525142,1.69691546746303,1.74557308866988,1.8120133283751,1.81547219867021,1.70252489090363,1.52196111414924,1.39619141170463,1.38540871392564,1.38627633222564,1.3851367594514,1.38046756935418,1.39385115487917,1.40883288394294,1.40791877919401,1.40584356966396,1.40658081444162,1.40727443356548,1.48541183809486,1.5268407606146,1.53747328869147,1.54722143339539,1.46929497146707,1.43361081093934,1.37731034681717,1.31093991450944,1.32582966267818,1.37163302466588,1.48544107640046,1.49469477077913,1.50813733701928,1.42912646388975,1.39375824700557,1.34374421353636,1.29781025188641,1.30000539516755,1.31577388481161,1.35617140893856,1.42846862213836,1.63680916233598,1.6349652649077,1.51872691740977,1.33259977917377,1.25483270171296,1.24641052290156,1.30761506017149,1.32652771680015,1.3707261777734,1.33668863714948,1.29000186206547,1.28048746311857,1.25427734522314,1.25876750052479,1.2660145414347,1.2734817689061,1.37067977548274,1.39753705851422,1.47326716312634,1.47655985571491,1.47795155993264,1.46499844551162,1.19953777873235,1.18167677783545,1.19773751841212,1.23619038454573,1.36548954834632,1.39534204002686,1.40603360612813,1.40881971608982,1.40761968966597,1.12854260007608,1.12334087340022,1.13009005155945,1.14871008445187,1.17587197415703,1.21505443608935,1.27368825650994,1.29160019341533,1.29047669150504,1.13926296925968,1.10344204424044,1.05693451082587,1.05847471642305,1.10159763887503,1.14539479230017,1.14768474164131,1.1504512697934,1.15281268293509,1.15722250976584,1.14412305066857,1.13868231614156,1.12219454152598,1.10386351922678,1.04712177564072,1.04818725712132,1.04744168155411,1.10313283597807,1.14019439435879,1.13626628020876,1.08870101158066,1.07281730099069,1.05653985498512,1.07291307629205,1.10442233770152,1.15907538502307,1.1582263227676,1.15735228081421,1.14140327923133,1.06647528681852,1.05550780868371,1.05080347622874,1.03433858017827,1.02800073724582,1.07578492220062,1.11121231886256,1.12981031137764,0.980037004846559,0.980767139975314,0.980874160141025,0.98488115693793,0.987332647883399,1.00543758414853,1.0096891463301,1.01783543743962,1.02126743632202,1.01055085489074,1.01240581140035,1.01158440984147,1.01195481840977,1.01284245730215,1.09328496513989,1.1582759867523,1.25876334364635,1.27204993512653,1.04085935551643,1.02705425254523,1.03232918219166,1.04021888399584,1.0446063334508,1.05206279139607,1.05732379351286,1.20654906441365,1.22513832089324,1.18557440753672,1.04688327447959,1.01808795712015,1.00154508727611
1.45799996225158,1.58180003717108,1.58388004833539,1.43713203784285,1.52874178361176,1.49375532409923,1.53194959771026,1.62376034780535,1.51229828006793,1.4783056806222,1.50229719337066,1.5417766803126,1.57453341057939,1.70994045384416,1.74623200453297,1.80059768697065,1.80214229210291,1.84759286934827,1.90614494309111,1.90236495502098,1.94756027133766,1.91602982640339,1.68167001393979,1.55094851715548,1.4832686041255,1.5289211586244,1.59182686192676,1.68797520431694,1.63197967978198,1.71634618361081,1.8009689623059,1.83444381045033,1.73797017351269,1.47784347844997,1.42045634777131,1.38357558117903,1.38736743063838,1.38573369510534,1.35997748879127,1.38531222104715,1.42374459194164,1.39465075613643,1.38266989066475,1.3534441046206,1.37188846087385,1.46521698778586,1.53749188520628,1.52618933340254,1.61278839641444,1.65781806768403,1.62369402136584,1.51314999917063,1.29491666618406,1.33648600030891,1.36376491904855,1.46794206925733,1.50197750512155,1.58153999834126,1.29476555142517,1.37605004913041,1.25232491200883,1.2650799035426,1.29217057920732,1.29719374894756,1.34567552108393,1.47322999953621,1.64013484845171,1.63137324271824,1.45908158557255,1.465048269421,1.27031212555203,1.23954202074134,1.28942212587076,1.31912715548375,1.43013834922351,1.43133168740282,1.28807173708428,1.27178387077461,1.24236100426473,1.22174790038548,1.25633392041421,1.29047289739545,1.36925670324364,1.36609992242154,1.49138262440499,1.44423493614313,1.52961014327586,1.44770161999059,1.22491845387338,1.15663625719599,1.15730796407842,1.24002029372636,1.34668425754848,1.37594401926528,1.53100999834126,1.4637551230261,1.46217511451258,1.14070552120685,1.09182132883839,1.10489424844373,1.13413626731799,1.17805780233472,1.218746604124,1.2628732739895,1.29100322113002,1.28770368968189,1.07445976266783,1.00548519807754,0.996334426830784,1.05765739018936,1.14347594812819,1.1411651577795,1.17809405021192,1.23104387733001,1.23397846018959,1.22072605001041,1.09280669664051,1.12299415220167,1.19173031603229,1.16105994705962,1.04109750734186,1.050236900912,1.03281895114355,1.03373691509754,1.14446701432845,1.17910045894857,1.08882670428508,1.06145845046722,1.02566005310509,1.09500841972635,1.09535477925865,1.23036057309287,1.25011529882136,1.21289568811884,1.17244457383592,1.06420079897498,1.04692626187569,1.00320656476338,1.04133945626919,1.02306627733787,1.02605676348181,1.09625937080318,1.1810600851944,0.980799223693636,0.969978258146989,0.978594898969259,1.00281165997254,0.992981657026745,0.994487179852488,0.98723967960759,1.01359878840467,1.04581190134766,1.00936593986533,1.01333994571509,1.01029941286138,1.0255191357925,1.01416233736419,1.06272233018545,1.14349256070884,1.24785925802544,1.30511007716135,1.03999946802778,1.01929797339478,1.0161822735962,1.04657053308842,1.04896190751755,1.07877462305697,1.0743993039682,1.17718960529908,1.26794054072483,1.19510021687766,1.03840933381217,1.04036351160683,0.996947495062418
1.41124957542696,1.43184659935623,1.44685257548422,1.45508980259159,1.4765282918137,1.4877123339721,1.54054278888881,1.56714063097097,1.5026464635739,1.49076362220142,1.49441327302909,1.53948789296383,1.57146604056827,1.64166937448867,1.67149113610779,1.70352003651104,1.80796333264505,1.8188863100082,1.82818265988911,1.83375057184993,1.84873809906035,1.83852201883824,1.65555615826488,1.60004462462749,1.57529159206714,1.56869468343992,1.6444726577814,1.6956719322679,1.71355353876706,1.74093423973486,1.74720976198071,1.74018032312398,1.56083976969736,1.46195532163764,1.42280328043812,1.38599090389814,1.38681984422472,1.38967528660289,1.39158764328313,1.39737885323968,1.40713309331782,1.37863810380292,1.37177205879825,1.3616886133875,1.36606241934603,1.45362274032576,1.50280593140011,1.56326915515111,1.63001085522934,1.64814079567096,1.63922012400829,1.42525005789664,1.34255264419129,1.3400871697151,1.3888537006627,1.41966325912651,1.45190779488104,1.48590795990955,1.31569921013535,1.307383878754,1.2561073510777,1.26038897754625,1.27595491277961,1.29732813912107,1.39348466296251,1.51108725391204,1.61391630958196,1.61339554392536,1.52026904371672,1.48483834004573,1.26708388302492,1.24848566163664,1.25138133001676,1.2560926514214,1.26171215948217,1.26800158285283,1.27529289848193,1.25691995709303,1.2403956282591,1.23950789527223,1.25444589331927,1.27267485643694,1.32657478901002,1.35380836715593,1.40869613522993,1.43572445574806,1.42617631101604,1.41951964724124,1.1937041597453,1.16209305657568,1.16696626823523,1.2255700915275,1.33606819415509,1.35201891238819,1.38680085380807,1.44221991806983,1.43784247468069,1.15856013568573,1.09732559993559,1.10411724149617,1.11535462944551,1.18396539204203,1.19890779029132,1.26601736436486,1.28075345435072,1.1848146531597,1.10490799730993,1.02225888548305,1.01249400793182,1.04904345496616,1.10427083519247,1.13572394718871,1.17940498857697,1.23157953440523,1.23252734565831,1.22580020354466,1.13664803948034,1.12585289864018,1.12949869251336,1.13128926906617,1.04703153737109,1.05056834222059,1.05152049971721,1.09477715338667,1.12696346119479,1.10470637605448,1.07891054548064,1.06730183124105,1.06235900538528,1.07489345420495,1.08994444345332,1.23980024646356,1.24477613537504,1.22516209027802,1.18505718876399,1.08799677445909,1.04385775760447,1.02646913337661,1.03634798491115,1.03233087908226,1.02901613442534,1.07038369060655,1.10895161083428,1.04724294862447,0.98944075652191,0.983176886019928,1.00088974307571,0.997448426163316,1.00321933806455,1.01217839851678,1.01746700861054,1.03417219461515,1.03144937205659,1.03085658623275,1.02886883029123,1.02584388416027,1.03144697106037,1.0527503758352,1.07378724758875,1.07565312058311,1.07466898951154,1.03670664332244,1.02138353219444,1.01803752746266,1.0345807286849,1.04877230750621,1.07170575841516,1.13023337249991,1.20886601922554,1.23239038123927,1.21491984485586,1.04002033007867,1.0405904113692,0.988810382120931
1.36024289896833,1.41695874346039,1.40688990135796,1.48359709198003,1.45003767643797,1.48179291330742,1.55161881980293,1.86095999834126,1.49724356354684,1.4854215330031,1.49147696983364,1.5378334176078,1.56934011156443,1.60780527922718,1.61787809383214,1.62619264327653,1.80219013414265,1.64027381273855,1.65764187019675,1.65703431901043,1.89743999834126,1.8165171299392,1.62468594233015,1.63072673016246,1.58581540594636,1.5518597339344,1.75516436430546,1.75060544469314,1.76132280098512,1.76192780860431,1.75547989820562,1.73388525345723,1.50599000062596,1.44809001000702,1.42653181109324,1.37533221468522,1.37332568370527,1.57005357404708,1.49929969646211,1.52421395253083,1.56728713392382,1.35497649396061,1.34678736488228,1.34590466406064,1.34653357243093,1.43967979264812,1.47567618983247,1.60251019457251,1.70692018597172,1.66497834324234,1.66565167961258,1.37217707846848,1.34397025111358,1.32744073028921,1.42731288522834,1.35411819740095,1.35415152236576,1.59253999834126,1.33037386484195,1.30152584617514,1.21918166366593,1.22971063811246,1.25596653139218,1.29772850358719,1.56021553117645,1.57866073281512,1.61855219295293,1.6165643205056,1.63820931383807,1.51663530828411,1.26088955218883,1.19990439390021,1.21490992438703,1.21539519476614,1.2505480041217,1.25205223902152,1.28439290318102,1.2367207749166,1.23609380220757,1.23897637762695,1.25193425628686,1.26712122262107,1.28777829875569,1.34428333794267,1.34695071509378,1.51999999858525,1.4056772452006,1.40572420810911,1.18217578020468,1.15651954309394,1.17615481850909,1.21722505456622,1.31698912191321,1.31767981086299,1.32031078295952,1.44799683278285,1.43505274622291,1.18247550366598,1.06698862925995,1.10351472021432,1.09842049013651,1.19336273350597,1.18684821623074,1.26991746589066,1.45086999834126,1.12691527974593,1.12655411705869,1.04083389566166,1.00275790074248,1.04069982439185,1.07682954232508,1.13063823974281,1.18132334695343,1.37147209134873,1.3788379886287,1.34187991670509,1.13959877390842,1.07478273092448,1.13173238855126,1.13257034597747,1.02396491251274,1.02657099157992,1.04949571661385,1.29503999834126,1.16328867086764,1.08944486913092,1.06938279668047,1.07883873545787,1.05544201263639,1.04437734828135,1.08426639951169,1.30912989927809,1.35146009823374,1.29056021036999,1.19753533352804,1.11532140504501,1.04142942830557,1.01646592789757,1.05172491844529,1.05362194827219,1.01538082617866,1.01778760987695,1.21114927503779,1.2181707224741,0.99830107609794,0.965444256941001,1.02907961934584,0.973873601733081,1.05566050021151,1.03342319011103,1.06568900395776,1.03583679342524,1.02742964762455,1.04258446480005,1.03302510456459,1.02327825890727,1.03605176476788,1.04178916722852,1.06876208028397,1.02897574024869,1.07183810858546,1.02921659914142,1.02811590074504,0.966651611242854,1.00742145448669,1.04876901210608,1.06762602736999,1.27954993639397,1.32599007849895,1.26521188705339,1.27209832681986,1.01536376131162,1.07729068014475,0.96999558312855
1.37962734141108,1.39017886774244,1.39796275320094,1.42876971081042,1.43856013531157,1.48119130928461,1.54438609242797,1.55695433202796,1.51122485008804,1.50516340586516,1.50826173134307,1.5343849578322,1.56337935478382,1.61443172732508,1.66492479327313,1.69825925388589,1.79881864180892,1.79731552088256,1.78430712335164,1.78230345864615,1.79390180525646,1.7803910433531,1.64155606124185,1.63122008832248,1.61363865760087,1.61897300516958,1.73532786140664,1.754703209514,1.75945364274231,1.76024921550001,1.75786711554268,1.74785755813754,1.56046868186868,1.50492627282846,1.46932536106362,1.40252692410558,1.39802463358764,1.57433127470986,1.57545176260763,1.57277667410736,1.56781285641467,1.43029249446641,1.36310989735911,1.35198372974041,1.35367145957489,1.44304408159311,1.46652787595637,1.55840949247995,1.59889675075175,1.62621536582622,1.41768938980654,1.34933438945588,1.33778156231426,1.33313023463756,1.41053594319716,1.39682196071855,1.38285785851485,1.37323664767731,1.36959365784825,1.34138407590116,1.24972125364364,1.24256914994171,1.24787571574187,1.3008762507926,1.55964396827281,1.56810395328823,1.61167464640296,1.60883627097094,1.60689651673846,1.51792847176016,1.3300702326998,1.27880934949321,1.24754229551201,1.25021365335243,1.25358202737992,1.25863716644152,1.26750197685032,1.26153334213078,1.24298045403881,1.24198678349057,1.2524712082698,1.25602130031646,1.30448210588459,1.33602069307124,1.35383956654578,1.44839204069602,1.43797774660459,1.22541673615565,1.18175972062333,1.17934152007408,1.17845862338907,1.19432507292316,1.26960723100697,1.31703607638698,1.36831477385987,1.42815515650628,1.43417994134497,1.14004957579676,1.08457801729229,1.09115858777188,1.11092637487018,1.18575569562453,1.17997166401039,1.176499942378,1.17130429545595,1.15647051395105,1.1465228083052,1.04325585008496,1.02463390199087,1.07206847139682,1.08870439309507,1.12724023944821,1.15971091758411,1.23437992108139,1.24959513942851,1.26818860506793,1.166313994144,1.0680496089091,1.05777145674385,1.05556475986784,1.04628353075545,1.04737726039278,1.04725278882505,1.13747741015093,1.14863386586216,1.10128547875105,1.07956339772473,1.07027968650854,1.05115646739389,1.04759845377736,1.08995065649764,1.20141472180468,1.27424032285083,1.26870616032746,1.22903771413159,1.08991589200515,1.06040946203857,1.02159626712537,1.02976612698551,1.02903958995113,1.02039366738041,1.01691784932335,1.0170643358299,1.00465586371913,0.986712313243999,0.967325721966375,0.975839529276357,0.974763963751118,1.02599724695289,1.03321415347753,1.03340518260042,1.03300482540355,1.03058752974412,1.03762621347893,1.03964375673633,1.04381713024195,1.04506330417201,1.04512966237249,1.05602821339711,1.05072607646143,1.04627753097047,1.03686785022521,1.0269230079053,1.02567913940744,1.02426071724988,1.03528682398786,1.04608119435067,1.10406435778286,1.18881178579383,1.23432714269902,1.23117708111888,1.02383214707533,1.03439654638726,0.99077942534143
1.60280166542261,1.35877105629562,1.38268517620284,1.4035509681777,1.43174469038612,1.48151224011098,1.53886924407829,1.58635834994896,1.51996691185405,1.50078557257926,1.51067488872449,1.53124447338388,1.55650985828492,1.62327942411265,1.7698210200622,1.79359247576517,1.8093227947606,1.83153914843735,1.78620175794239,1.77981128270034,1.82042409575859,1.75560044447031,1.66910989388723,1.63177245671665,1.60519126446126,1.62688427136377,1.70803922940577,1.768043468367,1.77544548154018,1.76237941489528,1.87168000545022,1.77496060210193,1.70060486169384,1.56741409717217,1.5697116579056,1.412731769289,1.3918032834404,1.5826713664824,1.57649769682583,1.62069023099515,1.56250529613422,1.46813993359475,1.38463646586655,1.33752123863695,1.36537876022092,1.44554200355338,1.45852134761965,1.52235634013234,1.57277989919884,1.70014999870227,1.34154217765867,1.34443711528759,1.32232983887414,1.28955954639728,1.45157570975013,1.45858457254097,1.52539999833829,1.347699581655,1.54325343996295,1.55793655754894,1.26343669827297,1.23710192119819,1.24006386124466,1.30461344619999,1.55871045137744,1.55892363152096,1.61601108407067,1.60846805083495,1.596896556608,1.51942499710498,1.51762243875072,1.311666456506,1.21585881360162,1.30955054910392,1.32407424154663,1.35683023440939,1.41185016981307,1.32618883683604,1.24387634315639,1.24225591414978,1.25194893965133,1.23323958445137,1.32033608114391,1.32749417240319,1.36147976468319,1.50149027455316,1.46077007676943,1.15715005920081,1.11708246454215,1.17555082075662,1.17821289133216,1.18610752917868,1.2191394302898,1.31571094510052,1.42174981139306,1.41668014077067,1.44012708159794,1.07490053302333,1.07860630750863,1.07468172202754,1.13022370929019,1.22885040481085,1.15823331409036,1.16625740667703,1.16453004476601,1.17902485511203,1.17779122678848,1.04325904504735,1.01498566765362,1.10415631111037,1.10404308477521,1.12088173348477,1.14580579013866,1.22694993552748,1.18757637092548,1.30306048307113,1.18508015715804,1.06394273186685,1.03991297169471,0.993912479044225,1.04438659116824,1.05544157731255,1.04470507430628,1.12166994727384,1.17658050970698,1.11056257877466,1.08920072010861,1.06351229067434,1.01085820693297,1.03691175371823,1.09430841658492,1.14836872633674,1.28331750311903,1.25676923379069,1.31973013981687,1.07587876105324,1.09423452542387,1.01158179076316,1.03108158584474,1.03034181634161,1.10682033782062,1.01432089284375,1.01553548081867,0.998337833655188,0.934311404439348,0.935846110886152,0.977323781108755,0.976071826218765,1.02037029520841,1.09232029506842,0.987612071762523,0.997981887628556,0.995858707960349,1.01698943472883,1.04670602390873,1.04740039937221,1.08290891160632,1.06430973218263,1.13455017896649,1.17814031973272,1.04279423536408,1.0401287266217,1.00565048866643,1.13602999834126,1.02216123967339,1.00340354997404,1.00427568679292,1.04725352204422,1.14746557754836,1.23871498190085,1.22913450671256,1.01263533427365,1.0502438642451,0.99957719316273
1.52331955711127,1.38568931632005,1.38421833275098,1.39076863906118,1.41035017273219,1.45957407779355,1.54281756691456,1.57016048990503,1.56859300999414,1.56559613867549,1.56481232091478,1.58577082930175,1.61578392092987,1.64853230193165,1.77586149026867,1.78518538842578,1.81029693591982,1.80999652018329,1.80714516148965,1.80350136211614,1.80815779763456,1.78307800364602,1.63831682083847,1.62438498088851,1.61653176412447,1.61921001423486,1.71350429422172,1.71599740765278,1.71890170093855,1.72204544080447,1.72208911722426,1.70470255518268,1.69028910962384,1.56938026277978,1.48342179282022,1.44559520286275,1.46485327986483,1.50521024671128,1.53578915336425,1.57982993141901,1.56479447086382,1.4978437038423,1.3847664363956,1.34762954124892,1.36697701620946,1.4710037816106,1.47986118916395,1.51773944567254,1.51394971796816,1.51099599861184,1.33387334984607,1.32991988704916,1.32447559585459,1.32666258717356,1.41636514452231,1.41633557634546,1.39761494383766,1.37950234204316,1.43369395986083,1.37202979411866,1.3015396595189,1.24756430313794,1.25790817461815,1.28511212469295,1.38292160114485,1.40361520377399,1.43030621672208,1.46148630760421,1.53770458836919,1.52128485919103,1.51696012371927,1.2826226838609,1.26171272757153,1.29217090229683,1.31247698729625,1.35253936938269,1.35771247397174,1.34098239379926,1.29521288685606,1.24609315397035,1.24930818217559,1.26097109311807,1.28942565731664,1.30729779504059,1.32957628702818,1.3499916825132,1.34553410354587,1.21774157415415,1.14195018252206,1.15631600987359,1.16641305103226,1.17199814211714,1.2324856913468,1.33704725680867,1.35362817678842,1.2740051308718,1.2380371467009,1.14562407011868,1.08601973353928,1.0965437017847,1.15388096937888,1.17739378348765,1.17787434710666,1.17897940152669,1.17907882233993,1.1789356548564,1.17859048576737,1.0426133243963,1.04078275560467,1.07596767417172,1.08685152677036,1.09986248357444,1.1303572454206,1.20408865668483,1.23637430194931,1.25730737958986,1.22276986466951,1.07063007709425,1.03392386353742,1.0285873652249,1.04566848627974,1.06260991341437,1.06414592426063,1.07249197755067,1.07540161400502,1.08420332352516,1.08390131605233,1.04721236948934,1.03213525240717,1.04379582040932,1.11469115698529,1.17533341634266,1.27345693782736,1.268728917503,1.13391528374343,1.07079675253632,1.06508054864165,1.01880879511283,1.03061354189881,1.04084688013869,1.06860112929034,1.01729862780767,1.01601725694959,1.00266900767725,0.998040382679803,0.983084495920091,0.984251247852334,1.0013532465126,1.02756614777746,1.03619471447496,1.00313641971958,1.00039252357137,0.998651921859886,1.02075070800109,1.0395797642635,1.04488995060564,1.08265873607205,1.08809393056416,1.10582461394677,1.13015225972822,1.09945872849844,1.05825575158011,1.0372838507814,1.0323223276421,1.02697499474113,1.02911858735251,1.03039246680208,1.05792500354524,1.14930069512336,1.2343414967331,1.23119772898858,1.01529358270134,1.01974235904866,1.01297241530329
1.55148167031464,1.38705784141642,1.35643557469289,1.36231221985602,1.40054482712003,1.43675395878378,1.54583592669311,1.57088495476636,1.60462067186246,1.56224421489083,1.56282247322685,1.68639606233506,1.66236161817386,1.66345250854392,1.78195908817192,1.77921441391291,1.81018187350761,1.61251999400388,1.80708042707367,1.79889937849255,1.87397001007616,1.80342653185779,1.55399385057036,1.56696014403772,1.56219626862024,1.56791015535369,1.72352615653298,1.68202557981532,1.69635424347299,1.72566960541842,1.72271113127036,1.66503765063309,1.66730118388666,1.57152083611295,1.40906076155359,1.38997883435063,1.50218576729456,1.45757438527476,1.51428000919067,1.5861897036449,1.57170147843746,1.54819994253317,1.3863110723236,1.34103139462789,1.36510998449933,1.49563269210947,1.50195127504224,1.55475190152406,1.50819240198208,1.50908957154873,1.32671576372677,1.29237200123986,1.31915538665341,1.32952485356382,1.41544683436972,1.41474866187641,1.33944493772531,1.33766495132115,1.56801999834126,1.30944006620781,1.33593616174293,1.2372224645614,1.27244422132498,1.27152299931653,1.37151988678555,1.32149608092162,1.31635437405938,1.31619344452283,1.56186858505904,1.52259943971159,1.51631379143618,1.25784629386881,1.200389722862,1.27383388332136,1.30008629231824,1.34028906975359,1.36678613461027,1.36816907196462,1.36770205411684,1.20815874344441,1.22885162708125,1.28938700590757,1.26353264612661,1.27310584986069,1.30153938616286,1.35734675287882,1.33488415749523,1.33254171950805,1.13459812539259,1.13168884180314,1.12749410200189,1.1682630863453,1.24609632821498,1.38559342711051,1.37631943120836,1.186821343804,1.18739634003839,1.18797688841272,1.05415979461748,1.11436303515103,1.21514036209388,1.1756536157166,1.17682129442861,1.17852144211207,1.21013928497494,1.31866017142741,1.2851398263243,1.02926979992359,1.03831903395996,1.06081631670147,1.07107015698011,1.09073831557076,1.11956472894693,1.18002331109782,1.3638955968484,1.38756451510043,1.27808999917428,1.07616639974624,1.0025947714184,1.02229258725014,1.04599090835211,1.09060629375248,1.11200439394453,1.06862000402364,1.0689195932626,1.08428397921388,1.08458733040493,1.03898601357581,1.01657926466332,1.04901939214748,1.14198742742035,1.20228136203583,1.28639977938674,1.31611036883311,1.07494002648815,1.05674552760217,1.05956669428644,0.996589352824647,1.02922316145715,1.05901713052888,1.11676024551944,1.01993892058877,1.0141706699424,1.18290999834126,1.10408999917063,0.982534213214896,0.985991668779698,1.01873958439388,1.03284945524179,1.06086668868209,1.00492314620797,0.955139851626552,0.98251034310477,1.02511654111639,1.03392460806878,1.03098596331092,1.08062659261965,1.09216685060657,1.07997266049577,1.25061999917063,1.37724999834126,1.08852247174958,1.05040658242338,1.02383126663804,0.976235356053813,1.02749486088792,1.02960099340928,1.06612833744561,1.1508739845876,1.26713343327391,1.26826677009274,1.01008950005302,1.02404916738304,0.977974817483989
1.45360711987029,1.42715765821407,1.37215908768768,1.36784339780659,1.39388218612483,1.41574848361422,1.49427711069911,1.55914534576114,1.57225627773627,1.56327366245337,1.56336651037646,1.59318267760414,1.62323188993441,1.70063804852178,1.77125973042754,1.79700051697131,1.8076483579368,1.80656943007857,1.80673879083205,1.70308389590335,1.6700535311338,1.631620999153,1.56337034569416,1.56473114151395,1.59984896482925,1.61521405229326,1.67311034498875,1.70747521344816,1.71472649834782,1.72611621987163,1.72513261125215,1.69751951697549,1.60584281111489,1.55935750083391,1.44164519249851,1.43032821982361,1.44242141555478,1.44759404808706,1.47341595438129,1.48585443066503,1.48107014608754,1.47889873800543,1.36376890696487,1.34582719281831,1.35265215004856,1.45773268408602,1.518729334968,1.52428587742847,1.50688217066871,1.50719049532,1.40395729594846,1.34868185857822,1.35478334270871,1.37710513007221,1.41123430034291,1.41407008056241,1.39536052619288,1.38462008024955,1.36951783970247,1.35794388201569,1.29972814743088,1.27155428541707,1.27637709058294,1.28502163723882,1.35669428358934,1.33640991133094,1.31685383692034,1.31682890488307,1.51106135907047,1.50108332871652,1.32614138797726,1.24675552459482,1.24003114040345,1.27443589338995,1.30580814177128,1.32242448324626,1.33571648062074,1.34824079521564,1.31134436855605,1.21415048848768,1.21882023051474,1.2510081001447,1.26720931310171,1.27341176114854,1.329208598553,1.3502571421787,1.34541642716163,1.20513493909807,1.13463646903966,1.13285388157444,1.13073100846543,1.16306049909609,1.27791003338003,1.3712192224893,1.37263981195321,1.27432692104991,1.23822761048776,1.20139673568176,1.11251755350503,1.11544474608522,1.13537134947349,1.15161284415763,1.1632784759007,1.17173103905537,1.18606187478332,1.22926488568741,1.23294345014734,1.08816657981911,1.04612651835886,1.05314321027769,1.05834107303473,1.07441131631931,1.11780899348825,1.23312875413359,1.3509921346964,1.34036149975648,1.19932652255105,1.08002050018457,1.02320128603367,1.02696630676022,1.04038511967099,1.06766414170592,1.07158310289245,1.06908954328215,1.06822053159662,1.06616248579483,1.05355572513783,1.03793330466509,1.03536499810283,1.06452943493934,1.11472473026809,1.1538297196478,1.28504223361197,1.2843375405237,1.12469324254671,1.04395157116602,1.03597056914031,1.02497763390092,1.02602826136645,1.02396158082892,1.02106523744822,1.01978995861361,1.01746385843,1.07207186932942,1.04332571855986,0.988065221330308,0.986401660393761,0.999739855842553,1.03430135536007,1.04596299010507,1.00517127112262,0.983413754737506,0.983430274702553,1.01816342121207,1.02985362566983,1.03058394005502,1.04761812551877,1.07629458442125,1.0787196334732,1.08641095543202,1.09703929226465,1.06157835503412,1.03833953877847,1.03347276263635,0.997668835314147,1.01172666022514,1.02550323961585,1.06876567411886,1.15064940171269,1.14980381315512,1.14906378639666,1.02729745246873,1.02343573261942,1.00474622284884
1.44734089009581,1.56926999834126,1.37382111466181,1.35207193103374,1.38530827378935,1.40161696156414,1.44966444955475,1.54213536717838,1.57928817532797,1.51595802600122,1.52680025123431,1.53515923439852,1.53552330805899,1.74892002459769,1.75099405465213,1.82941542730232,1.81537048174371,1.82268235881698,1.81694711490276,1.61374304436083,1.63307678658438,1.58220832620736,1.5599414407574,1.56275495359845,1.64357454421575,1.63294361002275,1.63159340537991,1.76844313341253,1.79646814469848,1.78569096581556,1.75603869301857,1.72184744981506,1.54906244001172,1.54463427665496,1.46744238238377,1.38635950558516,1.43713190789997,1.43836007943694,1.46612895663034,1.49248540326828,1.47691550831361,1.47600096312798,1.34082320501759,1.34570353300453,1.33464810042705,1.43696989724581,1.53098682256045,1.62791015412398,1.35732000166087,1.60256024129807,1.56171476193827,1.34104767891293,1.36358042876296,1.38982589454099,1.40663495688851,1.44425186511675,1.50397253429895,1.49398962690917,1.32914982611958,1.52327999834126,1.28234113821077,1.25794179357106,1.31391613668376,1.2928724266056,1.36903734081571,1.54176000914802,1.2844995862641,1.2794701652409,1.53385793243671,1.48366565253874,1.26524939682468,1.20975948346523,1.23381778071111,1.27436159227529,1.31374751712424,1.31178682605614,1.25526721125668,1.39546013001511,1.28806619893859,1.19763146950826,1.20845120706735,1.22245288051367,1.27145963419203,1.27289803966105,1.35398999905589,1.4917043884665,1.50118021410402,1.13286055835044,1.11727716820983,1.12023787397805,1.13104615738458,1.15203255149946,1.32123010852172,1.3706855203082,1.45063286222316,1.45028981816302,1.38132397653635,1.21560508332483,1.10875028859669,1.11899383737084,1.11973641651918,1.14598287698165,1.14497082942216,1.16496809532328,1.17067436268583,1.22345516852279,1.23579343184915,1.1367601028585,1.00699402867774,1.02756081300932,1.04904640702517,1.06447091453102,1.11667910356226,1.38824481444168,1.38094528843566,1.32261019542757,1.15508441134807,1.08480170611724,1.01986460310105,1.03094518176366,1.03240268787484,1.05029639245087,1.07494829320196,1.13980552020772,1.08863767206884,1.04373402731108,1.03813136648228,0.990108923201262,1.03117637148252,1.09449111793578,1.09477493314485,1.10397953340718,1.28528875162709,1.28497713054046,1.16451088195192,1.00967320812304,1.01011168400324,1.02347988088956,1.02547198393799,1.02427280204903,1.01846143041961,1.01958340140649,0.98414159076028,1.13437010042249,0.998373778699754,0.990605392007136,0.927935764626557,0.990699765280488,1.0383688229394,1.11001018989682,1.0056691941286,0.982236043261975,0.972636920148598,1.00209400731909,1.02832274183914,0.981611456403268,1.00813383119451,1.0665305888338,1.0773017043815,1.07487006463907,1.11379253767979,0.980117675261185,1.03260860956929,1.04207903648548,0.963613862120814,0.964398522204431,1.0209474100531,1.07103164265151,1.25366999833636,1.14914636772711,1.14782776505307,1.03100368801022,1.02077943981482,0.984152733246147
1.43967204255818,1.40244723153298,1.36275516868391,1.35709004263959,1.38746689235351,1.41562038566993,1.44502315086888,1.53513550148766,1.54013535439236,1.53209040810445,1.52977589226919,1.53356015802146,1.54603894947351,1.63518975743432,1.77058482013143,1.80981729478588,1.81517861961771,1.8171365780817,1.81662650121455,1.69986902968971,1.66789255199178,1.58376513894891,1.56864826132737,1.5961455499423,1.6314193442691,1.63548103813212,1.69081361736911,1.78091584663522,1.78890679955633,1.78621125808171,1.76775190688526,1.73456183376881,1.58408722104686,1.50315236931209,1.45402646188729,1.42099273915948,1.43514285838792,1.46947577583345,1.47145366668271,1.48539659261536,1.48110527459717,1.47893154193058,1.38877664038015,1.34350346908864,1.33989428689057,1.40370591379532,1.44242310685603,1.5891958668073,1.58719890204216,1.58325441617056,1.57511136446441,1.3868391111326,1.38743110567745,1.38701466175126,1.41197457114343,1.46351962826163,1.49991714700034,1.4966605027977,1.40170213551825,1.4374286903731,1.28597322776538,1.28963405297735,1.30158445177377,1.30373820312934,1.36645612344994,1.48486854148782,1.49589964635071,1.50424545924084,1.50978242025244,1.35226959879652,1.27295881797156,1.25360504407309,1.26399943851311,1.27554313146293,1.27645499161458,1.27844671657752,1.28106818186829,1.31872300803889,1.27527969009945,1.2134580145744,1.2275467702614,1.23486544723688,1.26438353132602,1.28772762918999,1.37939040710229,1.49604423383643,1.49874594076744,1.12412683146031,1.11979004586582,1.12066044409718,1.1274256068281,1.16461144447937,1.23545518662373,1.37592541856388,1.44872888845414,1.4486104235653,1.40233569054472,1.2626509528378,1.11200752858678,1.11647551398562,1.11830395077134,1.14056593958603,1.14753326199557,1.1772399783074,1.1875406241289,1.20400303561132,1.21749197406075,1.08702836288852,1.03646325572342,1.03112769356603,1.07665390332207,1.10338051923542,1.12582366153623,1.23280400128717,1.24798723512755,1.24618379552624,1.13631431029067,1.07305310645247,1.054398653191,1.03410645965288,1.03680278092469,1.07466768557226,1.09218678757747,1.11221624709596,1.10013429392908,1.04358969949896,1.04264480987911,1.00654635928194,1.01604849368856,1.0595766649412,1.096313391903,1.1011736358909,1.20179750672784,1.2179574411314,1.15574007417468,1.08258901044664,1.06580251205047,1.05383044867701,1.04999699806833,1.046418287627,1.04161056328641,1.03605448138363,1.03197238980275,1.03052198190347,1.02511261656402,0.990360314874942,0.990180109298585,0.991241905706751,1.03427029738098,1.05262188028971,1.0349239299769,1.02576359676099,1.02331742506635,1.02705097678474,1.02848508519125,1.0045974051845,1.01599164587995,1.07164700815606,1.08871926571718,1.09320768951771,1.10457891849447,1.01829548942155,1.02165755727816,1.02279054269088,1.01240142887286,1.00546640182007,1.02598541964423,1.07152442698806,1.10462273713658,1.12848700064345,1.12439805717569,1.07456839791732,1.03250348759056,1.02408174971738
1.48536026446846,1.34461216085144,1.31293546387877,1.34332736410341,1.3906957482394,1.43234601512989,1.43768304570778,1.53018419313935,1.54716553195267,1.53357125952516,1.49512411326519,1.53222845320233,1.56623977389545,1.581169277071,1.78966987128174,1.78946403806253,1.83175178922896,1.83252988181313,1.81747413253742,1.83495731091882,1.79555997405269,1.58352708196824,1.55190647582031,1.62380140956748,1.62053955443981,1.63830790970051,1.77595207699844,1.79214521537512,1.79160701734008,1.78309649389245,1.8315126732445,1.75294060653066,1.60666072003532,1.446926099743,1.44363310407936,1.37613981445494,1.43350454288925,1.58138847481937,1.57987794884077,1.61044484964199,1.58655850578394,1.68875000128423,1.41625135788437,1.33157372288133,1.33173335314484,1.35748612410526,1.36721395019236,1.63530660104953,1.77828999834126,1.41634000170829,1.63822999834126,1.38596911904804,1.38869778116462,1.38030821442126,1.41680756651241,1.49251997485447,1.53639574210303,1.54297109713078,1.33031998992067,1.52835744057327,1.27754856417965,1.29639387010952,1.29767847248721,1.30524717846613,1.36407124891006,1.4698158028438,1.58127388117429,1.57880918918639,1.57840860259749,1.29805379209959,1.27889619098291,1.23266206614713,1.33154061280164,1.2752666507292,1.27518296685894,1.25067546743091,1.2844635463598,1.36527511863128,1.25704311819884,1.18606401031326,1.25611874752771,1.2532980320229,1.25601191235618,1.31525440360844,1.4201701339484,1.49860599677072,1.49935294564049,1.11969310868465,1.11910688734235,1.11936175317811,1.11492402855762,1.18874640950453,1.17626853176785,1.38125926697036,1.48481499509963,1.47133520371477,1.42285176145726,1.39076999916613,1.11050736193106,1.05523662402207,1.06841231342381,1.13291902852777,1.14995338757036,1.37233333208928,1.37142666542261,1.18158606910991,1.27738008065075,0.984884868441486,1.0428886319795,1.02282790998742,1.10241794956618,1.13027573919303,1.1365580490965,1.22359120700188,1.24858031537524,1.24246032768921,1.10472980099629,1.06110660487958,1.07773356502983,1.01847185795429,1.0513120823234,1.14788051272859,1.10463557625402,1.14094002330673,1.30792999834126,1.02266885752718,1.04528626097225,0.971128418727811,1.00160314812421,1.02331867325311,1.09831450221909,1.09835185417781,1.18484020826687,1.26071024446647,1.14669553501215,1.10544214780764,1.0713421201431,1.05971666795787,1.08143338562522,1.14383144103955,1.16060772874086,1.12079182305517,1.16081242529493,1.00289979720116,1.12003004042278,0.957856170524004,0.987585540747741,0.975001287976339,1.02935863898225,1.07175172130115,1.16447999834126,1.02629257189163,1.01532425843846,1.11124682454062,1.11139350317624,0.97768846629965,1.03593770333183,1.08008735106165,1.09388790905698,1.11387089102952,1.11267880582842,1.01575913416448,1.02435854751391,1.02486649865649,1.01878332014469,0.996091524737492,1.03119986297691,1.07181965544905,1.08907266573103,1.13191579882039,1.11908912457633,1.11962762641008,1.05267763615034,1.01352915495711
1.4263109648306,1.3454322063513,1.33446142807723,1.34182165609527,1.36789587991075,1.40077231378899,1.41455581883615,1.46668398468778,1.47354409782445,1.48301867964401,1.48514379300193,1.51364002004268,1.54139841074623,1.58192985878443,1.63349727950304,1.81156648940137,1.81357290287129,1.8186485069375,1.81711562619986,1.81225872753222,1.61127421166593,1.57094553574769,1.56549515808383,1.59883862925491,1.60496506336738,1.66315332426883,1.76717627404913,1.78400621343165,1.79046855640018,1.78935250430812,1.81054415723125,1.67596894154333,1.62075878633741,1.50907359522505,1.45709793677372,1.44872190744799,1.46142034866882,1.54495929176034,1.59461580649263,1.61621058386438,1.62167223924164,1.62519137880015,1.38868724590989,1.33316782099769,1.333494969792,1.41159660827338,1.44779050962977,1.65841879426635,1.67515873574755,1.5858280863044,1.5543356917809,1.46778037359037,1.44301062195117,1.43832281661538,1.43318621503591,1.47226765188351,1.48562586459694,1.5354561748654,1.53290252023447,1.52568619788747,1.38079855017024,1.33752959333304,1.34810025799363,1.3528146126381,1.41261935173125,1.50477079405481,1.57201304459195,1.5764251927766,1.57773580902994,1.30113982101098,1.2791132102165,1.27933503915455,1.30886654715541,1.31696174684636,1.32339612461599,1.32766496439874,1.3369244890503,1.34829897040315,1.27048405420985,1.20989624426948,1.23040333261856,1.24375589062622,1.25278736181666,1.29108548536675,1.3179765039543,1.29964754290251,1.27343350061876,1.12239827091972,1.11962624871559,1.11833248495327,1.11731381706501,1.15372378390992,1.16163911257001,1.27072584050817,1.30441698649646,1.32157563105121,1.31784868366837,1.31455472899523,1.08833031280787,1.06021553965581,1.06450145276064,1.11447902026537,1.13912487152999,1.17604188139028,1.18440577471204,1.1830645654254,1.18325879466506,1.06605521471988,1.0751761030912,1.08315725782554,1.08467641390413,1.1302147364553,1.14396971845362,1.23280426391724,1.24798724893065,1.24618380922018,1.16000697373811,1.12347026370371,1.05142306874838,1.03686660462995,1.05314085582225,1.10578358866281,1.10638025719004,1.16178839918618,1.18209675432861,1.03585910313306,1.04095878554465,1.01098664003474,1.01087918449315,1.02205520048819,1.06783430934839,1.092612706717,1.11799256107349,1.14596356463954,1.14168155706421,1.12193827785775,1.08098708614665,1.06888265243059,1.07474984641081,1.0995847048954,1.15327844579336,1.15121658561694,1.14557906964201,1.08649305403797,1.04967540498329,0.977507231797107,0.990160536420417,0.991650928392078,1.05219724287918,1.05635341981511,1.05202832429578,1.02834476630402,1.03348200941647,1.09204821185656,1.08175607825813,1.00001777808486,1.01789047385416,1.03097530611648,1.04873688226724,1.04438112280099,1.02062945528022,1.02042535582905,1.02345659447688,1.02393839677317,1.02358277490238,1.03058313593651,1.05540424834385,1.07370303647052,1.09103133981406,1.09235450012853,1.09255210126422,1.06350748702136,1.03703956501636,1.02042056555169
1.56179999834126,1.34493257113531,1.32835607128474,1.33937449390729,1.33995728929218,1.37421849547541,1.39856534276862,1.45068238227259,1.46880663861136,1.46945798808186,1.44492755866081,1.47960021512862,1.52227515651583,1.58156661066391,1.56245511683848,1.82070813482982,1.80891440996602,1.82344934960376,1.81708916264873,1.7963227825446,1.52502578722475,1.47419387610404,1.51192304632889,1.57933655209056,1.58969753347768,1.68440821066516,1.76226946338466,1.77459155565733,1.81421283017319,1.78910784713604,1.89477999834126,1.61292438860846,1.63037103781704,1.65783691556913,1.46429193396936,1.44002249540686,1.47621009334086,1.52322011066252,1.71804024849796,1.62995857547642,1.62834542280525,1.62738290277959,1.35598121332994,1.30908638915683,1.3346022304782,1.53991249386481,1.54154280196964,1.7517149911792,1.75392064293562,1.74548450929964,1.50893994147135,1.49924191123323,1.44839247142458,1.45360624381628,1.42005444968645,1.46139836295907,1.38083989454408,1.56869005808889,1.56921005995145,1.50944312636421,1.48553500445201,1.32611094398931,1.35506902527182,1.36404916649205,1.4672999992473,1.55578296021881,1.56906857269581,1.57807237796175,1.57882694439072,1.30504579112928,1.27779534844812,1.27828844512985,1.30053689320589,1.35412758007264,1.3637366669083,1.40765682027978,1.46810726106109,1.47596273647246,1.28229389377446,1.1951081204896,1.19205132709265,1.23309216289485,1.25050918627182,1.27326986432146,1.35820052326674,1.25073827929683,1.24977157454153,1.12692929923434,1.11826775214653,1.11759047106389,1.10828655105655,1.11733617102474,1.1556681637865,1.23603005812764,1.2714000378566,1.32831895841994,1.3101396992837,1.31148386243625,1.07954295584217,1.03314960941496,1.04087280721805,1.09690115960277,1.13083494115832,1.16491760079654,1.18573859532696,1.22844507007409,1.18311496809143,1.05429118142488,1.08505691620324,1.08629967820498,1.05642921854638,1.13070770098472,1.15732156342918,1.38861327459858,1.37921726064805,1.40623946143589,1.28902999917063,1.20476999917063,1.02807624918658,1.02938444952442,1.05286950154804,1.10310296535333,1.08096400983656,1.22648346112191,1.22577677546896,1.03068384907821,1.05660578151795,1.01163545120066,1.01084113670637,1.01909757972515,1.03392290241825,1.08602846080949,1.104332883526,1.15144274747057,1.13062880681061,1.1580162889123,1.09974071635151,1.04535832537404,1.01337953129022,1.05927967787177,1.15623348247506,1.21573005932382,1.13456909826791,1.13608828122053,0.992120453139405,0.968201616689101,1.01906132349837,0.995643874472751,1.08492808772469,1.1116024273668,1.0462766538881,1.02246326977297,1.03761154591446,1.10570805615332,1.06590433815493,0.988526736662594,0.975057744266783,0.993682982186417,1.04903698018443,1.03752680899917,1.01549304725717,1.01293138961991,1.16241999832658,1.06635175288564,1.02323680355194,1.04053844084911,1.08127262020445,1.07569962665176,1.23169999834126,1.06728198245695,1.09174462079165,1.025144612956,0.963395293648792,0.985163866300316
1.45742782702138,1.34014969283997,1.33363186022618,1.33801528416926,1.34010602392259,1.36687526101865,1.41276483297991,1.45539886984327,1.45998393561736,1.45368758833057,1.45303079112511,1.46545252200521,1.50274451238351,1.55568860402426,1.55698056861307,1.55198527529672,1.55098363590835,1.54579806789776,1.54510468300589,1.53056304674728,1.51535918389933,1.50025408794069,1.5110442858784,1.57878096375866,1.60685715286325,1.6543700465883,1.72963881586981,1.79024029362016,1.81603215978821,1.81643653635733,1.83488109427223,1.69242508811315,1.65217769398925,1.60550057836854,1.52330693829758,1.46102555605565,1.47047012554236,1.51274295322745,1.66806549927179,1.65141761619316,1.56352363852402,1.43383340174007,1.36114295207274,1.36506845356482,1.36698940920635,1.51106997060061,1.53155860119987,1.58889460765387,1.71918323220359,1.71872377319538,1.56137154865906,1.50763211182975,1.48345270077847,1.44258872185097,1.42798821494352,1.43079964365624,1.43126314623728,1.49733879681463,1.52279649821274,1.50824323573012,1.47140514656746,1.36209898187874,1.36006708230464,1.36313770323037,1.40964161475747,1.4454746332916,1.53900862128243,1.54003449897647,1.52501366461877,1.36364911831239,1.27878822143283,1.2793344843454,1.30365821612227,1.34983623572864,1.35954725268114,1.42060760246158,1.42533551344867,1.3036088586142,1.24827073243162,1.20754591908164,1.21830805972791,1.25162049859293,1.26084773166136,1.26732387722925,1.31363599610607,1.29090562630599,1.22835232257852,1.18485227222482,1.16668455576753,1.13592833153907,1.12014144276407,1.11960370389993,1.15078661443019,1.20839286715343,1.24122056218591,1.32154307109582,1.31769352516752,1.314503865226,1.08008054286382,1.04925175756153,1.04596448256976,1.07659673898515,1.10399259434395,1.15632455060788,1.17815076610894,1.19456016282291,1.13918918927538,1.09390569424587,1.09014590537319,1.08770551586202,1.0975019885444,1.11702262923138,1.13164129143696,1.17023365479423,1.20220441724461,1.23411328862725,1.14707126043996,1.11089589612737,1.02856874168896,1.02908933731388,1.03627493891587,1.08380735903576,1.1342776970135,1.16761608840019,1.13127207515403,1.03825772305171,1.04364181965638,1.01376479045274,1.0157314962133,1.01988107436909,1.0668904577966,1.09629197697402,1.10401002809052,1.10619443029133,1.09266304509744,1.0920713622069,1.08637768108453,1.06876667111164,1.05417209851058,1.05716404438429,1.11522596924322,1.15257628762568,1.14542972765515,1.12578705982746,0.995681510393143,0.983308979342808,0.996079275178416,1.00139942877294,1.01786803727472,1.03358114885055,1.03294835897147,1.03313416967691,1.03440793115468,1.04321297151096,1.02069946603364,0.987606703910268,0.98088588864487,1.00431302631664,1.02825958150501,1.03215426370822,1.02561956108502,1.0300018859585,1.07692423766817,1.07326608920131,1.05767780777771,1.04946172624816,1.06038192408134,1.07087115581778,1.08554626093386,1.07623346140108,1.07545202237362,1.02052453177061,1.01297920350025,1.01059548675493
1.56261999834126,1.32232410272033,1.2940083563783,1.29720915660986,1.32118854370403,1.35864477626951,1.42449281390454,1.49636031403537,1.66278999834126,1.40336086888779,1.40174519309065,1.45824516040907,1.48209452329927,1.55754204468958,1.66227000404448,1.55010307288989,1.54993554334443,1.50753338692643,1.50866666830111,1.46972571506034,1.45768120382124,1.45705341987834,1.51067105507715,1.57712853494346,1.62301471425466,1.62574521182449,1.69948667678223,1.87803009697691,1.81703410509055,1.81683970846559,1.86472039597685,1.74091871155558,1.6694367018661,1.58029161906124,1.58161827394424,1.45434055073231,1.46452673003354,1.50320378405538,1.76817833208928,1.76913166542261,1.51356890782628,1.37094991382983,1.32808132343863,1.36574022320194,1.36745232185301,1.48760050348948,1.52092563515039,1.52741666768377,1.72116625740128,1.71981404379248,1.61801077729785,1.51691726991953,1.54440844967186,1.383595861424,1.38471098890766,1.43319452804356,1.43329275491957,1.48530654488327,1.52970698218765,1.50932374284169,1.45407867536228,1.37896906298351,1.33506195038545,1.33787178989126,1.34092610954238,1.34685816779527,1.5374380879256,1.54029003889157,1.51217430140383,1.49911987991195,1.25512246251067,1.28074184578499,1.30757905410084,1.34403304302594,1.3557030864127,1.42201417481957,1.42936554744375,1.2292089855082,1.20778550867113,1.17701339338319,1.23407763825471,1.26755320472373,1.27049328175288,1.26051032901805,1.4233901278448,1.38462986966709,1.18711193220974,1.20208564454205,1.22220658969247,1.15095622699553,1.11921439642275,1.10602746203454,1.14680592752316,1.18002134145237,1.18830299705521,1.4126183010087,1.41064628866507,1.37158792661467,1.08151771002916,1.05687603989196,1.00528941452913,1.0424253431545,1.05469804031254,1.13549759139198,1.17053666468572,1.34955999834126,1.06997910933851,1.09800989049333,1.10623390650381,1.07904727845908,1.10882679581398,1.10940716965755,1.08610462038796,1.11944019325417,1.14090024426705,1.30242003691442,1.07813934359475,1.07345890066221,1.00165756213415,1.02153986069375,1.01681454957748,1.06908387204517,1.22507003636866,1.27271007277089,1.07695000006966,1.03207283008625,1.05060632105298,1.00486721785384,1.08949055662988,1.02617090456854,1.10281009079086,1.10256701438688,1.10083174747453,1.10807012049729,1.09038550899244,1.08941535934125,1.07592752500719,1.16750999861386,1.05029255010526,1.04764763809413,1.08481166236808,1.16050127444784,1.24737999834126,1.11148765181057,0.998725191418853,0.962708106359578,0.953821522627019,1.0083670517678,1.00914688593948,1.0326906998985,1.03222025211211,1.03326754060552,1.00127999826871,1.05980314577596,0.999243254817573,0.985483088111773,0.961772673109944,1.02239023637254,1.02408062376159,1.21542999834126,1.00502337854068,1.04514800399672,1.07877061000453,1.21839999834126,1.08065116396235,1.02672534702169,1.04639650137294,1.06368469850288,1.09465014034899,1.12481082064318,1.06353500365413,1.01664874172939,1.01593249130551,1.008182918257
1.34386491400072,1.31287287513078,1.29343886046588,1.29451430690716,1.32185147874809,1.36202601157843,1.44604477524526,1.46382244591882,1.4432323002902,1.4035686024529,1.40304690635702,1.43836807376082,1.46282379938931,1.55578236759304,1.55435156271001,1.55163069038434,1.55057910195756,1.54686261332267,1.48749396364853,1.46399992503185,1.45732301255842,1.45726797717097,1.51197713479456,1.60306410351425,1.61577959990313,1.6344614184397,1.73566127045811,1.76383770382849,1.77119926108063,1.77012090442648,1.76919221228372,1.72940349295691,1.62929938008607,1.55247048291901,1.52401302066252,1.49547650304092,1.50374645818939,1.50696620441831,1.51723711437173,1.51496620183255,1.51482943855303,1.40782690682235,1.40029665929992,1.39257242119946,1.3838132195787,1.4794574922899,1.55807331442688,1.59643645629383,1.62398720673689,1.6237743023752,1.62159940467535,1.50284712129787,1.48094307817607,1.38536208139196,1.38564640725547,1.43293891734432,1.43437207804282,1.43867917766763,1.44613484277244,1.45190999113668,1.45196780426481,1.4109586186325,1.40321388515698,1.40582922104481,1.42140267477168,1.44447331952824,1.46930594947848,1.42845606951019,1.39499071541749,1.36349028048022,1.29756090733469,1.31097374101338,1.32274144575778,1.32930510460754,1.35831320017732,1.39583495412233,1.40094631993749,1.2083000752094,1.19898492687727,1.19352219379672,1.21498046131429,1.2290452678191,1.24655903810127,1.24990526231641,1.24455642777581,1.2372083258477,1.23135844235234,1.22763076246986,1.22576758602103,1.18221681018187,1.14140931139137,1.14562406235023,1.14699857981817,1.18785535098822,1.1906072296454,1.40670552452427,1.4031043745781,1.38884859894811,1.06107230408997,1.05003908300955,1.0463345883432,1.04765951840793,1.05521934124579,1.10220314998499,1.12798826293838,1.15062549919999,1.13368744515571,1.10016572291113,1.10253016957098,1.09948438152137,1.09563720311964,1.09201662357978,1.08990790629475,1.09248378996982,1.09513774103834,1.09652446727396,1.08847509172975,1.05876986147195,1.00835221552489,1.01360737939258,1.03579628328211,1.07590581626137,1.19731436073286,1.20738437176837,1.14037548554073,1.10351560246102,1.03069347977435,1.02158850636231,1.03789789674238,1.03351844256601,1.07379321035611,1.0844983602059,1.10130845268567,1.10366178287791,1.0961661594597,1.08438795670132,1.07751494092071,1.06714083945115,1.05210949981651,1.04924006044125,1.06978763283093,1.1065192264104,1.15051648538372,1.13479292336927,0.994124463759543,0.98997862890214,0.991883290468273,1.01606546536317,1.01818212144117,1.03485425396887,1.03358317841809,1.02297298428651,1.02124741410591,1.01541581516877,0.994924515988013,0.993602875597575,0.998299943120636,1.00117422539017,1.03428838583809,1.05359834389543,1.02055367300143,1.0275298215811,1.0688996811718,1.0689556611656,1.0561910152814,1.03201704145786,1.04414006006186,1.08157200755855,1.10317533390596,1.11043360847628,1.04012874215946,1.03063345656011,1.01409637228569,1.01172432959314
1.31396959336279,1.2544293081436,1.25156754482964,1.2489574189265,1.32284228418253,1.36595545014563,1.49365346991617,1.51088680737883,1.39637595217692,1.3653499804791,1.39188622291488,1.41622495537509,1.42175343262638,1.59349254478047,1.55578172664114,1.81293270715734,1.82316978594193,1.82180750358325,1.44038995942921,1.40674001030043,1.37575240355049,1.3676614473289,1.51331538930741,1.64804653566315,1.60843896466577,1.64534232988657,1.73628779165235,1.75219977488767,1.77162994715653,1.76928394898382,1.76778768659172,1.71545980102746,1.6031760111642,1.48836500529007,1.40142978039581,1.45750329524902,1.65471833208928,1.65687166542261,1.51901921411028,1.51266074558026,1.80214999834126,1.41317448438702,1.41228272207765,1.45213410264963,1.37367831261652,1.47232702578884,1.59825151099538,1.67329035262383,1.62426890562393,1.62388659203542,1.62469000934756,1.48914704324899,1.44221013639777,1.38589171992008,1.38603435018859,1.48655849114995,1.47488745461932,1.43084902181609,1.44537565572261,1.45749037632165,1.44969265885623,1.41643867486786,1.39047396071639,1.41256621708856,1.50055706297633,1.51274094422141,1.51365318975859,1.2963660351662,1.30295957123094,1.32733436114596,1.28089794408069,1.32298555565262,1.37808235415061,1.31629429051742,1.3611719921683,1.38644023949377,1.40638986038005,1.18795984105136,1.1452184229655,1.14349635649569,1.16570246739166,1.20511251634054,1.23964961421957,1.26281639563074,1.16377000024853,1.22949514716522,1.45729007666832,1.41235992084357,1.35363999917063,1.21267044248376,1.13586632430839,1.14733661633023,1.09914959271664,1.19318057219684,1.19261836820903,1.43611031140575,1.3930725671916,1.39520889976699,1.01955718269673,1.01678726561925,1.04041836320605,1.12897433618842,1.05467864713,1.0512539419124,1.05960836621183,1.18161783886194,1.17860064383017,1.09873538687562,1.1536979641158,1.13889301787348,1.06025069858889,1.06053117538358,1.05230038064221,1.07272557183798,1.09571741678984,1.09755640263197,1.13995338325387,1.04794302945109,0.98080859212674,1.00428700684973,1.06445149947549,1.08333845933727,1.18120979665548,1.21700732413722,1.24336187232427,1.17760025754861,1.0116038836802,1.01216059078849,1.04745873155719,1.01032705147317,1.06149800687701,1.05936169940212,1.13235419205165,1.13090800718513,1.1287874526856,1.05075386736926,1.0798540938901,0.988338644211049,1.05740910473844,0.998967836290247,0.993954930963423,0.993065741795213,1.17804404592438,1.17822873956523,0.974808770815515,0.982215329384609,0.998642644290562,1.02317326368395,1.07031035363787,1.09751054020132,1.03223511283769,0.980603788954131,1.02593152277976,1.00825918168684,0.983577414755098,0.969480194922611,1.00132414296235,0.980789141160487,1.04689942245652,1.09450044080397,0.992980077707202,1.02534557488134,1.06716408019147,1.06775909974173,1.04983225122807,0.995627447294342,1.04099203046501,1.17400045512088,1.12526404898582,1.1467444640869,1.00476237988229,1.0511760871909,0.977358753583856,0.977368056332451
1.34261022050226,1.27335289673041,1.26484750174269,1.27925024127485,1.31763596129343,1.35958644759986,1.3993994973662,1.40378282278306,1.39958709682779,1.39540331575676,1.39303124208141,1.40574043508424,1.43096955866674,1.56389555228603,1.5591548289339,1.74460023981369,1.75386439882645,1.7744546958693,1.49861410387174,1.46206756998569,1.37306940823208,1.36937746816974,1.45728534294696,1.54715731008423,1.58335490656511,1.68872598780008,1.75887673048538,1.76808317624768,1.76904349438345,1.76793360230588,1.76690864167675,1.7172809795671,1.59461930337217,1.48297936484414,1.43216922338218,1.44365453908642,1.53260036607227,1.557230653623,1.54160770731847,1.49397586046284,1.46450045966727,1.41085455268035,1.41099897138687,1.43282909931125,1.43856308766529,1.46651551035866,1.59614663264519,1.62647032620781,1.62346547917902,1.62375504296139,1.61189073995527,1.53968332150732,1.42744465500106,1.39034805928939,1.39814767766487,1.45949478030419,1.46784506445839,1.46667451170119,1.46503499357593,1.46210050416934,1.44998051759931,1.43929063043584,1.43011882643206,1.42185236254166,1.47502981799894,1.4921014072438,1.4953683201224,1.43335866536293,1.39962688924213,1.36630464057385,1.32154863551889,1.32281210447826,1.34743902671685,1.34452390745155,1.3596295936656,1.35861053116717,1.35836252840074,1.24341002805237,1.16868310403093,1.1692384499897,1.16676673344729,1.18397191631556,1.24365542824078,1.2478585751608,1.24104031335275,1.23662900408307,1.31395925553358,1.34898523653795,1.22989145026958,1.18411628570772,1.14332336425166,1.14703525844182,1.16936910658533,1.18159895471104,1.19130829893732,1.24718335720364,1.28228254252914,1.31717212863894,1.02238945177518,1.02631042766639,1.04775536339432,1.13726308696236,1.14246504708911,1.14600619037298,1.15070684007384,1.16121821582762,1.14046490877845,1.09873614861516,1.09834295101046,1.09756839258951,1.0684533855947,1.07408464073303,1.07695274467151,1.08142355381634,1.08749960399958,1.1121252239966,1.12928813977994,1.02644768585289,0.998177121410565,1.00167583895829,1.0376701203578,1.06239836282314,1.14800766334908,1.22888827859142,1.2365974189659,1.15078754405879,1.09166917778447,1.01175954158888,1.01383016360041,1.01166855041776,1.04174626180726,1.05511627308053,1.08146433719539,1.06850046310244,1.05831334636347,1.04601484828584,1.04378576019647,1.0405481955459,1.04038374012091,1.0398159866298,1.04092155686166,1.07431560881765,1.17752974209521,1.17758701301676,0.989743299553151,0.986477759024135,1.01090379548539,1.03220471384668,1.04362709113243,1.03262715025443,1.02958660168478,0.979318485798452,0.977551811537141,0.975591777617262,0.974103903154667,0.973115427413125,0.975989795523789,0.97862031743324,1.02632350630606,1.02407990773402,1.02003811855868,1.02117006332428,1.02629328125898,1.03072543175062,1.03399657262589,1.02570122503118,1.04831186323909,1.13828174752303,1.14120057028365,1.14401499005734,1.00332441496682,1.00167129560729,0.994377241243865,0.993193906211422
1.57405999834126,1.2865725223991,1.25385675682502,1.29848304542757,1.31137532937735,1.35060099631102,1.36510900020069,1.40767701593294,1.56971999834126,1.42472898374103,1.36028078157654,1.37836682663734,1.43729872887074,1.57120692264212,1.50132116367584,1.72153265727711,1.7189993017802,1.81727030069215,1.7089059744076,1.70793877093885,1.36679194121806,1.36691667015922,1.39871085349781,1.50350848844536,1.53737991255312,1.75194107721189,1.76600113065977,1.77639498254047,1.78622693739924,1.78553516522279,1.81402424436868,1.71894775658989,1.58820541457954,1.47519054832196,1.40525943958398,1.43770952694772,1.49752155817322,1.58168689119765,1.69285999834126,1.42335170245487,1.42353974390143,1.40934496641615,1.34515323231361,1.34636656499808,1.45792400016387,1.45797014864912,1.59393151384838,1.62979178280925,1.61922867942768,1.71334015070968,1.59209414832025,1.5940697312251,1.41955402266725,1.37757076520011,1.41301186440777,1.4460908075356,1.47753730008288,1.72091005634702,1.67352994116487,1.53327266157345,1.45051538467606,1.47826609382933,1.43954959607278,1.3272499037237,1.45008067222565,1.49178783145794,1.50172783829617,1.4936139262272,1.4926455630083,1.46157171160283,1.31917290451101,1.28134951836473,1.35010899009927,1.34109378661749,1.35882944513853,1.35753961433414,1.35766488162723,1.32638998278296,1.16562583589625,1.17480648766059,1.16398965300851,1.17169361055438,1.29674012809181,1.37887999917063,1.53240999834126,1.17999996918629,1.26480984122883,1.47539999834126,1.15940593634931,1.15049411409367,1.12401677399154,1.1262644443486,1.20527316480894,1.16744200199178,1.1896534925146,1.19221754942813,1.20991076199899,1.39163999834126,1.0198657002484,1.02787162502319,1.07441043558167,1.17799300810175,1.19164702699503,1.21304017851191,1.28113999917063,1.33882999834126,1.10270645815036,1.098522493798,1.09780259522599,1.0965428154168,1.02864785792437,1.09581886953859,1.11302388223646,1.12146541303577,1.06576629373971,1.14928391859684,1.13681201217128,0.989101653266006,0.993439713228604,0.994147450364031,1.00428570505351,1.05388994366238,1.12314988655639,1.30048228070474,1.31225771680715,1.12290939749549,1.14600975851555,1.00976089137391,1.01867832967006,0.973184311122308,1.01647046964671,1.05085339012383,1.10543714652972,1.01201420715247,1.0188381156722,1.00988204946858,1.02708552013723,1.03924392928712,1.02460009229796,1.03788277957967,1.0422184744372,1.1158741363738,1.2432015194747,1.22427847803656,0.991230232134568,0.938255666211458,1.02609365834841,1.04012591419718,1.05657530496326,1.02555913502888,1.02707898917356,0.956856776478604,0.956951056108586,0.937230738211985,0.950828156733568,0.952123435655264,0.948666913635248,0.95329634615847,1.03322447351848,1.00333191556813,1.01513523796908,0.993216777404608,0.991507959727946,1.02939259090043,1.03868247973914,1.02252706250453,1.06440365129116,1.13519800912606,1.25723999834126,1.19402999917888,0.998508036328835,0.999827242426534,1.02754554818842,0.955008324978009
1.49346624131703,1.34819120084548,1.30334973069598,1.30201238225497,1.31336921312896,1.36395260171267,1.36785812716678,1.43351221775814,1.44953026052604,1.39592218940605,1.36415174419846,1.3759166446522,1.41170872790887,1.49700502858878,1.50747686720026,1.7455168081354,1.7560833132291,1.77606552670067,1.74693526839374,1.72466901533169,1.3946685324092,1.38404099363641,1.40966215284407,1.49882137760533,1.59228257431761,1.75535483458215,1.76833119472923,1.77223706640143,1.77349144627668,1.77420945355516,1.75944917789567,1.71151477309252,1.59177759651458,1.45270297729138,1.43670578378936,1.44705675966289,1.48265107118541,1.51494382252587,1.49708421221125,1.48360329466481,1.46168745501071,1.42959508241663,1.38686923880187,1.38750288529976,1.42986191365509,1.43691533949116,1.57535383837964,1.59503220040238,1.64410818314955,1.66328680458572,1.60698360336708,1.59395841015982,1.41897295264446,1.41485376402757,1.41448818182317,1.42148060796647,1.48275833633436,1.51585583020439,1.54769466480771,1.53495265374356,1.48682445978517,1.43217247256909,1.40800703479571,1.38689967341271,1.44011421740646,1.4931784340183,1.49566523480527,1.49353327368512,1.49245619980736,1.43725237275968,1.37417491157915,1.34344659135829,1.3403549199519,1.33714557299354,1.33415294713676,1.33084798686633,1.26720342807995,1.23074234830232,1.16785983618306,1.16954699737885,1.16800211047744,1.17037051719428,1.24904973039543,1.32055193871072,1.35882005059553,1.33208026216651,1.30573524580988,1.24200643052678,1.16243048224152,1.1648912010663,1.16634041287501,1.17687787026196,1.20293790877375,1.21409997713571,1.22810089240995,1.24475434597572,1.27485717645123,1.30361838990019,1.07060346572941,1.06078441202968,1.06669612337853,1.14510158818257,1.15112019575443,1.15669803276461,1.17207941000217,1.16804470572891,1.12898282882313,1.09949937177982,1.09988409884913,1.09578184954139,1.05517061579933,1.07133363494867,1.08313178587696,1.10923678133875,1.11035376513193,1.11228823959329,1.05617709016084,0.99110460866532,0.992703749669856,0.993740115021722,0.999456514169616,1.03112482921168,1.082216440364,1.11841368878822,1.1693508664467,1.13075882861731,1.11224378393867,1.03375615508048,1.02747223201434,1.00369410636299,1.01594861179021,1.01504409049734,1.0147105979497,1.01381597820244,1.01451650300168,1.01192570395178,1.03106854108859,1.0339321524012,1.0304579237473,1.03619614827558,1.04907599699134,1.11016946997926,1.12558325846325,1.08971723678338,1.01613548879452,0.9865350240052,1.00783601872497,1.01687167538706,1.02354466545628,1.0248743984169,1.02571059754212,0.95739284222022,0.957603058976956,0.95809683933297,0.95803180092488,0.959121517274791,0.965054687910657,0.969073720470414,1.03547665786271,1.03688971138297,1.03780031813758,1.03927799218703,1.04226346845397,1.04629985905453,1.05025845059314,1.05336049944467,1.05526551231006,1.14835306846853,1.15483150782334,1.04732053260118,0.99718182287935,0.997723463518089,1.01423701304503,1.00504357120123
1.57118837496681,1.56858169904135,1.30263863822401,1.26954686455896,1.31530610313848,1.37529972041888,1.3704421486649,1.48120884802325,1.4847375578542,1.3654692165223,1.34047454036698,1.37225111100267,1.38794547346708,1.47379001682893,1.51422731303144,1.79695003559359,1.80306610519121,1.80450792839384,1.79404849657007,1.79510595946836,1.41195665481176,1.37044183361604,1.4284362782761,1.49511123765622,1.73186999448561,1.75859391892046,1.80501066261269,1.76397660015522,1.77564467211661,1.776889248336,1.73809517077984,1.6776141199705,1.59565680966859,1.41444354835962,1.41447548397256,1.46470160329079,1.46883355063904,1.54516819968057,1.44157991507447,1.77893166542261,1.77945833208928,1.44625736629782,1.38601273030841,1.38796429755365,1.40240291688263,1.42436920036825,1.55457379075138,1.5641952362458,1.80653999834126,1.71662000301795,1.61981982302998,1.59337757927086,1.41912929719079,1.41401386309364,1.3764545629449,1.40274869558938,1.48891025175958,1.49459311208747,1.55806121612992,1.5388832762231,1.53608751274891,1.38258278605081,1.35368984571688,1.35357731369002,1.42793146586458,1.53251746696866,1.52251261481253,1.52201110639726,1.54193368036694,1.40944102565988,1.42785639159137,1.3473445646122,1.29583200091182,1.30897939444875,1.32582093970804,1.32610416557485,1.19251001400653,1.14931487423138,1.16695988312262,1.16888213074425,1.1659145403007,1.15821917356316,1.21099732319017,1.28175011949181,1.40167011269773,1.50056666542261,1.49951333208928,1.18717000082706,1.1300219532359,1.16531026279051,1.16641262424653,1.19542472431672,1.20107299903851,1.23664086072524,1.26504308346637,1.26648870904285,1.36880385573566,1.3532163427414,1.08717617254034,1.0545166333483,1.05576382941207,1.13745262996476,1.10215770767753,1.11527346353673,1.17791981001439,1.1592947965311,1.1607504610373,1.08570052152562,1.10277470731984,1.09278164110001,0.985741226529488,0.994132214599088,1.01563372019197,1.10808362718533,1.10880890142764,1.11492521478359,0.98064701485667,0.967319025600043,0.992005642688765,0.955009488094416,0.970560291070127,0.986085963923421,1.04531527002917,1.04557852360903,1.23999001606331,1.13981112171354,1.09204768873751,1.04676235689931,1.04450210783102,0.997720302321433,1.01591357063348,1.01333160100367,1.01459322429768,1.01322670031331,1.05370774977219,0.998830905180116,1.05207222127936,1.13347010874912,1.01842302213498,1.03475827373412,1.06313648897315,1.10462500569598,1.18462013295597,1.03723001685311,1.04103329632855,0.967595034780661,0.941006932129485,1.01318166863738,1.02221935329621,1.02449387801583,1.10236000451578,0.957234029113131,0.924970876838003,1.00173082630703,0.957524337240107,0.976684855278256,0.997312939598843,0.97618891218819,1.15585842903744,1.15461174172816,1.09303139433726,1.05699564924799,1.04852888727356,1.04888137738088,1.10040065623145,1.05489681892588,1.02648875315511,1.18713566310641,1.16196716461474,0.980003139682973,0.949435532166229,0.974155757240852,1.02152764703776,1.02221537962208
1.48642941676883,1.5130472213422,1.28638984738319,1.27733585420152,1.30961745651981,1.3798424262008,1.3840421337174,1.45643331127011,1.46675922180728,1.3660683292785,1.35071244330076,1.38516753249521,1.395738692346,1.45023748026402,1.49738315609457,1.79888959725169,1.80118154400294,1.80023010919013,1.7962943440623,1.79465805320829,1.41359104436596,1.39595688296744,1.43758824007111,1.4894504185561,1.64855234150977,1.67962732010415,1.76183805033391,1.76420793416708,1.76917772383595,1.77216268270656,1.75825418977137,1.71444398270953,1.55610470780195,1.5017361440676,1.48537535134644,1.48897275450796,1.50929685679112,1.54521237778602,1.54442447555109,1.68472020883447,1.66438522917002,1.45975897383526,1.40270113786015,1.41352942880192,1.44004089560314,1.47599930842257,1.5512399746357,1.56249586818592,1.56810236374205,1.5692749740364,1.52306014588329,1.49035604208708,1.42751349537364,1.40269138552986,1.39287166264613,1.42591419111749,1.49208268379847,1.49402940473502,1.48070274320631,1.47057908564171,1.44177264308484,1.37041586711417,1.35252359267213,1.35253740005119,1.40753208082879,1.46457498482868,1.52663891584663,1.53133168402467,1.53555237050838,1.45731551364423,1.38090581594631,1.32840608341936,1.31805382412421,1.32057813237376,1.32435284151713,1.32519464241101,1.2672732476556,1.23105050692718,1.17171997310043,1.16758238209824,1.16596434822305,1.16248464699622,1.20549214837997,1.25746607939535,1.33914225073757,1.38523815153949,1.38272985504705,1.24329416307609,1.16849512952576,1.16686988497108,1.16681893655749,1.17761138733584,1.19921077241552,1.20939853532,1.24954100066226,1.26927943657296,1.32081611226038,1.32438646914704,1.08053252126475,1.06636477509557,1.06906593041302,1.12954642110519,1.12205536862564,1.11526589231368,1.11569085821737,1.11615487596729,1.11533863731755,1.10477343198894,1.08893831870511,1.04736087005138,0.98973707011679,0.992034215671958,1.04068085496144,1.05386885529124,1.0379446938288,1.02352662700812,0.987276378417251,0.988274089747494,0.989889204297659,0.982337562940782,0.976557022518178,0.995145102281372,1.02305164531937,1.0400287052294,1.06413566382425,1.05561561264173,1.05192819756358,1.04736998588901,1.04673622916174,1.01962832663421,1.01590028063528,1.01350641453535,1.0127611523301,1.01207840402416,1.00493331569084,1.00102668568969,1.06574182434909,1.08626137910017,1.02321518412929,1.02828228644453,1.0422978730141,1.07077115734405,1.05620300865861,1.04632809097085,1.03472151533921,1.01175674242708,1.00353696753377,1.00978416769626,1.02147909564737,1.02187602634133,0.994127860920618,0.958635379877158,0.943283229521934,0.948756015259102,0.956717919058306,0.977615507295061,0.990021229089117,0.986664069597364,1.07199308122153,1.10759271266962,1.09133759956457,1.07012855940836,1.05059502171886,1.05142509634464,1.0550870404612,1.05301176287264,1.04868870545538,1.10674861055458,1.1258144919908,1.05697633562057,1.00008719378313,1.00755169277567,1.02281526808096,1.02339045544476
1.44842557269729,1.58144003422834,1.26725411955105,1.26725590636159,1.30044147337429,1.38103182922754,1.38619461521704,1.43747313503406,1.57462999834126,1.36440341102703,1.32908104881431,1.40086750358614,1.40233422144779,1.41396250820466,1.48333915801469,1.80214493979558,1.90970999834126,1.81694124569212,1.82793235993865,1.85314957531687,1.41362358947949,1.38266219753315,1.44160236530208,1.48277267710633,1.6299316130858,1.5595298874254,1.75741694095023,1.76448101878376,1.76699540829624,1.77467526032315,1.77795456133171,1.86691999834126,1.51525868082852,1.50910123096825,1.47504442406117,1.49694164064368,1.54466211389109,1.54735756574369,1.5445369114132,1.87705999834126,1.63414747425015,1.4810849240631,1.38815044452395,1.43095781704079,1.46312691761587,1.52967205656572,1.54832199005122,1.43248905940764,1.42434094260151,1.59919031200617,1.43105863088819,1.45096130093238,1.43356367520486,1.3427215375693,1.34372822457823,1.45452227703839,1.60682999834126,1.53105947763946,1.44779559940108,1.45078196012128,1.40641001607037,1.33096941002704,1.26888067904933,1.29610631500729,1.38906750935781,1.42051138516631,1.6082001806757,1.56200214350584,1.58833785988791,1.50671004847721,1.34709519418514,1.29576312984515,1.31409180447791,1.40830344802364,1.36786223678532,1.41057443304567,1.39087333069023,1.37822234680493,1.18895596578064,1.15701550067495,1.1235408902679,1.1321599739203,1.19847653175461,1.22802052139653,1.29933448365979,1.38772907994619,1.38078259415198,1.34204015688592,1.17084399084603,1.13636568772974,1.0795096879939,1.13085238197146,1.19861957580144,1.1868962838434,1.23505228123228,1.27301761747252,1.31830947857012,1.32916765133356,1.07426384486453,1.05672866035452,1.07721691687814,1.14522805976231,1.14532939211037,1.07962463235533,1.08080015258702,1.08924030608742,1.11303804288303,1.12338089935443,1.06645499016533,1.01294586583603,0.958235679644649,0.991599246148678,1.08140290197268,1.08151379924035,1.00050157135242,0.975873862209955,0.987914370480549,0.988053676010109,0.997126158223272,0.996371942705889,0.952158019447833,1.01022638954123,0.987620026401617,1.03279684694787,1.08373926213322,1.00196433597048,0.991834291646484,0.983596654423489,1.11410003156281,1.02407708594573,1.03995241978658,1.03697114833062,1.0786789946869,1.0693949519438,1.0022338855648,0.995732335296095,1.12586526248152,1.10514056275045,0.985590664091176,1.01578241909683,1.02888867986272,1.09360069184766,1.03618808261512,1.1363703303529,1.02783585143575,1.03899441673583,0.990769238090372,0.95320109387168,1.02169160370297,1.03927701235203,0.974634353855976,0.958643476109027,0.939985137788123,0.941392851494758,0.955386569155593,1.0083230131047,1.04215061161075,0.981023888387206,1.01924993386834,1.17235013373182,1.08927660712002,1.08770479601019,1.01098205727346,1.01118008901885,1.05887392685382,1.02196875897219,1.04027433163029,1.08348611473412,1.14610962204034,1.14687072373179,0.994731098054375,1.07850041597904,1.02293372109419,1.02314099600763
