1.8467629994156,1.9497747287478,1.84969826959427,1.95265263208259,1.76969064465906,1.86817039332453,1.84184857312297,1.84162866688809,1.95575044165226,1.84002239525937,1.87167933194203,1.84066299168273,1.87134469201938,1.8414087606532,1.84569215166312,1.84589293561671,1.84650484861813,1.84638055378971,1.84762350207384,1.87319955330492,1.84914372343673,1.87316130874233,1.85987132324282,1.86044499168164,1.8682468824497,1.9691264774176,1.80935025606337,1.84926801826515,1.92070886118052,1.92140682444776,1.84857005499791,1.84732710671378,1.92939037688812,1.84697334450983,1.84726017872925,1.84747052382349,1.92187532033947,1.9244568283142,1.92839601826082,1.9324499418952,1.93547126233969,1.92285055668548,1.92332861371784,1.93368332903868,1.92553723720732,1.92373974276566,1.93728787906265,1.85279607916394,1.92784147210328,1.92998316760824,1.9426325566844,1.94305324687287,1.85597993899943,1.85704122561127,1.93902800666043,1.93184759003443,1.95385733580413,1.86037806369711,1.94065340057044,1.93287063208367,1.94016578239744,1.94250826185598,1.93540433435516,1.93601624735658,1.9356338017307,1.93625527587276,1.96140107577472,1.93957299167731,1.86308386650025,1.93647518210764,1.94710717050725,1.94983209559169,1.86592352527245,1.95093162676611,1.94369384329623,1.93648474324829,1.95017629665498,1.86406866398691,1.86447979303473,1.94239352816822,1.9387985392849,1.93851170506548,1.93842565479966,1.9391236180669,1.94101672391503,1.94265167896569,1.86533073455233,1.94897159293345,1.95925938026976,1.94936359969998,1.93936264658308,1.96950892304349,1.8560946726872,1.80700777660482,1.80465573600563,1.80387172247256,1.85597993899943,1.85753840492492,1.80626200763434,1.80701733774547,1.99483638461774,1.80630025219693,1.80684523721382,1.80997173020543,1.8093980617666,1.80815511348248,1.80637674132211,1.88791414876086,1.85805470651986,1.85750972150298,1.80640542474405,1.80918771667237,1.97638338316877,1.80815511348248,1.8130695397751,1.81018207529967,1.98576286214361,1.80803081865406,1.80857580367095,1.80684523721382,1.80500949820957,1.80593692885234,1.99459735610156,1.80609946824334,1.80380479448803,1.80379523334738,1.80020980560471,1.99083026668659,1.80327893175244,1.96818948563418,1.80147187617013,1.80060181237124,1.7328993754489,1.73368338898196,1.83253602213266,1.72863510672027,1.72764074809297,1.72753557554585,1.82911313378099,1.72441864369489,2.0009555146319,1.72029779207598,1.82662723721274,1.81265841072728,1.71804136288325,1.8320962096629,1.71685578144301,1.7173816441786,1.71507740928264,1.71400656153016,1.78742656055949,1.7150487258607,1.82619698588362,1.82347206079918,1.76112386263923,1.83629355040699,1.8342665885898,1.70818382687606,1.83672380173611,1.71056455089719,1.83470640105956,1.83214401536613,1.70815514345412,1.7100386881616,1.70895827926848,1.70761015843723,1.70975185394219,1.71040201150619,1.71058367317849,1.81719039139402,1.75697432759838,1.75563576790778,1.70948414200407,1.7078683092347,1.82458115311425,1.82744949530839
1.77477717148334,1.84682992740013,1.84731754557313,1.84557741797535,1.7714020888349,1.84367475098657,1.846074597289,1.76989142861265,1.84311064368839,1.84317757167292,1.84114104871508,1.84326362193875,1.84313932711033,1.84612240299224,1.77110569347484,1.84529058375594,1.9581311656734,1.87401225025993,1.87267369056933,1.94838836335397,1.85600862242138,1.78270335707981,1.86002430149317,1.87253027345962,1.87221475581826,1.982961447934,1.93604493077852,1.92197093174594,1.92303221835777,1.84910547887415,1.84714544504148,1.93571029085587,1.92491576306526,1.92480102937749,1.84952616906262,1.84935406853097,1.84736535127637,1.84801550884037,1.8481015591062,1.92264977273189,1.84966958617233,1.8500902763608,1.92643598442815,1.9426325566844,1.93939133000502,1.92668457408498,1.93483066591634,1.9349453996041,1.93937220772372,1.94417190032858,1.94141829182221,1.93880810042554,1.94276641265346,1.93872205015972,1.93259335900491,1.93150338897113,1.93101577079813,1.86050235852553,1.86042586940035,1.95086469878158,1.93676201632706,1.93370245131997,1.86287352140602,1.9492871105748,1.86657368283646,1.86415471425273,1.9392861574579,1.86423120337791,1.93777549723565,1.94377989356205,1.944621273939,1.93652298781088,1.95356094044407,1.86647807142999,1.96284480801243,1.96634418548928,1.94002236528773,1.93858819419066,1.86523512314586,1.94575904967601,1.86554107964657,1.8657705470221,1.94001280414708,1.93832048225254,1.86649719371128,1.94282377949734,1.9434643759207,1.94524274808106,1.94188678771392,1.94924886601221,1.81157800183415,1.89463563063579,1.96595217872275,1.97819043875108,1.80750495591847,1.80673050352605,1.860760509323,1.86292132710925,1.80644366930664,1.80414899555133,1.80644366930664,1.80420636239521,1.89429142957249,1.89209236722365,1.80981875195508,1.86220424156072,1.86251019806143,1.80921640009431,1.80905386070331,1.80804037979471,1.80989524108025,1.98292320337141,1.80915903325043,1.80783959584112,1.98494060404796,1.80964665142343,1.80837501971736,1.85474655185595,1.9686197369633,1.80575526718005,1.8057457060394,1.98427132420266,1.8030877089395,1.88640348853861,1.88509361226995,1.80497125364698,1.80104162484101,1.8007547906216,1.80263833532908,1.80147187617013,1.799741309713,1.7987469510857,1.73317664852766,1.73118793127306,1.72740171957679,1.72789889889045,1.8325838278359,1.72566159197902,1.72548949144737,1.72415093175677,1.72214309222087,1.72268807723776,1.82949557940688,1.8282621922634,1.71997271329397,1.83429527201174,1.71630123528547,1.83367379786967,1.82921830632811,1.71075577371014,1.71414041749922,1.71424559004634,1.75952715215116,1.71191267172844,1.71254370701115,1.71089919081984,1.71007693272419,1.70939809173824,1.70785874809406,1.70926423576918,1.70752410817141,1.70787787037535,1.70822207143865,1.70817426573541,1.70704605113905,1.70534416810386,1.7097136093796,1.83213445422549,1.82993539187664,1.70706517342034,1.70762928071852,1.75808341991344,1.75626680319049,1.82716266108898,1.82474369250525,1.7985844116947
1.86906914054536,1.84786253059002,1.77268328168161,1.95373304097572,1.84543400086565,1.84464042619193,1.84595030246059,1.86995832662554,1.84230750787403,1.87223387809956,1.87251115117833,1.76991055089395,1.84291942087545,1.87116303034708,1.84328274422004,1.87255895688156,1.84637099264907,1.77555162387575,1.87493011976205,1.8732569201488,1.87481538607428,1.87580018356094,1.86241458665495,1.86483355523868,1.79333534547942,1.94883773696439,1.92590056055191,1.94312973599805,1.93245950303585,1.92922783749712,1.92199961516788,1.93150338897113,1.84910547887415,1.92646466785009,1.9257762657235,1.84939231309356,1.84871347210761,1.84783384716808,1.84935406853097,1.92289836238871,1.92286967896677,1.9234433474056,1.85104639042551,1.94123663014991,1.85318808593047,1.93849258278419,1.85322633049306,1.9457972942386,1.94907676548056,1.92013519274169,1.9421066939488,1.94254650641857,1.85874310864645,1.95253789839483,1.93354947306962,1.86061709221329,1.93230652478549,1.93543301777711,1.94566343826954,1.86250063692078,1.94922974373092,1.85876223092775,1.94566343826954,1.93354947306962,1.95589385876197,1.94574948853536,1.95286297717683,1.86511082831745,1.96724293271012,1.9581311656734,1.95640059921627,1.95871439525287,1.94066296171109,1.93924791289531,1.86664061082099,1.94504196412747,1.95869527297158,1.95254745953547,1.95483257215014,1.94105496847762,1.94219274421463,1.94539572633142,1.9422883556211,1.94307236915416,1.94288114634122,1.86657368283646,1.94588334450442,1.93907581236366,1.9392861574579,1.95257614295741,1.81289743924345,1.81260104388339,1.97155500714197,1.80792564610695,1.90142404049525,1.80834633629542,1.8069026040577,1.85330281961824,1.85286300714847,1.8048947645218,1.89982733000718,1.80633849675952,1.80522940444445,1.80499037592828,1.86271098201502,1.86202257988842,1.86261537060854,1.80955104001696,1.80987611879896,1.80741890565265,1.80703646002676,1.81000041362737,1.80694084862029,1.80843238656124,1.81055495978491,1.97715783556119,1.80823160260765,1.88612621545984,1.85554012652967,1.8547561129966,1.80583175630522,1.80439758520815,1.80266701875102,1.80219852285931,1.80235150110967,1.89219753977077,1.98259812458941,1.8004105895583,1.80086952430936,1.80184476065537,1.80063049579318,1.73529922175133,1.83243084958555,1.82943821256299,1.72761206467103,1.72803275485951,1.72731566931097,1.77179409560143,1.7703886079263,1.72316613427012,1.82605356877391,1.76869628603176,1.82961987423529,1.82931391773458,1.82544165577249,1.72046033146698,1.71377709415463,1.71723822706889,1.71400656153016,1.83069072198777,1.82870200473316,1.82679933774439,1.82917050062487,1.82950514054752,1.80616639622787,1.83567207626492,1.90151965190173,1.70801172634441,1.71011517728678,1.83004056442376,1.70906345181559,1.83443868912144,1.83528963063904,1.8117501023658,1.71043069492813,1.71023947211519,1.70766752528111,1.70917818550336,1.81402565383982,1.81606217679766,1.71066972344431,1.7110521690702,1.75624768090919,1.70696000087323,1.70967536481701,1.70809777661023
1.77096227636513,1.87058936190825,1.84567302938182,1.87250159003768,1.87288403566356,1.84549136770953,1.77175585103884,1.87565676645123,1.87338121497722,1.87453811299552,1.7702260685353,1.87418435079157,1.84313932711033,1.84417193030023,1.77331431696433,1.84563478481924,1.77423218646645,1.77644080995594,1.77642168767464,1.96566534450334,1.85464137930884,1.86017727974352,1.87590535610806,1.87329516471139,1.87615394576488,1.94956438365357,1.94216406079269,1.94818757940038,1.94312973599805,1.9311305044859,1.92549899264473,1.94981297331039,1.92551811492603,1.92718175339863,1.85028149917374,1.84969826959427,1.84984168670397,1.85053964997122,1.84980344214139,1.92601529423968,1.85035798829892,1.92959116084171,1.93772769153242,1.93339649481927,1.92230557166859,1.94359823188976,1.93435260888398,1.85419200569842,1.85473699071531,1.95492818355661,1.9494496499658,1.93024131840571,1.93240213619196,1.93271765383332,1.9357772188404,1.94270904580957,1.93314790516244,1.93069069201613,1.94857958616691,1.94853178046368,1.94620842328642,1.94100716277438,1.93922879061402,1.93763208012595,1.86391568573655,1.95130451125135,1.94600763933283,1.95365655185054,1.9526335098013,1.86570361903757,1.86553151850592,1.94406672778147,1.95184949626823,1.94575904967601,1.95248053155094,1.95077864851575,1.94465951850159,1.94155214779127,1.951964229956,1.93926703517661,1.93969728650573,1.86663104968034,1.94444917340735,1.94146609752545,1.94356954846782,1.9429576354664,1.94381813812464,1.94230747790239,1.94191547113586,1.95862834498705,1.81068881575397,1.97290312797322,1.97130641748515,1.8062333242124,1.80601341797752,1.80672094238541,1.98571505644038,1.97157412942327,1.80571702261746,1.80477046969339,1.80481827539663,1.90028626475825,1.89758046195511,1.80469398056821,1.80474178627145,1.97420344310123,1.97227209269051,1.99463560066415,1.80647235272858,1.80999085248673,1.80979006853314,1.89358390516461,1.85734718211197,1.80988567993961,1.9722912149718,1.99119359003118,1.80800213523212,1.98893716083846,1.807896962685,1.98341082154442,1.80573614489875,1.89030443392264,1.80212203373414,1.80575526718005,1.98141254314917,1.84968870845362,1.84849356587273,1.80038190613636,1.80013331647953,1.79984648226012,1.80108943054425,1.81608129907895,1.78171855959316,1.77850601633572,1.72775548178074,1.72526002407184,1.72362506902118,1.77293187133844,1.83027959293994,1.72109136674969,1.7682182289994,1.81298348950928,1.81409258182435,1.76710913668434,1.76885882542276,1.76482402406967,1.76501524688261,1.71540248806464,1.71729559391278,1.71406392837404,1.71343289309133,1.80087908545001,1.70899652383106,1.8035753271125,1.80194037206184,1.71084182397596,1.83042301004965,1.8329089066179,1.76028248226228,1.70511470072833,1.70783962581276,1.76011994287128,1.70543021836968,1.7050477727438,1.70805953204765,1.70893915698718,1.7583989375548,1.75728028409908,1.75845630439868,1.75726116181779,1.81403521498046,1.75765316858432,1.81407345954305,1.7100578104429,1.7068930728887,1.70860451706453
1.86932729134283,1.87201397186468,1.84883776693603,1.84602679158577,1.94869431985468,1.95209808592506,1.87119171376902,1.87368717147792,1.77209049096149,1.87451899071422,1.84553917341277,1.95915420772264,1.84635187036777,1.84744184040154,1.84791033629325,1.84904811203026,1.84933494624968,1.85002334837627,1.85018588776727,1.87896492111514,1.87863028119249,1.78609756200954,1.85998605693058,1.86427900908114,1.95271956006712,1.98293276451206,1.81349979110422,1.9419632768391,1.94507064754942,1.94864651415144,1.92570933773897,1.92518347500338,1.94525230922171,1.85312115794594,1.8500902763608,1.85002334837627,1.85017632662662,1.85129498008234,1.92876890274605,1.92675150206951,1.85251880608517,1.92603441652097,1.9389610786759,1.85323589163371,1.85330281961824,1.93938176886437,1.95466047161849,1.93943913570825,1.85645799603179,1.95256658181677,1.96338023188867,1.93343473938185,1.93193364030025,1.96292129713761,1.86050235852553,1.93599712507529,1.96018681091253,1.93401796896133,1.95892474034711,1.93611185876305,1.93939133000502,1.94649525750584,1.94490810815841,1.95777740346945,1.86673622222746,1.86724296268176,1.93899932323849,1.8674341854947,1.93947738027084,1.9411123353215,1.94221186649592,1.95941235852011,1.93967816422443,1.86568449675627,1.94169556490098,1.93956343053667,1.94183898201068,1.94223098877722,1.93880810042554,1.94306280801352,1.94118882444668,1.94276641265346,1.94802504000938,1.94301500231028,1.94769040008673,1.94532879834689,1.94252738413728,1.86760628602635,1.95459354363396,1.9709717775625,1.80802125751342,1.80698865432353,1.80981875195508,1.80804037979471,1.80587000086781,1.85368526524412,1.85210767703735,1.80328849289309,1.97855376209567,1.80309727008014,1.9007834440719,1.80405338414486,1.80300165867367,1.80173958810825,2.00440708640552,1.80588912314911,1.8049138868031,1.99591679351087,1.85721332614291,1.85738542667456,1.80861404823354,1.80844194770189,1.80983787423637,1.98099185296069,1.80908254412525,1.85728025412744,1.80968489598602,1.80965621256408,1.80815511348248,1.80768661759077,1.80764837302818,1.99793419418741,1.8049138868031,1.80335542087762,1.80267657989167,1.80172046582696,1.80126153107589,1.79963613716588,1.79882344021088,1.8000855107763,1.79812547694363,1.79617500425162,1.77964379207273,1.77792278675624,1.82222911251506,1.72568071426031,1.7215598626414,1.72262114925323,1.82251594673447,1.83970687761801,1.81423599893405,1.78792373987314,1.81238113764851,1.71397787810822,1.80587956200846,1.76560803760274,1.76499612460132,1.76182182590647,1.82007785586945,1.71656894722359,1.71438900715605,1.71337552624745,1.7122281893698,1.76021555427775,1.75911602310333,1.71145373697738,1.70977097622348,1.708049970907,1.70808821546959,1.70931204147242,1.83300451802437,1.776737205316,1.70892959584653,1.70690263402934,1.70669228893511,1.80999085248673,1.70773445326564,1.70819338801671,1.83135044069242,1.82968680221982,1.8290940114997,1.71071752914755,1.70800216520376,1.70958931455119,1.82244901874994,1.70780138125017
1.8495835359065,1.87601052865518,1.84716456732278,1.84661002116524,1.87553247162282,1.84749920724543,1.84682036625948,1.84616064755483,1.84860829956049,1.84577820192894,1.84511848322429,1.84679168283754,1.77168892305431,1.84600766930447,1.8475948186519,1.84590249675736,1.9586187838464,1.87934736674103,1.85270046775747,1.85345579786859,1.87937605016297,1.85919248225687,1.87841993609825,1.87892667655255,1.95363742956925,1.983286526716,1.9281091840414,1.92871153590217,1.92476278481491,1.92481059051814,1.92857767993311,1.85215548274058,1.92588143827062,1.92663676838174,1.8519164542244,1.85180172053664,1.8509220955971,1.9269331637418,1.92712438655475,1.92670369636627,1.93206749626931,1.93901844551978,1.93643693754505,1.93846389936225,1.85622852865626,1.94951657795033,1.9426134344031,1.9334443005225,1.85970878385182,1.86013903518094,1.94190590999521,1.94365559873364,1.93484022705698,1.93458207625951,1.93500276644798,1.96150624832184,1.86395393029914,1.93813882058024,1.95551141313608,1.95819809365793,1.96146800375925,1.95946016422335,1.96488133097027,1.93970684764637,1.86602869781957,1.94588334450442,1.94525230922171,1.94968867848198,1.94152346436933,1.93652298781088,1.95531062918249,1.86866757263818,1.94576861081666,1.9554540462922,1.95958445905176,1.86755848032311,1.93951562483343,1.86764453058894,1.9507882096564,1.86730989066629,1.9439519940937,1.94611281187995,1.94568256055083,1.94806328457197,1.94685858085043,1.94331139767034,1.96488133097027,1.94317754170128,1.94348349820199,1.95580780849615,1.81020119758096,1.80833677515477,1.85515768090378,1.85447883991783,1.8047322251308,1.90255225509162,1.85419200569842,1.91842374856586,1.80427329037974,1.80342234886215,1.80236106225031,1.80480871425598,1.99510409655586,1.98898496654169,1.80483739767792,1.80327893175244,1.80578395060199,1.80711294915194,1.80829853059218,1.99249390515919,1.97217648128404,1.80783959584112,1.99497980172745,1.9002575813363,1.89840272005076,1.85950799989823,1.85878135320904,1.85745235465909,1.98451035271884,1.97163149626715,1.97821912217302,1.80589868428975,1.85310203566465,1.85261441749164,1.80344147114344,1.85012852092339,1.84782428602743,1.80120416423201,1.79745619709834,1.84566346824118,1.79534318501532,1.78313360840893,1.78149865335827,1.72816661082857,1.72871159584545,1.72678024543473,1.72489670072725,1.72202835853311,1.72376848613088,1.82038381237016,1.81259148274275,1.72098619420257,1.81458019999735,1.71712349338113,1.71845249193108,1.71702788197466,1.81036373697196,1.71708524881854,1.8195806765558,1.71249590130792,1.71439856829669,1.80144319274819,1.7113772478522,1.81143458472444,1.71101392450761,1.81284963354022,1.75770097428756,1.75632417003437,1.83346345277544,1.70734244649911,1.8262543527275,1.70931204147242,1.82562331744479,1.8037378665035,1.7056979303078,1.75733765094297,1.70790655379729,1.70585090855816,1.82696187713539,1.70551626863551,1.82373021159666,1.70850890565806,1.82446641942648,1.70597520338657,1.70735200763976,1.79697814006598
1.85166786456758,1.87569501101382,1.84764262435513,1.87717698781413,1.96351408785773,1.8797680569295,1.8795863952572,1.95166783459594,1.84684904968142,1.87938561130361,1.77305616616685,1.77360115118374,1.87954815069462,1.84712632276019,1.85054921111186,1.88216790323193,1.85287256828912,1.85315940250853,1.85212679931864,1.85914467655363,1.86024420772805,1.88264596026429,1.86721427925981,1.86829468815294,1.79736058569186,2.00288686504263,1.95370435755378,1.94873256441727,1.92903661468417,1.94726970989826,1.92859680221441,1.92796576693169,1.85402946630742,1.93176153976861,1.85557837109225,1.85268134547617,1.85262397863229,1.93066200859419,1.93202925170673,1.92987799506112,1.93297580463079,1.92813786746334,1.93614054218499,1.94889510380827,1.94855090274497,1.94118882444668,1.85867618066193,1.85753840492492,1.85924984910075,1.94919149916833,1.95947928650464,1.94902895977733,1.86106646582371,1.95891517920646,1.95477520530626,1.94943052768451,1.96557929423751,1.93788066978277,1.95855185586187,1.93826311540866,1.86552195736527,1.9557982473555,1.93970684764637,1.94124619129056,1.86709954557205,1.94038568863232,1.95386689694478,1.96433634595339,1.94810152913456,1.9497747287478,1.94063427828915,1.94952613909098,1.94832143536944,1.95452661564943,1.86905001826406,1.96228070071425,1.9504631308744,1.86932729134283,1.94319666398258,1.94883773696439,1.9417816151668,1.94192503227651,1.94867519757338,1.94789118404032,1.94822582396297,1.94795811202485,1.94552958230048,1.87047462822049,1.94508976983071,1.95514808979149,1.99716930293564,1.85681175823573,1.85635282348467,1.85515768090378,1.85396253832289,1.89306760356966,1.92192312604271,1.85263353977294,1.85008071522015,1.89343092691425,1.80318332034597,1.80383347790997,1.80481827539663,1.90333626862468,1.80403426186356,1.8030877089395,1.80551623866387,1.80687392063576,1.90387169250092,1.80767705645012,1.97433729907029,1.80915903325043,1.80859492595224,1.90890085248131,1.8590968708504,1.81215167027298,1.8124193822111,1.81026812556549,1.85638150690661,1.80927376693819,1.8067400646667,1.80613771280593,1.98139342086787,1.97894576886221,1.85238495011611,1.85064482251833,1.80081215746548,1.7995596480407,1.79866090081987,1.79916764127417,1.79504678965526,1.79294333871289,1.80196905548378,1.73102539188206,1.73012664466123,1.72831958907892,1.72501143441501,1.72507836239954,1.72450469396071,1.72135907868781,1.80730417196488,1.72004920241915,1.81161624639674,1.81201781430392,1.79917720241482,1.71763979497607,1.71545985490853,1.71252458472986,1.71490530875099,1.82088099168381,1.78970211203351,1.75986179207381,1.76097088438888,1.75878138318068,1.76011038173064,1.75801649192891,1.71035420580296,1.70937896945695,1.71059323431914,1.71053586747525,1.70961799797313,1.70716078482682,1.70769620870305,1.70773445326564,1.70551626863551,1.75907777854074,1.70740937448364,1.83031783750253,1.82857770990475,1.81218035369492,1.70807865432894,1.70760059729658,1.70931204147242,1.75633373117502,1.75548278965742,1.70543977951033
1.85178259825534,1.85447883991783,1.85103682928487,1.84697334450983,1.77582889695452,1.87977761807015,1.8805998761658,1.88232088148228,1.88212009752869,1.84599810816383,1.8475756963706,1.84665782686848,1.84666738800913,1.95544448515155,1.77738736288,1.84977475871944,1.84969826959427,1.95537755716702,1.85648667945373,1.85656316857891,1.95871439525287,1.96714732130364,1.88218702551322,1.86854327780977,1.95583649191809,1.96595217872275,1.9399554373032,1.92898880898094,1.92959116084171,1.92883583073058,1.93083410912583,1.94907676548056,1.93170417292472,1.85430673938619,1.85501426379407,1.85422068912036,1.85709859245515,1.85661097428214,1.93176153976861,1.94255606755922,1.85402946630742,1.92919915407517,1.92955291627912,1.93005965673342,1.8574332323778,1.94832143536944,1.95005200182657,1.94285246291928,1.94363647645235,1.94015622125679,1.92538425895697,1.94514713667459,1.94329227538905,1.86287352140602,1.94965043391939,1.95255702067612,1.95871439525287,1.95598947016844,1.94657174663101,1.94900027635539,1.94155214779127,1.8660956258041,1.93943913570825,1.94128443585315,1.95176344600241,1.8677592642767,1.96235718983943,1.9649482589548,1.95257614295741,1.94269948466893,1.95538711830767,1.97259717147251,1.86954719757771,1.86908826282665,1.9432827142484,1.94242221159016,1.94305324687287,1.94388506610917,1.9693081390899,1.86904045712342,1.96148712604054,1.94900983749603,1.94690638655366,1.94681077514719,1.94691594769431,1.94754698297702,1.9487994924018,1.96491957553286,1.95958445905176,1.8702547219856,1.8085853648116,1.98781850738275,1.80750495591847,1.85545407626384,1.90203595349667,1.9007834440719,1.8037378665035,1.80432109608298,1.8030685866582,1.90243752140385,1.80427329037974,1.80304946437691,1.9029347007175,1.80299209753303,1.80260965190714,1.80395777273839,1.85307335224271,1.85422068912036,1.80603254025881,1.85344623672794,1.80668269782282,1.80924508351625,1.80991436336155,1.8102298810029,1.98005486117727,1.81079398830109,1.86601913667892,1.8122568428201,1.80962752914213,1.80689304291706,1.80774398443465,1.80499037592828,1.99475989549256,2.01377700423971,1.96490045325157,1.80146231502948,1.79726497428539,1.79913895785223,1.79679647839368,1.79961701488459,1.79592641459479,1.73628401923798,1.82961987423529,1.81288787810281,1.81303129521251,1.72651253349661,1.77309441072944,1.77113437689678,1.81456107771606,1.72225782590864,1.79788644842746,1.72067067656121,1.71869152044726,1.80826984717024,1.71858634790014,1.71993446873138,1.7175633058509,1.80666357554152,1.76310301875319,1.71341377081004,1.79468346631067,1.71380577757657,1.71160671522773,1.81439853832505,1.82966767993853,1.70945545858213,1.71385358327981,1.70885310672136,1.70674965577899,1.70708429570164,1.82811877515369,1.82417002406642,1.70768664756241,1.75469877612436,1.75684047162932,1.70795435950053,1.81754415359796,1.81394916471464,1.70836548854835,1.75705081672355,1.75556883992325,1.7078683092347,1.82354854992436,1.70779182010953,1.70543021836968,1.70752410817141
1.88086758810392,1.85555924881096,1.77739692402065,1.8497651975788,1.77636432083076,1.8802747973838,1.97798965479749,1.85250924494452,1.85293949627365,1.84806331454361,1.84828322077849,1.77635475969011,1.85272915117941,1.85206943247476,1.88490238945701,1.85047272198669,1.95885781236258,1.96566534450334,1.85487084668437,1.85624765093755,1.88221570893517,1.79058173697305,1.7940811144499,1.86970973696872,1.88618358230373,1.96731942183529,1.94064383942979,1.85881959777163,1.93036561323413,1.93282282638044,1.93353035078833,1.92889319757447,1.85838934644251,1.85718464272097,1.92819523430723,1.85706034789256,1.85668746340732,1.85613291724979,1.93157987809631,1.93972596992767,1.92947642715394,1.95052049771828,1.9291035426687,1.85795909511339,1.93241169733261,1.93222047451967,1.94571124397277,1.92281231212289,1.95168695687723,1.92669413522563,1.94931579399674,1.9556357079645,1.94385638268723,1.86247195349884,1.93938176886437,1.95299683314589,1.86600957553828,1.86601913667892,1.95342708447501,1.95164871231464,1.96503430922063,1.8686102057943,1.9404430554762,1.94150434208803,1.9566109443105,1.95698382879574,1.9519451076747,1.94900983749603,1.94745137157055,1.94904808205862,1.94301500231028,1.96258665721496,1.94536704290948,1.9426134344031,1.8701113048759,1.94470732420482,1.94268036238763,1.94151390322868,1.94035700521038,1.94983209559169,1.9429385131851,1.94315841941999,1.94370340443688,1.9462849124116,1.94658130777166,1.94856046388562,1.9482736296662,1.94276641265346,1.96296910284085,1.96190781622902,1.80728504968359,1.80964665142343,1.8055640443671,1.99804892787518,1.80565009463293,1.9099334556712,1.89359346630525,1.8497460752975,1.80178739381149,1.89267559680313,1.80160573213919,1.80238974567226,1.80381435562868,1.80215071715608,1.85203118791217,1.85186864852117,1.88838264465257,1.85254748950711,1.80702689888611,1.80662533097894,1.80783959584112,1.80904429956266,1.80658708641635,1.9732855735991,1.98198621158799,1.98233997379194,1.85927853252269,1.96890657118272,1.89255130197472,1.97765501487484,1.80517203760057,1.80492344794375,1.80127109221654,1.79945447549359,1.97141159003227,1.9704650371082,1.79970306515041,1.96676487567776,1.79911983557094,1.79694945664404,1.79493205596749,1.73312884282443,1.73197194480612,1.72928526428428,1.8212443150284,1.72814748854727,1.72610140444879,1.72528870749378,1.72360594673988,1.80622376307176,1.72161722948528,1.71923650546414,1.80660620869764,1.71785970121096,1.71894011010408,1.71836644166525,1.71652114152036,1.8017300269676,1.76396352141143,1.71324167027839,1.71428383460893,1.75997652576158,1.75986179207381,1.75837025413286,1.82869244359252,1.70849934451741,1.70743805790558,1.70702692885776,1.70693131745128,1.70892003470589,1.82567112314802,1.70545890179163,1.82860639332669,1.70695043973258,1.83003100328312,1.82848209849828,1.82805184716916,1.79812547694363,1.70947458086342,1.70852802793936,1.70469401053985,1.71016298299001,1.81755371473861,1.81911218066409,1.70825075486059,1.8696045644216
1.88217746437258,1.85194513764634,1.77980633146373,1.77691886698829,1.8522606552877,1.96872490951042,1.85024325461115,1.85090297331581,1.88524659052031,1.88424267075236,1.84941143537485,1.85073087278416,1.88552386359907,1.77677544987859,1.77804708158466,1.85380956007253,1.85405814972936,1.88675725074255,1.78482593030347,1.78417577273947,1.88933875871728,1.86344718984484,1.86908826282665,1.86957588099966,1.96562709994075,1.975455952526,1.94929667171545,1.93262204242685,1.9484552913385,1.95450749336814,1.94648569636519,1.85941238849175,1.94865607529209,1.85841802986445,1.85815031792633,1.93144602212725,1.93119743247043,1.93268897041138,1.93288019322432,1.94887598152697,1.9332817611315,1.93252643102038,1.93365464561674,1.95182081284629,1.93338693367862,1.93446734257174,1.95890561806582,1.9302795629683,1.93549994576164,1.93481154363504,1.93547126233969,1.9456347548476,1.8656080076311,1.94259431212181,1.95224150303476,1.95866658954964,1.86687963933716,1.95292990516136,1.95495686697855,1.96775923430506,1.94140873068156,1.94520450351847,1.95237535900382,1.96456581332892,1.95473696074367,1.95543492401091,1.95188774083082,1.94319666398258,1.95280561033295,1.95027190806146,1.95458398249331,1.95814072681405,1.94850309704174,1.97220516470598,1.94673428602202,1.94909588776186,1.94910544890251,1.95772003662557,1.94544353203465,1.95205028022182,1.9494496499658,1.94431531743829,1.9456156325663,1.94901939863668,1.94851265818238,1.94939228312192,1.94878993126115,1.96771142860183,1.94475512990806,1.87130644745679,1.86255800376466,1.86023464658741,1.90261918307615,1.80591780657105,1.80600385683687,1.80570746147681,1.80486608109986,1.90167263015208,1.80019068332342,1.80120416423201,1.8004105895583,1.80382391676933,1.97808526620396,1.80312595350208,1.80265745761038,1.85271002889811,1.80626200763434,1.85264310091358,1.853580092697,1.8072276828397,1.80746671135588,1.97341942956816,1.80879570990583,1.80815511348248,1.80733285538682,1.98344906610701,1.807896962685,1.80750495591847,1.80695040976094,1.97155500714197,1.80578395060199,1.80497125364698,1.80332673745567,1.8514097137701,1.84944967993744,1.79930149724323,1.9776263314529,1.79777171473969,1.79847923914758,1.79758049192675,1.79517108448367,1.78409928361429,1.78292326331469,1.73061426283423,1.72670375630955,1.77611573117394,1.77310397187009,1.79829757747528,1.72618745471461,1.72095751078063,1.71945641169903,1.76849550207817,1.71818477999296,1.71794575147678,1.80352752140926,1.71484794190711,1.71448461856252,1.71462803567223,1.80430197380168,1.71463759681287,1.71307913088739,1.76031116568423,1.75864752721162,1.76750114345087,1.71148242039932,1.70952238656666,1.70970404823895,1.79512327878043,1.79249396510247,1.75648670942537,1.70664448323187,1.70727551851458,1.70761971957788,1.70730420193652,1.82693319371344,1.82652206466562,1.70697912315452,1.70260012073813,1.8249157930369,1.82383538414377,1.70678790034158,1.70756235273399,1.70476093852438,1.70523899555674,1.70632896559051,1.70688351174805
1.88352558520382,1.85384780463512,1.88704408496197,1.88517966253578,1.85119936867587,1.77876416713319,1.77723438462965,1.85200250449023,1.88827747210545,1.84999466495433,1.8502719380331,1.88903280221657,1.85236582783482,1.85216504388123,1.85231802213158,1.85385736577577,1.88860255088745,1.85549232082643,1.88664251705479,1.85837978530186,1.79151872875647,1.79438707095061,1.79897641846123,1.79927281382129,1.97103870554703,1.97459544986776,1.94219274421463,1.86296913281249,1.94317754170128,1.94885685924568,1.86050235852553,1.9487994924018,1.9334443005225,1.86004342377446,1.85853276355222,1.93438129230592,1.9382726765493,1.93813882058024,1.93432392546204,1.85924028796011,1.96531158229939,1.95706031792092,1.95987129327118,1.94993726813881,1.93620747016952,1.95227974759735,1.95209808592506,1.96187913280707,1.94037612749167,1.93759383556336,1.86479531067609,1.96714732130364,1.86502477805162,1.94639964609937,1.95589385876197,1.95469871618108,1.9469541922569,1.95597034788715,1.95950796992659,1.94889510380827,1.86939421932736,1.9439519940937,1.95485169443143,1.94903852091798,1.94239352816822,1.95910640201941,1.95687865624862,1.87021647742301,1.95415373116419,1.9711151946722,1.86924124107701,1.9597756818647,1.94149478094739,1.95900122947229,1.9594506030827,1.86985315407842,1.94558694914436,1.944458734548,1.95535843488573,1.86905957940471,1.8702547219856,1.87031208882949,1.94801547886873,1.95003287954528,1.95205984136247,1.95128538897005,1.86948026959318,1.87052243392372,1.94473600762677,1.94618930100513,1.80857580367095,1.97603918210548,1.98667117050509,1.80711294915194,1.8060707848214,1.80328849289309,1.99694939670076,1.99277117823796,1.90179692498049,1.80383347790997,1.97700485731084,1.97817131646979,1.80160573213919,1.80090776887195,1.80132845906042,1.80460793030239,1.97499701777494,1.80451231889592,1.80628112991564,1.8064149858847,1.80535369927287,1.975293413135,1.80801169637277,1.80809774663859,1.8085853648116,1.8560946726872,1.8085853648116,1.80794476838824,1.8555879322329,1.80396733387903,1.80427329037974,1.85245187810064,1.85150532517658,1.80217940057802,1.79954052575941,1.80016199990147,1.79815416036558,1.7984027500224,1.79801074325587,1.7964140327678,1.79468346631067,1.7348880927035,1.73365470556002,1.731541693477,1.72918965287781,1.72706707965415,1.72484889502401,1.72397883122512,1.72378760841218,1.76987230633136,1.76813217873358,1.79337359004201,1.79844099458499,1.71874888729114,1.80329805403373,1.71659763064554,1.7152112652517,1.71324167027839,1.76034941024681,1.81572753687501,1.80279131357944,1.81379618646428,1.82226735707764,1.7100578104429,1.71080357941337,1.71166408207161,1.81953287085256,1.82793711348139,1.7110521690702,1.70950326428536,1.82639776983721,1.8249157930369,1.82611093561779,1.82247770217188,1.75421115795135,1.70560231890133,1.70462708255532,1.8254034112099,1.81613866592283,1.70858539478324,1.70707473456099,1.70775357554694,1.82262111928159,1.7056979303078,1.70407253639779,1.7058795919801
1.85619984523432,1.85496645809084,1.78005492112055,1.88974988776511,1.88899455765398,1.88671900617997,1.8524231946787,1.7775690245523,1.77672764417535,1.88757950883821,1.88812449385509,1.96199386649484,1.85248056152258,1.78014097138638,1.77995930971408,1.78309536384634,1.85911599313169,1.85947931647628,1.88879377370039,1.7899028959871,1.97919435851903,1.79375603566789,1.8722625615215,1.79978911541624,1.88845913377774,1.97335250158363,1.93600668621593,1.95118977756358,1.93572941313717,1.93668552720188,1.93678113860835,1.95455529907137,1.86231897524848,1.93908537350431,1.93858819419066,1.86008166833705,1.94495591386165,1.93916186262949,1.93616922560693,1.86169750110642,1.93583458568429,1.93559555716811,1.9586187838464,1.86214687471683,1.93575809655911,1.93418050835233,1.967950457118,1.95490906127531,1.93771813039177,1.93642737640441,1.86630597089834,1.94058647258591,1.93490715504151,1.95815984909534,1.93949650255214,1.93771813039177,1.96343759873256,1.86956631985901,1.95486125557208,1.87132556973808,1.95503335610373,1.86766365287023,1.94942096654386,1.95242316470706,1.95475608302496,1.87014954943848,1.96652584716158,1.95167739573658,1.8697671038126,1.96904998829242,1.95116109414164,1.95283429375489,1.951801690565,1.94971736190392,1.94095935707115,1.87063716761149,1.87008262145395,1.95412504774225,1.8701113048759,1.94479337447065,1.96236675098008,1.94505152526812,1.95159134547076,1.94857958616691,1.94698287567884,1.94593115020766,1.94618930100513,1.96006251608412,1.96454669104762,1.95488993899402,1.80977094625184,1.80403426186356,1.80695997090159,1.80535369927287,1.80669225896347,1.80610902938399,1.80635761904082,1.9001141642266,1.9731421564894,1.80477046969339,1.80324068718985,1.8029060472672,1.80284868042332,1.97888840201832,1.80330761517438,1.97805658278202,1.80372830536285,1.97785579882843,2.0009555146319,1.80709382687064,1.80612815166528,1.99824015068812,1.99412886020985,1.80972314054861,1.98562900617455,1.80849931454577,1.9858011067062,1.80853755910836,1.80695997090159,1.80689304291706,1.97144027345421,1.80049663982412,1.80461749144304,1.80366137737832,1.80304946437691,1.80187344407731,1.79995165480724,1.99453998925768,1.7962514933768,1.79432970410672,1.73918104485406,1.73429530198338,1.73163730488347,1.73023181720835,1.81901656925762,1.72769811493686,1.72467679449236,1.72319481769206,2.01581352719755,1.72060374857668,1.72077584910833,1.71746769444442,1.80647235272858,1.71665499748942,1.71696095399013,1.71409261179599,1.71589010623765,1.71465671909417,1.81296436722798,1.71393007240499,1.71215170024462,1.71132944214897,1.71027771667778,1.82022127297916,1.82828131454469,1.82642645325915,1.70767708642176,1.70642457699699,1.70611862049628,1.70838461082965,1.82910357264034,1.70804040976635,1.82039337351081,1.75437369734236,1.75479438753083,1.70408209753844,1.82911313378099,1.70752410817141,1.7052103121348,1.82314698201718,1.7063672101531,1.70517206757221,1.81915998636733,1.82092879738705,1.82089055282446,1.70511470072833
1.8567448302512,1.8887555291378,1.78289457989275,1.85329325847759,1.852767395742,1.85275783460135,1.89192026669201,1.89234095688048,1.89047653445429,1.85189733194311,1.8554253928419,1.88988374373417,1.77942388583784,1.8555879322329,1.85514811976313,1.89202543923912,1.784080161333,1.85968010042987,1.86243370893625,1.86268229859307,1.8640877862682,1.79598378143868,1.87221475581826,1.87405049482251,1.8069026040577,1.97198525847109,1.95525326233861,1.95891517920646,1.96532114344004,1.94148521980674,1.9524709704103,1.94755654411767,1.86287352140602,1.93886546726943,1.93997455958449,1.94306280801352,1.86390612459591,1.94154258665062,1.93959211395861,1.86273966543696,1.9366090380767,1.93695323914,1.93548082348034,1.95853273358058,1.96477615842316,1.86286396026537,1.93956343053667,1.86512038945809,1.95557834112061,1.94249870071534,1.93918098491078,1.94913413232445,1.86871537834141,1.86926992449895,1.87029296654819,1.94934447741868,1.94385638268723,1.94508020869006,1.87090487954961,1.95771047548492,1.87086663498702,1.9504440085931,1.87021647742301,1.95898210719099,1.9586379061277,1.94524274808106,1.95905859631617,1.95298727200524,1.94528099264365,1.95285341603618,1.94412409462535,1.87088575726831,1.94935403855933,1.87074234015861,1.96305515310667,1.96205123333872,1.94402848321888,1.95205984136247,1.97165061854844,1.94218318307398,1.94641876838066,1.94487942473647,1.94855090274497,1.94783381719644,1.94436312314153,1.94915325460574,1.94535748176883,1.94288114634122,1.94441092884476,1.95943148080141,1.90002811396077,1.9853134885332,1.99193935900166,1.8052580878664,1.98404185682713,1.80637674132211,1.80539194383546,1.80384303905062,1.99382290370914,1.89351697718008,1.80284868042332,1.80448363547398,1.80294429182979,1.8054206272574,1.80417767897327,1.80293473068914,1.80287736384526,1.80478959197469,1.80589868428975,1.89870867655147,1.98771333483563,1.8052580878664,1.80356576597185,1.98893716083846,1.80892956587489,1.80583175630522,1.97182271908009,1.97942382589456,1.96924121110537,1.806759186948,1.80570746147681,1.80238018453161,1.80214115601543,1.80296341411108,1.80130933677913,1.98093448611681,1.79837406660046,1.79889992933605,1.84758525751125,1.84590249675736,1.84597898588253,1.73458213620279,1.78119269685756,1.77876416713319,1.72786065432786,1.72579544794808,1.7233669182237,1.80479915311533,1.80325980947114,1.72069935998316,1.7198771018875,1.72028823093533,1.76684142474622,1.76342809753519,1.71527819323623,1.8092355223756,1.7140543672334,1.71460891339093,1.71297395834027,1.70981878192672,1.82003961130686,1.70950326428536,1.81922691435186,1.82047942377663,1.70923555234724,1.70570749144845,1.75561664562648,1.78093454606009,1.70594651996463,1.70708429570164,1.70814558231347,1.7093694083163,1.70739025220235,1.82304180947006,1.70913994094077,1.7072181516707,1.70760059729658,1.7068739506074,1.70577441943298,1.70630984330922,1.70478962194633,1.70402473069456,1.70436893175785,1.82048898491728,1.70328852286473,1.75520551657866
1.88980725460899,1.89186289984812,1.85655360743826,1.97170798539233,1.78101103518527,1.96473791386057,1.85071175050286,1.8517539148334,1.85375219322865,1.85337930874341,1.89124142570606,1.78103971860721,1.853742632088,1.85544451512319,1.78364034886323,1.78435743441176,1.78460602406859,1.89300067558513,1.85950799989823,1.89346917147684,1.89251305741213,1.87197572730209,1.89188202212942,1.87375409946245,1.89252261855277,1.98651819225474,1.95953665334853,1.95819809365793,1.94639008495872,1.95870483411223,1.95448837108684,1.93887502841007,1.96005295494347,1.93976421449026,1.93868380559713,1.94074901197691,1.94175293174486,1.94332095881099,1.93661859921735,1.93798584232989,1.95843712217411,1.9552915069012,1.86357148467326,1.94805372343132,1.94054822802332,1.93967816422443,1.86621035949187,1.94271860695022,1.95238492014447,1.95202159679988,1.95304463884912,1.9486369530108,1.94721234305437,1.94949745566904,1.86851459438782,1.94769040008673,1.87029296654819,1.95273868234842,1.94530011492495,1.95437363739908,1.95585561419938,1.95814072681405,1.94984165673233,1.87230080608409,1.94927754943415,1.94840748563526,1.96774967316441,1.87248246775638,1.94705936480402,1.94583553880119,1.94721234305437,1.87101961323737,1.95184949626823,1.96074135707007,1.95221281961282,1.95467959389978,1.94357910960846,1.96149668718119,1.94678209172525,1.94573036625407,1.94492723043971,1.94813977369714,1.94739400472667,1.94820670168167,1.87072321787731,1.94964087277874,1.95534887374508,1.94841704677591,1.94503240298683,1.94472644648612,1.81049759294102,1.80779179013789,1.80830809173283,1.80423504581715,1.8030685866582,1.8042446069578,1.80313551464273,1.8040820675668,1.80180651609278,1.80419680125456,1.90333626862468,1.90214112604379,1.80462705258368,1.80506686505345,1.85051096654927,1.85186864852117,1.85247100038194,1.85216504388123,1.80293473068914,1.80615683508723,1.80648191386923,1.80583175630522,1.98595408495655,1.8069026040577,1.80614727394658,1.80584131744587,1.80723724398035,1.97141159003227,1.80563097235163,1.97001566349778,1.80622376307176,1.80434021836427,1.80278175243879,1.80252360164132,1.80151012073272,1.79899554074252,1.79711199603504,1.79745619709834,1.88212009752869,1.84792945857455,1.79993253252594,1.73465862532797,1.77967247549467,1.77801839816271,1.81186483605356,1.81754415359796,1.72416049289742,1.83456298394986,1.72092882735869,1.72031691435727,1.71847161421237,1.76661195737069,1.71607176790994,1.81282095011828,1.80647235272858,1.71512521498588,1.71238116762015,1.81615778820413,1.81631076645448,1.70802128748506,1.7103637669436,1.71021078869325,1.71062191774108,1.70872881189295,1.70680702262287,1.80611859052464,1.75516727201607,1.81022031986226,1.71024903325584,1.70994307675513,1.70739981334299,1.70670185007575,1.82629259729009,1.7038908747255,1.82650294238432,1.70728507965523,1.70399604727261,1.70794479835988,1.81168317438127,1.82329996026753,1.70428288149203,1.70660623866928,1.70543977951033,1.75363748951253,1.8209001139651,1.7048661110715
1.89213061178624,1.86235721981107,1.78526574277324,1.78439567897435,1.85547319854514,1.85528197573219,1.85946019419499,1.78292326331469,1.85541583170125,1.85612335610914,1.89285725847542,1.85566442135808,1.85431630052683,1.85539670941996,1.9717844745175,1.89563955040374,1.85950799989823,1.89744660598605,1.86387744117397,1.86654499941452,1.89595506804509,1.86860064465365,1.89740836142346,1.80569790033616,1.98871725460358,1.98872681574422,1.82656030922821,1.94471688534547,1.9716410574078,1.96477615842316,1.94236484474628,1.8657514247408,1.94290982976316,1.86549327394333,1.94073945083626,1.86635377660157,1.86556020192786,1.86579923044404,1.94515669781524,1.93924791289531,1.93914274034819,1.93985026475608,1.95804511540757,1.94138960840027,1.9417816151668,1.96316988679444,1.94927754943415,1.94221186649592,1.94820670168167,1.8682468824497,1.86968105354677,1.96184088824449,1.95244228698835,1.95673523913892,1.95867615069028,1.95300639428653,1.95251877611353,1.94989902357622,1.95509072294761,1.95786345373528,1.95234667558188,1.95528194576055,1.95242316470706,1.87462416326134,1.95271956006712,1.96207035562002,1.96353321013903,1.95548272971414,1.96827553590001,1.94513757553395,1.94508976983071,1.95937411395753,1.95143836722041,1.95733759099969,1.95890561806582,1.95851361129928,1.9451280143933,1.86985315407842,1.94592158906701,1.94576861081666,1.94604588389542,1.94817801825973,1.94672472488137,1.9489429095115,1.9487803701205,1.94860826958885,1.94965999506004,1.87266412942868,1.95134275581393,1.95406768089837,1.80981875195508,1.8067400646667,1.80652971957246,1.80579351174263,1.80349883798732,1.85312115794594,1.80301121981432,1.98758904000721,1.80420636239521,1.9006209046809,1.80401513958227,1.99459735610156,1.80327893175244,1.80667313668217,1.80436890178621,1.8535992149783,1.85096990130034,1.80344147114344,1.85272915117941,1.80490432566245,1.8032311260492,1.80536326041351,1.80521984330381,1.80606122368075,1.80554492208581,1.99186286987648,1.80441670748945,1.80383347790997,1.97183228022074,1.80524852672575,1.98187147790023,1.98890847741652,1.96980531840355,1.8024184290942,1.80297297525173,1.96906911057372,1.84774779690225,1.80007594963565,1.79765698105192,1.79739883025445,1.79519020676496,1.73435266882726,1.77989238172955,1.72700971281026,1.72507836239954,1.72414137061612,1.72321393997335,1.82160763837299,1.76726211493469,1.78972123431481,1.78871731454686,1.7168749037243,1.7150487258607,1.71390138898304,1.71306956974674,1.71261063499568,1.81848114538138,1.70896784040912,1.81944682058674,1.822907953501,1.70529636240062,1.82252550787512,1.7068930728887,1.71035420580296,1.75339846099635,1.70548758521357,1.7068930728887,1.75424940251394,1.82043161807339,1.70696000087323,1.7057170525891,1.75629548661243,1.75477526524954,1.7052103121348,1.81036373697196,1.70657755524734,1.70661579980993,1.70453147114885,1.70111814393783,1.70594651996463,1.70518162871286,1.75424940251394,1.70435937061721,1.70381438560032,1.70491391677474,1.70311642233308
1.78665210816708,1.86284483798407,1.8574332323778,1.85638150690661,1.85833197959863,1.7835734208787,1.85670658568862,1.89652873648392,1.8567639525325,1.85756708834686,1.85602774470267,1.97107695010962,1.89620365770192,1.78390806080135,1.89728406659505,1.89815413039394,1.9808101912884,1.79013236336263,1.86514907288003,1.97133510090709,1.96939418935572,1.79935886408711,1.80180651609278,1.89506588196491,1.97850595639244,1.89730318887634,1.96589481187887,1.87033121111078,1.9644606407818,1.94147565866609,1.86930816906154,1.9663059409267,1.94363647645235,1.94523318694042,1.94188678771392,1.86740550207276,1.94268992352828,1.94273772923151,1.93891327297266,1.95620937640332,1.94125575243121,1.9406055948672,1.94083506224274,1.95297771086459,1.95818853251728,1.94917237688704,1.95187817969017,1.945271431503,1.94315841941999,1.86924124107701,1.9611142415553,1.94860826958885,1.94855090274497,1.95576000279291,1.87254939574091,1.94655262434972,1.95123758326682,1.94631359583354,1.87370629375922,1.95840843875216,1.95554009655803,1.87297008592939,1.87375409946245,1.87336209269592,1.96851456441618,1.96801738510253,1.95657269974792,1.9611142415553,1.96130546436825,1.8734385818211,1.87329516471139,1.87318043102363,1.95538711830767,1.95141924493911,1.87223387809956,1.96998698007584,1.95801643198563,1.87274061855386,1.94515669781524,1.94685858085043,1.94777645035255,1.94848397476044,1.94957394479421,1.95477520530626,1.95122802212617,1.94606500617672,1.94538616519077,1.94846485247915,1.87217651125568,1.87168889308267,1.80935025606337,1.80640542474405,1.80467485828692,1.80450275775527,1.8030685866582,1.80534413813222,1.80378567220674,1.80575526718005,1.80344147114344,1.8020742280309,1.85237538897546,1.87858247548926,1.90147184619849,1.80303034209561,1.97619216035583,1.97428949336705,1.80324068718985,1.80662533097894,1.97652680027848,1.97634513860619,1.8034127877215,1.8991198055993,1.80269570217296,1.8029251695485,1.85331238075888,1.8030685866582,1.80640542474405,1.80474178627145,1.80631937447823,1.80488520338116,1.80362313281574,1.80185432179602,1.80155792643596,1.80123284765395,1.80005682735436,1.80084084088742,1.79971262629106,1.79933018066517,1.80085996316871,1.79932061952453,1.7975709307861,1.82077581913669,1.82429431889484,1.82086186940252,1.72678980657538,1.82366328361213,1.82610137447714,1.76867716375047,1.76822779014005,1.76944205500224,1.71428383460893,1.71408305065534,1.71247677902662,1.71230467849497,1.91924600666151,1.80774398443465,1.75741414006814,1.75670661566026,1.70766752528111,1.75576006273619,1.80421592353586,1.75423028023265,1.70595608110528,1.70804040976635,1.70679746148222,1.70682614490417,1.75372353977835,1.81017251415902,1.80790652382565,1.87239641749056,1.82121563160646,1.82176061662335,1.70489479449344,1.82405529037866,1.82552770603832,1.70466532711791,1.81149195156833,1.70664448323187,1.70717034596746,1.70434980947656,1.82351986650242,1.70521987327545,1.82119650932517,1.82035512894822,1.70572661372975,1.82032644552628
1.89759002309575,1.86296913281249,1.85861881381804,1.78683376983937,1.89721713861052,1.78699630923037,1.78350649289417,1.8992823449903,1.89889989936441,1.78335351464381,1.85758621062815,1.85736630439327,1.8999325025543,1.85928809366334,1.86295001053119,1.86331333387578,1.89890946050506,1.89771431792417,1.90016196992983,1.89833579206623,1.87157415939491,1.87305613619521,1.80316419806467,1.88172809076216,1.89925366156836,1.99401412652209,1.87225300038085,1.96153493174378,1.94584509994183,1.94506108640877,1.94593115020766,1.95956533677047,1.94566343826954,1.94374164899946,1.9436077930304,1.94456390709512,1.94751829955508,1.94526187036236,1.94337832565487,1.94281421835669,1.94271860695022,1.94149478094739,1.94225967219916,1.95716549046804,1.94973648418522,1.96540719370587,1.97283619998869,1.96294041941891,1.86888747887306,1.95468915504043,1.9557791250742,1.94966955620069,1.95031015262404,1.95130451125135,1.87270237399127,1.87365848805598,1.87388795543151,1.95890561806582,1.96891613232336,1.95213633048765,1.96288305257502,1.95641972149756,1.87436601246387,1.97814263304785,1.96141063691536,1.87441381816711,1.95436407625843,1.9661242792544,1.9624528012459,1.94954526137227,1.94875168669856,1.96583744503499,1.95852317243993,1.94546265431595,1.87379234402504,1.87329516471139,1.94655262434972,1.87280754653839,1.96262490177755,1.9686197369633,1.94839792449462,1.95162959003335,1.94985121787298,1.95076908737511,1.94836924107268,1.94869431985468,1.94726014875761,1.8726067625848,1.94457346823576,1.95139056151717,1.80758144504365,1.98655643681732,1.806759186948,1.97796097137555,1.99758999312411,1.80414899555133,1.80283911928267,1.80151968187337,1.80481827539663,1.8035753271125,1.97816175532914,1.8032311260492,1.8560946726872,1.86399217486173,1.96518728747098,1.85868574180257,1.99521883024363,1.80362313281574,1.80652015843182,1.98865988775969,1.89994206369495,1.89846964803529,1.80114679738813,1.99551522560369,1.80643410816599,1.80463661372433,1.80370918308156,1.89929190613094,1.80316419806467,1.80326937061179,1.80093645229389,1.80061137351189,1.80077391290289,1.80078347404354,1.80120416423201,1.799416230931,1.79802986553716,1.80020024446406,1.800228927886,1.79830713861593,1.79668174470592,1.82422739091031,1.73100626960076,1.82039337351081,1.81862456249109,1.82624479158685,1.8239023121283,1.72046033146698,1.82611093561779,1.71698007627142,1.7173816441786,1.71600483992541,1.76183138704712,1.71333728168486,1.71130075872702,1.70946501972277,1.71091831310114,1.75518639429736,1.75658232083184,1.75647714828473,1.70830812170447,1.70668272779446,1.70608993707434,1.81271577757116,1.82021171183851,1.70598476452722,1.70870968961165,1.82072801343346,1.70747630246817,1.82568068428867,1.82529823866279,1.70678790034158,1.70740937448364,1.75663012653508,1.75298733194852,1.82388318984701,1.70485654993086,1.70763884185917,1.70734244649911,1.70741893562429,1.70712254026423,1.70173961807989,1.70340325655249,1.70487567221215,1.70345106225573,1.75150535514822
1.8639252468772,1.78844960260874,1.86075094818235,1.85982351753958,1.86079875388559,1.8582459293328,1.78598282832178,1.98431912990589,1.90203595349667,1.85694561420479,1.98497884861055,1.85853276355222,1.85949843875758,1.78636527394766,1.99202540926748,1.86168793996577,1.86551239622462,1.86435549820632,1.8675967248857,1.86983403179713,1.799578770322,1.87405049482251,1.90194990323085,1.89889033822376,1.88782809849503,1.9914613019693,1.8732760424301,1.94919149916833,1.94978428988845,1.96207991676066,1.94472644648612,1.96227113957361,1.94239352816822,1.94809196799391,1.87077102358055,1.94414321690664,1.9461223730206,1.94792942860291,1.95583649191809,1.95846580559605,1.94975560646651,1.94380857698399,1.9557982473555,1.87082839042443,1.95683085054539,1.86980534837519,1.86948026959318,1.96217552816714,1.94402848321888,1.94349305934264,1.87369673261857,1.87386883315022,1.87231036722474,1.8740887393851,1.95439275968037,1.87230080608409,1.95871439525287,1.87518827055952,1.95824589936116,1.95821721593922,1.95676392256086,1.95497598925984,1.87579062242029,1.9549473058379,1.95481344986884,1.95458398249331,1.87632604629653,1.96867710380719,1.9657992004724,1.94819714054103,1.96501518693933,1.94887598152697,1.9482736296662,1.94813977369714,1.94844573019785,1.96542631598716,1.94881861468309,1.94847441361979,1.96533070458069,1.9688013986356,1.94607456731736,1.95054918114022,1.94997551270139,1.94927754943415,1.9516200288927,1.94886642038633,1.87058936190825,1.95922113570717,1.95933586939494,1.87334297041463,1.8566014131415,1.80788740154436,1.80708426573,1.99509453541521,1.80409162870745,2.00204548466568,1.80298253639238,1.8027435078762,1.98897540540105,1.80281999700138,1.99493199602421,1.97786535996908,1.85305422996141,1.85390517147901,1.90181604726179,1.80347971570603,1.90238971570062,1.80456012459915,1.97818087761044,1.99142305740671,1.80233237882837,1.80689304291706,1.80552579980452,1.88701540154003,1.80327893175244,1.95824589936116,1.80565965577358,1.80334585973697,1.85155313087981,1.85063526137769,1.80251404050067,1.80067830149642,1.80261921304779,1.9844625470156,1.80085996316871,1.80026717244859,1.96926989452731,1.96769230632053,1.96595217872275,1.799578770322,1.78346824833158,1.73298542571472,1.84398070748728,1.73042304002129,1.78380288825423,1.77062763644248,1.72180845229822,1.72136863982845,1.7202021806695,1.71942772827709,1.71727647163148,1.80231325654708,1.7141977843431,1.71082270169467,1.71076533485078,1.70823163257929,1.82946689598494,1.70525811783804,1.70814558231347,1.70686438946675,1.70525811783804,1.70518162871286,1.70402473069456,1.7060612536524,1.70749542474946,1.70475137738374,1.70484698879021,1.7056979303078,1.70668272779446,1.82504008786531,1.70480874422762,1.82748773987098,1.75482307095277,1.70727551851458,1.70497128361862,1.70559275776069,1.70710341798293,1.81829948370908,1.70511470072833,1.81088003856691,1.70629072102793,1.70518162871286,1.88106837205751,1.7048661110715,1.81967628796227,1.82288883121971
1.89830710864429,1.86380095204879,1.90047748757119,1.86613387036669,1.85966097814858,1.90263830535744,1.86254844262401,1.86056928651006,1.85980439525829,1.85980439525829,1.78689113668325,1.86114295494889,1.86080831502624,1.90255225509162,1.78796198443573,1.9926373222689,1.8636001680952,1.86730989066629,1.90233234885673,1.9017586804179,1.800391467277,1.87629736287459,1.87854423092667,1.88387934740777,1.90079300521254,1.98849734836869,1.87624955717135,1.87516914827823,1.87663200279724,1.9596131424737,1.94823538510362,1.96483352526704,1.94584509994183,1.87253027345962,1.87255895688156,1.87150723141038,1.94851265818238,1.94849353590109,1.94866563643274,1.94418146146923,1.94241265044951,1.96568446678463,1.94540528747206,1.94467864078288,1.87304657505457,1.94692550883496,1.945108892112,1.96477615842316,1.96467098587604,1.9519451076747,1.95401987519513,1.87581930584223,1.87545598249764,1.87532212652858,1.95647708834144,1.95200247451859,1.95942191966076,1.96534982686198,1.9644606407818,1.96155405402507,1.95424934257066,1.95823633822052,1.95761486407845,1.87655551367206,1.96841895300971,1.95488037785337,1.95926894141041,1.87547510477894,1.96032066688159,1.96819904677483,1.97533165769759,1.8794429781475,1.96558885537816,1.96283524687179,1.87505441459046,1.87377322174375,1.94910544890251,1.95568351366773,1.95169651801788,1.94821626282232,1.94599807819219,1.94620842328642,1.95303507770848,1.95206940250312,1.95447880994619,1.95947928650464,1.96195562193225,1.96091345760171,1.87319955330492,1.80709382687064,1.98924311733917,1.98152727683693,1.80446451319268,1.80398645616033,1.80454100231786,1.80336498201826,1.80262877418843,1.97917523623774,1.90310680124915,1.90101291144743,1.99410017678791,1.80214115601543,1.98566725073714,1.90557357553611,1.80377611106609,1.8037569887848,1.898287986363,1.89673908157816,1.80390996703515,1.80387172247256,1.8034127877215,1.90290601729556,1.80417767897327,1.88291367220241,1.80301121981432,1.80296341411108,1.80421592353586,1.80321200376791,1.80425416809845,1.80455056345851,1.89487465915197,1.97076143246826,1.80301121981432,1.98173762193117,1.80068786263707,1.800066388495,1.96788352913347,1.9686197369633,1.974805794962,1.79970306515041,1.82603444649261,1.73324357651219,1.73257429666689,1.77576196896999,1.77351510091792,1.72305140058235,1.769231709908,1.81594744310989,1.71750593900701,1.71758242813219,1.71395875582693,1.80647235272858,1.83202928167837,1.70958931455119,1.82709573310445,1.70843241653288,1.70743805790558,1.70716078482682,1.82639776983721,1.82394055669089,1.82904620579646,1.82689494915086,1.70409165867909,1.82568068428867,1.82547990033508,1.70519118985351,1.70428288149203,1.70374745761579,1.70739025220235,1.70635764901246,1.70565968574522,1.82656030922821,1.82274541411,1.70469401053985,1.70570749144845,1.70356579594349,1.70674009463834,1.82337644939271,1.70353711252155,1.81035417583132,1.70402473069456,1.70315466689567,1.81912174180474,1.70362316278738,1.75727072295844,1.7567352990822
1.86418339767467,1.90091730004096,1.86557932420915,1.98502665431378,1.78908063789145,1.78936747211086,1.78788549531056,1.78769427249761,1.86204170216972,1.90067827152478,1.78956825606445,1.78731182687173,1.86023464658741,1.86326552817255,1.78922405500115,1.90524849675411,1.90351793029698,1.8670899844314,1.90263830535744,1.87238685634991,1.87304657505457,1.80335542087762,1.87889799313061,1.88296147790564,1.88904236335722,1.99606021062057,1.96218508930778,1.97150720143874,1.87606789549906,1.87529344310664,1.94918193802768,1.94833099651009,1.94538616519077,1.87390707771281,1.87239641749056,1.87212870555244,1.87317086988298,1.87237729520927,1.87241553977185,1.9618026436819,1.94629447355225,1.94569212169148,1.96101863014883,1.94775732807126,1.94693506997561,1.96752976692953,1.87232948950603,1.96382960549909,1.96134370893083,1.95320717824013,1.87480582493364,1.97188008592397,1.96799826282124,1.97872586262732,1.87490143634011,1.87529344310664,1.97510219032206,1.87780802309684,1.95354181816277,1.87680410332889,1.96853368669748,1.96459449675086,1.95779652575075,1.95990953783376,1.95897254605035,1.96359057698291,1.96441283507856,1.95994778239635,1.95853273358058,1.95629542666915,1.95610420385621,1.87846774180149,1.96282568573114,1.9572993464371,1.87389751657216,1.96900218258919,1.94820670168167,1.94880905354244,1.94708804822596,1.95266219322324,1.95448837108684,1.95197379109664,1.95082645421899,1.95311156683365,1.95503335610373,1.95003287954528,1.95087425992222,1.94810152913456,1.95281517147359,1.94943052768451,1.91746763450114,1.80569790033616,1.8040629452855,1.98213918983835,1.85239451125676,1.96217552816714,1.88912841362304,1.84868478868567,1.85044403856474,1.8502719380331,1.85044403856474,1.8490959177335,1.80262877418843,1.97982539380174,1.80404382300421,1.80151012073272,1.80588912314911,1.80453144117721,1.80238974567226,1.80333629859632,1.80361357167509,1.97976802695786,1.80326937061179,1.90830806176119,1.8937846891182,1.80586043972716,1.8042446069578,1.80335542087762,1.80240886795355,1.97360109124046,1.80289648612655,1.80165353784243,1.80296341411108,1.80195949434313,1.80004726621371,1.8499086146885,1.98184279447829,1.79808723238105,1.80219852285931,1.79958833146265,1.82626391386815,1.73494545954738,1.73046128458388,1.73039435659935,1.82956250739141,1.80521984330381,1.83264119467978,1.7172191047876,1.82908445035905,1.71515389840782,1.71370060502945,1.71375797187334,1.71160671522773,1.7098952710519,1.82694275485409,1.70791611493794,1.7555592787826,1.70573617487039,1.83358774760385,1.70656799410669,1.82637864755591,1.75323592160535,1.81080354944173,1.75332197187117,1.82931391773458,1.70684526718546,1.79686340637821,1.82943821256299,1.82614918018038,1.70696956201387,1.7544023807643,1.70647238270022,1.70510513958768,1.75424940251394,1.75264313088523,1.70369009077191,1.70361360164673,1.82886454412417,1.70402473069456,1.81916954750797,1.70546846293227,1.70435937061721,1.70232284765937,1.70107033823459,1.75633373117502,1.75599909125237
1.86862932807559,1.8647761883948,1.86390612459591,1.79199678578882,1.86350455668873,1.86363841265779,1.86272054315566,1.78848784717133,1.78973079545545,1.8632750893132,1.86316991676608,1.90556401439546,1.78982640686192,1.86374358520491,1.86538810139621,1.86694656732169,1.86728120724434,1.86644938800804,1.87238685634991,1.87440425702646,1.99491287374292,2.00057306900602,1.88231132034164,1.81281138897763,1.99236004919013,1.90407247645451,1.9722912149718,1.96444151850051,1.87614438462424,1.94939228312192,1.87602008979582,1.94852221932303,1.94722190419502,1.87290315794486,1.87516914827823,1.87402181140057,1.87438513474516,1.94940184426257,1.95024322463951,1.9584562444554,1.87326648128945,1.97617303807454,1.95770091434428,1.8730943807578,1.87397400569734,1.87583842812353,1.97216692014339,1.87314218646104,1.9551289675102,1.9649482589548,1.9654741216904,1.94975560646651,1.95182081284629,1.87581930584223,1.95326454508401,1.95921157456652,1.96600954556664,1.9624528012459,1.96535938800263,1.95573131937097,1.95772959776622,1.98843998152481,1.87856335320796,1.96701346533458,1.96840939186907,1.96098038558624,1.87653639139077,1.96600954556664,1.96620076837958,1.95924025798847,1.95559746340191,1.96512035948645,1.87659375823465,1.875771500139,1.87731084378319,1.95505247838502,1.95833194962699,1.96268226862143,1.96595217872275,1.96007207722477,1.94844573019785,1.95026234692081,1.87349594866498,1.87603921207712,1.8724251009125,1.87400268911928,1.87283622996033,1.9619460607916,1.95835107190828,1.94787206175902,1.91469490371347,1.90548752527029,2.01089910090492,1.98409922367101,1.80312595350208,1.80369006080027,1.80295385297044,1.80104162484101,1.79975087085365,1.84952616906262,1.8494401187968,1.85099858472228,1.85019544890792,1.84989905354786,1.84954529134391,1.80248535707873,1.80397689501968,1.80344147114344,1.80624288535305,1.80266701875102,1.8037378665035,1.99738920917052,1.80367093851897,1.88192887471575,1.80303990323626,1.90054441555572,1.89231227345854,1.8040629452855,1.80173958810825,1.80088864659066,1.80129977563848,1.80171090468631,1.80154836529531,1.98492148176666,1.80125196993525,1.80035322271442,1.96887788776078,1.80310683122079,1.88834440008998,1.80116591966942,1.82755466785551,1.73224921788489,1.82930435659393,1.82633084185268,1.7218849414234,1.8289123498274,1.82859683218605,1.72004920241915,1.83028915408059,1.7168749037243,1.7132225479971,1.71380577757657,1.8297441690637,1.82415090178513,1.75721335611455,1.82750686215227,1.70867144504906,1.70629072102793,1.83004056442376,1.82849165963893,1.70715122368617,1.70392911928808,1.70231328651872,1.82439949144195,1.82584322367967,1.82590059052355,1.82296532034488,1.75365661179382,1.75332197187117,1.70672097235705,1.82750686215227,1.70191171861154,1.70515294529092,1.77913705161843,1.7055545131981,1.70527724011933,1.7063863324344,1.70482786650891,1.70447410430497,1.82343381623659,1.7041968312262,1.70478962194633,1.70391955814744,1.82421782976966,1.70256187617554,1.75667793223832
1.90287733387362,1.90699818549253,1.86463277128509,1.86573230245951,1.90637671135047,1.86755848032311,1.9792899699255,1.8642694479405,1.8656080076311,1.7912223333964,1.90865226282449,1.79032358617557,1.86432681478438,1.79292421643159,1.79402374760601,1.90603251028717,1.90627153880335,1.90563094237999,1.87101961323737,1.79978911541624,1.87865896461443,1.90519112991023,1.98465376982854,1.88699627925873,1.90625241652206,1.99904328650248,1.94945921110645,1.95037708060857,1.96850500327554,1.95823633822052,1.952289308738,1.95057786456216,1.95146705064235,1.87530300424729,1.87407917824446,1.95509072294761,1.87527432082535,1.95559746340191,1.94916281574639,1.95132363353264,1.94852221932303,1.94869431985468,1.94899071521474,1.95919245228523,1.96943243391831,1.96467098587604,1.95781564803204,1.96531158229939,1.87466240782393,1.94978428988845,1.8772534769393,1.959957343537,1.96133414779019,1.87631648515588,1.87708137640766,1.96797914053994,1.87885974856802,1.96899262144854,1.87720567123607,1.96040671714742,1.96054057311648,1.96102819128948,1.95947928650464,1.8794238558662,1.9509698713287,1.96193649965096,1.87832432469178,1.87901272681838,1.97283619998869,1.97522648515047,1.96452756876633,1.95843712217411,1.97390704774117,1.9729604948171,1.952126769347,1.87582886698288,1.87604877321777,1.96860061468201,1.96003383266218,1.94807284571261,1.95195466881535,1.87296052478874,1.87252071231897,1.87196616616144,1.8730943807578,1.87416522851028,1.9656175388001,1.95336971763113,1.95745232468745,1.95022410235822,1.807571883903,1.80649147500988,1.80467485828692,1.80354664369056,1.9784581506892,1.97906050254997,1.99233136576819,1.80263833532908,1.80061137351189,1.80126153107589,1.84923933484321,1.84950704678132,1.80301121981432,1.80279131357944,1.80275306901685,1.8019116886399,1.80584131744587,1.80216983943737,1.80617595736852,1.80591780657105,1.80317375920532,1.8060707848214,1.99222619322107,1.90241839912256,1.80464617486498,1.80577438946134,1.80358488825315,1.85290125171106,1.8037569887848,1.80171090468631,1.8025809684852,1.8030877089395,1.96940375049637,1.80063049579318,1.80206466689025,1.97007303034167,1.79950228119682,1.80260009076649,1.96493869781416,1.80275306901685,1.78178548757768,1.73125485925759,1.72967727105081,1.72316613427012,1.72039340348245,1.92015431502299,1.71842380850914,1.71782145664837,1.83045169347159,1.71413085635857,1.76295960164348,1.7603876548094,1.71184574374391,1.71055498975655,1.75469877612436,1.70710341798293,1.70778225896888,1.82755466785551,1.70531548468192,1.70605169251175,1.83278461178949,1.83255514441396,1.70413946438232,1.70376657989708,1.70350842909961,1.82315654315783,1.70756235273399,1.75400081285712,1.70515294529092,1.82350074422112,1.82340513281465,1.70367096849061,1.70557363547939,1.70464620483662,1.82631171957138,1.8162533996106,1.70481830536827,1.70518162871286,1.70490435563409,1.82525043295955,1.70125199990689,1.8234146939553,1.70277222126978,1.70434024833591,1.75096037013133,1.70203601343995
1.90901558616908,1.86881098974789,1.86674578336811,1.79356481285495,1.79294333871289,1.86754891918246,1.79321105065101,1.86331333387578,1.90605163256847,1.98357336093542,1.8662581651951,1.86933685248348,1.86484311637933,1.90740931454036,1.86529248998974,1.868591083513,1.87207133870856,1.8742704010574,1.800228927886,1.90666354556988,1.87356287664951,1.80771530101271,1.88377417486065,1.8866042724922,1.88750301971303,1.99969344406648,1.99797243875,1.95597034788715,1.95511940636955,1.8804373367748,1.97724388582702,1.95171564029917,1.94690638655366,1.9517825682837,1.95235623672253,1.95301595542718,1.87677541990695,1.87581930584223,1.87530300424729,1.95023366349887,1.9597756818647,1.96530202115875,1.95282473261424,1.96604779012922,1.96449888534439,1.967625378336,1.95031015262404,1.95118977756358,1.95052049771828,1.96633462434864,1.87991147403921,1.96151580946248,1.96369574953003,1.96283524687179,1.96049276741324,1.96034935030353,1.97243463208151,1.96776879544571,1.87925175533455,1.95475608302496,1.95847536673669,1.8790987770842,1.95965138703629,1.88045645905609,1.96657365286482,1.96599042328534,1.95803555426693,1.87956727297591,1.97737774179608,1.87852510864537,1.96868666494783,1.97486316180588,1.96633462434864,1.96461361903215,1.87655551367206,1.87613482348359,1.87567588873253,1.87585755040482,1.87496836432464,1.95857097814317,1.94882817582374,1.9479676731655,1.87506397573111,1.87441381816711,1.87512134257499,1.9527960491923,1.95666831115439,1.95511940636955,1.95218413619088,1.95298727200524,1.80758144504365,1.90307811782721,2.00216977949409,1.99618450544899,1.80275306901685,1.80412031212939,1.80253316278196,1.90580304291164,1.80240886795355,1.80152924301401,1.80134758134172,1.8010798694036,1.79889992933605,1.80020980560471,1.80201686118702,1.80327893175244,1.80467485828692,1.80409162870745,1.91488612652642,1.80096513571583,1.80672094238541,1.80615683508723,1.89523798249656,1.80407250642615,1.80229413426578,1.80304946437691,1.8057457060394,1.9807910690071,1.80168222126437,1.80370918308156,1.80407250642615,1.80242799023484,1.79799162097457,1.80128065335719,1.80311639236144,1.85357053155636,1.80267657989167,1.80271482445426,1.9656366610814,1.80076435176224,1.73209623963454,1.78959693948639,1.77685193900376,1.72717225220126,1.72437083799165,1.72140688439104,1.7185576644782,1.7645467509909,1.78619317341601,1.76332292498807,1.76065536674752,1.7603876548094,1.8092546446569,1.70807865432894,1.70870968961165,1.70795435950053,1.82991626959535,1.82970592450111,1.70552582977616,1.83256470555461,1.81601437109442,1.7525762029007,1.70420639236685,1.75203121788381,1.70211250256513,1.82596751850808,1.7944061932319,1.80433065722362,1.82598664078938,1.83072896655036,1.70390043586614,1.70229416423742,1.70390999700679,1.70587003083945,1.8245715919736,1.82130168187228,1.70360404050608,1.82319478772042,1.82602488535197,1.70414902552297,1.70362316278738,1.70233240880001,1.70091735998424,1.70147190614177,1.80677830922929,1.70211250256513
1.86961412556224,1.87097180753414,1.86991052092231,1.87020691628237,1.8699296432036,1.86870581720077,1.7934118346046,1.86655456055516,1.86237634209237,1.86621992063251,1.90991433338991,1.86568449675627,1.79386120821501,1.99784814392159,1.86971929810936,1.9119604174884,1.87249202889703,1.7980776712404,1.87689015359471,1.9091016364349,1.98248339090164,1.91063141893844,1.88636524397602,1.88888938510686,1.8205750351831,1.90897734160649,1.98168981622793,1.95659182202921,1.97304654508293,1.98184279447829,1.88016006369603,1.87975849578885,1.87883106514608,1.8770909375483,1.87843905837955,1.87684234789148,1.87678498104759,1.95303507770848,1.87668936964112,1.87620175146812,1.97901269684674,1.95116109414164,1.95177300714306,1.97990188292692,1.9512758278294,1.97144027345421,1.96988180752872,1.95253789839483,1.96179308254125,1.98116395349234,1.9584562444554,1.9657992004724,1.96525421545551,1.87889799313061,1.87972025122626,1.96137239235278,1.96179308254125,1.97134466204774,1.97231989839374,1.95327410622465,1.96061706224165,1.96479528070445,1.96226157843296,1.98452947500013,1.97311347306746,1.96188869394772,1.9694706784809,1.95932630825429,1.97849639525179,1.87917526620938,1.96645891917705,1.96752976692953,1.96465186359474,1.87828608012919,1.97602962096483,1.95485169443143,1.95990953783376,1.95903947403488,1.95867615069028,1.87547510477894,1.96316988679444,1.95208852478441,1.87340989839916,1.87328560357074,1.87588623382676,1.87271193513192,1.95006156296722,1.95946016422335,1.95270043778583,1.96534026572134,1.80935025606337,1.80946498975113,1.80751451705912,1.85272915117941,1.80252360164132,1.80277219129814,1.80288692498591,1.90515288534764,1.80291560840785,1.90096510574419,1.79929193610258,1.80119460309136,1.9062619776627,1.90471307287787,1.80252360164132,1.90511464078505,1.90232278771609,1.90142404049525,1.80319288148661,1.80384303905062,1.80597517341493,1.80413943441068,1.80320244262726,1.80133802020107,1.80393865045709,1.80379523334738,1.85037711058021,1.88238780946681,1.85067350594028,1.96546456054975,1.84912460115544,1.80096513571583,1.80255228506326,1.8007547906216,1.80043927298024,1.80310683122079,1.80238018453161,1.8022558897032,1.80059225123059,1.79972218743171,1.78044692788709,1.73042304002129,1.72583369251067,1.81605261565701,2.00112761516355,1.71981017390297,1.71849073649367,1.71259151271439,1.79027578047234,1.76259627829889,1.71064104002237,1.70865232276777,1.70930248033177,1.70688351174805,1.82723915021415,1.76703264755916,1.70724683509264,1.70532504582257,1.83432395543368,1.70574573601104,1.70651062726281,1.75162964997663,1.70430200377332,1.7033650119899,1.75309250449564,1.82823350884145,1.82599620193003,1.82350074422112,1.70397692499132,1.70520075099415,1.70395780271003,1.82627347500879,1.82472457022396,1.70264792644137,1.70194996317413,1.82241077418735,1.75334109415247,1.7052103121348,1.70285827153561,1.82244901874994,1.82678021546309,1.70567880802651,1.70169181237666,1.70098428796877,1.70140497815724,1.70082174857777
1.87220519467762,1.79799162097457,1.87082839042443,1.79755180850481,1.91286872584987,1.7963949104865,1.867940925949,1.91065054121974,1.86590440299116,1.91386308447717,1.91389176789912,1.86682227249328,1.87006349917266,1.86686051705587,1.86920299651442,1.7977525924584,1.99492243488356,1.87401225025993,1.87889799313061,1.87962463981979,1.87915614392808,1.91168314440963,1.81415950980888,1.81964760454033,2.00293467074586,2.00574564609612,1.99256083314372,1.97707178529537,1.96840939186907,1.96148712604054,1.96552192739363,1.96715688244429,1.96862929810395,1.8794429781475,1.87784626765943,1.87820959100402,1.87586711154547,1.95240404242577,1.95869527297158,1.99909109220571,1.9531402502556,1.95226062531606,1.95249965383224,1.95274824348906,1.95445012652425,1.95183037398694,1.87933780560038,1.87896492111514,1.96298822512214,1.96186001052578,1.87862072005184,1.96461361903215,1.94901939863668,1.95220325847218,1.95374260211636,1.95935499167623,1.95495686697855,1.95487081671273,1.97059889307726,1.96584700617563,1.96034935030353,1.95380953010089,1.96562709994075,1.96553148853428,1.88088671038521,1.96157317630637,1.96371487181132,1.88160379593375,1.96821816905612,1.95519589549473,1.96903086601113,1.96706127103782,1.96384872778038,1.9672811772727,1.98597320723785,1.95211720820635,1.96331330390414,1.96834246388454,1.95036751946793,1.94872300327662,1.87513090371564,1.8734385818211,1.87754987229936,1.87423215649481,1.87399312797863,1.95012849095175,1.87353419322757,1.94925842715286,1.95458398249331,1.87450942957358,1.81021075872161,1.85568354363937,1.89798202986229,1.9036039805628,1.80377611106609,1.90520069105087,1.80088864659066,1.79783864272422,1.84846488245079,1.84733666785443,1.80045839526153,1.80071654605901,1.80101294141907,1.98212006755705,1.80300165867367,1.98329608785665,1.80048707868348,1.85210767703735,1.80332673745567,1.85050140540863,1.85592257215555,1.80509554847539,1.84933494624968,1.80285824156397,1.80387172247256,1.90174911927726,1.80333629859632,1.84980344214139,1.80068786263707,1.79944491435294,1.80262877418843,1.80302078095497,1.80095557457519,1.97721520240507,1.80052532324606,1.79784820386487,1.79963613716588,1.89573516181021,1.80259052962585,1.80266701875102,1.8305759883,1.830413448909,1.72545124688478,1.72162679062593,1.7200587635598,1.71940860599579,1.83095843392589,1.71692270942754,1.83568163740557,1.71441769057799,1.71224731165109,1.71034464466231,1.83264119467978,1.70747630246817,1.82919918404682,1.82610137447714,1.70686438946675,1.70511470072833,1.7050477727438,1.70525811783804,1.81318427346287,1.70660623866928,1.70499040589992,1.75359924494994,1.70349886795896,1.79392813619954,1.70408209753844,1.70373789647514,1.82582410139838,1.70365184620932,1.7015579564076,1.70440717632044,1.70415858666362,1.70279134355108,1.80977094625184,1.82383538414377,1.81932252575833,1.79577343634444,1.70499040589992,1.70290607723884,1.70334588970861,1.70344150111508,1.70210294142448,1.70367096849061,1.70157707868889,1.70057315892094
1.87195660502079,1.87259720144415,1.91808910864321,1.87188967703626,1.86912650738924,1.87042682251725,1.86897352913889,1.9124480356614,1.86878230632594,1.86946114731189,1.86862932807559,1.79604114828256,1.86764453058894,1.91562233435625,1.91216120144198,1.79883300135152,1.87291271908551,1.87391663885345,1.91567014005948,1.80713207143323,1.99644265624646,1.88429047645559,1.88862167316874,1.91046887954744,1.91072703034491,2.00025755136466,1.97265453831639,1.97285532226998,1.96134370893083,1.9548038887282,1.96986268524743,1.96637286891123,1.88026523624315,1.87937605016297,1.88218702551322,1.88121178916722,1.9609517021643,1.95747144696875,1.95779652575075,1.95172520143982,1.97898401342479,1.87906053252161,1.96000514924024,1.88023655282121,1.96698478191264,1.96819904677483,1.97305610622357,1.96671706997452,1.96826597475936,1.95784433145398,1.97586708157383,1.96452756876633,1.97983495494239,1.88303796703082,1.97277883314481,1.97079967703085,1.96587568959758,1.97473886697747,1.97436598249223,1.97280751656675,1.97493008979041,1.9734672352714,1.95824589936116,1.95303507770848,1.97758808689031,1.96815124107159,1.96243367896461,1.97250156006604,1.87974893464821,1.96654496944287,1.95692646195186,1.95748100810939,1.87882150400543,1.96465186359474,1.95821721593922,1.95345576789695,1.95993822125571,1.97135422318838,1.9651299206271,1.96100906900818,1.95053961999958,1.87669893078177,1.87793231792525,1.87546554363829,1.95208852478441,1.95034839718663,1.95097943246934,1.9504440085931,1.94954526137227,1.95632411009109,1.8100673416119,1.80453144117721,1.80765793416883,1.80541106611675,1.80515291531928,1.99890943053342,1.99825927296941,1.84866566640438,1.80071654605901,1.79920588583676,1.79984648226012,1.79963613716588,1.79953096461876,1.80277219129814,1.90769614875977,1.80270526331361,1.89851745373853,1.80198817776508,1.80265745761038,1.90202639235602,1.80325980947114,1.89981776886654,1.89886165480182,1.80178739381149,1.80393865045709,1.80390996703515,1.79995165480724,1.80002814393241,1.79953096461876,1.8015674875766,1.80054444552736,1.97083792159344,1.80206466689025,1.80260009076649,1.89167167703518,1.89042872875105,1.79864177853858,1.88853562290292,1.80127109221654,1.79988472682271,1.72990673842634,1.72659858376244,1.72310876742623,1.81987707191586,1.71918869976091,1.76630600086998,1.71498179787617,1.82484886505237,1.83387458182326,1.83105404533236,1.71109997477343,1.75811210333538,1.71131031986767,1.83247865528878,1.70728507965523,1.75753843489656,1.82425607433225,1.70613774277757,1.70410121981973,1.70436893175785,1.81937033146156,1.81601437109442,1.70340325655249,1.70346062339637,1.70567880802651,1.70342237883379,1.82852034306087,1.82675153204115,1.82372065045601,1.70294432180143,1.70531548468192,1.70691219516999,1.81884446872597,1.81617691048542,1.70089823770294,1.70089823770294,1.81430292691858,1.70144322271983,1.70203601343995,1.75529156684448,1.75520551657866,1.7559034798459,1.70077394287453,1.70008554074794,1.82032644552628,1.69937801634005
1.80340322658085,1.87550378820088,1.80157704871725,1.80151012073272,1.87031208882949,1.8724251009125,1.87240597863121,1.79737014683251,1.87005393803201,1.79686340637821,1.87183231019238,1.79900510188317,1.91556496751236,1.87321867558621,1.87372541604051,1.87449986843293,1.80342234886215,1.87631648515588,1.87795144020654,1.87939517244426,1.88262683798299,1.81385355330817,1.91238110767687,1.91346151656999,1.82460027539554,1.99577337640116,1.88653734450767,1.98225392352611,1.98684327103674,1.97804702164138,1.9787832294712,1.88344909607865,1.88310489501535,1.88329611782829,1.8827702550927,1.88195755813769,1.95893430148776,1.87969156780432,1.9559607867465,1.95490906127531,1.97086660501538,1.96501518693933,1.96363838268615,1.88096319951039,1.88275113281141,1.88312401729664,1.98137429858658,1.97799921593814,1.95678304484215,1.96929857794925,1.96667882541193,1.95575044165226,1.97702397959213,1.88291367220241,1.97222428698727,1.95812160453275,1.96299778626279,1.97086660501538,1.9701399583262,1.88382198056388,1.97451896074258,1.96848588099424,1.96656409172417,1.9809727306794,1.97136378432903,1.95941235852011,1.97584795929253,1.96541675484651,1.95833194962699,1.8829327944837,1.96709951560041,1.96544543826845,1.88062855958774,1.95973743730212,1.97555156393247,1.87966288438238,1.97493008979041,1.96283524687179,1.95773915890687,1.96290217485632,1.87599140637388,1.87745426089289,1.87598184523324,1.87624955717135,1.9534462067563,1.95318805595883,1.95471783846237,1.87579062242029,1.95068303710928,1.96258665721496,1.9277841052594,1.80612815166528,1.80587956200846,1.80399601730097,1.80253316278196,1.9951327799778,1.80063049579318,2.00139532710167,1.79931105838388,1.79834538317852,1.79835494431917,1.79736058569186,1.79943535321229,1.80033410043312,1.79981779883818,1.79892861275799,1.80046795640218,1.84988949240721,1.90472263401852,1.80092689115324,1.89546744987209,1.84953573020327,1.80437846292686,1.97977758809851,1.80359444939379,1.80260009076649,1.8007547906216,1.80179695495213,1.8010607471223,1.800228927886,2.0011371763042,1.80346059342473,1.80023848902665,1.80090776887195,1.80005682735436,1.8032502483305,1.80262877418843,1.85090297331581,1.95294902744265,1.80277219129814,1.7275642589678,1.72535563547831,1.72213353108022,1.80605166254011,1.76752982687281,1.71493399217293,1.71535468236141,1.71361455476363,1.71238116762015,1.71175969347809,1.75850411010192,1.75691696075449,1.81121467848956,1.75660144311314,1.81751547017602,1.83320530197796,1.7063863324344,1.82946689598494,1.8282621922634,1.7056979303078,1.82614918018038,1.70452191000821,1.70471313282115,1.82959119081335,1.82866376017058,1.82770764610586,1.70211250256513,1.75166789453922,1.82669416519727,1.70216030826836,1.6995309945904,1.70431156491397,1.70203601343995,1.70091735998424,1.70022895785764,1.70325983944279,1.82763115698069,1.79364130198013,1.70347974567767,1.75508122175024,1.75416335224812,1.754058179701,1.75124720435074,1.69980826766917,1.70024808013894,1.70001861276341
1.87675629762565,1.80370918308156,1.87454767413617,1.87398356683798,1.8737636606031,1.87211914441179,1.87219563353697,2.0048086543127,1.87069453445537,1.87202353300532,1.79746575823898,1.80013331647953,1.87203309414597,1.91677923237455,1.79965525944718,1.80240886795355,1.87624955717135,1.80434021836427,1.88034172536833,1.81030637012808,1.81281138897763,1.891270109128,1.99475989549256,1.89633751367098,1.91493393222965,1.99525707480621,1.88748389743174,1.98308574276241,1.97455720530517,1.9769761738889,1.88650866108573,1.95866658954964,1.95771047548492,1.95884825122193,1.88320050642182,1.9589629849097,1.9579495040011,1.88273201053011,1.95804511540757,1.96161142086895,1.98228260694806,1.9714593957355,1.96980531840355,1.883602074329,1.95505247838502,1.95571219708967,1.88096319951039,1.98193840588476,1.97477711154006,1.96564622222204,1.96772098974247,1.88504580656672,1.96831378046259,1.9661434015357,1.95809292111081,1.97205218645562,1.96633462434864,1.96806519080577,1.97060845421791,1.88322918984376,1.88295191676499,1.97574278674542,1.97232945953439,1.98568637301843,1.97294137253581,1.97168886311103,1.96752020578888,1.97559936963571,1.95299683314589,1.9619460607916,1.88128827829239,1.96901174372984,1.87997840202374,1.97469106127423,1.96572271134722,1.95970875388017,1.96955672874672,1.87846774180149,1.95850405015864,1.9591255243007,1.97481535610264,1.87736821062707,1.87646946340624,1.87484406949623,1.95242316470706,1.95248053155094,1.9514574895017,1.87306569733586,1.87354375436822,1.95264307094194,1.80798301295083,1.80768661759077,1.80381435562868,1.85355140927506,1.80246623479743,1.80354664369056,1.80259052962585,1.80129021449784,1.9071129191803,1.79780039816163,1.90635758906918,1.79961701488459,1.79829757747528,1.92435165576708,1.88881289598169,1.79940666979035,1.90590821545876,1.99520926910298,1.80214115601543,1.90301118984268,1.89643312507745,1.80094601343454,1.88874596799716,1.80266701875102,1.88899455765398,1.85051096654927,1.84966002503168,1.9016152633082,1.80227501198449,1.80246623479743,1.80048707868348,1.80029585587053,1.79948315891553,1.79977955427559,1.79963613716588,1.99135612942218,1.852604856351,1.85006159293886,1.96719512700688,1.83703931937746,1.72487757844595,1.72361550788053,1.84971739187556,1.76860067462529,1.81476186166965,1.71551722175241,1.83288022319596,1.71309825316868,1.71423602890569,1.83298539574308,1.83293759003984,1.71044025606878,1.70861407820518,1.70782050353147,1.75564532904842,1.70674965577899,1.70749542474946,1.70621423190275,1.82931391773458,1.82924698975005,1.70425419807009,1.70412990324167,1.82828131454469,1.70211250256513,1.75035801827056,1.75144798830433,1.81636813329836,1.81331812943193,1.82018302841657,1.69998992934147,1.82394055669089,1.700056857326,1.70125199990689,1.70127112218818,1.70251407047231,1.70107989937524,1.69878522561993,1.701032093672,1.822420335328,1.70166312895471,1.75117071522557,1.75292996510464,1.69724588197574,1.69732237110092,1.82012566157269,1.69933977177746
1.87986366833597,1.87585755040482,1.87717698781413,1.87512134257499,1.87369673261857,1.87733952720513,1.875608960748,1.91920776209892,1.92090008399346,1.87344814296175,1.87269281285062,1.87362980463404,1.87533168766923,1.91862453251945,1.87435645132322,1.87641209656236,1.80312595350208,1.80640542474405,1.80774398443465,1.88405144793941,1.91880619419174,1.8872735523375,1.91690352720296,1.8951041265275,1.91556496751236,1.91485744310448,1.99939704870642,1.88646085538249,1.97719608012378,1.97281707770739,1.96146800375925,1.96925077224601,1.96281612459049,1.95851361129928,1.95598947016844,1.88566728070878,1.883276995547,1.88386022512647,1.88317182299988,1.95710812362416,1.88323875098441,1.88257903227976,1.95866658954964,1.96576095590981,1.959307185973,1.95751925267198,1.96690829278747,1.9733046958804,1.95737583556227,1.95841799989281,1.96648760259899,1.98500753203249,1.88677637302385,1.96280656344985,1.97317083991134,1.97871630148667,1.96459449675086,1.97925172536291,1.96957585102802,1.97264497717575,1.88300928360888,1.88464423865954,1.97133510090709,1.88451994383112,1.97154544600133,1.96482396412639,1.9696332178719,1.967950457118,1.96922208882407,1.96876315407301,1.9731230342081,1.97374450835017,1.88165160163698,1.88008357457086,1.97294137253581,1.88157511251181,1.96513948176775,1.96718556586623,1.9496121893568,1.96359057698291,1.96783572343024,1.87852510864537,1.87829564126984,1.87914658278744,1.87586711154547,1.87512134257499,1.96750108350759,1.87578106127965,1.94922974373092,1.81153019613091,1.80984743537702,1.91473314827606,1.90939803179496,1.90891997476261,1.80398645616033,1.80110855282554,1.99107885634342,1.79881387907023,1.79855572827276,1.92636905644362,1.90939803179496,1.90723721400871,1.79474083315455,1.79944491435294,1.79682516181562,1.88233044262293,1.79930149724323,1.79806811009975,1.98163244938405,1.8490767954522,1.80030541701118,1.89987513571042,1.89899551077088,1.80154836529531,1.80096513571583,1.80183519951472,1.98189060018152,1.84930626282774,1.84803463112167,1.80042015069895,1.7985652894134,1.80027673358924,1.79997077708853,1.98976898007476,1.80020024446406,1.80245667365679,1.80180651609278,1.80111811396619,1.80221764514061,1.72844388390733,1.77198531841437,1.76989142861265,1.83419966060527,1.83631267268828,1.83441956684015,1.71527819323623,1.71305044746545,1.70919730778465,1.71138680899285,1.83117834016077,1.83291846775855,1.77867811686737,1.80411075098874,1.70696000087323,1.70607081479304,1.82725827249545,1.70730420193652,1.8282621922634,1.70685482832611,1.70383350788161,1.70247582590972,1.70208381914319,1.70407253639779,1.70373789647514,1.7026957321446,1.70423507578879,1.70101297139071,1.81358584137005,1.81037329811261,1.69963616713752,1.82484886505237,1.69827848516563,1.81228552624204,1.74806334451525,1.74601726041676,1.69862268622893,1.70080262629647,1.69889039816705,1.82581454025773,1.70053491435835,1.79376559680854,1.69895732615158,1.69749447163256,1.82040293465145,1.81845246195944,1.69939713862134
1.87779846195619,1.87972981236691,1.80447407433333,1.87597228409259,1.87616350690553,1.87623043489006,2.00589862434647,1.87555159390411,1.80101294141907,1.80107030826295,1.87422259535416,1.8754272990757,1.92022124300752,1.8732569201488,1.92287924010742,1.99140393512542,1.91984835852228,1.88069548757227,1.88302840589017,1.8120751811478,1.99776209365576,1.99168120820419,1.89320145953872,1.89396635079049,1.99970300520713,2.01709472004426,1.8902757505007,1.98918575049528,1.96258665721496,1.96301690854408,1.96172615455672,1.96585656731628,1.96505343150192,1.96063618452295,1.88499800086348,1.88424267075236,1.88305708931211,1.96349496557644,1.9561233261375,1.95933586939494,1.95882912894064,1.95873351753417,1.95852317243993,1.95822677707987,1.95899166833164,1.98351599409154,1.98866944890034,1.88614533774114,1.97134466204774,1.97412695397605,1.88646085538249,1.88730223575944,1.97122992835997,1.97184184136139,1.88573420869331,1.98250251318294,1.88572464755266,1.8859349926469,1.88541869105196,1.88588718694366,1.88517010139513,1.88517010139513,1.95837019418958,1.97893620772156,1.97881191289315,1.97733949723349,1.96846675871295,1.95790169829787,1.95643884377886,1.96091345760171,1.88199580270028,1.98154639911823,1.95955577562982,1.88167072391828,1.9718035967988,1.87921351077197,1.87753075001807,1.96922208882407,1.96993917437261,1.95287253831748,1.87981586263274,1.87898404339643,1.9546413493372,1.87929956103779,1.87841993609825,1.8777602173936,1.87689015359471,1.95130451125135,1.95103679931323,1.80995260792414,1.90764834305654,1.80796389066953,1.9089390970439,1.90909207529426,1.90756229279071,1.80151968187337,1.79876607336699,1.90546840298899,1.84584512991347,1.84492726041135,1.90400554846998,1.7942436538409,1.79414804243443,1.99781946049965,1.79769522561451,1.79637578820521,1.79521889018691,1.97734905837413,1.89169079931647,1.79670086698721,1.84704027249436,1.79763785877063,1.79750400280157,1.96231894527684,1.80043927298024,1.79934930294647,1.9004392430086,1.90652968960082,1.90489473455016,1.89597419032639,1.79935886408711,1.89834535320688,1.80063049579318,1.79784820386487,1.80053488438671,1.84910547887415,1.80128065335719,1.98511270457961,1.96921252768342,1.72492538414919,1.88821054412092,1.86556020192786,1.76796007820193,1.71726691049083,1.83306188486826,1.83427614973044,1.83996502841549,1.71139637013349,1.83393194866715,1.71069840686625,1.70905389067495,1.82481062048978,1.70596564224592,1.70739025220235,1.70536329038515,1.70458883799274,1.70459839913338,1.70587003083945,1.70561188004198,1.70533460696321,1.82455246969231,1.82613961903973,1.70145278386048,1.70044886409253,1.70173961807989,1.7030399332079,1.75003293948856,1.74892384717349,1.70142410043854,1.74986083895691,1.70066877032741,1.8169035571746,1.69931108835552,1.69889995930769,1.69697817003762,1.69919635466775,1.74828325075013,1.70063052576482,1.80340322658085,1.69712158714733,1.69841234113469,1.74443011106934,1.69875654219799,1.80672094238541,1.69910074326128,1.69708334258474
1.92728692594575,1.8792613164752,1.92458112314261,2.01814644551545,1.80478959197469,1.87981586263274,1.87732996606448,1.87628780173394,1.87584798926418,1.87537949337247,1.92354851995272,1.92369193706243,1.87712918211089,1.80733285538682,1.87918482735002,1.88203404726287,1.87945253928814,1.8824260540294,1.88536132420807,1.88600192063143,1.88822966640221,1.89152825992547,1.89356478288331,1.91889224445757,1.90077388293125,1.91873926620721,1.89169079931647,1.98158464368081,1.96718556586623,1.9654741216904,1.97514043488465,1.99218794865848,1.88896587423204,1.9633037427635,1.96447020192245,1.8885929897468,1.88812449385509,1.96229982299555,1.88684330100838,1.96188869394772,1.96136283121213,1.98103965866393,1.96088477417977,1.96640155233317,1.97769325943743,1.88633656055408,1.98255031888617,1.96981487954419,1.97882147403379,1.96512035948645,1.96593305644146,1.97491096750912,1.88703452382132,1.88631743827279,1.97928040878486,1.88764643682274,1.96288305257502,1.96490045325157,1.95899166833164,1.96564622222204,1.96542631598716,1.96453712990698,1.98192884474411,1.88527527394225,1.98190016132217,1.98455815842207,1.88532307964548,1.95833194962699,1.97821912217302,1.97843902840791,1.97565673647959,1.88395583653294,1.96016768863124,1.9776454537342,1.883927153111,1.96864842038524,1.97208086987756,1.9684763198536,1.88002620772697,1.96060750110101,1.88071460985357,1.87888843198996,1.88044689791545,1.95297771086459,1.87784626765943,1.87695708157924,1.87911789936549,1.95520545663538,1.87647902454689,1.96254841265237,1.91583267945048,1.80431153494233,1.80403426186356,1.80275306901685,1.80187344407731,1.799578770322,1.91046887954744,1.79933974180582,1.79868958424182,1.79292421643159,1.79267562677477,1.79463566060743,1.79483644456102,1.91035414585968,1.79597422029803,1.79721716858216,1.79668174470592,1.79607939284515,1.79712155717569,1.79656701101815,1.80012375533889,1.89982733000718,1.89884253252053,1.79749444166092,1.79437750980996,1.79937798636841,1.79909115214899,1.79985604340077,1.79662437786203,1.79996121594788,1.80004726621371,1.80014287762018,1.80029585587053,1.8010798694036,1.79913895785223,1.89302935900707,1.9889658442604,1.800228927886,1.80148143731078,1.72436127685101,1.72065155427992,1.71637772441065,1.71807960744584,1.7130408863248,1.83580593223398,1.83283241749273,1.71128163644573,1.71067928458496,1.82939996800041,1.70927379690983,1.83382677612003,1.70459839913338,1.79971262629106,1.83231611589778,1.83026047065865,1.82645513668109,1.82993539187664,1.82614918018038,1.8269236325728,1.70301124978596,1.8249157930369,1.82942865142235,1.8289123498274,1.70281046583237,1.70113726621912,1.82577629569514,1.69896688729222,1.69942582204328,1.82411265722254,1.82456203083296,1.81504869588906,1.82314698201718,1.8184237785375,1.81490527877935,1.69973177854399,1.69768569444551,1.69729368767897,1.80286780270461,1.69797252866492,1.69768569444551,1.69420543924995,1.69813506805592,1.69688255863115,1.74394249289633,1.69722675969444,1.69623240106714
1.8837837360013,1.80971357940796,1.93047078578124,1.87957683411656,1.80741890565265,2.01074612265457,2.00943624638591,1.87681366446954,1.87632604629653,1.87862072005184,1.92488707964332,1.80395777273839,1.80492344794375,1.80778222899724,1.8079160849663,1.9239500878599,1.92482015165879,1.92480102937749,1.88604016519402,1.88626963256955,1.89130835369059,1.89382293368078,1.99331616325485,1.92150243585423,1.921129551369,1.92064193319599,1.84995642039174,1.89291462531931,1.89299111444448,1.97785579882843,1.98192884474411,1.98432869104654,1.89155694334741,1.96585656731628,1.88956822609281,1.88897543537269,1.88688154557097,1.88695803469614,1.98081975242904,1.98168981622793,1.96289261371567,1.96007207722477,1.96876315407301,1.88882245712233,1.88841132807451,1.88866947887198,1.97575234788606,1.88651822222637,1.97432773792964,1.9711343169535,1.97349591869334,1.98182367219699,1.97893620772156,1.99485550689903,1.88880333484104,1.88803844358927,1.99292415648831,1.96950892304349,1.96296910284085,1.97301786166098,1.96576095590981,1.96677443681841,1.97121080607868,1.88612621545984,1.88671900617997,1.88573420869331,1.97986363836433,1.88563859728684,1.9718035967988,1.95969919273953,1.95938367509817,1.97732037495219,1.95825546050181,1.9707901158902,1.9642981013908,1.95258570409806,1.97821912217302,1.97844858954855,1.88000708544568,1.87943341700685,1.87886930970867,1.87780802309684,1.87870677031767,1.95604683701232,1.94843616905721,1.8782669578479,1.87868764803637,1.95870483411223,1.95260482637936,1.96155405402507,1.80718943827712,1.90958925460791,1.99980817775425,1.80040102841765,1.7993971086497,1.79889036819541,1.90858533483996,1.90947452092014,1.79555353010956,1.79516152334302,1.98406097910842,1.79335446776072,1.8926086688186,1.79315368380713,1.9049425402534,1.84279512604704,1.84239355813986,1.84280468718769,2.01920773212728,1.79503722851461,1.98262680801135,1.98858339863452,1.79777171473969,1.90196902551214,1.79792469299004,1.79713111831633,1.7980776712404,1.84685861082207,1.84783384716808,1.8464187983523,1.80042015069895,1.79900510188317,1.84912460115544,1.80013331647953,1.80279131357944,1.80324068718985,1.80080259632483,1.79946403663423,1.80027673358924,1.77088578723995,1.76842857409364,1.71935123915191,1.76623907288545,1.81588051512536,1.81529728554588,1.82709573310445,1.81480966737288,1.70830812170447,1.75859972150839,1.75654407626926,1.7538765180287,1.70826987714188,1.82610137447714,1.70483742764956,1.70608993707434,1.70519118985351,1.70369965191255,1.83113053445754,1.80662533097894,1.82827175340404,1.70386219130355,1.82678977660374,1.70133805017271,1.70212206370578,1.70050623093641,1.79397594190278,1.70079306515582,1.69775262243004,1.82677065432244,1.69814462919657,1.81980058279068,1.69761876646098,1.70011422416988,1.69827848516563,1.69844102455663,1.81878710188209,1.74407634886539,1.82351986650242,1.82104353107481,1.69714070942862,1.69639494045814,1.69507550304884,1.69799165094622,1.82327127684559,1.6945400791726,1.69678694722468
