1.77951, 1.7789, 1.77839, 1.77815, 1.7781, 1.77751, 1.77503, 1.77679, 1.77862, 1.77722, 2.0373, 1.77674, 1.77559, 1.77355, 1.8691, 1.87204, 1.87983, 1.77344, 1.87365, 1.7771, 1.82616, 1.82762, 1.77513, 1.77245, 1.77601, 1.77834, 1.77496, 1.95204, 1.84433, 1.77458, 1.88078, 1.77481, 1.77429, 1.82231, 1.82334, 1.77038, 1.77191, 1.77184, 1.76949, 1.81849, 1.87146, 1.8763, 1.7725, 1.7718, 1.7716, 1.77107, 1.77343, 2.00955, 2.00291, 2.0049, 2.0049, 2.00419, 2.00662, 1.92745, 2.01006, 2.00309, 1.84756, 1.84845, 1.84721, 2.03119, 1.92518, 1.84835, 1.93001, 1.92795, 1.92167, 2.00913, 1.92002, 1.92136, 1.92557, 2.01072, 1.93133, 1.93383, 1.93447, 1.93427, 1.84529, 1.84596, 1.92489, 2.02086, 1.92466, 2.02076, 1.92177, 1.92784, 1.84923, 1.93108, 1.94049, 1.94184, 1.93472, 2.03021, 2.02539, 2.01098, 2.01347, 2.01024, 1.92083, 1.9987, 2.02485, 2.00518, 2.00177, 2.00054, 1.99949, 1.99974, 2.00148, 1.99994, 1.92642, 1.99972, 2.00217, 2.0155, 2.0249, 2.02042, 2.0174, 2.02339, 2.03926, 2.01696, 2.0105, 2.03357, 1.93532, 2.04471, 2.02065, 2.01507, 2.02122, 2.01553, 2.01973, 2.02166, 2.03633, 2.04234, 2.02507, 2.01779, 2.01856, 2.03271, 1.94246, 1.9422, 2.02521, 2.02247, 2.02172, 2.03797, 2.0323, 2.03175, 2.02437, 1.94742, 1.94842, 2.02173, 2.04229, 2.02499, 2.02561, 2.02486, 2.03161, 2.03015, 2.02993, 2.02799, 2.0344, 2.03103, 1.95368, 1.95207, 1.95477, 2.02994, 1.93326, 1.88622, 1.9376, 1.93682, 1.93454, 1.88449, 1.98772, 1.88444, 1.98872, 1.88773, 1.88586, 1.88871, 2.0118, 1.88966, 1.88958, 1.96598, 1.89287, 1.89252, 1.89392, 1.89365, 2.06909, 1.9434, 1.94192, 1.94115, 1.89177, 1.89018, 1.9783, 1.88779, 1.88929, 1.89037, 1.88652, 1.88491, 2.09764, 1.88465, 2.06613, 1.88566, 1.88462, 1.88382, 1.88566, 1.89026, 1.88643, 1.88993, 1.88716, 1.92526, 1.92215, 1.81336, 1.86264, 1.91371, 1.92346, 1.80577, 1.80494, 1.80369, 1.80412, 1.8014, 1.79869, 1.80248, 1.79909, 1.79806, 1.92814, 1.92591, 1.79673, 1.79576, 1.79559, 1.84544, 1.84381, 1.84202, 1.84303, 1.84086, 1.92464, 1.79276, 1.78691, 1.78949, 1.78882, 1.78588, 1.78687, 1.78854, 1.92174, 1.92029, 1.92235, 1.92737, 1.77634, 1.77765, 1.77315, 1.7725, 1.77431, 2.11169
1.78058, 1.7793, 1.78175, 1.78223, 1.78267, 1.8793, 1.77917, 1.7784, 1.77887, 1.77671, 1.77713, 1.7756, 1.77471, 1.77551, 1.77554, 1.77803, 1.77798, 1.77484, 1.77854, 1.87386, 1.7753, 1.77736, 1.87258, 1.77604, 1.77518, 1.95439, 1.77621, 1.77687, 1.7752, 1.77432, 1.8232, 1.77159, 1.82452, 1.77246, 1.82369, 1.82237, 1.8829, 1.88557, 1.77129, 1.82764, 1.76918, 1.77137, 1.7708, 1.77243, 1.77224, 1.77164, 1.77389, 1.84585, 1.84771, 1.84942, 1.8512, 2.01013, 2.00171, 2.00185, 1.84901, 2.00224, 2.0008, 2.00124, 1.84991, 1.84814, 1.92723, 2.03281, 1.92336, 2.02269, 1.92496, 1.84892, 1.84595, 1.84703, 1.84596, 1.92115, 1.9207, 1.9207, 1.93419, 1.93463, 1.9343, 1.92121, 2.02218, 1.92381, 1.92555, 1.84783, 1.84632, 1.94074, 1.92733, 1.94077, 1.8557, 1.9322, 1.94042, 2.03193, 2.01765, 1.99804, 2.01348, 2.00393, 1.99795, 1.99827, 2.02376, 1.99728, 2.00298, 2.00214, 2.00157, 1.9979, 2.00317, 2.00412, 2.01077, 1.92425, 2.00199, 2.01447, 1.92722, 1.92721, 2.01045, 1.93177, 1.99952, 2.01867, 2.02684, 2.01114, 2.00934, 2.03513, 2.0205, 2.02233, 2.01357, 1.93635, 2.0251, 2.03079, 2.03511, 2.01671, 2.04143, 2.02023, 2.01948, 2.02836, 2.03122, 2.03273, 2.03656, 2.02389, 2.0239, 2.03391, 2.02947, 2.03026, 2.04256, 1.94629, 2.04038, 2.02377, 2.03488, 2.04094, 2.03805, 2.02707, 2.02721, 2.03258, 2.03819, 2.03589, 2.03223, 1.95202, 1.95251, 2.03152, 2.04885, 2.0557, 1.9352, 1.93646, 1.88519, 1.93458, 1.88488, 1.88521, 1.88259, 1.88438, 1.88451, 2.0885, 1.88704, 2.06598, 1.89205, 1.88933, 1.89158, 1.89297, 1.94259, 1.9428, 2.07008, 1.94029, 1.94254, 1.893, 1.89056, 1.89065, 1.94062, 1.88986, 1.98333, 1.8875, 1.88768, 1.88815, 1.88801, 1.88833, 1.88589, 1.88688, 1.88607, 2.07054, 2.06898, 1.88451, 1.88502, 1.88605, 1.88674, 1.93959, 1.81727, 1.86662, 1.81658, 1.81368, 1.92286, 1.80946, 1.90275, 1.92206, 1.85755, 1.80472, 1.92286, 1.91675, 1.91389, 1.80075, 1.89187, 1.92814, 1.9238, 1.79579, 1.79659, 1.92419, 1.92419, 1.90086, 1.84301, 1.91275, 1.79225, 1.84093, 1.92085, 1.92122, 1.78921, 1.78877, 1.92123, 1.79195, 1.78775, 1.78683, 1.91713, 1.78183, 1.92577, 1.92682, 1.7747, 1.77622, 1.76841, 1.76929, 1.77194, 2.12141
2.03363, 2.03341, 2.0355, 1.78064, 1.7784, 1.7779, 1.77615, 1.87634, 1.77628, 1.77889, 1.77801, 1.7785, 1.77879, 1.88516, 1.77629, 1.88977, 1.77818, 1.77665, 1.77352, 1.77844, 1.77622, 1.87634, 1.7754, 1.77504, 1.77884, 1.77793, 2.07535, 1.77858, 1.77242, 1.77354, 1.77537, 1.7729, 1.77463, 1.87686, 1.88265, 1.76923, 1.82179, 1.81999, 1.76758, 1.7684, 1.76931, 1.77096, 1.76893, 1.76811, 1.77085, 1.88236, 1.77492, 1.84915, 1.848, 1.9274, 1.84982, 1.85122, 2.00932, 1.92715, 2.00372, 2.00407, 2.00352, 1.84935, 1.92763, 2.00261, 2.00401, 2.02869, 1.92088, 1.8468, 1.84771, 1.84687, 1.91754, 1.8464, 1.84324, 1.9208, 2.01042, 1.84426, 1.92356, 1.92059, 1.92241, 1.91981, 1.92443, 1.93893, 1.84617, 1.92406, 1.94059, 1.84832, 1.92907, 1.93943, 1.94041, 1.9347, 1.93718, 1.94117, 2.02166, 2.00961, 1.99723, 1.99667, 1.92131, 2.0117, 1.99747, 2.00101, 1.92124, 2.00287, 2.00319, 1.99801, 1.99895, 2.00651, 2.00179, 2.01452, 1.9264, 2.00189, 1.92903, 2.02193, 1.93039, 1.99977, 1.93116, 2.00931, 2.03109, 1.93488, 1.93397, 2.01349, 2.02961, 2.01359, 2.01422, 2.03241, 2.03441, 2.02467, 2.03445, 2.01831, 2.02353, 2.02126, 2.01877, 2.01941, 2.031, 1.94528, 1.9446, 2.021, 2.03854, 2.0206, 2.01982, 2.06236, 2.03092, 2.04484, 1.94873, 2.02244, 2.03852, 2.04602, 2.02383, 2.02493, 2.03172, 2.03089, 2.02918, 1.9496, 2.02917, 2.02987, 1.95437, 2.03926, 2.03608, 2.04162, 1.93801, 2.06185, 1.88562, 1.88092, 1.88344, 1.88369, 1.88502, 1.88263, 1.88862, 1.88631, 2.07688, 2.06728, 1.88753, 1.8865, 1.94079, 2.06902, 2.08536, 2.06867, 1.94224, 1.94081, 1.97246, 1.94193, 1.89318, 1.94101, 1.94056, 1.89204, 1.89138, 1.88777, 1.88764, 1.9861, 1.88883, 1.88368, 1.88264, 2.09201, 1.88617, 1.88408, 2.07034, 1.88521, 1.88528, 1.88301, 1.88753, 1.88664, 1.88569, 1.86979, 1.81534, 1.81475, 1.92189, 1.80903, 1.80755, 1.80669, 1.85798, 1.97588, 1.80034, 1.80109, 1.79931, 1.79824, 1.79932, 1.92527, 1.88985, 1.79695, 1.92346, 1.92711, 1.88534, 1.79565, 1.79259, 1.84189, 1.84178, 1.84111, 1.89762, 1.91047, 1.79208, 1.92101, 1.9201, 1.91782, 1.78562, 1.78432, 1.78199, 1.78022, 1.78038, 1.77695, 1.77647, 1.77619, 1.77207, 1.76718, 2.12092, 2.1217
1.78514, 2.06343, 1.78011, 1.78069, 1.77914, 1.78044, 1.77898, 1.7803, 1.77867, 1.7775, 1.87868, 1.77618, 1.7802, 1.77875, 1.89571, 1.77585, 1.77912, 1.77934, 1.77398, 1.77795, 1.77835, 1.77872, 1.77869, 1.77577, 1.77851, 1.77891, 1.77334, 1.9587, 1.87826, 1.82337, 1.77287, 1.77462, 2.04173, 1.77032, 1.7683, 1.77122, 1.82107, 1.87058, 2.04861, 1.77077, 1.76805, 1.77124, 1.7701, 1.76893, 1.77105, 1.82027, 1.77341, 1.77522, 1.8493, 1.84815, 1.85226, 2.00267, 2.00635, 2.00367, 1.84998, 1.84971, 2.02751, 2.00315, 1.84886, 2.00462, 2.0387, 1.84878, 1.84884, 1.84907, 1.9298, 1.92857, 1.91918, 1.92065, 1.92202, 1.92148, 1.92046, 1.93319, 1.935, 1.84589, 1.92123, 1.92201, 1.84545, 1.92205, 2.01699, 1.92747, 1.92777, 1.9268, 1.9298, 1.92884, 1.93889, 1.93209, 1.93698, 2.0175, 2.02314, 1.99733, 1.99684, 1.99681, 1.9984, 2.01575, 2.00687, 1.99789, 2.00404, 1.92209, 2.00557, 2.00302, 2.00475, 2.00471, 2.01758, 1.92579, 2.00354, 2.00468, 2.02322, 2.00377, 2.00289, 2.00351, 2.00411, 2.02487, 2.03136, 1.93445, 2.02758, 2.01141, 2.03027, 2.02751, 2.03139, 2.01532, 1.94004, 2.01879, 2.01791, 2.01963, 2.03888, 2.02833, 2.0196, 2.04137, 2.02897, 2.03192, 2.02268, 2.03226, 2.03755, 2.03117, 2.02176, 2.04216, 2.023, 2.02395, 2.02049, 1.94752, 2.02452, 1.94896, 2.02422, 2.02642, 2.02289, 2.03082, 2.03021, 1.95011, 1.9503, 1.95453, 1.94918, 2.0484, 2.05828, 2.05832, 1.8798, 1.88361, 1.88231, 1.98795, 1.98638, 2.08367, 2.07075, 1.8866, 1.93305, 2.08379, 1.88882, 1.93584, 1.938, 1.94096, 1.94108, 2.07217, 1.8898, 1.891, 1.89252, 1.95089, 1.94279, 1.94302, 1.9427, 1.94438, 1.94288, 1.88896, 2.08676, 1.89045, 1.88818, 1.88591, 1.88851, 1.88635, 2.09005, 1.88532, 1.88512, 1.88331, 2.08766, 1.88248, 1.88552, 1.88509, 1.88654, 1.88594, 1.88564, 1.81695, 1.86592, 1.81388, 1.812, 2.1177, 1.80675, 1.80908, 1.85537, 1.8028, 1.91631, 1.80169, 1.79927, 1.79889, 1.79892, 1.89636, 1.92774, 1.79514, 2.10779, 1.79447, 1.79591, 1.7958, 1.79357, 1.92717, 1.79097, 1.79108, 1.92166, 1.91901, 1.79032, 1.92388, 1.91766, 1.78647, 1.78646, 1.78334, 1.9026, 1.92191, 1.78196, 1.77756, 1.89416, 1.77424, 1.77222, 1.77151, 1.77176, 1.77056
1.78535, 1.78264, 1.78391, 1.78135, 1.88134, 1.78194, 1.78287, 2.04448, 1.78041, 2.05584, 1.77878, 1.77769, 1.82968, 1.77886, 1.77536, 1.77719, 1.77556, 1.77651, 1.77669, 1.77716, 1.77694, 1.77669, 1.77271, 1.77425, 1.77777, 1.77631, 1.77605, 1.88188, 1.77521, 1.77479, 1.86461, 1.77448, 1.77231, 1.77237, 1.76944, 1.76863, 1.76863, 1.76924, 1.7662, 1.7668, 1.76759, 1.76835, 1.76903, 1.77036, 1.77064, 1.77039, 1.77072, 1.84928, 1.84911, 1.85202, 1.84954, 2.00686, 2.00963, 2.00652, 2.0076, 2.01199, 1.85046, 2.02911, 2.02975, 1.927, 1.92367, 2.02254, 2.03165, 1.92022, 2.00425, 1.84868, 2.00651, 2.00882, 1.92264, 2.00977, 1.93251, 1.93701, 1.92098, 2.01404, 1.93749, 1.92242, 1.84471, 1.93976, 1.93942, 2.03492, 1.84691, 1.92358, 1.94267, 1.85258, 1.94049, 1.94182, 1.94117, 1.94546, 2.03818, 1.99942, 1.99718, 1.92096, 2.00472, 1.99964, 1.99887, 2.00374, 2.00201, 2.00745, 2.00696, 2.00101, 2.00489, 2.00717, 2.02065, 2.01091, 2.00501, 2.00553, 2.02369, 1.92812, 2.00394, 2.0043, 2.00734, 2.00812, 2.02739, 2.03501, 1.93552, 2.01125, 2.0341, 2.01226, 2.01719, 2.01698, 2.0426, 2.01634, 2.01668, 2.03549, 2.01771, 1.94234, 2.02004, 1.94393, 2.02158, 1.94245, 2.01827, 2.03629, 2.04408, 2.03121, 2.02352, 2.02716, 2.02613, 2.02266, 2.03548, 2.02786, 2.02848, 2.02439, 2.03037, 2.0246, 2.02447, 1.95, 1.94871, 1.95008, 1.94913, 2.04619, 1.95136, 1.95207, 1.95212, 2.03119, 1.88446, 1.88203, 1.88259, 1.98682, 1.88182, 2.06553, 2.06492, 1.88498, 1.93479, 1.99205, 1.99106, 1.93796, 1.98543, 1.95798, 1.8884, 1.94145, 1.88952, 2.07567, 1.89439, 1.89209, 2.07574, 2.07248, 2.08888, 1.89254, 1.89231, 1.88941, 1.88772, 1.98623, 1.8881, 1.88645, 1.88686, 1.88412, 1.88227, 1.88287, 2.06371, 2.06539, 1.88262, 2.06929, 2.07718, 2.07285, 1.88928, 1.88699, 1.92159, 1.81413, 1.8147, 1.81414, 1.81326, 1.80721, 1.90732, 1.80568, 1.85503, 1.80284, 1.91996, 1.79985, 1.79875, 1.79896, 1.79711, 1.92449, 1.92805, 1.97407, 1.79728, 1.84383, 1.84171, 1.7947, 1.79272, 1.79248, 1.79096, 1.79297, 1.79144, 1.92212, 1.78942, 1.92188, 1.78678, 1.87255, 1.90547, 1.83326, 1.93054, 1.78268, 1.92014, 1.77578, 1.7751, 1.7747, 1.77467, 1.77256, 1.98599, 1.77049
1.78541, 1.88979, 1.78466, 1.87769, 1.78008, 1.78533, 2.04606, 1.78027, 1.78058, 1.77814, 1.77704, 1.77855, 1.77543, 1.77486, 1.77628, 1.77544, 1.77816, 1.77687, 1.77739, 1.77969, 1.77804, 1.77702, 1.77725, 1.77525, 1.77682, 1.77623, 1.77638, 1.96498, 2.05924, 1.77501, 1.82376, 1.87805, 1.87943, 1.77047, 1.89968, 1.76967, 1.76906, 1.76833, 1.76782, 1.81656, 1.76647, 1.85741, 1.88058, 1.88259, 1.76778, 1.77242, 1.77502, 1.85145, 1.84953, 1.85081, 1.92707, 1.84873, 2.01007, 1.9241, 1.84905, 1.92211, 1.85042, 1.84918, 1.926, 1.92668, 2.0043, 1.92646, 2.01911, 1.92753, 1.92141, 2.00702, 2.00798, 1.8443, 2.02889, 2.03444, 1.92026, 1.92275, 1.92419, 1.92357, 1.92026, 1.93797, 1.91997, 2.03056, 2.01741, 1.93889, 1.92444, 1.92712, 1.93121, 1.93101, 1.94216, 1.94263, 2.02886, 1.94287, 2.04531, 2.00455, 2.00938, 2.00659, 2.01006, 2.00675, 2.00041, 2.00249, 2.0027, 2.0044, 2.00752, 2.00142, 2.00725, 2.00708, 2.01607, 1.92585, 2.02665, 2.02865, 2.02908, 2.01222, 2.02426, 2.04313, 2.00849, 2.00973, 2.01014, 2.01073, 2.03831, 2.01322, 2.01428, 2.01467, 2.03311, 2.03203, 2.01529, 2.04586, 2.03406, 2.04496, 2.02163, 2.02034, 2.03061, 2.03597, 2.01988, 2.02107, 2.02909, 2.03575, 2.04418, 2.03835, 1.94496, 1.94619, 2.05292, 2.02349, 2.02197, 2.04789, 2.03119, 2.02584, 2.03845, 2.03039, 2.02766, 2.0297, 1.94817, 1.94961, 1.95099, 1.95048, 2.03109, 1.95139, 1.95532, 1.95444, 1.9337, 1.97396, 1.87978, 1.88585, 1.87919, 1.87906, 1.94812, 1.93456, 1.93714, 1.93566, 1.9939, 1.88639, 1.88583, 1.96136, 1.8874, 1.88879, 1.8904, 1.89322, 2.08242, 1.89286, 2.08248, 1.89057, 1.88946, 1.89102, 1.88941, 1.94201, 1.94043, 1.89035, 1.88664, 1.88808, 1.88881, 1.88735, 1.88643, 1.8842, 1.88263, 1.88303, 1.88201, 2.07978, 1.88562, 1.8856, 1.8832, 1.93682, 1.91716, 1.91753, 1.91795, 1.91034, 1.81041, 1.91598, 1.80782, 1.8064, 1.80391, 1.80293, 1.80186, 1.80028, 1.91333, 1.79774, 1.89866, 1.89544, 1.89102, 1.92527, 1.84749, 1.84373, 1.79556, 1.79417, 1.79461, 1.92877, 1.92721, 1.92775, 1.92393, 1.78914, 1.92727, 1.7867, 1.78863, 1.78759, 1.90859, 1.83512, 1.78067, 1.78303, 1.78158, 1.77829, 1.77814, 1.77532, 1.77327, 1.76993, 1.76736, 1.77463
1.78932, 1.78163, 1.78195, 1.78138, 1.78307, 1.78155, 1.78225, 1.78208, 1.95318, 1.77976, 2.04735, 1.78016, 1.77659, 1.77647, 1.77872, 1.77694, 1.77888, 1.77827, 1.77891, 1.77866, 1.77856, 1.77864, 1.77796, 1.96087, 1.95798, 1.82737, 1.82805, 1.82668, 1.77572, 1.89387, 1.89633, 1.8234, 1.87481, 1.77381, 1.76978, 1.76922, 1.76808, 1.7667, 1.76625, 1.76835, 1.76561, 1.76666, 1.76937, 1.7678, 1.76921, 1.77039, 1.77155, 1.77242, 1.93068, 1.84894, 1.8517, 1.84959, 1.85008, 1.93061, 2.03108, 1.84986, 2.0383, 1.92658, 2.00673, 1.9219, 1.92669, 1.92584, 1.93014, 1.92465, 2.00828, 1.93163, 1.84589, 1.92995, 1.93035, 1.92078, 1.93373, 1.84549, 1.92433, 1.93556, 1.84544, 2.03022, 1.92341, 1.92449, 2.01402, 1.84532, 1.94191, 1.94131, 1.8507, 1.85105, 1.94408, 1.93433, 2.01912, 2.02389, 1.8793, 1.99908, 1.92474, 2.00096, 2.01979, 2.00421, 1.92192, 2.00079, 2.00268, 1.92309, 2.00603, 1.92152, 2.00681, 2.00242, 2.02792, 2.00361, 2.0033, 2.02663, 1.92811, 2.01603, 2.01555, 2.03299, 2.0277, 2.01081, 2.00954, 2.01176, 2.01156, 2.0123, 2.03413, 2.0157, 2.04243, 2.02371, 2.032, 2.04176, 1.94136, 2.04391, 2.01843, 2.01681, 2.01766, 2.04057, 2.0314, 2.04399, 1.94507, 2.04914, 2.03363, 1.94456, 2.04456, 2.03939, 1.94863, 2.0345, 2.0225, 2.04771, 2.02788, 2.05437, 2.02611, 2.04268, 2.02847, 2.02764, 1.95078, 1.947, 1.9515, 1.95119, 2.03865, 1.95224, 1.95246, 2.04513, 1.88275, 1.95009, 2.09064, 1.88217, 1.88491, 1.95694, 1.93203, 2.05252, 1.97291, 1.88394, 1.98658, 1.88618, 1.88731, 1.98564, 1.89189, 1.88909, 2.07994, 1.89109, 2.09725, 2.06877, 2.06666, 2.08335, 1.89151, 1.89294, 1.8927, 1.943, 1.94259, 2.06719, 1.8894, 1.88861, 1.88924, 1.88879, 2.088, 2.08635, 2.08562, 1.88494, 1.88367, 1.88498, 1.8853, 1.88715, 1.88644, 1.88887, 1.93709, 1.91992, 2.00176, 1.81582, 1.91337, 1.92323, 1.92344, 1.80949, 1.80489, 1.80454, 1.80118, 1.80064, 1.80041, 1.80218, 1.79964, 1.79593, 1.89258, 1.79592, 1.79352, 1.7956, 1.84304, 1.84183, 1.78985, 1.79052, 1.92788, 1.79047, 1.79159, 1.78893, 1.88496, 1.83843, 1.78961, 1.97585, 1.78287, 1.78317, 1.78419, 1.78539, 1.78079, 1.77982, 1.77897, 1.77842, 1.77572, 1.91392, 1.77375, 1.92341
1.78437, 1.78281, 1.78376, 1.7831, 1.78467, 1.78289, 2.04646, 1.78264, 1.77983, 1.78197, 1.78121, 1.77821, 1.77918, 1.88357, 1.77956, 1.77809, 1.77714, 1.77734, 1.77988, 1.95672, 1.77889, 1.77698, 1.77558, 1.87695, 1.82736, 1.82996, 1.77832, 1.77806, 1.7774, 1.89684, 1.90219, 1.90323, 1.7741, 1.87987, 1.77204, 1.77211, 1.76722, 1.77141, 1.76778, 1.76936, 2.05934, 1.7656, 1.76128, 1.76673, 2.06184, 1.76781, 1.83667, 1.85133, 1.85199, 1.85217, 1.85292, 2.00792, 2.00718, 2.00316, 2.00522, 2.00686, 2.00498, 2.04172, 1.92468, 1.92859, 1.93102, 2.00604, 1.93044, 1.9311, 1.8511, 2.00953, 1.92528, 2.01258, 1.92415, 1.92223, 1.92036, 1.92076, 1.91886, 1.84448, 1.84605, 1.91775, 1.93945, 1.92311, 2.02826, 1.94147, 1.9214, 1.92505, 2.01768, 1.93056, 1.93057, 1.93056, 1.86244, 1.94566, 2.03552, 2.00004, 1.99737, 2.0147, 2.01406, 2.0031, 2.00567, 1.9208, 1.92106, 1.92243, 1.92252, 2.00714, 2.00169, 2.00997, 2.0069, 1.92719, 2.00069, 2.03132, 2.03209, 2.00526, 1.9304, 1.93022, 1.93073, 2.0298, 2.0119, 2.01305, 2.02851, 2.03931, 2.02767, 2.01521, 2.0458, 2.02747, 2.02438, 2.02484, 2.03842, 2.02074, 2.04371, 2.02781, 2.01857, 2.02122, 1.94376, 1.94368, 2.01756, 2.03162, 1.94478, 2.0391, 2.03091, 2.02889, 2.02438, 2.03442, 2.03049, 2.02427, 2.022, 1.94711, 2.02731, 2.02429, 2.02638, 1.94929, 1.94791, 1.9486, 1.9484, 1.95275, 1.95143, 2.04788, 2.03505, 2.03537, 1.88205, 1.98724, 2.08306, 1.88255, 1.93713, 1.9341, 1.97454, 1.88284, 1.93502, 1.95536, 1.88246, 1.98813, 1.8859, 1.89298, 1.88861, 1.9406, 1.89179, 1.89223, 2.0864, 2.08651, 1.89411, 1.89302, 1.89055, 1.89394, 1.89146, 1.89121, 1.8892, 1.88915, 2.10459, 2.10661, 1.88974, 1.88719, 1.88607, 1.88434, 1.88405, 1.8822, 1.88591, 1.88501, 1.88679, 1.88601, 1.88583, 1.93785, 1.81757, 1.91508, 1.818, 1.8109, 1.92367, 1.92303, 1.92218, 1.92428, 1.80479, 1.80299, 1.862, 1.80244, 1.79978, 1.79682, 1.79969, 1.92782, 1.79303, 1.84678, 1.79446, 1.91003, 1.84417, 1.84296, 1.78944, 1.90568, 1.84089, 1.79039, 1.79248, 1.79074, 1.79295, 1.90404, 1.83642, 1.92344, 1.92394, 1.92238, 1.78364, 1.78541, 1.78145, 1.8308, 1.92987, 1.92733, 1.77688, 1.91383, 1.77338, 1.77455
1.78401, 1.78578, 1.78301, 1.78697, 1.78573, 1.78511, 1.78449, 2.04535, 1.77951, 2.04167, 2.03803, 1.78038, 1.7794, 1.77948, 1.78091, 1.7793, 1.77624, 1.77752, 1.77883, 1.77902, 1.77812, 1.77872, 1.77783, 1.77833, 1.77857, 1.77667, 1.7815, 1.77618, 1.88706, 1.82451, 1.8692, 1.87968, 1.76907, 1.76953, 1.87387, 1.8795, 1.76606, 1.7723, 1.76596, 1.76462, 1.76421, 1.76728, 1.76509, 1.76588, 1.76851, 1.76848, 1.77031, 1.85297, 2.0045, 1.85291, 1.85249, 1.85133, 2.00519, 2.00414, 2.00442, 1.85035, 2.02484, 1.84899, 2.00666, 1.92499, 1.85193, 1.85043, 1.84938, 1.92172, 1.84771, 2.02534, 1.84878, 1.92122, 1.93253, 1.93355, 1.93511, 2.01749, 2.01488, 2.02321, 1.84542, 1.84388, 1.92021, 1.92109, 1.94132, 2.02424, 2.03837, 1.94239, 1.92791, 1.85158, 2.02186, 1.934, 1.93637, 2.04602, 2.04352, 1.99649, 2.00366, 2.00243, 2.00489, 2.00516, 2.00336, 2.00043, 1.92017, 1.92267, 1.92354, 1.92412, 2.00246, 2.00273, 2.02128, 2.00135, 2.00412, 2.02499, 2.0285, 2.02188, 2.00349, 1.93203, 2.02707, 1.93471, 2.01071, 2.01153, 2.01251, 2.01704, 2.02076, 2.02057, 2.0421, 2.04511, 2.02821, 2.03713, 2.03238, 1.94153, 1.94139, 2.02249, 2.02992, 2.03169, 2.03538, 2.03554, 2.04092, 2.0211, 2.03356, 2.04233, 2.02235, 2.04945, 2.03956, 1.94746, 2.02059, 2.02558, 2.03205, 1.94737, 2.02343, 2.02438, 2.02507, 2.02654, 1.94964, 1.94966, 1.95157, 2.02771, 2.02766, 2.04345, 2.0323, 2.03222, 1.98405, 1.87979, 1.87947, 1.87892, 2.09026, 1.88251, 1.88206, 1.88506, 1.8807, 2.0687, 1.88353, 1.93732, 1.88642, 1.8877, 1.88945, 1.94334, 1.9427, 1.8913, 1.89033, 1.89066, 1.89278, 1.89019, 1.89225, 2.08958, 2.08974, 1.88939, 1.98579, 1.89008, 1.89038, 1.88951, 1.88903, 2.08319, 2.09745, 1.88613, 1.88566, 1.88647, 1.95315, 1.95071, 2.08996, 1.88691, 1.88596, 1.88682, 1.81868, 1.816, 1.81038, 1.91946, 1.81144, 1.81244, 1.8095, 1.97897, 1.92778, 1.92215, 1.8004, 1.97545, 1.79934, 1.92604, 1.7958, 1.931, 1.84746, 1.7932, 1.84494, 1.84739, 1.84349, 1.84763, 1.7901, 1.79295, 1.84074, 1.8411, 1.78895, 1.78728, 1.78737, 1.90965, 1.89305, 1.92034, 1.91763, 1.78409, 1.78537, 1.78403, 1.78558, 1.78013, 1.77917, 1.91574, 1.87013, 1.82751, 1.89614, 1.82717
2.07284, 1.78681, 1.78391, 1.78496, 1.78468, 1.78681, 1.78222, 1.7856, 2.0632, 1.78186, 1.78169, 1.78141, 1.87678, 1.78176, 1.77717, 1.82997, 1.77653, 1.78009, 1.77583, 1.83105, 1.77741, 1.77717, 1.77927, 1.77344, 1.77526, 1.77852, 1.77585, 1.77617, 1.77777, 1.82409, 1.77308, 1.77296, 1.84373, 1.88241, 1.77221, 1.82086, 1.76786, 1.76813, 1.76508, 1.76549, 1.76795, 1.76574, 1.76575, 1.76771, 1.76975, 1.77156, 1.77033, 2.0074, 2.00819, 1.85104, 1.92448, 2.00323, 2.00794, 2.00664, 2.0045, 2.00532, 2.03849, 1.85086, 2.0075, 1.93145, 1.92465, 1.93148, 1.93027, 1.92608, 1.93193, 1.92083, 1.92114, 1.93367, 1.92213, 1.92425, 2.01346, 1.84407, 2.01559, 1.92396, 1.84555, 1.92153, 1.94018, 1.92263, 2.01749, 1.94002, 1.92398, 1.94055, 1.94262, 2.0278, 1.92904, 1.9414, 1.94303, 2.05507, 2.04195, 2.00876, 1.99747, 1.99931, 1.99776, 2.02156, 2.00043, 1.92359, 1.92069, 1.92337, 1.92337, 1.92437, 2.00353, 2.01114, 2.01263, 2.00188, 2.00981, 2.00633, 2.00895, 2.00633, 2.00549, 2.00679, 2.03161, 2.01058, 2.01232, 2.01216, 2.01159, 2.01187, 2.0284, 2.02458, 2.02718, 1.94017, 2.0312, 2.03117, 2.02889, 2.03861, 1.94144, 2.02902, 1.94197, 1.9435, 2.03499, 2.03634, 1.94375, 2.03516, 1.94439, 1.94521, 2.02341, 2.04171, 2.03885, 2.04239, 2.02776, 2.03536, 2.03731, 1.9473, 2.04442, 1.94879, 2.02593, 2.02551, 1.94898, 1.948, 1.9485, 1.95026, 2.02664, 1.95292, 2.02881, 2.03178, 1.88164, 1.88189, 1.88021, 1.88065, 1.87931, 1.88002, 1.87919, 1.88221, 1.88065, 1.88019, 1.88413, 1.88437, 1.99213, 1.88923, 1.89019, 1.88923, 1.98074, 2.06948, 1.98369, 2.06835, 1.89247, 1.89367, 1.89366, 1.89031, 2.08747, 1.8921, 1.89062, 1.88981, 1.88955, 2.05111, 1.88814, 1.88603, 1.88576, 1.88635, 2.05098, 1.93415, 1.93807, 1.93708, 1.8843, 1.88524, 1.88661, 1.88536, 1.81786, 1.81577, 1.81383, 1.92061, 1.90954, 1.92403, 1.90404, 1.90026, 1.92408, 1.93014, 1.92781, 1.80343, 1.92755, 1.79891, 1.79772, 1.9248, 1.79299, 1.79554, 1.86189, 1.84674, 1.84456, 1.84124, 1.78915, 1.79175, 1.79179, 1.79065, 1.92109, 1.78948, 1.84494, 1.78775, 1.92263, 1.92252, 1.78535, 1.78519, 1.78616, 1.78538, 1.78341, 1.77799, 1.77845, 1.77985, 1.89673, 1.9191, 1.89852, 1.89534
1.78704, 1.78883, 1.78897, 1.78582, 1.78798, 1.78609, 1.78388, 1.78617, 1.78249, 1.78175, 1.78061, 1.77961, 1.88064, 1.78331, 1.78012, 1.83224, 1.87234, 1.7816, 1.77771, 1.77978, 1.78016, 1.77791, 1.77883, 1.77827, 1.77956, 1.77854, 1.77798, 1.77851, 1.87753, 1.82698, 1.77504, 1.77229, 1.77498, 1.87992, 1.76852, 1.76796, 1.76839, 1.76859, 2.04752, 1.76472, 1.76654, 1.76414, 2.08294, 1.76813, 1.76928, 1.81938, 1.77004, 2.00704, 1.85434, 1.85153, 1.85051, 2.00495, 1.85172, 1.85131, 1.92844, 1.85072, 1.85022, 1.92854, 1.92374, 1.93023, 2.04584, 1.93044, 1.93007, 1.9325, 2.00651, 1.93292, 1.84631, 1.92633, 1.93418, 1.92234, 1.92148, 1.84485, 1.92078, 1.92469, 1.84467, 1.92074, 1.84459, 1.94159, 1.94062, 1.94122, 1.92385, 1.94378, 1.93047, 1.9459, 1.94477, 1.936, 1.93697, 1.94493, 2.02176, 1.99729, 2.0304, 2.00789, 1.99851, 2.01119, 2.00342, 1.92402, 1.92166, 1.92525, 1.92275, 1.92288, 2.00101, 2.00767, 2.00547, 2.00362, 1.92515, 2.00527, 1.92634, 2.00398, 2.00604, 1.93159, 2.00849, 2.00931, 2.02535, 2.03487, 2.0309, 1.93601, 2.03217, 1.93777, 2.03289, 2.01473, 2.02383, 2.02808, 2.01462, 2.01801, 1.94084, 2.02745, 2.02455, 2.01877, 1.94428, 2.03878, 2.02843, 2.01888, 2.05399, 2.02022, 1.94493, 2.03465, 2.04487, 2.02841, 2.02337, 2.04254, 2.02444, 2.025, 2.03212, 1.94813, 2.0253, 2.02507, 2.02685, 2.03057, 1.94805, 2.02522, 2.0257, 2.02679, 2.05547, 2.02955, 1.88259, 1.88013, 1.87885, 1.87655, 1.8803, 1.93766, 1.88012, 1.87881, 1.88239, 2.07735, 1.88123, 1.88647, 1.88616, 1.88936, 1.88744, 1.89064, 1.89136, 1.89186, 1.89047, 2.07276, 1.89227, 1.89703, 1.94148, 1.89289, 1.9423, 1.94098, 1.89238, 1.88924, 1.97602, 1.89093, 2.0687, 1.88962, 1.88631, 1.95177, 1.88737, 2.05124, 1.95603, 1.88347, 1.88535, 1.88898, 1.8873, 1.88879, 1.81705, 1.93031, 1.92067, 1.90616, 1.80808, 1.80725, 1.85638, 1.80483, 1.80067, 1.79985, 1.80105, 1.79952, 1.80264, 1.93077, 1.79553, 1.79601, 1.79626, 1.79288, 1.84464, 1.79243, 1.93037, 1.92748, 1.79029, 1.92582, 1.78936, 1.79098, 1.78994, 1.92221, 1.78598, 1.78794, 1.78937, 1.92025, 1.78703, 1.9228, 1.7834, 1.78214, 1.78309, 1.92402, 1.91988, 1.78192, 1.77902, 1.77919, 1.90157, 1.77839
1.78954, 1.78962, 1.786, 1.78593, 1.7889, 1.8788, 1.78593, 1.78369, 1.78389, 1.78455, 1.78318, 1.78396, 1.78513, 1.77749, 2.05918, 1.77788, 1.77993, 1.78018, 1.77962, 1.77964, 1.78198, 1.78213, 1.77917, 1.83789, 1.82771, 1.8277, 1.77667, 1.77798, 1.77692, 1.77465, 1.77425, 1.77642, 1.77364, 1.87965, 1.82083, 1.77147, 1.76581, 1.76682, 1.76665, 1.76732, 1.76598, 1.76583, 1.768, 1.76796, 1.76624, 1.82099, 1.82161, 1.85146, 2.0098, 1.93141, 1.85213, 2.00961, 2.01355, 2.00781, 2.02791, 1.92701, 2.03867, 1.85215, 1.92781, 1.9309, 1.84948, 1.84738, 1.92422, 1.84891, 1.9326, 1.93269, 1.92262, 1.92303, 1.93539, 1.84716, 1.92132, 2.01467, 2.03763, 2.01724, 1.93837, 1.9223, 1.94101, 1.94213, 1.94254, 1.92365, 1.92605, 1.92683, 1.94823, 1.92748, 2.03052, 1.85772, 1.94837, 2.01974, 2.0415, 1.99695, 2.015, 2.00738, 2.02093, 2.02702, 2.00012, 2.02448, 1.92161, 1.9237, 1.92488, 2.00323, 2.00635, 2.00402, 2.0032, 1.92766, 2.01885, 2.00928, 2.03062, 1.93045, 1.92942, 2.02743, 2.02231, 2.02451, 2.01019, 2.02236, 2.01203, 2.03708, 1.93738, 1.93694, 2.01349, 2.03455, 2.02442, 2.02556, 2.02516, 2.04116, 1.943, 2.0365, 2.03862, 2.02352, 2.02492, 2.01698, 2.03171, 2.04757, 2.04504, 2.03496, 2.02128, 2.03075, 2.02354, 2.03253, 2.02485, 2.02354, 1.94826, 2.03033, 2.02323, 2.03421, 2.02797, 2.02279, 2.02543, 2.02478, 2.02489, 1.95026, 1.95135, 2.02617, 2.03458, 2.04152, 1.88278, 1.88188, 2.07653, 2.06532, 1.87987, 1.93342, 1.88384, 2.07674, 1.88443, 1.88363, 1.88348, 2.06976, 2.08033, 1.88901, 1.96344, 1.97783, 1.9419, 1.89078, 1.94297, 1.94237, 1.8928, 1.94399, 1.9451, 1.89185, 1.89161, 1.943, 1.89109, 1.89268, 1.88957, 1.89299, 1.88822, 1.88925, 1.88944, 1.95472, 1.88661, 1.9358, 1.88752, 1.88652, 2.06199, 1.88639, 1.88887, 1.89063, 1.91461, 1.81845, 1.92263, 1.86404, 1.86189, 1.8582, 1.85871, 1.80478, 1.80255, 1.9277, 1.92648, 1.80261, 1.85042, 1.79782, 1.79904, 1.79911, 1.7965, 1.79383, 1.92431, 1.79355, 1.92307, 1.92164, 2.1098, 1.79067, 1.78953, 1.79241, 1.85323, 1.85136, 1.92474, 1.78826, 1.78883, 1.78604, 1.78878, 1.91898, 1.88367, 1.91332, 1.78362, 1.78253, 1.92078, 1.7806, 1.78013, 1.78077, 1.77926, 1.77877
1.79002, 1.79124, 1.83687, 1.83843, 1.85521, 1.85757, 1.78559, 1.78568, 1.78297, 1.78447, 1.78392, 1.78299, 1.78534, 1.78377, 1.88089, 1.7822, 1.7794, 1.78132, 1.78084, 1.78065, 1.77952, 1.78046, 1.77884, 1.77917, 1.78233, 1.82799, 1.82766, 1.77724, 1.77731, 1.77682, 1.77678, 1.77549, 1.77579, 1.82298, 1.76904, 1.76915, 1.96662, 1.96801, 1.76951, 2.05307, 1.76768, 1.76637, 1.76717, 1.77131, 1.81935, 1.76982, 1.87098, 2.01166, 2.00904, 1.85237, 2.01046, 2.00483, 2.00739, 1.85428, 2.01992, 1.85139, 2.00978, 1.93047, 2.03847, 1.93159, 2.00936, 1.93403, 1.92426, 1.92538, 1.92385, 1.92267, 1.92413, 1.93215, 1.92236, 1.93477, 1.84463, 1.92108, 1.91988, 1.8455, 2.01646, 1.84361, 1.92151, 1.92155, 1.92745, 1.92537, 1.94333, 1.94394, 2.02233, 1.93028, 1.94388, 1.94376, 2.02315, 1.94884, 2.03849, 2.03838, 2.02698, 2.00019, 2.01426, 2.00944, 2.00055, 2.00418, 1.92362, 1.92156, 1.92383, 2.00614, 2.0042, 2.0037, 2.03759, 1.92735, 2.01448, 2.01624, 2.02184, 2.00643, 2.02885, 2.01442, 2.00824, 2.02791, 2.01042, 2.01336, 2.01412, 2.01142, 2.01481, 2.02824, 2.02995, 2.01769, 2.0225, 2.01565, 2.02468, 1.94797, 2.03253, 2.02962, 2.02793, 2.03579, 2.02701, 2.01926, 2.03134, 2.03141, 2.0307, 2.02048, 2.02342, 2.04277, 2.02195, 2.02084, 2.04259, 2.04899, 2.02541, 2.03878, 2.03895, 1.94651, 2.0257, 2.0237, 2.02725, 2.02477, 2.03061, 2.02399, 2.03012, 2.03074, 2.0385, 2.02558, 1.88246, 2.06996, 1.88185, 1.88181, 1.87999, 1.87978, 1.88204, 1.88286, 2.0828, 1.88314, 1.88456, 1.8827, 1.88771, 1.89076, 1.93872, 1.89117, 1.89176, 1.892, 1.89149, 1.89271, 1.97304, 1.89226, 1.94137, 1.89622, 1.89514, 1.89234, 1.94225, 1.98371, 1.89104, 2.07789, 1.88964, 1.88917, 1.88915, 1.93905, 1.93779, 1.93741, 1.88535, 2.07752, 2.06408, 2.06535, 1.88938, 1.88874, 1.8182, 1.81622, 1.81302, 1.80966, 1.90921, 1.80835, 1.80427, 1.85485, 1.80316, 1.97868, 1.80064, 1.79958, 1.79948, 1.79668, 1.79904, 1.79654, 1.79538, 1.79268, 1.79398, 1.92485, 1.84183, 1.79314, 1.8937, 1.78993, 1.88441, 1.78957, 1.78677, 1.78656, 1.78934, 1.7868, 1.91484, 1.78794, 1.83441, 1.78642, 1.78718, 1.83474, 1.78606, 1.78595, 1.78214, 1.781, 1.91053, 1.90876, 1.77992, 1.90958
1.84095, 1.94916, 1.88091, 1.78674, 1.78561, 1.78676, 1.78792, 1.78727, 1.7859, 1.78561, 1.78707, 1.78569, 1.7853, 1.78463, 1.78266, 1.78043, 1.78192, 1.78331, 1.78322, 1.77716, 1.78174, 1.94081, 1.77992, 1.83159, 1.87204, 1.82973, 1.831, 1.77646, 1.77828, 1.7792, 1.77901, 1.89226, 1.77284, 1.77356, 1.77247, 1.77132, 1.76868, 1.77017, 1.76917, 1.76812, 1.76777, 2.04581, 1.76993, 1.77034, 1.82106, 1.82097, 1.77302, 1.85488, 1.85299, 1.85426, 1.92674, 1.85481, 2.01041, 1.85232, 2.00842, 1.85167, 1.84867, 1.84834, 1.9316, 1.92452, 2.04156, 1.84744, 1.93168, 2.01149, 1.93286, 1.93252, 2.02759, 1.92243, 1.92705, 1.92301, 1.84404, 1.92076, 1.92375, 1.92196, 1.92101, 1.93937, 1.92156, 1.9217, 1.92156, 1.92379, 1.94441, 1.85086, 1.94516, 1.94569, 1.93178, 1.85758, 2.03783, 1.86534, 2.05817, 2.03488, 1.92203, 1.92253, 1.92407, 1.99973, 2.02791, 2.02777, 1.92245, 1.9227, 1.99836, 1.99899, 2.00714, 2.00068, 2.00083, 2.03096, 2.02473, 1.92844, 2.02359, 2.01147, 2.01355, 2.0285, 2.00959, 2.00731, 2.02749, 2.01242, 2.01433, 1.9373, 1.93702, 2.01467, 2.02798, 2.03242, 2.02138, 2.03729, 2.0272, 2.03496, 2.02406, 2.02988, 2.02764, 2.03422, 2.01833, 2.03124, 2.01734, 2.01949, 2.03859, 2.02162, 2.04083, 2.02059, 2.03082, 2.04222, 1.94789, 2.0244, 2.02717, 2.04048, 2.02172, 1.9482, 1.9467, 2.02956, 1.94816, 2.02798, 1.94761, 1.9501, 1.94989, 2.03259, 2.0345, 2.0519, 1.88131, 1.88022, 1.88254, 1.88494, 1.99142, 1.88165, 1.88193, 1.88192, 2.0651, 1.88464, 2.09049, 1.88635, 1.88675, 1.88719, 1.88833, 1.88731, 1.89143, 1.89397, 2.08274, 2.08084, 1.89323, 1.94783, 1.89308, 2.07027, 1.89335, 2.09209, 1.94549, 1.94196, 1.94184, 1.89229, 1.88978, 1.9382, 1.93834, 1.88907, 2.06597, 2.06387, 1.88759, 1.88987, 2.06635, 1.88769, 1.8893, 1.8862, 1.81772, 1.81492, 1.81415, 1.86471, 1.86025, 1.80657, 1.85788, 1.80234, 1.85463, 1.80071, 1.92878, 1.79945, 1.79983, 1.79508, 1.92812, 1.92573, 1.79543, 1.79228, 1.92575, 1.92369, 1.84375, 1.9028, 1.89645, 1.89378, 1.78728, 1.78689, 1.78854, 1.78837, 1.78915, 1.91868, 1.9201, 1.83795, 1.83679, 1.83743, 1.83454, 1.91583, 1.88282, 1.9154, 1.78094, 1.78325, 1.90961, 1.88825, 1.78251, 1.91424
1.79151, 1.79124, 1.84167, 1.9629, 1.78682, 1.78567, 1.7889, 1.79044, 1.78635, 1.78599, 1.7875, 1.78445, 1.8918, 1.85463, 1.7816, 1.78116, 1.78193, 1.78051, 1.78172, 1.88613, 1.78002, 1.78169, 1.779, 1.8304, 1.83087, 1.83076, 2.04048, 1.77927, 1.77946, 1.77869, 1.77528, 1.77779, 1.77471, 1.77524, 1.88904, 1.88985, 1.89169, 1.77204, 1.77043, 1.76808, 1.76881, 1.76952, 1.77027, 1.77155, 1.87345, 1.82232, 1.77337, 1.85393, 1.85449, 1.85585, 1.93061, 2.00948, 1.93394, 2.01047, 1.92484, 1.93014, 1.9319, 1.92526, 1.93331, 1.92788, 1.93398, 1.92806, 1.93321, 1.93212, 1.93242, 1.93744, 1.93697, 2.01337, 1.92436, 1.93997, 1.92329, 1.92011, 1.93895, 1.93865, 1.92145, 1.92221, 1.93973, 2.02888, 1.84556, 1.84732, 1.945, 1.92972, 1.93068, 1.94532, 2.02422, 1.94579, 1.94326, 1.944, 1.87897, 1.92264, 1.99837, 2.02883, 2.00104, 2.00076, 1.99967, 1.99989, 1.9981, 1.99997, 2.00059, 2.00028, 2.00303, 2.00357, 2.00267, 2.03926, 2.03568, 2.00098, 2.00715, 2.0023, 2.00547, 2.00722, 2.00875, 2.0088, 2.02342, 1.93418, 2.02067, 2.03692, 2.03353, 2.03513, 1.93818, 1.94003, 2.0073, 2.01796, 1.94066, 2.03181, 2.01881, 2.01612, 2.01899, 2.02782, 2.02475, 2.02154, 2.04409, 2.03528, 2.0405, 2.03825, 1.94522, 2.02059, 2.0381, 1.94647, 2.028, 2.02438, 2.02308, 2.02765, 2.02489, 1.9452, 2.01945, 2.02547, 2.02895, 2.02794, 2.02764, 2.02647, 1.9499, 2.03329, 2.02699, 2.03891, 1.88229, 1.88242, 2.06539, 1.93125, 1.93481, 1.93247, 1.94157, 1.93253, 2.08348, 1.88238, 1.93375, 1.97039, 1.93804, 1.88863, 1.88783, 1.88945, 1.89025, 1.893, 1.89268, 2.08612, 1.89114, 1.9487, 1.89177, 1.89671, 2.07965, 1.8944, 1.94187, 1.94238, 1.9431, 1.94217, 1.88973, 1.89014, 1.98941, 1.88775, 1.88717, 1.88992, 2.06803, 2.06353, 2.06101, 1.88852, 1.88771, 1.88643, 1.81972, 1.9233, 1.8146, 1.81318, 1.81017, 1.85924, 1.85837, 1.90395, 1.80216, 1.89666, 1.79882, 1.79888, 1.79796, 1.92385, 1.79557, 1.93213, 1.79239, 1.9268, 1.79275, 1.79075, 1.84432, 1.79013, 1.88659, 1.841, 1.79216, 1.78972, 1.78824, 1.91864, 1.78991, 1.79205, 1.83804, 1.83701, 1.7883, 1.78524, 1.83711, 1.83523, 1.78366, 1.78537, 1.88721, 1.78235, 1.78141, 1.77988, 1.78158, 1.78222
1.79157, 1.79285, 1.78925, 1.79137, 1.78955, 1.78859, 1.78888, 1.78729, 1.78636, 1.78551, 1.78467, 1.78479, 1.78357, 1.78236, 1.78292, 1.78276, 1.78357, 1.77994, 1.78214, 1.78217, 1.78337, 1.88375, 1.88964, 1.78168, 1.77965, 1.83124, 1.7798, 1.782, 1.77957, 1.77937, 1.77658, 1.88628, 1.88572, 1.77377, 1.77385, 1.77416, 1.7734, 1.77379, 1.77094, 1.77133, 1.89587, 1.77185, 1.77157, 1.87145, 1.77327, 1.77504, 1.77616, 1.85424, 1.85356, 1.85394, 1.85397, 1.85371, 1.92722, 2.01371, 1.93083, 1.92671, 2.0102, 1.93408, 1.92699, 1.93134, 1.92675, 1.92549, 1.92537, 1.92529, 1.92445, 1.92222, 2.01358, 1.9251, 1.93752, 1.93837, 1.93832, 1.84394, 1.92168, 1.92195, 1.91947, 1.94121, 2.01912, 1.84513, 1.92345, 1.92344, 1.92448, 2.02397, 1.92727, 1.92894, 1.94723, 1.85787, 1.94782, 1.86863, 2.0317, 2.0153, 2.00081, 1.99816, 1.9995, 2.00118, 2.00283, 2.00498, 1.99758, 1.92654, 2.00367, 2.00429, 2.00542, 2.01048, 2.00341, 2.0038, 2.00336, 2.03154, 2.03839, 2.02369, 2.00489, 1.93293, 2.02655, 2.01074, 2.01114, 2.01105, 2.01087, 2.01075, 2.03296, 2.01758, 1.94089, 1.94047, 2.03339, 2.02038, 1.94169, 2.03898, 1.9435, 1.94331, 2.02644, 2.03008, 1.94517, 2.03546, 2.021, 2.02091, 2.03538, 2.02239, 2.03571, 1.94465, 1.94486, 2.03187, 2.03778, 2.0416, 1.94543, 2.02189, 2.02478, 1.94567, 2.02203, 2.02531, 2.02825, 2.03127, 1.94823, 1.94941, 2.05168, 2.04048, 2.03598, 2.03146, 1.88214, 1.8822, 1.98747, 1.93255, 1.88181, 1.99536, 1.88529, 1.93629, 1.88426, 1.88381, 1.93524, 1.94017, 1.93784, 1.93713, 1.88889, 1.98902, 1.94149, 1.98592, 1.94463, 1.89298, 1.89605, 1.89379, 1.89551, 1.89255, 1.89135, 1.89268, 1.89185, 1.89103, 1.94398, 1.89093, 1.89012, 1.9452, 1.99, 1.88904, 1.88897, 1.88885, 1.88806, 1.88964, 1.88874, 1.8899, 1.89032, 1.88861, 1.92051, 1.9211, 1.92246, 1.92298, 1.81085, 1.80716, 1.80676, 1.80611, 1.8037, 1.80292, 1.80079, 1.80017, 1.79483, 1.79698, 1.79511, 1.79458, 1.79364, 1.7928, 1.92733, 1.79318, 1.92583, 1.844, 1.84068, 1.79293, 1.83972, 1.84107, 1.7909, 1.78263, 1.78977, 1.78856, 1.78543, 1.83902, 1.78525, 1.83503, 1.7835, 1.78501, 1.78462, 1.78345, 1.78501, 1.83121, 1.91086, 1.90779, 1.90674, 1.78067
1.78963, 1.79179, 1.79252, 1.79118, 1.84025, 1.84086, 1.78726, 1.78603, 1.78729, 1.78614, 1.7888, 1.78665, 1.78331, 1.78684, 1.8839, 1.78626, 1.78349, 1.78294, 1.78296, 1.78057, 1.78443, 1.88905, 1.78552, 1.78262, 1.78103, 1.78048, 1.78325, 1.78186, 1.89642, 1.88664, 1.7787, 1.77757, 1.7787, 1.77511, 1.89294, 1.77563, 1.77383, 1.88928, 1.8966, 1.77485, 1.89629, 1.8348, 1.82449, 1.77282, 1.82447, 1.82679, 1.77849, 2.0087, 1.85444, 1.85301, 1.85472, 1.8582, 1.93117, 1.85328, 1.93335, 1.85305, 1.9317, 1.9279, 1.93457, 1.93417, 1.92532, 1.93464, 1.93509, 1.92761, 1.93438, 1.93512, 1.92295, 1.91996, 2.02464, 1.92265, 1.92354, 2.0172, 1.92196, 1.8423, 1.84491, 1.9428, 2.02347, 1.84645, 1.92348, 1.94651, 1.92637, 1.85102, 1.93004, 1.93192, 1.93208, 1.94759, 2.02389, 1.94574, 2.02941, 2.02151, 1.99974, 1.99994, 2.00057, 2.02786, 2.01438, 2.00538, 1.92577, 1.92407, 1.92637, 1.92633, 2.00988, 1.99788, 2.00259, 2.00492, 2.00701, 2.00897, 2.00651, 2.00726, 1.93124, 2.0311, 2.00991, 2.01018, 2.01265, 2.01353, 1.9374, 2.02676, 1.93868, 2.02969, 2.02451, 2.01528, 2.01664, 2.02775, 1.93919, 2.04498, 2.04984, 2.0365, 2.04286, 2.02897, 2.02447, 2.0283, 2.02254, 2.03823, 2.02154, 2.04099, 2.03742, 1.94488, 2.02537, 2.02492, 1.94658, 2.02713, 2.02148, 2.023, 2.05166, 1.94782, 2.04529, 2.02775, 1.94863, 1.94802, 1.94968, 2.02522, 2.02379, 1.95038, 2.0256, 1.88543, 1.88326, 1.88586, 1.88206, 1.93449, 1.88509, 1.99792, 1.88202, 1.88066, 1.88324, 1.88318, 1.93717, 1.98668, 2.05669, 1.88845, 1.88929, 1.98264, 1.8922, 1.89098, 1.89567, 1.89191, 2.08968, 1.88958, 1.8917, 1.89345, 1.89105, 1.89356, 1.89076, 1.89202, 2.06514, 1.89306, 1.94095, 1.89257, 1.88946, 1.98232, 1.89029, 1.89041, 1.88932, 1.88921, 1.88949, 1.89166, 1.97204, 1.96706, 1.82044, 1.8156, 1.81497, 1.81353, 1.8124, 1.80989, 1.80767, 1.80598, 1.80066, 1.80403, 1.9266, 1.80105, 1.79812, 1.79759, 1.79541, 1.92655, 1.92773, 1.7939, 1.84529, 1.79383, 1.79266, 1.92303, 1.79265, 1.79292, 1.78971, 1.84209, 1.92333, 1.92042, 1.92348, 1.79001, 1.78693, 1.78622, 1.83809, 1.78821, 1.8584, 1.83917, 1.78684, 1.78506, 1.78493, 1.78312, 1.78283, 1.91148, 1.78201, 1.7788
1.79328, 1.79107, 1.79517, 1.79059, 1.78922, 1.891, 1.84225, 1.7895, 1.78962, 1.79061, 1.78864, 1.78783, 1.78565, 1.78903, 1.78624, 1.83419, 1.78466, 1.78588, 1.78223, 1.78519, 1.78177, 1.89227, 1.78385, 1.78498, 1.89015, 1.7822, 1.78382, 1.77833, 1.90053, 1.90218, 1.83156, 1.77844, 1.7786, 1.77831, 1.8922, 1.77594, 1.77597, 1.89657, 1.89177, 1.77457, 1.84457, 1.83553, 1.82654, 1.77475, 1.7756, 1.77872, 1.77841, 2.0131, 2.01062, 1.93544, 1.93425, 1.93071, 1.85568, 1.85626, 1.93376, 2.02907, 1.85207, 1.92777, 2.01339, 1.92731, 1.84946, 1.8486, 1.93513, 2.03606, 1.93418, 1.92352, 2.01343, 1.93925, 1.92371, 1.92697, 1.91972, 1.9207, 1.94098, 1.91763, 1.93933, 1.92343, 2.02788, 2.02188, 1.92424, 1.92472, 2.02416, 1.92573, 1.94883, 1.93277, 1.93475, 1.93636, 1.93581, 1.93977, 2.02323, 2.03222, 2.0176, 2.00166, 2.00114, 2.00961, 2.01207, 2.01101, 1.92508, 1.92406, 1.92488, 2.00584, 2.00128, 2.00392, 2.00341, 1.92762, 2.03434, 2.00517, 1.92856, 2.0077, 2.00473, 2.0298, 2.00972, 2.0103, 2.04437, 1.9368, 1.93545, 2.02114, 1.93775, 2.03527, 1.93905, 2.01683, 2.01775, 2.03359, 2.03167, 1.94187, 2.02528, 1.94439, 2.03441, 2.04097, 2.05468, 2.04137, 2.03819, 2.02365, 2.04144, 2.03566, 2.05525, 2.05103, 1.94594, 1.94608, 2.03106, 2.03158, 2.02412, 2.02434, 1.94506, 2.03139, 2.02155, 2.02747, 1.9484, 1.95125, 1.94299, 2.02818, 2.0464, 1.94978, 2.04585, 2.03598, 2.07054, 2.07397, 1.88432, 1.88218, 1.88591, 1.88253, 1.88239, 1.88435, 1.88393, 1.88648, 1.8839, 1.98963, 1.887, 1.88965, 1.94037, 1.89112, 1.89013, 1.89035, 2.0647, 2.06631, 2.06571, 1.89023, 1.94341, 1.89047, 2.09412, 1.89367, 2.09423, 1.89254, 1.89201, 1.88995, 1.94196, 1.89094, 1.89016, 1.89188, 1.88806, 1.88823, 1.88991, 2.07141, 1.8916, 1.94075, 1.88897, 1.86984, 1.90789, 1.9369, 1.81466, 1.91953, 1.92229, 1.8088, 1.85555, 1.92068, 1.91974, 1.92115, 1.92036, 1.79755, 2.00722, 1.927, 1.79767, 1.79551, 1.79619, 1.79248, 1.92498, 1.79037, 1.79273, 1.79206, 1.92127, 1.78881, 1.91741, 1.78865, 1.92234, 1.78954, 1.78847, 1.78934, 1.7896, 1.85152, 1.78722, 1.9078, 1.91037, 1.84051, 1.78576, 1.7855, 1.78492, 1.78377, 1.78431, 1.90679, 1.78313, 1.78241
1.79509, 1.79292, 1.79492, 1.79123, 1.79244, 1.78884, 1.79057, 1.79029, 1.78692, 1.78758, 2.04585, 1.78949, 1.8488, 1.8477, 1.78811, 1.78627, 1.78493, 1.78324, 1.78275, 1.78301, 1.78309, 1.7828, 1.88263, 1.78432, 1.78239, 1.78112, 1.78334, 1.78182, 1.88066, 1.7808, 1.78257, 1.77986, 1.88404, 1.77572, 1.89217, 1.77814, 1.77764, 1.89466, 1.77835, 1.87992, 1.893, 1.87803, 1.86532, 1.77262, 1.77669, 1.77942, 1.7804, 2.01203, 2.01321, 2.0135, 1.85632, 1.85633, 1.85266, 1.85262, 1.93127, 1.92613, 1.9285, 1.92816, 1.93255, 1.93491, 1.92719, 1.92783, 1.93318, 1.92529, 1.92373, 1.92456, 1.92492, 1.92407, 1.92645, 1.92373, 1.94147, 1.92642, 1.92011, 1.91754, 1.94187, 1.92028, 1.94625, 1.94776, 1.92207, 1.92455, 1.94785, 1.92496, 1.94756, 1.93129, 1.93409, 2.02805, 2.03792, 1.86337, 2.05187, 2.01002, 2.00183, 2.00032, 2.01713, 2.0188, 2.00262, 2.00118, 1.92412, 1.92541, 1.92476, 1.92479, 1.92842, 2.00986, 2.02408, 2.00465, 2.00578, 2.00519, 1.92979, 2.00578, 2.00944, 2.00793, 2.00848, 2.00988, 2.03352, 1.93518, 2.03069, 2.02133, 1.93903, 1.93869, 1.93779, 1.93915, 2.02433, 2.02457, 1.94189, 2.03431, 1.94312, 2.03493, 2.03217, 2.03674, 2.02417, 2.02323, 2.0242, 2.02265, 2.03522, 2.02581, 2.02215, 2.03758, 2.02309, 2.02077, 1.94491, 1.94466, 2.04458, 2.02457, 1.94558, 2.0252, 2.0253, 2.02654, 1.94609, 1.94634, 1.94718, 1.94837, 2.03574, 2.028, 2.05945, 2.03491, 1.88547, 2.06894, 1.88519, 1.88557, 1.88264, 1.88352, 1.88387, 1.98719, 1.98574, 1.88739, 1.88571, 1.99014, 2.06952, 2.06718, 1.8889, 1.88917, 1.89014, 1.89129, 1.94201, 1.89459, 1.89242, 1.89195, 1.89551, 1.94374, 1.89333, 1.94223, 1.89367, 2.07935, 1.89626, 1.89377, 1.89297, 1.89099, 1.8922, 1.94399, 1.9559, 1.88939, 1.88652, 1.89074, 1.89147, 1.88975, 1.89024, 1.89006, 1.8202, 1.94002, 1.81435, 1.81241, 1.92162, 1.80873, 1.80911, 1.90341, 1.85326, 1.8036, 1.92164, 1.80089, 1.92601, 1.92684, 1.84444, 1.84511, 1.84535, 1.79597, 1.92008, 1.89225, 1.79066, 1.79227, 1.78878, 1.90523, 1.79009, 1.78695, 1.78935, 1.78944, 1.92332, 1.78769, 1.91777, 1.78577, 1.78378, 1.78946, 1.78762, 1.99702, 1.99616, 1.7837, 1.91357, 1.90356, 1.90005, 1.90882, 1.98531, 1.78155
1.8508, 1.79583, 1.79529, 1.79569, 1.79373, 1.7909, 1.78951, 1.79051, 2.05688, 1.7905, 1.78961, 1.78978, 1.78589, 1.78759, 1.78886, 1.78649, 1.78573, 1.96518, 2.05586, 1.78641, 1.78624, 1.89255, 1.78455, 1.88277, 1.7842, 1.78569, 1.78405, 1.89024, 1.78215, 1.78161, 1.88371, 1.77996, 1.83051, 1.83146, 1.89569, 1.77897, 1.77926, 1.89873, 1.77598, 1.87601, 1.88528, 1.77564, 1.77836, 2.04634, 2.04649, 1.77991, 1.78175, 1.85795, 2.0174, 1.84956, 1.85542, 1.93397, 1.93414, 1.93248, 1.93759, 2.01093, 1.93016, 2.00972, 1.93475, 1.92786, 1.85199, 1.93221, 2.03542, 2.01371, 1.93599, 1.9355, 1.93928, 1.93827, 1.92182, 1.84674, 1.8451, 1.92118, 1.94182, 1.94245, 1.91971, 1.9416, 1.92161, 1.92135, 1.9235, 1.94504, 1.92747, 1.9466, 1.94807, 1.93002, 1.93201, 1.94053, 1.94301, 1.94908, 2.02416, 2.00408, 2.01367, 2.00293, 2.01579, 2.01144, 2.00248, 2.00617, 1.92456, 1.92463, 1.92442, 1.92644, 1.92464, 2.00276, 2.00328, 1.92762, 2.00394, 2.00809, 2.00646, 2.00642, 2.00741, 2.00643, 1.93185, 2.03147, 2.04193, 1.93513, 1.93466, 1.93638, 2.0278, 2.03955, 1.93811, 2.03383, 2.02949, 1.94005, 2.02116, 2.02184, 2.03546, 1.94308, 2.03485, 2.02916, 1.94497, 2.04216, 2.021, 2.03173, 2.03646, 1.94683, 1.94728, 2.03483, 2.03112, 2.03615, 2.04479, 1.94463, 2.05035, 1.94696, 2.03953, 2.02768, 2.02035, 2.02466, 1.948, 1.94636, 1.94803, 1.94764, 2.02699, 2.03198, 2.02431, 2.02861, 1.93372, 1.88624, 2.06175, 1.88439, 1.88319, 1.93551, 1.88272, 1.93437, 1.93673, 1.93636, 1.8834, 1.88506, 1.88741, 1.88792, 1.88954, 1.89049, 1.89022, 1.89078, 1.89286, 2.07738, 1.89361, 1.89292, 1.89376, 1.89293, 1.8917, 1.89335, 1.89231, 1.89216, 1.94224, 1.94063, 2.08242, 1.89302, 1.89275, 1.89162, 1.89145, 1.9441, 1.89215, 1.88995, 1.89033, 1.95605, 1.95673, 1.81946, 1.92499, 1.92135, 1.90755, 1.81316, 1.85919, 1.85649, 2.09633, 1.80371, 1.92124, 1.8035, 1.79918, 1.79793, 1.79949, 1.79915, 1.84757, 1.84628, 1.9099, 1.85132, 1.79036, 1.89572, 1.79186, 1.7933, 1.79133, 1.84048, 1.84074, 1.79099, 1.78977, 1.78887, 1.78888, 1.78668, 1.78614, 1.91881, 1.78668, 1.78689, 1.78789, 1.7852, 1.78667, 1.78662, 1.90985, 1.78625, 1.90284, 1.90944, 1.78295, 1.90627
1.79668, 2.05533, 1.7948, 1.79578, 1.79186, 1.79364, 1.79303, 2.04824, 1.79115, 1.79225, 1.79025, 1.8406, 1.79041, 1.78794, 1.79002, 1.7875, 1.78615, 1.78849, 1.96828, 1.78773, 1.78724, 1.7868, 1.78576, 1.78524, 1.89012, 1.78532, 1.78565, 2.04567, 1.87624, 1.83379, 1.78267, 1.83313, 1.83219, 1.83204, 1.83107, 1.78026, 1.78015, 1.89998, 1.78069, 1.77896, 1.77953, 1.78008, 1.78031, 1.78181, 1.77833, 1.77739, 1.7802, 2.01253, 2.01396, 1.85496, 1.85645, 1.85368, 1.85434, 1.93412, 1.92863, 1.85315, 1.92813, 1.9276, 2.02076, 1.92771, 1.92675, 1.92786, 1.92399, 2.01337, 1.84822, 1.92427, 1.84731, 1.92389, 2.02545, 1.94066, 2.02693, 1.9212, 1.84489, 1.92051, 1.84452, 1.91911, 1.9212, 1.92171, 1.94425, 1.84894, 1.94851, 1.92737, 1.93064, 1.93237, 1.85978, 1.93743, 1.94806, 1.95017, 2.04354, 1.99734, 2.00172, 1.99941, 1.99831, 1.9981, 2.00355, 2.01139, 1.925, 1.92694, 1.92654, 2.00188, 1.92787, 2.00539, 1.9269, 2.00444, 2.00488, 2.03232, 2.01008, 2.00769, 1.93155, 2.0094, 1.93371, 2.04184, 2.04157, 1.935, 2.02072, 1.93711, 1.93741, 2.0146, 2.03477, 2.02798, 2.02468, 2.03603, 2.04164, 2.0344, 2.04155, 2.04347, 1.94411, 1.94424, 2.04059, 2.03085, 2.04848, 2.02359, 2.02232, 2.0236, 2.02336, 2.03191, 2.03719, 2.02843, 2.03627, 2.03883, 2.03616, 2.02077, 2.0386, 2.03176, 1.9467, 1.94689, 1.94564, 1.94551, 1.94804, 2.03793, 2.03614, 2.02663, 2.03444, 2.03464, 1.93609, 1.88487, 1.88519, 1.88392, 1.88422, 1.93516, 1.93543, 1.88861, 1.98671, 1.93563, 1.88662, 1.88635, 1.88828, 1.88745, 1.88918, 2.07576, 1.89116, 1.94079, 1.94062, 1.89354, 2.06822, 1.89262, 1.89449, 1.89318, 1.89274, 1.893, 1.98005, 1.99285, 1.89335, 1.88953, 2.07662, 1.98738, 1.89153, 1.89308, 1.89204, 1.89011, 1.88839, 1.89024, 1.89296, 1.97343, 1.95584, 1.82132, 1.81994, 1.86561, 1.90748, 1.81184, 1.90448, 1.85906, 1.92384, 1.80638, 1.80433, 1.90719, 1.80088, 1.80124, 1.80053, 1.79916, 1.84867, 1.8449, 1.91046, 1.84568, 1.92291, 1.79344, 1.79234, 1.89386, 1.79227, 1.78855, 1.92174, 1.7896, 1.78901, 1.78884, 1.88552, 1.78849, 1.78891, 1.91954, 1.78843, 1.78667, 1.91409, 1.91397, 1.78784, 1.91295, 1.78583, 1.78808, 1.78467, 1.7864, 1.90961, 1.91115
1.79845, 1.79849, 1.79741, 2.07961, 2.07614, 1.79304, 1.79366, 1.79062, 1.79143, 1.79308, 1.84106, 1.84113, 1.87566, 1.78938, 1.79062, 1.78733, 1.78849, 1.78934, 1.78884, 1.78684, 1.7888, 1.84058, 1.78601, 1.78811, 1.78746, 1.78888, 1.78472, 1.78636, 1.78638, 1.78657, 1.78286, 1.78475, 1.78383, 1.89641, 1.89719, 1.88248, 1.7803, 1.89079, 1.87933, 1.78023, 1.88586, 1.78022, 1.88809, 1.7822, 2.0658, 2.06258, 1.7836, 2.01384, 1.85589, 1.85582, 1.85596, 1.93455, 1.85538, 1.85606, 2.02522, 1.93085, 1.92997, 1.9381, 1.93191, 1.85273, 1.92732, 1.93813, 1.92506, 1.92983, 1.94088, 1.92582, 1.92482, 1.92591, 1.92412, 1.94272, 1.92122, 1.91912, 1.94209, 1.92377, 2.0397, 2.02143, 2.03184, 1.94807, 1.84708, 1.92443, 1.94923, 1.94467, 1.9493, 2.03428, 1.94596, 1.93598, 1.86315, 1.94012, 2.03517, 2.01868, 2.00295, 2.00088, 2.00098, 2.00217, 1.99989, 2.02082, 1.92648, 1.92692, 1.92408, 2.00189, 2.00446, 2.00322, 1.92687, 1.92838, 2.00667, 2.02482, 2.04278, 1.93236, 2.00783, 2.03174, 2.03521, 2.01165, 2.03576, 2.01305, 2.02646, 1.93788, 2.04106, 2.01502, 2.03368, 2.02997, 2.01685, 1.94152, 1.94225, 1.94434, 2.01687, 2.02375, 2.03576, 2.03657, 2.02005, 2.02203, 2.03758, 2.02615, 2.03575, 2.03059, 2.02839, 2.02031, 2.02772, 2.02175, 2.0276, 2.02187, 2.02218, 2.02409, 2.02256, 2.03146, 1.9475, 1.94782, 1.94736, 1.94784, 1.94813, 2.02769, 2.02476, 2.02461, 2.02739, 1.95085, 1.97879, 1.88606, 1.88639, 1.88379, 1.88512, 2.06163, 2.05926, 1.8873, 1.88675, 1.88742, 1.93857, 1.88691, 1.94029, 1.95538, 1.98577, 1.88918, 1.89084, 1.94222, 1.97596, 1.94152, 1.94047, 1.89393, 1.94256, 1.95176, 1.9422, 1.89256, 1.89272, 2.07729, 1.89237, 1.89147, 1.89268, 1.89008, 1.8926, 1.88935, 1.89093, 1.89113, 1.96485, 1.89027, 1.8895, 1.88986, 1.88919, 1.818, 1.81877, 1.81642, 1.81183, 1.8126, 1.86231, 1.85862, 1.80394, 1.91998, 1.9034, 1.80204, 1.85162, 1.79829, 1.79674, 1.79609, 1.79645, 1.79378, 1.79609, 1.84568, 1.79263, 1.79451, 1.79057, 1.92086, 1.92341, 1.92449, 1.92168, 1.78894, 1.78968, 1.78859, 1.83841, 1.85152, 1.83818, 1.92184, 1.91975, 1.91463, 1.91461, 1.88782, 1.78748, 1.91165, 1.83549, 1.78537, 1.91156, 1.78252, 1.88229, 1.78506
1.79941, 1.79931, 1.7967, 1.7941, 1.79651, 1.7976, 1.7961, 1.79621, 2.06823, 1.8418, 1.79322, 1.8422, 1.84232, 1.84206, 1.79179, 1.78912, 1.88734, 1.78862, 1.79014, 1.78901, 1.78856, 1.88192, 1.78861, 1.78688, 1.78877, 1.78622, 1.78621, 1.78477, 1.78707, 1.78897, 1.78605, 1.78552, 1.78408, 1.88759, 1.78358, 1.88617, 1.78178, 1.78204, 1.78317, 1.90874, 1.88714, 1.78378, 1.89316, 1.89435, 1.78221, 1.78484, 1.78545, 1.85772, 2.01367, 1.85724, 2.01596, 2.0157, 2.01381, 1.93333, 1.92873, 1.85347, 1.93779, 1.92794, 1.93541, 1.92937, 1.94067, 1.93853, 1.93891, 1.93867, 1.9393, 1.92465, 1.92409, 1.92409, 1.92215, 1.92336, 1.84772, 1.92067, 1.94267, 2.02508, 2.02119, 1.94548, 1.92406, 1.92264, 1.92483, 1.9239, 2.04523, 1.92858, 1.8541, 1.93038, 1.93478, 1.93811, 1.94767, 1.94801, 2.02734, 2.00123, 1.92666, 1.92677, 2.0023, 1.92401, 2.00197, 2.00209, 2.00358, 2.00229, 2.00305, 2.00307, 2.00596, 2.004, 2.02442, 2.02278, 2.00998, 2.02579, 2.01364, 1.93027, 2.01075, 1.93541, 2.01151, 2.01393, 1.93437, 2.01519, 2.0355, 2.03407, 2.01821, 2.01739, 2.01728, 2.02539, 2.0176, 2.02453, 2.02573, 2.03942, 2.0183, 2.01913, 2.02067, 1.94434, 2.02124, 2.04697, 2.04528, 2.03094, 2.02929, 1.94473, 2.03798, 2.03847, 2.02383, 2.03238, 2.0286, 2.02538, 2.04014, 1.94595, 2.03791, 2.02488, 1.94795, 1.94774, 1.94794, 2.0254, 1.94629, 2.02441, 2.02811, 2.0273, 1.95101, 2.02777, 1.88747, 1.88878, 1.88712, 1.88652, 1.88496, 1.98749, 1.8868, 1.88398, 2.06605, 1.93739, 1.93691, 1.88754, 1.88704, 1.88974, 1.95449, 1.892, 1.89347, 1.94167, 1.89192, 1.89305, 1.94294, 1.89274, 1.89338, 1.89297, 1.89199, 1.94624, 1.94436, 1.89136, 1.94375, 1.89085, 1.89129, 2.09049, 2.06305, 2.05915, 1.8923, 2.07234, 1.96683, 1.89117, 1.89055, 1.89003, 1.89153, 1.88985, 1.81558, 1.81431, 1.81348, 1.9207, 1.91857, 1.91196, 1.80745, 1.90298, 1.92633, 1.92027, 1.85111, 1.80052, 1.79826, 1.79552, 1.7943, 1.79269, 1.88607, 1.79376, 1.92058, 1.7899, 1.79241, 1.79054, 1.79034, 1.88483, 1.78879, 1.78729, 1.92566, 1.92133, 1.91057, 1.83848, 1.83856, 1.8372, 1.78577, 2.10732, 1.78718, 1.7861, 1.78927, 1.78841, 1.83821, 1.78421, 1.78705, 1.78577, 1.78369, 1.78438
1.79955, 1.79911, 1.90273, 1.79648, 1.79723, 1.79601, 1.79568, 1.79508, 1.79546, 1.79415, 1.84519, 1.84194, 1.84265, 1.78935, 1.79097, 2.06918, 2.05524, 1.78972, 1.79095, 1.78927, 1.83866, 1.78897, 1.88304, 1.83866, 1.78599, 1.83704, 1.78862, 1.78893, 1.78488, 1.78726, 1.8401, 1.78376, 1.78632, 1.78461, 1.78821, 1.78559, 1.8345, 1.78504, 1.78254, 1.78072, 1.78446, 1.78545, 1.78265, 1.78537, 1.7856, 1.89481, 1.78628, 1.85631, 1.85738, 1.93527, 1.93188, 1.9348, 2.01761, 1.93374, 2.01946, 1.9279, 2.01361, 1.92784, 1.9291, 1.93116, 1.93639, 1.9293, 1.85108, 1.92804, 1.93969, 1.9407, 1.94085, 1.92409, 1.92422, 1.94309, 1.9212, 1.84577, 2.02348, 2.02174, 1.92007, 1.92181, 1.94734, 1.92455, 1.94823, 1.92677, 1.92815, 1.85098, 2.02577, 1.93292, 2.02642, 1.94762, 2.03584, 2.03506, 2.03761, 1.92891, 2.00756, 2.01562, 1.92716, 2.02067, 2.00294, 2.00703, 2.00716, 2.00572, 2.00426, 1.92789, 2.00415, 2.00435, 2.00355, 1.92982, 2.00644, 2.00596, 2.00751, 2.0137, 2.00907, 2.01793, 2.02138, 2.03161, 2.03237, 2.02908, 2.0259, 2.04111, 2.02419, 2.01796, 2.0235, 1.94047, 2.01797, 2.01466, 1.94198, 2.02535, 2.02105, 2.02146, 2.02109, 2.02242, 2.02446, 1.94492, 2.03318, 2.03304, 1.94602, 2.02349, 2.0269, 2.02455, 2.02417, 1.94804, 1.94811, 2.03216, 2.03565, 1.94508, 2.0249, 2.02411, 1.94654, 1.9478, 1.94868, 1.9486, 1.94694, 2.03816, 1.94798, 2.03876, 2.02724, 1.88627, 1.88696, 1.88469, 1.9374, 2.06307, 1.88324, 1.98152, 2.07917, 1.97918, 2.08813, 1.88397, 1.9378, 1.88866, 1.93855, 1.88959, 1.94425, 1.89084, 2.06611, 1.9417, 2.06162, 1.94334, 1.94263, 1.89432, 1.89299, 1.89215, 1.89125, 1.89024, 1.89137, 1.89329, 1.88881, 1.89216, 2.05873, 1.88863, 2.07513, 1.88984, 2.06338, 1.89286, 1.88899, 1.94027, 1.94019, 1.88747, 1.88419, 1.97159, 1.81786, 1.81734, 1.81176, 1.81122, 1.91887, 1.80654, 1.80666, 1.92019, 1.80655, 1.80253, 1.80015, 1.92478, 1.9031, 1.92458, 1.79631, 1.92529, 1.79378, 1.79201, 1.79134, 1.78913, 1.78885, 1.78991, 1.78932, 1.79323, 1.79064, 1.78904, 1.92346, 1.78693, 1.78929, 1.78805, 1.78504, 1.78729, 1.7887, 1.78797, 1.78613, 1.78708, 1.88615, 1.89247, 1.78544, 1.78465, 1.78433, 1.7834, 1.83554, 1.9049
2.07736, 1.80187, 1.79447, 1.79713, 1.79931, 1.79722, 1.79562, 1.79461, 2.07707, 1.7986, 1.79389, 1.79547, 1.7917, 1.8428, 1.79342, 1.79312, 1.79067, 1.97499, 2.05892, 1.79005, 2.05177, 1.89759, 1.78955, 1.78935, 1.78899, 1.83892, 1.84414, 1.88979, 1.78661, 1.78913, 1.7905, 1.78858, 1.89411, 1.78519, 1.78588, 1.78469, 1.78518, 1.78394, 1.8922, 1.78275, 1.77989, 1.78612, 1.78644, 1.78929, 1.78519, 1.78495, 1.78851, 1.93502, 1.93509, 1.9353, 1.85825, 1.93317, 2.01383, 1.92854, 1.93487, 1.85481, 1.93221, 1.93402, 1.93585, 1.92902, 1.92893, 1.92774, 1.93873, 1.92771, 1.92696, 1.94409, 1.92413, 1.84811, 1.92378, 2.03172, 2.0286, 2.03067, 1.92286, 1.94586, 1.94568, 1.94462, 1.95057, 1.94874, 1.92384, 1.92679, 1.9507, 1.92791, 1.85186, 1.94777, 1.93488, 1.94804, 1.93933, 2.02782, 2.05315, 2.02035, 2.00457, 2.00057, 1.9279, 2.01664, 2.01425, 2.00118, 2.00307, 2.00656, 2.00761, 2.00663, 1.92771, 1.92804, 2.01762, 2.01834, 1.92872, 2.00782, 2.00696, 2.03802, 2.02292, 2.02384, 2.03463, 2.01084, 2.03345, 2.02912, 2.03501, 2.02773, 2.02842, 2.02037, 2.02948, 1.94144, 2.01866, 1.9416, 1.9407, 2.0186, 2.03423, 2.02053, 2.02095, 2.02195, 2.0304, 2.0461, 1.94446, 2.03786, 2.03958, 2.03885, 2.02543, 2.03771, 2.03905, 2.0375, 1.94602, 2.03415, 1.94594, 1.94607, 1.94626, 2.02915, 1.94757, 1.9517, 1.94904, 1.94782, 1.94539, 2.0283, 2.02901, 1.94956, 2.02716, 1.88725, 1.98408, 1.88654, 1.93622, 1.88667, 1.88661, 1.8875, 1.99248, 1.98968, 1.88524, 1.8862, 1.93764, 1.93895, 1.94238, 1.88949, 1.88754, 1.88934, 1.8896, 2.07832, 1.89177, 1.97569, 1.89354, 2.07409, 1.89203, 1.89243, 2.07308, 1.892, 1.89164, 1.94117, 1.89179, 2.07452, 1.89008, 1.89041, 1.89046, 1.88957, 1.88988, 1.89016, 2.05979, 1.88972, 1.88902, 1.88966, 1.88874, 1.82098, 1.91792, 1.81577, 1.91725, 1.81141, 1.92267, 1.80517, 1.80619, 1.97998, 1.97028, 1.80256, 1.85302, 1.79978, 1.79594, 1.79649, 1.79409, 1.79613, 1.79516, 1.84377, 1.79545, 1.79238, 1.8415, 1.83931, 1.99657, 1.78745, 1.78643, 1.78971, 1.92259, 1.91817, 1.78569, 1.78718, 1.7873, 1.78836, 1.78626, 1.78689, 1.91732, 1.91379, 1.78824, 1.89755, 1.89256, 1.78396, 1.78628, 1.7852, 1.78833, 1.78297
1.80022, 1.80142, 1.98762, 1.80293, 1.79888, 2.05248, 1.79789, 1.79717, 1.79309, 1.79639, 1.79852, 1.79312, 1.84398, 1.79464, 1.89439, 1.79409, 1.79102, 2.07426, 1.79174, 1.79036, 1.79101, 1.89526, 1.79145, 1.79066, 1.89425, 1.83986, 1.8404, 1.78853, 1.78706, 1.78836, 1.78887, 1.78627, 1.7853, 1.8906, 1.88807, 1.78351, 1.78847, 1.78572, 1.78308, 1.78619, 1.7833, 1.89497, 1.78568, 1.78789, 1.78781, 1.78755, 1.89193, 1.93437, 1.9361, 1.85808, 1.93363, 1.93521, 1.93339, 1.93362, 1.93276, 1.93397, 1.93259, 1.93181, 1.93198, 1.85359, 1.92992, 1.94112, 1.92758, 1.94149, 1.93906, 1.92419, 1.92599, 1.94177, 2.03026, 1.92423, 1.92409, 1.91899, 2.04831, 1.9459, 2.0245, 2.04453, 2.02345, 1.92245, 1.84846, 2.02609, 1.9278, 1.92929, 1.93119, 1.93264, 1.8593, 1.93825, 1.94439, 1.94398, 2.04591, 2.01147, 2.01975, 2.0029, 2.00299, 2.01439, 1.92704, 1.92736, 1.92782, 2.00875, 2.01067, 1.92853, 1.92754, 1.92775, 2.00634, 2.00655, 2.00585, 2.00989, 2.01966, 2.02325, 2.01682, 2.03074, 1.93746, 1.93602, 2.03342, 2.00647, 2.0306, 2.04256, 1.93878, 2.0323, 2.0145, 2.04404, 2.01716, 2.03243, 1.94294, 2.02462, 2.02595, 1.94485, 2.02846, 1.94558, 2.03483, 2.04071, 2.03827, 2.03144, 2.03223, 1.94654, 2.04602, 2.05263, 2.02897, 2.04232, 2.04768, 2.03454, 2.03227, 2.05192, 2.02117, 2.02564, 1.94673, 1.94561, 1.94578, 1.94747, 1.9447, 1.94865, 2.03844, 2.03904, 2.04174, 2.05234, 1.88662, 1.88763, 2.0573, 2.0622, 2.07237, 1.93735, 1.93627, 1.93525, 1.8859, 2.06516, 1.8873, 1.88961, 1.88904, 1.89042, 1.88799, 1.89003, 2.06136, 2.07157, 1.89348, 2.07684, 1.88984, 1.89197, 1.89304, 1.8916, 2.07701, 1.94238, 1.94115, 1.89284, 1.94027, 1.88792, 1.88969, 1.891, 1.97627, 1.89242, 1.89015, 1.94059, 1.93837, 1.8907, 1.88945, 1.88813, 1.88965, 1.81816, 1.81707, 1.81677, 1.81383, 1.81083, 1.90929, 1.80905, 1.91223, 1.92106, 1.80289, 1.91847, 1.80347, 1.79922, 1.92177, 1.92685, 1.92683, 1.92502, 1.92045, 1.79354, 1.79197, 1.7895, 1.84097, 1.84275, 1.78911, 1.79068, 1.78814, 1.91492, 1.78793, 1.89322, 1.88587, 1.78866, 1.78575, 1.78937, 1.91522, 1.92109, 1.91684, 1.91293, 1.91329, 1.9103, 1.78501, 1.78314, 1.78672, 1.83544, 1.78569, 1.78232
1.80282, 1.85166, 1.79923, 1.79969, 1.80026, 1.80036, 1.79882, 2.05468, 1.79584, 1.79603, 1.7985, 1.79729, 1.97159, 1.97196, 1.79408, 1.87852, 1.79274, 1.79316, 1.7929, 1.79255, 1.79378, 1.79134, 1.89422, 1.89473, 1.89609, 1.78977, 1.89155, 1.78808, 1.78846, 1.78868, 1.78712, 1.97537, 1.78821, 1.78861, 1.89597, 1.78654, 1.78577, 1.89327, 1.7869, 1.78568, 1.78469, 1.78629, 1.97363, 1.7873, 1.78958, 1.79001, 1.7926, 1.85885, 1.93786, 1.85909, 1.93813, 1.85856, 1.85813, 1.93123, 1.93807, 1.9411, 1.9288, 1.94128, 1.93301, 1.85509, 1.92706, 1.92752, 1.92999, 1.92789, 1.94124, 1.92532, 1.92672, 1.92471, 1.92633, 1.92241, 1.9457, 1.94757, 1.92444, 1.84507, 1.94813, 1.92355, 1.92399, 1.92321, 1.94833, 1.92569, 1.85058, 1.85137, 2.03881, 1.95032, 1.95025, 2.04198, 2.02725, 2.04754, 2.04281, 1.9267, 1.92786, 2.02982, 2.00432, 2.00962, 2.00515, 2.00478, 2.02411, 2.00714, 2.00597, 2.00337, 2.00573, 2.00661, 2.02077, 2.01758, 2.027, 2.01037, 1.9309, 1.93036, 2.02213, 2.02352, 2.02113, 2.01286, 2.02813, 2.0131, 2.02151, 2.02214, 2.01699, 2.01638, 2.01566, 2.02324, 2.0173, 2.04581, 2.01848, 2.02783, 2.02489, 2.03028, 2.04077, 1.94658, 2.01927, 2.02768, 2.02902, 2.03515, 1.94449, 1.94749, 2.03556, 2.04379, 2.04604, 2.03076, 2.02747, 1.94578, 2.03783, 2.04224, 2.03778, 2.03274, 1.94625, 1.94525, 1.94474, 1.94865, 1.94671, 2.03202, 2.04242, 2.0323, 2.03106, 2.05422, 2.06041, 1.88881, 1.88846, 1.88689, 1.88922, 1.93773, 1.88666, 1.88442, 1.98968, 1.98186, 1.88731, 2.09058, 2.06225, 1.8907, 1.89011, 1.89233, 2.06485, 1.89253, 1.89172, 2.06882, 1.89058, 1.89277, 1.89253, 1.89242, 2.08317, 1.8903, 1.89329, 2.07784, 1.89131, 1.89006, 1.8888, 1.89093, 2.07047, 1.8891, 2.06151, 1.88951, 1.88637, 2.05832, 2.06374, 2.06372, 1.88787, 1.81721, 1.81742, 1.81249, 1.92187, 1.91768, 1.91801, 1.80825, 1.80723, 1.80213, 1.97346, 1.79666, 1.80228, 1.92382, 1.90211, 1.79598, 1.92839, 1.89635, 1.79375, 1.89008, 1.79579, 1.92577, 1.9256, 1.7904, 1.78688, 1.91956, 1.7889, 1.78857, 1.79021, 1.78886, 1.78673, 1.92075, 1.78637, 1.78637, 1.91653, 1.78804, 1.90919, 1.87902, 1.78537, 1.78386, 1.83795, 1.90691, 1.78302, 1.89635, 1.78543, 1.90344
1.80453, 1.80041, 1.80065, 1.8013, 1.80297, 1.80415, 1.79891, 2.06765, 1.79622, 1.79857, 1.79912, 1.79986, 1.97661, 1.7982, 1.79459, 1.79582, 1.79431, 1.79608, 1.79368, 1.88212, 2.05157, 1.79365, 1.79104, 1.79075, 1.79254, 1.79064, 1.8897, 1.79009, 1.7903, 1.88904, 1.78855, 1.78909, 1.78917, 1.8868, 1.78929, 1.7907, 1.78622, 1.78745, 1.78754, 1.78895, 1.78704, 1.78942, 1.79015, 1.78879, 1.7904, 1.7918, 1.79103, 1.86092, 1.85931, 1.93454, 1.85904, 1.85798, 2.02192, 1.93788, 1.9349, 1.93737, 1.93194, 1.93349, 1.92814, 1.928, 1.92986, 1.94211, 1.92858, 1.93057, 1.9288, 1.92519, 1.94423, 1.94587, 1.94612, 1.94497, 2.02415, 1.94932, 1.92398, 1.92506, 1.92498, 1.92068, 1.84758, 1.84812, 1.92637, 1.92708, 1.92713, 1.95184, 1.9291, 1.95077, 1.95083, 1.95093, 1.94142, 1.94852, 2.02992, 2.04158, 2.01136, 2.00279, 2.01065, 2.01013, 2.0018, 1.92886, 1.92751, 2.00748, 2.00675, 2.00452, 1.92849, 1.92868, 2.0151, 2.02419, 2.02565, 2.0176, 2.01932, 1.93213, 2.02447, 1.99944, 2.02019, 2.01741, 2.01588, 2.01757, 2.02123, 1.93691, 2.01719, 1.94094, 2.02485, 2.01775, 1.94188, 2.05673, 2.02061, 2.02803, 2.0368, 2.04523, 2.03485, 2.02081, 2.03092, 2.03203, 2.02879, 2.03818, 2.03113, 1.94741, 2.03646, 2.05676, 2.03415, 2.03756, 2.03355, 2.04847, 1.94734, 2.03506, 2.03116, 2.02816, 1.94795, 1.9483, 1.94663, 1.94741, 1.94556, 2.03036, 2.02902, 2.02592, 2.04747, 1.88984, 1.88821, 2.06022, 1.88905, 1.88718, 1.93725, 1.98868, 2.07602, 1.88681, 1.88885, 1.88678, 1.8861, 2.08287, 1.88889, 1.89015, 1.89065, 1.89084, 1.89283, 2.08307, 2.08427, 1.89439, 1.89067, 1.97916, 1.89364, 2.06928, 1.89091, 2.06148, 1.89192, 1.89249, 2.06101, 2.06269, 2.06251, 1.88849, 2.07985, 1.88658, 1.88754, 1.88971, 1.88619, 1.88914, 2.06922, 1.88763, 1.8876, 1.81496, 1.81479, 1.81184, 1.81142, 1.92131, 1.92021, 1.80987, 1.8046, 1.9191, 1.80086, 1.79943, 1.9062, 1.79668, 1.79792, 1.79617, 1.79474, 1.84472, 1.79618, 1.79534, 1.79295, 1.92701, 1.79316, 1.92777, 1.9256, 1.79055, 1.91954, 1.92402, 1.92332, 1.92145, 1.78814, 1.92373, 1.78839, 1.78612, 1.91828, 1.91372, 1.83731, 1.78755, 1.78675, 1.78699, 1.91013, 1.90892, 1.78574, 1.78212, 1.90789, 1.83507
1.8058, 1.80358, 1.80057, 1.80343, 1.80284, 1.80351, 1.89688, 1.80055, 1.80031, 1.79677, 2.05511, 1.97719, 1.79947, 1.79662, 1.79715, 1.7951, 1.79652, 1.7935, 1.89954, 1.795, 1.79511, 1.79124, 1.79017, 1.7944, 1.79026, 1.79245, 1.79026, 1.8963, 1.89378, 1.79226, 1.97615, 1.78992, 1.84047, 1.84127, 1.79043, 1.84035, 1.8393, 1.88021, 2.0734, 1.78745, 1.78855, 1.89041, 2.06568, 1.79093, 1.79175, 1.79201, 1.79391, 1.86008, 1.86002, 1.93815, 1.9328, 1.93807, 1.93329, 1.93734, 1.93232, 2.01874, 2.01753, 1.85444, 1.93793, 1.93142, 1.93019, 1.92816, 1.94426, 1.92811, 1.92945, 1.92541, 1.92359, 1.94426, 1.9444, 1.94567, 1.94909, 1.92316, 1.92223, 1.92303, 1.94868, 2.03539, 1.94836, 1.92235, 1.92675, 1.84968, 1.95277, 1.95199, 1.85525, 1.93147, 1.95246, 1.93888, 1.86533, 1.95419, 2.04305, 2.04846, 2.00431, 1.92849, 2.00398, 2.00441, 1.92721, 1.92751, 2.00692, 2.00723, 2.00599, 2.00913, 2.00953, 2.00605, 2.00769, 2.00625, 2.00709, 2.00821, 2.02143, 2.02859, 1.93329, 1.93322, 1.93482, 2.02165, 2.01916, 2.04869, 2.03224, 2.03135, 1.94024, 2.04181, 1.94144, 1.94092, 2.02028, 2.01993, 2.01912, 2.0186, 2.041, 2.03511, 2.02125, 2.02374, 2.02264, 2.03127, 1.94659, 1.94526, 2.02765, 2.03185, 2.03257, 2.03271, 2.02211, 2.02006, 2.0235, 1.94785, 2.03341, 2.03077, 2.03, 2.02829, 2.01991, 1.94754, 1.94683, 1.94673, 1.94897, 1.94865, 2.05134, 2.0278, 2.04663, 2.04283, 1.88882, 1.89002, 1.88773, 1.88861, 1.8868, 1.9926, 1.98426, 1.88829, 1.89088, 1.88942, 1.88607, 1.88939, 1.88889, 1.89264, 1.89129, 1.89241, 1.89059, 1.89243, 1.89274, 1.97859, 1.89291, 2.07334, 1.89296, 2.07641, 1.89155, 1.89235, 1.89223, 1.89026, 2.06283, 1.88888, 1.88934, 1.88762, 2.08004, 1.88767, 1.88801, 1.88569, 1.88601, 1.88706, 1.88746, 2.06835, 1.88564, 1.86687, 1.81507, 1.81491, 1.81446, 1.91851, 1.91884, 1.80743, 1.80542, 1.80369, 1.80256, 1.79931, 1.85085, 1.79705, 1.79663, 1.79496, 1.79613, 1.79531, 1.79326, 1.91524, 1.79253, 1.92421, 1.92739, 1.79105, 1.92437, 1.78649, 1.78947, 1.78648, 1.78811, 1.92445, 1.78829, 1.83708, 1.78717, 2.11434, 1.91759, 1.78335, 1.78789, 1.83726, 1.78698, 1.78865, 1.91065, 1.91212, 1.7864, 1.78595, 1.91316, 1.78529
1.9112, 1.90953, 1.80375, 1.80509, 1.91699, 1.85324, 1.97576, 1.80234, 2.07421, 1.80025, 1.8024, 1.89687, 1.79908, 1.79916, 1.90037, 1.79672, 1.97194, 1.79733, 1.79651, 1.79896, 1.79735, 1.79399, 1.8449, 1.79502, 1.89696, 1.79441, 1.79299, 1.79255, 1.89638, 1.89584, 1.7927, 1.84892, 1.84046, 1.79265, 1.79274, 1.8415, 1.83956, 1.84011, 1.78934, 1.79092, 1.79045, 1.79092, 1.79179, 2.06541, 1.79328, 1.79394, 1.79376, 1.93683, 2.02058, 1.93655, 1.93527, 1.93569, 1.93538, 1.93809, 1.93482, 1.93461, 1.93468, 1.93965, 1.92966, 1.94121, 1.85162, 1.94183, 1.85151, 1.94418, 1.85079, 1.92562, 1.94569, 1.92455, 1.92432, 1.92515, 1.92747, 2.02722, 1.84489, 1.8472, 1.84866, 1.84705, 1.8482, 1.92724, 2.02799, 1.92584, 1.92856, 1.92867, 1.93038, 1.93361, 2.0288, 1.93686, 1.95329, 1.87174, 2.03147, 2.04838, 2.00691, 2.0061, 1.92964, 2.00591, 2.01453, 2.00396, 2.01429, 1.93081, 2.00854, 2.00968, 2.0091, 1.92862, 2.00633, 1.93164, 2.02175, 1.92856, 2.021, 1.93131, 2.00412, 1.93522, 1.93625, 2.02933, 2.01591, 2.03058, 2.03799, 2.00715, 2.03113, 2.03152, 1.94206, 2.04157, 2.02169, 1.94411, 2.03282, 2.01868, 2.02145, 2.01969, 2.02079, 2.02568, 2.02798, 2.02497, 2.03212, 1.94756, 2.04509, 2.02213, 2.02493, 1.948, 2.0246, 2.03454, 2.04418, 2.0345, 2.03522, 2.02413, 2.02282, 2.02261, 1.9481, 2.02316, 1.94817, 1.94913, 1.94929, 1.94848, 2.05031, 2.05225, 1.9514, 1.89208, 1.88867, 1.93889, 2.04487, 1.93926, 1.93716, 1.98646, 1.88688, 2.07255, 1.88904, 1.88641, 1.88759, 1.89255, 1.88673, 1.98584, 1.9861, 1.89017, 1.89321, 1.89185, 1.89452, 1.89258, 1.94257, 2.07483, 1.89396, 1.89233, 1.94095, 1.96601, 1.8907, 1.88992, 1.88878, 1.88779, 2.08992, 1.88818, 1.88791, 1.88729, 1.88919, 1.88814, 1.88543, 1.88791, 1.93595, 1.935, 1.8842, 1.86848, 1.86676, 1.86436, 1.81174, 1.80947, 1.8069, 1.80365, 1.80431, 1.91995, 1.8007, 1.91962, 1.91637, 1.99477, 1.92593, 1.92447, 1.92051, 1.8997, 1.79187, 1.79462, 1.79037, 1.79235, 1.79197, 1.92114, 1.88683, 1.90276, 1.90173, 1.9221, 1.92223, 1.922, 1.8362, 1.8385, 1.83794, 1.78784, 1.92059, 1.91803, 1.78687, 1.90972, 1.78601, 1.78596, 1.9002, 1.78693, 1.78612, 1.78358, 1.94261, 1.90468
1.85715, 1.80677, 1.89418, 1.85764, 1.88651, 1.85573, 1.80594, 1.80246, 1.80208, 1.80307, 1.80012, 1.90045, 1.79933, 1.79891, 1.79921, 1.79773, 1.80021, 1.79948, 1.79368, 1.79529, 1.79624, 1.79704, 1.84506, 1.79746, 1.7941, 1.89766, 1.79257, 1.79418, 1.79266, 1.88924, 1.97161, 1.79061, 1.84346, 1.88234, 1.79098, 1.79308, 1.79111, 1.79218, 1.79098, 1.97614, 1.97323, 1.79103, 1.79249, 1.79249, 1.79392, 1.79433, 1.79622, 2.02042, 2.01994, 1.93792, 1.8593, 1.86093, 1.9451, 1.93527, 1.93463, 1.94124, 1.94034, 1.93221, 1.93001, 1.85462, 1.93089, 1.94812, 2.01762, 1.85052, 1.92896, 1.94628, 1.92249, 1.93038, 1.92498, 1.92422, 2.02748, 1.84805, 2.02733, 1.84966, 1.84818, 1.92373, 1.92526, 2.04177, 2.0451, 1.92492, 1.9287, 1.93111, 1.93233, 1.937, 2.03146, 1.86343, 2.03847, 2.03299, 2.03592, 2.00658, 2.02144, 2.00883, 2.00791, 2.0179, 2.02578, 2.00435, 1.93092, 1.93049, 2.00873, 2.00899, 2.00918, 2.01097, 2.00785, 2.00706, 2.02073, 1.9309, 2.04848, 2.03177, 2.01523, 2.0259, 2.03184, 2.02256, 1.93724, 2.01364, 2.01683, 2.03026, 2.03083, 2.03108, 2.01852, 2.0206, 2.01972, 2.0216, 2.04334, 2.02043, 2.02265, 2.02318, 2.04563, 2.03515, 2.03548, 2.03214, 1.9477, 2.03383, 2.05628, 2.02509, 2.02423, 2.02451, 2.02405, 2.02447, 2.02375, 2.02375, 2.04201, 2.04506, 2.04819, 2.02215, 2.0219, 1.94955, 1.94828, 1.94675, 1.94815, 2.02723, 1.95129, 2.05862, 2.05248, 1.8932, 1.89164, 1.89285, 1.88955, 1.88769, 1.88913, 1.88912, 2.08035, 1.98794, 1.88777, 1.88956, 1.88893, 1.94356, 1.88701, 2.07249, 2.08341, 1.89035, 2.0755, 1.88922, 1.88977, 1.89426, 1.89393, 1.89257, 2.08049, 1.94334, 1.94181, 1.96839, 1.9665, 1.89005, 1.88962, 1.93869, 1.89016, 1.89007, 1.8882, 1.88644, 2.06816, 1.88793, 1.88694, 1.93617, 1.93643, 1.96705, 1.93464, 1.86784, 1.81704, 1.86447, 1.81116, 1.80906, 1.80781, 1.80569, 1.85404, 1.80359, 1.80119, 1.80265, 1.79959, 1.79783, 1.91656, 1.79274, 1.79511, 1.84313, 1.79323, 1.84417, 1.84268, 1.78931, 1.92007, 1.78891, 1.78834, 1.9049, 1.91718, 1.78978, 1.78741, 1.78948, 1.83782, 1.78685, 1.78556, 1.83785, 1.83539, 1.78895, 1.91543, 1.78557, 1.78497, 1.78791, 1.8427, 1.78289, 1.78616, 1.78383, 1.78355, 1.78913
1.80808, 1.81023, 1.80481, 1.80637, 1.80728, 1.80569, 1.80513, 1.80319, 1.80412, 1.80499, 1.80098, 1.8022, 1.90083, 1.80178, 1.8024, 1.7981, 1.89395, 1.79985, 1.79944, 1.80043, 1.80045, 1.7955, 1.79607, 1.79616, 1.79636, 1.89932, 1.79564, 1.89488, 1.87252, 1.89049, 1.79346, 1.79516, 1.84418, 1.88395, 1.79408, 1.79325, 1.79326, 1.7933, 1.79196, 1.79118, 1.79131, 1.7921, 1.79527, 1.79455, 2.05155, 1.79551, 1.79688, 2.02316, 2.02396, 1.85786, 1.93694, 1.93804, 1.93834, 1.93842, 1.85866, 1.93356, 1.94373, 1.93136, 1.93186, 2.03586, 1.94237, 1.92782, 1.94611, 1.929, 1.92995, 1.94687, 1.95064, 1.92472, 1.92574, 1.84827, 1.94856, 1.92667, 1.92616, 1.9525, 1.84823, 1.95114, 1.92494, 1.92338, 1.92545, 2.04231, 1.93024, 1.95376, 1.9347, 1.8596, 1.93509, 1.86501, 1.94446, 2.05647, 2.04621, 1.88857, 1.92719, 2.01766, 2.01921, 2.01405, 2.00594, 1.92994, 2.00984, 1.92932, 1.93039, 1.92928, 2.01409, 2.00958, 2.0352, 2.02793, 1.93209, 1.93231, 2.02867, 2.00677, 2.01199, 2.01122, 2.00998, 2.02473, 2.02283, 2.03073, 2.01711, 1.93934, 2.03765, 2.03434, 2.03195, 1.94211, 2.02778, 2.03216, 2.02033, 2.03312, 2.0252, 2.0383, 2.01963, 1.94767, 2.02183, 2.04428, 2.04434, 2.03961, 2.04118, 1.94942, 2.0401, 2.02617, 2.0411, 2.02386, 2.02295, 1.94805, 2.02217, 2.04239, 2.0486, 2.02163, 2.02177, 1.94843, 1.9489, 1.94891, 2.0282, 2.02717, 2.03154, 2.05984, 2.02819, 1.94139, 1.88884, 2.07482, 1.89044, 1.88972, 1.95652, 2.05814, 1.98629, 1.88852, 1.88699, 1.88556, 1.94487, 1.94502, 1.94489, 1.88858, 1.88892, 1.89035, 1.89181, 2.07023, 1.88983, 1.88987, 1.88669, 1.89407, 1.89216, 1.89049, 1.88892, 2.05312, 1.94151, 2.06368, 2.07323, 1.93898, 1.93973, 1.93819, 1.88816, 2.05814, 2.05967, 2.06548, 1.88578, 1.93455, 1.88525, 1.88534, 2.05162, 1.95206, 1.90235, 1.90453, 1.81257, 1.91428, 1.87428, 1.85572, 1.85325, 1.80237, 1.85136, 1.79943, 1.91962, 1.91703, 1.79522, 1.79511, 1.84621, 1.92006, 1.79264, 1.84276, 1.79255, 1.79176, 1.92117, 1.79039, 1.9245, 1.78567, 1.78626, 1.78436, 1.7893, 1.92394, 1.83857, 1.90404, 1.8358, 1.83749, 1.78555, 1.91867, 1.91624, 1.91728, 1.90415, 1.84532, 1.84229, 1.91338, 1.91024, 1.78501, 1.78352, 1.78356
1.81062, 1.80861, 1.80851, 1.80611, 1.80688, 2.06529, 2.06279, 1.80625, 1.80337, 1.80681, 1.80429, 1.90645, 1.90816, 1.80539, 1.85045, 1.85119, 1.90294, 1.90321, 1.79825, 1.79969, 1.79672, 1.84741, 1.79948, 1.91587, 1.79886, 1.79881, 1.79514, 1.79662, 1.89332, 1.7931, 1.79349, 1.84309, 1.84496, 1.84478, 1.84404, 1.84391, 1.84271, 1.84438, 1.84478, 1.7927, 1.79444, 1.79457, 1.79498, 1.79584, 1.88977, 2.0524, 1.84947, 1.94142, 2.02091, 1.94107, 1.94103, 1.94118, 1.94175, 2.04004, 2.04, 1.85868, 1.94452, 2.0211, 1.93164, 1.85327, 1.92942, 1.92973, 1.92849, 1.8516, 1.85127, 1.85188, 1.92684, 1.92995, 1.94996, 1.94948, 1.92726, 1.8479, 1.94885, 1.92754, 1.84915, 1.95278, 1.92632, 1.92472, 2.0427, 1.92823, 1.93003, 1.8566, 1.95585, 1.93608, 1.93767, 1.95485, 1.94189, 2.03266, 2.03197, 2.05084, 1.93123, 2.00426, 2.01107, 2.00816, 2.00845, 1.92913, 1.92957, 1.93031, 1.92955, 2.00825, 2.01082, 2.00747, 2.0278, 2.02362, 2.02629, 2.02449, 2.00843, 2.02503, 2.01562, 2.04094, 2.01125, 2.01698, 2.00703, 2.03007, 2.03179, 1.94099, 1.94078, 2.02443, 2.02939, 2.03662, 2.02031, 2.02222, 2.03294, 2.04817, 2.02779, 2.02393, 2.02846, 2.03232, 2.03926, 2.02156, 2.02346, 2.02676, 2.04114, 2.02594, 2.03475, 2.03589, 2.03574, 2.02528, 2.02473, 2.03087, 2.03322, 2.02368, 2.02503, 2.02453, 2.02731, 2.02626, 1.95119, 1.94803, 1.9488, 2.02828, 1.94855, 2.02682, 2.02869, 1.89126, 1.98873, 2.0597, 1.88876, 1.88962, 1.88977, 1.98654, 1.98266, 1.8868, 1.88663, 1.88581, 1.88686, 1.97858, 1.94648, 1.8892, 1.88955, 1.8919, 1.89191, 1.89025, 2.08277, 1.89263, 1.88936, 1.89234, 1.89061, 1.89014, 1.94085, 1.94194, 1.93932, 2.06675, 1.88926, 1.94152, 1.93857, 1.93787, 1.88891, 2.07643, 2.0602, 2.05956, 1.88534, 1.93524, 1.93423, 1.9344, 1.9352, 1.90144, 1.90224, 1.86127, 1.86974, 1.80777, 1.80646, 1.80543, 1.80272, 1.85307, 1.85224, 1.85096, 1.7965, 1.79876, 1.85027, 1.84861, 1.91874, 1.79594, 1.84384, 1.79301, 1.79213, 1.7912, 1.79042, 1.79004, 1.79181, 1.78689, 1.91867, 1.78907, 1.78693, 1.7859, 1.9219, 1.8378, 1.83943, 1.78687, 1.91886, 1.78671, 1.7861, 1.91812, 1.78593, 1.78656, 1.90791, 1.91359, 1.7885, 1.91059, 1.78423, 1.90366
1.86134, 1.86037, 1.86038, 1.98178, 2.09159, 1.80581, 1.80628, 1.80516, 1.80512, 1.80617, 1.8057, 1.80153, 1.80414, 1.80249, 1.85189, 1.80342, 1.85137, 1.85417, 1.80017, 1.80123, 1.80184, 1.7984, 1.89044, 1.79905, 1.79857, 1.79918, 1.90213, 1.79763, 1.7941, 1.79634, 1.79582, 1.79653, 1.79407, 1.79419, 1.79452, 1.79332, 1.79591, 1.84404, 1.79309, 1.90593, 1.7951, 1.79536, 1.79505, 1.88887, 1.79518, 1.7968, 1.93872, 1.93881, 2.02433, 1.94272, 1.94205, 1.93629, 1.86414, 1.85968, 1.94103, 1.8598, 1.94538, 1.85618, 1.93206, 1.93366, 1.93184, 1.946, 1.93244, 1.92994, 1.92938, 1.95142, 1.92857, 1.92893, 1.95213, 1.92623, 1.95084, 1.92452, 1.92694, 1.92392, 2.03337, 1.92149, 1.95471, 1.9557, 1.92914, 1.92933, 1.85533, 1.8554, 1.85773, 1.9361, 1.95595, 1.94155, 1.95286, 2.03464, 2.04513, 2.02793, 2.02379, 2.03333, 1.93032, 2.01494, 2.00711, 2.00782, 2.00443, 1.9298, 1.93068, 2.01007, 2.01337, 2.01402, 2.02341, 2.00855, 2.01212, 2.00887, 2.01304, 2.01351, 2.01086, 2.01031, 2.02551, 2.01864, 2.01348, 2.0141, 2.0247, 2.03122, 2.03813, 2.03152, 2.03745, 2.02468, 2.02828, 2.04861, 1.94518, 2.03453, 2.02432, 2.02046, 2.02953, 1.94736, 2.0289, 2.02453, 2.04543, 2.02367, 2.04928, 1.94861, 2.03226, 2.0382, 2.04033, 2.02519, 2.02999, 2.04185, 2.02495, 2.02659, 2.02705, 2.02749, 2.02447, 1.94889, 2.02614, 2.02798, 2.02842, 2.0375, 2.04071, 2.05039, 2.05174, 1.89277, 1.89099, 1.89068, 1.89074, 2.07373, 1.8874, 1.88774, 1.88886, 1.88752, 1.8883, 1.88812, 1.888, 2.07118, 1.8869, 1.88841, 1.89077, 1.9753, 1.89123, 1.94418, 1.89355, 1.88939, 2.07313, 1.89585, 2.07887, 1.89144, 1.89023, 1.94183, 2.08035, 2.08248, 1.892, 1.93794, 1.93841, 1.88658, 1.88659, 1.88735, 2.07644, 1.88674, 1.88573, 1.88609, 1.93514, 1.94844, 1.93476, 1.81422, 1.81352, 1.86137, 1.86213, 1.87893, 1.91591, 1.90971, 1.80198, 1.80229, 1.79934, 1.85062, 1.79898, 1.84724, 1.79546, 1.7958, 1.79295, 1.79242, 1.87684, 1.84259, 1.78961, 1.92216, 1.7906, 1.78868, 1.78862, 1.78399, 1.7891, 1.78629, 1.92833, 1.7857, 1.78533, 1.91677, 1.78288, 1.78593, 1.92195, 1.78803, 1.78797, 1.78494, 1.78609, 1.78582, 1.90072, 1.78592, 1.91124, 1.78631, 1.78785, 1.78554
1.87112, 1.87188, 1.81296, 1.81019, 1.81066, 1.80767, 1.81005, 1.80847, 1.80522, 1.80989, 2.06187, 2.06278, 1.80387, 1.80395, 1.8057, 1.80364, 1.90104, 1.90035, 1.8034, 1.8021, 1.80348, 1.80141, 1.80095, 1.9211, 1.88569, 1.79857, 1.90657, 1.79995, 1.79742, 1.79775, 1.79687, 1.7941, 1.98105, 1.89949, 1.90051, 1.79553, 1.79632, 1.79668, 1.79453, 1.79635, 1.90821, 1.89952, 1.87559, 1.9129, 1.79751, 1.79948, 1.97243, 1.86331, 1.94007, 1.86528, 1.93979, 1.94806, 2.02271, 1.94389, 1.93536, 1.93481, 1.93354, 2.03197, 1.94177, 1.94608, 1.93044, 1.9484, 1.95138, 1.94966, 1.93026, 1.9511, 1.92722, 1.92679, 1.9513, 1.92628, 2.02837, 2.0496, 1.9238, 1.92714, 1.92688, 1.95433, 1.84931, 1.851, 1.92835, 1.85224, 1.93173, 1.93391, 1.93431, 1.86177, 1.86173, 1.94278, 1.86807, 2.04363, 2.04498, 2.01168, 2.00943, 2.01126, 2.01784, 2.00895, 2.01767, 2.00813, 1.93199, 1.93129, 2.00461, 2.00953, 2.01612, 2.00858, 1.93215, 2.0084, 2.01323, 2.02183, 2.00988, 2.01079, 2.02017, 2.01192, 2.01343, 2.0145, 2.01524, 1.93982, 1.93993, 2.013, 2.02202, 2.02254, 2.01682, 1.94139, 2.04206, 2.03249, 2.03438, 1.94484, 2.02802, 2.05209, 2.04144, 1.94778, 2.03865, 2.03072, 2.03874, 2.02646, 2.04631, 2.03546, 2.0291, 2.02676, 2.04476, 2.0349, 2.02389, 2.0248, 1.94838, 2.0256, 2.02507, 2.02696, 2.02669, 2.02697, 1.9494, 2.02894, 2.0307, 2.02879, 2.03782, 1.95125, 2.02858, 1.89291, 1.89231, 1.89183, 1.89064, 2.07782, 1.88632, 1.93984, 1.88607, 1.88979, 1.88831, 2.06133, 1.88611, 2.06358, 1.88733, 1.88792, 1.93948, 1.89234, 2.05591, 1.97488, 1.97371, 1.89236, 1.88978, 2.08719, 1.89289, 1.89147, 2.07501, 1.88912, 1.88961, 2.07349, 2.07315, 1.93896, 1.88709, 1.94782, 1.9377, 1.88673, 1.88642, 1.88436, 2.08343, 1.8837, 1.93576, 1.88328, 1.88232, 1.81264, 1.81302, 1.8097, 1.80946, 1.80629, 1.80493, 1.80363, 1.80113, 1.80239, 1.87619, 1.79907, 1.84647, 1.84794, 1.93033, 1.7925, 1.79519, 1.79319, 1.84447, 1.84259, 1.9204, 1.78999, 1.7905, 1.84089, 1.78931, 1.92422, 1.92029, 1.78521, 1.92147, 1.78729, 1.78411, 1.91799, 1.78742, 1.78651, 1.78575, 1.78415, 1.78702, 1.78376, 1.78547, 1.90659, 1.90324, 1.7847, 1.78356, 1.7851, 1.78614, 1.90543
1.8109, 1.81124, 1.81042, 1.81349, 2.08373, 1.81175, 1.85958, 1.85955, 1.80815, 1.8058, 1.90582, 1.80498, 1.85713, 1.80391, 1.90422, 2.07753, 1.89677, 1.80122, 1.80369, 1.80306, 1.8042, 1.80383, 1.80363, 1.80128, 1.80133, 1.80047, 1.8003, 1.79902, 1.79977, 1.79936, 1.90279, 1.90035, 1.79681, 1.7981, 1.79696, 1.79792, 1.79783, 1.79706, 1.79624, 1.79606, 1.90024, 1.90295, 1.79788, 1.7989, 1.8, 1.80125, 1.79956, 1.93901, 1.94188, 1.9412, 1.94118, 1.94351, 1.9358, 1.93863, 1.94467, 1.9453, 1.93504, 1.85543, 1.93196, 1.93042, 1.94822, 1.93106, 1.85283, 1.93057, 1.8521, 1.9319, 1.92771, 1.95293, 1.84843, 1.95185, 1.84811, 2.04486, 1.9237, 1.95538, 1.84925, 1.95612, 1.92441, 1.92797, 1.92706, 1.95489, 1.93106, 1.93108, 1.957, 2.03231, 1.95811, 1.94445, 1.95285, 1.95224, 2.05882, 1.89088, 1.93207, 2.00739, 2.00753, 1.93166, 2.01797, 2.01915, 1.93147, 1.93096, 1.93182, 2.01003, 2.01097, 1.93089, 2.03124, 2.01014, 2.02043, 2.01123, 2.01272, 2.01179, 2.01045, 2.0257, 1.93669, 2.02961, 2.01682, 1.94101, 2.03836, 2.03928, 2.01797, 2.01853, 2.01812, 2.0418, 1.94458, 2.02957, 2.0281, 2.02928, 2.02103, 2.02259, 2.02355, 2.02359, 2.02912, 2.02695, 2.05117, 2.0277, 2.03523, 2.03554, 2.0378, 2.03749, 2.03866, 2.03552, 2.0242, 2.04902, 1.94846, 1.94943, 2.029, 2.02631, 2.02587, 1.94944, 2.0276, 2.03177, 2.02965, 2.02583, 2.04823, 2.04656, 2.039, 2.02748, 1.8934, 1.88895, 1.89317, 1.88558, 1.88814, 1.94061, 1.8868, 1.88679, 1.88901, 2.06596, 2.06385, 1.88874, 1.89058, 1.89032, 1.8901, 1.88794, 1.97368, 1.94212, 1.94174, 1.88744, 1.89023, 2.07212, 1.88937, 2.07918, 1.89221, 2.07458, 1.88991, 1.88996, 1.88962, 1.88791, 1.94055, 2.08013, 1.88715, 1.88473, 1.88892, 1.88241, 2.07634, 1.88436, 1.88331, 1.88268, 1.88244, 1.81353, 1.81057, 1.81058, 1.8073, 1.80471, 1.80469, 1.80506, 1.8018, 1.80044, 1.89335, 1.90959, 1.79695, 1.79415, 1.79636, 1.7936, 1.79509, 1.91504, 1.79235, 1.86848, 1.79265, 1.90852, 1.90616, 1.84059, 1.91991, 1.91706, 1.78659, 1.9203, 1.78844, 1.91751, 1.7854, 1.78488, 1.78685, 1.78627, 1.78527, 1.78801, 1.78811, 1.78795, 1.78966, 1.83686, 1.83485, 1.78649, 1.78569, 1.90723, 1.78519, 1.90715
1.81435, 1.81304, 1.81072, 1.86143, 1.86215, 1.81024, 1.86032, 1.86094, 1.80793, 1.80924, 1.90705, 1.80693, 1.80458, 1.80434, 1.80413, 1.80545, 1.80722, 1.9067, 2.05794, 1.8059, 1.80555, 1.80609, 2.08091, 1.80361, 1.90435, 1.80226, 1.90501, 2.08257, 1.80003, 1.80176, 1.79696, 1.90307, 1.89172, 1.79858, 1.79934, 1.80032, 2.07252, 1.89943, 1.79812, 1.9093, 1.79782, 1.84724, 1.79917, 1.79984, 1.80078, 1.80292, 1.94468, 1.94027, 1.94143, 1.86583, 1.94058, 1.86437, 1.93829, 2.02717, 1.94539, 1.93531, 1.93616, 1.94768, 1.94913, 1.93196, 1.93096, 1.92891, 1.85269, 1.85321, 1.85196, 1.95128, 2.0358, 1.926, 1.93054, 1.95275, 1.9277, 1.92685, 1.9246, 1.92553, 1.92586, 2.0342, 2.03399, 1.85064, 1.92831, 1.85439, 1.93022, 1.95786, 1.93247, 1.93722, 2.06221, 1.86536, 1.95204, 1.95297, 2.07402, 2.02426, 2.00987, 2.02944, 2.00988, 2.0137, 2.01843, 1.9313, 1.93363, 1.93313, 1.93287, 1.9324, 1.93245, 2.007, 2.00685, 2.02304, 2.01063, 2.02702, 2.02136, 2.01103, 1.93536, 2.01378, 2.01525, 2.02131, 2.02601, 2.03207, 2.03056, 2.03785, 1.94252, 2.02804, 2.01773, 2.03759, 2.03341, 1.94699, 2.02326, 2.02176, 2.03202, 2.03223, 2.03638, 2.03132, 2.02721, 1.94882, 2.03116, 2.02372, 1.95111, 2.02502, 2.05204, 2.02587, 1.94929, 2.02766, 2.04937, 2.02713, 2.03774, 1.94887, 2.03136, 1.94884, 1.9491, 2.02704, 2.03029, 2.03124, 2.03133, 2.02806, 2.02814, 2.02844, 2.029, 1.95176, 1.88906, 2.0523, 1.89055, 1.88705, 1.97712, 1.94225, 1.94414, 1.88722, 1.88613, 1.88633, 1.98652, 1.89195, 1.88713, 1.94682, 1.98702, 1.98559, 1.88902, 2.07951, 1.8932, 1.8909, 2.08567, 2.0704, 2.06313, 1.89111, 1.8898, 1.88956, 1.88879, 1.95096, 2.06022, 1.88761, 1.88709, 1.88607, 1.88702, 1.88563, 2.06742, 1.88204, 1.88279, 1.88176, 1.88057, 1.8814, 1.88252, 1.80908, 1.81154, 1.80829, 1.91389, 1.80339, 1.80402, 1.91683, 1.84982, 1.80078, 1.79819, 1.79939, 1.79683, 1.79583, 1.79627, 1.79399, 1.79567, 1.91758, 1.79267, 1.79159, 1.84011, 1.7914, 1.79053, 1.79061, 1.78809, 1.78868, 1.78602, 1.78912, 1.78681, 1.78867, 1.78585, 1.78695, 1.91652, 1.91633, 1.88659, 1.7859, 1.91341, 1.91294, 1.78569, 1.83804, 1.78894, 1.90991, 1.78343, 1.90995, 1.90424, 1.8938
1.81535, 1.8163, 1.81451, 1.81441, 1.81443, 1.89443, 1.89398, 1.81136, 2.08253, 1.81003, 1.80733, 1.8084, 1.80967, 1.80693, 2.06296, 2.08493, 1.85479, 1.80621, 1.80403, 1.80555, 1.80608, 1.80632, 1.80432, 1.8049, 1.80047, 1.79994, 1.79996, 1.79939, 1.80027, 1.8918, 1.79903, 1.90351, 1.80021, 1.79991, 1.79934, 1.90158, 1.90959, 1.91062, 1.84794, 1.79995, 1.79942, 1.79901, 1.80086, 1.80009, 1.97933, 1.80087, 2.02137, 2.02231, 1.94861, 1.94793, 1.94102, 2.02486, 1.94578, 1.94742, 1.94966, 1.93634, 1.94966, 1.95562, 1.93295, 1.95024, 1.93416, 1.9317, 1.95159, 1.85534, 1.93109, 1.92945, 1.9292, 1.85179, 1.92767, 1.93092, 1.92546, 1.92731, 1.92717, 1.92476, 1.92716, 1.92686, 1.93093, 1.85156, 1.9287, 2.04807, 1.9596, 1.95824, 2.03752, 1.94075, 1.86327, 1.94469, 1.94643, 1.95783, 2.05934, 2.02447, 2.00929, 2.01059, 2.00748, 2.02175, 2.02384, 2.01194, 2.01155, 2.01076, 1.93366, 1.93164, 1.93168, 1.93382, 2.00998, 1.93401, 1.93422, 2.01417, 2.03196, 2.03393, 2.02194, 2.02137, 2.02243, 2.02861, 2.02774, 2.02838, 2.02732, 2.03116, 2.02724, 2.03367, 2.01876, 2.01832, 1.94495, 1.94503, 2.0246, 2.02518, 2.02152, 1.94791, 2.04556, 1.95171, 1.94878, 2.0279, 1.9488, 2.02526, 2.04472, 2.03159, 2.02448, 2.04234, 2.02515, 2.05197, 2.05611, 2.03891, 2.02709, 1.94985, 2.04997, 2.0419, 2.02697, 2.02722, 2.02603, 1.95152, 2.03078, 2.03077, 1.95292, 2.03025, 2.04595, 1.89375, 1.98054, 2.05543, 2.05586, 1.88976, 1.88888, 1.94496, 1.94813, 1.88845, 1.886, 1.88865, 1.88643, 1.9802, 1.88919, 1.94828, 1.94636, 1.94734, 1.89142, 1.8899, 1.89058, 1.89229, 2.07352, 1.89061, 1.89004, 2.07603, 1.89203, 1.89081, 1.9388, 2.0585, 2.069, 1.88735, 2.0742, 1.88521, 1.97177, 1.97056, 1.88665, 1.88252, 1.88251, 2.07864, 1.88384, 1.88171, 1.88012, 1.81157, 1.80856, 1.92103, 1.92019, 1.91558, 1.80399, 1.85179, 1.80058, 1.80034, 1.8007, 1.91281, 1.91087, 1.79768, 1.91707, 1.79434, 1.91725, 1.91219, 1.78873, 1.79219, 1.79231, 1.83913, 1.79026, 1.79008, 1.78888, 1.78766, 1.78659, 1.7857, 1.7864, 1.91708, 1.78554, 1.786, 1.78509, 1.7844, 1.78315, 1.78664, 1.9152, 1.91321, 1.78436, 1.78537, 1.83825, 1.83584, 1.91021, 1.90778, 1.88046, 1.90513
1.88264, 1.81712, 1.81699, 1.81595, 1.88292, 1.81455, 1.81653, 1.81132, 1.86199, 1.81066, 1.81134, 1.9101, 1.80792, 1.8069, 1.80729, 1.80892, 1.80993, 1.85581, 1.80706, 1.80457, 1.80472, 1.9041, 1.90514, 1.80317, 1.93134, 1.89617, 1.9087, 1.89999, 1.89672, 1.90438, 1.79744, 1.80099, 1.80082, 1.80239, 1.89633, 1.904, 1.90467, 1.85074, 1.84857, 1.80051, 1.79996, 1.79904, 1.97595, 1.80153, 1.80295, 1.80204, 2.04393, 1.86666, 1.8658, 1.94303, 1.94899, 1.9482, 1.94115, 1.9392, 1.94115, 1.95072, 1.95162, 1.86163, 1.85847, 2.02584, 1.93554, 1.93264, 1.95127, 1.93067, 1.93005, 1.85393, 2.03939, 1.95516, 2.04206, 1.92724, 1.95514, 1.92601, 1.92721, 1.85063, 1.92877, 1.92801, 1.95894, 1.9578, 1.9584, 1.93109, 1.93274, 1.93351, 1.93479, 1.86287, 1.94069, 1.86558, 1.96243, 1.9516, 2.04617, 2.02491, 2.01301, 2.01042, 1.93334, 2.01694, 1.93385, 2.02352, 2.01138, 2.01343, 1.93484, 1.93124, 1.9295, 2.01657, 2.01522, 2.0066, 2.01445, 2.01172, 1.93575, 2.0259, 2.0279, 2.03331, 2.03004, 2.02743, 2.03168, 2.02336, 2.03168, 2.01858, 1.94444, 2.02177, 2.02205, 2.01917, 2.02316, 2.03817, 1.94737, 2.03627, 2.03385, 2.0292, 1.94862, 2.03366, 2.0257, 2.04822, 2.03425, 2.02746, 2.03509, 2.04927, 2.03176, 2.02634, 2.02778, 2.03172, 2.04145, 1.94908, 2.02522, 2.02614, 2.05177, 2.02749, 2.02829, 2.02583, 1.95191, 1.95177, 2.03173, 2.03107, 2.03112, 1.95261, 2.04578, 2.04396, 1.89314, 1.97893, 2.08023, 1.88884, 1.88872, 1.8879, 1.93677, 1.88565, 1.88628, 1.88426, 1.8875, 1.88769, 1.88809, 1.94648, 1.94666, 1.94648, 1.89193, 1.89111, 1.88981, 1.94449, 1.89124, 1.88864, 2.06866, 1.88972, 2.0847, 1.89123, 1.99008, 1.8897, 1.88895, 1.88758, 1.88629, 1.88671, 2.07065, 1.93483, 1.97596, 1.88246, 2.05678, 1.8815, 1.88357, 1.8788, 1.87967, 1.81163, 1.80982, 1.91673, 1.91387, 1.80438, 1.85322, 1.89747, 1.79928, 1.90778, 1.9148, 1.91055, 1.79733, 1.90688, 1.79683, 1.79625, 1.91647, 1.91265, 1.79196, 1.79058, 1.79202, 1.78972, 1.78872, 1.91418, 1.91738, 1.91685, 1.78746, 1.7887, 1.78668, 1.9687, 1.78589, 1.78713, 1.78248, 1.78466, 1.78617, 1.78531, 1.78712, 1.78551, 1.78588, 1.78659, 1.78663, 1.78715, 1.91364, 1.78492, 1.90826, 1.78629
1.81828, 1.8179, 1.81777, 1.81834, 1.81324, 1.8169, 1.81638, 1.81285, 1.86483, 1.81257, 1.90821, 1.8099, 1.81154, 1.81054, 1.80791, 1.91318, 1.81041, 1.80735, 1.8092, 1.8063, 1.80622, 1.80646, 1.89262, 1.80246, 1.80434, 1.80283, 1.80326, 1.80286, 1.85338, 1.80132, 1.80215, 1.80296, 1.79963, 1.80227, 1.90126, 1.80032, 1.8001, 1.85049, 1.80247, 1.80216, 1.80121, 1.80087, 1.80057, 1.80029, 1.97606, 1.80387, 1.80325, 1.86729, 2.03062, 2.03234, 2.02752, 2.03107, 1.94123, 2.02742, 1.86115, 1.86171, 1.86188, 1.94137, 2.02843, 1.95215, 1.95435, 1.93267, 1.85451, 1.93042, 2.03223, 1.85258, 1.93038, 1.95538, 1.92853, 1.92678, 1.85212, 1.9565, 1.95767, 1.92699, 1.95893, 1.92742, 1.95735, 1.92705, 1.92912, 1.93044, 1.85592, 1.9606, 1.95912, 1.96182, 1.95944, 2.0629, 2.04437, 1.8754, 2.05876, 2.01442, 2.02193, 2.02013, 2.01852, 2.03475, 2.00936, 1.93379, 2.01405, 2.01302, 1.93366, 1.93162, 1.93321, 1.93407, 2.01784, 2.00996, 2.01782, 1.93462, 1.93558, 2.03359, 2.02584, 1.93763, 2.03369, 1.93822, 1.94103, 2.02739, 2.03475, 2.01668, 1.94409, 2.02435, 2.02081, 2.0383, 2.02659, 2.02602, 2.02812, 2.03528, 2.03192, 2.02361, 2.04842, 2.04805, 2.04294, 2.03223, 1.95109, 2.02274, 2.02227, 2.02328, 2.04185, 2.02772, 2.03552, 2.02766, 2.02656, 1.95105, 2.03887, 2.02717, 2.02766, 2.02733, 2.03191, 2.02962, 2.03282, 2.03407, 2.03095, 2.03165, 2.03779, 2.02833, 2.05119, 2.04527, 1.89405, 1.89196, 1.89055, 1.98815, 1.88674, 1.88686, 1.93793, 1.93732, 1.88633, 1.88778, 1.88647, 1.88508, 1.88735, 1.97791, 1.9459, 1.948, 1.89075, 2.07979, 2.09149, 1.88888, 1.88931, 1.89041, 1.88997, 1.89261, 1.89101, 1.88972, 1.97252, 1.88936, 1.89055, 1.8871, 1.93662, 1.88496, 1.88531, 1.88251, 1.97793, 2.07428, 2.06945, 1.88287, 1.88054, 1.88028, 1.88107, 1.80984, 1.80786, 1.80759, 2.11204, 1.80248, 1.8038, 1.85004, 1.80018, 1.87516, 1.87316, 1.79731, 1.91172, 1.90985, 1.79367, 1.79213, 1.79539, 1.79456, 1.79155, 1.91301, 1.911, 2.01009, 1.886, 1.88658, 1.91349, 1.98797, 1.78732, 1.78856, 1.9137, 1.91645, 1.92271, 1.91951, 1.89413, 1.78852, 1.78637, 1.78585, 1.78537, 1.89745, 1.89618, 1.7868, 1.89588, 1.83679, 1.78547, 1.78699, 1.7858, 1.90761
1.81967, 1.8158, 1.82044, 1.81959, 1.81422, 1.81645, 1.8142, 1.81482, 1.81368, 1.8155, 1.8128, 2.0867, 1.81136, 1.81295, 1.81277, 1.81098, 1.81024, 1.80404, 1.80772, 1.80892, 1.80687, 1.85646, 1.8581, 1.80667, 1.80638, 1.80578, 1.80391, 1.80358, 1.90805, 1.9082, 1.86196, 1.80128, 1.80154, 1.90143, 1.80358, 1.90732, 1.85452, 1.80073, 1.80327, 1.80246, 1.90629, 1.90025, 1.80085, 1.80243, 1.80531, 1.85483, 1.89105, 2.0345, 2.0271, 2.03453, 2.02931, 2.03405, 2.02807, 1.94182, 2.02928, 2.04849, 1.95079, 1.93543, 1.95125, 2.0299, 1.93419, 1.93424, 1.93236, 2.05519, 1.93308, 1.95515, 1.95679, 1.85367, 1.93005, 1.92785, 1.92797, 1.95854, 1.92763, 1.92687, 1.9271, 1.93023, 1.92708, 1.9288, 1.95829, 1.93239, 1.93498, 1.9358, 1.93695, 1.93708, 1.86574, 1.96097, 1.9502, 1.95504, 2.05287, 2.00756, 2.00743, 2.01223, 2.0255, 1.9337, 2.02048, 2.01414, 2.01242, 2.01492, 1.93432, 1.9333, 1.93459, 2.0236, 2.03522, 1.93399, 2.01112, 2.02297, 1.93668, 2.00771, 2.01571, 2.02035, 1.93875, 2.01861, 2.02554, 1.94173, 2.01792, 2.03607, 2.04121, 2.02604, 2.02111, 2.02176, 2.02931, 1.94724, 2.03895, 2.03599, 2.02811, 2.03396, 2.03951, 2.03865, 2.0351, 1.94934, 1.94902, 2.02574, 2.02658, 2.03707, 2.02866, 2.03076, 2.0277, 2.03557, 2.02749, 2.02758, 2.02685, 2.0272, 2.02846, 2.03304, 2.03141, 2.02875, 2.03388, 2.03237, 2.03418, 2.02902, 2.04108, 2.04247, 2.0457, 2.04491, 2.06011, 1.89252, 2.05929, 1.89099, 1.88856, 1.88568, 1.88872, 1.88584, 1.88599, 1.88864, 1.88908, 1.88625, 1.8879, 1.88796, 1.8877, 1.88898, 2.07321, 1.88921, 1.89213, 1.89068, 1.88954, 1.89057, 2.06065, 1.8925, 2.05992, 2.07296, 1.89132, 1.88982, 1.88891, 1.88695, 1.97527, 1.88532, 1.88491, 2.06828, 1.88544, 1.88554, 1.88388, 1.88082, 1.88238, 1.88058, 1.88209, 1.90024, 1.80912, 1.80561, 1.80328, 1.80119, 1.85239, 1.91204, 1.85096, 1.85038, 1.7968, 1.84773, 1.89203, 1.84666, 1.84679, 1.84493, 1.79597, 1.79392, 1.79319, 1.91521, 1.88218, 1.96611, 1.88448, 1.88179, 1.78582, 1.91344, 1.88535, 1.78757, 1.78969, 1.78847, 1.78752, 1.78607, 1.78722, 1.78262, 1.90425, 1.9017, 1.89976, 1.83564, 1.83707, 1.78547, 1.83675, 1.83759, 1.78651, 1.78496, 1.78429, 1.78827
1.8217, 1.8201, 1.81751, 1.817, 1.8175, 1.81744, 1.81731, 1.8168, 1.81418, 1.81425, 1.81666, 1.81271, 1.81344, 1.811, 1.91125, 1.91059, 1.81043, 1.81138, 1.80747, 1.81107, 1.85746, 1.85883, 1.80671, 1.80796, 1.80592, 1.85685, 1.80478, 1.80582, 1.80618, 1.80502, 1.90307, 1.90492, 1.85465, 1.80404, 1.90787, 1.90644, 1.80201, 1.80233, 1.80266, 1.80365, 1.8533, 1.80461, 1.9788, 1.80265, 1.85529, 1.96449, 1.85616, 1.95188, 1.95319, 2.03496, 2.03538, 2.03619, 2.02824, 2.03099, 1.95509, 1.8623, 1.86283, 1.93636, 1.95573, 1.93475, 1.93354, 1.95446, 2.0321, 1.93512, 1.95868, 1.93168, 1.85238, 1.95894, 2.03521, 1.92771, 1.92906, 1.95845, 2.05296, 1.92685, 1.96176, 1.8509, 1.85106, 1.96049, 1.85512, 1.93402, 1.93393, 1.8594, 2.05654, 2.04605, 1.9613, 1.9449, 1.95597, 1.96298, 2.03935, 2.02428, 2.0266, 2.02056, 2.0213, 2.01516, 2.01468, 2.01703, 2.01735, 1.93492, 1.93497, 1.93258, 1.93399, 2.01361, 1.9344, 1.93533, 2.02368, 2.01766, 2.04092, 2.03093, 2.0185, 1.93911, 2.03002, 2.02899, 2.03486, 2.02613, 2.02593, 2.03077, 2.01921, 1.94263, 2.03997, 2.03916, 2.03744, 2.02141, 1.9448, 2.04081, 2.03732, 2.03872, 2.0382, 2.03378, 2.042, 2.04538, 2.04505, 1.95116, 1.95094, 2.04167, 2.04621, 2.0352, 2.03159, 2.03405, 2.03663, 2.03972, 2.03837, 2.02554, 2.02835, 2.02945, 2.03292, 2.03457, 2.02906, 2.03288, 2.03203, 2.03523, 2.02914, 2.0315, 2.02924, 2.08934, 1.89304, 2.06211, 1.8886, 1.88782, 1.88947, 2.0617, 2.07608, 2.0617, 1.88533, 2.08425, 1.88532, 1.88327, 1.88858, 1.88821, 1.88815, 1.88652, 1.88952, 1.88983, 1.89154, 2.07313, 1.98183, 1.94334, 1.9408, 1.89228, 2.08353, 1.89052, 1.8915, 1.89048, 1.88654, 1.88857, 1.88765, 2.07649, 1.88614, 1.88348, 1.93377, 1.88278, 2.05894, 1.8795, 1.87719, 1.88194, 1.87971, 1.81029, 1.89726, 1.806, 1.8037, 1.80361, 1.85296, 1.91404, 1.8007, 1.79939, 1.89484, 1.7975, 1.84739, 1.84822, 1.84728, 1.84531, 1.79266, 1.79345, 1.90986, 1.78913, 1.79051, 1.78906, 1.78969, 1.88507, 1.78846, 1.78879, 1.78787, 1.84101, 1.91152, 1.78744, 1.78483, 1.7851, 2.01922, 1.78309, 1.78538, 1.91309, 1.91447, 1.78628, 1.90879, 1.78768, 1.78641, 1.90375, 1.90208, 1.78528, 1.78692, 1.786
1.92562, 1.82357, 2.09009, 1.81988, 1.81859, 1.82016, 1.81927, 1.81775, 1.81552, 1.8144, 1.81449, 1.81374, 1.8143, 1.8133, 1.81518, 1.81146, 1.91354, 1.91258, 1.8125, 1.81127, 1.80892, 1.8102, 1.80957, 1.91378, 1.80763, 1.85883, 1.80653, 1.9278, 1.80874, 1.80787, 1.90571, 1.80367, 1.80455, 1.85547, 1.80612, 1.92353, 1.92428, 1.85494, 1.85511, 1.85535, 1.80345, 1.80559, 1.80647, 1.88951, 1.80364, 1.85765, 1.94617, 1.94657, 1.9455, 1.94315, 1.94215, 1.9422, 1.94371, 1.86506, 1.93784, 1.93867, 1.86208, 1.93692, 1.93501, 1.93567, 1.93418, 1.95645, 1.85598, 1.93286, 1.93144, 1.93295, 1.93083, 2.05912, 2.03906, 1.95957, 1.92819, 1.93088, 2.03713, 1.92779, 1.92983, 1.85282, 1.85255, 1.85301, 1.96192, 1.962, 1.93698, 2.05193, 1.8623, 1.94321, 1.9629, 1.94838, 1.87433, 1.8764, 2.06546, 2.02579, 1.93616, 2.03105, 1.93581, 1.93426, 2.03035, 2.03082, 2.01468, 1.93375, 1.93485, 1.93526, 2.01181, 2.01547, 2.01277, 2.03113, 2.02745, 2.02498, 2.01893, 2.03265, 2.02535, 2.03625, 1.93988, 2.02233, 2.03846, 2.02039, 2.02096, 1.94436, 2.02083, 2.02099, 2.03893, 1.94746, 2.04165, 1.94733, 2.03104, 1.9474, 2.02717, 2.03136, 1.94953, 2.02493, 2.02742, 2.02788, 1.95213, 2.03662, 2.02779, 2.03799, 2.0489, 2.05278, 2.04976, 2.03958, 2.02796, 2.02892, 2.02942, 2.02778, 2.04177, 2.03471, 2.03254, 2.03304, 2.03386, 2.02856, 2.03448, 2.02931, 1.95295, 2.02888, 2.03177, 1.89023, 1.89173, 1.89155, 1.8914, 1.88823, 1.88919, 1.88886, 1.88586, 1.9888, 1.88374, 1.9855, 1.8866, 1.98987, 1.88856, 1.88755, 2.06537, 2.06662, 1.97901, 1.89014, 1.94152, 1.8914, 1.89079, 1.89282, 1.89253, 1.88956, 1.89278, 1.94084, 1.89261, 1.88999, 1.88925, 1.89044, 1.88861, 1.88638, 1.88462, 1.88456, 1.88234, 1.88147, 1.88186, 2.06616, 1.88047, 1.87918, 1.8783, 1.81283, 1.85826, 1.89614, 1.80434, 1.80254, 1.80175, 1.80346, 1.9228, 1.89581, 1.89745, 1.89321, 1.79594, 1.88718, 1.84478, 1.84616, 1.79287, 1.79211, 1.79266, 1.79208, 1.79064, 1.79257, 1.8388, 1.83789, 1.78912, 1.78917, 1.7862, 1.78539, 1.7866, 1.91673, 1.85673, 1.7881, 1.78517, 1.78079, 1.84448, 1.78755, 1.913, 1.78625, 1.88171, 1.91217, 1.78675, 1.78628, 1.78568, 1.78504, 1.7861, 1.78529
1.824, 2.08341, 1.82308, 1.82379, 1.99547, 1.81832, 2.08605, 1.81927, 1.86883, 1.81839, 1.81517, 1.81734, 1.81446, 1.81616, 1.91439, 1.81115, 1.80999, 1.81169, 1.91173, 1.81207, 1.81003, 1.81158, 1.81246, 1.90622, 1.81031, 1.91046, 1.8083, 1.85805, 1.80605, 1.80901, 1.90693, 1.80654, 1.80704, 1.80735, 1.85566, 1.85585, 1.80586, 1.80611, 1.80567, 1.8063, 1.98938, 1.98054, 1.80669, 1.80642, 1.85689, 1.80633, 1.95223, 1.95046, 1.95171, 1.94746, 1.94547, 1.86629, 1.9515, 1.86164, 1.86461, 1.94248, 1.86286, 1.8617, 1.93712, 1.9544, 1.85919, 1.93397, 2.03399, 1.85798, 1.93152, 1.93269, 1.9277, 2.03508, 2.04146, 1.95876, 1.85186, 2.03959, 1.96082, 1.92993, 1.96212, 2.05632, 2.04173, 1.93036, 1.93236, 1.96341, 1.96282, 1.93482, 1.96346, 1.94188, 1.94363, 1.87157, 1.94932, 1.96507, 2.07676, 2.0342, 2.0147, 2.03438, 2.03394, 2.02552, 2.02944, 1.93603, 1.9373, 1.93548, 1.93502, 1.93537, 1.93505, 2.01193, 2.01737, 1.93771, 2.0239, 2.01443, 2.02809, 2.02929, 1.93842, 2.03084, 2.03527, 2.01632, 2.03488, 2.04028, 1.94544, 2.05696, 2.04836, 2.02279, 2.02673, 2.02363, 2.04524, 2.04233, 2.04179, 2.02208, 2.03229, 2.02836, 2.04365, 2.04298, 2.03282, 2.03063, 2.02824, 2.02628, 1.9509, 1.95307, 1.95211, 2.03667, 2.03807, 1.95124, 1.95124, 1.95232, 2.03038, 2.02811, 1.9513, 2.03185, 2.02901, 2.03551, 2.03239, 2.03614, 2.03681, 2.03214, 2.02878, 2.03103, 2.05826, 1.89266, 2.08357, 2.08997, 1.89013, 1.93814, 1.887, 1.93609, 1.88575, 1.88413, 1.88565, 1.88537, 1.88474, 1.93424, 1.88322, 1.88656, 1.88848, 1.88899, 1.88896, 1.94197, 1.94101, 1.89005, 1.89091, 1.89227, 1.89107, 1.9439, 1.97393, 1.9409, 1.94073, 1.89245, 1.88805, 2.07718, 2.07424, 1.88683, 1.88701, 1.88459, 1.88565, 1.88263, 1.88275, 1.87998, 1.87827, 1.88189, 1.8633, 1.87054, 1.94436, 1.80597, 1.80427, 1.80574, 1.79961, 1.80033, 1.7999, 1.89621, 1.89127, 1.79781, 1.79358, 1.79858, 1.79649, 1.84604, 1.79515, 1.90442, 1.79257, 1.79312, 1.79154, 1.78786, 1.83782, 1.89728, 1.83804, 1.78746, 1.78712, 1.78439, 1.91511, 1.91418, 1.91004, 1.90404, 1.78517, 1.89826, 1.89288, 1.78624, 1.78563, 1.78539, 1.78391, 1.78475, 1.78684, 1.78829, 1.90849, 1.90664, 1.78346, 1.90251
