1.95902295666502,1.90185434855379,1.85400160975963,1.85072717265126,1.85062185449866,1.89528632558204,1.84537509562327,1.8461889177116,1.84250278237032,1.95712722991807,1.84364213329399,1.8416123652619,1.84047301433823,1.84053046060329,1.95182302477762,1.83208585963961,1.94795497626365,1.82650399755138,1.93137215441661,1.94107099883407,1.93121896437645,1.81882534678849,1.81819343787284,1.81845194606561,1.92180735128428,1.82177425506152,1.8227316928125,1.82256892839484,1.96052613393406,2.06107624654236,1.98705673401382,1.95105707457683,1.98368655313035,1.94269864301075,1.98452909835122,1.9363221075892,1.9321381046174,1.93277958791056,1.98074721923483,1.9250339165051,1.92290840469792,1.92129990927626,1.84635168212927,2.04645617208484,1.91375529979851,1.91211808124433,1.91233829192706,1.84016663425792,1.91238616381461,1.84030067554305,1.9581325395566,1.8439485133743,1.84674423160717,1.92523497843281,1.92881579562148,2.04054878116127,2.01191181802935,2.02107449730626,1.99847896638305,1.99693749160397,1.99620983891322,1.99374922389319,1.91670420807154,1.91810206718798,2.01699581248707,2.00814908766798,1.91541166710771,1.98735353971662,2.00715335240696,2.00836929835071,2.00289275441508,1.98255677658419,1.99276306300968,2.00177255224643,1.98901948140333,2.00426189039899,1.97909085192563,1.98574504429497,1.98382059441549,1.98418442076087,1.97917702132322,1.97239836204626,1.89837884951772,1.97815256292967,1.98489292469659,1.96282398453642,1.96251760445611,1.88675555522078,1.9730206965844,1.95296237570129,1.88165241200803,1.87882797064263,1.87823435923702,1.87911520196793,1.94988900052063,1.8048180324916,1.85171333353478,1.91138085417607,1.79328090759225,1.88802894742958,1.79055221000195,1.90847981779059,1.83290925610546,1.78099698124713,1.77934061393793,1.90707238429665,1.90658409104365,1.90646919851353,1.77101090550437,1.77043644285378,1.90045648943735,1.82276999032254,1.76884709618715,1.89541079248967,1.76822476164901,1.76585031602657,1.76549606405871,1.97336537417475,1.68748403610856,1.68448725594798,1.78257675353625,1.79738831554397,1.67600435747427,1.67294055667112,1.66991505337801,1.66954165265513,1.66647785185198,1.80382229723058,1.80236699184908,1.6618247043822,1.91469358879448,1.66351936920144,1.66111620044648,1.78215548092582,1.78153314638768,1.71007956703178,1.66042684526577,1.66060875843845,1.74928664293455,1.66259065458299,1.66121194422157,1.66293533217334,1.7873926654237,1.66631508743432,1.66617147177167,1.66603743048653,1.66623849241424,1.66898633875956,1.7875841529739,1.67075759859888
1.95853466341202,1.96172293112279,1.85550478702867,1.89975755987913,1.91951907505943,1.95497299497836,1.84509743867548,1.89317996252988,1.89352464012023,1.95748148188593,1.84237831546269,1.84039641931815,1.83877834951899,1.95188047104268,1.83834750253105,1.87777478911655,1.88523322919671,1.82711675771201,1.87226952204839,1.86737701514087,1.82246361024223,1.81780088839494,1.81822216100537,1.81860513610576,1.92123288863369,1.91279786204753,1.88001519345385,1.82245403586472,1.9559878789944,1.95434108606271,1.95284748317117,1.94939113289012,1.94834752574155,1.94331140317138,1.86793232903644,1.98361953248779,1.93144874943669,1.93298064983826,1.92557008164565,1.97657279064055,1.97506003899399,2.04989337361087,1.91673293120407,1.84167938590447,1.84163151401692,1.91192659369413,1.9147127375495,1.9116968086339,1.91095958156564,1.91255850260978,1.84164108839443,1.91788185650525,1.95967401433569,1.95856338654454,1.95529852381369,2.0406732480689,1.92788708100303,2.01526285015779,2.0201362083103,1.99699493786903,1.99733961545938,1.98913437393345,1.9941513477486,1.99153754268842,1.9178339846177,2.00453954734678,1.91618719168601,1.98896203513827,1.98757375039935,2.0045586961018,1.91252020509974,1.91194574244915,2.00122681272837,1.90866173096328,2.00459699361184,2.00200233730667,1.99135562951573,1.97718555080118,1.99275348863217,1.90116499337308,1.97394941120285,1.9810057274276,2.00714377802945,1.9903503198772,1.98794715112223,1.98707588276884,1.96288143080148,1.95953997305055,1.98047913666456,1.95403470598239,1.88217900277107,1.87933541265065,1.87863648309244,1.8770471364258,1.87730564461857,1.8072499243791,1.89217465289134,1.80077764518245,1.89145657457811,1.79364473393762,1.91121808975841,1.78589906253217,1.88514705979912,1.83039119482037,1.78058528301421,1.77661191634763,1.7772725483958,1.9065362191561,1.7723991902433,1.7713268599622,1.89899160967835,1.82365083305345,1.82462741955945,1.76648222494222,1.76804284847632,1.89750758116432,1.9720536844559,1.76674073313498,1.68926487032539,1.68351066944198,1.68265854984361,1.67775646855857,1.67479798590803,1.72174115883876,1.66811507040617,1.66648742622949,1.66483105892029,1.66320341474362,1.66176725811714,1.80269252068442,1.66122151859908,1.79979148429894,1.66151832430189,1.65976621321759,1.65998642390032,1.66194917128983,1.79555003506208,1.7915766683955,1.65950770502482,1.71072105032493,1.66213108446252,1.66021620896055,1.66325128663117,1.66628636430179,1.66452467883998,1.66509914149057,1.78293100550412,1.66789485972344,1.71431144189112,1.66978101209288
1.90240008807185,1.85643350164713,1.90172988164616,1.89867565522052,1.85059313136613,1.8486208095991,1.84612189706903,2.02717337578003,1.89362038389533,1.93248278220775,2.03480415465537,1.84022408052297,1.95270386750853,1.94951559979775,1.94389544019948,1.83230607032234,1.94445075409505,1.82820823674813,1.8244838038968,1.86908125433762,2.0084554677483,1.91748930702735,1.81672855811384,1.81907428060375,1.89828310574262,1.82004129273224,1.91380317168606,1.918121215943,1.95689744485783,1.99306944308999,1.95282833441615,1.87483545522103,1.94729434421547,1.86981848140588,1.86590256100435,1.93869655321164,1.98412697449581,1.8584536953017,1.85375267594437,1.85225907305284,1.92383711931637,1.9214339505614,1.91789143088276,1.9124723332122,1.91258722574231,1.91166808550137,1.96536119457653,1.91193616807164,1.84256022863537,1.91215637875437,1.84289533184822,2.05030507184379,1.91901163305141,1.92352116485855,1.92777218847291,2.04307641682387,2.00847461650332,2.01578944092083,2.01523412702526,1.99725344606179,1.99740663610195,1.9983353507204,1.99643004959595,1.99120243947558,1.99113541883301,1.98880884509812,1.98933543586116,1.98875139883306,1.98705673401382,1.98553440798975,1.98498866847169,1.99117371634305,2.00070022196533,1.90890109040103,1.90748408252957,1.90611494654566,1.99331837690525,1.9916141377085,1.99045563802981,1.98557270549979,1.99171945586111,1.96821435907446,1.89757460180689,1.99303114557995,1.98765991979694,1.98934501023867,1.98356208622273,1.9740930268655,1.95789318011886,1.95780701072127,1.88165241200803,1.8788949912852,1.87904818132536,1.87647267377521,1.9769174682309,1.80869565538308,1.85282396132592,1.79938936044352,1.7970340635761,1.84058790686835,1.78985328044373,1.88406515514051,1.88506089040154,1.83144437634645,1.82869653000113,1.77613319747213,1.82650399755138,1.77466831771313,1.77344279739187,1.7688949680747,1.77202578952041,1.82346891988076,1.82227212269203,1.76836837731166,1.76791838156869,1.76850241859679,1.76666413811491,1.76881837305462,1.90093520831284,1.68143302952235,1.80174465731094,1.80233826871655,1.72096563426046,1.6709682349041,1.66845017361901,1.66676508317728,1.76880879867711,1.80499994566429,1.80444463176872,1.80302762389726,1.65920132494451,1.801802103576,1.65872260606902,1.66012046518545,1.66042684526577,1.66039812213324,1.79397026277296,1.65853111851882,1.66068535345853,1.71028062895948,1.66109705169146,1.65881834984411,1.66436191442231,1.66344277418137,1.83369435506127,1.76954602574537,1.77463002020309,1.78440545964063,1.66781826470336,1.66977143771537
1.90462134365413,2.04355513569936,1.8541643741773,1.89917352285103,1.85151227160707,1.85036334630589,1.84746230992041,1.84467616606505,1.84276129056308,1.84327830694861,1.83851026694871,1.92456477200712,1.95489639995828,1.95089431015917,1.88396941136541,1.83001779409749,1.82643697690881,1.86965571698821,1.870421667189,1.99886194148344,1.81924661939892,2.01749368011758,2.03395203505699,1.9303859935331,1.81901683433869,1.82146787498121,1.82169766004144,1.87109187361468,1.95836232461684,1.99400773208596,1.87820563610449,1.94900815778973,1.94530287369342,1.94223907289027,1.93863910694658,1.93810294180603,1.93421574453703,1.93129555939653,1.93075939425598,1.92481370582237,2.05298589754655,1.92145309931642,1.91747973264984,1.91932758750924,1.91723079883458,1.96781223521905,1.83928579152701,1.91294147771018,1.91459784501938,1.9639729098376,1.84288575747071,1.96118676598224,1.92160628935658,1.92451690011957,1.92979238212749,2.05316781071923,2.01997344389263,1.92616369305126,1.92424881754929,1.92208500823207,1.99543431433492,1.99466836413414,1.99681302469634,1.99344284381288,1.99162371208601,2.01394158606144,2.01445860244697,2.00207893232675,2.01074374397315,1.91479890694709,1.99705238413409,1.99314603811007,1.99462049224659,1.98728651907405,1.90761812381471,1.90569367393523,1.98788013047966,1.99152796831091,1.98892373762823,1.97465791513858,1.97420791939562,1.99080988999767,1.98102487618262,1.89522887931698,1.97618024116264,1.98293975168459,1.98722907280899,1.9899577703993,1.9724366595563,1.8826864447791,1.88029285040164,1.88012051160646,1.87725777273102,1.95596873023938,1.95405385473741,1.85808986895633,1.80237656622659,1.91085426341303,1.99688961971642,1.79231389546376,1.9085851359432,1.83592518502106,1.78637778140766,1.87155144373516,1.77831615554438,1.82674335698913,1.82751888156742,1.87284398469898,1.98563972614236,1.77274386783365,1.87380142244997,1.77058005851643,1.76892369120723,1.89874267586309,1.76810029474138,1.76767902213095,1.76666413811491,1.76848326984177,1.68500427233352,1.68353939257451,1.67784263795616,1.80081594269249,1.80041381883708,1.80162976478083,1.66713848390016,1.66638210807689,1.66332788165125,1.65963217193245,1.65946940751478,1.7994659554636,1.65922047369953,1.79685215040342,1.87277696405642,1.65835877972364,1.70774341891938,1.65731517257507,1.65746836261523,1.66060875843845,1.65884707297664,1.65995770076779,1.66001514703284,1.65850239538629,1.66078109723363,1.78344802188965,1.78328525747198,1.66183427875971,1.66540552157088,1.66666933940218,1.76583116727155,1.76239396574552
1.90327135642524,1.85353246526165,1.85470053931785,1.94583903883397,1.85121546590427,1.85158886662715,1.89547781313224,1.92093608293089,1.84325915819359,1.89124593827289,1.84265597241047,1.95427406542014,2.02576594228608,1.83351244188858,2.02808294164346,1.82972098839468,1.8274039890373,1.82444550638676,1.87046953907655,1.8696461426107,1.81943810694912,1.94105185007906,1.81737961578451,1.91113192036082,1.93882102011926,1.86927274188782,1.82141042871615,1.82523060534257,1.95645702349238,1.95567192453657,1.88119284188756,1.87585991361458,1.94412522525971,1.98173338011835,1.93859123505903,1.93607317377394,1.98088126051997,1.92933281200702,1.97809511666461,1.97765469529916,1.92489030084245,1.97518450590162,1.91829355473818,1.97140262678523,1.9143297624491,1.91302764710777,1.96701756188573,1.91143830044113,1.91220425064192,1.91337232469812,1.84036769618562,1.95931976236782,1.84566232694856,1.92298499971799,2.04053920678376,2.03494777031801,2.00835014959569,1.92536901971794,1.9247466851798,2.01442987931444,1.9963821777084,1.99464921537912,1.91843717040082,1.99792365248748,2.00740228622222,2.01112671907354,2.00907780228644,1.91503826638483,2.00767036879249,1.9999917180296,1.97800894726702,1.99077159248763,1.99186307152375,1.90869045409581,1.99461091786908,1.90476495931678,1.98872267570053,1.9938545420458,1.90259157562204,2.00112149457576,1.99337582317031,1.98591738309015,1.99090563377277,1.89518100742943,1.98218337586131,1.98339932180506,1.9760461998775,1.97240793642377,1.95772084132368,1.95835275023933,1.87946945393579,1.87866520622496,1.87570672357443,1.87713330582339,1.96193356742801,1.85580159273148,1.9977513136923,1.79919787289333,1.7978095881544,1.79242878799387,1.79058093313448,1.83529327610541,1.78430971586553,1.78295972863665,1.87163761313275,1.86543341650637,1.77412257819507,1.77314599168906,1.7722077026931,1.77308854542401,1.77363428494207,1.77263854968104,1.76974708767307,1.89531504871457,1.98437590831106,1.8168913225315,1.76806199723134,1.76770774526348,1.89954692357392,1.80085424020253,1.77559703233158,1.79952340172866,1.6704895160286,1.66955122703264,1.8004329675921,1.80493292502172,1.66305979908097,1.66137470863924,1.6597757875951,1.65856941602886,1.79813511698974,1.65677900743452,1.65835877972364,1.65813856904092,1.70583811779492,1.65809069715337,1.79618194397773,1.7928404862268,1.76346629602662,1.65988110574771,1.66019706020553,1.78326610871696,1.78623416574501,1.78312249305431,1.78308419554427,1.66058960968343,1.77994379972105,1.77986720470097,1.77428534261273,1.71329655787508
1.85606010092424,1.85350374212912,1.85267077128576,1.85194311859501,1.84947292919748,1.84926229289226,1.89462569353386,1.89305549562225,1.8918395496785,1.88958957096369,1.84256980301288,1.83786878365555,2.02521062839051,2.03441160517746,1.8316837357842,1.82803589795295,1.82704016269193,1.82587208863573,1.91201276309172,1.81886364429853,1.92330095417582,1.82177425506152,1.91762334831249,1.92509136277016,1.81784876028249,1.82143915184868,1.8230189241378,1.8240912544189,1.95896551039996,1.9881099155399,1.87858861120489,1.94805072003875,1.9482039100789,1.94511138614323,1.94076461875376,1.93702103714741,1.93283703417562,1.93336362493866,1.92807856855323,1.97760682341161,1.92268819401519,1.97187177128322,1.91826483160565,1.96935370999813,1.91423401867401,1.91306594461781,1.91221382501943,1.91014575947731,1.91209893248931,1.91272126702745,1.91263509762986,1.91654144365388,1.84757720245053,1.85203886237011,1.93217640212744,1.95197621481778,1.92647007313158,1.92569454855328,2.0103033226077,2.00432891104156,1.92110842172607,1.91954779819196,1.91988290140481,2.00367785337089,2.00804376951538,2.00120766397335,2.01125118598117,1.91544996461775,2.00792887698526,1.91350636598326,1.91302764710777,1.99718642541922,2.00228956863196,1.90597133088302,1.90727344622435,1.98742056035919,1.98800459738729,2.00138957714604,1.90300327385497,1.9011841421281,1.99334710003778,1.98653971762829,1.98646312260821,1.97936850887342,1.97849724052002,1.97548131160442,1.97708980702608,1.97281963465669,1.88358643626502,1.88227474654617,1.87883754502014,1.87820563610449,1.87598438052221,1.96288143080148,1.9732217585121,1.80837970092526,1.80853289096542,1.9044011329714,1.79606705144761,1.79210325915854,1.78966179289353,1.89459697040133,1.90460219489911,1.78181080333547,1.77874700253232,1.77778956478133,1.9941513477486,1.77490767715087,1.88341409746984,1.82164978815389,1.81926576815394,1.77245663650836,1.77040771972125,1.7710396286369,1.98704715963631,1.77010133964094,1.76848326984177,1.76945985634778,1.68365428510463,1.68071495120911,1.7746395945806,1.72142520438093,1.66976186333786,1.91248190758971,1.66570232727369,1.80124678968043,1.80739354004175,1.66178640687216,1.6590960067919,1.65542902020563,1.65683645369958,1.75304937329592,1.79891064156803,1.79465004357616,1.65687475120962,1.65735347008511,1.65740134197266,1.65816729217345,1.75029195257309,1.65951727940233,1.78259590229127,1.65788963522566,1.65810984590839,1.65970876695253,1.65950770502482,1.660656630326,1.66276299337817,1.66312681972354,1.77306939666899,1.66413212936207
1.85773561698846,1.8553324482335,1.85525585321342,1.85156014349462,2.04264556983592,1.96804202027928,1.84703146293247,1.8454133931333,1.89040339305202,1.84211023289241,1.95827615521925,1.83836665128607,1.88338537433731,1.8822077259036,1.87906733008038,1.87749713216877,1.94738051361306,1.82389019249119,1.82280828783258,2.01491817256744,1.81831790478047,1.81885406992102,1.91729781947715,1.81837535104553,1.81741791329455,1.82084554044307,1.87017273337374,1.96057400582161,1.95799849827146,1.98984287786918,1.95436023481773,1.94803157128373,1.9485868851793,1.87060358036168,1.93808379305101,1.93789230550081,1.93465616590248,1.97741533586141,1.92831792799097,1.92658496566169,1.92400945811155,1.92163501248911,1.91836057538074,1.84376660020161,1.91357338662583,1.83923791963946,1.91216595313188,1.912280845662,1.84096130759123,1.91319998590294,1.91260637449733,1.91638825361372,1.95844849401443,1.84956867297257,1.8539728866271,1.9552123544161,2.00717250116198,1.92584773859344,2.02346809168372,1.99485985168433,1.91879142236869,1.91998821955742,1.92163501248911,1.9982396069453,1.99913002405372,2.0036874277484,2.00736398871218,1.99782790871238,1.99903428027862,1.91483720445712,1.91343934534069,1.91184999867406,1.98759289915437,1.99436198405382,1.90737876437696,1.98628120943552,1.98690354397366,1.99586516132287,1.90215115425659,1.99522367802971,1.98572589553995,1.99466836413414,1.99179605088119,1.97832490172485,1.99225562100166,1.97181432501816,1.88910127771069,1.98422271827091,1.88496514662644,1.96042081578145,1.87872265249002,1.8787992475101,1.87795670228924,1.87688437200814,1.95527937505867,1.81190307184888,1.80573717273255,1.79893936470056,1.79567450196971,1.79083944132724,1.78955647474092,1.99130775762818,1.78619586823497,1.78296930301416,1.78090123747203,1.77640128004241,1.77628638751229,1.77323216108665,1.88247580847388,1.77358641305452,1.82148702373623,1.77285876036377,1.7726959959461,1.77274386783365,1.89513313554188,1.86844934542197,1.76990027771323,1.7683109310466,1.68262982671108,1.79334792823482,1.67631073755458,1.67406075883977,1.66860336365917,1.66728209956281,1.66500339771547,1.80526802823456,1.66159491932197,1.65986195699269,1.80227124807398,1.65649177610922,1.65441413618959,1.6564630529767,1.6564630529767,1.65677900743452,1.65672156116946,1.65757368076784,1.65621411916144,1.79059050751199,1.65648220173171,1.65740134197266,1.65788963522566,1.74691219731211,1.78459694719083,1.658703457314,1.6615278986794,1.77482150775329,1.66338532791631,1.66313639410105,1.66424702189219,1.77725339964078
1.85622286534191,1.85503564253069,2.04672425465511,1.85545691514112,1.84953994984004,1.96471013690586,1.84573892196864,1.89225124791142,1.84507828992046,1.88932148839341,1.95801764702648,1.95432193730769,1.83617411883631,1.88205453586345,1.87884711939765,1.87658756630533,1.82647527441885,1.8244838038968,1.91254892823227,1.82160191626634,1.81852854108569,1.86634298236981,1.92784878349299,1.86607489979953,1.81585728976044,1.92465094140471,1.92277436341278,1.82549868791285,1.9580367957815,1.95181345040011,1.87822478485951,1.87600352927723,1.94711243104278,1.94318693626375,1.98078551674487,1.98126423562037,1.93148704694673,1.93040514228812,1.92755197779019,2.05358908332967,1.92246798333246,2.05754330124123,1.97289622967677,1.918609509196,1.97040689152421,1.83978365915752,1.912280845662,1.91067235024035,1.960956980922,1.9128648826901,2.05501566557863,1.91875312485865,1.9210414010835,1.92772431658536,1.95528894943618,1.9343785089547,2.01759899827019,1.92565625104324,1.9969662147365,1.99417049650362,1.91994034766987,1.91859993481849,1.91762334831249,1.91784355899521,1.9163691048587,2.01764687015774,2.01457349497708,2.0030076469452,2.00330445264801,1.91470316317199,1.99704280975658,1.99441943031888,1.99324178188517,1.98105359931515,1.90759897505969,1.90784790887494,1.98901948140333,1.98611844501785,1.90220860052165,1.99400773208596,2.00128425899343,1.98536206919458,1.99183434839122,1.98533334606205,1.89409910277082,1.8910640251002,1.88902468269061,1.97522280341166,1.88326090742969,1.97498344397391,1.87971838775105,1.87867478060247,1.87968009024101,1.87599395489972,1.95763467192609,1.9041043272686,1.85122504028178,1.79915000100578,1.7958659895199,1.79511918807414,1.78961392100598,1.99222689786913,1.90431496357381,1.78319908807439,1.90184477417628,1.7798001840584,1.77624809000225,1.89372570204794,1.77634383377735,1.8217551063065,1.77285876036377,1.77313641731155,1.89497994550173,1.77268642156859,1.77301195040393,1.89187784718854,1.8909682813251,1.82047213972018,1.68113622381954,1.80210848365632,1.67668413827747,1.77332790486175,1.71692524695131,1.66598955859898,1.66456297635002,1.66093428727379,1.66164279120952,1.65809069715337,1.80071062453988,1.6566641149044,1.79849894333511,1.70275516823675,1.65619497040642,1.65456732622975,1.79221815168866,1.79439153538339,1.65490242944259,1.78921179715057,1.65611837538634,1.6567598586795,1.78514268670889,1.74915260164942,1.65861728791641,1.77934061393793,1.65979493635012,1.77339492550432,1.66169066309707,1.66138428301675,1.66273427024564,1.66463957137009
1.97810469104212,1.94121461449672,1.85591648526159,1.85263247377572,1.85149312285205,1.84604530204895,1.96254632758864,1.84433148847469,1.84450382726987,1.88912042646571,1.83894111393666,1.83670070959935,1.95045388879371,1.88075242052211,1.87992902405626,1.94783050935602,1.82441678325424,1.82371785369602,1.8223391433346,1.81824130976039,1.81731259514194,1.8179540784351,1.81876790052343,1.81827003289292,1.81978278453947,1.82040511907761,1.91235744068208,1.96117719160473,1.9614356997975,1.9566676597976,1.9522921692756,1.94739008799057,1.94782093497851,1.94414437401473,1.98026850035934,1.97785575722686,1.93254980285032,1.97960786831116,1.92865303120382,2.06413047296799,1.9217211818867,1.91993077329236,1.91607229915589,1.91573719594305,1.91370742791096,1.96576331843194,1.96753457827126,1.90993512317209,1.91446380373424,1.91232871754955,1.91423401867401,1.91506698951736,1.91863823232853,1.95742403562087,2.04457959409291,1.95477193305065,1.92787750662552,1.99799067313005,2.00542996445519,1.99831620196538,1.91945205441687,1.92066800036061,1.91776696397513,1.91599570413581,2.01109799594101,1.98793757674472,1.98871310132302,2.00819695955553,2.00362998148334,1.99786620622242,1.99984810236696,1.99960874292921,2.01377882164377,1.98097700429507,1.99501304172449,1.90647877289104,1.98890458887321,1.98160891321072,1.98768864292947,1.99764599553969,1.99405560397351,1.99233221602174,1.97797064975698,1.89510441240935,1.89284485931703,1.89023105425685,1.88791405489947,1.97401643184542,1.9548198049382,1.8816236888755,1.87854073931734,1.8780141485543,1.87751628092378,1.87612799618486,1.96281441015891,1.80963394437905,1.80601482968033,1.84866868148665,1.89849374204783,1.89429059032102,1.79240006486134,1.9077042932123,1.788656483255,1.78278738984147,1.7791204032552,1.99352901321047,1.99038861738724,1.77385449562479,1.8988479940157,1.77362471056456,1.77333747923926,1.98608972188532,1.84893676405692,1.82847631931841,1.77392151626736,1.77223642582563,1.77280131409871,1.77238004148828,1.68122239321713,1.67818731554651,1.6741852257474,1.67158099506473,1.8043297392386,1.80216592992138,1.66446723257492,1.66061833281596,1.65718113128993,1.65623326791646,1.65670241241444,1.65473009064741,1.65370563225386,1.65464392124983,1.65311202084825,1.79378834960027,1.65133118663142,1.65404073546671,1.65428009490445,1.65531412767551,1.65494072695263,1.65645347859919,1.78543949241169,1.78511396357636,1.65778431707305,1.65765027578792,1.76419394871737,1.6577364451855,1.66058003530592,1.77862253562469,1.78060443176923,1.77752148221106
1.8549494731331,1.85326438269137,1.85268992004078,1.85246013498054,1.89902990718839,1.84663891345456,1.96136867915493,1.84642827714935,1.84360383578395,1.88777043923682,1.84019535739044,1.88470663843367,1.83257415289262,1.83195181835448,1.82941460831437,1.82721250148711,1.93471361216754,1.82293275474021,1.82075937104548,1.81907428060375,1.81931364004149,1.81667111184878,1.81592431040301,1.81817428911782,1.81828918164794,1.81916045000134,1.82281786221009,1.92137650429634,1.88509918791157,1.95488682558077,1.953163437629,1.98199188831111,1.94727519546045,1.86936848566291,1.94225822164529,1.93757635104298,1.86067495088398,1.92978280774998,2.06511663385151,1.92841367176607,1.92253500397503,1.84857293771155,2.06026242445402,1.84370915393655,1.91585208847317,1.9675728757813,1.91271169264994,1.91145744919615,1.91235744068208,1.91318083714792,1.91487550196716,1.91272126702745,1.92102225232848,1.84900378469949,1.92957217144476,1.95490597433579,1.99753110300958,1.99739706172444,1.99441943031888,1.99439070718635,1.99808641690515,1.91920312060161,1.9183222778707,1.91907865369398,2.00269169248738,2.0068948442142,1.98808119240737,1.98776523794954,2.0084554677483,1.91518188204748,2.00729696806961,1.99417049650362,1.91042341642509,1.98674077955599,1.99128860887316,1.98515143288936,1.99755982614211,1.98432803642351,1.9016724353811,1.98464399088134,1.89874267586309,1.97562492726707,1.97101007730733,1.98045998790954,1.89208848349375,1.89084381441748,1.8882395837348,1.98046956228705,1.99075244373261,1.9740930268655,1.87923966887556,1.87630990935755,1.87507481465878,1.87561097979933,1.87594608301217,1.85804199706878,1.85218247803276,1.89994904742933,1.89928841538115,1.89452037538125,1.89309379313229,1.78813946686947,1.99108754694546,1.78233739409851,1.78108315064472,1.77714808148818,1.99177690212617,1.77530022662878,1.77489810277336,1.90211285674655,1.77378747498222,1.77539597040388,1.77335662799428,1.82211893265187,1.8917438059034,1.77500342092597,1.96399205859262,1.77252365715093,1.67984368285571,1.67697136960276,1.80245316124667,1.80522973072452,1.71597738357783,1.66619062052669,1.77291620662883,1.80422442108599,1.65607050349879,1.65658751988432,1.65495987570765,1.79911170349574,1.79687129915844,1.65320776462335,1.65351414470367,1.79580854325485,1.65363861161129,1.65430881803698,1.65368648349884,1.65200139305711,1.65417477675184,1.65390669418157,1.65555348711326,1.65999599827782,1.65713325940238,1.78107357626721,1.7808725143395,1.76231737072544,1.65961302317743,1.65812899466341,1.66046514277581,1.66097258478383
2.04438810654271,1.85647179915717,1.85239311433798,1.90190222044134,1.89808204381491,1.89759375056191,1.84544211626583,1.84458042228995,1.841708109037,1.88566407618465,1.88536727048185,1.94802199690622,2.03482330341039,1.83208585963961,1.82835185241078,1.82567102670802,1.93381362068162,1.91440635746918,1.819811507672,1.82129553618603,1.81839449980055,1.81746578518209,1.81605835168815,1.93206150959732,1.8184423716881,1.82018490839489,1.92207543385456,1.82614017120601,1.95594000710685,1.98384931754802,1.95699318863293,1.94905602967728,1.94794540188614,1.97851638927504,1.93870612758915,1.93746145851287,1.93362213313142,1.93130513377404,1.92584773859344,1.92565625104324,1.92218075200717,1.97191964317077,1.92073502100318,1.91653186927637,1.91546911337277,1.97089518477721,1.91227127128449,1.96181867489789,2.04511575923346,1.96401120734764,1.91342019658567,1.84308681939841,1.91904993056145,1.84855378895653,1.9550112924884,2.04324875561904,2.01363520598112,2.02408085184435,2.02096917915365,1.99530027304978,1.9974545079895,1.9190020586739,1.92120416550117,1.91645527425629,2.01771389080031,2.01223734686468,1.91612974542095,1.99513750863212,1.99675557843128,1.9969662147365,1.9129606264652,1.99479283104176,1.98834927497764,1.99187264590126,1.98832055184511,1.99684174782887,1.9853812179496,1.99053223304989,1.97174730437559,1.9014809478309,1.98984287786918,1.9851897303994,1.96499736823115,1.89440548285113,1.97705150951604,1.88908212895567,1.97031114774911,1.97094305666476,1.971661134978,1.88174815578313,1.87847371867477,1.87945030518077,1.87727692148604,1.96656756614277,1.96351333971713,1.8563090347395,1.80625418911808,1.8023861406041,1.79821171200981,1.89215550413632,1.83893153955915,1.78746926044378,1.78549693867675,1.83209543401712,1.82816036486058,1.77963741964073,1.9957981406803,1.77819168863675,1.77562575546411,1.98059402919468,1.77589383803439,1.82256892839484,1.77624809000225,1.82193701947919,1.77385449562479,1.77241833899832,1.88837362501994,1.68116494695207,1.80686694927871,1.67490330406064,1.67245226341812,1.66803847538609,1.71460824759393,1.66606615361906,1.66238001827777,1.65838750285617,1.80207018614628,1.65705666438231,1.65513221450283,1.65475881377994,1.65223117811735,1.65045991827803,1.65214500871976,1.65113969908123,1.65375350414141,1.65085246775593,1.65320776462335,1.79219900293364,1.65331308277596,1.65407903297675,1.65394499169161,1.70332005650983,1.70323388711224,1.7829118567491,1.78064272927927,1.77008219088592,1.77256195466096,1.65862686229392,1.65767899892044,1.65959387442241
1.85383884534196,1.96422184365286,1.85384841971947,1.89937458477874,1.96216335248824,1.89678950285108,1.84460914542248,1.84279958807312,1.84308681939841,1.83916132461938,1.83873047763144,1.83424966895684,1.83253585538258,1.95218685112299,2.03378927063932,1.82669548510158,1.93254022847281,1.91716377819201,1.82195616823421,1.81966789200936,1.81915087562383,1.81627856237087,1.81802109907766,1.93063492734835,1.92999344405519,1.87044081594402,1.87211633200824,1.825651877953,1.95523150317112,1.95425491666512,1.98158019007819,1.98105359931515,1.94523585305085,1.94317736188624,1.8687748742573,2.06404430357041,1.9347710584326,1.85641435289211,1.97766426967667,1.92652751939663,1.92154884309152,1.91932758750924,1.91907865369398,1.96947817690576,1.84097088196874,1.96775478895399,1.96549523586167,1.91125638726845,1.83793580429812,1.84004216735029,1.91206063497927,1.84271341867553,1.84870697899669,1.84874527650673,1.92816473795082,2.02780528469568,2.01302244582049,2.00377359714599,1.99618111578069,1.995022616102,1.91887759176628,1.91895418678635,1.91814993907553,1.91637867923621,1.9977513136923,2.01149054541892,1.98785140734713,2.017895803973,1.91378402293104,1.91207978373429,1.91136170542105,1.91118936662588,1.99174817899364,1.99359603385303,1.99890981337099,1.90637345473843,1.98487377594157,1.98774608919452,1.90177775353371,1.90074372076265,1.99725344606179,1.97817171168469,1.98500781722671,1.97510791088154,1.89269166927687,1.97799937288951,1.88830660437737,1.88530982421679,1.95437938357275,1.96232611690591,1.88189177144578,1.8763673556226,1.87572587232945,1.87731521899608,1.9707898666246,1.80966266751158,1.80601482968033,1.80184997546355,1.79905425723068,1.86199621498034,1.83867303136638,1.83608794943872,1.83555178429817,1.83130076068381,1.78198314213064,1.90495644686697,1.90190222044134,1.77691829642794,1.77662149072513,1.90025542750964,1.82488592775222,1.82314339104543,1.82343062237072,1.77438108638783,1.97776001345177,1.77323216108665,1.77417045008262,1.77350981803444,1.6770096671128,1.72066882855765,1.77901508510259,1.75793230582594,1.66602785610902,1.80543079265223,1.66200661755489,1.65876090357906,1.80173508293343,1.65356201659122,1.7989776622106,1.65375350414141,1.65316946711331,1.65109182719368,1.79539684502192,1.70389451916042,1.79055221000195,1.65185777739446,1.65054608767562,1.65350457032616,1.65302585145066,1.7868086283956,1.65244181442256,1.65507476823777,1.65055566205313,1.653839673539,1.70408600671062,1.65593646221365,1.6594885562698,1.65719070566744,1.65805239964333,1.70670938614831
1.90218945176663,1.90311816638509,1.85216332927774,1.85258460188817,1.84893676405692,1.96385801730748,1.84301979875585,2.03219992397269,1.84060705562337,1.83975493602499,1.83866345698887,1.94775391433594,1.83308159490064,1.82955822397702,1.82924226951919,1.82567102670802,1.91457869626436,1.91495209698724,2.01835537409347,1.81984023080453,1.8169870663066,1.81998384646718,1.81972533827442,1.81976363578446,1.81662323996123,1.86941635755046,1.82303807289282,1.82690612140679,1.9849024990741,1.98120678935531,1.9516123884724,1.98049828541958,1.87338014983954,1.94793582750863,2.05724649553842,1.93679125208718,1.93378489754909,1.93454127337237,1.92837537425603,1.92519668092277,1.92139565305136,1.84776869000072,1.91774781522011,1.91601485289083,1.91508613827238,1.91472231192701,1.91187872180659,1.96486332694602,1.96398248421511,1.83954429971978,1.84184215032214,1.91383189481859,1.9190020586739,1.92605837489865,1.92779133722793,2.0325924734506,2.02400425682427,1.92392328871396,2.02088300975607,1.99373964951568,1.99094393128281,1.91763292269,1.91769036895506,1.99688004533891,1.91516273329246,2.01095438027837,1.91444465497922,1.98814821304994,1.91414784927642,1.91121808975841,2.0014470234111,1.98794715112223,2.00674165417404,1.90878619787091,1.99710983039914,1.98793757674472,1.97730044333129,1.99723429730677,1.97845894300998,1.90201711297145,1.99127903449565,1.89881927088317,1.98786098172464,1.8931033675098,1.97754937714655,1.97843021987745,1.97938765762844,1.88705236092358,1.88380664694775,1.95835275023933,1.87583119048205,1.87853116493983,1.87580246734952,1.87637693000011,1.94814646381384,1.80931798992122,1.90470751305172,1.90384581907583,1.7984893689576,1.79473621297374,1.8388836676716,1.78723947538354,1.78427141835549,1.78259590229127,1.78110229939974,1.78115017128729,1.82787313353529,1.90236179056181,1.77748318470102,1.77790445731145,1.77670766012272,1.82315296542294,1.77642042879743,1.77428534261273,1.7757119248617,1.77292578100634,1.82182212694907,1.77253323152843,1.67520010976344,1.6722416271129,1.66660231875961,1.66784698783589,1.66370128237413,1.78095868373709,1.80122764092541,1.79962871988127,1.79909255474072,1.65508434261528,1.65311202084825,1.79737874116646,1.79912127787325,1.79849894333511,1.6507280008483,1.70252538317652,1.79325218445972,1.64787483635037,1.65160884357921,1.65156097169166,1.65027800510534,1.78424269522296,1.74373350397885,1.65333223153098,1.65384924791651,1.77856508935963,1.65492157819761,1.65725772631001,1.77651617257253,1.65755453201282,1.65673113554697,1.77685127578537
1.85268034566327,1.85199099048256,1.85260375064319,2.04041473987613,1.85162716413719,1.9610527246971,1.84544211626583,1.84276129056308,1.84125811329404,1.83944855594468,1.9607559189943,1.94592520823156,1.83082204180832,1.82960609586457,1.82709760895699,1.82349764301329,1.93520190542055,1.93763379730804,1.81987852831457,1.81916045000134,1.81692962004154,1.81980193329449,1.86817168847418,1.81925619377643,1.81989767706959,1.8931033675098,1.82505826654739,1.87446205449815,1.95523150317112,1.98264294598178,1.95133473152462,1.94848156702669,1.94578159256891,1.94389544019948,2.06978893007631,2.05462311610073,1.93147747256922,1.93140087754914,1.92636475497897,1.92575199481834,1.92186479754934,1.92047651281042,1.91908822807149,1.91630208421613,1.91489465072218,1.91409040301136,1.96599310349218,1.91174468052145,1.91280743642504,1.91383189481859,1.91440635746918,1.91447337811175,1.95864955594213,1.95664851104258,2.03718817465532,2.03961049216531,2.01577029216581,1.99484070292931,2.00541081570017,1.91979673200722,1.91969141385461,1.91770951771008,1.91479890694709,1.98932586148365,1.9145212499993,1.99774173931479,1.91398508485875,1.98781310983709,1.99838322260795,1.91311381650535,1.98907692766839,1.99130775762818,1.99900555714609,1.90883406975846,1.99036946863222,1.90502346750954,1.99476410790923,1.98790885361219,1.90147137345339,1.90072457200763,1.98279613602194,1.89825438261009,1.98151316943562,1.89491292485916,1.96771649144395,1.99111627007799,1.98464399088134,1.88699491465852,1.96594523160463,1.97186219690571,1.95012835995838,1.87743968590371,1.87658756630533,1.95950167554051,1.95796020076142,1.80950947747142,1.8993362872687,1.80190742172861,1.79588513827492,1.79533939875686,1.79202666413846,1.78915435088551,1.7867128846205,1.90279263754975,1.78162889016278,1.8961192964254,1.82708803457948,1.8261305968285,1.77792360606647,1.77636298253237,1.89800544879483,1.82431146510163,1.98220252461633,1.77600873056451,1.77417045008262,1.82266467216994,1.77558745795407,1.82361253554341,1.67635860944213,1.67056611104868,1.66856506614913,1.66683210381985,1.66689912446242,1.66024493209308,1.7771672302432,1.65655879675179,1.65518008639038,1.65399286357916,1.65019183570775,1.65203011618964,1.65039289763546,1.65114927345874,1.64846844775598,1.75000472124779,1.79240963923885,1.79515748558418,1.65105352968364,1.69612012462244,1.65069927771577,1.78520970735146,1.78688522341568,1.65300670269564,1.77996294847607,1.65701836687227,1.65732474695258,1.65409818173177,1.65314074398078,1.65465349562734,1.65648220173171,1.70658491924069
1.85393458911706,1.8528048125709,1.85152184598458,2.03528287353086,1.85005696622558,1.84864953273163,1.95449427610286,1.84490595112528,1.84144960084423,1.83787835803306,1.83842409755112,1.8344124333745,1.83307202052313,1.82861993498105,1.82580506799316,1.87310249289175,1.93404340574186,1.93522105417557,1.86851636606454,1.81868173112584,1.81863385923829,1.81634558301344,1.8682865810043,1.8682865810043,1.81973491265193,1.86883232052236,1.90836492526048,1.87248973273112,1.88503216726901,1.98080466549989,1.95302939634386,1.94785923248855,1.97844936863247,1.97731959208631,1.86651532116498,1.93474233530007,2.07378144549791,1.93170725762946,2.047097655378,1.92535944534043,1.9214339505614,2.0445700197154,1.91623506357356,1.91889674052129,1.97095263104227,1.84040599369566,1.83919962212942,1.90987767690703,1.91197446558168,1.91171595738892,1.91322870903547,1.91569889843301,1.91903078180643,1.9553080981912,1.85279523819339,2.04445512718528,2.0113756528888,1.99553005811002,1.92242968582242,1.92008396333251,1.91904035618394,1.91600527851332,1.9144255062242,2.00847461650332,1.99859385891317,1.98462484212632,1.98783225859211,1.99848854076056,2.00287360566006,1.99769386742724,1.99582686381283,2.01370222662369,1.98933543586116,1.99753110300958,1.98861735754792,1.98638652758813,1.99526197553975,1.98926841521859,1.98657801513832,1.90034159690723,1.98152274381313,1.97864085618267,1.98434718517853,1.89370655329292,1.9728292090342,1.97147922180531,1.88631513385532,1.88694704277097,1.88350026686743,1.88013008598397,1.87815776421694,1.87700883891576,1.87649182253023,1.95646659786989,1.94465181602275,1.80993075008185,1.80361166092536,1.8011223227728,1.79877660028289,1.79536812188939,1.88650662140552,1.79048518935938,1.78401291016273,1.87676947947802,1.78294057988163,1.83036247168784,1.88799064991954,1.78024060542385,1.77712893273316,1.77691829642794,1.77650659819502,1.77517575972115,1.77458214831554,1.77530022662878,1.77605660245205,1.82411997755143,1.77409385506254,1.82298062662776,1.7227560428548,1.67196397016512,1.85499734502065,1.66521403402069,1.70976361257395,1.79240006486134,1.65807154839835,1.75776954140827,1.65455775185224,1.85174205666731,1.74942068421969,1.69816904140954,1.65066098020573,1.648975889764,1.64743441498492,1.64978971185234,1.78734479353615,1.6476067537801,1.648487596511,1.64837270398088,1.64785568759535,1.65038332325795,1.6498471581174,1.65264287635027,1.65353329345869,1.65428009490445,1.77277259096618,1.76901943498233,1.65260457884023,1.65655879675179,1.65678858181203,1.77108750052445
1.85263247377572,1.85172290791229,1.96443247995807,1.85131120967936,1.9618282492754,1.96223994750832,1.89482675546157,1.84152619586431,1.88736831538141,1.83778261425797,2.03107014742653,1.83400073514158,1.87765032220892,1.82735611714975,2.02502871521783,1.82841887305335,1.82287530847515,1.93372745128403,1.86839189915691,1.86830572975932,1.81947640445916,1.82257850277235,1.81962959449932,1.86774084148624,1.81644132678854,1.81878704927845,1.82294232911772,1.82310509353539,2.05871137529743,1.98114934309025,1.95234961554066,1.87542906662664,1.94804114566124,1.94043908991843,1.97730044333129,1.86346109473935,2.06001349063877,1.97561535288956,1.9255222097581,1.92445945385451,1.92144352493891,1.92136692991883,1.91957652132449,1.91565102654546,1.91400423361377,2.04838062196431,1.91151489546121,1.90855641281067,1.83906558084428,1.91320956028045,1.91281701080255,1.91862865795102,1.92084033915579,1.95425491666512,1.9552123544161,2.04393811079975,2.00603315023831,2.00851291401336,2.01824048156335,1.91867652983857,1.91957652132449,1.91764249706751,1.91569889843301,1.91469358879448,1.91499039449728,2.00452039859176,2.00821610831055,1.98445250333114,1.91262552325235,1.91392763859369,1.99913002405372,1.99561622750761,1.98792800236721,1.90807769393518,2.00129383337094,2.00550655947527,1.98815778742745,1.98754502726682,1.99069499746755,1.97942595513848,1.99100137754787,1.99129818325067,1.97904298003808,1.98667375891342,1.8920310372287,1.97266644461653,1.97483982831127,1.98096742991756,1.97461961762854,1.97325048164463,1.95528894943618,1.95107622333185,1.87623331433747,1.95838147337186,1.95450385048037,1.99639175208591,1.8038414459856,1.80109359964028,1.79788618317448,1.79520535747173,1.79373090333521,1.78938413594575,1.98382059441549,1.78365865819486,1.78482673225106,1.88255240349396,1.82816036486058,1.88529067546177,1.97928233947583,1.77790445731145,1.82532634911767,1.77849806871706,1.77828743241185,1.77758850285363,1.77602787931952,1.82358381241088,1.94338799819146,1.77484065650831,1.67331395739401,1.67043206976355,1.66700444261502,1.80868608100557,1.70801150148965,1.65630986293654,1.65692262309717,1.65472051626991,1.65170458735431,1.80049041385716,1.65113969908123,1.6967711822931,1.79991595120657,1.64752058438251,1.79384579586533,1.6486790840612,1.76140780486201,1.64611315088856,1.64840142711341,1.64456210173197,1.84121024140649,1.64677378293674,1.64942588550697,1.78149484887764,1.77792360606647,1.6504311951455,1.74800367634824,1.65670241241444,1.65707581313732,1.65385882229402,1.6545194543422,1.65418435112935
1.85223992429782,1.85394416349457,1.85246970935805,2.03896900887215,1.84789315690835,1.8969043953812,1.89262464863431,1.89191614469858,1.83928579152701,1.88511833666659,1.95488682558077,1.83230607032234,1.83085076494084,1.83214330590467,1.82704016269193,1.82174553192899,1.82206148638682,1.94064972622364,1.86811424220913,1.92439243321194,1.81954342510173,1.86991422518098,1.81921789626639,1.81856683859573,1.82092213546314,1.82027107779248,1.82176468068401,1.82499124590483,2.06421664236558,1.88157581698795,1.95032942188609,1.9479071043761,1.94592520823156,1.97716640204616,2.06079858959457,2.05330185200437,2.04779658493621,2.05081251385181,1.92570412293079,1.97374834927514,1.92222862389472,1.97069412284951,1.96830052847205,1.91502869200732,1.91423401867401,1.91191701931662,1.83648049891663,1.96439418244803,1.91209893248931,1.91184042429655,1.91113192036082,1.91415742365393,1.91934673626426,1.92167330999915,1.8530058744986,1.95430278855267,2.01350116469598,2.00998736814987,2.01515753200518,1.91989247578232,1.91758505080245,1.91564145216795,1.91534464646515,1.99154711706593,1.91466486566195,1.91634995610368,2.00773738943506,1.91451167562179,1.9134489197182,1.91265424638488,1.99820130943526,2.00655016662384,1.90859471032071,1.90810641706771,2.00122681272837,1.98924926646357,1.90510963690713,1.98456739586126,1.90233306742928,1.97975148397381,1.98800459738729,1.98177167762839,1.96611757039981,1.89489377610414,1.98225997088139,1.97481110517874,1.97536641907431,1.88582684060232,1.9635803603597,1.97149837056033,1.87805244606434,1.8763673556226,1.87454822389574,1.87600352927723,1.95789318011886,1.81013181200956,1.80557440831488,1.80173508293343,1.79604790269259,1.79592343578496,1.98776523794954,1.78918307401804,1.83507306542268,1.83491030100502,1.86447597875539,1.78342887313463,1.85025802815328,1.78033634919895,1.82793057980034,1.8282752573907,1.77769382100624,1.77899593634757,1.89579376759006,1.77504171843601,1.89227039666644,1.82365083305345,1.77907253136765,1.82676250574414,1.67180120574745,1.66961824767521,1.81304242277255,1.66097258478383,1.65708538751483,1.65616624727389,1.65530455329801,1.65378222727394,1.65122586847882,1.65174288486435,1.64964609618969,1.64690782422188,1.64755888189255,1.64454295297695,1.64717590679215,1.64503124622995,1.69390844341766,1.69477013739355,1.64622804341868,1.64684080357931,1.64596953522591,1.64735781996484,1.64910035667163,1.65002907129009,1.64992375313748,1.65099608341858,1.77811509361667,1.70168283795565,1.76226949883789,1.7735672642995,1.65687475120962,1.65485455755504
1.84972186301273,1.85256545313315,1.96013358445616,1.96641437610261,1.84864953273163,1.89392676397564,1.9246413670272,1.88930233963839,1.83835707690856,1.83830920502101,1.9350582897579,1.9525794006009,1.83079331867579,1.93629338445667,1.82662846445901,1.92121373987868,1.82157319313381,1.82201361449927,1.86848764293201,1.8218508500816,1.86824828349426,1.82115192052338,1.82004129273224,1.82157319313381,1.82239658959966,1.99750237987705,1.82248275899725,2.01822133280833,2.06466663810855,1.98121636373282,1.9809099836525,1.94812731505882,1.98121636373282,1.93937633401483,2.04984550172332,2.05874009842996,1.85954517433782,2.04757637425349,1.85466224180781,1.92576156919585,1.92266904526017,1.91859036044098,1.91865738108355,1.9719579406808,1.84099960510127,2.03754242662318,1.83515923482027,1.91081596590299,1.9055692070276,1.91198403995919,1.83986982855511,1.95597830461689,1.84364213329399,1.85026760253079,1.92775303971789,2.02543083907324,2.00850333963585,2.01830750220592,2.01106927280848,1.9183127034932,1.91818823658557,1.91663718742897,1.91433933682661,1.9149137994772,1.91401380799128,1.91448295248926,1.91507656389487,2.01629688292885,2.01134692975627,1.91194574244915,1.99400773208596,1.99691834284895,1.90915959859379,1.90873832598336,1.90637345473843,1.90522452943725,1.90497559562199,1.99429496341125,1.90266817064212,1.89958522108396,1.98331315240747,1.9694207306407,1.97991424839148,1.97609407176505,1.89200231409617,1.88877574887535,1.8862959851003,1.982853582287,1.97796107537947,1.95279961128362,1.95347939208682,1.87611842180735,1.87568757481941,1.8734471704821,1.94444117971754,1.80976798566419,1.80592866028274,1.80207976052379,1.79710108421867,1.79397983715047,1.79211283353605,1.79190219723083,1.78926924341563,1.78822563626706,1.78238526598606,1.78275866670894,1.82865823249109,1.82748058405738,1.82859121184852,1.7800874153837,1.77930231642789,1.84387191835422,1.77926401891785,1.77741616405845,1.77656404446008,1.82634123313371,1.77788530855643,1.77730127152833,1.66775124406079,1.66879485120936,1.66306937345848,1.81006479136699,1.65644390422168,1.7633514034965,1.65405988422173,1.6535428678362,1.6513120378764,1.65044076952301,1.92489987521996,1.64687910108935,1.79989680245155,1.64738654309737,1.64519401064762,1.79583726638738,1.69439673667066,1.64220680486455,1.64640995659137,1.64676420855923,1.64438976293679,1.74098565763353,1.64677378293674,1.64980886060736,1.6474152662299,1.65068012896075,1.77623851562474,1.65105352968364,1.70040944574684,1.65654922237428,1.65158012044668,1.65678858181203
1.8514452509645,1.95943465489794,1.84925271851475,1.84630381024172,2.03422011762727,1.84552828566342,1.8451165874305,1.88877574887535,1.83847196943867,1.83679645337445,1.93571892180608,2.03399033256703,1.83200926461954,1.93460829401494,1.87469183955838,1.87238441457851,1.82237744084464,2.02784358220572,1.86812381658664,1.82033809843504,1.8683823247794,1.82014661088485,1.81934236317402,1.92354031361357,1.81979235891698,1.82209020951934,1.82294232911772,1.82324870919804,1.95933891112284,1.88168113514056,1.97902383128306,1.9783727736124,1.94448905160509,1.97519408027913,1.97450472509842,1.93424446766956,1.93099875369373,1.93017535722788,1.8555335101612,1.92487115208743,1.92163501248911,1.96934413562062,1.91774781522011,1.91414784927642,1.83955387409729,1.91533507208764,1.83740921353508,1.96409737674523,1.96094740654449,1.91053830895521,1.9106244783528,1.95815168831162,1.91884886863375,1.9199690708024,1.85266119690825,2.03749455473563,2.01443945369195,2.00508528686484,2.00731611682463,2.0049512455797,1.91563187779044,1.91550741088281,1.91489465072218,1.98996734477681,1.9142244442965,1.98541951545963,2.0034959401982,1.99332795128276,2.00472146051946,1.98879927072061,1.99581728943532,1.90997342068213,1.91010746196727,1.90783833449743,1.9066319629312,1.97968446333124,2.00165765971632,1.90257242686702,1.99439070718635,1.99487900043935,1.89823523385507,1.99586516132287,1.9775972490341,1.96371440164484,1.89168635963834,1.88866085634523,1.98098657867258,1.97087603602219,1.95434108606271,1.95458044550045,1.95360385899445,1.8770471364258,1.872863133454,1.87243228646606,1.95917614670517,1.80917437425858,1.99710983039914,1.80296060325469,1.79804894759215,1.98812906429492,1.90458304614409,1.90446815361397,1.83617411883631,1.78925009466061,1.78545864116671,1.78530545112656,1.78275866670894,1.90142350156584,1.78104485313468,1.78093953498207,1.78048953923911,1.7777512672713,1.77972358903832,1.77731084590584,1.77901508510259,1.7782395605243,1.95872615096221,1.77640128004241,1.66820123980375,1.66460127386006,1.81153924550351,1.70716895626879,1.70608705161017,1.65347584719363,1.80611057345543,1.70246793691146,1.64943545988448,1.64978971185234,1.64933971610938,1.79996382309411,1.79915000100578,1.64448550671189,1.64326956076814,1.64406423410146,1.79285963498182,1.64302062695289,1.64131638775613,1.64672591104919,1.73622719201114,1.78575544686952,1.6463429359488,1.78022145666883,1.77980975843591,1.65065140582822,1.64973226558728,1.76970879016303,1.65494072695263,1.65293968205308,1.65132161225391,1.65683645369958
1.84948250357499,1.8491091028521,1.95623681280965,1.84661976469954,1.8471559298401,1.84532722373572,1.84494424863532,1.8427804393181,1.83716985409734,1.95872615096221,1.83531242486043,1.83221990092475,1.93747103289038,1.93399553385431,1.82572847297308,1.82420614694902,1.87098655546208,1.8209795817282,1.82217637891693,1.86849721730952,1.82003171835473,1.81995512333465,1.82261680028239,1.82209978389685,1.9253307222079,1.82236786646713,1.82259765152737,1.98382059441549,1.95869742782968,1.97774086469675,1.95443682983781,1.94757200116325,1.94534117120346,1.86897593618501,1.86653446992,1.93497212036031,1.93199448895475,1.85818561273143,1.92677645321189,1.97211113072096,1.92093608293089,1.91679995184664,1.91827440598316,1.84148789835427,1.91435848558163,1.91447337811175,1.91088298654556,1.83647092453912,1.912280845662,1.91008831321225,1.91283615955757,1.9162733610836,1.84338362510122,1.92226692140476,1.92745623401509,2.02356383545882,2.01592348220597,2.00976715746715,2.01296499955543,1.9949268723269,1.91579464220811,1.91417657240895,1.91456912188685,1.91347764285073,2.00082468887296,2.00458741923433,1.9129606264652,2.00497039433472,1.99808641690515,1.99670770654373,1.99016840670451,1.99173860461613,1.90811599144522,1.99193966654383,1.99133648076071,2.00161936220628,1.99540559120239,1.98516100726687,1.99568324815018,1.89901075843337,1.89707673417638,1.98514185851185,1.98048871104207,1.98068977296978,1.978478091765,1.88896723642555,1.99125031136312,1.88505131602403,1.9702058295965,1.95461874301049,1.87600352927723,1.87356206301222,1.87425141819293,1.87421312068289,1.94581989007895,1.99320348437513,1.80863820911803,1.80239571498161,1.90122243963814,1.7968330016484,1.79376920084525,1.83933366341456,1.78843627257227,1.78817776437951,1.83486242911747,1.78545864116671,1.89886714277072,1.78160016703025,1.77926401891785,1.98872267570053,1.89756502742938,1.77945550646805,1.83335925184842,1.77718637899821,1.77935018831544,1.77843104807449,1.77914912638773,1.7785363662271,1.66731082269534,1.66574062478373,1.7102997777145,1.65663539177187,1.70399983731303,1.65509391699279,1.64980886060736,1.64957907554712,1.64774079506523,1.70318601522469,1.64548124197291,1.79803937321464,1.79921702164835,1.64370998213359,1.6433270070332,1.64222595361957,1.79230432108625,1.64071320197302,1.64228339988463,1.64383444904122,1.64256105683241,1.7862245913675,1.64608442775603,1.64602698149097,1.77904380823512,1.64844929900096,1.76765029899842,1.65202054181213,1.73595910944086,1.65259500446272,1.65330350839845,1.6536481859888
1.85174205666731,1.9093606605215,1.85158886662715,1.85129206092434,1.84508786429797,1.84567190132607,2.03404777883209,1.84185172469965,1.95759637441605,1.83576242060339,1.83348371875605,1.83036247168784,1.93376574879407,1.93464659152497,1.82537422100522,1.82426359321408,1.82400508502131,1.8195147019692,1.82277956470005,1.82102745361575,1.82147744935872,1.82152532124626,1.8194189581941,1.8216593625314,1.81934236317402,1.91256807698729,1.91768079457755,1.95891763851241,1.95761552317107,1.95376662341212,1.97680257570078,1.97757810027908,1.94448905160509,1.86965571698821,1.97618981554015,1.86313556590401,1.97116326734749,1.97723342268872,1.92427754068182,1.96933456124311,1.92115629361362,1.91805419530043,1.91477975819207,1.96849201602224,1.91322870903547,1.91285530831259,1.9102415032524,1.90668940919625,1.90872875160585,1.83931451465954,2.03196056453495,1.91813079032051,1.84457084791244,1.91978715762971,1.92534987096292,2.0468104240527,1.99676515280879,1.99512793425461,2.00145659778861,1.91789143088276,1.91526805144507,1.91263509762986,1.91264467200737,2.00544911321021,1.91014575947731,2.00703845987684,2.00459699361184,1.91170638301141,1.99266731923458,2.00722994742704,1.90824045835285,1.90905428044118,1.90834577650546,2.00229914300947,1.98321740863237,1.90490857497942,1.98130253313041,1.98748758100176,1.99514708300963,1.98481632967651,1.98827267995757,1.98211635521874,1.97440898132332,1.96791755337165,1.98806204365235,1.96858775979734,1.98211635521874,1.97072284598204,1.88168113514056,1.87981413152615,1.87625246309249,1.87454822389574,1.87262377401626,1.94757200116325,1.81350199289302,1.81217115441916,1.80501909441931,1.89561185441737,1.79889149281301,1.79247665988142,1.84184215032214,1.83890281642662,1.8375241060652,1.7871054340984,1.7854490667892,1.89854161393538,1.78298845176918,1.78075762180938,1.87800457417679,1.77895763883753,1.78246186100613,1.77909168012267,1.83273691731028,1.83241138847495,1.77890019257248,1.77848849433955,1.77972358903832,1.77835445305442,1.66446723257492,1.80893501482083,1.70784873707198,1.79263942429909,1.65342797530608,1.65059395956317,1.65088119088846,1.6481907908082,1.64756845627006,1.64614187402109,1.71449335506381,1.64163234221396,1.64382487466371,1.64355679209344,1.64011959056741,1.64187170165171,1.64078022261558,1.64073235072803,1.64258977996494,1.64236956928222,1.64369083337857,1.78805329747188,1.64513656438256,1.64597910960342,1.64821951394073,1.64812377016563,1.76039292084596,1.69830308269468,1.65013438944269,1.65347584719363,1.70137645787533,1.70110837530506
1.8505644082336,1.85157929224964,1.85012398686814,1.84603572767144,1.84774954124571,1.84389106710924,1.84425489345461,1.84146874959925,1.8361645444588,1.83282308670787,1.83211458277214,1.82931886453927,1.93273171602301,1.93397638509929,1.93389979007921,1.82427316759159,1.82548911353534,2.02754677650291,1.82066362727038,1.82250190775227,1.8214583006037,1.81791578092506,1.82188914759164,1.82141042871615,1.82261680028239,2.10591305642092,1.81984023080453,1.82159234188883,1.95762509754858,1.95143047529972,1.95367087963702,1.97632385682529,1.94604010076168,1.94131035827182,1.93648487200686,2.05266036871121,1.97173772999808,1.93088386116361,1.92603922614363,1.92262117337262,1.92227649578227,1.91847546791086,1.91737441449723,1.91165851112386,1.91342019658567,1.91207020935678,1.90921704485885,1.90845109465806,1.91083511465801,1.91191701931662,1.91225212252947,1.91408082863385,1.84505914116544,1.92228607015978,1.92408605313163,1.95099005393426,2.01412349923412,2.00727781931459,2.02041386525808,2.01152884292896,1.91571804718803,1.91252977947725,1.91287445706761,1.91593825787076,2.0009587301581,1.91116064349335,2.00380232027852,2.00093000702557,1.98104402493764,1.9947353847767,1.98876097321057,1.90841279714802,1.90816386333277,1.90794365265004,1.99277263738719,1.90518623192721,1.90278306317224,1.98118764060029,1.90096393144537,1.98117806622278,1.98265252035929,1.97969403770875,1.97850681489753,1.9880141717648,1.98104402493764,1.97825788108228,1.9762376874277,1.88487897722885,1.88159496574297,1.9646526906408,1.87601310365474,1.87623331433747,1.87479715771099,1.87409822815277,1.87318866228934,1.81158711739106,1.80482760686911,1.80098828148767,1.79743618743152,1.87647267377521,1.79301282502197,1.83849111819369,1.83737091602504,1.78792883056425,1.78348631939969,1.89902033281088,1.90086818767027,1.78215548092582,1.89986287803174,1.89883841963819,1.77997252285358,1.88095348244982,1.77915870076524,1.83137735570389,1.77817253988173,1.78182995209049,1.78138953072503,1.66710018639012,1.81607750044317,1.76056525964114,1.65930664309712,1.79418089907817,1.70128071410024,1.81251583200951,1.64915780293669,1.64685995233433,1.64616102277611,1.80322868582497,1.64363338711351,1.6435184945834,1.64258020558743,1.64310679635047,1.79551173755204,1.6378791862301,1.63892279337868,1.64072277635052,1.64094298703325,1.64097171016578,1.63985150799713,1.78907775586543,1.64491635369983,1.64503124622995,1.77656404446008,1.75354724092643,1.69652224847785,1.7588705948219,1.65137905851897,1.76538117152859,1.64875567908128,1.70000732189143
1.84943463168744,1.85021015626573,1.85178992855486,1.84636125650678,1.84440808349477,1.84234001795265,1.84256980301288,1.84007089048282,1.83643262702908,1.83396243763154,1.88141305257029,1.83523582984035,1.82871567875615,1.82847631931841,1.93852421441646,1.94875922397447,2.02561275224592,1.82190829634666,1.82336360172815,1.93831357811124,2.00565017513792,1.86832487851434,1.8693589112854,1.82216680453942,1.82033809843504,1.82018490839489,1.86951210132556,1.87092910919702,1.95509746188598,1.95298152445631,1.87672160759047,1.94682519971749,1.87159931562271,1.9775972490341,1.93755720228797,1.97266644461653,1.9747728076687,1.92917962196686,1.92567539979826,1.92373180116376,1.92029459963773,1.84548041377587,1.91716377819201,1.91279786204753,1.91236701505959,1.83690177152706,1.83707411032224,1.90872875160585,1.96111017096216,1.91103617658572,1.91192659369413,1.91448295248926,1.95454214799041,1.95429321417516,2.04014665730586,2.03787752983602,1.99418007088113,2.01002566565991,2.01006396316995,1.99068542309004,1.9151052870274,1.91447337811175,1.91454039875432,1.91372657666598,2.01234266501729,2.02170640622191,1.91336275032061,1.91214680437686,1.91180212678651,1.91097873032066,1.98873225007804,1.90908300357371,1.99750237987705,1.99364390574058,1.99135562951573,2.00084383762798,1.90247668309193,1.97920574445575,1.98839714686519,1.98591738309015,1.9754621628494,1.97753022839153,1.98432803642351,1.99440985594137,1.97152709369286,1.96129208413485,1.97445685321087,1.9745813201185,1.98167593385329,1.87744926028122,1.87462481891581,1.87444290574313,1.87474928582344,1.95406342911492,1.97178560188563,1.81083074156778,1.8060818503229,1.80249145875671,1.8468686985148,1.87517055843387,1.79156709401799,1.9871429034114,1.90485112871437,1.90210328236904,1.78666501273295,1.78648309956027,1.78307462116676,1.83179862831432,1.78211718341578,1.77968529152828,1.78196399337562,1.89484590421659,1.8740312075102,1.78229909658847,1.77978103530338,1.78030762606642,1.88588428686738,1.66441936068737,1.8144498562665,1.66155662181193,1.70617322100776,1.70447855618852,1.70084029273478,1.64685995233433,1.80702971369637,1.79359686205007,1.69725947554611,1.64306849884043,1.64141213153123,1.64258020558743,1.64129723900112,1.64049299129029,1.7938170727328,1.79588513827492,1.63808024815781,1.79438196100588,1.73362296132846,1.68929359345792,1.73913780277413,1.87406950502024,1.64373870526612,1.64324083763561,1.64658229538654,1.64668761353915,1.69522013313651,1.64773122068773,1.65008651755514,1.65029715386036,1.64852589402104,1.70017966068661
2.04060622742633,1.84960697048261,1.95850594027949,1.84831442951879,1.84357511265142,1.84282831120565,1.84226342293257,1.83970706413744,1.83831877939852,1.95819956019917,1.83348371875605,1.87956519771089,1.82936673642682,1.82977843465974,1.93633168196671,1.82546039040281,1.82176468068401,1.82189872196915,2.02569892164351,1.82063490413785,1.82113277176836,1.82138170558362,1.81984023080453,1.82284658534262,1.81985937955955,1.93094130742867,1.86979933265086,1.97671640630319,1.98047913666456,1.95391023907476,1.94933368662506,1.94851986453673,1.94221034975775,1.8689663618075,1.93553700863339,1.93650402076188,1.93072109674594,1.97150794493784,1.92492859835249,1.92472753642478,1.84896548718945,1.8458921120088,1.84334532759118,1.96974625947603,1.91517230766997,1.91454039875432,1.91167765987888,1.95887934100237,1.90851811530063,1.9105287345777,1.95863040718711,1.83941983281215,1.91511486140491,1.92111799610358,1.92547433787055,2.03984985160305,2.00422359288895,2.00648314598127,2.01136607851129,1.99831620196538,1.91511486140491,1.91488507634467,1.91294147771018,1.99781833433487,1.99230349288921,2.00404167971627,1.91176382927647,2.00414699786887,1.98286315666451,1.98225997088139,1.99435240967631,1.99790450373246,1.99390241393335,1.98745885786923,1.99002479104187,1.98876097321057,1.98395463570063,1.98536206919458,1.90067670012008,1.97967488895373,1.98221209899384,1.97703236076102,1.8945682472688,1.89230869417648,1.97919617007824,1.88760767481915,1.88557790678707,1.88423749393569,1.96952604879331,1.96512183513878,1.87530459971901,1.8751992815664,1.87465354204834,1.94848156702669,1.81540729401748,1.81080201843525,1.80538292076468,1.80215635554387,1.84644742590437,1.84294320373577,1.9042958148188,1.89610014767038,1.89861820895546,1.78936498719073,1.78664586397793,1.98180040076092,1.78396503827518,1.7845682240583,1.78309376992178,1.78277781546396,1.78179165458045,1.7807767705644,1.78318951369688,1.78166718767282,1.78221292719088,1.78026932855638,1.78175335707041,1.7825288816487,1.66064705594849,1.65962259755494,1.65681730494456,1.71086466598758,1.65007694317763,1.64808547265559,1.80882969666822,1.6436142383585,1.64404508534644,1.64084724325815,1.64150787530633,1.63995682614974,1.6400142724148,1.79997339747162,1.64107702831839,1.63930576847907,1.63727600044698,1.63765897554738,1.79122241642763,1.78957562349594,1.64051214004531,1.64046426815776,1.64187170165171,1.64170893723404,1.64627591530623,1.64618017153113,1.64757803064757,1.64675463418172,1.88624811321275,1.77292578100634,1.65083331900091,1.64929184422183
1.96063145208667,2.0333775724064,2.02964356517757,1.84608359955899,2.03341586991644,1.8437570258241,1.88828745562235,1.95076026887403,1.8374283622901,1.95183259915513,1.83347414437854,1.82850504245094,1.82887844317382,1.82861036060354,1.93528807481813,1.82491465088475,1.81946683008165,1.94263162236818,1.82129553618603,2.02074896847093,2.00769909192502,1.82178382943903,1.91515315891495,1.86937806004042,1.87146527433757,1.82290403160768,1.91447337811175,1.91539251835269,1.96098570405453,1.97585471232731,1.95019538060095,1.87463439329332,1.87146527433757,1.94071674686621,1.93806464429599,1.93872527634417,1.93235831530012,1.97250368019887,1.92692964325205,1.92264989650515,1.91960524445702,1.9206584259831,1.91521060518001,1.91213722999935,1.91266382076239,1.83706453594473,1.83675815586441,2.03725519529789,1.83526455297288,1.95771126694617,2.05181782349035,1.8394677046997,1.91619676606352,1.91932758750924,1.92450732574206,1.95071239698648,2.00314168823034,2.00171510598137,2.01854686164367,1.91498082011977,1.91489465072218,1.9142244442965,1.91145744919615,1.91195531682666,1.91104575096323,1.90911172670624,1.99788535497744,2.00878099658363,1.98251847907415,1.9817812520059,1.98037381851195,1.90889151602352,1.90784790887494,1.98195359080107,1.99251412919442,1.98546738734718,1.98854076252784,2.00058532943521,1.98239401216653,1.89778523811211,1.97248453144385,1.99021627859206,1.97460046887352,1.97940680638346,1.97696534011845,1.88671725771074,1.88535769610434,1.96779308646403,1.96577289280945,1.96452822373317,1.87478758333348,1.87349504236965,1.87336100108452,1.87319823666685,1.87220250140583,1.8093945849413,1.97560577851205,1.80217550429889,1.8469644422899,1.79718725361626,1.79330005634727,1.89550653626477,1.89830225449764,1.89406080526078,1.8776311734539,1.78406078205028,1.7841756745804,1.78432886462055,1.78312249305431,1.78579374437956,1.88339494871482,1.78317993931937,1.78313206743182,1.78303632365672,1.77958954775318,1.88837362501994,1.8881438399597,1.81034244831478,1.66379702614923,1.65694177185219,1.6564630529767,1.65186735177197,1.8590377323298,1.64652484912149,1.64379615153118,1.64158447032641,1.64149830092882,1.69155314655024,1.6407993713706,1.63998554928227,1.79964786863629,1.63776429369999,1.73857291450105,1.63755365739477,1.63644302960363,1.63698876912169,1.63605048012573,1.63525580679241,1.7899203010863,1.63964087169191,1.63743876486465,1.64107702831839,1.64241744116977,1.64589294020584,1.64635251032631,1.64677378293674,1.647511010005,1.64891844349894,1.64978013747483,1.64979928622985
1.96024847698628,1.84864953273163,1.84868783024167,1.84853464020151,1.84330703008114,1.84225384855506,1.89069062437732,1.88669810895572,1.83675815586441,1.8347954084749,1.83291883048297,1.82917524887662,1.93501999224786,1.94043908991843,1.87261419963875,1.87150357184761,1.82343062237072,1.82159234188883,1.82110404863583,1.8199072514471,1.82021363152742,1.8218508500816,1.82223382518199,1.82094128421816,1.82180297819405,1.8201944827724,1.82092213546314,1.91394678734871,2.06775916204422,1.95401555722737,1.95031027313107,1.97377707240767,1.94457522100267,1.94186567216739,1.86412172678752,1.93541254172576,1.93084556365357,1.92867217995884,1.9265945400392,1.84914740036214,1.92082119040077,1.8457006244586,1.84324958381608,1.84128683642657,1.91138085417607,1.91113192036082,1.96208675746816,1.90886279289099,1.83570497433833,1.90957129682671,1.91000214381466,1.91255850260978,1.8424836336153,1.92081161602326,1.92225734702725,1.95097090517924,1.92204671072203,2.01467881312969,2.01784793208545,2.00580336517807,1.91416699803144,1.9846056933713,1.91348721722824,1.91181170116402,1.91027980076244,1.90924576799138,1.99710983039914,1.98502696598173,2.00060447819023,1.99805769377262,1.98972798533906,1.99233221602174,1.99436198405382,2.00123638710588,1.90484155433686,1.99458219473655,1.90122243963814,1.98789927923468,1.99012053481696,1.98445250333114,1.98873225007804,1.89416612341339,1.9692292430905,1.9802302028493,1.97492599770885,1.98374399939541,1.88518535730916,1.88202581273092,1.97035901963666,1.95861125843209,1.87683650012059,1.87299717473914,1.87202058823314,1.95814211393411,1.81505304204962,1.81168286116615,1.89958522108396,1.80226167369648,1.79640215466046,1.84349851763134,1.79214155666858,1.90156711722849,1.8911597688753,1.7902171067891,1.90145222469837,1.78835967755219,1.78790010743172,1.83260287602514,1.78296930301416,1.78104485313468,1.8823034696787,1.83176033080428,1.87833010301212,1.78286398486155,1.78271079482139,1.78260547666878,1.77995337409856,1.66346192293638,1.65929706871961,1.65751623450278,1.81002649385695,1.65157054606917,1.80858076285297,1.6458546426958,1.81213285690912,1.81229562132678,1.63932491723409,1.63885577273611,1.63696004598916,1.63745791361967,1.63770684743493,1.79914042662827,1.63656749651126,1.63658664526628,1.79560748132714,1.6335898651057,1.69281696438154,1.63588771570806,1.63688345096908,1.63720897980442,1.68520533426122,1.63993767739472,1.64151744968384,1.64321211450308,1.74032502558535,1.64755888189255,1.77233216960073,1.64712803490461,1.6488705716114,1.74009524052511
1.84786443377582,1.84556658317346,1.84820911136618,2.1167033798745,1.84307724502091,1.84195704285225,1.83919004775191,2.03041908975586,1.88536727048185,1.88480238220877,1.88138432943776,2.02321915786847,1.9480028481512,1.93912740019958,1.89666503594346,1.82270296967997,1.86955997321311,1.82092213546314,1.81949555321418,1.93465616590248,1.81991682582461,1.93064450172586,1.82054873474026,1.87048868783157,1.89132253329297,1.82231042020207,1.81985937955955,1.95562405264903,1.95730914309076,2.0531390875867,2.0507071956992,2.04697318847037,1.97144092429527,1.94040079240839,1.97174730437559,2.05432631039792,2.0435934332094,1.92996472092267,1.92477540831233,1.92197011570195,1.92175947939674,1.91828398036067,1.96792712774916,1.90919789610383,1.83842409755112,1.90978193313193,2.05133910461485,1.83565710245078,2.03152014316949,1.90904470606367,1.91149574670619,1.8400517417278,1.91694356750929,1.92087863666583,1.85264204815323,2.03514883224572,2.01417137112167,2.00187787039904,2.02058620405326,1.91647442301131,1.91466486566195,1.91281701080255,1.91114149473833,1.98907692766839,1.91059575522027,2.00088213513802,1.90973406124438,1.98265252035929,2.01014055819003,1.99360560823054,1.99196838967636,2.00724909618206,1.90625856220831,1.9895747952989,2.00314168823034,1.99160456333099,1.90101180333292,1.98999606790934,1.98259507409423,1.89766077120448,1.9816855082308,1.98432803642351,1.97376749803016,1.88871830261029,1.97716640204616,1.98907692766839,1.96803244590177,1.88291622983933,1.97123986236757,1.97024412710654,1.87581204172703,1.87432801321301,1.87172378253033,1.87128336116488,1.86218770253054,1.81088818783284,1.80519143321448,1.90097350582288,1.89916394847352,1.79451600229102,1.79319473819466,1.9016724353811,1.88768426983923,1.8861906669477,1.78878095016263,1.78711500847591,1.78620544261248,1.83325393369581,1.78415652582538,1.89741183738922,1.78385014574506,1.88013008598397,1.8307071492782,1.78381184823502,1.78193527024309,1.78018315915879,1.78139910510254,1.78288313361657,1.65910558116941,1.65648220173171,1.74079417008333,1.65026843072783,1.64608442775603,1.64378657715367,1.64061745819792,1.63942066100919,1.63683557908153,1.80704886245139,1.63736216984457,1.63516006301731,1.80212763241134,1.79784788566444,1.72945810711168,1.63369518325831,1.63374305514585,1.79361601080509,1.69124676646993,1.63719940542691,1.63483453418198,1.6346621953868,1.63605048012573,1.82992205032239,1.63746748799718,1.64267594936253,1.77545341666893,1.7722077026931,1.64444720920185,1.77275344221116,1.77247578526338,1.64763547691263
2.02895420999686,1.84829528076377,1.84591126076382,1.84695486791239,1.84405383152691,2.03089780863135,1.83905600646677,1.83982195666756,1.83661454020177,1.88223644903613,1.92031374839275,1.82929014140674,1.94904645529977,1.82631251000118,1.87301632349416,1.82206148638682,1.87506524028127,1.82231042020207,1.82004129273224,1.86948337819303,1.81931364004149,2.0144873255795,1.82017533401738,1.81958172261177,1.82070192478042,1.81966789200936,1.82088383795311,1.82142957747117,1.97506003899399,1.95324960702659,2.05105187328956,1.9482039100789,2.04705935786796,1.86843019666695,1.97077071786959,1.96836754911462,1.9294189814046,1.92887324188654,1.92480413144486,1.9682526565845,2.0499220967434,1.91893503803133,1.91342977096318,1.91322870903547,1.91299892397524,1.90908300357371,1.96265164574124,1.96206760871314,1.90953299931668,1.90755110317214,1.95758680003854,2.04157323955482,1.91551698526032,1.9154978365053,1.95089431015917,1.95128685963707,1.9219222438144,2.00367785337089,1.99838322260795,1.91490422509969,1.91185957305157,1.91184999867406,1.9119936143367,1.90989682566205,1.90974363562189,1.91048086269015,2.00081511449545,1.98463441650383,1.90829790461791,1.98200146268862,1.99279178614221,1.90563622767017,1.90559793016013,1.98833970060013,1.98813863867243,1.98600355248773,1.98154189256815,1.98512270975683,1.98400250758818,1.97926319072081,1.98688439521864,1.97848766614251,1.97794192662445,1.98158019007819,1.8863917288754,1.88615236943766,1.97797064975698,1.88139390381527,1.96517928140384,1.96710373128332,1.87464396767083,1.87225037329338,1.87218335265081,1.87022060526129,1.95807509329154,1.8106584027726,1.90326178204773,1.80166806229087,1.79899681096562,1.99048436116234,1.98803332051982,1.79144262711036,1.79048518935938,1.83951557658725,1.83639432951904,1.78694266968074,1.78694266968074,1.83487200349498,1.78667458711046,1.97618024116264,1.78393631514265,1.8315879920091,1.83134863257136,1.97286750654424,1.78228952221096,1.78227994783345,1.782327819721,1.7821363321708,1.65855984165135,1.65339925217355,1.65039289763546,1.64879397659132,1.64685995233433,1.64129723900112,1.6437195565111,1.63851109514575,1.80543079265223,1.63656749651126,1.63730472357951,1.73007086727231,1.63211541096918,1.68221812847815,1.63305369996515,1.63167498960373,1.6340781583587,1.63277604301736,1.63316859249526,1.63279519177238,1.63293880743503,1.63267072486475,1.78426184397798,1.63689302534659,1.63741004173212,1.63936321474413,1.77675553201027,1.77163324004251,1.64414082912154,1.77176728132765,1.7699672983558,1.76833965417913
1.84766337184812,1.84859208646657,1.93931888774977,1.84625593835417,1.84334532759118,1.84176555530206,1.93007003907527,1.88698534028101,1.83824218437844,1.83409647891668,1.83394328887652,1.82546039040281,1.94232524228786,2.02551700847083,1.82668591072407,1.87184824943796,1.89063317811226,1.82202318887678,2.01120331409362,1.82157319313381,1.81890194180857,1.81944768132663,1.81894981369612,1.92456477200712,1.82066362727038,1.82006044148726,1.92782006036046,1.81986895393706,1.97622811305019,1.87979498277113,1.972637721484,2.05064974943415,1.94394331208703,1.94370395264928,1.941482697067,1.9325306540953,1.92958174582227,1.92778176285042,1.96569629778937,1.92148182244895,1.91830312911569,1.91808291843296,1.84208150975988,1.91239573819212,1.83687304839453,1.90798195016008,1.96214420373322,1.90836492526048,1.90559793016013,1.8356762512058,1.83677730461943,2.04698276284788,1.9151052870274,1.95425491666512,1.95137302903466,2.03825093055891,1.92137650429634,1.9978470574674,1.91794887714782,1.98428973891347,1.98523760228695,1.91229999441702,1.91093085843311,1.90982980501948,2.00223212236691,1.9098489537745,2.00375444839097,2.01047566140287,1.90816386333277,1.98855033690535,1.97833447610236,1.99193009216632,1.98647269698572,1.98464399088134,1.98631950694556,1.97650576999798,1.98574504429497,1.9943428352988,1.97099092855231,1.96850159039975,1.89483632983908,1.97087603602219,1.97103880043986,1.98134083064044,1.97499301835142,1.97305899409444,1.96626118606245,1.97495472084138,1.95768254381364,1.87709500831335,1.87343759610459,1.87331312919697,1.87359078614475,1.96939200750817,1.81467006694922,1.80897331233087,1.85555265891622,1.80281698759205,1.79927446791341,1.79622024148777,1.79288835811435,1.79195006911838,1.89484590421659,1.79144262711036,1.83656666831422,1.83607837506122,1.78883839642769,1.7865118226928,1.78670331024299,1.78696181843576,1.78385972012257,1.83144437634645,1.78344802188965,1.89011616172673,1.78187782397803,1.97814298855216,1.78220335281337,1.81274561706975,1.80969139064411,1.65321733900086,1.64959822430214,1.81082116719027,1.64409295723399,1.64075149948305,1.68767552365876,1.63721855418193,1.63736216984457,1.63470049289684,1.7327804161076,1.80470313996148,1.63016223795718,1.63293880743503,1.6317420102463,1.63245051418203,1.62999947353951,1.7920649616485,1.78985328044373,1.63112925008567,1.63241221667199,1.6331015718527,1.74135905835641,1.78589906253217,1.6377738680775,1.63934406598911,1.64131638775613,1.63876002896101,1.77040771972125,1.6450791181175,1.76883752180964,1.74307287193067
1.84823783449871,2.03003611465547,1.95855381216703,1.8457006244586,1.84396766212932,1.8399559979527,1.84008046486033,1.88636300574287,1.8370358128122,1.83426881771186,1.83212415714965,1.82898376132643,1.8289550381939,1.94712200542029,1.87321738542187,1.87151314622512,1.8220423376318,1.91143830044113,1.82119979241093,1.86987592767094,1.81958172261177,1.81962959449932,1.81926576815394,1.82264552341492,2.01190224365184,1.81975406140695,1.91477018381456,1.87848329305228,1.97437068381328,1.97473451015866,1.8744141826106,1.87497907088368,1.97109624670492,1.93939548276985,1.93781571048073,1.93547956236833,1.92933281200702,1.92779133722793,1.85223992429782,1.92135735554132,2.05054443128154,1.91740313762976,1.91479890694709,2.05626990903242,1.83708368469975,1.91194574244915,1.96073677023928,1.90622983907578,1.9080010989151,1.83573369747086,1.83822303562342,2.03849028999665,1.84195704285225,1.84401553401687,1.92439243321194,1.95104750019932,2.00776611256759,2.00863738092099,1.99056095618242,1.91523932831254,1.98518015602189,1.91084468903552,1.90979150750944,1.91157234172627,2.01150011979643,1.90757025192716,1.90913087546126,2.00409912598132,2.0007672426079,1.99105882381293,2.00841717023826,1.99419921963615,1.98173338011835,1.98251847907415,1.98116849184527,1.90252455497948,1.9853812179496,1.96820478469695,1.97148879618282,1.96734309072106,1.98514185851185,1.97186219690571,1.96254632758864,1.96818563594193,1.96541864084159,1.97371962614261,1.95976018373327,1.97830575296983,1.95931018799031,1.87581204172703,1.87446205449815,1.87195356759057,1.86947380381552,1.86951210132556,1.81478495947934,1.97086646164468,1.85380054783192,1.80297975200971,1.80030850068447,1.88695661714848,1.9852854741745,1.79365430831513,1.79226602357621,1.79041816871681,1.8517324822898,1.83549433803312,1.78863733449998,1.7868086283956,1.78742138855623,1.78587033939964,1.88568322493967,1.88731086911635,1.78389801763261,1.78246186100613,1.78086293996199,1.78200229088566,1.88309814301202,1.88201623835341,1.65428009490445,1.65080459586838,1.80970096502162,1.64424614727414,1.64195787104929,1.64094298703325,1.79879574903791,1.63832918197307,1.63652919900122,1.63233562165191,1.80253933064426,1.63123456823828,1.63035372550737,1.7515749191594,1.63091861378045,1.63003777104955,1.79285006060431,1.78843627257227,1.62941543651141,1.63138775827844,1.78945115658831,1.63064095683267,1.78438631088561,1.73819951377816,1.63617494703335,1.63950683040678,1.64033980125013,1.77344279739187,1.77551086293399,1.7709438848618,1.76687477442012,1.74603135458121
1.84711763233006,1.846571892812,1.84575807072366,1.84572934759113,1.84400595963936,1.84133470831411,1.83923791963946,1.83706453594473,1.92090735979836,1.88457259714853,1.88302154799194,1.95138260341217,1.82746143530236,1.94361778325169,1.82538379538273,1.87037379530145,1.82264552341492,1.82245403586472,1.81934236317402,1.86905253120509,1.86834402726936,1.93184129891459,1.92845196927611,1.82209020951934,1.92185522317183,1.8196104457443,2.00768951754751,1.87862690871493,1.88167156076305,1.95241663618323,1.87530459971901,1.87296845160661,1.94401033272959,1.93747103289038,1.93577636807114,1.93512531040047,1.93050088606322,2.05757202437376,1.92479455706735,1.91979673200722,1.91583293971815,1.91533507208764,1.84150704710929,1.96341759594203,1.9102415032524,1.90765642132475,1.90931278863395,1.90587558710792,1.90609579779064,1.90723514871431,1.90884364413597,1.91322870903547,1.91475103505954,1.84525062871564,2.03442117955497,2.05043911312893,2.01734049007743,2.00842674461577,2.00899163288885,2.0083597239732,1.91262552325235,1.91193616807164,1.91198403995919,1.99095350566032,1.90897768542111,1.90788620638498,1.99397900895343,2.00515230750741,1.99793322686499,1.99284923240727,2.0000874618047,1.98108232244768,1.97766426967667,1.98770779168448,1.98248975594162,1.9829493260621,1.98173338011835,1.99438113280884,1.97085688726717,1.98473016027893,1.98413654887332,1.97581641481727,1.97742491023892,1.9772142739337,1.98843544437523,1.95983677875335,1.9742940887932,1.88175773016064,1.95212940485793,1.95654319288997,1.87372482742989,1.87187697257049,1.86924401875529,1.96768776831142,1.94246885795051,1.97063667658445,1.85466224180781,1.90358731088307,1.7996574430138,1.79532025000184,1.79458302293359,1.79315644068462,1.79296495313442,1.79156709401799,1.89153316959818,1.78999689610638,1.89521930493947,1.88996297168657,1.83315818992071,1.83364648317372,1.83282308670787,1.88576939433726,1.78600438068477,1.89015445923677,1.77965656839575,1.78235654285353,1.78107357626721,1.65820558968349,1.81159669176857,1.81209455939908,1.75645785168942,1.69175420847795,1.64300147819787,1.63943980976421,1.63702706663173,1.80600525530282,1.63133988639089,1.72554218671016,1.63088989064792,1.90554048389507,1.62778779233474,1.63021968422224,1.62972181659172,1.62719418092913,1.63011436606963,1.63016223795718,1.62876437884074,1.62974096534674,1.62953032904153,1.78536289739161,1.78272994357641,1.6333983775555,1.63360901386072,1.63552388936268,1.63754408301726,1.77700446582553,1.73576762189067,1.64310679635047,1.76702796446028,1.64305892446292
1.84786443377582,1.84826655763124,1.94094653192645,1.84166023714945,1.84218682791249,1.840731522531,1.88651619578303,1.83823261000093,1.92059140534054,1.91191701931662,1.88047476357432,1.83091778558341,2.02088300975607,1.94483372919544,2.02113194357132,1.82348806863578,1.82217637891693,1.82036682156757,1.82134340807358,1.8661419204421,1.82067320164789,1.82013703650734,1.82090298670813,1.81915087562383,1.8248667789972,1.87037379530145,1.87083336542192,1.95777828758874,1.95122941337201,1.95148792156478,1.87486417835356,1.94829007947649,1.94164546148466,1.96782180959656,1.93892633827187,1.93566147554102,1.93114236935637,1.96741968574114,1.92468923891475,1.92191266943689,1.9204573640554,1.84535594686825,1.84163151401692,1.91291275457765,1.83879749827401,1.90889151602352,1.90643090100349,1.90731174373439,1.90577984333282,1.91069149899537,1.9099446975496,1.9093606605215,1.95318258638402,1.8442357446996,1.94816561256886,1.92859558493876,1.91873397610363,1.99588431007788,2.00419486975642,1.98774608919452,1.91109362285078,1.91040426767007,1.90793407827253,1.90765642132475,1.98897160951578,2.00435763417409,1.9771089557811,1.99125031136312,1.99036946863222,1.9941513477486,1.90450645112401,1.90475538493927,1.97570152228715,1.97560577851205,1.9760461998775,1.98794715112223,1.89818736196752,1.97105794919488,1.99889066461597,1.9895747952989,1.97539514220684,1.89430016469853,1.96558140525925,1.97095263104227,1.97867915369271,1.97090475915472,1.96364738100227,1.95104750019932,1.94938155851261,1.87585991361458,1.87486417835356,1.87194399321306,1.86978975827335,1.97048348654429,1.80974883690917,1.85673030734993,1.80380314847556,1.90211285674655,1.79898723658811,1.79632555964038,1.79501386992153,1.90068627449759,1.79213198229107,1.79201708976095,1.89059488060222,1.89783310999966,1.83749538293267,1.83505391666766,1.78687564903817,1.78586076502213,1.88789490614445,1.788656483255,1.78608097570485,1.78367780694988,1.78441503401814,1.78285441048404,1.88241836220882,1.65652049924175,1.81066797715011,1.65084289337842,1.75549083956093,1.643135519483,1.81012223763205,1.80858076285297,1.63416432775629,1.63313986936274,1.63309199747519,1.80522973072452,1.63032500237484,1.62930054398129,1.6278452385998,1.62903246141102,1.62878352759576,1.6281420443026,1.62585376807775,1.67605222936182,1.62624631755565,1.62908033329856,1.62838140374035,1.78326610871696,1.73692612156936,1.63315901811775,1.77937891144797,1.7786321100022,1.63643345522612,1.6399185286397,1.6377738680775,1.76777476590605,1.76825348478154,1.64200574293684
1.84840059891637,1.84607402518148,1.84419744718956,1.84059748124586,1.84172725779202,1.8407410969085,1.83862515947883,1.83601135441865,1.91937545939679,2.01748410574007,1.82935716204931,1.83086991369586,1.9388593176293,1.82860078622603,1.94379969642438,2.01671815553929,2.01688091995695,1.81988810269208,1.8211710692784,1.81936151192904,1.81983065642702,1.91767122020004,1.81960087136679,1.8208742635756,1.88736831538141,1.82351679176831,1.86970358887576,1.95765382068111,2.05630820654246,1.9694207306407,1.8755822566668,1.96707500815079,1.96777393770901,1.86484937947827,2.05675820228542,1.93174555513949,1.85556223329373,2.05738053682356,1.92242011144491,1.96488247570104,1.92121373987868,1.91466486566195,1.91334360156559,1.91007873883474,1.96243143505852,1.9082883302404,1.90698621489906,1.90657451666614,1.90574154582278,1.90679472734886,1.90824045835285,1.95245493369327,2.04148707015723,1.84252193112533,1.92114671923611,1.94679647658496,2.01763729578023,1.9160818735334,1.91503826638483,1.98839714686519,1.91071064775039,1.91129468477849,1.90860428469822,1.90651707040108,1.90745535939704,1.90826918148538,1.99519495489718,1.9953194218048,1.99528112429477,1.99575984317026,2.00456827047931,1.90458304614409,1.98506526349177,1.99748323112203,1.99412262461608,1.98125466124286,1.98164721072076,1.98434718517853,1.98125466124286,1.97462919200605,1.89246188421664,1.96291015393401,1.96164633610271,1.97368132863258,1.97524195216668,1.96829095409454,1.96885584236762,1.87939285891571,1.94899858341222,1.9674771320062,1.87166633626528,1.87229824518092,1.87251845586365,1.86971316325327,1.81069670028264,1.81018925827462,1.85296757698857,1.80058615763225,1.79802022445962,1.79422877096572,1.79242878799387,1.79269687056415,1.79198836662842,1.79067667690957,1.78993944984132,1.97671640630319,1.78876180140761,1.9088723672685,1.78891499144776,1.7860331038173,1.78650224831529,1.78542991803418,1.7853533230141,1.89080551690744,1.78442460839565,1.83013268662761,1.78318951369688,1.81285093522235,1.65375350414141,1.81194136935892,1.6446865686396,1.64123021835855,1.63944938414172,1.63678770719398,1.634853682937,1.63289093554748,1.62969309345919,1.8030659214073,1.62999947353951,1.62971224221421,1.73567187811557,1.6274622634994,1.62675375956367,1.62683035458375,1.67638733257466,1.67416607699238,1.62719418092913,1.62957820092908,1.62722290406166,1.62404421072839,1.78241398911859,1.62906118454355,1.63332178253542,1.63325476189285,1.6337909270334,1.76945985634778,1.63741961610963,1.64104830518586,1.64415040349905,1.76383012237199
1.84681125224974,1.8936874045379,1.94997516991822,1.84309639377592,1.84295277811328,1.84201448911731,1.8865832164256,1.83837622566358,1.83825175875595,1.83201883899704,1.82902205883647,1.88134603192772,1.82936673642682,1.82836142678829,1.82653272068391,1.9422677960228,1.82013703650734,1.8186434336158,1.81827003289292,1.81759025208972,1.81937108630655,1.8657493709642,1.86858338670711,1.90872875160585,1.8205870322503,1.86924401875529,1.82234871771211,1.95835275023933,1.97116326734749,1.94837624887408,1.9679654252592,1.94845284389416,1.96723777256846,1.93582423995868,1.93830400373373,1.93082641489855,1.93392851321174,1.96453779811068,1.92569454855328,1.92208500823207,1.91918397184659,1.91794887714782,1.91632123297115,1.91026065200742,1.8354751892781,2.03667115826979,2.04705935786796,1.90559793016013,1.95671553168515,1.90662238855369,1.90820216084281,1.954628317388,2.0441774702375,1.91927971562169,1.91974886011967,1.85226864743035,2.00478848116203,2.00886716598122,2.00068107321031,1.98817693618247,1.98514185851185,1.90967661497932,1.90768514445728,1.90712983056171,1.99550133497749,1.90773301634483,1.90622026469827,1.90699578927657,1.99002479104187,1.99166200959605,1.90492772373444,1.90452559987903,1.98561100300983,1.98903863015835,2.00476933240701,1.99008223730692,1.99081946437518,1.99476410790923,1.98065147545974,1.97544301409439,1.97157496558041,1.99014925794949,1.88924489337333,1.88810554244966,1.98345676807012,1.88474493594371,1.98422271827091,1.87923966887556,1.94758157554076,1.87337057546203,1.87282483594397,1.87163761313275,1.8694546550605,1.86918657249023,1.81043819208987,1.80845629594534,1.80501909441931,1.89734481674665,1.79827873265238,1.79855638960017,1.79496599803398,1.7905043381144,1.79280218871676,1.78996817297385,1.79127986269269,1.87956519771089,1.89465441666639,1.89614801955793,1.78946073096582,1.78674160775303,1.78551608743177,1.78453950092577,1.89095870694759,1.88889064140547,1.78454907530328,1.87551523602423,1.78225122470092,1.65384924791651,1.65059395956317,1.81084031594529,1.64436103980426,1.68923614719286,1.63721855418193,1.68397023956245,1.63295795619005,1.63043032052745,1.72656664510371,1.80272124381695,1.62981756036682,1.6264856769934,1.62766332542711,1.79684257602591,1.62626546631067,1.62560483426249,1.62739524285683,1.62557611112996,1.83511136293272,1.6234697480778,1.7857362981145,1.78655012020283,1.73932929032432,1.63036329988488,1.77977146092587,1.77845019682951,1.63615579827833,1.77553001168901,1.63934406598911,1.6390472602863,1.76697051819522,1.64399721345889
1.84639955401682,1.89221295040138,1.84467616606505,1.89812991570246,1.89983415489921,1.92413392501918,1.88724384847378,1.94490074983801,1.83579114373592,1.94496777048058,1.82861036060354,1.87813861546192,1.94087951128388,1.82576677048312,1.82608272494095,1.8237944487161,1.82141042871615,1.81942853257161,1.81835620229051,1.81755195457968,1.81673813249135,1.81849024357565,1.81849981795316,1.93434021144466,1.86888976678742,1.82316253980045,1.91035639578252,1.95842934525941,1.95181345040011,1.95190919417521,1.9655335333717,1.96499736823115,1.96754415264877,1.96414524863278,1.93426361642458,1.96524630204641,2.04172642959498,1.85256545313315,1.92515838341273,1.96527502517894,1.96292930268903,1.91411912614389,1.91343934534069,1.96048783642402,1.83678687899694,1.83321563618577,1.9062489878308,1.91121808975841,2.0477774361812,1.90639260349345,1.90802982204763,1.9112085153809,1.8386921801214,1.91749888140486,1.94754327803072,1.85552393578369,2.0204330140131,1.91701058815186,1.99120243947558,1.98673120517848,1.98590780871264,1.91020320574236,1.90694791738902,1.90762769819222,1.99390241393335,1.90629685971835,1.99114499321052,1.99347156694541,1.99194924092134,1.9974545079895,1.98848331626278,1.99012053481696,1.90155754285098,1.98842586999772,1.98191529329103,1.98932586148365,1.98124508686535,1.99113541883301,1.9792536163433,2.00461614236686,1.98836842373266,1.97882276935536,1.99040776614226,1.88810554244966,1.88472578718869,1.88296410172688,1.9672760700785,1.87855031369485,1.97726214582125,1.95557618076148,1.87251845586365,1.87040251843398,1.86950252694805,1.87023975401631,1.96118676598224,1.80640737915823,1.80445420614623,1.79999254622664,1.89458739602382,1.79633513401789,1.89902990718839,1.89646397401575,1.98560142863232,1.78993944984132,1.79096390823487,1.7892405202831,1.78731607040362,1.89557355690734,1.78775649176907,1.78961392100598,1.78738309104619,1.78581289313458,1.88519493168667,1.78570757498197,1.78517140984142,1.7859373600422,1.78126506381741,1.65304500020568,1.75936846245241,1.64631421281627,1.68931274221294,1.63947810727425,1.7514696010068,1.68293620679139,1.63299625370009,1.80562228020243,1.62699311900142,1.62653354888095,1.62554738799744,1.62529845418218,1.62302932671235,1.62478143779665,1.62656227201348,1.62381442566816,1.62377612815812,1.73703143972196,1.62087509177264,1.62413038012598,1.7882639337771,1.78602352943979,1.62653354888095,1.78137038197001,1.62980798598931,1.63158882020614,1.63245051418203,1.77276301658867,1.63380050141091,1.76632903490206,1.76563010534384,1.64330785827818
1.84408255465944,1.95124856212703,1.9439145889545,1.84082726630609,1.83977408478001,1.92208500823207,1.93896463578191,1.83765814735034,2.11716294999498,1.92499561899506,1.94425926654485,1.87822478485951,1.82916567449911,1.92932323762951,1.82602527867589,2.01415222236665,1.86769296959869,1.81849024357565,2.00562145200539,1.86561532967906,1.87040251843398,1.818834921166,1.81692962004154,1.82143915184868,1.82160191626634,1.82221467642697,1.82203276325429,1.97410260124301,1.96926754060054,1.96524630204641,1.94795497626365,1.94220077538024,1.94146354831198,1.93796890052089,1.93152534445677,1.93181257578206,1.85585903899654,1.85058355698862,1.84990377618542,1.84808464445855,1.91579464220811,1.91513401015993,1.91271169264994,1.96057400582161,1.836356032009,1.83455604903715,1.90339582333287,1.90430538919631,1.90343412084291,1.90810641706771,1.90645962413602,1.91097873032066,2.02421489312949,1.91517230766997,1.92225734702725,1.94342629570149,2.03164461007712,1.98865565505796,1.91352551473828,1.91224254815196,1.98656844076081,1.90915959859379,1.90690004550147,1.90628728534084,1.98634823007809,1.97787490598188,1.97849724052002,1.9757493941747,1.90458304614409,1.99912044967621,1.99429496341125,1.98406952823075,1.90150009658592,1.99017798108202,1.89841714702776,1.97537599345182,1.98409825136328,1.97815256292967,1.97764512092165,2.01120331409362,1.98716205216642,1.97503131586146,1.88871830261029,1.98115891746776,1.9772142739337,1.88300239923692,1.9739972830904,1.87875137562255,1.96321653401432,1.87500779401621,1.87189612132551,1.86900465931754,1.87190569570302,1.87009613835366,1.9736047336125,1.80584249088515,1.8080254489574,1.8029701776322,1.846571892812,1.84481020735019,1.79532025000184,1.88593215875493,1.79161496590554,1.7913851808453,1.78934583843571,1.78839797506223,1.8946639910439,1.78675118213054,1.88771299297176,1.78975753666863,1.78915435088551,1.78757457859639,1.78637778140766,1.83301457425807,1.78303632365672,1.88178645329317,1.78141825385756,1.6532556365109,1.6474152662299,1.64623761779619,1.6414791521738,1.80869565538308,1.63399198896111,1.63091861378045,1.74336967763347,1.80334357835509,1.62686865209379,1.62400591321835,1.62461867337898,1.62450378084886,1.62422612390108,1.623172942375,1.62321123988504,1.62324953739507,1.62313464486496,1.62106657932283,1.62346017370029,1.62441761145127,1.62406335948341,1.62477186341914,1.78565970309442,1.62487718157175,1.62961649843912,1.62897501514596,1.77389279313483,1.63406858398119,1.63337922880048,1.63754408301726,1.63809939691283,1.68909253153022
2.02783400782821,1.84666763658709,1.89194486783111,1.84460914542248,1.94822305883392,1.83989855168764,1.93660933891449,1.89874267586309,1.83543689176806,1.83322521056328,1.88000561907634,1.87856946244987,1.94188482092241,1.82610187369597,1.82510613843494,1.82389019249119,1.86797062654648,1.81714025634676,1.81622111610582,1.93149662132424,1.81782961152747,1.81836577666802,1.91699143939684,1.81884449554351,1.86809509345411,1.82176468068401,1.82197531698923,1.96807074341181,1.96917179682544,1.95178472726758,1.9461549932918,1.9453794687135,1.9423635397979,1.86499299514092,1.9345699965049,1.92913175007931,1.85567712582385,1.85147397409703,1.92202756196701,1.96227824501836,1.9611484684722,1.91683824935668,1.95812296517909,1.90867130534079,1.90740748750949,2.0390168807597,1.90346284397544,1.90502346750954,1.90526282694729,1.9061532440557,1.906928768634,1.90852768967814,1.91187872180659,1.91711590630447,1.92138607867385,1.94561882815125,1.91742228638478,1.98777481232705,1.9864535482307,2.00384061778856,1.90937980927652,1.90803939642514,1.90574154582278,1.90602877714808,2.00801504638285,1.9050809137746,1.99224604662415,1.90565537642519,1.90422879417623,1.99136520389324,1.99447687658394,1.98123551248784,1.98494079658414,1.98383974317051,1.97625683618272,1.98720034967646,1.89538206935714,1.89465441666639,1.98088126051997,1.97681215007829,1.97036859401417,1.9748781258213,1.97772171594173,1.98148444630309,1.97344196919483,1.96775478895399,1.87883754502014,1.96147399730754,1.97122071361255,1.96020060509873,1.87225994767088,1.87002911771109,1.86923444437778,1.86821956036173,1.86620894108467,1.80747970943934,1.80560313144741,1.80368825594544,1.79939893482103,1.79611492333516,1.79465004357616,1.79363515956011,1.8404442912057,1.83952515096476,1.78868520638753,1.78906818148792,1.78918307401804,1.78931711530318,1.89469271417643,1.78902030960037,1.78736394229117,1.78551608743177,1.78689479779319,1.83295712799301,1.87773649160651,1.78539162052414,1.78280653859649,1.65145565353905,1.64677378293674,1.64399721345889,1.63741961610963,1.63538984807755,1.63396326582858,1.62956862655157,1.63043032052745,1.62472399153159,1.62578674743518,1.62493462783681,1.62377612815812,1.62233039715413,1.62237826904168,1.62091338928267,1.62250273594931,1.62254103345935,1.68195962028539,1.62065488108991,1.78915435088551,1.78594693441971,1.62398676446333,1.62325911177258,1.78345759626716,1.6259016399653,1.62626546631067,1.63021010984473,1.63107180382061,1.63473879040688,1.81982108204951,1.63760152928232,1.63570580253537,1.687905308719
