1.80564147862597,1.77055091789518,1.71262222148197,1.71078911406376,1.71553359536663,1.71399648132991,1.8081829035721,1.81301495632497,1.76306143594969,1.71208357483635,1.71316264080736,1.71353813765788,1.71322460007678,1.8115093323818,1.80155863254162,1.80707616993089,1.71254242540513,1.71218673730787,1.71480041142006,1.86968300589947,1.80357439378016,1.85308428867146,1.93431512884321,1.85276529766836,1.93348797752572,1.93264393141358,1.93094297687654,1.93347485793826,1.92806307029052,1.84412545455709,1.9294903432469,1.92882354168373,1.95512886335051,1.85363494719518,1.84034972871415,1.84235687904606,1.76764331526229,1.92931411711949,1.83829652839968,1.83887673741965,1.94836559035272,1.93833498969542,1.83667716515304,1.83722163313315,1.8335639195414,1.85909991251841,1.76268575019093,1.76150013647317,1.83412306946869,1.83302420665092,1.8326714217499,1.83293053724269,1.86190065661466,1.83251222458531,1.83125319358581,1.8351871492375,1.83127334697885,1.83196993070307,1.83181208184742,1.83276836732566,1.83388180773705,1.94530782889878,1.8380175162537,1.83901444379914,1.83963270162456,1.84090863456101,1.84122361345894,1.84089310487946,1.77305393366052,1.86316902088947,1.86173925465448,1.85206009623555,1.93812542348986,1.95113820054721,1.92084822037827,1.9077669008927,1.93392549143427,1.91880988443623,1.91302828275055,1.83721929551005,1.83691447193831,1.91492767652802,1.92132905593342,1.91333008467256,1.91452363620673,1.83770537414218,1.83972425531777,1.83550826660733,1.83911222985197,1.91230929603894,1.91227140410286,1.93251476275185,1.92385152880357,1.91174865879845,1.92374206643912,1.83970028923437,1.84010073870371,1.90855753703188,1.91563024724024,1.92171106978872,1.84237023781723,1.84518196074418,1.93467448536099,1.92595914601139,1.9277061968473,1.92873978302834,1.91872149800181,1.9375489755404,1.93902427029141,1.93857568858924,1.9216224930477,1.92053819205599,1.92753267352855,1.92813341304212,1.84991710241999,1.94283113501592,1.93488966918965,1.84883249564588,1.9274280212694,1.93333905318699,1.93204871000815,1.9383701171008,1.93829289765267,1.93303516527516,1.85247546312336,1.85238300744444,1.85335239122954,1.92478872030913,1.92502539094084,1.93459479673374,1.9282344332727,1.92806936229691,1.92938023131012,1.92773599370643,1.93455573394643,1.92571832478585,1.92623120863223,1.92664730245574,1.92587441131165,1.9263218508004,1.92562065619858,1.92913480841201,1.92907806680219,1.93304163365589,1.9276654071322,1.93352779472725,1.92887828294881,1.93006073726906,1.93351961129664,1.92825443679143,1.92959762139826,1.94083044619636,1.9435733863584,1.94369511412935,1.94293386540856,1.97406602774435,1.95857718000573,1.7982138591589,1.97814304301626,1.79535073788417,1.97928613141025,1.79301702724779,1.79256257103983,1.79350565191472,1.79204237732564,1.79261915517826,1.79248954461281,1.79429206530452,1.79392535178437,1.79234579830586,1.7927497451059,1.79415621251936,1.79252539106464,1.79438456833132,1.79432503817649,1.79548314102833
1.71661278819838,1.71503293727566,1.8108806337651,1.71343940518733,1.7633232576247,1.81270702328767,1.81299888509153,1.82636366831127,1.7126438934389,1.71321326934331,1.71334098036266,1.76041791916092,1.71463824805034,1.71428262879614,1.71609383785975,1.71464418958824,1.71386465697049,1.71339204164622,1.76335798534146,1.76389643281849,1.76441949078435,1.85308136567085,1.85564311884192,1.92639761980163,1.92703902005213,1.93391181338564,1.93479853185015,1.93479628634324,1.92812657531268,1.77085348850208,1.84654548709148,1.85667084968118,1.93053341140641,1.7702914700417,1.84076707188273,1.76905312428154,1.83931294887094,1.83898347491491,1.8384051867534,1.85855059504021,1.76309001315954,1.86314835058047,1.83922348278095,1.86025636026486,1.83571863686447,1.76034711375335,1.76118742953321,1.95207033883289,1.93442943768261,1.76114676288975,1.83313110524013,1.83261452196849,1.86197301229424,1.95136619738695,1.831906181976,1.83089933601891,1.86469787040344,1.75923442456918,1.83247395352207,1.86352938004514,1.83371906184625,1.76330910510173,1.83769851119783,1.83853438470008,1.86274826964258,1.84169140170622,1.84249298706456,1.77098684881472,1.86335217266366,1.84918044545484,1.8618740784518,1.86045494258206,1.86582508256974,1.9393542435134,1.83951499803465,1.92496185701606,1.92764784909126,1.92840306567722,1.91281236605403,1.92223808176932,1.92163478404302,1.91414635622817,1.91622548625767,1.83909887333345,1.8381773612981,1.84129813216481,1.83502105414052,1.83952659411381,1.83723229671946,1.92587532620089,1.91334248902469,1.83880183258772,1.83910323905366,1.92439822717261,1.9157779021688,1.9182862000782,1.93836356690527,1.9298951870531,1.91710854438548,1.84219797418827,1.84283276676048,1.92829577131288,1.92758034249833,1.93453538209112,1.92703609626483,1.92603183962056,1.92743079852859,1.93118102923029,1.91936316472956,1.92009249850847,1.84635447692538,1.92169107835134,1.93766114888266,1.93664550170076,1.92082668579408,1.84868828239645,1.93558749262703,1.93844086393412,1.85060295545639,1.93871599057838,1.93716692871246,1.93199067465923,1.92784749404642,1.9395980472119,1.93392938278863,1.94413255137196,1.94404333030845,1.85405617106186,1.85373284034472,1.85343128273981,1.94488512737253,1.94506265760944,1.85243189688678,1.95121296910946,1.93308908071331,1.93521790603575,1.93521356517437,1.93818803729913,1.93745034338943,1.92522242603334,1.92760608181709,1.92679728660962,1.92961208339438,1.92920359786846,1.93430042717952,1.93106701867576,1.93004561237986,1.93338407904994,1.93178091868956,1.93438527347051,1.85467044499169,1.92835201772121,1.94843702720012,1.92895485027039,1.95054978570554,1.79923303318733,1.79903538229767,1.79479754668629,1.795209729464,1.79388579118909,1.96198739371448,1.79417380592868,1.95837659520884,1.95890785914855,1.95916151590604,1.97029383604417,1.79168114281994,1.79066897694052,1.79142730754608,1.79298180252139,1.79072213325524,1.79265972273277,1.79499482293819,1.79373460942594,1.96195533931292,1.79358647387601
1.71872890688965,1.81154743532827,1.71501537287357,1.76402435183968,1.76341797066306,1.71696163359358,1.71629483203042,1.82846853753514,1.82892479813366,1.76313047606491,1.76322292557732,1.76372168745816,1.71460172464589,1.71555496176384,1.71404162337422,1.71717776852634,1.79566803238837,1.7960871647995,1.71464211672744,1.76481322123118,1.76572620862003,1.85025144893201,1.8506880788897,1.85061582312955,1.85197361035788,1.85275985218149,1.84711477857801,1.8463303364696,1.84747499073252,1.84787302980903,1.84222304256039,1.84250168941901,1.84329849553372,1.8398674681251,1.84092774021682,1.84000541283908,1.84003138925046,1.76750620645454,1.76729327411277,1.85940156084458,1.83862133106861,1.76412831845075,1.83677309150981,1.86027481080137,1.83649681415045,1.83628236845364,1.86309119616077,1.9574729576219,1.94539356052833,1.86221165314651,1.83260742527381,1.76069905326877,1.86363804960891,1.76023229217456,1.86324360794664,1.8323706667434,1.86373259575962,1.76042495486711,1.76059529745131,1.7606554403374,1.83488233390868,1.83603242344233,1.94478391338487,1.83961607096037,1.952309245312,1.76824978716021,1.77010413055491,1.86614512324725,1.86645867265518,1.85164443599328,1.94244058217718,1.78252251585744,1.99819471859423,1.96271134969734,1.92501945917976,1.92652552468501,1.84003891354856,1.92900889063625,1.83918159725307,1.83811471475201,1.93133421395819,1.92749627939885,1.92781341515375,1.91544464460569,1.83873684114598,1.83555143761526,1.84106114071891,1.83789412854737,1.91183438488975,1.91493942628811,1.91406637336061,1.91168129617231,1.8394816555783,1.92685757306142,1.92616968937785,1.91612713828547,1.84046757169631,1.91787371337331,1.9259229489536,1.93511762812541,1.93501490233446,1.93506937090521,1.93899970185693,1.9383929897653,1.92912687930449,1.92091774042228,1.92232557039796,1.92377735048606,1.92141310871047,1.92116122850256,1.93824925806587,1.85011079239787,1.85054262579115,1.94028845502669,1.94589899599376,1.92601821225014,1.94518399432277,1.85047912088037,1.92633093217605,1.93157172012759,1.85250333991141,1.85282721495637,1.92482749517302,1.8545656618889,1.92808627592073,1.94902330261515,1.93429626703101,1.93464374163319,1.9274280218095,1.93799206317722,1.94885247119729,1.93532485989988,1.94924685707179,1.94979989412311,1.93848402406818,1.93792981976612,1.93017542529899,1.92889440159024,1.92821570912074,1.92902859466418,1.9249546999741,1.94223101137522,1.9325628071536,1.93370378426744,1.92976996467273,1.93423228075273,1.93347265843587,1.93126221760003,1.93438379059235,1.9340625460681,1.92770426617813,1.85509910313943,1.92893335002321,1.93052862178855,1.85531819508162,1.79551953937229,1.79644577158999,1.79733454494075,1.79543804645885,1.79642457216685,1.84128947254396,1.79425120132471,1.79256059863123,1.79160854700037,1.79095571625762,1.88961084690143,1.79006978591813,1.88761679270302,1.79242786674203,1.95973931987296,1.7937747397977,1.79450918742592,1.79191104373209,1.96342282196383,1.96377514163325,1.88781048268089
1.71954286318673,1.87885629026127,1.71664500363616,1.71765795359808,1.71772863069514,1.76371765516187,1.76347688652009,1.763547779344,1.71652648874299,1.71700834988881,1.7170488893019,1.71659535679542,1.71680714674894,1.89199228105559,1.71689016610553,1.71676250670762,1.71729406497411,1.76404099919843,1.76418706049323,1.71685791981504,1.71742254244063,1.77917410732564,1.8536909075215,1.85082391950593,1.85340394638112,1.85198055379662,1.85135462648372,1.77347665651335,1.93198132337214,1.84838362547162,1.76908764824932,1.77015452578038,1.84555257499559,1.77026980023237,1.76990755281572,1.76880743657217,1.84203305422427,1.84223423210887,1.7669928111693,1.83932797501246,1.84003601804725,1.93311488602952,1.85905287629078,1.86103909446352,1.83699727698752,1.76345851434106,1.94408853461186,1.93441038620937,1.76137307698753,1.86120827555622,1.83416610012669,1.86264348653979,1.76032560009986,1.86328171089311,1.83454898601691,1.76003040332272,1.95446523703289,1.95508758515851,1.86590128846267,1.86666334739201,1.83521697742774,1.83634748961489,1.86726959963917,1.86648332543123,1.86646844253505,1.83861129860192,1.86636467174398,1.86756704516562,1.8481851319908,1.7789061699629,1.77920458222156,1.86867095406555,1.87092795680212,1.97441847999916,1.94819412709362,1.9180842645727,1.93253252676009,1.9334176185686,1.93254523439664,1.92558952942008,1.92976882845054,1.83746271065847,1.83852255065507,1.83964114612889,1.84028935325071,1.83953573869864,1.83668587871171,1.8390269033056,1.83714183467204,1.91343485238608,1.91918372413733,1.91887138574279,1.8399710507799,1.91759692727654,1.92141837575216,1.93585829326433,1.92910455450915,1.92902834633654,1.83959617491897,1.92915774692697,1.93377599712264,1.91913935336309,1.91833606599494,1.93420933660217,1.84461639712924,1.9450887369566,1.93149074007921,1.95457637062675,1.92421030359403,1.92398168949094,1.92376111341506,1.92428259748651,1.92368056483166,1.92308105000116,1.94138291078964,1.84744625542023,1.92195072271486,1.92183641387542,1.93127804824494,1.94791697610225,1.95166239985155,1.94450308389131,1.94190298735716,1.93324400225975,1.931289535994,1.95012860183244,1.93979702609,1.85203461590509,1.85279921572128,1.85391623915533,1.96134916936116,1.85340745013289,1.93787774840415,1.93139708253711,1.93039370219225,1.85231617548765,1.92766616468481,1.85380512982544,1.93054747397749,1.92757861013026,1.92862790539615,1.92877109332348,1.95146145475312,1.92885627129449,1.93600549978509,1.93597650905707,1.93537093907278,1.93680903353442,1.93585489490216,1.93494792220492,1.94792740671835,1.92747968849363,1.93020915095411,1.9554051097124,1.92941890022227,1.79557162797025,1.79610851248323,1.9864209081361,1.79651867348098,1.84167037207831,1.84276480754092,1.84211540874775,1.8407387224282,1.79184956131031,1.79105074341677,1.79151875503364,1.79070870813677,1.88893769484719,1.79125058902599,1.83862910452931,1.7900414720038,1.78989991253856,1.79261042315638,1.79066060364114,1.79067407266905,1.79450669412777
1.76480457610951,1.7678784994162,1.74972994037612,1.71855095331503,1.7190542022562,1.76375026373091,1.76343797875844,1.76262714798825,1.71803126737401,1.7180821234481,1.71785715865976,1.71802491393616,1.74725248736223,1.75894539222894,1.71764179139503,1.71843638594323,1.73487971799083,1.74134800162415,1.75074734351631,1.75963619579619,1.76493469360933,1.79956252930182,1.85444329915675,1.85541752678182,1.85852012032728,1.86034633841823,1.85917442773244,1.86334100996832,1.8593325524467,1.85367986752188,1.8412492784106,1.8423915178933,1.84351763042201,1.79416605020969,1.7851898985111,1.79430010126375,1.84680771887779,1.84604923000471,1.84779893557067,1.84351353296377,1.84473469536553,1.84850439422387,1.85236486918942,1.84542884995856,1.84030803442866,1.84072053279083,1.85050220101957,1.85874295206063,1.83807183380123,1.8363983804586,1.83466697597225,1.83399168038091,1.83396352166358,1.83546035223714,1.83923692451366,1.851656758563,1.85964859179265,1.86738747351132,1.86363529470032,1.8481249946678,1.83885499693312,1.8362534941003,1.87087822482424,1.86764506127237,1.86291036324361,1.84951605004409,1.86440306004538,1.86113514584262,1.85720261716669,1.84738325509976,1.84784815782183,1.84810844737281,1.88577363500622,1.93575034015878,1.93281627650548,1.9317854211942,1.93711219442406,1.9407636917608,1.93579561196911,1.93220836387424,1.93286171254083,1.87075433871221,1.864180579487,1.85201659014961,1.83667585424159,1.83568186029634,1.8353025811015,1.85781678098819,1.8652422494306,1.92347074439779,1.9224361946525,1.92331789831555,1.92653493172459,1.91877859845299,1.91490450541065,1.91060603105506,1.90216381638369,1.90122324935844,1.89984882735724,1.93485240167153,1.93445955645155,1.93209683650022,1.93160750559311,1.93545230949278,1.86724552674233,1.93519176674512,1.93492218371528,1.93749242315144,1.93862775871264,1.93497154741231,1.93268776203278,1.93427190158368,1.92987619308594,1.9283757297475,1.92819545819475,1.92401413731869,1.91856935760674,1.9203126957651,1.93463884148503,1.94037216857238,1.94628561457459,1.94951628697691,1.94963302917567,1.94536516040866,1.94126074242163,1.93959896509231,1.9352926446284,1.89128961970376,1.88646358311642,1.88324626953012,1.88577200179131,1.89100778531689,1.92846142705917,1.92852123956467,1.92777104706206,1.92341489524971,1.91959051112334,1.92240397989227,1.92893576025651,1.93037706211914,1.93148038033555,1.93442982640063,1.93576386337577,1.93896622315202,1.94449898841873,1.94727418315445,1.94738603167786,1.94654550256357,1.94524417284755,1.94274085497824,1.94071789665083,1.93628163619757,1.93635314416137,1.87620538358454,1.81875525897114,1.79216061131187,1.79077242679804,1.81285748487996,1.82169758387236,1.84678227807527,1.84802059939348,1.84762329467056,1.84571957366138,1.82322480287401,1.81551248791051,1.80595278005615,1.78880628397272,1.78819286326466,1.7885259810558,1.78869037194082,1.78986646645028,1.78870871959384,1.78882847632081,1.78932970051922,1.79091511195117,1.79627581986795
1.76682165243813,1.8078624714496,1.80865257999492,1.71741122435542,1.71902769177959,1.76486706186975,1.76495683802318,1.81193799052955,1.71803995592607,1.71724619731889,1.71778088496779,1.71756400715982,1.88613395303637,1.81012810057239,1.71890143866886,1.71661245646844,1.76464270822805,1.71917973125692,1.72005898779345,1.88208033798303,1.88615868911077,1.85054695377681,1.8549281461221,1.85571018922397,1.92962846642783,1.77475473453838,1.85202800764938,1.85800774868929,1.85072477659849,1.84890120419352,1.84651847001406,1.84637517309662,1.84598641196033,1.84587272189472,1.77038067563968,1.93795396023076,1.8585188425848,1.84337066226101,1.86010964059977,1.83984874469212,1.93386741922223,1.83974092599224,1.76392511895073,1.83993552578978,1.83686155917309,1.8361961879666,1.83636764245702,1.86461055115113,1.83624207491174,1.83499373891645,1.83391794275637,1.83401933851792,1.83361109486814,1.83343613995235,1.8340406475661,1.86518685821643,1.83464705823646,1.86564981915946,1.76177302395062,1.83788666363722,1.83660329471976,1.76410604731428,1.94626992829706,1.86692922198164,1.83911431237293,1.84051979980446,1.86585605775684,1.84624383907584,1.95560855422982,1.86651938853314,1.86658765406351,1.78342742398372,1.94157850301338,1.96836328675658,1.91815845695312,1.9184199357904,1.91927368402412,1.93236739616188,1.91692298919378,1.91801721967378,1.91705832642791,1.91429775926865,1.91207119203682,1.91686396751112,1.83839165477089,1.83826269284476,1.83834173740185,1.9127656177456,1.91317779486878,1.91548712275923,1.91439533616551,1.9152976749309,1.91994439503726,1.92740115967537,1.92222368056503,1.83992523740718,1.92954273479828,1.84232816086664,1.93073697312733,1.92985212604389,1.93069265485697,1.93171059955192,1.94388261059973,1.9296097555629,1.84368528501755,1.92321391223481,1.92285531391313,1.92338956972644,1.94056401206371,1.92475889293576,1.92406421970241,1.85000292269028,1.94247868512365,1.92534060684135,1.92510283114974,1.945244323988,1.9468192457753,1.85362409334958,1.94218883923797,1.94488300404834,1.94892783101067,1.95039857005299,1.94561265388742,1.93536191318228,1.92838083653452,1.93558058771149,1.9418936158438,1.94195044991683,1.92296997653282,1.93482951862051,1.85478403167199,1.94455452367232,1.93075250334843,1.92960941495476,1.94832748740625,1.93581886949044,1.92815605900335,1.92769555903619,1.93545073792873,1.92878815662015,1.93810628674108,1.85384910297749,1.93049225279302,1.93057789496411,1.93446784131444,1.93840164369356,1.93681266343811,1.93284875020979,1.93378901208555,1.93115345152585,1.94518454934629,1.93773433653888,1.95541463544901,1.86039326138829,1.79705768083002,1.79541589091847,1.79388676287049,1.79330685158278,1.84196898867144,1.84284005400272,1.79240131438974,1.79196314403,1.84092688600546,1.90441367423045,1.8388577222081,1.83862910452931,1.78998392842141,1.78827526190348,1.98102934121109,1.79001831957545,1.79256269623848,1.97464709767796,1.88610945828503,1.8879732366951,1.79291704614241,1.97799063123039
1.76787873703867,1.80913279944421,1.81005117712976,1.7201474610098,1.81644748314916,1.72041168861423,1.81359546870084,1.78216053786601,1.80336482757464,1.80363154819981,1.71740621370403,1.71936331572925,1.71922109323523,1.72001430249767,1.71739335092044,1.71871992152278,1.71971440101909,1.71962408216744,1.72013103090088,1.88254224272201,1.71962407697793,1.8495316647683,1.85309226043307,1.85744995443129,1.8567799190895,1.85672307936708,1.84906029077899,1.84822339594514,1.85871570799599,1.85908403647826,1.8474628310711,1.84424624739299,1.84564433924386,1.84460685009133,1.93438180899953,1.84248045714526,1.84249416415767,1.843135338301,1.76722418285115,1.86235771444129,1.84137217029649,1.83976655050331,1.93578209228217,1.76388064929872,1.83688230031622,1.93924946041062,1.83685547445532,1.86550597039308,1.83555838750939,1.83632898169779,1.76091814521095,1.83515175195778,1.83477819117728,1.76165189491791,1.76070039320614,1.7614593174941,1.83367191413055,1.83388533056941,1.86645378118644,1.83681889446586,1.86870185502796,1.8388866290969,1.83961268277374,1.76784335573123,1.83883779420549,1.94288829179816,1.84418776101275,1.84563893141125,1.95146757644126,1.84865017944998,1.86657976283602,1.85887923374784,1.94186427511188,1.96921425256091,1.95223303941906,1.91866799074317,1.91849089518282,1.9457634766336,1.94522368489201,1.84244892491257,1.9156302528187,1.84160113435369,1.91797293194561,1.91805668172231,1.91767960894024,1.84141831707462,1.83974831748063,1.83970759208957,1.91380720338579,1.92441694434237,1.92437353426878,1.92876857027523,1.92784197421984,1.91712109899274,1.91621944327485,1.92466518118892,1.84262038817167,1.93768996124458,1.93785325958642,1.93875684374564,1.84433165852318,1.92772688381388,1.942563576247,1.84628779676906,1.94810839546407,1.93865886474039,1.92459888076687,1.84931510367818,1.92354152072982,1.93863945933016,1.92533571455959,1.92651803836569,1.92563413855725,1.92509191979225,1.92495355851696,1.92736433400653,1.85246999983325,1.92560860557562,1.943450552112,1.92674118764241,1.9646355484939,1.94580847016049,1.92736300802782,1.92781179671288,1.92843772778019,1.93522420672708,1.9279969080725,1.93481478190714,1.95032937037465,1.94529683848078,1.9310927396249,1.93916118216414,1.94021545210539,1.85025209082435,1.84953448533256,1.94253648420629,1.92870909737956,1.85451803320582,1.96078715090078,1.94469818175532,1.93517033321566,1.93802997153799,1.93080021580404,1.93788334057143,1.935323132372,1.92878958984119,1.92843187004673,1.93483566924396,1.9306066396392,1.93479321807344,1.93025816495183,1.93160534886427,1.9306931458007,1.94633660845338,1.79653454370861,1.79714155518334,1.84320053891335,1.84298587828211,1.84154535744516,1.87543337569875,1.87481102779561,1.87909505367264,1.90781755451427,1.90738261921322,1.79223901286542,1.79230713645107,1.78984573880827,1.79078273867555,1.79049322852781,1.79169861719494,1.97894320489205,1.79317228939481,1.88639577471139,1.7932626288751,1.79464109259982,1.79458741529084
1.72028022479466,1.8139116206763,1.81451535912422,1.81572841348737,1.81630924288175,1.71713756346207,1.71784789074759,1.71856532843805,1.7674242233201,1.81668180736462,1.71895393324356,1.81599595432823,1.72061219908406,1.72031585590461,1.71892061635173,1.72109483392588,1.72081613304329,1.88158787313023,1.88150991723533,1.72069095947899,1.96932221090927,1.85558345071014,1.85136137041282,1.85180021240242,1.85847197355115,1.85032599854355,1.84944903063388,1.84787749696543,1.84772572747806,1.84764668240915,1.84725836554679,1.93516291940209,1.84526243677398,1.93442943768261,1.8451066054286,1.86508890478674,1.86085045781349,1.86280964530565,1.842410827963,1.84243870466873,1.84243048458399,1.86335791678604,1.84026609517358,1.95416676395224,1.83614720363569,1.83661640803393,1.86445337649695,1.9516805466953,1.86797313617679,1.86772546702476,1.94908954633558,1.86704437685667,1.83560233483828,1.86768260120998,1.761205297851,1.76175382760845,1.76212930242364,1.83393053757033,1.83522118381124,1.83899125665707,1.76408862788152,1.76499674810564,1.84111922080687,1.84111002370875,1.83998692128064,1.84838684368438,1.84683581139321,1.77462353224205,1.87002593241767,1.77778822475898,1.85591831648846,1.86701421200375,1.87180724516498,1.97745083948883,1.91798801628233,1.93485809583036,1.91657518077656,1.91679160582093,1.91663526581899,1.91646159464245,1.91562283796495,1.9386112360573,1.92159828110696,1.84236197420628,1.91831028734633,1.84089271701518,1.84038808244519,1.84051676423819,1.91860182415934,1.91841380628022,1.91930254616848,1.91555367645756,1.92295172995041,1.91553887295029,1.92260746346346,1.92746359562358,1.93562967902307,1.92211329382116,1.92808580589291,1.845944599279,1.84576612159448,1.9417510869474,1.9419651358525,1.84666882623373,1.92818055446211,1.84809305993986,1.93488651943867,1.84900277076668,1.84951368399775,1.94233599874556,1.9351994971832,1.94070258826764,1.93935055278746,1.92501839968153,1.94631755698014,1.92613335006198,1.92608173711289,1.85321081263434,1.92568495155296,1.92685157411979,1.95428196305708,1.92834026728872,1.92803186647063,1.92795360369805,1.94089423852307,1.93931931278174,1.95163291801222,1.93544316099531,1.94466006521133,1.92714901065524,1.93020102781165,1.93987887607873,1.93797920533559,1.94169008263159,1.95854860279588,1.93647663273817,1.93719342011146,1.93045729494554,1.85705187914584,1.93048510475697,1.9367571903452,1.92926014051996,1.92914934341402,1.9286155265834,1.93420638131091,1.93420198766844,1.93498270021577,1.93275118397093,1.93730445172991,1.93237470528507,1.93234891412633,1.94876567210815,1.85595641943493,1.96130154067808,1.98509683074639,1.84522482425584,1.84405927286677,1.86966395442624,1.84196292412736,1.84174947640012,1.84179845572743,1.87959884312006,1.90885322951653,1.84056282906248,1.83893392810104,1.78983803132835,1.88197120613491,1.79047453295242,1.79150621324668,1.79125675626212,1.7925043011028,1.89003950504918,1.79193388636856,1.7912675493489,1.7929438762276,1.79391032745045
1.80777525479915,1.81690394124763,1.71924304751326,1.81708208285904,1.72233046643292,1.72167153521732,1.71851899066645,1.7185258440804,1.71947506536183,1.76805996879505,1.72059381815215,1.71951343235456,1.76808367084711,1.76881632493828,1.76932576488306,1.72099246851566,1.88539658674502,1.88505826071593,1.72315040304683,1.88995377341963,1.72066238226914,1.85179604028664,1.77971242355554,1.85035051027836,1.85399108004316,1.8561204437224,1.86116571254276,1.85695930780478,1.77634031279326,1.85817892044669,1.84674841107078,1.84784520790914,1.86306421816322,1.86324840558017,1.77264750223155,1.86276788112705,1.86385647695356,1.86494980901378,1.84230927929056,1.94746064433464,1.94048780721027,1.84032705988793,1.8394549404041,1.86632042087381,1.8398652493669,1.9554051097124,1.83614897840677,1.83615485064377,1.76245178880623,1.8356485615866,1.76376634045932,1.83575579553071,1.83596765019274,1.83581049362402,1.9539143319319,1.95244736849294,1.83314185263147,1.83328476276027,1.7644998221788,1.8687620032506,1.86938362560581,1.87136062419961,1.84055656616464,1.84091810278637,1.86851134029563,1.84401288437363,1.84594397467465,1.77450063156178,1.77604940426815,1.85500384577327,1.97148455312124,1.86818905281795,1.945203045796,1.97826370234669,1.95874864326483,1.91602996966602,1.91646267314211,1.94182140368026,1.91592759268425,1.93759198223932,1.84262991390828,1.84255370801535,1.9168258764151,1.84374383426156,1.84115242579089,1.84093437229074,1.84211741424276,1.84162535084938,1.84282704715298,1.9184937706359,1.92531827132158,1.91631943618182,1.91765176746663,1.8430966750025,1.84256323375197,1.92722394547352,1.92563390191856,1.92363890224153,1.93131426528839,1.84638871387988,1.84653572977028,1.93458900715368,1.92815353287323,1.93505487028124,1.84693473036728,1.84837937636618,1.93564642895707,1.84936127221188,1.84894436479027,1.94808949825667,1.92350183177402,1.92307634784919,1.8527296038129,1.92507170134117,1.92519886037668,1.85543311095325,1.85558795086806,1.85491666660531,1.92745281620143,1.85492763988033,1.95112716370609,1.92820960437381,1.85498479430003,1.85540392671118,1.94855610191242,1.92834290433328,1.92727945886103,1.92594796191075,1.93620079406973,1.92786309231403,1.93630524880808,1.92748484078702,1.93153914225235,1.93772726641209,1.92901345961342,1.92902811563946,1.92844218813451,1.93058468558802,1.94922408371993,1.94440371005114,1.9406963050484,1.9309947439335,1.95768176076377,1.93360800686172,1.93735499090267,1.93243876701707,1.92800312120849,1.93563715756283,1.93261293812993,1.9365756237017,1.9299184553951,1.92944955210394,1.94188711148848,1.93096615201243,1.93049040950983,1.79825520594288,1.79707248418221,1.84523044000462,1.7958585471207,1.84116594681608,1.7936199990158,1.87780829335556,1.84012458748401,1.87633197005787,1.79169968775094,1.7933350162237,1.78905612936809,1.79149038446152,1.79058430760408,1.78878373737796,1.87863719831909,1.79227922491987,1.79091594027767,1.87496026398508,1.7929618494892,1.79367445697723
1.82242582654444,1.71767130097152,1.80289806648038,1.72203408834193,1.89191537545033,1.88777307944675,1.81752007218688,1.72136755404638,1.7208014115384,1.76808815352046,1.76848589648465,1.76893903495673,1.72182134689083,1.72116089581874,1.76966801389069,1.72119514590675,1.72147665479416,1.72299620488692,1.72181738691604,1.77027101127611,1.76988419875534,1.86147319187528,1.85974222881191,1.85337543453121,1.852931073057,1.85161943282012,1.85188009575437,1.85208305034553,1.85909038298355,1.8494171988494,1.84962520148283,1.933276823552,1.86307694232107,1.86398522478308,1.77125039419444,1.86379769499136,1.8632939150821,1.8649228419536,1.84137083778036,1.84070297469685,1.76670627017371,1.76708435616253,1.84098616071302,1.84163414268857,1.84049606245395,1.83914430423046,1.8361429663019,1.76413784418737,1.83664685878402,1.83668030640765,1.86922631486968,1.87006675700316,1.86981310024527,1.83445593181914,1.83635372897649,1.83590891235814,1.83463856499351,1.83521666328101,1.94441240965682,1.7644013895671,1.83729898247233,1.83777474690928,1.83921663240085,1.86986399489519,1.84301085383198,1.84493262329405,1.84551762078043,1.87160440644475,1.77681557233876,1.94068784663973,1.87003545815429,1.85933805600961,1.8749668823482,1.95422388121604,1.92937127153919,1.92354255039235,1.9176837299822,1.93587735028047,1.93126054469847,1.91796896856455,1.91831189270171,1.93766981367278,1.84319298628426,1.84313362631844,1.84174613364029,1.84171656028068,1.8421471946622,1.84244405955673,1.91882255724431,1.91679069411437,1.91756957057957,1.93477236420076,1.93493239657599,1.9178929341697,1.91744578455036,1.91803184974658,1.92480734797956,1.92352075747463,1.93484060433792,1.84667034832191,1.84741530661645,1.93183298532139,1.92211126720793,1.92746745529247,1.93221344891509,1.92998583861899,1.93757609429037,1.93037110310173,1.94146895704229,1.85185082695317,1.93334189588706,1.85512007032472,1.8531335859924,1.94340268157546,1.93169534583187,1.9367490299802,1.93825415284265,1.92842822361414,1.85361308822724,1.9280662121384,1.92911517114079,1.92849062126587,1.92834561317119,1.85570875028289,1.92919139817925,1.92802563383476,1.92726426968713,1.94330294187307,1.94206513762801,1.94214461231529,1.92778538763864,1.93883690053323,1.93616052335635,1.85729954829787,1.9290824874453,1.92916093858003,1.92951014323204,1.92840749592414,1.94309647975976,1.95569088181089,1.94525111331029,1.85644223200238,1.94820365303116,1.93466217231537,1.93326180894104,1.93726437231173,1.93367746340766,1.85521341197883,1.93577696191682,1.9346928777604,1.9509375392392,1.85580400764906,1.94524212670741,1.93012462122375,1.79791409149342,1.79669345349029,1.79722104605512,1.79554655425481,1.84314430368558,1.78947630358757,1.89099207871084,1.79037172282953,1.83865922093258,1.83729380807965,1.79302283072328,1.78732599588019,1.79273739842634,1.79213341165906,1.78834824919131,1.79128020218439,1.88950606379865,1.7930349081629,1.79183469054443,1.84017494514087,1.79257289839053,1.97130356412553
1.72234597752167,1.82371180098768,1.72142816161042,1.89145883980506,1.72274058047433,1.72145143078555,1.81263336930256,1.72118451889367,1.72336475456928,1.72326901579301,1.72134460221587,1.76969751902655,1.76991034421543,1.77008428208218,1.77003243651384,1.72336674439676,1.72381344895404,1.7227049357099,1.72424263782196,1.87552228244546,1.7733768806097,1.8621808100614,1.93686802625646,1.86283599934088,1.85195857240409,1.85673736858708,1.86538690166376,1.78024586480607,1.86591203508133,1.86515115610679,1.8617634970522,1.84667835197035,1.77467330888535,1.86531994040597,1.84547198546882,1.86445171407285,1.77135835254277,1.84396839415908,1.84136861615828,1.76771277665555,1.76669512204888,1.76739847370118,1.84157765135177,1.84094527042551,1.83946996206202,1.84069887123646,1.84023426159266,1.95890154738976,1.95335658400076,1.83864290088319,1.83936984588706,1.8391239762676,1.76354289389468,1.83604305892435,1.83608232957283,1.83646556438618,1.87183582237483,1.8390783394102,1.83857976947248,1.76465540921021,1.83704967501999,1.83715494750774,1.94450358456444,1.94418243115849,1.94408445215331,1.84532773762953,1.94500300532705,1.86995449533311,1.85251572336901,1.85262241161911,1.85451993835315,1.94415521476817,1.8728977275486,1.95053773295068,1.84627827103245,1.92078063376345,1.84600029696343,1.84622200381371,1.93169237302978,1.92365884988861,1.93287576207908,1.93476219345869,1.8444338694837,1.84599615055917,1.84210072903295,1.84489032617475,1.84435377530332,1.8435030913464,1.91904052735039,1.91817684102631,1.84421118618664,1.9345742288792,1.96851252329686,1.91864710690299,1.93950665529926,1.92754102391769,1.84573847929084,1.94409081080675,1.93955476338037,1.94210442531795,1.90852896297813,1.84919314643713,1.91405388705967,1.84771665726156,1.91164387569566,1.93132531538283,1.9312996602178,1.93154943332336,1.93134049033354,1.93073375652814,1.93829849954223,1.93174318016072,1.85291139031832,1.85337356088711,1.85298145753551,1.94209765376084,1.85531184459054,1.85494351610803,1.93884937947272,1.85580400764906,1.94182140860357,1.92926395053938,1.93070239269422,1.94960532456037,1.9428884910977,1.93197545468936,1.93121050153292,1.93465937512642,1.9295488363926,1.93098519560479,1.93103414318628,1.95425249558179,1.92948212083787,1.92974232492155,1.93727658628989,1.85608977974756,1.93070748487872,1.9325257911821,1.93696712479179,1.93668258194689,1.93755942245929,1.93692358181572,1.93796568403132,1.92984105490771,1.93022129364089,1.93392586385783,1.93511181289084,1.92892352203538,1.855880213542,1.93484500542105,1.93866839142532,1.94889903160325,1.96124438625838,1.95075655024349,1.93020953636145,1.98158183393486,1.79672774559527,1.9855064374209,1.79466151454577,1.96795050483648,1.79352474164963,1.89449754978576,1.83907702597428,1.79279903919156,1.79038299587705,1.79215536830997,1.78571160804848,1.78752113705542,1.79203475478653,1.78792809918879,1.79101411804981,1.78986079988769,1.83858147584622,1.84194460994624,1.87549370523561,1.79164817153616
1.72180306758619,1.72165282208401,1.72196160882135,1.72256602099243,1.81962525997916,1.81989198060441,1.72147708697625,1.72313926192076,1.72320470108496,1.71899862975323,1.71936946275128,1.72298969377108,1.72284657778393,1.77066332759064,1.8052330254886,1.80573501262943,1.8958978330684,1.72210839394684,1.7267236039332,1.96863635787288,1.72308101311207,1.93552489739352,1.85515807843318,1.85625900194164,1.85804982161777,1.86591053519483,1.77399698158557,1.86428224081111,1.85163255150257,1.85155961157686,1.85020750130472,1.94133559672966,1.84787628139088,1.84779082192516,1.84697160857623,1.84676748564868,1.86565925977469,1.86508676809694,1.84244734924739,1.84224051258251,1.8433501407837,1.86867327781811,1.76677647323017,1.94247868512365,1.840221335854,1.95396672348329,1.83898748925771,1.76522892124176,1.76513518472285,1.76420468787568,1.76354156578153,1.84164493646681,1.76352547540489,1.76311614089426,1.83696685920662,1.83676763220317,1.8383924743457,1.76538571568415,1.83783476029062,1.83846897655613,1.83891334285771,1.84063294377721,1.84236189919555,1.84519020023446,1.8449495384223,1.84482707852717,1.84497983148963,1.8702289111416,1.87066853193292,1.87207957814646,1.78304643137135,1.86070023627,1.87328504176237,1.95145169152302,1.92632303582187,1.84684981522944,1.92131726122984,1.84621864178902,1.91916506821679,1.92195644995519,1.94200439252029,1.91606381748577,1.84646553481013,1.84385535043199,1.84501632045899,1.84393728109395,1.84486601810789,1.91735785738684,1.91855834441323,1.92110616933925,1.92143681729322,1.91845962392477,1.93293447884182,1.93871543735206,1.84729752485043,1.93459268139619,1.84586548911239,1.9207605664491,1.92094663165641,1.8464211570817,1.91250118883507,1.9448029648581,1.84954559869195,1.93217183810447,1.84930745527653,1.93728235877805,1.93779043924586,1.91485404893546,1.85116497391677,1.92887753853885,1.92835769521808,1.85275577193175,1.93474378699096,1.94149277032536,1.94086406987095,1.95132809444048,1.93049425676027,1.93087172277527,1.94757463377898,1.92921092182528,1.92910296379888,1.94816237463816,1.92975909966197,1.94819694919322,1.94407459927581,1.93403160805154,1.92944250599189,1.93806095881478,1.93851110378048,1.93149721479243,1.9315508813533,1.93423361903369,1.94356595977998,1.93810567826243,1.93008405601865,1.93095551743087,1.93214787168214,1.93231648847385,1.94212920930078,1.94186017800618,1.93238217956031,1.93178360280568,1.93147929147665,1.93040977198516,1.93062986721186,1.93575433342901,1.93477376291852,1.93707843596583,1.93498449751538,1.93459748956436,1.93203495971537,1.96018702949394,1.94603178488165,1.93401030527148,1.8859815412505,1.79456304694084,1.88514327642824,1.79358330149798,1.79273130312415,1.79372249885568,1.83968646129375,1.88321907763161,1.88276184227416,1.84040089154,1.79164784783154,1.79091174834834,1.78944776639408,1.7893983574048,1.79019115282517,1.79416826316242,1.78842158520255,1.79061154505887,1.79165966005711,1.83923121293172,1.83935294992277,1.87697019441118
1.82374037819753,1.89896512025895,1.8231704216233,1.72418817593053,1.72422737732103,1.82061593658729,1.72204924929617,1.82240955341106,1.82263420203298,1.81644366394921,1.72468570378631,1.72422304385971,1.79641103984446,1.7716998011334,1.80584146834731,1.8136532436937,1.72515385574736,1.72587578171208,1.72624813098693,1.72628576450151,1.72562235763447,1.85683588871696,1.86212282110752,1.94287088775562,1.8569175166288,1.86373321139486,1.86386161748456,1.86529155091013,1.77957928336242,1.77811455221283,1.86569806604452,1.77695472280503,1.7751067299014,1.84935467571378,1.77262210027659,1.77278371732946,1.77287604562816,1.86826286343288,1.94454576996945,1.84126209931734,1.76752900642289,1.76802434472695,1.86975921179241,1.83904925365827,1.83870674271719,1.83894383051567,1.96728370327332,1.84027705696398,1.76496982120579,1.83825220472455,1.83780689703692,1.83816324002815,1.83793464868363,1.87158924187842,1.76365203161992,1.83720727648708,1.83798590199344,1.838181335476,1.8370816672925,1.9572435768794,1.84060741889342,1.84111296782704,1.84245641742945,1.84620248746869,1.77121546649352,1.97118925528613,1.84687836588187,1.77634031279326,1.85370834559341,1.87290418294531,1.87240128853418,1.87256068920097,1.8725726718474,1.95981784266221,1.9344449510252,1.93545957805652,1.91977409189794,1.84647210109468,1.91788815155193,1.94145457419722,1.93537927229218,1.92867035138951,1.84524878947652,1.84968188187166,1.84187875597402,1.84641944819838,1.84418979653698,1.91866046229114,1.91761757097099,1.92130533537902,1.91782340086261,1.91970381413342,1.91930242268025,1.91988556644677,1.91977765909809,1.84765950284186,1.92111836684647,1.92144751256698,1.92209760152178,1.93869696768685,1.91945520382834,1.92522393665149,1.93074775382643,1.84906285625486,1.94189761519003,1.92731371024521,1.85036929575102,1.93226216703958,1.95485261698863,1.93588687524451,1.85208897036858,1.93802064038709,1.85521683755078,1.85522128425248,1.93523103934776,1.92974837939829,1.92945412757593,1.93020874082089,1.95050654521686,1.95082792979641,1.93877317357979,1.9484163942814,1.93860488475067,1.93903671866189,1.85654701510516,1.936420551466,1.93542933149465,1.94119673072207,1.92891307913132,1.95472878241262,1.93830656269316,1.9323663099257,1.93161618341464,1.93476071579714,1.93670939333835,1.93727185393924,1.93248854092911,1.93438486129681,1.93217129890636,1.93246183765157,1.93185525354341,1.94150714974159,1.93402935458616,1.93346752446856,1.93453490457466,1.93462086205224,1.93627908844838,1.93705068579996,1.932655598854,1.93390736356917,1.85721381666832,1.93155875162886,1.93105112354028,1.85835690506232,1.79805824565112,1.84836758259703,1.84735150402458,1.88893451960165,1.79225316311536,1.79442523309018,1.88888689091857,1.79167323221468,1.79241587698623,1.7908514074006,1.78978125598264,1.79034846291677,1.79339222801958,1.78899336590337,1.79311923954927,1.78895359556307,1.79158735257875,1.79041178496447,1.79111666398427,1.83932754795846,1.8390927313489,1.83977436225553
1.77301583071406,1.72464714995653,1.82348159568612,1.7244837220004,1.82234962065151,1.72379860197639,1.89543107197418,1.82219601814852,1.82361614671583,1.72513923781644,1.72652176376992,1.81960620850592,1.72183841650133,1.77166329895016,1.77412039138088,1.78135770234488,1.77349666697256,1.77376602818731,1.81144265222548,1.72754824625001,1.7273774156296,1.86031208482342,1.86100188884593,1.93793326132683,1.85920239765577,1.85905770581094,1.86281997423902,1.86772740895324,1.86731798333743,1.78010912771899,1.86639734343346,1.85388326262333,1.85382356824203,1.94423142066111,1.77395614619532,1.87099148856626,1.84611394552948,1.84543960792467,1.87111691537506,1.87176732629259,1.87237493105297,1.87028720019261,1.84457616768668,1.84319336188973,1.83918387742694,1.87241689230844,1.83879976160179,1.87421725652898,1.84442804636403,1.84034699929683,1.8392034767389,1.8372264771639,1.83811314975479,1.87319392025244,1.87337245977305,1.83909428572316,1.83796076203961,1.76598832043018,1.76559455227764,1.83830823023156,1.8761224038523,1.84255027541454,1.84306810522094,1.87570327144117,1.8431559242761,1.94740349095444,1.87818878650875,1.87738490470571,1.87831394776946,1.87684286196638,1.94793693220497,1.86231780066346,1.97434227410623,1.9532976050238,1.84840657181951,1.93606051595538,1.84762109077485,1.93656179413309,1.94045600766655,1.94036467763723,1.91975928457483,1.92723767712463,1.92622414222637,1.84307737922268,1.84876492390687,1.84399589634452,1.92296238912504,1.92062626407016,1.92567811814247,1.92594052954159,1.92133127183403,1.95470973093938,1.92264980801725,1.93756340502947,1.84416498263335,1.92130816420438,1.92261657095873,1.93827783527572,1.92617804307337,1.92337906189344,1.92173097099437,1.92880965005903,1.92760482812026,1.8487209731247,1.93106685265694,1.92307476182039,1.85098548936529,1.93778742540271,1.85171294707453,1.85156991937808,1.94763210863324,1.93904941994165,1.85437894593671,1.85387154402897,1.94260569114032,1.94109427667769,1.93153070034011,1.93185110797382,1.95156994344661,1.94614034504287,1.93427830291783,1.93301212159094,1.93325654548373,1.93363602838994,1.93317264528625,1.93281716068037,1.93271253568691,1.94202513959524,1.94133346206073,1.85755029811001,1.93731261579516,1.93847435147658,1.95108042528845,1.93087400999603,1.93564478161278,1.94648797160439,1.94228921898608,1.92929323690031,1.94205002150667,1.855912778128,1.92627223264457,1.92500213571191,1.93098832511814,1.93205252387958,1.93196806482914,1.93602654785703,1.93715817181662,1.85767694898551,1.93677303829534,1.9323444309143,1.92940883557389,1.92881132215388,1.85992814917245,1.94477438764825,1.79720764103397,1.79661163416706,1.79270285972769,1.79197200205013,1.97401839906126,1.79367134309215,1.79209982821674,1.79205024352622,1.89152710758414,1.89103811977115,1.7906228239483,1.96386396382795,1.78716852856951,1.78906444839297,1.7855648950019,1.79321780200621,1.7898364488151,1.79093162138839,1.97148455312124,1.98407757692841,1.78713057162247,1.88992519620978
1.72563931276866,1.72555570581239,1.76257939017137,1.72619838773354,1.72528523204678,1.72548139657325,1.72391843578845,1.72470793456141,1.72447064239821,1.72566046161748,1.72526382808523,1.72561612388048,1.72534849211946,1.75022421970148,1.76219367707816,1.77972763987794,1.77555862171084,1.7749738409932,1.78622901189425,1.72785563757971,1.72878737774042,1.87223440561004,1.87573768002745,1.88221844503121,1.87250155557962,1.8710632832827,1.87339828044369,1.87313433759094,1.86917146933901,1.87062167450506,1.86549248142802,1.86570537771416,1.8713451619575,1.88010462987941,1.88630563981619,1.87635763724581,1.85304053253682,1.85521434337027,1.8602752664583,1.86917130183834,1.87454109312368,1.86654689055662,1.85069312535665,1.85082583675742,1.85102410892711,1.84860358616354,1.84908650339821,1.8493063464116,1.85435809703085,1.85142514903618,1.84259643914571,1.83875321016367,1.83757088360448,1.84078038370146,1.84111752163096,1.84114095347772,1.84303823388223,1.85147798454411,1.84994033646395,1.83819471046481,1.87140796141743,1.86058348422642,1.84378021304297,1.84158494753399,1.84109798848924,1.86728094032642,1.86371114835893,1.86961154352281,1.87039063071736,1.87921236886989,1.87791101528314,1.87793232754484,1.90834863377804,1.90716796610385,1.85456824464049,1.86359070096127,1.87473686093511,1.8830411877125,1.90441978067002,1.91325233832392,1.92257280217406,1.92404999150222,1.92829737536796,1.84050004971531,1.84167795550276,1.86744931466774,1.93342431581374,1.93282769298263,1.93485330658297,1.93436734984518,1.9325309952671,1.92906952656085,1.92011553241173,1.91703156060603,1.90428914238438,1.90309445194568,1.93335109773352,1.93878628676839,1.94069093445736,1.94130381850543,1.93986377965126,1.93819349907245,1.93416431119607,1.93122910551925,1.92261930827735,1.91815257969126,1.91640651260264,1.90788877121743,1.90561399097365,1.90517534159277,1.91392352292332,1.91656836502465,1.85072828928626,1.85074136508634,1.93648077834738,1.93897831115202,1.94287043875596,1.94613465233417,1.94829168099738,1.95054177931493,1.94811621569739,1.94817900515343,1.9481970920932,1.94824274681867,1.94784915377105,1.94674572583891,1.94403217166137,1.93981732437996,1.93539336293527,1.87535766424832,1.93533674865369,1.93954868464003,1.94401168636391,1.9430383421478,1.94061014343133,1.93517332766405,1.93124627766647,1.92538973977317,1.92164213159504,1.91814385631107,1.91059981266939,1.90779037054317,1.90753274182697,1.93325996097307,1.93661610834818,1.93738285852953,1.93470788565538,1.93369596231413,1.9332193813448,1.93495953445235,1.93468512369271,1.93410262910815,1.90050177180242,1.90864553708154,1.79333038555213,1.79222399939875,1.78891692871579,1.78757870735638,1.78839230418475,1.78904529552747,1.78987075324339,1.78889375353598,1.84634887403952,1.84737576458831,1.84747217913648,1.84658258785722,1.78732842685643,1.78677154646229,1.78822671126458,1.78728957152424,1.78701497457997,1.78608457672812,1.78379802205475,1.78473886324585,1.78632821112942,1.78749559319447
1.72512395011885,1.72507654354629,1.82318788547377,1.72471160047025,1.7287622983284,1.72354568453413,1.72828587667342,1.72408078185408,1.72878289637579,1.72399642543976,1.72653619671986,1.72508346737797,1.7239959060244,1.72672632792618,1.72606626752832,1.89955571592918,1.72538078123491,1.72505813738741,1.81268099798564,1.72520298358533,1.72897321247816,1.93948601620326,1.94081326883851,1.78356128950098,1.86161882672555,1.78320395406358,1.94088788710867,1.9413070195198,1.85561837708066,1.8699616634667,1.85426486679464,1.86962745915987,1.87006042530937,1.87202247006976,1.98124843315327,1.87206748520391,1.84870954659711,1.96832200856453,1.84714208235749,1.84631442964386,1.94603178488165,1.77050528343779,1.8459975248725,1.872944618117,1.87444587420779,1.84683048490592,1.87309435061372,1.83943186983986,1.76662476634669,1.76626275572215,1.87544607655252,1.83768185853038,1.76497259883535,1.83903230702851,1.83889168886954,1.87557467399685,1.87601285788121,1.84183966292483,1.84164758022208,1.83989738578934,1.87648596946651,1.87618749638585,1.84268524056492,1.84275806059742,1.84287305512331,1.87505552135124,1.84608263587747,1.7797607190379,1.78361640802067,1.87534679333839,1.78630334745747,1.94593652751548,1.96489788667668,1.95029931488589,1.84976186671904,1.84913374990555,1.93055599944569,1.84723991900782,1.94444098686667,1.84491515903208,1.92350589104864,1.92435334911304,1.92217776200592,1.84564307897604,1.84576486064886,1.92094648344728,1.92535201599932,1.9263098286694,1.92577774883272,1.92759417127094,1.93933519204266,1.84517860281862,1.91912316707328,1.92004398916509,1.94762153877958,1.84751884627799,1.92467586497454,1.95863433442543,1.93812537956087,1.93888881476763,1.94366824107691,1.94828059562104,1.92779099901989,1.92626578144704,1.92508279272351,1.94852690425184,1.93888836568311,1.93815412298314,1.93617813399184,1.93728615297343,1.93862500573938,1.93502944368271,1.85455752125607,1.85518404192123,1.94668906070819,1.95277818335728,1.95168190787501,1.95093400076764,1.93467879952503,1.94413877625948,1.94151463482447,1.95050733957196,1.94981758070309,1.95062902664688,1.94580407398164,1.95098959278883,1.94876150661961,1.95281523936756,1.95726294008939,1.85826215331397,1.93383784796107,1.93750177839865,1.93882565701967,1.94646996760713,1.95653867236977,1.93527723236863,1.85576348517208,1.93216880294328,1.93166132399454,1.95144239863256,1.94546024533198,1.85672685259327,1.8566476252856,1.93224722572934,1.93648550800965,1.93471753754281,1.93459253531013,1.93298834333977,1.93269464275237,1.93186712337763,1.93193426765855,1.92911063940204,1.9358957670042,1.93074132309783,1.79517006510227,1.79433129475805,1.96213980550034,1.98098171252801,1.79191644188099,1.79121520967139,1.78827159337917,1.79071441711727,1.98479200717466,1.79084308278277,1.89117306770656,1.99082179845297,1.78875708509438,1.78925157228829,1.78913455674157,1.78968937698521,1.88812483198924,1.78903940998159,1.78856882783008,1.79127280362416,1.78907609044982,1.7924674365991
1.82853182371569,1.72704960700969,1.7259922774075,1.73030024473144,1.72252832473284,1.72718046074632,1.72413500410469,1.7276367985488,1.72523609256524,1.72748377524921,1.72442362285954,1.89828879295917,1.72727253996826,1.72423632449575,1.728387511558,1.72463516493999,1.72638635210535,1.7242809988451,1.72597897822536,1.88921076596354,1.89031575141106,1.85580216164713,1.85630320957542,1.94089741284529,1.94790321856853,1.85803303001735,1.7822169274455,1.78105643314353,1.85567363819238,1.8554473446383,1.85257267377411,1.94207860418575,1.8499998072147,1.95146145475312,1.8501307483815,1.85004654436703,1.84942949550629,1.94479343912149,1.77206325705239,1.84741747619726,1.84572932388699,1.87213112020994,1.84337856872961,1.8432380486267,1.87335612993884,1.84177241906195,1.8733757329104,1.87245544807637,1.840364934672,1.84028730405643,1.8401292964335,1.87403626753327,1.84018179959781,1.94971348208397,1.94935150409254,1.84054625280554,1.7674242233201,1.84113291248967,1.87604592579547,1.84185749689146,1.84145052060918,1.84403909758227,1.84432086897052,1.84437916626287,1.87612246797464,1.84742135942644,1.87559848833839,1.78014343206344,1.8560516768011,1.78390374766685,1.87339804317995,1.78800934014861,1.96068334561308,1.96105800873512,1.80980263790466,1.92296838891,1.93022722857165,1.93168384674543,1.92431146148617,1.92427899962589,1.92900011230266,1.92254569679768,1.84805958377975,1.92316049126463,1.8471672412328,1.92627205789343,1.92183431859016,1.92482013672817,1.92640835698809,1.92541326275094,1.92137903364688,1.84697897932411,1.94406948313862,1.92417357940773,1.94526124433274,1.84864729604895,1.93973844822357,1.94055131108159,1.92381933946673,1.94361137634389,1.93535344137804,1.85122212833647,1.94165947177462,1.92517408798719,1.92549178380637,1.9440497140437,1.94288850418835,1.85393696327221,1.92203645434439,1.9489565384048,1.94237817035314,1.94152296192702,1.94000920490395,1.9455850541324,1.85608025401094,1.94241495053382,1.94208507248512,1.94323742416659,1.85664374253278,1.85867893496072,1.94071635916315,1.85922374709443,1.93790008107786,1.94389094241891,1.94154176566469,1.85990960013082,1.93230202353453,1.85867261519019,1.85905255599923,1.94837730058816,1.94658848304537,1.94131336964828,1.95107089805721,1.92975105237746,1.9320072524055,1.94140227275884,1.85646344178332,1.9543191757381,1.93273156852028,1.93200182238377,1.85924279856766,1.94558883812904,1.94553168370935,1.93249983327519,1.93627231766438,1.93564654444192,1.93994030749131,1.9392287720544,1.93744651097432,1.93490156732814,1.93110286008639,1.93792352652087,1.93600242006603,1.93422286667326,1.79552880176634,1.8865530854475,1.79503826075048,1.79380445137073,1.793291077185,1.7890667618294,1.79269703865442,1.78934175339663,1.7905742937809,1.88625778761238,1.96083477958387,1.88988709326331,1.99704210446362,1.7903230431083,1.79173644194192,1.78985737216708,1.78959113088103,1.98777356273566,1.79116819852119,1.97772391060513,1.790742344646,1.79147211762075
1.72856852675152,1.72492624802534,1.72829696266292,1.72584243500039,1.72825680796518,1.89957476740241,1.7257555076313,1.82269254716971,1.89908895483496,1.72622010576949,1.81939664230036,1.7251995724525,1.72421444624299,1.72762289239431,1.90282304358868,1.72777191525091,1.72690020840393,1.72934220647609,1.7290421564082,1.72839447901349,1.7768261253607,1.8618961165359,1.85954380551615,1.85846777643112,1.9478445699156,1.9484452516599,1.78265040640405,1.78237615326201,1.94715156170521,1.87157862748618,1.85252377852961,1.7795790632429,1.85002182805796,1.85013988066557,1.77582592301596,1.9483560646161,1.77661655915514,1.84672791594682,1.8459097858985,1.84417275212694,1.84521594046834,1.77145360990893,1.8445911824744,1.84334494707328,1.76928174196034,1.87734169813923,1.84264008956212,1.87708617821994,1.84049508790349,1.84018139620395,1.83959715505972,1.76628431017165,1.76534443749214,1.87552704531377,1.87558419973347,1.84093718313539,1.84052339103766,1.87836258494064,1.87631155776511,1.76886260954921,1.76893881544215,1.84566173566552,1.87857051816277,1.84930808506482,1.87716405960571,1.97505670435247,1.7787479427231,1.87817996296149,1.78190334297736,1.8585759970045,1.78803791735846,1.87543655081591,1.96255865496524,1.96133919398912,1.81017731687824,1.92341927377662,1.93750625556982,1.94393657695583,1.92407773744412,1.9247115417325,1.94212622880865,1.84985151091928,1.93532488015961,1.92680453868986,1.92607094534803,1.92824137647567,1.84874543681615,1.93185600227982,1.92675137442264,1.92353622776851,1.84929792953991,1.92465101688691,1.92355176440635,1.92316890087213,1.84921219791037,1.94424094639772,1.8495170214821,1.92321213135698,1.92280434936204,1.954719256676,1.94482201633134,1.9251315842807,1.92488137555305,1.92456577496863,1.92745787158301,1.85401634441068,1.92635638176712,1.92169473237497,1.94325979552621,1.92643408451248,1.92543033243204,1.92458990158988,1.95274742313238,1.94524749391415,1.94477643178248,1.95019538472653,1.94459472211674,1.93943313006697,1.85622752411123,1.94447953388084,1.93852793127825,1.94316470996729,1.94265761471253,1.85795682412442,1.9513892668466,1.9369632822677,1.93167967603791,1.85730744105106,1.93281006245796,1.93155266522421,1.945884562441,1.94015364039875,1.9392248939086,1.9362481746823,1.92829863870137,1.94648902325573,1.95533842653959,1.85844263669187,1.94131480683806,1.94199366179944,1.95249023430771,1.93272421299562,1.93229144990256,1.93170775943713,1.93748449592744,1.93385758826539,1.93678986983777,1.93286021004157,1.93927595366945,1.93126495002473,1.93445549803378,1.94548493535738,1.94409664704138,1.94205589254397,1.79664009860528,1.88803910035969,1.79476110504845,1.79464319916821,1.79242378785734,1.79427752527736,1.79405280899987,1.97702853183211,1.7941917212908,1.78977584425683,1.98194757369765,1.9836746612209,1.88065665711666,1.79153122002934,1.78993837429812,1.79110880085039,1.78934874005975,1.96494989780225,1.79144664503582,1.96582626557097,1.79141850398802,1.96515311351673
1.72860399250404,1.73052840958799,1.82754087134818,1.90505169077698,1.72811879781008,1.72859415925284,1.7273677696747,1.89838405032533,1.72364393783014,1.77322090209162,1.77343787445417,1.81457661957235,1.72593286963966,1.72615702194159,1.81706442445205,1.8173374955684,1.72859715853396,1.72770334190466,1.80661310376086,1.72897984587334,1.72994952537891,1.87217874908282,1.86094652826063,1.86983562786544,1.85907849753787,1.94875493148954,1.85747101155697,1.78329340521412,1.95005751691995,1.94889725915048,1.85259067240696,1.87175009074528,1.85250415863347,1.85277000844367,1.84967963679369,1.84873973096835,1.95188058716425,1.87477094736248,1.77463520593888,1.84557014269616,1.84546233375502,1.87159767895941,1.84522955700204,1.77139645548923,1.95737693719204,1.76968182289824,1.84064006928615,1.84155946990409,1.84201733533022,1.84214678658843,1.87629288837571,1.87567614334204,1.87597674796749,1.76733849169055,1.84165260565917,1.84209541326719,1.76704636910098,1.84240814792392,1.84339335929849,1.84313799579822,1.87903727925699,1.76968273448506,1.77060400980031,1.77449321785255,1.87881652456165,1.87870949854185,1.77904324055822,1.78037112824258,1.85382265443281,1.87718928635337,1.86145276946272,1.79079085524066,1.97018907051829,1.9746185028912,1.94884187718355,1.93249571314944,1.94988659975183,1.94318134390478,1.92374725980284,1.85219375347137,1.93475216924879,1.84951293902356,1.85018681684819,1.93129102065487,1.92480193292772,1.92365781565966,1.93109250616697,1.84996631872585,1.92825845362985,1.92840512372425,1.92789667813799,1.92544977984107,1.92440342740764,1.94047693189029,1.9409300441748,1.95263050030813,1.9234859187811,1.9248649162523,1.9253867488942,1.94125939083672,1.85285102929791,1.95401435216634,1.92832677743493,1.93075312028767,1.9453547578698,1.85460058958983,1.92725981756273,1.9337343518096,1.85621225350405,1.94882403998145,1.94365866219297,1.93224848356076,1.85606120253771,1.93128745173786,1.94412001767926,1.85606279016048,1.85702171431322,1.93889609349992,1.85766704305999,1.94316844688383,1.94060580826423,1.94131851409553,1.9446650368138,1.9448244227006,1.94911627066154,1.95029190211661,1.93549632670376,1.94338362358213,1.95069780820098,1.94905303101192,1.85959525082248,1.93241767403325,1.94460414678172,1.94167699528931,1.94500198850325,1.95776749239332,1.93144459683604,1.93044189780736,1.96111102594575,1.93702121350654,1.93080013203168,1.85770756734962,1.8581965551626,1.93371062892811,1.93553062443412,1.93629461870116,1.93225470474328,1.93875502695187,1.93156678725854,1.93680112305431,1.92903679506457,1.9331643067012,1.93169606706827,1.94547872507622,1.79628965444065,1.79531254994273,1.79377423205986,1.97094159096692,1.97768458423891,1.9648641672155,1.98675272129485,1.98529845883816,1.8831142945289,1.79098750199224,1.88922981743677,1.97864027713489,1.88961084426658,1.79024675184112,1.79280818876411,1.88506707053531,1.79312480695797,1.79245223449202,1.89279720579969,1.89205419834359,1.78979479805178,1.79047716266885
1.73061683132823,1.73050516680285,1.83319971041721,1.90839865653113,1.91136494749203,1.72709134718129,1.82575348386925,1.81336685102204,1.78548501994521,1.77439575943561,1.72753744243056,1.72672906161036,1.90553787852441,1.72708060287199,1.90115603968077,1.72905073451766,1.72873852753764,1.72912155617952,1.77710509336161,1.7769635681319,1.77779094639801,1.86002279252693,1.8605709880595,1.86081156627252,1.85965668812271,1.8589718095206,1.87137189420854,1.87206710120656,1.85771848891804,1.94575569988363,1.85522101617777,1.8560346746995,1.85342586839969,1.85281782986518,1.77621647821724,1.84896281753254,1.84943618493509,1.87361128535377,1.84918362070052,1.77440658826008,1.84737251574244,1.84614114010046,1.84550750788901,1.84435817007562,1.77199657689608,1.96215885697358,1.841757811893,1.8412537472888,1.76842442566485,1.84115954584221,1.88028097465581,1.76797671604387,1.87763420756227,1.83952864208145,1.84011737333881,1.95028978914927,1.76797354079833,1.84293677658306,1.8431908338905,1.84323883823751,1.84460347342252,1.87862767258247,1.84714635848099,1.84774171881533,1.84910597065306,1.8800724692723,1.77960144872395,1.9704271963568,1.78495157869468,1.86002390897022,1.7890381197032,1.86235771444129,1.79613479348258,1.95936808830898,1.85497526856342,1.94306555938546,1.9452839602796,1.95176809426242,1.93531662071379,1.93635842949593,1.93613667540348,1.9354831093837,1.93154943613796,1.92917519207489,1.92653343431823,1.92907927827076,1.93006632963365,1.85084903698565,1.93437404750093,1.92665114915766,1.84973725907637,1.85103734186459,1.92490466055022,1.92505187683812,1.93968430334162,1.94812349312941,1.94836263847283,1.94011630244272,1.85094588197459,1.92803767801947,1.92792334981918,1.95439538163106,1.94128644482838,1.85351783086108,1.94121246186571,1.92742736481723,1.93482064933605,1.85659328296872,1.85704507504827,1.93229030847222,1.9305921201995,1.93132563595999,1.93138162095258,1.93165605115705,1.93133167300353,1.94726087754573,1.94634665024565,1.93953909160355,1.93870620666762,1.85882684140207,1.9505469792409,1.93491402344432,1.94321157919657,1.94978760335218,1.94691143595713,1.94023030375369,1.95825330496076,1.93270669219856,1.93156986994516,1.93122694707836,1.9327828911696,1.93834516658009,1.93519837541773,1.93191100794935,1.93147019813211,1.93131038378505,1.93100895204085,1.85902370662548,1.93942507319297,1.94355658703547,1.94253037005686,1.9315323391263,1.93284499499227,1.93251744131827,1.93569342790173,1.93303830552256,1.93682684558466,1.93017738743904,1.93669735753855,1.9309961599858,1.93587294666136,1.93103245198215,1.94958237541849,1.95083564561454,1.94551540381719,1.97236727138105,1.97174492325543,1.98791644878491,1.97737325835074,1.9744464747527,1.89143978833182,1.79219644181179,1.79233566251411,1.79253429742048,1.97486831019161,1.98066556612525,1.79077829250903,1.79327560063739,1.79099177449031,1.79183790575336,1.79499637409049,1.79258357796418,1.79317037222532,1.79204862079094,1.97507575582571,1.79219180714736
1.7304252416406,1.9047853453317,1.73150730984758,1.7315576340391,1.73070940950354,1.73030199764654,1.82656634672706,1.72761616999927,1.81464329972867,1.77579402210748,1.77622641632355,1.72960125977486,1.99812803843792,1.72793942543082,1.72653526452305,1.72775072586986,1.7276746237974,1.72984250332102,1.72955577231757,1.73089436263633,1.73084543216151,1.85987949651803,1.86053718238491,1.87199867197686,1.78661858260258,1.87524473036165,1.87450236942162,1.85541706888863,1.85709906554234,1.85874077440832,1.85764225367357,1.87373144396153,1.85550280713506,1.85596839229999,1.85253318462035,1.85226020395611,1.85191717869211,1.87615563272079,1.964256106652,1.87602660215835,1.84807898022735,1.84750417478349,1.84849947251321,1.84916380104504,1.84335854267218,1.87830856040581,1.87863243545079,1.84237847870937,1.84219561639112,1.84215187568319,1.87939137882643,1.8401934996504,1.87832093993007,1.76684315338649,1.84261676798616,1.76872489461412,1.8433040150705,1.84279972319175,1.95491929714495,1.87971760113396,1.77141233171693,1.84579920770898,1.84693484221046,1.84769250071367,1.88189206704235,1.88161361361863,1.85254761740942,1.85707130081647,1.85709772594829,1.87860862110924,1.86469151991237,1.79199109805435,1.9617380915792,1.96089329482274,1.95769128650038,1.93939270843107,1.94068109069535,1.85273672045851,1.93291925646134,1.92621596628742,1.9257899809498,1.94358737092351,1.93817143942665,1.93099868486332,1.85249140007767,1.92750145430088,1.9287115380333,1.92672006565656,1.92749041281927,1.92620285363487,1.92403621486145,1.8523984406411,1.92533846103116,1.92570489994892,1.93766882351244,1.9245036201281,1.85331779039213,1.95399530069314,1.9383136441898,1.93524864449902,1.92647545711811,1.93471312130217,1.94082546762846,1.85412747800454,1.92812340109312,1.93789528384295,1.94289933845218,1.92561254790992,1.94041540748573,1.93688689859628,1.93758361529126,1.9580818417017,1.95061366419424,1.9314586836629,1.93154562180361,1.94173284427171,1.92647544741562,1.94013820815301,1.93887563917834,1.85903005711656,1.9423929588367,1.95267439854877,1.95402070265764,1.9353552843063,1.95459133992133,1.93760279284373,1.93411410418259,1.85953015828893,1.94100380932044,1.93882590003587,1.93840721357963,1.94262737533431,1.93579512183279,1.9326708559408,1.85873793452698,1.93191557328233,1.85952857066616,1.9307971519363,1.93124246670578,1.93212351738691,1.93149156209834,1.85870935731713,1.93215921732959,1.93878077210005,1.93209956567727,1.93638176974548,1.93211087479936,1.93668742859061,1.93394839684114,1.94182102555219,1.93159555337171,1.93845062529298,1.95364445807828,1.93203848070396,1.79785504919342,1.7971538089524,1.79576512908447,1.79556071786344,1.79359967188237,1.79202934900947,1.79201956774706,1.79046787962207,1.88304761437258,1.79167306339227,1.98035939335455,1.7913904896228,1.79260309762019,1.79096899526073,1.79368803692088,1.79211261264775,1.97964810940168,1.79210020805153,1.79296010581006,1.79296787098165,1.83939910157248,1.83939275108141
1.72959510010129,1.8330089199255,1.7804363795384,1.73201815651725,1.8260106787579,1.72909668308422,1.77900116855483,1.77912817837639,1.88994424768301,1.73034053067162,1.77692718064267,1.8932592040256,1.72977851221124,1.90836702229955,1.72817246245139,1.72730081335651,1.9104626843552,1.98079119779568,1.73054614575717,1.7307095031143,1.73185109696967,1.86236392951913,1.78946677785095,1.86392487961218,1.87568406229689,1.87476601728678,1.87486009671833,1.87540372438289,1.85724551929495,1.87590480809373,1.856172300397,1.78124606715081,1.85486644541896,1.85461085731726,1.8519894835964,1.85260900503004,1.77715000040567,1.85210703848384,1.96517692785827,1.87697699850873,1.97421843953021,1.87909284605392,1.87885787788404,1.77234902915089,1.87838952916706,1.95363332270171,1.84383588752404,1.76989138910381,1.95366189991156,1.84080052769811,1.83732935772147,1.83942522902337,1.76921506180403,1.84180709481626,1.95710069083015,1.76966004978599,1.77020328893702,1.88200728338048,1.88315958091735,1.88099872668498,1.7728475427005,1.84614741933851,1.88126630162528,1.77513054424294,1.84930745527653,1.88182696394081,1.88188139298173,1.7827892364827,1.882714213591,1.86159331938015,1.789838281579,1.86267206374964,1.97780964223468,1.96840281751669,1.85630887168974,1.93932462587183,1.92865076312832,1.92881705080103,1.93428209782019,1.94186903357128,1.85556586423365,1.9452403649752,1.94624004724845,1.85317725311407,1.8538057472489,1.92817838683928,1.92758975602605,1.92978685017346,1.85038386351421,1.92627157411679,1.85265541921782,1.85252072898737,1.92663210210799,1.96424499329262,1.92647544760774,1.93845882671474,1.94180077707375,1.93903510094012,1.93927706338582,1.85233663952061,1.94550469851519,1.94138551106802,1.93914311854761,1.93797548191756,1.94019036664717,1.85568176069582,1.85542139056163,1.92663044440575,1.92842092243313,1.9384066387403,1.85758532039637,1.95975837134616,1.85877603747345,1.94147848054026,1.93157087814022,1.94177239710825,1.93954381963483,1.93894872643757,1.96133011788793,1.94415138273186,1.86051924727429,1.96527377284721,1.86095743115865,1.9423731458946,1.95564189145549,1.95539150179924,1.94317378237305,1.85877444985068,1.94211818970739,1.94762712583221,1.95177146631097,1.94309593055,1.94881019638934,1.94601675824804,1.95580086874762,1.95631942000218,1.93243178798559,1.95255691446403,1.85914912882426,1.93237635795227,1.94597462872432,1.93218974699669,1.93131763828077,1.93574001033537,1.93627214384011,1.93403448979736,1.93860884073561,1.94075138132969,1.93624242212124,1.94322417343749,1.93923427652241,1.93145410601283,1.85989054865759,1.9421484574556,1.94151340969971,1.79741479213693,1.79744774413574,1.79305016201393,1.79236730469736,1.79155711275928,1.79115685714699,1.79143809747821,1.79191624449548,1.79171231053329,1.84037941193782,1.84021728763619,1.83989229191633,1.79124284507356,1.88978231016053,1.79311425892945,1.79299847067717,1.79232415736151,1.87560801407501,1.79208328331548,1.94469818175532,1.95220446220921
1.78090314063261,1.73358364636139,1.73153981245188,1.73147563714404,1.82438495304186,1.78074120311013,1.82042065898664,1.7310906849586,1.77854756204939,1.7780391598778,1.78686466413192,1.78659159301543,1.89831611897333,1.83010357025743,1.8217113962982,1.73000487636578,1.84182022629587,1.72939618165602,1.90676987352295,1.90788755948379,1.73140721489844,1.87538892213282,1.95097564218567,1.86356713611852,1.86304625309621,1.86228732246015,1.8623301509251,1.78535165963257,1.85832336567502,1.8784166101933,1.85611758563437,1.85555516827714,1.85519780397802,1.85317318213582,1.85416038579477,1.85382739498698,1.96378775793502,1.85198124164195,1.85055243826801,1.87875477312535,1.8523842682037,1.77577829433287,1.84870257100138,1.8502076373868,1.87972313229339,1.77336828296887,1.84304509888308,1.84351798596841,1.84290631222529,1.84213620244899,1.84234552821952,1.84269701588849,1.84364187068559,1.84407096108203,1.88251417312205,1.95637673484729,1.84284399878194,1.8819343309218,1.84267297973714,1.84311450182596,1.95780559533978,1.84896053696438,1.84903546696328,1.96959845727115,1.97074154566515,1.88171374001728,1.85473579163475,1.85430404885136,1.85934625341256,1.86318059218002,1.88421927997643,1.7932560004924,1.86835892850976,1.97013735241623,1.96532140153029,1.93098418349706,1.85590879075185,1.92992907595142,1.92947305086501,1.92862394429321,1.95269027477666,1.9306552887828,1.93246482185269,1.92726764427844,1.85313810970803,1.85275140185645,1.85264648018791,1.92873162972827,1.92909375758876,1.92937060736063,1.92840715439206,1.92745819377275,1.92703885819202,1.85275577193175,1.92608489240645,1.85328921318228,1.94087496749126,1.95159480964162,1.94285170860113,1.94219699575938,1.93526862496742,1.85526616238428,1.94497074671107,1.94695625204479,1.94803875788121,1.93505813685925,1.94474682791079,1.93904884909877,1.93388724483488,1.85793777265118,1.93658225415796,1.9483560646161,1.85919516988458,1.94924478239141,1.94110946867687,1.939316488452,1.94400854518533,1.94325482263287,1.94251052344928,1.94305996837488,1.94334360026677,1.95470973010757,1.93743955117721,1.93575068900424,1.93508186556364,1.94196160523309,1.94210081016962,1.94121465115375,1.93187390965252,1.93898364773597,1.94634439559981,1.9443501399142,1.94011092682224,1.86021442370256,1.95888648433932,1.94663036509622,1.93255711679475,1.9321278983096,1.85915547931534,1.93279952740399,1.93885899158337,1.93209245862413,1.93749183839206,1.93551742596968,1.9350210926176,1.93781548324142,1.93539211074488,1.93672555559352,1.93346217081441,1.93542080862889,1.93480769971344,1.93241790957231,1.93624807177809,1.85971908539849,1.79520923565883,1.79585343201134,1.79285862029003,1.79606179352856,1.97252285841246,1.79055530040828,1.84051520037939,1.96563575083864,1.8911032123047,1.79195375739935,1.79174465800887,1.7903037382407,1.84058113341911,1.96313048210847,1.98655431785281,1.88906787991429,1.98769735684272,1.79244742947991,1.84005264181604,1.83904067238489,1.87275981882664,1.83942450353679
1.9045567276529,1.73432272721601,1.83623814463853,1.73133703277986,1.83613336153575,1.73055058793236,1.81967765153055,1.73070879656308,1.77973093070091,1.73198849048293,1.72999271549763,1.90313500828051,1.90251233009253,1.73067156121513,1.73066215215802,1.82943676869427,1.73171413835988,1.73114252907617,1.73112465129366,1.90210861435237,1.73287616106572,1.95154718638267,1.86527238872558,1.86535440214485,1.86585899361953,1.86479605433983,1.8645138594325,1.86261010876895,1.86200027897164,1.86204671932994,1.95802468728197,1.87744360890667,1.87872838721731,1.85791088119904,1.95158528932913,1.85670041233067,1.8555091213879,1.84976198294818,1.777832729426,1.77754696048757,1.77362810766295,1.84960995747282,1.88204741202784,1.77193375280377,1.84585365246355,1.8805328199058,1.8447117376229,1.77119652578457,1.77136167676995,1.84838626880693,1.88245225583405,1.88247130730728,1.8468934690053,1.88295235700642,1.77076378072508,1.84536738360992,1.84435496635798,1.7709587492346,1.88272373932762,1.84599715377879,1.85131339898087,1.77380298180758,1.88314287173875,1.85206099982128,1.8527411543247,1.96064426485154,1.85622189267902,1.78498749218383,1.78489333819359,1.786465070297,1.79379069717937,1.79458794058761,1.96733210187583,1.97071166731871,1.93194983302181,1.93041859530826,1.93052537884447,1.93047611401768,1.85464881225074,1.92976852824172,1.93053227517706,1.93099474369596,1.93187704460201,1.92672191376483,1.92440836569594,1.85307381135572,1.8541230512447,1.85467545332219,1.85452207030094,1.93034857760916,1.92897624221234,1.92950124270022,1.92830677957883,1.93372705380835,1.8517876466935,1.92934960125768,1.93643845990558,1.94576506834732,1.9389927602085,1.85393469854426,1.94099006526791,1.85704299063742,1.85507837246225,1.94269360911685,1.94241104913631,1.94369179793284,1.94819058147658,1.94890201839013,1.85749583504302,1.94486964501442,1.85950744650296,1.93532485789044,1.94264732585512,1.94523161886995,1.93168602553702,1.95409055786892,1.94473293935718,1.94494267427848,1.9605680589586,1.86042730500645,1.86026110015319,1.95009927524876,1.93661607782241,1.95179168028919,1.95158846457464,1.86186414640789,1.86136936697771,1.93376263662264,1.94519351875027,1.93319109618284,1.94798616149433,1.94209092726682,1.95619577835951,1.95262356211241,1.85927712703932,1.95549238410045,1.94547929215788,1.93262790609239,1.94375513383028,1.85604914426206,1.93161310616338,1.9332318380807,1.93422486714935,1.93602949063946,1.93519878717481,1.93893098036577,1.93971450223812,1.93596166365618,1.93581757092537,1.93157324996685,1.85811627085897,1.94355633643581,1.93879550819795,1.93489620212082,1.79681531758944,1.79351966849064,1.79719252651664,1.79204025334463,1.79336956248775,1.89139215964874,1.79076889269996,1.7903869842429,1.89059517301849,1.79032072395672,1.98156278246162,1.78939470126843,1.78927685689214,1.790199866025,1.98250578098259,1.7925847076982,1.79116150313226,1.79202960950572,1.78967928522407,1.84024651857306,1.8401490198571,1.79190836493929
1.7371015798244,1.73921599393358,1.76930253079512,1.73283306489125,1.7331401160716,1.7322438569042,1.76778533890076,1.73241745279785,1.73303949840256,1.73308574342165,1.76164870689575,1.7747142943243,1.76761534458234,1.75589915889357,1.73125098027323,1.7315566377223,1.73167722708623,1.731957831579,1.73229287840401,1.7338803976704,1.73482293468807,1.81554457582248,1.8757276655309,1.87630212815391,1.87693370311561,1.87582665942874,1.87052487758017,1.86532113973033,1.86169174582814,1.86223496295796,1.86736464088976,1.88028901952209,1.87622868573044,1.87328900202964,1.87529876772791,1.86522521670566,1.82344996083176,1.82665819252708,1.82899859867762,1.82771647603366,1.82503959310138,1.85583053108226,1.86029771696096,1.85995146125274,1.85861285809688,1.86219872031267,1.85699998516795,1.86079252289592,1.85796801682874,1.85465581256544,1.86430616243752,1.86561320980178,1.86103982331911,1.86123103054747,1.85742168146606,1.85301527831374,1.84947596731343,1.78817689701046,1.79843143639293,1.85704016772561,1.85954911338721,1.79772797091067,1.85113100124048,1.85251163305121,1.85468739702955,1.85759064754582,1.85992042216737,1.82366874426177,1.81776286945243,1.81030914633213,1.80172434554961,1.81692764247167,1.91510829939753,1.93561573833022,1.93571616780651,1.93620454329838,1.93543621469097,1.93371706658401,1.93485528644568,1.93569474396299,1.93911364187079,1.94299800896942,1.94184589112385,1.93726676946711,1.93389951469471,1.87703819802424,1.8584890497579,1.8557172419454,1.8527779646796,1.93513556613319,1.93592552600361,1.93867812878463,1.9368070800105,1.93488207553637,1.93589455700142,1.93420733088221,1.93612258081808,1.93518464010789,1.93279843859818,1.9188716099557,1.9105327397595,1.90719099066942,1.90735854037403,1.92067684360183,1.92231228884542,1.92447605351211,1.92213166786322,1.92160262364852,1.87468604133569,1.88497531850966,1.87516007066695,1.93030866111673,1.92995130207343,1.9276585223278,1.90931643997899,1.90824960951318,1.9093762999711,1.91062631357142,1.90772106314502,1.90048704465888,1.89864696629452,1.90085281496707,1.92948293243505,1.93099047223376,1.92910383349609,1.9077644408601,1.9050447573399,1.90155395298942,1.896641108481,1.89161249728041,1.89203016686401,1.89729069281266,1.91661717424231,1.919771251544,1.87202559286595,1.8842534271485,1.90583060784893,1.91143710143658,1.91567383913465,1.9224731308807,1.9350049497971,1.94042010716288,1.94466403187489,1.94671011745361,1.94763909922782,1.94821131127459,1.94671534789612,1.94483864765102,1.94028358047604,1.93443396194567,1.91327107765206,1.91017778922739,1.90183907971393,1.91035929377032,1.79316716056318,1.79326434231062,1.79163770617053,1.79108954588009,1.81296305230875,1.82388530674743,1.78918036496927,1.78868365524481,1.78775440288459,1.78804121778501,1.78612373536729,1.78540105057468,1.78723470224679,1.81474424887333,1.82428007892037,1.81291199743761,1.7883332734917,1.78814830561801,1.78675547090687,1.78459182596791,1.78560342563239,1.78845254326656
1.73604194375097,1.73710156812648,1.83870531042224,1.73331883529173,1.73326078323824,1.73217635465928,1.9147587915693,1.73323109935423,1.73323250613356,1.73383866270429,1.91253521247906,1.91266802846391,1.73198167283282,1.8265931608405,1.73206544109208,1.73206893431078,1.77923613672471,1.73259263461307,1.73175736847478,1.73302878862339,1.73590949879597,1.79198613576721,1.87966597787369,1.95824889280637,1.95743456375006,1.78933785140605,1.8796755036103,1.95476688535908,1.85989752378285,1.86004043285446,1.85998674342077,1.78312765139632,1.86200150679336,1.7806288227185,1.87943736019489,1.8571964324758,1.77903911785236,1.77784505210619,1.85094588197459,1.88163780535332,1.88179021713919,1.85104067334764,1.85360623787683,1.85297653659296,1.88453521690755,1.77216237873621,1.84657053968314,1.88160922814347,1.84712317919966,1.84637658021398,1.88457284072489,1.7710004990816,1.88486703006636,1.77143254810488,1.84638909820091,1.9578151210764,1.84590600180059,1.77083427259536,1.77064937060984,1.88492690612508,1.88553437595733,1.77460482470956,1.8480373031754,1.85223249665459,1.88471453135042,1.85382677261841,1.95750712225913,1.95821837725984,1.88407067848521,1.88500039037899,1.79259449612094,1.86992114931489,1.89176452275278,1.96663655062157,1.96315024375983,1.9340773490245,1.93136119733587,1.93107565773164,1.92924770185969,1.94141180137561,1.93181740432964,1.94215480727825,1.93474925399666,1.93034888331189,1.92766790347832,1.92848584693368,1.8572780600619,1.93122058911651,1.8545320835627,1.92775312093222,1.92739086492224,1.93549115694645,1.92842688024544,1.92971378612178,1.92800877555575,1.92863057309295,1.94635388122944,1.92840212820423,1.93857296495583,1.93461192775532,1.93931614106709,1.95194726732056,1.93063216804403,1.93739193689256,1.94486799923495,1.8559909076056,1.95144240158176,1.94223101766974,1.8571580054547,1.94544595116783,1.86118819894404,1.94828160865705,1.9475260201607,1.93453231563833,1.86123661521507,1.86149258425582,1.95004984093074,1.86178402683439,1.9390796165723,1.94202171311927,1.95964421578592,1.86038720923886,1.93884904757829,1.94187889561123,1.94912129879099,1.94966744102364,1.94153563629266,1.94844163045594,1.86019274087302,1.86048382375126,1.86074677248297,1.86031058982879,1.94294464550188,1.95541464971114,1.85946385274552,1.85843615083508,1.95071900205597,1.85817067382027,1.94778667119191,1.94113590353514,1.934493287304,1.93517201521602,1.93603055057044,1.93710805780621,1.93568091026493,1.9392279539772,1.93385528768699,1.93593839497908,1.93640868358718,1.9330698065524,1.93159816033926,1.93330766879256,1.86268380248278,1.94325026978959,1.79520360309029,1.79397560294707,1.79424745180274,1.79258268276093,1.88979024827437,1.89165094216016,1.79196529065039,1.79349965003979,1.79131269568355,1.79182088580077,1.78974983208877,1.89043006025046,1.7915282474633,1.86704913972498,1.86600130869715,1.88848365757025,1.79098631931159,1.7896997352504,1.78916595255235,1.78882677085157,1.78982251753905,1.79221945158141
1.73768689114519,1.73617079760768,1.73612438086698,1.91236783167853,1.73246668674089,1.73398623018017,1.83600952695974,1.73252662686116,1.73235716174795,1.83261836472422,1.91250037549946,1.83339947512678,1.73242562582955,1.82924166656734,1.90028919764866,1.73101680010792,1.73147466720386,1.73138803480997,1.78144610761976,1.73476756333088,1.73478274521202,1.86844148489378,1.79566803238837,1.95996273998922,1.95568851687087,1.78972033830138,1.86166143529007,1.86150864409872,1.96082525327401,1.87627481563817,1.96164446719628,1.85682710405793,1.85961745784101,1.9704843507765,1.85537394535615,1.85556616653696,1.85528864464802,1.85501781302231,1.88196944627963,1.85019506050975,1.77738973144385,1.84937856663825,1.77624505542709,1.96368297483224,1.88370330257636,1.84723084469411,1.88604822140682,1.84740217082875,1.84687720589737,1.84587701798161,1.88575846603994,1.88522880097655,1.96070141927123,1.84579226175732,1.84447186516533,1.77157744448495,1.96863635787288,1.77193290022951,1.84645926002816,1.88596874954705,1.84992140776745,1.84937823760049,1.96230174302283,1.98099123826463,1.88666145742226,1.78116668601234,1.78233517637065,1.886267313349,1.78749495037131,1.88589199932631,1.79275713342174,1.88523769328824,1.97339921932301,1.9650422033648,1.96184065454912,1.93254508323637,1.93216831452937,1.93104828660032,1.93044904529738,1.85634697463621,1.93098199362238,1.93082006487147,1.93256462951589,1.93338263210479,1.93403682344967,1.8545085074692,1.93245788478974,1.93265904317946,1.92956728487109,1.93522351946755,1.9267032045168,1.93024163338259,1.92963314930918,1.92675177791143,1.92978453616713,1.93903989420507,1.94482197455363,1.93694486144465,1.94200290568533,1.93472227594502,1.94570790614868,1.93145954442648,1.93055635765437,1.85674705557411,1.9377738204085,1.94401038559145,1.93235403943524,1.96771236142106,1.93874135169204,1.94737014838258,1.86040731478289,1.94302148979966,1.86130353292239,1.93460090094119,1.93409794204861,1.94726192391449,1.94802579552156,1.93394719813983,1.93309037875761,1.86229293943229,1.95101686755341,1.95102952417086,1.9647371563511,1.96434342590436,1.95366758487659,1.95918213609347,1.93273386021158,1.95295270855701,1.95438351448165,1.95486553837855,1.93376252484334,1.93822079213213,1.94721722592369,1.94744548260765,1.94163828892077,1.94002820972434,1.94953410537763,1.9466547053658,1.94135134384334,1.93421162283661,1.93443215362215,1.86068118479677,1.95425249558179,1.93320495558565,1.93442279660626,1.93678530683407,1.93923739988741,1.93725376550179,1.93551131418121,1.93312594833137,1.93239635353712,1.93184722909552,1.96491427042322,1.9621373299329,1.79585163534173,1.79572314149356,1.88984899031685,1.79285668918076,1.96408268911697,1.79367597243122,1.79379031853154,1.79223440875027,1.88809784240216,1.8875707516427,1.97527579629466,1.79246873045176,1.7916543059063,1.79066763701026,1.88666627998921,1.8900697859356,1.88948957535696,1.84984248414983,1.78986304381909,1.97133214133538,1.79111753693637,1.79118992727858
1.90880520618391,1.73773596816852,1.73665894197073,1.73741671019767,1.73699057950678,1.91465242084375,1.91350298195867,1.82951308494725,1.73401858860736,1.7333954838055,1.78039827659193,1.73411861862223,1.73350788662404,1.73382751503158,1.73271915699842,1.8485453963472,1.73211106391584,1.8254165779763,1.83027752861562,1.73554659855614,1.81703425961944,1.86812396033988,1.9610250184121,1.96058946734105,1.96118455456431,1.8641961816083,1.88120914720558,1.86198396393084,1.9616635171029,1.95618622225482,1.85907133530856,1.78480869264543,1.88409544540041,1.85616598564049,1.9739802961148,1.88192675269736,1.88258720376945,1.77942665145704,1.88541175690878,1.85342086176704,1.7774341848814,1.88435672274761,1.88531365103173,1.85155081814693,1.84730337834227,1.88595296404065,1.77371120948707,1.84810280309649,1.77381122972154,1.77249667806845,1.88665766146905,1.88671776375098,1.7731002015241,1.77227826653602,1.84520135696297,1.84565616334795,1.77357784917444,1.88809466715662,1.88774539014735,1.84748917577717,1.85093055896937,1.77644509589604,1.88648379364671,1.88600332965575,1.88706209343542,1.88659155798314,1.85877507248545,1.86006684324549,1.86115686824096,1.79002562106579,1.86813983656758,1.88588208135347,1.88650965929527,1.98495394469714,1.95848742283809,1.94248758382384,1.94831858892411,1.9326498814611,1.93216424518613,1.94948704647294,1.93115789656782,1.94612704250173,1.9370084650802,1.93229035811554,1.93265385777159,1.85511815461267,1.93309442839336,1.93354371659614,1.93433913978058,1.93342330011163,1.93058574298541,1.93102770402813,1.92975815660948,1.92998301746935,1.92946115612299,1.92961088668552,1.94511646494157,1.94403489908087,1.95231124819467,1.85733765124434,1.95027897970413,1.95734012327523,1.85636602610944,1.94116093015204,1.94620318131016,1.9386976967367,1.93764335544604,1.93815033321871,1.93827456828356,1.85953964418655,1.86055245954503,1.94385963468007,1.86177346926214,1.94576532992764,1.94186004989082,1.9451254103808,1.93897751033625,1.94841713999683,1.94468317100911,1.86233866296807,1.96417934638018,1.95891907001415,1.86225928182959,1.86209416906157,1.94955098169461,1.95369536371891,1.95068931098643,1.93396267658837,1.95459881775328,1.93612201388582,1.95832080768954,1.95111653657347,1.94522505437629,1.94513206755737,1.94184296287184,1.94080637138308,1.86185285040061,1.9334482868111,1.86084312231925,1.93369533037834,1.93458309996467,1.93605312266214,1.96189213634938,1.93880053236655,1.93613549026138,1.94083034449452,1.93646407292115,1.93633887653313,1.93504902580231,1.9346049626642,1.8600963045685,1.85977623981821,1.94632871348531,1.93812542569853,1.79560336294493,1.79579567039019,1.98187713176997,1.96584238430269,1.96514371743838,1.98478883192911,1.79313653117068,1.79227018471494,1.78948035596754,1.79019525099317,1.88675312591645,1.79264640612545,1.79123528471375,1.96545476184293,1.7899531347462,1.79006962089685,1.78996837592479,1.8508776141955,1.95241402841478,1.84597344746072,1.96386396382795,1.97956237777213
1.91863417874952,1.73687694802289,1.91767366697398,1.91805469643865,1.83595237254004,1.73522973163803,1.73451138584425,1.82769344934755,1.82648378952896,1.78264952567899,1.73514020259517,1.73547024052241,1.73603415076351,1.82064451379713,1.73415343124755,1.73483468975307,1.83165153019864,1.83003045473264,1.82994593921527,1.82878419164985,1.90181331550732,1.79543669307054,1.79438722905929,1.96078604910754,1.79289604303293,1.88205693776446,1.95881532342114,1.86345040777509,1.86225150231239,1.86216402537063,1.88197120613491,1.85984960471135,1.85928508053038,1.95859623147896,1.78402758224286,1.98420141150443,1.85539751121478,1.8555017693836,1.85385595760584,1.88272373932762,1.85312221824957,1.88577850697862,1.77714160257919,1.77677340230622,1.84868426115156,1.7765403532622,1.8850414871284,1.88493915350072,1.88531582834296,1.84545761037549,1.771948948213,1.88721090943024,1.77243067832189,1.84525518349494,1.84599072399472,1.84825766161027,1.84691582715994,1.98151515377854,1.84660214607741,1.77639746721295,1.8500797164347,1.85046025548327,1.88823251524452,1.77821688290673,1.85278820569915,1.8865076925362,1.886225459449,1.86017254212391,1.86231435210699,1.79047015544124,1.97041767062018,1.79737313924274,1.88646819432412,1.96487345177741,1.95225185117555,1.96179712266195,1.93463900388814,1.94987065673814,1.95748172029482,1.94833579749811,1.9487801036942,1.95564477705108,1.93721126545209,1.93462022595777,1.93408982354131,1.93179122037941,1.93067995703471,1.85770915497239,1.93504459765282,1.93313609891304,1.93127677221459,1.95274742919636,1.93895974702199,1.95124236281094,1.8551575594148,1.93050168596272,1.93016351344246,1.93856139010423,1.95102640059741,1.94485375840083,1.95810088785376,1.85913801546488,1.93046428177493,1.9413768226161,1.94888429036654,1.94847535753896,1.95451104033043,1.93803639044643,1.94831794929737,1.94056028868068,1.94370620721738,1.86196715924001,1.94442193539344,1.86313088673001,1.86317534016755,1.95118543043173,1.94551106845497,1.94581956487661,1.9519233235389,1.86310834248668,1.94692348048914,1.94684522861984,1.95225779193561,1.96144442672733,1.86221006552374,1.8626482494081,1.94548247057272,1.94530465481308,1.93204744861576,1.93692023451418,1.9358814073633,1.95816874243116,1.86342459694236,1.94445180180545,1.9551089870784,1.95099551655263,1.94388849605637,1.95214878118452,1.9527646918333,1.96173019673514,1.95210705514459,1.96527377284721,1.93763709171017,1.9350602498119,1.94173617154252,1.93575803322207,1.93665955599601,1.93902665240967,1.93846101306021,1.94123032644476,1.93406746040859,1.8601039251578,1.94827850020727,1.94858440783358,1.7963137823612,1.79648020927218,1.84087364024009,1.79236159245809,1.97184652560355,1.98546198398336,1.79003310115355,1.78845070241462,1.79173667727507,1.78922384572557,1.78978989629172,1.88847728424405,1.79013739971457,1.89154933430291,1.97117020301623,1.84641796335745,1.8408677763268,1.7908274956468,1.790529257111,1.78936237268849,1.79127060530854,1.78972927059526
1.73771201690363,1.7930708378912,1.73756437122518,1.73746665757741,1.73789784722151,1.73964333546867,1.92101720052641,1.73623205877753,1.73602653461895,1.78292894728642,1.73490576596284,1.73463851049193,1.82237819786136,1.79640151410785,1.7347965868066,1.83247547867497,1.73524620713957,1.73539196939453,1.73563550479847,1.73580572447791,1.73840408491149,1.79632285873978,1.86866375208149,1.96139254568487,1.96010753606819,1.86733967469179,1.79158149137984,1.86464990809146,1.86311451922163,1.86253592898377,1.86202437272659,1.86105273365559,1.86037476559499,1.98243915023035,1.85667807803401,1.85641051695632,1.85595692558674,1.85452177326245,1.78145563335638,1.85226109165943,1.85295055853011,1.85595718513107,1.85256461901571,1.77645053866943,1.8489159430609,1.84891149224052,1.84866076485577,1.84855929638627,1.8461245305888,1.84524330944318,1.84605399828289,1.84738409747969,1.8461994318076,1.84612289335139,1.84615062719645,1.77496860672046,1.84781698375825,1.77471617434635,1.77488763619046,1.88614347877298,1.7771955387663,1.85117359375046,1.85239323496816,1.85267348467122,1.85329785524307,1.85654599037582,1.85754524948451,1.96772188715768,1.86291431022249,1.86486670262475,1.79617289642905,1.88560155042362,1.87650239467918,1.96936055398764,1.86139561504302,1.86181474745414,1.95435727868457,1.93493251278881,1.93383397719949,1.93254478411781,1.95046543748178,1.95034012435062,1.93013877394865,1.92952477189039,1.85891029593644,1.85826400371115,1.93402852805609,1.93382422704011,1.93728787227522,1.93187344194124,1.94474581042982,1.92966339637111,1.9383566955281,1.93025716707707,1.85974622260811,1.96123486052176,1.93044301691766,1.94401613978406,1.8578329895484,1.95102398068213,1.85850931684818,1.94953725595656,1.93091171923212,1.93150068191882,1.8622566669215,1.86181437389585,1.94908894032722,1.94453689759737,1.86204336513295,1.9416133095419,1.94345166141741,1.933276823552,1.86268635235457,1.94794743290589,1.94688164407399,1.94065610541086,1.94467485668413,1.95161990563946,1.94210606139464,1.94165329033332,1.94591579621999,1.95183876284756,1.86363416314792,1.94042588888271,1.94025442562373,1.86451529378496,1.86373418338239,1.95721499400217,1.94815737431373,1.95229672883285,1.93727196606745,1.93732585101523,1.9563481546413,1.86217672544558,1.93672825279529,1.93552933125395,1.86128130620362,1.95875848444273,1.93487696241118,1.9509128975636,1.95428881478315,1.93556443994379,1.93640604377805,1.93830053966816,1.93638629256231,1.93844265370885,1.93825686967263,1.93677382278189,1.9386253420964,1.93517512195328,1.9644640852348,1.93738370574796,1.8616498161291,1.86205697332736,1.87900870204714,1.8654837436743,1.84211688495049,1.79543986914082,1.78995950442648,1.79489308287923,1.79030387664874,1.97217040615764,1.78937611647061,1.97151948082212,1.9720402210906,1.96371155204209,1.79045347379952,1.89065391506095,1.96413068524988,1.84182737376918,1.84143511938955,1.964807011753,1.78812818263272,1.79187475048114,1.78845914795622,1.79508394220361
1.74221191022546,1.7944859389028,1.78836888868598,1.83217065510324,1.78770451657688,1.73756570849673,1.80943272179938,1.78423714844843,1.73714982239377,1.73234200115304,1.73685150484025,1.78309882292275,1.78357510975357,1.73731336987498,1.80017370580803,1.73669225248967,1.73475853415761,1.73641657633496,1.73665099216738,1.73690863237424,1.87117219605721,1.87030852927063,1.95903441813081,1.88705794948818,1.96475530704576,1.96393781122974,1.96501365504308,1.88500991611561,1.96799905821274,1.96074812028094,1.97901941078499,1.8644915380498,1.85973298863398,1.88703889801495,1.97663797663083,1.85775483525297,1.88776285399781,1.85884213219218,1.85519500007372,1.78155514785344,1.78064522674379,1.88790415242429,1.88660230175335,1.77972047298002,1.84999261108033,1.88766759663164,1.84950624520515,1.77677690905485,1.84974506934067,1.84849805933745,1.84795427257027,1.84745037425327,1.84702034369129,1.97687611609275,1.97070344667218,1.8890202512312,1.84833897630096,1.84842826326429,1.77633553966599,1.96533092726691,1.77665303875023,1.85553738996508,1.85568866238406,1.7800934530202,1.97209420026471,1.89015119431101,1.858645128667,1.86223458707436,1.86479498738578,1.9705986596159,1.88868685044964,1.87034028172602,1.88855104066198,1.97833355774859,1.81930329008151,1.95118705603149,1.94442008775318,1.93408060228536,1.93335751012258,1.93297594242799,1.93391774512108,1.86205289086956,1.93229866638879,1.85885978937661,1.86312256152915,1.85902725831096,1.93551707357555,1.93673482252293,1.93614685003769,1.93301604039798,1.85805208149058,1.93113670888057,1.93856802586993,1.94219930390716,1.85988116106554,1.95288078950899,1.93171243538428,1.94655325056223,1.9385266446908,1.9551674789022,1.94761306300706,1.95794848138918,1.95627195174436,1.8611929549965,1.94168804898447,1.86087524833294,1.93405793395456,1.86243392033423,1.9663343048572,1.96691855003634,1.94260560614799,1.94879337159646,1.86289591856013,1.94260989818413,1.94704562730693,1.93589454686454,1.94346409987022,1.95183675132249,1.94020509783669,1.94084227005192,1.94143082838345,1.95710261179926,1.94946084004215,1.94977399614654,1.86328171089311,1.94858939508018,1.94791989466977,1.95111180717898,1.86331981383957,1.95552357491356,1.955719076633,1.95127587126768,1.94575061418595,1.95933923893506,1.93584396965072,1.95134714591372,1.93553442313014,1.9486715763002,1.94246015404585,1.94232828954666,1.93612634483182,1.94389996012654,1.93501468498159,1.9338172830771,1.93427676988696,1.93744726534154,1.93511647472502,1.93454222078949,1.85662322099809,1.85605167680109,1.93849144207017,1.93484323979065,1.95134714591372,1.86194701911154,1.84506850248214,1.86682369729174,1.84340367588546,1.79098132640293,1.79689154456819,1.78783613193569,1.7932062137411,1.79076974036582,1.79298196901042,1.79149217971956,1.89198275531897,1.78793313425568,1.96695030249173,2.01106398876328,1.79035573612973,1.79234167096887,1.79185589848022,1.88636088432767,1.88242060214338,1.958272356434,1.79363894468006,1.79065999902117
1.74322147897408,1.74161646197853,1.83390272458186,1.83869739927122,1.85266124773066,1.85338434872106,1.81069011903277,1.73793313939888,1.73734225411271,1.73730672143496,1.84302216164096,1.73692122705093,1.73687677361339,1.92462745470411,1.83561970536361,1.83358013785721,1.73876641566112,1.90830986787985,1.92121247812705,1.92203169147608,1.96256665728854,1.96316469269429,1.96398320738334,1.86961628888309,1.8695275120522,1.86906760645398,1.96698992613245,1.86434859339417,1.96111102812759,1.88878411569164,1.88848732362333,1.88895464505499,1.88881661526363,1.78660588162043,1.78628835706654,1.85979073530616,1.85920151044192,1.7837608616176,1.85583636125296,1.78091987668162,1.78064690034872,1.78106526907603,1.96175877603568,1.85368314718931,1.85341466728411,1.85364649688312,1.85433106272091,1.77654194088497,1.89031575141106,1.84850280642185,1.888677324713,1.77534963618513,1.97396124464156,1.84861996618145,1.84797488901437,1.84911250880893,1.84927336122016,1.88990614473655,1.77627833572027,1.85029813188466,1.77713860485063,1.77987994457027,1.8900490307858,1.85518723831568,1.88999878252514,1.88934055412494,1.88903858827419,1.78988749788485,1.79008436310826,1.86586318551621,1.88838202687786,1.9587295917916,1.8887698604399,1.88836814651894,1.81946332245669,1.86337294638591,1.86345318300323,1.94494467810797,1.94863774352283,1.94933901235383,1.95492366224906,1.95387523777079,1.8595038050253,1.86181648471407,1.85751001101189,1.86325118118515,1.85904701718904,1.85918346795551,1.93782029124007,1.93705534919428,1.93096929381573,1.95206586274144,1.95074940594103,1.95124283909777,1.93269340728516,1.8588046146833,1.9505099112286,1.95417497874024,1.93253228179446,1.93256474603907,1.93188410731105,1.94841959695271,1.86156636387187,1.86160160909735,1.94842274477242,1.85975980325305,1.94697323230745,1.94833859357555,1.9480701607961,1.94282169824683,1.8619576335034,1.93757353379401,1.94235956140425,1.94264943456953,1.95078879951248,1.94277346317721,1.94845171068941,1.86345026352431,1.95277707245753,1.95440825825434,1.95165707410989,1.86302451600446,1.95070403963627,1.94157071489993,1.95689111822664,1.86358382616717,1.8642338176069,1.86480573536219,1.95184407975288,1.95724954536143,1.95606380238116,1.93959238692881,1.8629061247065,1.93775760978361,1.93635027584742,1.8609860083685,1.95795800712565,1.94259740137027,1.94424021323264,1.94426659077698,1.93406285638924,1.93391633617591,1.93382225858725,1.86016543419995,1.93538474587948,1.94134376972367,1.94149136102638,1.93436330302791,1.93421638934248,1.93413932882974,1.94874979506296,1.94853387836624,1.95974428180755,1.95780063340519,1.79397994755455,1.79606233565697,1.79413907301515,1.79764768782814,1.78996697339361,1.79481086449134,1.78867759768087,1.79343453248185,1.7909915059798,1.79182755025793,1.78951403637907,1.88878052019302,1.88820262550494,1.79043573828973,1.88326126303669,1.88235876753326,1.79099075716263,1.79262804129774,1.79044141766037,1.7942097432739,1.78864278709597,1.88633399350532
