1.72997581561408,1.73142841459344,1.73226010815577,1.72915583735784,1.72923105221153,1.77906214882247,1.77987853011907,1.78016095626057,1.81359302128728,1.81379447234274,1.73191420599297,1.90190285613814,1.73471976891204,1.90141483005299,1.97807313058584,1.87221085739188,1.86613855583172,1.94606439088389,1.8615782046953,1.8633447611857,1.87217573898342,1.87285905528124,1.78706372570526,1.85928434358714,1.87386465609612,1.78492024059811,1.85608702677723,1.85543377925851,1.85536945297962,1.85646412863535,1.85571768783362,1.78067154689889,1.87423730698962,1.85094664042895,1.77581042888158,1.85317611998057,1.87870104653088,1.95211208101592,1.85014963919685,1.77504489848218,1.84740428888833,1.77344866626598,1.84751554613797,1.77258563208645,1.97043696488116,1.84973014577294,1.84934776109397,1.84623418855093,1.84632014867355,1.84659613414295,1.77337030074286,1.88329351433276,1.84828402262031,1.88168518352882,1.77581042888038,1.84804790025398,1.95662269724008,1.96392640003884,1.85109948990469,1.88288142024319,1.85363718834637,1.85472378010525,1.95778657507967,1.88149783191601,1.79172389198878,1.86818347177401,1.88376589347253,1.97906521173869,1.9640661818171,1.93814126955188,1.94695954621365,1.9281724847673,1.92924318660487,1.93206961921041,1.94493785540903,1.92645686706289,1.85516290930176,1.85396093435277,1.85362376438558,1.85387476512007,1.85362358749428,1.85365748782043,1.92822032450905,1.85359788645276,1.92915679404286,1.93706202235082,1.92720498430462,1.92729583027321,1.94881337977533,1.93373873293697,1.94997998537407,1.92999600832218,1.94735033510174,1.92948221098033,1.92030240938634,1.92011544744379,1.94796486294629,1.86022929132784,1.94684466451112,1.95195845128429,1.9537220949113,1.93869611528207,1.95354020088094,1.93529494958194,1.86173375727323,1.95142413208646,1.86390536852336,1.94438419990585,1.86328184445041,1.95602318276732,1.95993913764824,1.96326163171672,1.97032376251204,1.93873641937701,1.93788459117691,1.93771400974206,1.95368076719874,1.95422674769678,1.94811319125002,1.94920744987668,1.94145086696342,1.94323162806067,1.94770875932697,1.94700663560916,1.94170555492838,1.94545732828654,1.94185250316132,1.86586578369877,1.93966654025393,1.86749225973559,1.94168477249882,1.94065468144319,1.93919912222461,1.93880682173756,1.94397287408651,1.94815432511229,1.94028001996286,1.94195092950642,1.94105777204271,1.94310429366761,1.94339112326458,1.94467932933662,1.94541127002399,1.94312704083455,1.94107481110376,1.94036414398035,1.93946334307713,1.96033268005842,1.96084428011781,1.89405491111277,1.80565876626841,1.80245112805077,1.99587171230352,1.80230898506102,1.80282213239994,1.90721122608254,1.89005876997656,1.80362113889333,1.84730416928709,1.80000172296821,1.89003713499302,1.79901977154946,1.79927224230953,1.80036770437991,1.98955608653273,1.7992949519951,1.80002744090316,1.84852730571739,1.88633448075486,1.88577586354983,1.84969474522104,1.84932714687429,1.8045137339711,1.80502848848982,1.80487367054508,1.80605054262027
1.73481743604773,1.73366901131467,1.73254184631407,1.73357366889354,1.73386403676373,1.75436120076009,1.76411676690461,1.78145407311603,1.78155206045592,1.7814557818982,1.73491832780791,1.73446961846436,1.73485725198517,1.77575266621629,1.88224981511515,1.87402949935467,1.87476001480733,1.89701138888453,1.86533347763203,1.86393047732091,1.86732859298329,1.86980490412595,1.87045036482424,1.85929860182896,1.85891789865683,1.85873024995585,1.85759878752981,1.85745130185819,1.85892086920364,1.8598890416234,1.86243441707064,1.86636601239503,1.87051782039223,1.85283916964087,1.85345895295372,1.85274781301503,1.85089862276124,1.85004119729995,1.84989532144444,1.82870493885767,1.81566218052572,1.8047837680121,1.84794543233326,1.84749529725233,1.84747156674269,1.84844725251835,1.84890278964062,1.84855976526353,1.84823798505809,1.84875257411967,1.85006396395276,1.8607252774657,1.84577689645262,1.84418681866363,1.84359852647543,1.84525433581331,1.87007797075152,1.87723691051567,1.87418082310158,1.87080217201919,1.86626842124178,1.85761224641264,1.85920078049492,1.86140583078696,1.86327014190846,1.86792537652453,1.90266304648275,1.95959984782326,1.95507484794509,1.9467325954038,1.94424893672965,1.94208035897442,1.93941720159971,1.93666856286702,1.93427553048992,1.93145934107703,1.8544461561816,1.85425378981731,1.85389332060411,1.85403149311349,1.87905384642463,1.89457607998778,1.92940436901354,1.92963198460863,1.92898272271816,1.92807464047381,1.92865420775785,1.93055868245901,1.94190810577203,1.93894164144748,1.94249272398952,1.93308171097311,1.93156711201897,1.9274062525606,1.92507811022116,1.92855744447074,1.9305199621963,1.93122007181952,1.93565859703478,1.93584120252053,1.93909763230823,1.93970732505843,1.93947970632198,1.90589911381871,1.89288388598579,1.91350215502996,1.89838836516511,1.94490612631008,1.94608833070701,1.94718608797621,1.94978285211111,1.95310200412826,1.95417758049077,1.95275143674946,1.95165468660008,1.95216001943785,1.95334523498576,1.95436543355284,1.94798826627521,1.94466326273574,1.94382529223666,1.94299151741905,1.94615287901821,1.94729669135868,1.94422600124601,1.94340864042289,1.94030515275985,1.94034026656213,1.94251599990078,1.9434828994655,1.94274667800894,1.9417319413563,1.94264093929526,1.94401853077091,1.94514009780161,1.9487503541328,1.94776649273518,1.94467211508568,1.94330294990928,1.943328329316,1.94482704280614,1.94534681971121,1.94655659888086,1.94574952082109,1.93983558129171,1.94021513821965,1.94078456341661,1.94083770447129,1.89427496553516,1.87674081448521,1.869181023806,1.87546226984186,1.87812056122928,1.80073319555678,1.80082629271956,1.86166215629559,1.84671343041993,1.83496826777955,1.82323962927813,1.79851117468297,1.79825912797581,1.79875127265285,1.79968232352985,1.80014231746354,1.8381168092319,1.79821856969622,1.79867642670908,1.84859107294686,1.84923900273103,1.85004898038794,1.85058536369055,1.85073565712066,1.8044228951896,1.80444237569771,1.80463891571113,1.8046742548375
1.8307372366573,1.73401052196451,1.82918703760447,1.73254631418245,1.73387277030319,1.73431193899089,1.73455595603084,1.8076517123981,1.78125042898843,1.78152267423869,1.73474678283267,1.73443526256996,1.73502255509272,1.73560167704515,1.89362009572731,1.86603848483275,1.87331086875687,1.95369098745861,1.86569315227485,1.86563288844155,1.86690582894976,1.87423820930715,1.87595880646502,1.78996317208628,1.86026185806023,1.8600232311984,1.96957574318514,1.78261408027965,1.86066829204685,1.87859492497097,1.87890319373516,1.95286866148853,1.9561974798435,1.85139102423514,1.88095246905257,1.95126999757981,1.84941484295686,1.84923868985319,1.84958035739064,1.84914769367351,1.77464784158277,1.77487835107697,1.96923125450674,1.84703098282691,1.84776643609047,1.84815008813321,1.88306391114834,1.88191771054853,1.88212121564715,1.84750964412537,1.84885305411901,1.88319857448981,1.77428574778423,1.77526817836162,1.95670526339467,1.85025203107792,1.85124411214905,1.88457358937357,1.96107835578444,1.78177199684366,1.88560802062222,1.85815674580252,1.86065606164125,1.78850866432745,1.86566894726259,1.86721382663469,1.98375721113066,1.97413063123556,1.81726389986178,1.9479631836718,1.93070917066608,1.94654062222028,1.95295649877228,1.95059219135219,1.85779143422263,1.93795233959302,1.85516505054545,1.85504201937968,1.85574178438578,1.85478375854778,1.92864609886132,1.9282995319521,1.92859077418044,1.92901569399621,1.929808715486,1.92936750035144,1.92996663727009,1.93045066231408,1.96632973708266,1.93109770139018,1.94835769897292,1.93130900654168,1.93085001369407,1.95597630142645,1.94279976345968,1.92878574890132,1.93240674281035,1.93265514230557,1.93236523226062,1.93401083146212,1.94215548838717,1.86255774521767,1.9394672603719,1.86251573254823,1.8630731746277,1.9671929614419,1.86446019977441,1.95104454160256,1.95114949528814,1.86505213195524,1.94116761761755,1.94000492536348,1.93652307165792,1.96319785833567,1.9493674277691,1.95445141377816,1.95232053127205,1.95699863807102,1.94137920328032,1.94043105976022,1.93938634701015,1.95253077625954,1.93992989042921,1.94791974596851,1.95480539486133,1.95397901631335,1.96109658408272,1.96314315540808,1.94357141670592,1.94208798422314,1.9485695207874,1.94676453986969,1.95932045612548,1.95459433748248,1.94341114204137,1.94918941365635,1.94655697286656,1.94594877686732,1.94255962168569,1.94490677129621,1.94577435984219,1.94589418060451,1.94631531005593,1.94669655462042,1.86473920559037,1.94025931462331,1.94123249770335,1.94017935885565,1.86815999018806,1.8573890256468,1.85753869815841,1.89331934611044,1.99002497390056,1.80212598278232,1.80230677311771,1.97460910554186,1.80184358282498,1.98946039523317,1.79987510547053,1.7992684961558,1.79867326720096,1.79884833026802,1.80080157298563,1.80095816556181,1.97472393510133,1.79992448325885,1.7992161868139,1.98963263957238,1.84957461521957,1.85025359624537,1.80242788786386,1.85081845814978,1.80441599203142,1.80464779231913,1.8039504547802,1.97081973007939
1.73362492448096,1.73325680985495,1.77238246536674,1.76622988625741,1.75826831300156,1.74887277571177,1.75538952081725,1.76165218067407,1.76838502302327,1.77450803660749,1.76484075950518,1.73436377997712,1.73490365594648,1.73522753289881,1.77496326755465,1.8645054939026,1.86404011221731,1.86425266128877,1.8652490336307,1.86582028048352,1.86657640010786,1.8741789151141,1.87180462858736,1.87002827662576,1.86636814344942,1.86213228413026,1.86029065419074,1.86114735525596,1.86147763183067,1.87852686140001,1.87858371689755,1.90655286958006,1.89217030078111,1.8617105890632,1.86644441072803,1.87270137767365,1.86436852036718,1.85024524363794,1.84963888960817,1.84769730410528,1.84585772926917,1.84569702240696,1.84453410638432,1.84568829636743,1.84704534635512,1.84717879128218,1.88187046397053,1.88246933254794,1.87501026305774,1.86700299542878,1.8610532756035,1.85566931428659,1.84982035985281,1.84993035091553,1.85019867233098,1.85066655771708,1.8510487393737,1.86395672214913,1.87490750877837,1.87201145704739,1.86881279964914,1.8575054015728,1.85770724213286,1.8586326925385,1.86171449041673,1.88110338605016,1.88900972794814,1.96370076714615,1.95858950111749,1.94281311395463,1.94213298953876,1.94428531557968,1.94765219010832,1.90336432839315,1.88820422299194,1.9043316004649,1.88565579404431,1.85522562105376,1.85512072185308,1.85473862458057,1.92808017300822,1.92898700223983,1.92886571880514,1.92817490640414,1.92876265881392,1.92843641301738,1.93971420507417,1.94558115565386,1.95450974021252,1.95342285262911,1.9451165330049,1.9435179769194,1.94335138575983,1.94446282904742,1.94463315162144,1.93822544491791,1.93359203125158,1.93300324754157,1.93348206021206,1.93299518859415,1.93767924450289,1.88325953793139,1.89462215860133,1.90545370453595,1.91204857335731,1.94561663538363,1.94465574338664,1.9497977625955,1.94892524430457,1.94693859926162,1.94501920314665,1.94213507659176,1.94163291476881,1.95271166050986,1.95242537576149,1.952169602477,1.95364774062361,1.95490215429262,1.95122105752364,1.93916153776048,1.93884497906022,1.95176763149788,1.95219852309095,1.95052166306121,1.95103074403951,1.95248905358118,1.95407811693888,1.95552437833694,1.94545124843869,1.94583489898434,1.94716326841131,1.94716889712504,1.94921262703652,1.9506548721291,1.94292048346163,1.94341493809672,1.94529042141125,1.94474960460965,1.94349325736596,1.9452573261407,1.94666838982534,1.946403029018,1.94539787919572,1.90814800762967,1.89300447152339,1.90707441309299,1.94141539266676,1.94060328322856,1.86802879013767,1.85765401744313,1.85786355431262,1.84486126923053,1.82896088601466,1.80289689491761,1.80144760141156,1.80074098598219,1.80156633440465,1.80296416886517,1.80438030186857,1.80506996460218,1.80407255852679,1.80365404089096,1.80235020224048,1.80071801895981,1.84195455175134,1.79540742012175,1.79667677984729,1.79971771618908,1.80109842809587,1.80201471512397,1.80293318171968,1.80419601821981,1.80441488065088,1.80397052563243,1.80362828106957,1.83901352796528
1.73414955334278,1.73507260283974,1.78156392877403,1.82380312812167,1.83072415638766,1.7341277856916,1.90676397415566,1.73475469526865,1.73498594021081,1.90942897661963,1.90818498972538,1.73351312574857,1.82117767583151,1.73466254477548,1.73674291322294,1.8768348085976,1.86653974130156,1.86644095914613,1.7925560990559,1.79214997204818,1.7923419700473,1.95138482713928,1.86186679145003,1.87981508054873,1.87963006847944,1.88097248641155,1.86118466822944,1.88012896275674,1.85849591455013,1.95415987482644,1.78454704453041,1.97692483499115,1.88028941586976,1.85697621152171,1.85510107734033,1.88091584577589,1.88150038202332,1.85215154890228,1.85224478419207,1.85457356285023,1.88295078451202,1.8481726198132,1.77669876335293,1.77607995959863,1.84804347883081,1.84724149106197,1.88625032527991,1.8841610990226,1.84774113816191,1.88606572818366,1.88689026799761,1.85022203669713,1.8494330497014,1.85016615949055,1.85030737269327,1.85186801299482,1.85175999458103,1.85329166480403,1.88446247515459,1.88411836430675,1.85644016198845,1.78814503737753,1.88464867185825,1.88467619984977,1.7964515311288,1.95730811858188,1.79904427640956,1.97227569318159,1.97150679358996,1.93911656354975,1.95050312816913,1.94070163186066,1.94758095677319,1.85761031702479,1.85802654822208,1.94707182958622,1.93106260773654,1.85676412629343,1.85638500555187,1.85548906461383,1.93266030215775,1.93672053893359,1.93740634884937,1.92880375334071,1.85714584592237,1.85679639175201,1.96311974892759,1.95515536806098,1.95556473591603,1.95472296896406,1.94649767316192,1.95995084793176,1.94875465488603,1.93715873100945,1.95117118205808,1.96011976450826,1.93656714746239,1.95702799165887,1.93433407718521,1.86212431206997,1.94076869940384,1.86241160353544,1.86357115372474,1.95266023543402,1.94286651701244,1.94715250644361,1.94609794100765,1.95299397141561,1.95637220996087,1.95772723980503,1.94709177325278,1.94995252072948,1.94244015596156,1.95501372504492,1.94745539171904,1.9443754174647,1.94224613870045,1.95656851354905,1.9543567255022,1.86719720024624,1.86754809486547,1.94880982833396,1.96868942887916,1.9405529284538,1.86565498481804,1.93836886620012,1.93832168056734,1.95720899244715,1.94649329865796,1.95695517635745,1.86752096780336,1.94304873319103,1.94209218571207,1.95778184275092,1.94063525662512,1.86691228935972,1.86735655186791,1.86766250593229,1.94406888799792,1.94660698146751,1.94811875599166,1.94716677706864,1.94238508974768,1.86702285573203,1.86736465847692,1.86765059591358,1.94122456406919,1.94266752628214,1.86953881884945,1.80518765783604,1.97336511864762,1.8064243905511,1.8040583908052,1.79902547999658,1.80041091891408,1.80018598889293,1.80080530653029,1.80190036564315,1.90009965035812,1.900263725323,1.80198034495682,1.97408280293689,2.012847348845,1.79916622099337,1.99067567473755,1.79775286156289,1.987336048383,1.80114203655666,1.80091527731831,1.80186189542536,1.80219784904712,1.80385557530365,1.98327873728176,1.80308408831372,1.80283848800192,1.98065679567389
1.7635453051212,1.76641473136363,1.77049188305675,1.76812891677979,1.76145151918657,1.7339467919072,1.7338746872577,1.73438628847273,1.77400970627763,1.79292477658277,1.77429325098469,1.73978491054292,1.73984933765047,1.74018962173123,1.76955656492728,1.86749582777929,1.86607450853286,1.86672501626918,1.84823373041138,1.83434726671164,1.82253676783315,1.88382553020385,1.88367725108305,1.88107242283315,1.87364275120734,1.86765880954867,1.86169595473711,1.86069101067295,1.85874063020253,1.89544092352704,1.88933301792159,1.87997371335944,1.87457492219274,1.86661460040793,1.85508561792367,1.85573766728568,1.85518607119085,1.85377260506891,1.85343091562989,1.86197928618845,1.86915890940648,1.85834459722748,1.85584836896983,1.84595391250649,1.84622172310761,1.84558884309817,1.85465339811195,1.87851957095898,1.87141675522551,1.86468590279303,1.85765654287225,1.85086733496487,1.8502662517221,1.8497352249748,1.85005417633721,1.85034471473313,1.8537947838661,1.85517966692116,1.86788152886084,1.86437705912892,1.86193147099481,1.86499553525397,1.86618256246639,1.86603036301363,1.83306272918845,1.89553004871888,1.90006185434346,1.96148013834202,1.95709408527901,1.93977233013405,1.94220947536076,1.94323256845561,1.9454715198765,1.92951293921189,1.92830657833669,1.94569257109373,1.89499172905599,1.87510933148907,1.88691352820449,1.89552745603789,1.90609473494524,1.93751933444808,1.93750998864645,1.93347003994673,1.90463536337022,1.89011200764755,1.93813003906757,1.94051270565165,1.94456363423842,1.95193342444725,1.95098502821197,1.95034522971834,1.94975034433143,1.949295800017,1.95129400095684,1.95424111779802,1.9371798876792,1.93715593655584,1.93595794513225,1.89986732769359,1.93728892917549,1.9355109157218,1.93639723912309,1.93779967020067,1.93925346400063,1.94827706447692,1.94724634294008,1.94828517398656,1.95092908066793,1.95237431615451,1.94945673308925,1.94985203947604,1.94639833278945,1.9513975163813,1.94949760918529,1.94828169323663,1.94813825627149,1.95485843362325,1.95437757991801,1.95472416595656,1.94006998171517,1.94389881442842,1.94982977911087,1.9451782738399,1.94369800508398,1.94399543035175,1.94661554049727,1.94671057834972,1.94419422872934,1.95404213126634,1.90664497080016,1.9430233126792,1.94337233741293,1.94599323899693,1.93975335661269,1.94197093900834,1.9423527448545,1.94367392769643,1.94690493847178,1.94733791195159,1.94706355843046,1.94595986903699,1.94385044419023,1.94063406802514,1.9380694399946,1.93564235785926,1.9390586602731,1.94163562175525,1.8918799377034,1.85209330253415,1.83445068413255,1.80387832533768,1.80344686552278,1.80311532963185,1.80251871305181,1.80168490480828,1.80171061391337,1.83344429006285,1.89987034538623,1.900554488451,1.85594969568618,1.84056937274754,1.82803923293406,1.79865807413925,1.79837785641457,1.79860629059941,1.80035519582413,1.80139182145015,1.80118912631299,1.80197331369059,1.80308199594573,1.80487081704879,1.80583420003179,1.80518400671217,1.80473432899322,1.80716670604545
1.91014187703004,1.82250549754233,1.83244666724525,1.73284191706737,1.73480342515842,1.73433499391492,1.73412537401728,1.73471373638478,1.91141776079543,1.9118132848336,1.73656802254223,1.73761419107597,1.738455222262,1.73863074709133,1.7858339648642,1.8703567958553,1.9548392830533,1.86784712981983,1.95363901662219,1.95841269325603,1.79215665818773,1.88097104746013,1.95602585516781,1.88029188295159,1.86170824658505,1.86307783387625,1.86124858494465,1.85951238607981,1.7846618740899,1.95802803845449,1.9763867281303,1.85681858966512,1.85648211306749,1.88088100322506,1.85461435707958,1.85484428334433,1.85485779312569,1.85351681719476,1.7780113287709,1.88666894953092,1.88732827582653,1.88696661279918,1.88647842472073,1.84816925590742,1.77507922919289,1.77514848232467,1.77484957006928,1.88532812502043,1.88467452300574,1.77517886630446,1.85041363458649,1.85010878460609,1.88640676946971,1.84800673555968,1.77783704652494,1.78044392614314,1.85669949778163,1.85688337342118,1.88695019488612,1.78441808360669,1.78769985097324,1.88730977236251,1.79123586642597,1.86766938491835,1.79715025950242,1.8856377711208,1.97325188371444,1.97356447529299,1.81955092191513,1.93349385340962,1.94647920431008,1.93379851047945,1.94940100743845,1.93271733480625,1.93325020075019,1.95241564880718,1.86015930131816,1.86054209522329,1.93704331754237,1.93764212424708,1.85758821161535,1.9424804348069,1.93680317114382,1.93645082483869,1.93097014199024,1.85957121805673,1.93435987367225,1.93338924430784,1.93196870767351,1.95158079631082,1.85925324005121,1.93371998838302,1.93175753565719,1.96419335097142,1.96488302491163,1.95391387757202,1.93519005205875,1.93460867392957,1.93333986934269,1.86347391839894,1.95356667118735,1.93172957092191,1.95520548453437,1.93713266769381,1.93773566499861,1.94690352702062,1.86436793285945,1.86476985014141,1.94735271619801,1.96064270642332,1.86815261509248,1.9536330478207,1.86544459677858,1.95475034951824,1.9475466119729,1.94696836158395,1.95224626043959,1.95851463073271,1.95476117356726,1.96316790068091,1.94056878791976,1.86693725097251,1.95404784109198,1.94261829179643,1.9483238994928,1.95122818027639,1.94796940435637,1.94574842256464,1.93842828276506,1.95468820353726,1.86782717977977,1.96401604146996,1.9434834152449,1.95495910577152,1.86732001634417,1.9412468523657,1.96007517525453,1.9414977947628,1.94644819174692,1.9501287236212,1.94512271193794,1.94535653172047,1.94592821015077,1.94163982734903,1.94117734373286,1.95833612015815,1.95328549218597,1.94898497697081,1.95161306722948,1.8973288963341,1.80158323537941,1.80338738500093,1.80283690279461,1.80322662161081,1.80394485455439,1.80261109292899,1.80289733056381,1.98707768187419,1.89826853839257,1.99330718547538,1.89014239496513,1.80017950258351,1.80001708802682,1.80008873552987,1.79897197473056,1.97523109898899,1.7993911113624,1.90198897830774,1.80147993390179,1.80152788441262,1.97511773844789,1.99700896929247,1.80513382359948,1.80467367583589,1.80388833519364,1.80478004475571
1.83186990271599,1.82334380451096,1.82347104804241,1.73513535424743,1.73447240230021,1.73422126352073,1.76056363222512,1.77315397315294,1.78633036378113,1.80226192977286,1.73646281290482,1.7363984671312,1.76179288320121,1.77142728031741,1.78569857149026,1.86981074199172,1.86914383504791,1.86843880919393,1.86818032955339,1.86911831332197,1.87048906509886,1.88001406275945,1.87914500586908,1.87927539220492,1.86887530272816,1.86276964289465,1.86163535545065,1.86044802308152,1.85949064554388,1.85830619838871,1.85810372017757,1.85858993651497,1.85861413968715,1.87179335917141,1.85610559692613,1.85596080207966,1.85529987392626,1.85434472511922,1.85394820447694,1.852851296424,1.85187573734958,1.85198870255666,1.85256518110552,1.85221049559868,1.84968118309813,1.84860974298945,1.84740560199902,1.84699674531658,1.84921154368175,1.85188466525583,1.85231453421238,1.85176603060713,1.85149644289695,1.85039793200449,1.85114324439289,1.8527834080346,1.8551258408997,1.85698332115448,1.85696167406844,1.85754594851992,1.85823486567046,1.8587914367635,1.83088075114248,1.86957301732944,1.87104388048511,1.88104177076483,1.88714005720171,1.9645291182859,1.96291663226513,1.94371462670976,1.94586776748308,1.94921681064066,1.94579978034131,1.94164380590612,1.9429047351001,1.94446541954214,1.89121459747286,1.90461022755143,1.93774135431358,1.9378942144402,1.93975571411733,1.93844448165758,1.93835464295876,1.93870030434031,1.93442388950686,1.89826854123472,1.93463192612392,1.93469269565316,1.93482234744401,1.93678895623021,1.94050613722932,1.94657788424099,1.94436416790458,1.94535149951248,1.94428176902735,1.94366339437306,1.94306361179073,1.93597110803824,1.93630810116932,1.93764190270861,1.94083662443484,1.93895620594369,1.94991255533875,1.93838869112187,1.93743257338035,1.9370028021686,1.93634346017981,1.93605847661182,1.93545493911668,1.94377314952909,1.94281670496645,1.94178816874037,1.94154324574185,1.94209818453459,1.94272257557217,1.95019983467956,1.95226003278706,1.96098477118955,1.95718887720188,1.95655419640215,1.95429327371407,1.94098838308866,1.94329191460747,1.94196663675094,1.94531163217018,1.94348240656779,1.94379763108082,1.94478075410702,1.94536938301695,1.94952585131332,1.9477154638018,1.94731414010269,1.94689237152048,1.94835647570389,1.94329288390456,1.94375348594484,1.94405603317619,1.9427824045922,1.94153112279335,1.94134062538519,1.94357800579273,1.94419452543569,1.9440107154931,1.94332643118353,1.94234513604344,1.94763243804387,1.9475012839798,1.9490939532219,1.95008578790147,1.89721497656971,1.86110624876362,1.84757409558123,1.83965213958538,1.82979923186735,1.81886035677471,1.80260816208561,1.80254776296077,1.82330636228353,1.83327891460665,1.84387853805171,1.85703792393394,1.79950919957874,1.79993434247253,1.79982244460833,1.79925936715152,1.80044379974797,1.80095939086246,1.8011614004544,1.80161735924327,1.80232723190407,1.80415567929193,1.80513694558816,1.805970265352,1.80490869894902,1.80438293259523,1.80345562964524
1.83487773736977,1.82194977493248,1.82380289127378,1.73612219623027,1.73617120008037,1.73530245311395,1.91075111140852,1.91104456472716,1.73553448668326,1.91002704747057,1.7381434498782,1.73678121708657,1.78571622665117,1.78587044844234,1.78593067967542,1.86973247852671,1.86979575419075,1.87003779202472,1.86967727328367,1.86798890260917,1.86774041152636,1.88089457018351,1.88135311333371,1.88121606109193,1.95619809950702,1.86400461996938,1.9769152658612,1.86140375675726,1.86144096108989,1.85819423641275,1.85792822102546,1.88262241890503,1.85840899498896,1.88420344753493,1.85698546456173,1.85679032996027,1.85434339752715,1.88673069372513,1.85392004936077,1.78050887168868,1.85084415901945,1.85067208859605,1.85097514379395,1.85581268948054,1.88867931643503,1.89099224739549,1.88658443339643,1.84996209330477,1.84898087814823,1.88997245664133,1.8884012980249,1.77720752185651,1.85273821282999,1.96297304351568,1.85165931451448,1.88877329243196,1.78127653913263,1.85700018471291,1.85837607593052,1.8586751660662,1.85936388451645,1.86026042663732,1.79339875176501,1.86899069483127,1.87091863491297,1.87082082976606,1.80424988310657,1.96985370504185,1.96828130957717,1.95007602565413,1.95596008941759,1.96325798312929,1.86384641955506,1.93936375426959,1.95063629026458,1.94651843500557,1.86048025322085,1.93789792900427,1.93658503083453,1.94207113678277,1.94034606180294,1.86106180548708,1.9396206220739,1.93837619833687,1.93677060961192,1.86050696299292,1.93432800631402,1.93434521878055,1.93405894235741,1.93382484210476,1.95697469417092,1.96223872193493,1.94936474138379,1.94980838780176,1.86211282573457,1.86237436024029,1.95321470142216,1.93864100870531,1.93640843518118,1.93746586067158,1.94625029226135,1.86611430482545,1.95316593069082,1.86755924370875,1.94078781805035,1.9392666092641,1.93929440698762,1.9400939318916,1.9404867490266,1.86807597860247,1.95663126837172,1.8676459175487,1.94805633145906,1.86845395914484,1.8678223987156,1.95642162809081,1.9556353320249,1.95880700170424,1.95649820845642,1.95609566106519,1.95717150627958,1.94359005711635,1.94756377560198,1.94080635346098,1.95453397862315,1.86820994595975,1.9459677806894,1.86774105691156,1.94216299193574,1.96023915791785,1.9606446515896,1.94690309159898,1.94071425870448,1.94986652306625,1.96795191686676,1.94032571406923,1.94407715312795,1.94278835839005,1.94154982989405,1.86734872163406,1.94437357258975,1.94304405243878,1.94221688245602,1.94688619166634,1.94167798461169,1.94176885201404,1.9421260446591,1.95849878709036,1.95431735060498,1.89711340698265,1.98271783779036,1.98788089055278,1.98739255605026,1.98012831832829,1.9015009522226,1.80280878797133,1.80227226110075,1.80206142097082,1.80118400073827,1.80186349819168,1.89054328871054,1.80056172677914,1.80131036736914,1.80056905361992,1.79817964059872,1.80304072663939,1.80224495795856,1.80148553128557,1.80078132103309,1.80124729392037,1.80255917184311,1.80353833475403,1.97340339516744,1.80268798843402,1.98394857637867,1.80251856607858
1.78726392094328,1.78739221725244,1.78747706153613,1.75015030981973,1.75463534598034,1.75847476745403,1.76143841562346,1.76455157075287,1.76896749978679,1.77370079478561,1.77742585940472,1.78057674751589,1.78312573952673,1.78598866294844,1.78593069371835,1.87103962117822,1.87112284828612,1.87125812208208,1.87235737260551,1.87503155635077,1.87740722897807,1.88297280799894,1.88151282452716,1.87353429152824,1.86867058759616,1.86356328049982,1.86290609948067,1.86148195959394,1.86093722194132,1.85941858554846,1.85902641108193,1.85851692259141,1.85825228740787,1.85747441697758,1.85743636112075,1.85818022366479,1.86543541610363,1.87260821120728,1.85435113597651,1.85278812287688,1.85164570848589,1.851715734566,1.85232055381621,1.85398111319359,1.87054664316843,1.8763198232371,1.87135347663255,1.8625145091607,1.87154172006415,1.89004308408571,1.88969722603175,1.81814569435744,1.85237270766536,1.8525434872089,1.83405777983677,1.82207094822953,1.81157341611665,1.85673720633469,1.85695356917108,1.85767445384988,1.85793585722855,1.85822396241068,1.83272852263907,1.86999914962119,1.87174195068771,1.87178598315547,1.88302889017299,1.96875487594257,1.96781454060819,1.95918534380738,1.95826846179467,1.95135770709337,1.94740864597218,1.94514327453328,1.94712138508849,1.94500895847177,1.89854542460804,1.93815293307046,1.93886388532301,1.93893411408133,1.94002667418102,1.94024384558221,1.94034140007235,1.93948660486328,1.93680608941953,1.93565262054521,1.93503736147027,1.93539383504561,1.93556932580377,1.93596948993394,1.94360415545155,1.94254373029857,1.93936265843978,1.93643502183166,1.93575526835833,1.93589061730685,1.94801632107323,1.94768185925418,1.94692764341317,1.94550058573339,1.94530029845998,1.94324281686681,1.93948848107329,1.93724379024771,1.93758386329109,1.93741316577821,1.93872935116551,1.93829981093566,1.93822869088762,1.93932907130948,1.94944051333119,1.94921387750043,1.9473553079104,1.94577834641981,1.94402322628023,1.94627146665431,1.95268560273318,1.9555529468913,1.95407397282845,1.95360186422945,1.95104180488938,1.94383732070367,1.94294737165938,1.94296940176693,1.94314472746726,1.9445465105085,1.94557223608275,1.94564441673828,1.94739467734952,1.9514572858039,1.95379640340304,1.94494824499893,1.945372028694,1.94694711409729,1.94478975194898,1.94406392963983,1.94284241200177,1.94347603527287,1.94401416793437,1.94521808847876,1.94506364917826,1.94385955921251,1.94320748893457,1.94505407086137,1.94521080673886,1.94327898198741,1.94282016897896,1.94175360662187,1.9410001412006,1.86272847857955,1.84950552074,1.8423042035862,1.83371356567817,1.82446770524976,1.81509353543293,1.80221094662045,1.80202866738122,1.80201455480397,1.8019791178719,1.80275608487833,1.80398217655323,1.80407065772973,1.80268762607823,1.80183017428265,1.80318394800414,1.80351872195507,1.80480990942777,1.80518351864234,1.80441676590238,1.80310936004745,1.80278796384137,1.80245551099306,1.84281628818297,1.80362415404788,1.804084923712,1.80315104697642
1.787468432749,1.78772683027857,1.78758904630817,1.73821308630134,1.78486065133456,1.82397186177859,1.73764127669861,1.73781088835385,1.91414177335154,1.73546022656247,1.90879436229928,1.91528833589582,1.73761208613895,1.98788148879047,1.7395500751966,1.87138522162023,1.87112831246221,1.87170482265928,1.87269761699844,1.88554822368656,1.88393674762404,1.88429458267637,1.88480473710105,1.87050480131353,1.86373483344248,1.79239373109044,1.86396772713351,1.86155538103831,1.86096540530803,1.86390951069762,1.86032178949239,1.7860685361933,1.88742534989222,1.85690375993199,1.85602627095856,1.78510205406795,1.88827790058913,1.88885947884279,1.85530126975241,1.97040028298763,1.96975596157061,1.77907350219629,1.96250415614785,1.8532121422846,1.84835555595956,1.97128861744722,1.85164082809886,1.85086566192546,1.88811806884524,1.88949580108664,1.88991583568007,1.78007831611031,1.85206310963342,1.8530453595918,1.78165753491407,1.78193279225408,1.78245397900192,1.890512258677,1.78463316669875,1.89036587885827,1.86332553289321,1.89022169558759,1.79471910556703,1.86905730513192,1.88999627284994,1.86989486504361,1.89021943522991,1.98396801774193,1.97284007753386,1.95524190583502,1.95516310311929,1.93718719796824,1.94581344374447,1.94631940991317,1.95150006751855,1.93551328525317,1.86374221990609,1.93654204269652,1.86151244738562,1.93863609694257,1.93889419796646,1.9401653463576,1.94168374018331,1.93979101348404,1.935923573936,1.9356909373088,1.95617307116893,1.93637903679494,1.86110008159291,1.93631621149488,1.9446110857142,1.9384158707706,1.93860952869986,1.86312873801355,1.93830001810452,1.93879254329501,1.95003159062245,1.94962747778206,1.9493532007173,1.95089986032406,1.94559371881841,1.94603507073659,1.93680351613587,1.95092847171152,1.95205145518532,1.94631152106538,1.86756402488134,1.86788938480508,1.94985437247316,1.94350893662614,1.95293716948733,1.96216786062056,1.95411794853479,1.94788431051479,1.9446310848019,1.8697792853779,1.94698939995913,1.94452253202868,1.95155291074962,1.9657947893611,1.86930082569493,1.9457380982893,1.86802879946922,1.94458702193039,1.86833434580831,1.96652194364153,1.94826297043017,1.95739127171916,1.96993140037974,1.95191600893795,1.95381781033709,1.9411109991683,1.98688333282999,1.96055819287818,1.94219885962288,1.95667774175679,1.94227976973252,1.9438381878669,1.94437905059713,1.94478299208015,1.94481193230437,1.86801856098369,1.94746456864273,1.94789095617887,1.95351908548042,1.87001869627917,1.94284456617362,1.94192594414777,1.94091109780169,1.80618791978678,1.80504686916589,1.80617771690159,1.80127874094729,1.80088171530721,1.80044730097327,1.80138160944947,1.8013322410519,1.80139510734042,1.80146624232574,1.84916368727164,1.80309952282664,1.80463487806372,1.89939414900604,1.89923466350678,1.80210046032878,1.80216229421637,1.84833883091378,1.84866343786889,1.84885155934196,1.80193895735587,1.84935366277411,1.80147858613105,1.98183379865845,1.80362609628377,1.80439982871709,1.97088671398908
1.78954032583355,1.78892515364214,1.78788617930296,1.78650561173951,1.78410488897233,1.79189288404465,1.76741744003636,1.78274602115545,1.79967224455086,1.73355308523084,1.73541777390482,1.73618137339588,1.73598638323428,1.73493780209378,1.73525363936058,1.8720456412567,1.8716411005005,1.8724534739971,1.87499072146327,1.88043051139037,1.88576221431334,1.88540898939313,1.88417474510092,1.87147654142595,1.8657824847658,1.86718654223623,1.86640733564919,1.8604328466896,1.86105117493196,1.86194064966804,1.86094293041142,1.85946361975651,1.85826155657311,1.85669298783417,1.85689788166036,1.85688075488801,1.8898093504466,1.88996864557328,1.85502226000302,1.85282276381603,1.85155456818225,1.85097016478011,1.85176517269621,1.85431490426253,1.85497837416702,1.85577981223363,1.85336568516223,1.8528602580137,1.88851782878871,1.88920232286162,1.86954328898077,1.85254146656097,1.85225866901305,1.85167758304318,1.84938963444792,1.84924647991747,1.851667411883,1.8729560735044,1.86085813355074,1.86064908197873,1.86108605881024,1.87555372111569,1.86711116741456,1.86699158398572,1.86465476646913,1.86601553202421,1.90479873608278,1.96620416616353,1.96340143767995,1.95228264477837,1.95401227657929,1.95151000165529,1.949778631524,1.94955335059076,1.95170379398404,1.93356316451657,1.93235718953635,1.93518920011697,1.89688662119745,1.94321513551509,1.94458551191158,1.94521165770401,1.94358889490219,1.94044465705072,1.93564045547508,1.9357217438408,1.93561015640086,1.93553563688053,1.93570816108857,1.93607656659066,1.9423833776841,1.93940582261688,1.93597429333952,1.93291331297373,1.93481738974832,1.93716998701393,1.94945883325978,1.95035806072191,1.95148148272647,1.95106717260792,1.94911127952368,1.94839451157297,1.94760418311819,1.94851678297099,1.95127046888191,1.95113684407731,1.95149701453972,1.9506942769561,1.95178410943225,1.95168317427256,1.95254927582951,1.95167976141742,1.95181725814482,1.94758651799863,1.94379277976525,1.9408571780974,1.94163564949484,1.95291954556,1.95456035581937,1.95615380570915,1.95231646267099,1.94792778087651,1.90453550577048,1.94542457418527,1.94602753799573,1.95146707661136,1.94874413580667,1.95133515551198,1.95341349501213,1.95289028517955,1.94847978763261,1.94254826300931,1.94286866224883,1.94385375882998,1.94437441975224,1.94529874965612,1.94471872353437,1.94442087907773,1.94375452068065,1.94421942796082,1.94548066967418,1.94712326988608,1.9474086134883,1.94687807369726,1.94634490262287,1.90801857097867,1.94168992088676,1.94042033674588,1.93994191591999,1.80484672930946,1.80413290134075,1.80366717009436,1.80273827438071,1.80161781990168,1.80100762194662,1.80128748082031,1.80145553184886,1.80218185351441,1.80245369661049,1.80321133006062,1.80367293028851,1.8040996305687,1.83697326334725,1.85391469885798,1.81606759377301,1.8247645418455,1.83384873908854,1.84240329952946,1.83942859151247,1.83394887090333,1.82637641012387,1.81861855385963,1.81118024788335,1.80576988051515,1.80503020502055,1.804218065738
1.79060907165486,1.73922807723176,1.7890130741804,1.78832360229861,1.74036878708148,1.79770686283313,1.7380434339497,1.91146241696393,1.83816288104555,1.74011286736858,1.73992147811033,1.73911503721153,1.92094542475007,1.73907014156527,1.73914139532431,1.97303976822912,1.88497394797625,1.87253258369547,1.88725270085631,1.8710734950643,1.88938944867073,1.87147565072826,1.9618438861809,1.86902525820207,1.88779564607807,1.86718387007266,1.86622426829661,1.79088818816352,1.78984196337151,1.88720206618393,1.86272937662601,1.88925484136781,1.85944401424751,1.89084360179739,1.85804524375431,1.85702952001093,1.88990891973881,1.88996979995112,1.85959950767055,1.78207820900118,1.85268890255434,1.97417849469385,1.85313285298351,1.85451625416637,1.85763905956044,1.78052800994958,1.85294280107317,1.8534423348229,1.89442685629817,1.88942661161822,1.85329831775648,1.85250147492051,1.85278349812393,1.85278781243648,1.96872409061908,1.89350868436788,1.85592593528031,1.89456444145146,1.86145543904749,1.86152829098124,1.79165690808224,1.89376818415108,1.86523559449223,1.86791505576667,1.79934619252249,1.80374701573719,1.97956582716036,1.98463764097665,1.82452686949006,1.94218276771159,1.86587509626049,1.9648622730927,1.94133567979251,1.96004555809064,1.96543429427988,1.86355934753891,1.94182243431654,1.93420221937179,1.86433608891345,1.9385170245137,1.86342059436772,1.86271046398054,1.86292539319244,1.86349909161922,1.94325227104459,1.93632829451358,1.93644312397509,1.95147639905707,1.93675002931735,1.86224837732685,1.94979487346374,1.93932639094394,1.86543489705851,1.9473621513377,1.94762584079587,1.93926296436765,1.94713056705002,1.96409303281016,1.86642529859419,1.86732480473962,1.95926404638942,1.95105824285941,1.95483403492637,1.95553267733436,1.95030718047878,1.95042276332596,1.95183880765243,1.94793687279989,1.96603574332363,1.95201807716923,1.95333955071846,1.95116756565559,1.95145008137086,1.94953091631114,1.87057374870094,1.9565708413516,1.87154000421739,1.97385123750742,1.96003923456355,1.96145614950031,1.95421158194138,1.944511042755,1.87052945814778,1.94424882182889,1.94329933707689,1.95465563418541,1.87112216364978,1.87075213439135,1.95588156468894,1.95765809502589,1.94315713690673,1.94323820507726,1.94394944876367,1.94363503426985,1.94369542612628,1.9440443668951,1.94557821488874,1.9441195882749,1.94380283618862,1.95016316605429,1.94556296528006,1.94715946643637,1.94668905701549,1.94697540964961,1.94679357476021,1.87053557556695,1.9427937219271,1.94898964626159,1.95293961958713,1.80543112914351,1.80425679657795,1.80336032007645,1.80357638779765,1.80171465602417,1.80104713694809,1.85044899800959,1.8007509629783,1.90004644492673,1.8018828252893,1.80205586492587,1.89788382155673,1.8010586360366,1.80157335560925,1.99274260680799,1.80109571231188,1.89418056826386,1.80160170196932,1.85024894222432,1.80307683534098,1.84831203618018,1.80083025291764,1.85047323030679,1.80254163092319,1.7998132351218,1.99934530647745,1.80324721140306
1.79146944451944,1.79107166935984,1.78954745444386,1.78996773617422,1.79247774383359,1.79506025503497,1.7970529987531,1.80784723541298,1.77780640102383,1.74040521330006,1.73999406349655,1.73982789529128,1.73991110779084,1.73986776343235,1.73996046001181,1.87493590784244,1.87470944597443,1.87467729135006,1.89050426612167,1.89370953502377,1.89268025224349,1.90221203266215,1.91653057108318,1.86977474371538,1.8688061443192,1.86742068932056,1.86508103877628,1.86040956054004,1.8591236276328,1.86167726838465,1.86258938323087,1.86193324501554,1.86076866819966,1.86049674464268,1.86003363307229,1.86055782103729,1.86086021548934,1.86105814031567,1.8580194781025,1.85740671186281,1.85538897259408,1.85481158929001,1.85392040130235,1.85439855399961,1.85537171430034,1.85500374577037,1.85421408358806,1.85410600693706,1.86986121070085,1.87617726519194,1.86963981157374,1.85359114302894,1.85354858534998,1.87284280709328,1.89413092778882,1.89365409144106,1.87051096614959,1.88046641686667,1.86252180321044,1.86253138326343,1.8738698588134,1.87972346235356,1.8757049832418,1.86870541453605,1.87090130470409,1.88034004173014,1.8939406283405,1.89922939594705,1.90566140553948,1.91236307830574,1.91697168355336,1.91944718767715,1.94206512411402,1.95310744076242,1.95425794734118,1.95163196714302,1.94058728251938,1.93838407957599,1.90834205986747,1.89417351418551,1.86384371946335,1.86458414994313,1.89183096360704,1.90683207376206,1.93578493618851,1.93686754191738,1.93686641845365,1.93618033216594,1.93478770156144,1.93572998541057,1.94614986827813,1.94630328818052,1.94788723461811,1.94901372777755,1.9496494185485,1.94693449958608,1.9495664007652,1.9500685618303,1.95386153248834,1.95764954506795,1.95889207479108,1.95475187695896,1.95467156062325,1.95170104218006,1.95028856282981,1.95006610302981,1.95030705193335,1.94947799763355,1.94881619999044,1.95214790542349,1.953143013645,1.95283993379825,1.95077831628895,1.95007657837546,1.90851230551703,1.95408935916806,1.95141896305934,1.95111703701174,1.95561780945959,1.95575501403716,1.95513166655583,1.95529085313893,1.89348366375469,1.90600976025222,1.91415935085464,1.9517188549786,1.95043382172586,1.95124906937209,1.9542821976137,1.95479355467956,1.95246118458657,1.95120982387844,1.94807899391236,1.94372002343663,1.94451917341255,1.94523588303556,1.94541318784196,1.94524831851595,1.94566203723596,1.94790634652272,1.94774873316333,1.9474428290745,1.9462196808312,1.9459351168525,1.94625887649644,1.94566782297294,1.94481426406146,1.89920972583445,1.88273281874737,1.80422357603932,1.80349683729552,1.80302424308322,1.80259118132175,1.80205404968735,1.80158804575331,1.80160822817193,1.80105541718214,1.80111303695088,1.8014111187349,1.80117580020559,1.82502747063648,1.83481196006982,1.85102026132409,1.87083617933031,1.86463351151556,1.86133770584918,1.85773317314949,1.85525523142044,1.83836502223971,1.83144762726941,1.8182948284046,1.84357042600155,1.8368399143444,1.82985511723769,1.82396448128069,1.81902942195561
1.84437408394646,1.92679216315302,1.74226054772872,1.74139849503163,1.92735674182041,1.73705011870255,1.91332201765662,1.91165060962436,1.74150030375094,1.74186348762425,1.7880747143054,1.74103756553808,1.74129976040993,1.74103586396946,1.74127719472908,1.87616834598434,1.87434347519117,1.87465405660534,1.96871918664582,1.97043395811452,1.86956539691302,1.96251789871948,1.96768645068478,1.86911371227691,1.86907450456883,1.86794238922966,1.86718596740882,1.8906553978935,1.89171557755177,1.86311881113617,1.86432880965595,1.78963785499323,1.86120833168775,1.86094781595146,1.86043194092751,1.86020306480443,1.8609086600951,1.8606469029825,1.78183898075192,1.8913653219548,1.85477317855393,1.85594647096818,1.85462123994936,1.85462041000295,1.85478759516068,1.89432173821082,1.85440104002911,1.85474481944569,1.854268703092,1.96932694580629,1.89514514167711,1.85413195402991,1.78127440208609,1.89515713241546,1.89498569198951,1.97671431413213,1.85816314334674,1.98698199057464,1.78827900521214,1.86308235065449,1.96877193604016,1.96720259872742,1.89429131897264,1.79829788428218,1.87444528663378,1.89267883152778,1.88070082913941,1.89437584747116,1.99247467116923,1.86862291828732,1.94175011757894,1.86730087896896,1.94159508026123,1.86776976657563,1.96403725529505,1.96363524505994,1.94177141992927,1.94288061893689,1.9424268251738,1.86489756661258,1.86484062736356,1.86530825036187,1.9406570894401,1.9372829003186,1.93722293590947,1.93820572284575,1.93840103036821,1.93815007445676,1.96353769128602,1.93663083025444,1.95779741533629,1.95509375011026,1.95463735695048,1.94988086912342,1.94878137654788,1.94429629554992,1.94079757845696,1.95087202906732,1.95975863822371,1.95813525787755,1.966602712034,1.94656193706922,1.95386536105018,1.86963917894218,1.94487544316583,1.95018744257022,1.95800954516786,1.94957521916976,1.94343252707261,1.87171224555257,1.95750944302694,1.96416206839944,1.94863110078975,1.95513394660753,1.87108104759128,1.97375221750138,1.96644847109391,1.95085332145079,1.95592906490261,1.87181750791504,1.95947751078321,1.95850741719338,1.87114158058628,1.87062660483794,1.87098790625771,1.9543501115427,1.95282328222052,1.97654608817786,1.9473131867881,1.96053553961182,1.9682457398206,1.95560263757211,1.95369906201242,1.94322413621015,1.95708776825373,1.94464375191977,1.94518693509058,1.94594412009168,1.9462185241142,1.94790185358709,1.94782330853538,1.94819011474439,1.94558042915856,1.94430441628763,1.94569642439278,1.94504166487775,1.95434794106447,1.86890139413086,1.86846912412251,1.80445432609277,1.80342742116127,1.80236101688024,1.80214555649288,1.80161795505142,1.80154870906653,1.80165759791363,1.80070669860395,1.80074524473597,1.80171190659392,1.79968091902919,1.80020708933536,1.84992469027243,1.87655754724315,1.89941515008367,1.89846466556046,1.8008241344774,1.97307214819964,1.97177695230281,1.97149515558293,1.80091839939418,1.80483081693761,1.97312210105693,1.97271252653051,1.97359051532423,1.8008352661076,1.89588442377976
1.84203284485597,1.8400393510116,1.78401813049755,1.74193306666446,1.74089308013869,1.73949982280661,1.74103575516735,1.74171670655065,1.74123149387817,1.74147619511311,1.74134208553971,1.74153334314305,1.76670538254629,1.77585664141612,1.78349294645057,1.87688254831529,1.89157439162842,1.90744111108646,1.97359810183623,1.97369633919481,1.89548026337021,1.90636681880516,1.91810990848413,1.86957615732755,1.8693628147974,1.86884310783735,1.86838940256676,1.88623253019264,1.87915979802818,1.8740441079538,1.8700638971776,1.8277669094759,1.86200244221763,1.86158816777901,1.86084256294766,1.8603981148712,1.86013445099404,1.85950973458726,1.85705141111341,1.85535594267664,1.85509921967099,1.85496261556645,1.85544448180745,1.85523442504521,1.85545419382131,1.86599070168676,1.85453019604638,1.85467176058241,1.8545636298624,1.8559649058696,1.85334824032026,1.85179562901739,1.85224839593043,1.85432623491546,1.85805844193732,1.8587113803963,1.85810792265692,1.89293671585424,1.88995423691724,1.88480019552362,1.88197202983615,1.87979827391094,1.87629281466835,1.87431376691085,1.87730097195513,1.88523580776738,1.88752241383827,1.91606213086832,1.95897299223917,1.95788083872717,1.95517717696949,1.94893412528436,1.9389472935115,1.93924852277589,1.93753716547716,1.93887182038071,1.94118685214219,1.94266634065679,1.94212713431865,1.90562876435797,1.89075430275107,1.90548506841921,1.9389424147075,1.93835884906628,1.93877798994868,1.93944015682472,1.9396506243786,1.94006457808071,1.94461440826384,1.94947126905331,1.95629773048466,1.95681294432411,1.95386972716734,1.95250657255807,1.95106876047107,1.94904406431637,1.94972128942583,1.95254207153156,1.95628730191027,1.95593496601391,1.95236804911188,1.94522353159835,1.94565961628165,1.89385568574786,1.90513580636697,1.91612247355004,1.95247240972222,1.95220780836254,1.95094384457867,1.95315164065009,1.95507134732903,1.95904546220455,1.95458392769609,1.95528726054547,1.94389385258882,1.94378753288324,1.94362147075406,1.94363166576209,1.94386155197633,1.94406364906878,1.95983476960064,1.95562193645576,1.95142032505046,1.9414625986252,1.9429169232148,1.95299758328441,1.95315921979679,1.95421167856841,1.94605922717209,1.94554527577404,1.94260022894566,1.94033827298885,1.94104931305988,1.94326300641454,1.94542207937109,1.94632892763122,1.94632839623173,1.94668722332369,1.94710890026927,1.94755266748054,1.94751581962755,1.94713797100224,1.94570469192162,1.94469744055594,1.94428096851245,1.94356440237774,1.94989647330911,1.89649477289802,1.86188607767526,1.80386328080937,1.80337265876321,1.80275378264062,1.80198089145322,1.80188092063339,1.80185501138857,1.80168577442563,1.80098481677663,1.80036413390532,1.80042624948685,1.80009051613148,1.7998145509031,1.85996535501274,1.8724904779706,1.86924557636061,1.86633971375309,1.86468699740133,1.8955872598687,1.88159410012708,1.87036256355575,1.8515298800661,1.83499032399807,1.96842267897714,1.9697152928597,1.9055073964303,1.89159787467418,1.89398069382297
1.92501569161983,1.8393666242804,1.83257969997679,1.74220401865159,1.74134376767905,1.78972211560136,1.74151640652729,1.74225195672749,1.74161563382585,1.74220926785174,1.74158062177791,1.74223970046037,1.84120267489019,1.8406157682529,1.79137769738404,1.87712292045235,1.96400449775772,1.97038463031856,1.97003322266777,1.97171020654454,1.87264755347989,1.87234482094161,1.97124077179744,1.87052149512541,1.86944435041432,1.86940771709758,1.79442238664221,1.89438299838902,1.86626514729823,1.8910566257575,1.89190375181374,1.78868090866931,1.89410786618674,1.86234894320383,1.89309693976469,1.89490323683439,1.89442917187524,1.86049410332921,1.89725969828748,1.78481498016624,1.85645146137259,1.89476293573372,1.85733448429711,1.78125721124656,1.78047913884708,1.89733677127786,1.85465753692287,1.78111651164495,1.78094426735443,1.85505562386272,1.85497142948101,1.89756102232917,1.89762002195302,1.85653742225097,1.8593513352108,1.86012019392346,1.78639388661159,1.89538843936809,1.89669670861702,1.89751027319251,1.86793879496215,1.86895277736085,1.87090736108261,1.87058411623205,1.87818748315861,1.8786843590953,1.89517647770325,1.99657907242416,1.9875907433433,1.96680779257321,1.9579809010715,1.95815933308182,1.94239772675409,1.94215119747048,1.86909030503282,1.94037900960133,1.93988080751237,1.94721268571118,1.94077422588024,1.94140564586673,1.86459626390798,1.94470169835829,1.94373751767473,1.9420767535428,1.94049837411914,1.94032496478018,1.94030930310337,1.94038198160761,1.94114297883214,1.96459671276892,1.95545653464332,1.9489897774649,1.95012566266518,1.8669850960517,1.96128579542951,1.96108233252688,1.95849403327376,1.95326748807339,1.95874470656088,1.95464441105217,1.94698227725493,1.9465842917657,1.94640195464999,1.86923522420226,1.86957498240033,1.87066623299698,1.95388711660969,1.95472390542021,1.95666772319711,1.95577487366527,1.9505531714945,1.95980713227699,1.9548641759211,1.95349137204841,1.96789382806963,1.87359193669038,1.8720564180425,1.87159882473519,1.87169069886243,1.95167309129914,1.96310049453054,1.94358372815047,1.97067463288929,1.94495573955283,1.94562944536254,1.96108078873863,1.97048762025157,1.95406148778971,1.87170267692908,1.94857482922902,1.87084145709594,1.94487876936517,1.94362512758367,1.94351848309319,1.94662666641045,1.95655131364505,1.94785086912025,1.94749125617405,1.94915543168702,1.94733547181196,1.94766899608265,1.94635420989277,1.94641792929377,1.94408150754523,1.94424551605794,1.94270584133597,1.95549668229145,1.94343129921334,1.85409124035001,1.80459731451081,1.8045602874442,1.80389249752054,1.97594717204672,1.9827636154957,1.80199871489893,1.80133291435142,1.80061855524529,1.79935098297144,1.89699385826664,1.80157184989969,1.8006445132453,1.97625340081055,1.97605563879147,1.7998874742706,1.8531321530439,1.86128872931864,1.9630113200355,1.85594527863,1.8552251557292,1.97994868005717,1.80147624049042,1.98613284776677,1.97393504826241,1.80219288102642,1.89570161861915,1.89414395661138
1.87565049385637,1.84310105138633,1.84168652117499,1.78724179940411,1.78541031640657,1.78142423127436,1.77601124021454,1.76986715826673,1.76424806252056,1.7595001114785,1.75569330670393,1.75272090700877,1.76843733911162,1.77730248425548,1.78369325500403,1.83306644426555,1.89928056633147,1.96836588025657,1.96897958246932,1.9686746487879,1.87332920976092,1.87324305106507,1.87419872137144,1.87090640014138,1.87081516428983,1.87105955064486,1.87144849540071,1.8798712402964,1.8677967904728,1.86743485649549,1.86679140888033,1.86584001994184,1.86485859223302,1.86341206967101,1.87579220829445,1.88102134617283,1.87499538386127,1.85896646105841,1.85867905335366,1.8561626395089,1.85613936957446,1.85548555382028,1.85616503417246,1.82750609374027,1.81094271815806,1.8273370373872,1.85191801056129,1.852777957563,1.85439511329214,1.85543433025962,1.85524169785952,1.85747978853607,1.85632005880662,1.85636785375574,1.85858171303256,1.85965926753837,1.85989291094888,1.86268988409414,1.86399201787892,1.86537792809715,1.86696892336867,1.86772952448679,1.87339564866047,1.87356071527662,1.87688473854932,1.88622790262781,1.89363685947438,1.98118189390747,1.97866182712515,1.96508195351424,1.95531869199733,1.95356002271241,1.95108005555488,1.94388712491692,1.94365187075229,1.94088731916474,1.93989791440074,1.93824105881308,1.93898009422482,1.94009249717782,1.93992324781967,1.9449828991066,1.94462826951449,1.94356166036799,1.94163901904419,1.93945383870314,1.93965383024561,1.9416668249814,1.94326670052199,1.95214922819062,1.9521647882749,1.95080257921684,1.94685002346154,1.94241864021921,1.95757680650691,1.95790035246529,1.9563312040165,1.9554003140462,1.95775691724473,1.95007624295414,1.94687811914309,1.94752877512041,1.94584626476149,1.86935283309096,1.86918032107964,1.90638284651465,1.95671194692278,1.95669574689538,1.95693931406839,1.9564786916644,1.95661966286619,1.95458572264877,1.95427273077951,1.95358473715218,1.92157335875983,1.91507367031962,1.90742347743188,1.89867110546528,1.88753489091593,1.95495483956724,1.95732658582735,1.9555559416644,1.95241288069511,1.94924845498822,1.94749755884796,1.94816151066376,1.94956695597625,1.94508605248375,1.94446494209302,1.94530985384262,1.94560955515668,1.94660066587471,1.94633612642806,1.94639191368779,1.9462777416771,1.95035433837496,1.94776122128661,1.9478143719192,1.94775958096638,1.94775445315729,1.94744966858545,1.94751662467882,1.94676290117,1.94459602224265,1.94216881679539,1.93905525177625,1.95454187349344,1.89685275312686,1.86811978087353,1.83533450618905,1.80363848266552,1.80339996319163,1.83483532531435,1.85218073015992,1.80140028498632,1.80112235875907,1.80066291611022,1.83762570624318,1.86025026756287,1.84439881699123,1.83089843028066,1.89850823326013,1.90005428276808,1.83394703206476,1.85283959118247,1.85502423411489,1.8719506887074,1.85627995919799,1.85597865223392,1.87014170342083,1.83838412651646,1.97985278714102,1.97812866300207,1.83939960376772,1.85986059970049,1.84448935095938
1.93079205947452,1.84767017828076,1.84696655576131,1.79240752341869,1.79158528230882,1.74320312361941,1.83135923010442,1.79165373553335,1.79175369041882,1.84066999309395,1.92719406661117,1.74354981707497,1.7445267252131,1.74517495981173,1.74552614896684,1.80569552589345,1.87860878802432,1.97093036716326,1.87802578042601,1.97070776417003,1.87512530322581,1.97169476450732,1.87327288634431,1.7982404694885,1.87139048600011,1.87122193288381,1.87106215821454,1.99140292861419,1.8668846829343,1.86562964216331,1.86522912628784,1.86495417328702,1.86369524808095,1.86234844199223,1.86209685374351,1.97728846192947,1.86121951588988,1.78523602188453,1.85874512502858,1.85756653100673,1.85713220114592,1.78561878708289,1.85651519815406,1.85512036643882,1.78213968211012,1.78143438810566,1.89697322620446,1.85405038660489,1.85506824779361,1.78457724815775,1.85652920237072,1.85766455068394,1.78350400935464,1.97898219793164,1.85857288036117,1.85939922772165,1.86079385217923,1.86177660973452,1.86268216331079,1.86500625012011,1.86655487056299,1.79635535089755,1.87168346250585,1.87229926622128,1.8757737154276,1.89612996127708,1.89567792514558,1.98436587624172,1.9770306142978,1.87055708849336,1.95376849028808,1.94706990109585,1.95841847179414,1.94271859118609,1.94224137306988,1.96072932252413,1.94038369537972,1.94001411520448,1.8690868909108,1.86755886364431,1.94139776842907,1.94396466974845,1.94574599809158,1.94409972706832,1.9603417929225,1.95560661602833,1.94763511320691,1.94138377150005,1.94141493399811,1.95390381290602,1.86814296041612,1.95233682291115,1.86732958668396,1.94571660421144,1.86751139911951,1.95956193573766,1.94150794590746,1.94066174353887,1.96296297948095,1.87134395856224,1.87112510693919,1.9495464271671,1.94439879053001,1.87099067320066,1.87111502768679,1.96434015956354,1.96377654440803,1.9565911274907,1.95643234185708,1.95628609609353,1.95796147059444,1.95458619599164,1.95302544169498,1.95181606468765,1.87367392154778,1.95058212495172,1.96369931115238,1.95200015969634,1.87303666319938,1.95423196574055,1.95631082506011,1.96541676547115,1.94605920963116,1.96258114900113,1.94730408070468,1.94648112024662,1.94439755060012,1.87226725891854,1.9457139072206,1.87055706968572,1.96347183445656,1.9459593589064,1.94623741139047,1.94565108261202,1.96375935650422,1.96494223537553,1.94499677225078,1.94704934400654,1.94691779131231,1.94735596954303,1.94775311915976,1.94855878790733,1.94819750051516,1.94530018053155,1.86837585537721,1.8688627042756,1.95626433316125,1.87058985210682,1.88881093915934,1.85362281831986,1.80429787508654,1.80392930459866,1.80291369578898,1.9907522277772,1.80104071052483,1.98105869913203,1.80063126133642,1.90155793898469,1.90116497534083,1.90212443147807,1.80104649664848,1.89820276995091,1.90283621882935,1.79988034792997,1.85061521331862,1.85061241834025,1.89872302590722,1.80049327137885,1.79999422687635,1.90724243065345,1.8015581382387,1.9777443048687,1.98284041728358,1.80069805498704,1.89509857866844,1.80395199241346
1.83177340152254,1.82629388290616,1.81131010403596,1.79161306456784,1.79160029356161,1.77296415627926,1.78370693076014,1.79189936534998,1.79191183684451,1.80824348511751,1.78035878738437,1.74436343717796,1.74440051027188,1.77820145311013,1.79608773271857,1.83306594261821,1.88043347733371,1.88015283407778,1.87955446359749,1.97317875382157,1.97544813030893,1.97213019370024,1.87476310952281,1.873544528284,1.87259402937306,1.87207981796367,1.87043552425841,1.8683227347436,1.86743563423886,1.86595218509343,1.86582851746001,1.86534700799511,1.86431743895032,1.86332760365708,1.86283124596782,1.88206826021516,1.87301975722344,1.86753311639794,1.8579786710853,1.85710362099252,1.85631503916299,1.85616095956803,1.85546321323165,1.85493885388594,1.83264965592957,1.81609110081114,1.86497371576154,1.85508759631206,1.8313099767606,1.81717063492876,1.85855549886744,1.85881162463754,1.82227579151392,1.86940670047606,1.85914583799705,1.85965661199781,1.85992865470872,1.85960658975148,1.8644071694409,1.86507276631215,1.86452031579435,1.86501531580726,1.86723300437509,1.87441572987989,1.88447760157817,1.88764766904921,1.89442785513707,1.9786035058497,1.97829934487146,1.89721943024538,1.90870256453944,1.91937835108519,1.95305265156502,1.95298014401465,1.94981834593442,1.94582445258311,1.94341612213113,1.90202207040167,1.86785279457484,1.86756144772091,1.90184080817231,1.94632159438785,1.94645914541788,1.94626801574262,1.94641333712669,1.94499476066399,1.94378705291152,1.94232611340487,1.942532892095,1.94311801961593,1.94409120436901,1.94853038533666,1.94145079540993,1.94229871408176,1.93965012104593,1.95483731041546,1.95261768710136,1.94981536799751,1.91987976211587,1.90942739119506,1.89779759002993,1.95303389559732,1.95170960530929,1.95401939864096,1.952786602793,1.95373284244226,1.95731734318353,1.95623864810796,1.9561858197209,1.9573561485779,1.95816688419535,1.95492735110721,1.95288871590184,1.94996903684475,1.94819764519038,1.94765751517495,1.96218783038333,1.95317805370896,1.9513859686931,1.94927840990026,1.95329868973195,1.95624536275429,1.95919595578147,1.95977764629359,1.95029404018911,1.94543224349674,1.94541461024588,1.91831300387871,1.90867456114933,1.89730534349271,1.94960391400229,1.9471791332241,1.94395859149959,1.94426379172849,1.94665864596243,1.94671442877609,1.9458518110962,1.94672019832367,1.94863768275993,1.9487670527407,1.94825631345469,1.94976833299703,1.94683885003203,1.94601646847411,1.90590227519408,1.86898651160839,1.87034811462688,1.872337846298,1.86629829968514,1.86202596703166,1.80325410267064,1.80275820734338,1.80232944524138,1.80159168422987,1.80107091225457,1.80039595975568,1.80009340223305,1.83149725134546,1.84719773226618,1.86619746049947,1.85105643484432,1.84315402211153,1.83337970152255,1.82182605976168,1.8502900681567,1.85033192960496,1.83397869363629,1.79925272573122,1.79969908724554,1.80107359189045,1.80113203635724,1.80038636295084,1.79974732802071,1.79908853118203,1.8429498831925,1.80178279718464
1.81925253547169,1.82033235870608,1.79426800161909,1.74338255884858,1.85045740532017,1.74579451476777,1.74648988045732,1.8457006643605,1.74630884584157,1.84294656030181,1.74763113717584,1.74604313060667,1.74553742476444,1.93061981513532,1.88044779233504,1.88097010073439,1.97164267525558,1.87993233683017,1.8797947800961,1.97697966209388,1.97677959228323,1.9733202735596,1.87536446694247,1.87406639636433,1.87327776969574,1.87337712607034,1.79650367362466,1.79564244989129,1.86949848975877,1.97961376050871,1.86687246510145,1.86673452403928,1.79145595635612,1.89685073392684,1.79118802071978,1.89683369852097,1.89535017959867,1.89956730941241,1.7861450892292,1.89841049183236,1.86403780329392,1.85749057837844,1.97661862283257,1.86092876987011,1.89816986647098,1.78268296001756,1.98321175337207,1.85670414147472,1.78455896569972,1.78461194881073,1.85845059792442,1.85829248265554,1.78487263573962,1.90092549489428,1.78581016952309,1.99010152694021,1.78848155198709,1.78883242015444,1.86516095988696,1.90065681111893,1.79609698438682,1.90015166280666,1.79918781311441,1.87530440711395,1.89912151608588,1.88097819689846,1.8973283452576,1.99075013359016,1.99514347766211,1.87350970247499,1.87340796667562,1.87421346784048,1.95490320201209,1.95811507033617,1.96257867858515,1.87160698755589,1.94607481795913,1.86985933730475,1.86890646768848,1.86930914503972,1.86906805498539,1.94671862491785,1.94662832880986,1.94630961196579,1.94646865783559,1.94086578813929,1.93897480504808,1.96288205323589,1.94123872800305,1.94354204670819,1.95265067417303,1.96447941396416,1.94301812031784,1.95937071251715,1.94260523169815,1.96342626162433,1.96380201328336,1.9639899654788,1.8703083843807,1.94727010125831,1.87365812796448,1.95675250636402,1.87199932021914,1.95395966579986,1.94673028690153,1.87166440226332,1.95720880605495,1.94768144331802,1.9623837107208,1.95920518117654,1.874200959102,1.95768269417387,1.95293264419933,1.87552076429756,1.95267043893263,1.87429591388231,1.96634101142825,1.95094115093758,1.95382684752208,1.87244588782617,1.87293071194745,1.95828720624114,1.97485650275042,1.95918160765565,1.95079065345859,1.87615546699848,1.96228076123789,1.96117594972787,1.87285162957395,1.87204851222723,1.94985033271105,1.94796312035554,1.95385955548255,1.95260018619654,1.94814824335421,1.94576248741937,1.94520202719306,1.94573919275693,1.94923183323205,1.87043955145409,1.95228862841898,1.9509495331517,1.94436406809887,1.94419825385119,1.95933926304862,1.86954028496108,1.87028007316884,1.95975781585055,1.80405850051686,1.98615904539844,1.8039224273855,1.8013282744464,1.80199873923736,1.80127486548864,1.80146145382136,1.80094316482527,1.80017694528704,1.79925900151474,1.79956320722236,1.89894280504313,1.89839417492567,1.79893239443913,1.79953032659902,1.80059594461837,1.98413038984782,1.90224469889792,1.80074779712341,1.80045739923771,1.80002858445979,1.80232611365832,1.89467816302156,1.80062732684884,1.80106141847612,1.8003777599339,1.99043644648866,1.80215159053324
1.83319967546484,1.79979210742966,1.7838642004573,1.77382622634567,1.84805496032329,1.84645288028629,1.84468435498935,1.84277351882782,1.74642800935025,1.74781041039217,1.74809182634152,1.74758371999975,1.7475039269861,1.78124854493387,1.88190598803839,1.88191464339121,1.88805024736917,1.88429072063261,1.88915176389297,1.91561344959531,1.97981508586062,1.97846806382775,1.88806663364384,1.87491302468266,1.87446455575562,1.87447612139868,1.84895817962163,1.83206338091709,1.8707211637343,1.90613418392289,1.89244267049341,1.88401108029635,1.8802785692539,1.88582634982299,1.87476757288642,1.87991573989745,1.88273138329299,1.88440478921703,1.87811665170434,1.88422852718005,1.87246905332879,1.8585798281683,1.85961301962144,1.8602889466587,1.83514658809038,1.81762522408356,1.85731865995222,1.85622562803631,1.85511226248497,1.85555068020648,1.85738485952817,1.8582953164509,1.85871044998926,1.85847855540356,1.82487680397165,1.87460337958939,1.86259111129588,1.86245620886689,1.86457833003072,1.86588271039981,1.86747498616464,1.86828778884427,1.83858275660995,1.87660838073088,1.88248062912155,1.88258844937276,1.89099951682542,1.91660343244492,1.93089206937988,1.91182818532579,1.89832507945854,1.90778795536322,1.92071286158712,1.95418702863122,1.95330711457652,1.94625299106417,1.94572806452728,1.86953154363729,1.86924770307105,1.86897766621741,1.86896463022684,1.89151158156047,1.90203619537324,1.91561868556404,1.94714082996133,1.94562623360767,1.94314290600287,1.94534195695814,1.94629504754891,1.94523454460368,1.9498332093268,1.94771649886008,1.94292423080106,1.94381006863881,1.94283900273999,1.96400889975068,1.96379053809006,1.96435435381397,1.89634289219972,1.90801441508546,1.91783093341061,1.95614986833748,1.95478520004943,1.95401122518167,1.95648528009583,1.95692311834906,1.95543512246413,1.95243948203201,1.95171434873436,1.95210677948936,1.91079495658114,1.95199966811851,1.95058486860419,1.95183564612292,1.95552595165661,1.95816595367323,1.95526907621448,1.95147295727863,1.95372023061954,1.95866118638003,1.95995587701314,1.9590319265973,1.95869677314471,1.95869207215742,1.95214202284426,1.9033564457873,1.91475222750017,1.95489976633021,1.94480357656426,1.94634056039375,1.94878992688126,1.94905778791921,1.95160925377602,1.94903347898087,1.94742963039778,1.94631678298537,1.94570536821703,1.9454172685844,1.952222758087,1.95175792139733,1.95166483452855,1.95214818491675,1.95165589099985,1.94877937561862,1.94916790468429,1.89297994889408,1.90476857603939,1.9156444274397,1.90646392773612,1.90840677041352,1.8028922925656,1.80273942175036,1.80259298918713,1.81258158862822,1.81801756209895,1.82501096963085,1.83244223079909,1.83871677883431,1.84298659885265,1.84720260710232,1.84738940580109,1.79870084680488,1.79909224778835,1.79968891486271,1.91741321680457,1.91264606252115,1.80045481779882,1.8002256338137,1.8007580312433,1.80114949464631,1.80054391111094,1.80018857973523,1.80014048774847,1.80001908615427,1.83961237588737,1.80080345759159
1.85391626233483,1.74737884014723,1.74795071478606,1.74795383727915,1.85035970687933,1.84884238227535,1.8477579870984,1.84027897239777,1.74578490390735,1.74758374584792,1.92004592653423,1.74789106828586,1.74812164669986,1.74847900318225,1.91236703280695,1.88203312939662,1.89856693779553,1.88044507020805,1.90114043751671,1.88151016426506,1.97705505797042,1.97545025211515,1.90157256655631,1.87677509174555,1.87554357032039,1.8986898486372,1.87089282070028,1.79842361068732,1.87171006354364,2.00136754204614,1.98796446135465,1.90040544539208,1.86669240852914,1.98736475577286,1.86630866801423,1.79132198853701,1.86243558889571,1.97068576226001,1.86308261179594,1.90002488526191,1.9828385573038,1.78646087051772,1.86021656640752,1.86041004057637,1.78523761987987,1.78537901953064,1.85813436294681,1.89885698370376,1.89906660184338,1.90050287405615,1.78502550103223,1.85867628430754,1.86023028155424,1.86023423689751,1.78678626774093,1.90244549599027,1.86359944547508,1.90143820829619,1.86577856937114,1.86733013124805,1.86924388943535,1.8704207576483,1.80054669571945,1.87663875130783,1.88059244982162,1.88132431412946,1.88692914073241,1.89981815735692,1.98473034715276,1.97149718809274,1.87468292362395,1.97036758985586,1.87372176525179,1.97379063270127,1.94739955434763,1.94541200733132,1.94254832559335,1.87055481130193,1.87047666731048,1.86954772006666,1.86953643223153,1.87077052908656,1.87048412342777,1.87002710808595,1.9457057175093,1.95721126033419,1.94292150862936,1.94592938461544,1.94788162895862,1.95604251910231,1.95966796461929,1.94573373603424,1.94447983284898,1.94386907143765,1.86961660634266,1.96337188608117,1.96187818133965,1.96976016562622,1.87211762835678,1.87141485519365,1.96790055727967,1.96624090316508,1.96434558853684,1.976437002448,1.96066720466936,1.9582803803888,1.9730906518111,1.96457114246167,1.87529446168945,1.95053876909781,1.87401024486209,1.96486417332903,1.8735112470629,1.97180710471233,1.95650648675567,1.95820021956933,1.9571359230905,1.96218680241809,1.96257501241621,1.96066088849015,1.95833235128219,1.95765450917621,1.95578222687053,1.95681991647222,1.95533661652013,1.87452866902492,1.87440563263678,1.95746399015791,1.94816004859278,1.94749055971026,1.9697622100875,1.946223281418,1.96219035743121,1.94470346531078,1.94693923317666,1.94853729153902,1.94905834588126,1.86850658686162,1.95028996775012,1.95032951451443,1.95091980248205,1.95153108392557,1.95070836444364,1.94842429326288,1.94768887338381,1.86893098035886,1.95128384171704,1.95136514514863,1.90172587684536,1.91441327348227,1.80270325308573,1.98043670568491,1.80195110382099,1.97766165799774,1.85061231866178,1.96726958286581,1.88721424119867,1.84659131743709,1.84613750898263,1.84736490341188,1.84781729471869,1.79899882523422,1.84691822523006,1.79971217223086,1.9769790598322,1.97715768359137,1.80117585269025,1.80025314965023,1.80173135742357,1.8016694076474,1.80138727688333,1.80006900599696,1.80047684941407,1.80098223949322,1.89706087638054,1.80210547477217
1.85402940871143,1.79299431868719,1.7851126031319,1.77415192618309,1.79234837251986,1.84985950388996,1.84893532020261,1.84438385080959,1.78519753833429,1.74737958953343,1.74808024042425,1.74860221493424,1.74863240224604,1.77774722926682,1.88606369563266,1.88620368643792,1.89151068406215,1.88706053912179,1.88917043304085,1.88535603425171,1.90293686782836,1.90528657931504,1.90497662908053,1.87715550513934,1.8770128916667,1.8772591750728,1.87706994121033,1.87568526872816,1.87339123023037,1.87269562728163,1.87137209154745,1.86846602488719,1.86807643425281,1.86792042984203,1.86712835467713,1.86591898042015,1.86437852928511,1.86330019314714,1.8624874183587,1.85958784374549,1.85769411853439,1.85781001360208,1.85976712564221,1.86004105317999,1.8333926485255,1.81622086368349,1.83340105677745,1.85880978170053,1.85920236311867,1.85963751418421,1.85905949787295,1.85967077468682,1.86098228299537,1.86160431516991,1.86248766164566,1.86455692102366,1.86431179713571,1.88239030622608,1.86612511515875,1.86851720696387,1.8683557743331,1.87280812781802,1.87470804449861,1.8778182652324,1.88132722583014,1.88076928604077,1.89624249010222,1.90003680336174,1.9152031266935,1.96552521526211,1.96064234663065,1.96097292865115,1.95687068144826,1.95313303829103,1.94919680950363,1.9440491159791,1.94343861641421,1.87037397131484,1.87079594378746,1.87077328409585,1.87073796505355,1.87094289082579,1.89659427756635,1.91203276227915,1.94733295367331,1.95035126497007,1.94268021524172,1.94528244222824,1.95036112018175,1.95198273279306,1.95166695276382,1.94758730965057,1.94571239514167,1.95703843080805,1.95706011535545,1.95880769523707,1.96198787830813,1.96381741813367,1.90241882478989,1.91640184891904,1.94871114821319,1.94925399420742,1.95026226439682,1.95234810069313,1.95382114735307,1.9578853112571,1.96534286143888,1.9655792169551,1.89330392375148,1.90363996497088,1.91177445097132,1.9198454267532,1.92674065541566,1.9578420930671,1.9561672504326,1.95952102718334,1.95857334581986,1.96059977264767,1.96267882762775,1.96179114595634,1.95922730870473,1.95608357499227,1.95478974361734,1.95587137651196,1.95659997796581,1.87269600498859,1.87274236425543,1.9021768186916,1.91626257522223,1.94995967323072,1.95315366135575,1.95336229696401,1.95758963848963,1.95428011987871,1.95271386902102,1.94971420058056,1.94729153715037,1.94498535931243,1.94348758382753,1.94288678274988,1.93970693686751,1.9392655025808,1.93879518074974,1.9386990688392,1.93890221267661,1.93906071935789,1.94800148124572,1.94752836274936,1.91149313186274,1.91262806732636,1.81388712984063,1.81621143615279,1.8197634598859,1.82303781889582,1.82839259253266,1.83420698650494,1.83911105150641,1.84182385476445,1.84490180480352,1.84653398044805,1.84685814070028,1.84671056258615,1.84642847088113,1.84613547533999,1.84588267505194,1.82557866559047,1.8000970531753,1.80032432864996,1.80076383285064,1.80126722637562,1.80124875274863,1.80072447615378,1.80160105603041,1.80212955883216,1.80264350998711,1.80274332443285
1.86018382907413,1.79773107832138,1.92545248495922,1.74770337624286,1.74804540355127,1.85102524658555,1.85010849190409,1.84319833065913,1.9208305951906,1.74651498364549,1.74849631543416,1.74994061682977,1.74944587293065,1.79791095239686,1.88607024239858,1.88569178780277,1.9012796264446,1.88182106343713,1.97848460317394,1.87915137063704,1.90091470058004,1.87799933223002,1.97625499589425,1.80402979311031,1.87725422970456,1.87699293460064,1.87812378925256,1.87499823181587,1.87131459235859,1.87209486542743,1.87075216034518,1.86760874200766,1.86764268042105,1.86707290793532,1.86576559928717,1.865295533153,1.86526163189658,1.7922980397912,1.8621693881167,1.86132335394449,1.78923591820535,1.98936470393361,1.86143699604703,1.90225608369103,1.85910206991518,1.78657406710604,1.7871909159397,1.85995612276682,1.8602077827837,1.86183154774988,1.86399296498393,1.78739864525229,1.86155782924364,1.86227144373965,1.86283029540858,1.86426904105744,1.86456131790283,1.90346770068476,1.86426117385969,1.86942766178032,1.79865203016218,1.99247177888747,1.9992620761322,1.87829230355991,1.88003776319338,1.81043154106948,1.99093404124636,1.90151674277544,1.8318472538937,1.97242529800992,1.96062895080515,1.96146559298303,1.9623081504031,1.94746256498794,1.95448311049346,1.94736919619248,1.95413149104505,1.87083575179334,1.87219465119398,1.87282597670013,1.8717774375107,1.8714499594789,1.94441428606895,1.94847179633507,1.94748565550863,1.95596109021144,1.87064050331933,1.95810510368721,1.97289111354534,1.87063424436408,1.8709390212168,1.87146066848899,1.87262848937776,1.96533089971917,1.96942376549561,1.95814921514341,1.95297567188699,1.96363344827883,1.87204949938589,1.96278186563795,1.94845679505011,1.94942482732077,1.87359736664887,1.9532405947145,1.95321995277038,1.95549120878514,1.9642255566908,1.96530459972119,1.87537439676269,1.87496300000525,1.95192912282282,1.87752144977229,1.97086551209305,1.95740226600987,1.87589395849183,1.9613965479633,1.96496374237445,1.95983172810261,1.96364691946277,1.96099289557371,1.96265389935961,1.96283150915694,1.98439885531333,1.96648101041372,1.96224091957177,1.87344778642726,1.87366998122792,1.87348459842957,1.87428135661354,1.95227047385917,1.95198948531322,1.95408124386988,1.968493263247,1.96273802760776,1.96147082259867,1.95695391456046,1.94603668960528,1.94753371414122,1.94374788471208,1.94310029582694,1.86824680554417,1.86914415824335,1.87009952348283,1.87066043816568,1.87051518475357,1.95785867694914,1.947654584448,1.9471542534902,1.91186740109686,1.9115068464609,1.80317873961722,1.80431700791136,2.0030964054201,1.80207083999833,1.80106031145284,1.8009864354422,1.80066913562499,1.79926986750907,1.79708292383784,1.88916634416705,1.79434807808354,1.84685504790641,1.88435307179931,1.84723681207018,1.84732567047378,1.7987866534234,1.79936750652391,1.79963719497021,1.80029388065237,1.80104573207588,1.84908986386176,1.7995471906792,2.00088593640033,1.80174078703674,1.80107852988343,1.99712526832772
1.84134996886406,1.84170766231659,1.8529117559932,1.7449601193223,1.74424424627911,1.74603584726319,1.74647213618777,1.74613665484784,1.74427152296705,1.75002340340826,1.74892264331741,1.74929730367807,1.74957115336406,1.77988590704721,1.82842885078044,1.88502898642972,1.88374794294292,1.88078579880389,1.87890299016776,1.88094069579998,1.88292144046281,1.8838359510891,1.89386682751103,1.8445649590073,1.8786900200459,1.87827926177835,1.87753839425344,1.8757507815285,1.87330483017915,1.8726286463762,1.87204865853733,1.87120164615346,1.86863558554611,1.86768130155232,1.86678570815893,1.86562190765808,1.86531869381625,1.86501019658888,1.86314083259306,1.86272073566,1.86256817581937,1.88669214984822,1.87592337586473,1.88489163305736,1.87145156168501,1.85703603281413,1.8568147518312,1.85910005721191,1.86060144915501,1.86185409660987,1.86250581055773,1.86152725770708,1.86149555010527,1.86185848480004,1.87017611289182,1.87660850437048,1.88396624424911,1.89242593157482,1.88004830501236,1.87081000946102,1.8366284245368,1.87388445312342,1.87303977949834,1.87466508727516,1.88030842024029,1.88204869640907,1.90445075465935,1.90359924304912,1.896006238275,1.95630832803649,1.95829387941071,1.9591789212077,1.95503027492216,1.95556787472413,1.95575407878872,1.94543758580155,1.94569985983156,1.90736375060196,1.87436775206613,1.87587198052817,1.87606957637843,1.87517252693021,1.90688162295284,1.94672084869945,1.94652942697366,1.94682615945252,1.9465826028657,1.94879912029405,1.95109602878567,1.95254690635984,1.95691370542525,1.9613817822099,1.96344575946315,1.96374554844063,1.96445033226883,1.95916504694169,1.94958846314038,1.94515769008622,1.90977521154161,1.94914095215585,1.94985856834431,1.95314570190429,1.95508944070876,1.9568245442716,1.95703938936093,1.95941602334562,1.96466877739138,1.96567503236352,1.91855412747296,1.90493955439487,1.95120158180995,1.95320652240275,1.95330580886361,1.95376926160254,1.95267949361076,1.96267486731097,1.9644495604453,1.9601959362344,1.95838742690844,1.95763784489114,1.95923932998656,1.96399032742281,1.96598033805039,1.96652241230274,1.96439208230814,1.96351031394783,1.96332629575946,1.96164534414772,1.95680665305892,1.95271414680187,1.95088380532606,1.95105661775124,1.9663325491228,1.96528148786014,1.95850868768526,1.95312897607851,1.94772387547725,1.94821155717536,1.94723649190355,1.90046070604648,1.86818239480937,1.86866044807671,1.86937105216507,1.86955879224101,1.90272336755166,1.94816149022021,1.94779469128983,1.94813086832382,1.92483658124104,1.83845122351528,1.80308842017543,1.80298723873868,1.80232807838859,1.80209943005455,1.80149209324865,1.80108840908075,1.8003792659977,1.79962651805563,1.79831909500075,1.79760152996575,1.7982575655613,1.8461409148174,1.84576189418211,1.82955034255678,1.8191481567566,1.79942974020376,1.79935466980243,1.79989576241331,1.80033765955717,1.80083417819479,1.80050913281226,1.80152878964674,1.80224512627478,1.80151267062763,1.8009497544811,1.80158284926911
1.75525569227728,1.8465833550882,1.92788304396798,1.7511239461123,2.01580421000133,1.74832231550131,1.75091182806199,1.74950773788137,1.74990359494466,1.74998956311542,1.74952838233516,1.84798080883754,1.75023097773897,1.7517113506833,1.8009396045753,1.90322032065842,1.88371120365231,1.97997738744703,1.80979997848743,1.88239539998573,1.88292936222279,1.88249576077625,1.904281798337,1.80655611952755,1.87811186289755,1.87773110970967,1.90426254125799,1.90401164002877,1.8723668252534,1.97655163892288,1.90659842611603,1.87163549781571,1.90439497097762,1.86825543506864,1.86790498688756,2.00089550553028,1.90134976770129,1.9038031750735,1.8621103435402,1.90745035854995,1.86265395067139,1.90599374583144,1.86427751341272,1.97802528493606,1.90606542721148,1.86079632471766,1.90402383544627,1.78832047173032,1.78902220780747,1.86178662323739,1.99319235591591,1.8616561263321,1.98473324503504,1.79119758984787,1.97969988267832,1.90404009397491,1.90392044291675,1.90367227184776,1.97612102807487,1.86893171828539,1.7976184760679,1.8751730063906,1.80453783867084,1.80528320544613,1.9037456094961,1.88535641836644,1.90437701964971,1.99703914615812,1.87868316507005,1.95355821037425,1.94810144150574,1.97654599246317,1.87575042099618,1.95852784031798,1.95240244289057,1.94606113093225,1.94821260407517,1.95069262323523,1.87241645968763,1.95127069660962,1.9472264648439,1.87367297418571,1.87186281265329,1.95369612554571,1.94634520734864,1.94795728309899,1.94637861007472,1.94617311955905,1.9473998897981,1.95481267147226,1.9574255141105,1.9669073522028,1.96157281601101,1.962913125212,1.96409510857455,1.97761883510184,1.87167397050047,1.94711604837682,1.87415330505393,1.95144214635151,1.95763257511714,1.95909671534503,1.96088263831989,1.87412914910892,1.87450695058854,1.87471095832571,1.960729546986,1.96716754279349,1.95912451534156,1.87448004677773,1.95744389391674,1.95683846023723,1.95671033062205,1.8776738188395,1.95540413636786,1.9651277249583,1.96828755493449,1.9607714573087,1.87592595050238,1.87564999095086,1.87575624376273,1.97183384266358,1.96088232807074,1.97375863930985,1.96131504796649,1.96485298048906,1.96562289367383,1.96901605666127,1.950782687569,1.94986143651807,1.87237243711843,1.87320373937305,1.96697380808561,1.96772635828841,1.95864525307225,1.94463437627863,1.94409517539551,1.87085102594807,1.9470579915966,1.87000823761806,1.86901404919492,1.86935076803212,1.87067118865304,1.87015474406587,1.9636350388586,1.95244459480209,1.94539791432673,1.94766165410981,1.9467278008283,1.80418137676309,1.80373592197121,1.80242230869306,1.80181115057955,1.80218052154087,1.97625818537553,1.97669198593353,1.79929787361429,1.98920202872437,1.79874387910071,1.79818723788036,1.79815393431755,1.84657095295922,1.84657436658905,1.8002812440615,1.80034265688473,1.79981472624199,1.79999832874424,1.79872370212714,1.80112397188117,1.80122196941748,1.80019477806294,1.80267444827686,1.80241634047775,1.80193208231148,1.80077238264318,1.80226319149235
1.75628258468453,1.78896562155815,1.78096155682314,1.77343900974495,1.81105542070279,1.7942860296657,1.77866715871595,1.75081709822338,1.75098699054724,1.75123383910409,1.75197806389321,1.790959877054,1.75281846135446,1.7529837455343,1.82842649940514,1.89489792738686,1.88665715818718,1.88510318561355,1.88410570801857,1.88339184405943,1.88373692908268,1.88348654993647,1.89451288126938,1.8821951482644,1.88005380803943,1.8912183720926,1.90491027968245,1.90478935108025,1.90526926794593,1.90533198868194,1.88498100322881,1.87169739478904,1.87142084640844,1.86954767379259,1.86898660862849,1.86873330250084,1.86826139911107,1.86720783263511,1.86605919297754,1.88483630355417,1.86072760730159,1.86058982621776,1.86272688540716,1.8603105878091,1.85912659737105,1.85891809130512,1.87938220633133,1.87423174364931,1.86641580305364,1.86462705520601,1.8637501954645,1.86244600647813,1.85878340294853,1.86135865803305,1.86436188291563,1.86646203384753,1.86812930851449,1.86835330464356,1.86836727280948,1.86824755318228,1.86803659417407,1.86804681219142,1.84747716453824,1.83622652062006,1.89941318509437,1.89258836342565,1.89562623645295,1.97292819588533,1.96853231432382,1.95341078781569,1.95105173476497,1.94933202476884,1.94720718334933,1.94654592841957,1.94997434255701,1.94978054981838,1.9505479680697,1.95203515856146,1.95260960603992,1.95190616441574,1.95055129530332,1.8725627139094,1.87192471713664,1.90786865894273,1.9486454518116,1.94820730709866,1.94696433706801,1.94800435237068,1.95084993850492,1.95286497483856,1.95639472507328,1.95803353797229,1.95849495493031,1.95689013643458,1.95475413264188,1.95435209276714,1.94454472528974,1.94269045089673,1.94362942038898,1.94635715742166,1.96170608842072,1.96137886384113,1.95842949771483,1.95393807767581,1.9513873821572,1.9531624165418,1.9570748332652,1.95748660373704,1.95650924573147,1.95439607672587,1.95523513292552,1.95606411667948,1.95608502953403,1.95636957222371,1.95618318088046,1.95934577379365,1.96302098503621,1.96235557819648,1.91181748501484,1.87547362155591,1.87491573726155,1.96309522210526,1.96291949735379,1.96256573350963,1.96201753345376,1.96291383212548,1.96229699719015,1.96689975787639,1.95876393507833,1.90727906712217,1.87172008290077,1.87182727939435,1.90098344265856,1.91498394545432,1.95400153628792,1.95293468244955,1.95133686552183,1.94694518617118,1.94688283248933,1.87005704823303,1.86965579749571,1.86970658097256,1.89441878748686,1.90981522652966,1.94873938621535,1.95042819076111,1.95052386023888,1.94883426734394,1.85283946124863,1.83486381045608,1.80284121806867,1.80244055096975,1.80257928205626,1.80278592743874,1.80264957365755,1.80222385500875,1.80113997036379,1.80085902846901,1.80017267303,1.7993247737383,1.7984440746014,1.79761585653838,1.79755414135691,1.79880403935637,1.79970856206352,1.79870381118407,1.79888119900038,1.79949449485256,1.80040857491923,1.80107945915901,1.800820280708,1.80218097954954,1.80165383977891,1.80140365719129,1.80156129778943,1.80229134285591
1.75435624216206,1.80234940630362,1.75438244505251,1.75410459298099,1.9413276715558,1.85491131519097,1.85593029865048,1.75128538654601,1.75142323820529,1.75323054911548,1.75384537274677,1.93064852252519,1.75540752705866,1.75569674219014,1.92022773954598,1.98327873728176,1.88804989399233,1.88429359071116,1.88450536228006,1.88404463103551,1.88308880897348,1.88249614092315,1.90717973148732,1.88379459973537,1.87895655806974,1.90548416319646,1.90739897369532,1.80248916318611,1.99301054244675,1.90509531735212,1.80138871324717,1.87109740222914,1.79912082944377,1.86951254718261,1.86918832023764,1.79605870786677,1.86835193086834,1.86716001746197,1.865527396029,1.90702931958326,1.79105405310889,1.79059473490322,1.8652106653139,1.79090732624379,1.78974627216795,1.86172327593759,1.98267907157583,1.98177319394002,1.86434936211114,1.86470467782737,1.86306082593624,1.86237691096804,1.86266823549683,1.99021635649968,1.86447669241314,1.86584309866718,1.86855917471001,1.87002261646607,1.87077627565975,1.79791511908062,1.87047676819544,1.87027653692455,1.99236941073972,1.80592660281116,1.90275573348138,1.88486569887125,1.88456824890349,1.9942327356588,1.97667700197212,1.95405096916655,1.95305785507613,1.95120548440961,1.96787237669152,1.87834365743146,1.95060739481585,1.94833661234261,1.94448775295812,1.94974263114038,1.95137257840975,1.95086366329248,1.95117672146213,1.87321703415939,1.87329645395328,1.87356266917418,1.95784700339513,1.94789697497251,1.95827969363741,1.95818569891341,1.95549624238884,1.95080972679791,1.9625440496881,1.96089933759099,1.95937609386161,1.87465953847773,1.94773106989289,1.9477689985596,1.94719841313825,1.96411790087228,1.96405527873586,1.87699464267757,1.9611997510402,1.9628292874552,1.96018435130754,1.95839932059358,1.95748577249766,1.95757204776509,1.96928452497386,1.95700524534358,1.87711880726198,1.96316540472688,1.95241464638885,1.95481575901313,1.87674561237434,1.9577747331905,1.95722846592329,1.8777982146265,1.96398840312075,1.96305373976085,1.97371642979231,1.87742335763166,1.8760812759496,1.9765528229255,1.96393931684803,1.8760088755365,1.96557509016291,1.9500731533445,1.96390483309905,1.97233496818708,1.95996961006423,1.87328653856577,1.87323862029144,1.87282000101948,1.87356847862509,1.87187650222201,1.95846117407923,1.96364603164409,1.9522668288483,1.94577340504996,1.94586280877448,1.87142503285537,1.87094639664472,1.87119758151412,1.94961576648389,1.95517142255307,1.94879520364756,1.94863517228908,1.94940473412847,1.95168276676293,1.80467287497262,1.89536714037837,1.8019157926636,1.80290036409922,1.99347942981458,1.8027896834593,1.8016299249368,1.80144616654046,1.80078390190858,1.79956705344803,1.90296502956323,1.80025736166679,1.79867181796534,1.79809129253965,1.79787571735782,1.79622060129219,1.79537551222363,1.79781596962408,1.79896632872614,1.79962024340262,1.8970034616008,1.80210377399909,1.80086357569762,1.91278295689782,1.79972039567247,1.80104278203342,1.80295393014513,1.80215250784248
1.7790028247603,1.78658961049333,1.79277603239452,1.79749374236389,1.80268358108436,1.80262586714434,1.78539290178967,1.75263966800734,1.7536594956848,1.75365143044113,1.75736792760894,1.75921932678762,1.75918625293185,1.75844351476902,1.79535887372894,1.89877196279255,1.88751234108781,1.88641368899553,1.88549246626197,1.88431452905438,1.88411982176475,1.88411624942949,1.88472880572355,1.88463835579384,1.89232610769448,1.89792963618358,1.89112604251626,1.87898622218846,1.87780302949331,1.87568843864565,1.87301612362017,1.87184105452405,1.86932093944758,1.86924530668614,1.87061026821597,1.86884409005505,1.86874420578763,1.86779020654651,1.86656386547229,1.86604635085291,1.86643270913357,1.86692488037818,1.86674244194914,1.82486033872313,1.8411022638858,1.86243782278572,1.86245177298531,1.86304899433585,1.86404104834346,1.86424075131089,1.8639676385694,1.86436438200709,1.86595693504327,1.86651300612713,1.86562988237737,1.86625112853734,1.86894613922674,1.87076614357292,1.87219240982723,1.87406002838442,1.87443418428804,1.8748794602032,1.87808181853523,1.84553202899454,1.89910053175914,1.89455816184127,1.90044414121838,1.90569080737195,1.90882861305344,1.9542314896634,1.95332857654074,1.9575705151052,1.96279596267067,1.96033146659093,1.9461661603129,1.94474114349095,1.91837831632372,1.91258970225089,1.9064274328263,1.89827684840491,1.89024587679127,1.88387219815744,1.89240098321948,1.89955979540932,1.90784433673387,1.91669479757401,1.92232878215068,1.95871018878908,1.95588625893396,1.95953742173384,1.96151920799949,1.96062517340144,1.96048157926534,1.95998264805918,1.95738766951571,1.95714549243369,1.95904426930563,1.9628814997553,1.96533837746204,1.91477245956143,1.96464656426368,1.96225989072918,1.95695943098721,1.95241583016216,1.95354711031337,1.95724027686359,1.95888237073453,1.95642289295562,1.95186921779849,1.94871518375205,1.95180433961576,1.95348226498942,1.95442446789796,1.9604561783291,1.95943491539071,1.96002030850655,1.96027172175128,1.95917473366694,1.95504038986466,1.95068003599577,1.95204866280821,1.95096336185759,1.95461695856481,1.91419775598255,1.96211419055178,1.96139356975254,1.95926201053655,1.95680652857145,1.95710694267916,1.94921217910599,1.95000315108249,1.95047011097837,1.94992984598904,1.94909204406529,1.945243317512,1.94433054952792,1.94667015011379,1.94946057299594,1.90094379224082,1.8706309091351,1.87060980545561,1.87085788662089,1.9020954319045,1.94639037694338,1.94636489535074,1.946309567402,1.94716509007989,1.89586798897473,1.80391933669822,1.8034320414062,1.80546752760247,1.80530368073983,1.83552319068309,1.82523899304229,1.80102117698618,1.80108668975752,1.80091371079803,1.80075503836909,1.80075393629651,1.79982404472303,1.79864834304865,1.79923661779669,1.79927794914216,1.79918219302504,1.79855407593571,1.79844749306452,1.79800131810833,1.79819068880118,1.85070214243609,1.83381299763669,1.80012961010007,1.79952687588744,1.79982332049967,1.80049331195493,1.80154318061917,1.80135433281432
1.80439062383728,1.75464924561151,1.80378112253605,1.80304983241457,1.80320078100507,1.80309721188976,1.75276830008421,1.75243477397702,1.80276802215118,1.76009859474749,1.92858159045475,1.75476000340087,1.85437298764798,1.75599921570196,1.75641910222883,1.9099095712044,1.88650279884622,1.88584512311824,1.88553788278958,1.90935681679461,1.88514442205742,1.88497425599773,1.88398237626962,1.88228397936788,1.91018003334687,1.90712573330301,1.87774289902262,1.87826883419071,1.8776254839598,1.87634662789091,1.91019392643811,1.8749412977792,1.90793560505322,1.90769169084259,1.87150359500224,1.86879343578303,1.79694863695228,1.86834377229925,1.86784162120694,1.86684836167201,1.86731110135241,1.86687601394841,1.86684987515055,1.79104567938653,1.86384789697345,1.8640930712554,1.86180216429055,1.86287852385972,1.86441650315956,1.90742094940533,1.86407380180731,1.86458206401902,1.90742102153063,1.86779042552628,1.86648034976998,1.90899713393082,1.86976866236301,1.87077157734962,1.79566637353352,1.87354058051848,1.87467881622457,1.980417567425,1.88082816429711,1.80765661695627,1.90755746868556,1.88480432506295,1.90656126666227,1.81792641045825,1.83625638166666,1.96668357020612,1.95449235602511,1.97123028138464,1.98111719351891,1.97014503535914,1.87776950830868,1.96705728185022,1.87633755240392,1.87540748408025,1.87485879925425,1.87502716238618,1.87411261665937,1.87406522712074,1.95304097418657,1.9508915861537,1.87416421832497,1.87423121125412,1.87533526515755,1.98422390258479,1.9507644579471,1.96368783205179,1.96740163860333,1.94942751561003,1.96964519125994,1.96909712506639,1.96530521667439,1.95921938942931,1.95963775597904,1.95394776876919,1.97448579326143,1.87692762955439,1.963602512925,1.96345565169802,1.87601967439677,1.87599467251235,1.8771603152347,1.9590887270719,1.95841004230245,1.97037781595325,1.98801192266134,1.94992077120109,1.95201667413426,1.87542507138826,1.95791315556139,1.96050735963166,1.95998790049868,1.96642203192657,1.9703414476668,1.95999907546282,1.95985100938201,1.97312549978606,1.95596897539493,1.95381526144011,1.95762122802289,1.87660231714674,1.96300061879753,1.9644544046537,1.96114179556103,1.87453514086112,1.9735523613217,1.97341306351454,1.95346027197727,1.95563392186446,1.95797966246018,1.94825088247741,1.94643358640203,1.872228980626,1.96307532408592,1.9511387546421,1.87111043365965,1.87066219960685,1.87076812824374,1.87157513634697,1.87124034647652,1.9478025825467,1.95648673126677,1.95665125980403,1.95610445844752,1.87184873972154,1.8061965564224,1.80545255182204,1.80582262609257,1.8051505344364,1.85013525186275,1.84952762943845,1.79974472004504,1.80029519218266,1.80021821232208,1.90340520954119,1.80141498216786,1.79960150218554,1.79873591009606,1.98015351425565,1.99035601052219,1.90318571420736,1.90303169450764,1.90179369219144,1.79956182309803,1.79872537946527,1.90207988481362,1.90022347360221,1.80121469982623,1.80029055862922,1.80068727007973,1.85014850024583,1.80214737005075,1.80132224638035
1.79925673314218,1.77524504906873,1.786732653929,1.80733197775403,1.80552211299819,1.80413677270241,1.80501383988959,1.80536190618193,1.80552732716748,1.80763359124485,1.81693281810869,1.7774711797163,1.78754913232186,1.7549371785807,1.75467879060447,1.903508407635,1.88797643081047,1.88565477417855,1.88516753723543,1.88658618776166,1.88732544046389,1.88483504740372,1.88487916241703,1.89656945710303,1.90855970807169,1.90771574823124,1.89699223881916,1.87792726734976,1.87741814527899,1.87694099769778,1.87678300557158,1.87638899553906,1.87592574391752,1.87455713499335,1.87278568760597,1.87107501791224,1.86981080276743,1.86849451806799,1.8676052727049,1.86664521727963,1.86640594287791,1.86629722250963,1.86616704972769,1.86546793658438,1.8652048122504,1.86530682817067,1.86568434192257,1.8647631797415,1.86512047114497,1.86557978454677,1.86568527280552,1.86677564448493,1.86849435814007,1.86791534647883,1.8843192659723,1.89231693749222,1.88485197567033,1.87053086318901,1.87055731349103,1.8712094828529,1.87507900219616,1.87856711351355,1.8779934907467,1.87761484976793,1.88345642958237,1.88213523143267,1.89206999001736,1.85507852697823,1.87236889131515,1.96505649195353,1.96150122494621,1.95681314928482,1.95543284938432,1.9596021717194,1.96569315953324,1.96766460045267,1.91020278977556,1.87506136970301,1.87434224459715,1.87449139384187,1.87419629356243,1.8740668794955,1.95356991388801,1.95201810143636,1.94770473998503,1.94516050253587,1.94716368650082,1.94993423075733,1.95054799308946,1.95176798491775,1.95106367340764,1.94982062250785,1.95479340651924,1.95381091039758,1.95343820337468,1.95629077425804,1.95943070899593,1.96132530172253,1.96376065124483,1.96470245067649,1.96308021899892,1.9602587419129,1.95832198756841,1.9461417021203,1.94765408585689,1.959270865565,1.95714914256677,1.95244554997833,1.95096435448134,1.95138540964665,1.95215233624279,1.91553300130872,1.95427459133591,1.95658074734944,1.96161995962532,1.96062688520233,1.96147051071514,1.96076741351651,1.96043766160603,1.96113998365054,1.95775416797436,1.95433811466927,1.95620248538772,1.96002204308537,1.96241793046365,1.96605066173375,1.96144992060471,1.96345386846603,1.9604699115689,1.95512581227294,1.95274862135551,1.95503925935838,1.95248775663926,1.94769988688451,1.94813693579254,1.95051590160625,1.95199975898196,1.9015618969006,1.87116774508534,1.87135699912233,1.87112811390503,1.87124646416271,1.89935677287997,1.91462367902677,1.94791891027514,1.94848037498733,1.95221142602766,1.89587098615947,1.82014152783668,1.8301311687075,1.8371463813485,1.84232924846317,1.84990634711578,1.85016526327808,1.79885918060923,1.79924021027792,1.80054007846479,1.80404085491233,1.80435091040176,1.81748212914501,1.82891526071183,1.83710305401941,1.85216916650003,1.86752783891377,1.90176134322982,1.90134410670769,1.83136559028002,1.84670378783725,1.86499511023017,1.85398152993133,1.85181277809444,1.85049009215434,1.8480845667818,1.84817881872656,1.83012514869392,1.81915384423347
