1.69617613030486,1.69974541577835,1.69735313328941,1.6985875510537,1.69628139073437,1.69717131982025,1.74864366985218,1.74561025565621,1.74752408164736,1.69889376321229,1.70054922269463,1.69623354508459,1.69665458680264,1.79658501093045,1.69614742291499,1.8706883533077,1.6966641559326,1.69647277333349,1.69845358323432,1.69525749382911,1.69772632935769,1.69875979539291,1.79511136491726,1.69643449681366,1.69440584126304,1.87069792243766,1.6963388055141,1.69297047176968,1.74215579974219,1.69531490860884,1.79235545549001,1.79365685716399,1.79594387922341,1.75336125092036,1.75526550778156,1.68944903194597,1.79496782796793,1.69194657486442,1.68910454326756,1.79863280474097,1.68747779117509,1.68886531501867,1.68993705757371,1.69173605400539,1.69187002182477,1.73684493261676,1.69063560406048,1.68997533409354,1.6916690700957,1.69519050991942,1.76639440592008,1.76844219973061,1.76538007814478,1.76777236063371,1.84366513031269,1.76482506860734,1.91717518663269,1.92467738451799,1.94310752881275,1.76687286241787,1.76573413595314,1.76731304239583,1.76752356325486,1.91668716100495,1.93898323380183,1.7651791264157,1.83840210883703,1.93296425105967,1.76415522951044,1.7655905990038,1.8371772602027,1.83566533766969,1.8360959485177,1.91750053705119,1.84375125248229,1.84144509216296,1.83845952361677,1.8426029568876,1.93775838516749,1.84169388954181,1.83748347236128,1.84936833176631,1.83766528583044,1.83578016722916,1.85088982342928,1.76112181531447,1.76271029088712,1.76177251615146,1.83566533766969,1.83570361418952,1.83575145983929,1.83792365233925,1.8391006553238,1.76843263060066,1.77115026350809,1.84380866726203,1.84396177334132,1.84548326500428,1.9302753255421,1.8545165236825,1.85438255586312,1.94656198472677,1.9402654972159,1.834517042075,1.90417073902284,1.83386634123801,1.91700294229349,1.91733786184194,1.90986437134651,1.83612465590757,1.83585672026881,1.91724217054238,1.91522308412172,1.91560584931995,1.91184518124735,1.91729958532212,1.9120269947165,1.91725173967234,1.912352345135,1.93717466824019,1.91761536661066,1.91204613297642,1.93682061043183,1.91450539937504,1.91453410676491,1.92284011156649,1.93266760803104,1.95114559797557,1.93856219208377,1.84446893722897,1.91925168783309,1.93758614082829,1.93673448826223,1.9379306295067,1.93510773616975,1.94008368374674,1.94733708425319,1.9224286389784,1.92380659369202,1.94001669983705,1.9275959691545,1.92671560919857,1.85395194501511,1.92397883803123,1.92724191134613,1.9339307331852,1.85498541105033,1.92736631003556,1.92724191134613,1.93395944057506,1.94853322549766,1.93778709255736,1.92798830348268,1.94355727792067,1.9431840818524,1.93832296383488,1.94728923860341,1.95335606699535,1.94071524632382,1.93574886787679,1.93765312473798,1.92991169860378,1.85964557733878,1.93321304843852,1.95662870944021,1.94953798414301,1.86092784075285,1.93444746620281,1.93371064319621,1.93376805797595,1.93945212116966,1.93656224392302,1.93523213485918,1.86214312025723,1.86149241942024,1.86259286936515
1.70321900995228,1.95762389895561,1.86807598082979,1.7048361929148,1.96012144187406,1.69914256059114,1.69675984723216,1.69900859277176,1.69715218156034,1.69907557668145,1.69919997537087,1.69776460587751,1.69627182160441,1.69738184067928,1.6984153067145,1.69884591756251,1.69579336510663,1.69817607846561,1.69545844555818,1.69964972447879,1.6974201171991,1.69709476678061,1.69859712018366,1.69573595032689,1.69644406594362,1.69761149979822,1.69521921730928,1.69678855462202,1.81039326545658,1.81243149013715,1.81470894306662,1.74317969664746,1.79158035596359,1.79318796979616,1.8154266278133,1.69193700573446,1.6880806463623,1.68903755935787,1.68730554683589,1.68543956649452,1.68855910286009,1.68738209987553,1.68613811298128,1.68911411239752,1.68946817020588,1.6886643632896,1.68923851108694,1.69187959095473,1.69034853016181,1.69355418869698,1.76871013536937,1.76879625753897,1.76820297148172,1.76790632845309,1.76849961451035,1.92023730821853,1.92133775816344,1.91524222238163,1.84083266784579,1.91323270509093,1.93688759434152,1.76780106802358,1.76606905550159,1.93971048767846,1.83844995448681,1.83597154982828,1.83765571670049,1.8368519097842,1.94319365098235,1.84362685379287,1.84355030075322,1.84390435856159,1.84513877632588,1.84817219052185,1.76310262521531,1.84393306595145,1.84433496940959,1.84769373402406,1.84829658921127,1.84777985619366,1.76321745477478,1.84805736096238,1.83138793657948,1.93405513187462,1.7624136478585,1.85088025429932,1.85185630555481,1.76269115262721,1.83585672026881,1.7650068820765,1.76503558946637,1.93771053951771,1.76427005906991,1.85570309579701,1.85552128232785,1.8448517024272,1.84420100159021,1.93805502819612,1.77873858356299,1.84939703915618,1.9307729202998,1.95809278632344,1.92796916522277,1.90753907276726,1.90507023723868,1.91279252511296,1.91407478852703,1.91543360498075,1.92864857344963,1.83639259154633,1.83587585852872,1.91365374680898,1.8346701481543,1.91631396493668,1.91664888448513,1.83605767199788,1.91593119973845,1.9110987891108,1.91320399770106,1.91209397862619,1.9141896180865,1.91361547028916,1.91220880818566,1.93683017956179,1.8421723460396,1.92152914076256,1.92507928797614,1.93665793522258,1.9314427593967,1.92948108775578,1.93650482914329,1.92009377126919,1.92013204778902,1.92129948164362,1.95084895494695,1.92328986067441,1.9517675914227,1.94270562535461,1.94982505804168,1.94559550260124,1.85161707730591,1.95034179105929,1.92656250311928,1.94900211286549,1.92752898524481,1.92755769263467,1.9284380525906,1.85742553918905,1.95242786138964,1.92916530646724,1.92863900431967,1.94371995312992,1.94810261464965,1.93758614082829,1.85779873525732,1.93866745251329,1.95378667784336,1.85894703085201,1.95057145017823,1.93354796798697,1.93398814796493,1.93092602637909,1.95265752050858,1.94015066765643,1.86006661905683,1.95729854853712,1.93074421290993,1.94913608068487,1.86023886339603,1.93871529816307,1.95082024755708,1.93440918968298,1.93636129219395,1.93404556274466,1.85817193132559,1.8609374098828
1.96770019279901,1.95115516710553,1.70047266965498,1.95033222192934,1.94749975946244,1.70023344140609,1.70192717740826,1.7005779300845,1.70135302961091,1.70125733831136,1.70012818097658,1.70190803914835,1.6980038341264,1.69769762196782,1.69894160886207,1.69998464402724,1.69834832280481,1.69929566667043,1.69918083711096,1.69951575665941,1.69687467679163,1.6990851458114,1.69810909455592,1.69739140980924,1.69983153794795,1.69676941636211,1.8038384114369,1.69875979539291,1.78448963066639,1.74430885398223,1.74288305361883,1.74142854586556,1.76785848280331,1.69178389965517,1.68971696758473,1.73699803869605,1.68697062728743,1.68742037639535,1.69251115353181,1.68811892288212,1.68858781024995,1.68494197173682,1.6863294955804,1.68839642765084,1.68531516780509,1.98016876913134,1.68886531501867,1.95388236914292,1.69030068451203,1.69087483230938,1.77042300963145,1.91548145063053,1.91433315503584,1.77037516398167,1.76901634752796,1.76854746016013,1.76879625753897,1.91541446672084,1.91421832547637,1.91686897447411,1.94485867959465,1.93508859790984,1.76756183977468,1.7665857885192,1.76634656027031,1.83895711837447,1.8442679854999,1.92124206686388,1.76686329328791,1.83715812194279,1.8370050158635,1.76461454774832,1.76511214250601,1.84261252601756,1.83552180072036,1.83515817378204,1.84670811363862,1.84860280136985,1.84668897537871,1.83461273337456,1.93638999958382,1.75915057454359,1.9232707224145,1.758844362385,1.76179165441137,1.76138975095323,1.83433522860584,1.83489980727323,1.8360959485177,1.83507205161244,1.93394987144511,1.83745476497142,1.94707871774438,1.84159819824225,1.84220105342946,1.76840392321079,1.85811451654586,1.93439005142307,1.85744467744896,1.85769347482781,1.95920280539831,1.95162405447336,1.94765286554173,1.923596072833,1.91342408769004,1.83511032813226,1.91758665922079,1.92427548105985,1.91413220330677,1.92085930166565,1.83662225066527,1.83426824469615,1.83469885554416,1.83849780013659,1.83746433410137,1.83787580668947,1.91376857636845,1.91353891724951,1.91299347684203,1.93088774985927,1.9249357510268,1.91467764371425,1.93491635357064,1.91399823548739,1.92996911338352,1.84222976081933,1.93119396201785,1.84470816547787,1.93387331840546,1.93615077133493,1.84767459576415,1.93745217300891,1.92142388033304,1.92197888987048,1.92091671644539,1.92720363482631,1.94374866051979,1.93986359375776,1.93412211578431,1.95168146925309,1.93699285477103,1.93832296383488,1.94449505265633,1.85310986157901,1.94107887326213,1.85396151414507,1.85428686456356,1.93288769802002,1.92996911338352,1.93863874512342,1.94908823503509,1.95479143648871,1.9438539209493,1.95031308366942,1.95004514803066,1.95197811228172,1.94107887326213,1.95075326364739,1.94340417184138,1.93128008418746,1.95761432982565,1.95405461348212,1.94804519986991,1.86087999510307,1.93080162768967,1.93416039230413,1.93357667537683,1.86034412382555,1.93291640540989,1.93378719623586,1.9337776271059,1.93553834701776,1.93623689350453,1.86023886339603,1.86255459284532,1.8619325993982
1.70638639196763,1.9661021480964,1.70265443128489,1.70031956357569,1.70048223878494,1.70497016073418,1.69992722924751,1.70350608385095,1.70172622567919,1.69989852185764,1.75020343803497,1.75127518059001,1.78185811992856,1.70198459218799,1.69943920361976,1.69943920361976,1.70192717740826,1.69886505582242,1.69997507489729,1.69883634843255,1.69939135796999,1.74534232001745,1.7008362965933,1.69739140980924,1.69799426499645,1.69860668931362,1.79282434285784,1.69381255520579,1.7450935226386,1.69586991814627,1.69258770657145,1.69426230431371,1.69397523041504,1.69139156532699,1.73798365908149,1.6881667685319,1.68661656947907,1.68990835018385,1.6865017399196,1.95633206641159,1.68921937282703,1.68737253074558,1.68800409332265,1.9641978912352,1.98997712733597,1.68853996460018,1.6895734306354,1.68938204803628,1.73794538256167,1.69040594494155,1.92101240774495,1.77101629568871,1.91862969438597,1.77063353049048,1.76781063715353,1.91611301320761,1.7681646949619,1.91791200963929,1.84197139431053,1.84218191516955,1.84287089252637,1.91516566934199,1.76674846372845,1.76820297148172,1.94225587624669,1.83855521491633,1.84445936809902,1.76614560854123,1.95357615698433,1.84366513031269,1.84610525845141,1.84547369587433,1.84723441578618,1.8351007590023,1.84679423580822,1.84163647476207,1.84695691101747,1.92199802813039,1.83631603850668,1.83564619940978,1.76222226525938,1.83375151167854,1.83564619940978,1.76234666394881,1.83347400690983,1.93479195488121,1.85244002248211,1.76205002092018,1.85430600282348,1.85346391938737,1.8546026458521,1.8389284109846,1.83692846282385,1.85671742357232,1.84334934902415,1.85871737173307,1.93033274032184,1.85611456838511,1.84919608742711,1.84915781090729,1.85832503740489,1.93090688811918,1.92130905077357,1.90873521401173,1.94060041676435,1.93107913245838,1.92316546198499,1.936351723064,1.92361521109291,1.91173992081783,1.91394082070765,1.83704329238332,1.83516774291199,1.83911022445376,1.83514860465208,1.8356844759296,1.91453410676491,1.91505083978252,1.91625655015694,1.92079231775596,1.91390254418783,1.93660052044285,1.92725148047609,1.92774907523379,1.91603646016796,1.91404608113717,1.91617042798734,1.93318434104865,1.92840934520073,1.91925168783309,1.93665793522258,1.94619835778846,1.94292571534359,1.93828468731506,1.9220171663903,1.92329942980437,1.92323244589468,1.94970065935226,1.8507558556099,1.94174871235904,1.92525153231534,1.9312705150575,1.85407634370454,1.9438539209493,1.85442083238294,1.94725096208359,1.92663905615892,1.94059084763439,1.93549050136798,1.93394030231515,1.85673656183223,1.85762649091812,1.94773898771133,1.85746381570887,1.85854512739387,1.92715578917653,1.96339408431892,1.85806667089608,1.92949065688573,1.95604499251291,1.85856426565378,1.8584302978344,1.93713639172037,1.85827719175511,1.94105973500222,1.93746174213886,1.93461014141205,1.96310701042025,1.94073438458373,1.95148051752402,1.93674405739218,1.93373935058608,1.93613163307502,1.93547136310807,1.9343613440332,1.93973919506833
1.70606104154914,1.95465746866933,1.70261615476507,1.70536249506237,1.70443428945666,1.70310418039281,1.70337211603157,1.70469265596547,1.7972644191573,1.70170708741928,1.70244391042587,1.69892247060215,1.69936265058012,1.7017453639391,1.70004205880698,1.70221425130693,1.69971670838848,1.70040568574529,1.69839616845459,1.74955273719798,1.74906471157024,1.70102767919242,1.70155398133998,1.74787813945573,1.69957317143914,1.69964972447879,1.80118776243916,1.69526706295906,1.69712347417048,1.69594647118592,1.79798210390398,1.79795339651412,1.79744623262646,1.74107448805719,1.68992748844376,1.68853996460018,1.69221451050318,1.87863073117097,1.68763089725438,1.69235804745252,1.69035809929177,1.68794667854292,1.97752768926355,1.97162353608086,1.68846341156053,1.69127673576752,1.69061646580057,1.73947644335458,1.73987834681273,1.7868436366355,1.77100672655875,1.92008420213924,1.76834650843105,1.76886324144866,1.91984497389034,1.91407478852703,1.91780674920977,1.76960963358521,1.92761510741441,1.93156715808613,1.77045171702132,1.91847658830667,1.84250726558805,1.84166518215194,1.84258381862769,1.84372254509243,1.84095706653522,1.83785666842956,1.76516955728575,1.84186613388101,1.83809589667845,1.83629690024677,1.84750235142494,1.85088025429932,1.85080370125967,1.84610525845141,1.83578973635912,1.83470842467412,1.84941617741609,1.84971282044472,1.8533490898279,1.85210510293366,1.76255718480783,1.76181079267128,1.85203811902396,1.85212424119357,1.83463187163447,1.83431609034593,1.8347562703239,1.84017239787885,1.76227011090916,1.85532033059878,1.93765312473798,1.76543749292451,1.84202880909026,1.84285175426645,1.8565930248829,1.93117482375794,1.85744467744896,1.85755950700843,1.85994222036741,1.93963393463882,1.95446608607022,1.90970169613726,1.93599766525564,1.90870650662186,1.92192147509074,1.92068705732645,1.9209358547053,1.91122318780022,1.92550032969419,1.91338581117022,1.83748347236128,1.83778968451987,1.83955997356168,1.9144288463354,1.91285950902265,1.91744312227145,1.91062990174297,1.94263864144492,1.93388288753542,1.92070619558636,1.84122500217398,1.93402642448475,1.93022747989232,1.91695509664371,1.91670629926486,1.84555981804393,1.84645931625977,1.93875357468289,1.93415082317418,1.91995980344981,1.92017032430884,1.92372047152242,1.93034230945179,1.92279226591671,1.92357693457308,1.85063145692047,1.94716483991399,1.9248496288572,1.92639982791003,1.9375191569186,1.93703113129086,1.93764355560802,1.9243520340995,1.93996885418727,1.95628422076181,1.94814089116947,1.93798804428643,1.93098344115883,1.94389219746912,1.9308590424694,1.93466755619179,1.93414125404422,1.94751889772235,1.94590171475983,1.85768390569785,1.94641844777744,1.85745424657891,1.94593999127965,1.94064826241413,1.93806459732608,1.93729906692962,1.93546179397811,1.95173888403283,1.95038963670907,1.85961686994891,1.93383504188564,1.94795907770031,1.95546127558561,1.85870780260312,1.93405513187462,1.93682061043183,1.93745217300891,1.94057170937448,1.94023678982603
1.87671690517982,1.70628113153812,1.70515197420334,1.70541034071215,1.70661605108657,1.70800357493015,1.70531464941259,1.80731200561083,1.70530508028263,1.70305633474303,1.70018559575631,1.87487006309836,1.70080758920344,1.7023290808664,1.80511110572101,1.94825572072894,1.69897988538189,1.69937221971007,1.70263529302498,1.70197502305804,1.75221295532568,1.75102638321116,1.78499679455404,1.69914256059114,1.69912342233123,1.69905643842153,1.69996550576733,1.79866151213084,1.7986710812608,1.69618569943481,1.69728614937972,1.69461636212207,1.69479817559123,1.69514266426964,1.69540103077844,1.87594180565341,1.69226235615296,1.69254943005163,1.69017628582261,1.68947773933584,1.69209011181376,1.964025646896,1.95697319811862,1.69072172623008,1.69157337879615,1.69297047176968,1.73971567160348,1.69054948189088,1.69304702480933,1.69598474770574,1.77212631476357,1.91876366220535,1.77132250784729,1.77252821822171,1.8387561666454,1.77127466219751,1.91804597745867,1.77095888090897,1.91638094884637,1.7685091836403,1.93442832794289,1.76820297148172,1.84324408859464,1.84484213329725,1.84357900814309,1.84077525306606,1.84773201054388,1.76593508768221,1.83904324054407,1.92182578379118,1.92142388033304,1.84235415950876,1.83775140800004,1.94001669983705,1.84890901352844,1.85083240864954,1.85062188779052,1.8373495045419,1.83745476497142,1.84983721913414,1.76182036180124,1.83494765292301,1.83749304149124,1.92719406569635,1.83561749201991,1.83641172980624,1.83588542765867,1.76248063176819,1.93992100853749,1.85537774537852,1.855923185786,1.85749252309874,1.85719588007011,1.76643268243991,1.95064800321788,1.8579327030767,1.84722484665623,1.86125319117134,1.85111948254821,1.85506196408998,1.85503325670011,1.9375191569186,1.92792131957299,1.83533041812124,1.90741467407784,1.83742605758155,1.83771313148022,1.91126146432005,1.91040024262403,1.92164397032202,1.91021842915487,1.91209397862619,1.83738778106173,1.90887875096107,1.90896487313067,1.91545274324066,1.91257243512398,1.91356762463938,1.9118547503773,1.91177819733766,1.94964324457252,1.94283002404404,1.93548093223803,1.91084042260199,1.91154853821872,1.91244803643456,1.93367236667639,1.91866797090579,1.92516541014574,1.91785459485955,1.9181033922384,1.93717466824019,1.92156741728238,1.93755743343842,1.84881332222888,1.94164345192952,1.93503118313011,1.85066016431034,1.92459126234839,1.93248579456188,1.93519385833935,1.92030429212822,1.93804545906616,1.93761484821816,1.95265752050858,1.92439987974928,1.94092576718284,1.94544239652195,1.92869641909941,1.94425582440744,1.93025618728219,1.92996911338352,1.93803588993621,1.92997868251347,1.92991169860378,1.92948108775578,1.94470557351536,1.934189099694,1.86022929426608,1.94982505804168,1.93034230945179,1.8602675707859,1.94678207471576,1.93372978145613,1.9444376378766,1.9436816766101,1.93186380111476,1.93309821887905,1.85908099867139,1.93193078502445,1.85670785444237,1.93430392925347,1.86394211668891,1.8593393651802,1.93809330471594,1.86023886339603
1.70585052069011,1.70713278410418,1.7069988162848,1.70552517027162,1.7065873436967,1.70342953081131,1.70494145334432,1.70230037347653,1.70359220602056,1.70367832819016,1.70489360769454,1.80476661704261,1.70490317682449,1.80426902228491,1.95345175829491,1.87709967037805,1.7040802316483,1.80072844420128,1.80710148475181,1.80786701514826,1.70164967263954,1.69912342233123,1.78962825345262,1.74913169547993,1.74864366985218,1.70172622567919,1.70060663747436,1.70080758920344,1.70102767919242,1.69811866368587,1.69634837464406,1.69711390504052,1.97440815289798,1.69409962910446,1.69473119168154,1.69611871552512,1.79877634169031,1.80398194838623,1.80449868140384,1.69107578403845,1.69341065174765,1.68814763027199,1.68937247890633,1.74115104109684,1.7410075041475,1.69334366783796,1.69451110169256,1.74185915671356,1.74198355540299,1.69743925545901,1.92624672183074,1.91755795183092,1.77119810915787,1.77258563300145,1.77138949175698,1.77479610202122,1.77161915087592,1.84322495033473,1.91824692918774,1.84537800457477,1.84172259693168,1.84183742649115,1.84169388954181,1.84905255047777,1.84033507308809,1.84785640923331,1.92797873435272,1.92088800905552,1.83890927272469,1.85061231866056,1.84045947177752,1.83934945270265,1.84870806179937,1.93096430289892,1.84977980435441,1.8492630713368,1.93406470100458,1.85164578469578,1.92789261218312,1.92751941611485,1.83826814101765,1.8364212989362,1.83747390323133,1.83500506770275,1.853760562416,1.85369357850631,1.85521507016927,1.83582801287894,1.83697630847363,1.83770356235027,1.83815331145818,1.84043076438765,1.93661965870276,1.8571767418102,1.84133983173345,1.86012403383657,1.86074602728369,1.84682294319809,1.77588698283618,1.85936807257006,1.93119396201785,1.94920306459456,1.93417953056405,1.90950074440819,1.83703372325336,1.91018015263505,1.91083085347204,1.94101188935244,1.91506040891247,1.91411306504686,1.92040955255773,1.90880219792142,1.83921548488327,1.83711984542296,1.91546231237062,1.9147733350138,1.91528049890146,1.9217779381414,1.91507954717239,1.91667759187499,1.83972264877093,1.91539532846093,1.91390254418783,1.91631396493668,1.91574938626929,1.93995928505731,1.91644793275606,1.91742398401154,1.92012247865906,1.84644974712981,1.94457160569598,1.92114637556433,1.9215195716326,1.92300278677574,1.92056265863703,1.94860020940735,1.95059058843814,1.9346866944517,1.93347141494732,1.92471566103782,1.92465824625808,1.93883969685249,1.8519232894645,1.95115516710553,1.93776795429745,1.85633465837409,1.85748295396878,1.95905926844897,1.93694500912125,1.93182552459493,1.94076309197359,1.85908099867139,1.9410214584824,1.94688733514527,1.94656198472677,1.94416013310788,1.93173940242533,1.94051429459475,1.94017937504629,1.93831339470492,1.93730863605957,1.93102171767865,1.93471540184157,1.93993057766745,1.93038058597162,1.93517472007944,1.93577757526665,1.86411436102811,1.93237096500241,1.93508859790984,1.93272502281077,1.9337776271059,1.9324379489121,1.93037101684166,1.94071524632382,1.9396817802886
1.71084560652701,1.7096590344125,1.70992697005126,1.79825003954275,1.70873082880679,1.70853944620767,1.78992489648125,1.70886479662617,1.70567827635091,1.70660648195661,1.75280624138293,1.70355392950073,1.70573569113064,1.70669260412622,1.70190803914835,1.70298935083334,1.80532162658004,1.80482403182234,1.70175493306905,1.70495102247427,1.70564956896104,1.80411591620561,1.87656379910053,1.70391755643905,1.70388884904918,1.75105509060103,1.81616345081989,1.81668975296746,1.70014731923649,1.75019386890501,1.75167708404815,1.699171267981,1.70147742830034,1.69884591756251,1.80795313731787,1.69871194974313,1.69603259335552,1.69650148072335,1.69653018811322,1.80797227557778,1.6948268829811,1.69376470955601,1.75365789394899,1.75409807392696,1.74476817222011,1.74558154826635,1.69641535855375,1.69816650933565,1.69881721017264,1.69905643842153,1.92485919798715,1.9206105042868,1.84868892353946,1.8416747512819,1.84159819824225,1.8436842685726,1.77290141428999,1.77176268782525,1.76861444406982,1.84727269230601,1.84749278229499,1.92284011156649,1.8410910343546,1.84807649922229,1.84269864818716,1.84169388954181,1.84925350220684,1.84020110526871,1.84802865357251,1.849004704828,1.94609309735894,1.84730139969587,1.76301650304571,1.83773226974013,1.94633232560784,1.76501645120646,1.83713898368288,1.83624905459699,1.92708880526684,1.83437350512567,1.83401944731731,1.9330216658394,1.76138018182328,1.83238312609487,1.85302373940941,1.83756002540093,1.93821770340537,1.83714855281283,1.95038006757911,1.8355122315904,1.85774132047759,1.84005756831938,1.84090922088544,1.93389245666537,1.86161681810966,1.84598085976198,1.84673682102848,1.93269631542091,1.86042067686519,1.84978937348437,1.85654517923312,1.93497376835037,1.79694863786876,1.92121335947402,1.92716535830649,1.91457238328473,1.91193130341695,1.91375900723849,1.92115594469428,1.90870650662186,1.92127077425375,1.83754088714102,1.83741648845159,1.83856478404628,1.83844995448681,1.91671586839482,1.9148594571834,1.91644793275606,1.91215139340593,1.91367288506889,1.84140681564314,1.94203578625771,1.94371995312992,1.93264846977113,1.84187570301097,1.92791175044303,1.91520394586181,1.93725122127984,1.94938487806372,1.92047653646742,1.92053395124716,1.84688035797782,1.92078274862601,1.8490908269976,1.93378719623586,1.93015092685268,1.85062188779052,1.94423668614753,1.92641896616994,1.85147354035658,1.92725148047609,1.92700268309724,1.92659121050914,1.85392323762525,1.940026268967,1.85573180318688,1.93397857883497,1.92008420213924,1.85736812440931,1.94179655800882,1.95071498712757,1.96998721485843,1.94331804967178,1.94882029939633,1.94755717424217,1.93624646263449,1.93431349838343,1.95989178275512,1.85827719175511,1.92773950610383,1.95794924937411,1.94427496266735,1.85841115957449,1.93442832794289,1.9414329310705,1.93350012233719,1.93357667537683,1.93228484283281,1.85867909521325,1.85804753263617,1.86057378294449,1.93113654723812,1.93352882972705,1.93654310566311,1.8631000332528,1.85852598913396
1.71034801176931,1.96427444427485,1.71116138781555,1.70949635920325,1.70993653918121,1.70877867445657,1.70622371675838,1.70634811544781,1.7083384944786,1.70902747183542,1.70663518934648,1.7036687590602,1.70712321497422,1.87716665428774,1.96427444427485,1.70703709280462,1.70615673284869,1.80679527259322,1.70302762735317,1.70493188421436,1.70499886812405,1.79906341558898,1.70526680376281,1.79830745432248,1.80871866771433,1.70271184606463,1.7029127977937,1.70120949266158,1.70199416131795,1.70543904810201,1.69995593663737,1.74844271812311,1.80305374278053,1.69853970540392,1.8107568923949,1.69953489491932,1.69929566667043,1.81252718143671,1.81318745140366,1.6967502781022,1.79161863248342,1.74606957389409,1.80100594897,1.69680769288194,1.69866410409335,1.69721916547003,1.96328882388941,1.69903730016162,1.69972627751844,1.7014200135206,1.77431764552344,1.77492050071065,1.92661991789901,1.76750442499495,1.84444979896906,1.8475980427245,1.84772244141393,1.84679423580822,1.84505265415627,1.85059318040065,1.7715808743561,1.92241906984844,1.77001153704335,1.91984497389034,1.8475980427245,1.84169388954181,1.76834650843105,1.92446686365897,1.84847840268043,1.85155009339622,1.83665095805513,1.85113862080813,1.83847866187668,1.76546620031438,1.85216251771339,1.85185630555481,1.83584715113885,1.83523472682168,1.76273899827699,1.76129405965367,1.85341607373759,1.76190648397084,1.7618299309312,1.85547343667808,1.85567438840715,1.85580835622653,1.83582801287894,1.86121491465152,1.83504334422257,1.83786623755951,1.8579327030767,1.8405073174273,1.85903315302161,1.85972213037842,1.86052593729471,1.84283261600654,1.8456746476034,1.93424651447374,1.77670035888242,1.85590404752608,1.86103310118236,1.96317399432994,1.79783856695465,1.91380685288827,1.92371090239246,1.91247674382442,1.91706992620318,1.93083033507954,1.91227579209535,1.91303175336186,1.91475419675389,1.83808632754849,1.83822029536788,1.83802891276876,1.83746433410137,1.84099534305504,1.91642879449615,1.91389297505787,1.91305089162177,1.83997144614978,1.91386426766801,1.91464893632438,1.91581637017898,1.93024661815224,1.91653405492566,1.93058153770069,1.91965359129123,1.91755795183092,1.91737613836176,1.84583732281264,1.9416912975793,1.9409353363128,1.94689690427522,1.84778942532362,1.93740432735913,1.85013386216277,1.93701199303094,1.95115516710553,1.94705957948447,1.8511864664579,1.943270204022,1.93390202579533,1.93754786430847,1.93622732437457,1.93023704902228,1.93080162768967,1.94473428090523,1.93776795429745,1.94433237744709,1.94070567719386,1.93766269386793,1.8578465809071,1.93800718254634,1.94771984945142,1.93387331840546,1.9330216658394,1.93336615451781,1.94468643525545,1.85953074777931,1.96063817489167,1.93313649539887,1.95490626604818,1.93422737621382,1.94615051213868,1.9537771087134,1.85746381570887,1.94703087209461,1.95791097285428,1.93064852161038,1.93339486190767,1.93639956871378,1.93029446380201,1.93490678444068,1.85783701177714,1.86092784075285,1.85824848436524
1.71335271857541,1.71019490569002,1.71322831988599,1.71214700820099,1.71034801176931,1.76045197621757,1.79136026597461,1.75828935284757,1.71037671915918,1.70946765181338,1.70867341402705,1.70875953619666,1.70885522749621,1.96351848300835,1.70780262320108,1.70910402487506,1.70493188421436,1.70517111246325,1.75846159718677,1.70840547838829,1.70702752367467,1.70835763273852,1.70694140150507,1.70554430853153,1.70551560114166,1.70657777456675,1.70458739553595,1.70563043070113,1.70522852724299,1.70334340864171,1.70369746645007,1.81703424164586,1.70379315774963,1.81155113018123,1.81204872493892,1.70225252782675,1.79824047041279,1.78502550194391,1.79721657350753,1.79469989232917,1.69918083711096,1.69881721017264,1.69981239968804,1.7005779300845,1.80247959498318,1.80606801871659,1.70209942174746,1.6999942131572,1.70218554391706,1.70472136335533,1.77581042979653,1.77346599295738,1.77413583205428,1.77290141428999,1.77303538210937,1.84586603020251,1.85053576562091,1.77214545302348,1.93975833332824,1.76894936361827,1.84273692470698,1.84286132339641,1.84999032521344,1.85087068516936,1.84297615295588,1.84108146522464,1.92336641371406,1.84520576023557,1.84487084068712,1.8382585718877,1.84194268692066,1.92679216223821,1.84130155521362,1.92786390479326,1.83790451407934,1.83813417319827,1.76423178255009,1.85404763631467,1.85561697362741,1.83422039904638,1.83127310702001,1.76351409780341,1.8353399872512,1.8356844759296,1.85765519830798,1.93132792983723,1.83517731204195,1.94693518079505,1.83835426318726,1.76313133260518,1.85871737173307,1.86056421381453,1.76841349234075,1.85792313394675,1.9415190532401,1.93671535000232,1.86185604635856,1.85074628647994,1.85831546827493,1.86075559641364,1.93799761341639,1.95163362360332,1.91438100068562,1.92474436842768,1.9124384673046,1.91059162522314,1.91153896908876,1.91019929089496,1.90981652569673,1.91012273785531,1.927270618736,1.83955997356168,1.83837340144717,1.83836383231721,1.83828727927757,1.84153121433256,1.84127284782376,1.9164383636261,1.91494557935301,1.9142757402561,1.84148336868278,1.93796890602652,1.84353116249331,1.93616034046488,1.91732829271199,1.84731096882583,1.84473687286773,1.8460191362818,1.92016075517888,1.93783493820714,1.94281088578412,1.92117508295419,1.94626534169815,1.85059318040065,1.94230372189647,1.91462979806447,1.91541446672084,1.93642827610364,1.94199750973789,1.94578688520036,1.93545222484816,1.93384461101559,1.93126094592754,1.94688733514527,1.94358598531054,1.95331779047553,1.85808580915599,1.93271545368082,1.85867909521325,1.85798054872648,1.94725096208359,1.8572628639798,1.85758821439829,1.93058153770069,1.93195949241431,1.9477676951012,1.94223673798678,1.94367210748014,1.94025592808594,1.94134680890089,1.94945186197341,1.93664836609263,1.93175854068524,1.93015092685268,1.93795933689656,1.94455246743607,1.93180638633502,1.93111740897821,1.93138534461697,1.9317681098152,1.93222742805307,1.85865995695334,1.93644741436356,1.93458143402219,1.8605067990348,1.86032498556564
1.98982402125668,1.71531439021634,1.71493162501811,1.76471980817783,1.71279770903798,1.71497947066789,1.76022231709863,1.70823323404909,1.71159199866356,1.71164941344329,1.70972601832219,1.70940066790369,1.70858729185745,1.71018533656006,1.71060637827811,1.70692226324515,1.70858729185745,1.70822366491913,1.70813754274953,1.7083384944786,1.70779305407113,1.70832892534865,1.70869255228697,1.7074102888729,1.70784089972091,1.70700838541476,1.88082206193083,1.70663518934648,1.75459566868466,1.75615543686744,1.79911126123876,1.8025848554127,1.80261356280256,1.70382186513949,1.70540077158219,1.70454911901613,1.80460394183336,1.70364962080029,1.70556344679144,1.80314943408008,1.80456566531353,1.80537904135977,1.70418549207781,1.70495102247427,1.70179320958888,1.70412807729808,1.7051615433333,1.70529551115268,1.7065012215271,1.70786960711077,1.77222200606313,1.8480095153126,1.84604784367167,1.84536843544481,1.77451859725251,1.77453773551242,1.84895685917822,1.92486876711711,1.84554067978402,1.8447655802576,1.77169570391556,1.85353090329706,1.93090688811918,1.84237329776867,1.84148336868278,1.84452635200871,1.84432540027964,1.84410531029066,1.84436367679946,1.85411462022436,1.8543442793433,1.83926333053305,1.83813417319827,1.83898582576433,1.83845952361677,1.92954807166547,1.8380193436388,1.83778968451987,1.95127956579495,1.83371323515872,1.76263373784748,1.85745424657891,1.76380117170208,1.83293813563231,1.83462230250452,1.83555050811022,1.83565576853974,1.83712941455292,1.83727295150226,1.83930160705287,1.83844038535686,1.86104267031232,1.76683458589805,1.76983929270415,1.77070051440017,1.84444022983911,1.86442057318669,1.85089939255923,1.86283209761404,1.86173164766913,1.93680147217192,1.94734665338314,1.80061361464181,1.93148103591653,1.83965566486124,1.91728044706221,1.84105275783477,1.92138560381322,1.92074447210618,1.91281166337288,1.83955040443172,1.8391006553238,1.91364417767903,1.91218966992575,1.84045947177752,1.91467764371425,1.91350064072969,1.91732829271199,1.91606516755783,1.92752898524481,1.94117456456169,1.93373935058608,1.91494557935301,1.91706992620318,1.91773019617013,1.9181033922384,1.9187732313353,1.91815123788818,1.92239993158853,1.84854538659012,1.93716509911024,1.93119396201785,1.92950979514564,1.84985635739406,1.93404556274466,1.93981574810798,1.93390202579533,1.92661991789901,1.93080162768967,1.95117430536544,1.92982557643418,1.93775838516749,1.85672699270228,1.93367236667639,1.94308839055284,1.96708776848184,1.85748295396878,1.92838063781087,1.93037101684166,1.93631344654418,1.944351515707,1.94741363729283,1.85962643907887,1.95404504435216,1.93919375466085,1.85789442655688,1.94841839593819,1.93411254665435,1.93388288753542,1.93384461101559,1.95789183459437,1.85757864526834,1.94992074934124,1.93340443103763,1.93164371112577,1.94439936135678,1.85941591821984,1.85780830438728,1.94039946503528,1.9483514120285,1.85906186041148,1.9337776271059,1.86036326208546,1.8613488824709,1.85999006601719,1.85867909521325
1.80901531074295,1.7122522686305,1.71838608093213,1.71483593371855,1.76177251615146,1.79643190485115,1.76297822652588,1.76111224618451,1.71239580557984,1.71466368937935,1.95974824580578,1.71026188959971,1.88689845945273,1.88813287721702,1.96356632865813,1.7121661464609,1.9606094675018,1.88167371449689,1.81463239002697,1.7081662501394,1.8018480324061,1.70994610831117,1.75740899289164,1.75690182900399,1.79836486910221,1.7991686760185,1.70647251413723,1.70822366491913,1.70935282225391,1.71150587649395,1.70899876444555,1.70747727278259,1.70214726739724,1.70598448850949,1.81121621063277,1.81082387630459,1.80857513076499,1.7065873436967,1.70540077158219,1.70306590387299,1.70431945989719,1.70204200696773,1.82269916657966,1.70585052069011,1.7065873436967,1.75456696129479,1.70721890627378,1.70615673284869,1.70611845632887,1.70861599924732,1.77521714373928,1.85061231866056,1.77412626292432,1.85134914166715,1.77759985709826,1.84538757370473,1.85128215775746,1.7730066747195,1.84444979896906,1.92490704363693,1.84422970898008,1.84436367679946,1.84446893722897,1.84431583114968,1.84375125248229,1.8485932322399,1.84380866726203,1.84086137523566,1.84057430133699,1.85407634370454,1.84161733650216,1.84282304687659,1.85772218221768,1.83890927272469,1.85530119233887,1.76538007814478,1.76296865739593,1.93169155677555,1.8567652692221,1.83703372325336,1.9330216658394,1.85745424657891,1.83539740203093,1.86019101774626,1.76224140351929,1.9553560151561,1.9498633345615,1.76411695299062,1.86118620726165,1.83880401229518,1.76529395597517,1.76657621938924,1.7682508171315,1.86183690809864,1.86185604635856,1.84735881447561,1.86083214945329,1.77779123969737,1.86096611727267,1.86391340929904,1.86242062502594,1.8635115058409,1.8009198268004,1.9204382599476,1.9285241747602,1.91972057520092,1.93382547275568,1.93350969146714,1.9226870054872,1.9228592498264,1.9230123559057,1.91494557935301,1.91189302689712,1.91684026708424,1.91717518663269,1.84107189609469,1.91634267232654,1.91473505849398,1.91639051797632,1.84237329776867,1.92892607821834,1.91699337316353,1.9437677987797,1.91805554658862,1.91863926351592,1.93551920875785,1.93189250850462,1.94456203656602,1.94583473085014,1.94083964501324,1.92743329394525,1.94137551629076,1.94245682797576,1.93177767894515,1.93475367836139,1.93610292568515,1.93825597992519,1.93114611636808,1.94741363729283,1.93774881603754,1.93679190304196,1.92743329394525,1.94629404908801,1.85496627279042,1.85612413751507,1.85664087053268,1.93397857883497,1.94705957948447,1.85781787351723,1.85725329484984,1.93154801982622,1.9345144501125,1.93728949779966,1.95478186735876,1.93975833332824,1.94075352284364,1.85953074777931,1.94964324457252,1.9637672803872,1.95325080656584,1.94770071119151,1.94612180474881,1.85904272215157,1.86054507555462,1.85949247125949,1.94140422368063,1.85819106958551,1.93350012233719,1.93132792983723,1.86012403383657,1.94377736790965,1.8586886643432,1.86028670904581,1.8607651655436,1.85931065779033,1.8593393651802
1.96287735130131,1.96351848300835,1.71656794624054,1.71607035148284,1.7164244092912,1.71701769534846,1.7148263645886,1.8838554761268,1.71476894980886,1.71462541285953,1.7941735901816,1.71284555468776,1.71473067328904,1.81076646152485,1.71261589556882,1.71309435206661,1.71171639735298,1.71172596648294,1.7119939021217,1.71168768996311,1.70952506659312,1.81160854496096,1.7089222114059,1.71234795993006,1.80738855865048,1.70955377398298,1.70829064882882,1.7102427513398,1.71092215956665,1.88684104467299,1.88777881940866,1.88369280091756,1.70830978708874,1.70903704096537,1.8051780896307,1.70770693190152,1.70643423761741,1.80305374278053,1.70664475847644,1.70713278410418,1.70652992891697,1.70706580019449,1.70525723463286,1.70812797361958,1.70881695097639,1.70719976801387,1.88447746957393,1.70953463572307,1.71074991522745,1.71302736815692,1.77456644290229,1.77655682193308,1.77797305316653,1.85154052426627,1.77488222419083,1.77531283503883,1.85213381032352,1.93044756988131,1.84465075069813,1.84757890446459,1.84802865357251,1.85097594559888,1.85144483296671,1.92751941611485,1.84698561840733,1.84834443486105,1.85361702546666,1.84138767738323,1.84208622386999,1.84446893722897,1.84136853912331,1.76891108709844,1.83943557487225,1.85486101236091,1.84057430133699,1.83947385139208,1.8405934395969,1.83904324054407,1.8365074211058,1.83684234065425,1.86043024599515,1.83829684840752,1.83708156890314,1.8605067990348,1.86084171858325,1.83428738295607,1.83870832099562,1.86172207853917,1.83748347236128,1.83856478404628,1.863922978429,1.76729390413592,1.76793503584296,1.76826038626145,1.84430626201973,1.7725952021314,1.86192303026825,1.94358598531054,1.9351842892094,1.94741363729283,1.95112645971566,1.95937504973751,1.95398762957243,1.84104318870482,1.92446686365897,1.91475419675389,1.91430444764597,1.91513696195212,1.91775890355999,1.91619913537721,1.91607473668778,1.91474462762394,1.91911772001371,1.84146423042287,1.91627568841685,1.91593119973845,1.91795985528906,1.91683069795429,1.92678259310826,1.92959591731525,1.92808399478224,1.91993109605995,1.91814166875822,1.92011290952911,1.92839977607078,1.93706940781068,1.93059110683064,1.9341029775244,1.93328960147816,1.93110783984825,1.94056214024452,1.92253389940791,1.94482040307483,1.92250519201804,1.92351951979335,1.93386374927551,1.93316520278874,1.92714622004658,1.92592137141224,1.92704095961706,1.92873469561923,1.927270618736,1.94591128388978,1.92967247035489,1.92894521647825,1.94244725884581,1.93890668076218,1.85795184133661,1.85799011785644,1.94995902586106,1.85842072870444,1.93052412292095,1.92897392386812,1.92779692088357,1.94729880773337,1.95073412538748,1.94403573441846,1.85785615003706,1.94568162477085,1.94415056397793,1.95988221362517,1.95281062658787,1.95675310812964,1.9566956933499,1.93237096500241,1.94078223023351,1.94761458902191,1.93455272663232,1.94272476361452,1.94118413369165,1.93341400016759,1.85979868341807,1.85821977697537,1.8573489861494,1.86090870249294,1.86024843252599
1.72029033779332,1.7196683443462,1.71923773349819,1.71636699451147,1.97698224885607,1.88941514063109,1.7186731548308,1.71778322574492,1.71611819713262,1.71693157317886,1.71456799807979,1.71811814529337,1.71504645457758,1.71371634551373,1.71362065421417,1.71454885981988,1.71346754813488,1.71474024241899,1.71147716910409,1.71044370306887,1.71354410117453,1.71006093787064,1.71119009520541,1.71224269950055,1.70906574835524,1.71049154871865,1.81083344543454,1.80813495078703,1.71235752906001,1.88816158460689,1.70957291224289,1.71021404394993,1.75819366154801,1.75704536595332,1.75889220803478,1.7578300346097,1.75772477418018,1.75670087727492,1.70780262320108,1.70718062975396,1.70760167147201,1.70780262320108,1.70923799269444,1.71169725909307,1.70952506659312,1.70978343310192,1.71079776087723,1.71181208865254,1.71239580557984,1.71418523288156,1.77660466758286,1.77797305316653,1.84907168873769,1.85039222867158,1.85359788720675,1.77531283503883,1.84778942532362,1.84613396584127,1.85125345036759,1.85153095513631,1.92820839347166,1.92856245128003,1.92467738451799,1.77132250784729,1.85154052426627,1.85596146230582,1.8450909306761,1.76870056623942,1.84163647476207,1.8406795617665,1.84156949085238,1.84245941993827,1.83981834007048,1.83859349143615,1.85786571916701,1.85739683179918,1.85763606004807,1.85894703085201,1.93716509911024,1.86205699808763,1.83649785197584,1.83668923457496,1.83646914458597,1.86110965422201,1.86180820070878,1.95546127558561,1.93617947872479,1.86061205946431,1.76542792379455,1.84033507308809,1.83907194793394,1.86487032229461,1.84163647476207,1.77093974264906,1.77209760737371,1.84487084068712,1.84539714283468,1.86573154399063,1.85169363034556,1.78186768905852,1.86645879786727,1.95676267725959,1.93761484821816,1.84111017261451,1.91418004895655,1.84218191516955,1.84335891815411,1.91512739282216,1.841004912185,1.91510825456225,1.91984497389034,1.84213406951977,1.91736656923181,1.91694552751376,1.91639051797632,1.91929953348287,1.91902202871415,1.91712734098291,1.91765364313048,1.91690725099393,1.84328236511446,1.91684026708424,1.91830434396747,1.91850529569654,1.84604784367167,1.93729906692962,1.84737795273552,1.84572249325318,1.93000738990334,1.8480095153126,1.92096456209517,1.92998825164343,1.93547136310807,1.95691578333889,1.94099275109253,1.93982531723793,1.85245916074202,1.85266011247109,1.85447824716268,1.85385625371556,1.8539328067552,1.92989256034387,1.92959591731525,1.9290217695179,1.94689690427522,1.94813132203952,1.95026523801965,1.93020834163241,1.9325240710817,1.94654284646686,1.94316494359249,1.93296425105967,1.94762415815186,1.94003583809696,1.85973169950838,1.8578465809071,1.86022929426608,1.93394030231515,1.92836149955095,1.94090662892293,1.94120327195156,1.93183509372489,1.93006480468308,1.94080136849342,1.93260062412135,1.86028670904581,1.93770097038776,1.94127025586125,1.93733734344944,1.93948082855953,1.93709811520055,1.92963419383507,1.85997092775727,1.85998049688723,1.85949247125949,1.85961686994891
1.81481420349613,1.72134294208846,1.72311323113027,1.72209890335496,1.72008938606425,1.72194579727567,1.72034775257306,1.71991714172505,1.71951523826691,1.71836694267222,1.71611819713262,1.71847220310173,1.71829995876253,1.71798417747399,1.719496100007,1.81137888584202,1.71632871799165,1.7183286661524,1.71492205588815,1.76239450959858,1.76153328790257,1.71613733539253,1.81448885307764,1.71289340033754,1.7155823258551,1.71210873168117,1.71285512381771,1.70995567744112,1.88728122465096,1.71299866076705,1.71251063513931,1.7603371466581,1.79718786611766,1.7119077799521,1.71218528472081,1.71202260951156,1.71113268042568,1.71076905348736,1.75831806023744,1.71030016611953,1.88802761678751,1.88458273000344,1.71025232046975,1.70963989615258,1.75964816930129,1.81798158551148,1.71230968341024,1.71251063513931,1.71436704635072,1.71682631274935,1.92771079871396,1.77907350311144,1.85456436933228,1.85015300042268,1.84999989434339,1.77768597926786,1.85404763631467,1.84745450577517,1.85437298673317,1.84913867264738,1.85463135324197,1.85333952069795,1.84529188240517,1.85795184133661,1.84432540027964,1.84533972805495,1.84571292412322,1.84396177334132,1.76855702929008,1.8572628639798,1.84130155521362,1.84258381862769,1.85604758447542,1.83748347236128,1.83872745925553,1.84104318870482,1.8378470992996,1.8378470992996,1.83924419227314,1.83846909274672,1.76660492677911,1.76332271520429,1.83792365233925,1.93454315750236,1.83707199977319,1.83822029536788,1.83879444316522,1.84062214698677,1.93795933689656,1.83922505401323,1.83759830192075,1.76997326052353,1.76961920271517,1.84350245510344,1.84571292412322,1.95234173922004,1.77777210143746,1.77872901443303,1.86501385924395,1.86395168581886,1.95709759680804,1.97392969640019,1.80295805148097,1.91830434396747,1.91951005434189,1.92498359667658,1.91567283322964,1.91519437673186,1.93421780708387,1.9178450257296,1.9170220805534,1.84250726558805,1.84253597297791,1.84304313686557,1.84219148429951,1.91963445303132,1.91849572656659,1.92321330763477,1.84406703377083,1.92409366759069,1.91771105791021,1.92463910799817,1.92393099238145,1.92204587378017,1.94339460271142,1.91480204240367,1.920352137778,1.9342752218636,1.84870806179937,1.93150017417644,1.94307882142288,1.93279200672046,1.9441122874581,1.92783519740339,1.92693569918755,1.95405461348212,1.94228458363656,1.94075352284364,1.94044731068506,1.92749070872498,1.93058153770069,1.92904090777781,1.94546153478186,1.93066765987029,1.95014083933022,1.9303614477117,1.93297382018962,1.93288769802002,1.93095473376896,1.93205518371387,1.93735648170935,1.9364378452336,1.93415082317418,1.93821770340537,1.8594254873498,1.94120327195156,1.96304002651056,1.94683948949549,1.94357641618058,1.93367236667639,1.93254320934161,1.93339486190767,1.93405513187462,1.94140422368063,1.95443737868035,1.95397806044247,1.85871737173307,1.86048766077488,1.93423694534378,1.94529885957262,1.94363383096032,1.93295468192971,1.86369331931006,1.8612627603013,1.86396125494882,1.86105223944227
1.72335245937916,1.72376393196726,1.72322806068974,1.72409885151571,1.72239554638359,1.82040257539029,1.82171354619422,1.72153432468757,1.72129509643868,1.7212472507889,1.71676889796961,1.81668975296746,1.81778063378241,1.7189123830797,1.71902721263917,1.71814685268324,1.89012325624781,1.81763709683308,1.71822340572288,1.76484420686725,1.88865917936459,1.7172473544674,1.7169220040489,1.71706554099824,1.71591724540355,1.71622345756213,1.78914022782488,1.80935979942136,1.71250106600935,1.71263503382873,1.87420022400146,1.76114095357438,1.76106440053474,1.76097827836513,1.76125578313385,1.75987782842022,1.71271158686838,1.71370677638377,1.76147587312283,1.71453929068992,1.71194605647192,1.71469239676922,1.81420177917897,1.713658930734,1.715170853267,1.89064955839538,1.71537180499607,1.71676889796961,1.71572586280444,1.77905436485153,1.92566300490344,1.92766295306419,1.85719588007011,1.85076542473985,1.85430600282348,1.77670992801237,1.85474618280144,1.77632716281414,1.85447824716268,1.92825623912144,1.85456436933228,1.85643991880361,1.85540645276839,1.84588516846242,1.85674613096219,1.84856452485003,1.84171302780172,1.84156949085238,1.84233502124884,1.84124414043389,1.84304313686557,1.84326322685455,1.84132069347354,1.84096663566517,1.7680115888826,1.86425789797745,1.8387561666454,1.86188475374842,1.84099534305504,1.86137758986077,1.9396817802886,1.76498774381659,1.76504515859632,1.83814374232823,1.84125370956385,1.83876573577535,1.83985661659031,1.84098577392508,1.76598293333199,1.95082024755708,1.86884151122625,1.84155035259247,1.84363642292282,1.77266218604109,1.84720570839632,1.84712915535667,1.84827745095136,1.86778890693111,1.86721475913377,1.78494894890427,1.94732751512323,1.95632249728163,1.95953772494676,1.94885857591615,1.84363642292282,1.84356943901313,1.91750053705119,1.9167637140446,1.91729001619216,1.91817037614809,1.9195961765115,1.91847658830667,1.84214363864973,1.84474644199769,1.84412444855057,1.91688811273402,1.92148129511278,1.91886892263486,1.92296451025592,1.93076335116985,1.92795002696286,1.84555024891397,1.937433034749,1.92022773908857,1.91737613836176,1.91722303228247,1.84747364403508,1.92372047152242,1.92055308950707,1.92079231775596,1.92085930166565,1.9248496288572,1.85273666551073,1.85144483296671,1.9347728166213,1.85447824716268,1.93718423737015,1.94433237744709,1.93050498466104,1.93797847515647,1.9441122874581,1.94086835240311,1.93054326118086,1.85758821439829,1.94711699426421,1.92963419383507,1.93283028324029,1.95271493528831,1.93113654723812,1.94141379281059,1.9431840818524,1.93363409015657,1.94183483452864,1.93869615990315,1.92778735175361,1.93478238575126,1.94837055028841,1.86019101774626,1.96651362068449,1.94565291738098,1.94223673798678,1.94109801152205,1.94158603714979,1.93385418014555,1.94083964501324,1.86175078592904,1.93336615451781,1.93165328025573,1.93675362652214,1.93452401924245,1.93306951148918,1.93206475284383,1.93459100315214,1.93362452102661,1.86252588545546,1.86087042597311
1.72522800885049,1.72829969956628,1.72557249752889,1.72636673531522,1.72573517273814,1.89394133910015,1.7237543628373,1.7238404850069,1.72292184853115,1.72247209942323,1.7239935910862,1.76966704836495,1.7710832795984,1.81333098835299,1.7208357782008,1.72163001598713,1.72125681991885,1.80789572253813,1.81885237633746,1.71805116138368,1.80618284827605,1.71978317390567,1.76494946729677,1.71803202312377,1.89469730036666,1.8181729681106,1.71342927161506,1.80335995493911,1.71725692359735,1.71634785625156,1.71580241584408,1.71489334849829,1.81787632508197,1.71359194682431,1.88345357266866,1.71370677638377,1.71548663455554,1.71586939975377,1.71337185683532,1.71298909163709,1.82128293534621,1.7158406923639,1.71511343848727,1.71559189498506,1.71524740630665,1.79569508184456,1.71577370845421,1.71545792716567,1.71860617092111,1.71961092956647,1.85242088422219,1.92857202040998,1.92912702994741,1.84997118695353,1.85462178411201,1.84973195870463,1.85490885801069,1.8517701833852,1.85148310948653,1.77544680285821,1.93395944057506,1.95312640787641,1.84685165058795,1.94016980591634,1.93241881065219,1.94139465455067,1.85754993787847,1.84664112972893,1.94152862237005,1.84616267323114,1.76891108709844,1.76836564669097,1.8626885606647,1.84378952900212,1.84422013985012,1.86433445101709,1.84116758739424,1.84029679656827,1.84036378047796,1.95483928213849,1.83780882277978,1.76511214250601,1.8396843722511,1.86507127402368,1.86702337653466,1.83660311240536,1.86680328654567,1.86690854697519,1.8688510803562,1.86797072040027,1.86741571086284,1.84437324592942,1.84379909813207,1.84546412674437,1.84777985619366,1.86845874602802,1.86915729251479,1.94795907770031,1.78188682731843,1.78584844712011,1.95084895494695,1.94669595254615,1.9379306295067,1.91864883264588,1.93106956332843,1.92681130049812,1.9205243821172,1.92854331302011,1.93467712532174,1.92798830348268,1.9186009869961,1.91640008710628,1.84495696285672,1.84764588837428,1.91440970807548,1.84456462852853,1.92332813719424,1.92113680643437,1.92037127603791,1.91820865266791,1.91947177782207,1.84693777275756,1.92989256034387,1.91964402216127,1.91880193872517,1.92437117235941,1.92753855437476,1.92811270217211,1.92763424567432,1.9369354399913,1.9325240710817,1.9348589387909,1.92382573195193,1.93657181305298,1.85275580377065,1.93609335655519,1.93794976776661,1.94075352284364,1.94098318196258,1.9341029775244,1.93758614082829,1.93479195488121,1.94241855145594,1.93180638633502,1.9312705150575,1.94378693703961,1.94626534169815,1.94044731068506,1.93679190304196,1.94673422906598,1.94729880773337,1.93718423737015,1.9457773160704,1.94520316827306,1.93600723438559,1.94643758603735,1.94186354191851,1.8605067990348,1.86110965422201,1.9419305258282,1.94100232022249,1.86106180857223,1.86007618818679,1.93389245666537,1.95674353899968,1.93388288753542,1.94545196565191,1.94592085301974,1.96114533877932,1.93692587086134,1.94564334825102,1.93433263664334,1.93478238575126,1.86070775076387,1.93666750435254,1.86038240034537
1.77588698283618,1.7287494486742,1.72573517273814,1.72723752614119,1.82070878754887,1.72517059407075,1.77452816638246,1.81427833221861,1.72478782887252,1.81962747586387,1.81690984295644,1.7250079188615,1.72497921147164,1.8152543834741,1.72189795162589,1.72302710896067,1.724251957595,1.72472084496283,1.89190311441958,1.72114199035938,1.72193622814571,1.72047215126248,1.82101499970745,1.82130207360613,1.72044344387262,1.71835737354226,1.71963006782638,1.71913247306868,1.71935256305766,1.81707251816569,1.71547706542559,1.71654880798063,1.71862530918103,1.71799374660395,1.71676889796961,1.71839565006209,1.71881669178014,1.7189985052493,1.81706294903573,1.71587896888373,1.715170853267,1.71553448020532,1.81667061470755,1.96392995559644,1.8108430145645,1.71826168224271,1.71918988784841,1.71965877521625,1.72011809345412,1.71898893611934,1.78203993339772,1.85507153321994,1.8542581571737,1.8545165236825,1.8549279962706,1.85763606004807,1.93363409015657,1.93272502281077,1.85354047242702,1.85044007432136,1.94720311643381,1.84823917443154,1.84881332222888,1.84749278229499,1.84690906536769,1.84741622925534,1.86110008509205,1.77149475218649,1.8450048085065,1.84445936809902,1.84422970898008,1.94769114206155,1.86376030321975,1.84716743187649,1.94075352284364,1.76741830282535,1.76645182069982,1.83858392230619,1.83976092529075,1.83867004447579,1.8368519097842,1.95387280001296,1.86820037951921,1.8681812412593,1.83794279059916,1.86874581992669,1.83880401229518,1.86796115127032,1.84238286689862,1.76864315145968,1.86771235389147,1.8444210915792,1.84492825546685,1.84545455761442,1.87078404460726,1.84696648014742,1.87080318286717,1.8570906196406,1.85886090868241,1.85857383478374,1.86513825793337,1.8679228747505,1.80709191562185,1.84532058979503,1.94181569626873,1.91714647924283,1.92031386125818,1.91792157876924,1.93341400016759,1.84468902721796,1.92715578917653,1.9275959691545,1.84439238418933,1.84449764461884,1.84777985619366,1.92025644647844,1.9209358547053,1.92395013064136,1.84482299503734,1.9311843928879,1.93283985237024,1.92092628557534,1.91979712824057,1.93372978145613,1.93142362113679,1.92362478022286,1.92167267771189,1.93476324749134,1.84961712914516,1.85046878171122,1.92471566103782,1.92752898524481,1.92834236129104,1.93999756157714,1.94028463547581,1.85327253678826,1.92777778262365,1.93641870697369,1.92820839347166,1.93020834163241,1.95098292276633,1.8575212304886,1.85791356481679,1.93845693165426,1.93733734344944,1.93794976776661,1.86161681810966,1.93180638633502,1.93348098407728,1.94034205025554,1.93299295844953,1.93391159492528,1.9582745997926,1.86116706900174,1.93703113129086,1.86060249033435,1.93675362652214,1.94500221654399,1.94650456994704,1.94655241559682,1.86231536459643,1.94878202287651,1.93521299659927,1.94924134111438,1.93367236667639,1.95733682505694,1.94820787507916,1.86157854158984,1.86114793074183,1.93941384464984,1.93640913784373,1.93490678444068,1.93600723438559,1.93654310566311,1.93720337563006,1.93951910507935
1.73042404641645,1.98933599562894,1.72922790517199,1.72814659348699,1.72556292839894,1.72853892781517,1.72829013043632,1.72739063222048,1.72562991230863,1.98850348132279,1.97372874467112,1.77157130522614,1.72576388012801,1.72579258751788,1.96959488053024,1.72513231755093,1.72506533364124,1.72571603447823,1.72413712803553,1.72371608631748,1.7245773080135,1.81791460160179,1.71877841526032,1.71960136043651,1.71945782348717,1.71881669178014,1.81560844128246,1.71874970787045,1.8186705628683,1.71871143135063,1.71597466018328,1.81504386261507,1.71929514827793,1.7194099778374,1.71894109046956,1.8163356951591,1.81692898121635,1.82460342344086,1.71921859523828,1.81785718682206,1.71923773349819,1.82717751939895,1.71873056961054,1.71753442836607,1.72062525734177,1.71919945697837,1.72186924423602,1.72039559822284,1.72002240215456,1.93128008418746,1.93224656631299,1.86112879248192,1.93433263664334,1.86052593729471,1.85411462022436,1.93446660446272,1.85779873525732,1.93313649539887,1.85996135862732,1.86233450285634,1.84935876263636,1.93939470638992,1.8666884569862,1.86760709346196,1.84542585022455,1.86322443194223,1.84702389492716,1.77307365862919,1.8450048085065,1.84452635200871,1.77278658473052,1.84472730373778,1.84466031982809,1.84309098251535,1.93690673260143,1.841435523033,1.84146423042287,1.84178958084137,1.76649009721964,1.83938772922248,1.84054559394712,1.84138767738323,1.84025852004845,1.95220777140066,1.8406795617665,1.84106232696473,1.87048740157863,1.76863358232973,1.76871970449933,1.84194268692066,1.84391392769154,1.87130077762487,1.87109025676585,1.87073619895748,1.94628447995806,1.85406677457458,1.77927445484051,1.97414978638917,1.85807624002604,1.87089887416673,1.8701046363804,1.95021739236987,1.95006428629057,1.84627750279061,1.91957703825158,1.92058179689694,1.84586603020251,1.91973971346083,1.93304080409931,1.9219310442207,1.92195975161056,1.92101240774495,1.84463161243822,1.92039041429782,1.84664112972893,1.84454549026862,1.84513877632588,1.84438281505937,1.84663156059897,1.92008420213924,1.84739709099543,1.84695691101747,1.94054300198461,1.92472523016777,1.94103102761236,1.93763398647807,1.93148103591653,1.92764381480427,1.92399797629114,1.931595865476,1.93588283569617,1.93768183212785,1.93253364021166,1.93790192211683,1.93561490005741,1.94003583809696,1.93591154308603,1.93845693165426,1.94375822964974,1.92829451564126,1.92786390479326,1.93405513187462,1.85775088960754,1.85802839437626,1.94724139295363,1.95136568796456,1.93133749896719,1.85990394384758,1.94471514264532,1.94781554075098,1.86401866972855,1.86172207853917,1.97049437874608,1.93550007049794,1.86158811071979,1.9350981670398,1.94185397278855,1.94080136849342,1.93543308658825,1.93374891971604,1.95075326364739,1.95083938581699,1.86326270846205,1.95992049014499,1.96455194904357,1.93720337563006,1.94534670522239,1.93505032139002,1.94319365098235,1.95809278632344,1.86218139677705,1.93771053951771,1.93623689350453,1.93817942688554,1.93591154308603,1.93673448826223
1.73123742246269,1.73155320375123,1.72855806607508,1.72990731339884,1.82277571961931,1.72848151303544,1.72668251660376,1.72963937776008,1.72801262566761,1.72765856785924,1.82712967374917,1.72624233662579,1.72670165486367,1.8236847869651,1.815924222571,1.81811555333086,1.72554379013903,1.72549594448925,1.7728344303803,1.78712114140422,1.72180226032633,1.72315150765009,1.72493136582186,1.72464429192319,1.7235821184981,1.81455583698733,1.72214674900474,1.77036559485172,1.72156303207744,1.7228261572316,1.77124595480764,1.71913247306868,1.72095060776027,1.72037645996293,1.72071137951138,1.76869099710946,1.71974489738585,1.76762882368437,1.72144820251797,1.72177355293646,1.72161087772722,1.72134294208846,1.72100802254,1.72207019596509,1.71979274303563,1.72068267212151,1.96709733761179,1.72192665901576,1.72175441467655,1.7225008068131,1.93618904785475,1.93996885418727,1.86086085684316,1.86084171858325,1.86223881155678,1.94086835240311,1.85512894799967,1.94142336194054,1.85377970067591,1.77744675101896,1.860679043374,1.86223881155678,1.86243976328586,1.77541809546835,1.86457367926599,1.8659324957197,1.86283209761404,1.86413349928802,1.77160001261601,1.84544498848446,1.76984886183411,1.84572249325318,1.86734872695315,1.77051870093101,1.95122215101522,1.84210536212991,1.84223932994929,1.8427560629669,1.86579852790032,1.86767407737165,1.868678836017,1.8704299867989,1.83946428226212,1.87039171027908,1.76760011629451,1.951269996665,1.86906160121523,1.84065085437663,1.8410910343546,1.84449764461884,1.84453592113866,1.77291098341994,1.87279356189797,1.87125293197509,1.87064050765793,1.85076542473985,1.87363564533407,1.87169311195306,1.86114793074183,1.79079568730722,1.79090094773674,1.9466863834162,1.94710742513425,1.93114611636808,1.84798080792273,1.93007437381303,1.92868684996945,1.91906987436393,1.92098370035508,1.93113654723812,1.84629664105052,1.92366305674269,1.92375874804224,1.84620094975096,1.92014161691897,1.84600956715185,1.84507179241619,1.84671768276857,1.92086887079561,1.91995980344981,1.92072533384627,1.93779666168731,1.92033299951809,1.84805736096238,1.93607421829528,1.85053576562091,1.93708854607059,1.93081119681962,1.85080370125967,1.95686793768911,1.94745191381266,1.93545222484816,1.93412211578431,1.93980617897802,1.94038989590532,1.85628681272431,1.8568513913917,1.94478212655501,1.94453332917616,1.85780830438728,1.92972988513463,1.92890693995843,1.94016980591634,1.93656224392302,1.86036326208546,1.94721268556376,1.94771028032146,1.93562446918736,1.94096404370267,1.93146189765661,1.95320296091606,1.94490652524443,1.93750958778864,1.9526957970284,1.8626024384951,1.96304959564052,1.95471488344907,1.93246665630197,1.93070593639011,1.95651387988074,1.9386004686036,1.93663879696267,1.86421005232767,1.93731820518953,1.86221010416692,1.95637991206136,1.95244699964955,1.94981548891173,1.95227475531035,1.93664836609263,1.93867702164324,1.94138508542072,1.94060041676435,1.93941384464984,1.94098318196258,1.93993057766745
1.73406988492959,1.73595500353087,1.73482584619609,1.73293115846486,1.73085465726446,1.72884513997376,1.98368063982509,1.73013697251778,1.82531153905758,1.73062499814552,1.73046232293628,1.72931402734159,1.72822314652663,1.72544809883947,1.72770641350902,1.7271705422315,1.72875901780415,1.81874711590794,1.77499705375029,1.72588827881743,1.7267590696434,1.72680691529318,1.72673993138349,1.72562991230863,1.72362996414788,1.72372565544743,1.72388833065668,1.82695742940997,1.82116810578674,1.81773278813263,1.81811555333086,1.7214194951281,1.72239554638359,1.81988584237268,1.72310366200031,1.82020162366121,1.72230942421399,1.82171354619422,1.72040516735279,1.71951523826691,1.72243382290341,1.76872927362928,1.72216588726465,1.72338116676903,1.81779020291237,1.89090792490418,1.80460394183336,1.77130336958738,1.87530067394637,1.78529343758267,1.8629277889136,1.86417177580784,1.86073645815373,1.85661216314281,1.943270204022,1.85537774537852,1.94412185658806,1.94323192750218,1.85495670366047,1.85320555287857,1.8553394688587,1.8511003442883,1.9386004686036,1.77749459666874,1.77495877723047,1.94014109852647,1.84915781090729,1.84758847359455,1.93969134941855,1.87062136939801,1.949107373295,1.86896590991567,1.84422970898008,1.87110939502576,1.87007592899054,1.8704299867989,1.84381823639198,1.84065085437663,1.7691790227372,1.87257347190899,1.77126509306756,1.87139646892443,1.84128241695371,1.76826995539141,1.87190363281208,1.94839925767828,1.84128241695371,1.94504049306381,1.84356943901313,1.77190622477459,1.77151389044641,1.77422195422388,1.84777985619366,1.85136827992706,1.96348020648852,1.85196156598432,1.85718631094015,1.95320296091606,1.87321460361602,1.8706022311381,1.87424806965124,1.94723182382368,1.95483928213849,1.84832529660114,1.9348589387909,1.9236821950026,1.92755769263467,1.84784684010335,1.96309744129029,1.94724139295363,1.92330899893432,1.92441901800919,1.84966497479494,1.92392142325149,1.8475980427245,1.8460191362818,1.84775114880379,1.84810520661216,1.92460083147835,1.92931841254653,1.84765545750424,1.93706940781068,1.92659121050914,1.92029472299826,1.84896642830817,1.85167449208565,1.9472701003435,1.94063869328417,1.93011265033286,1.8509280999491,1.85147354035658,1.95009299368044,1.9536909865438,1.92755769263467,1.92740458655538,1.85536817624856,1.93096430289892,1.85761692178816,1.94153819150001,1.93170112590551,1.93031360206193,1.92913659907737,1.93808373558599,1.94531799783253,1.94474385003518,1.94374866051979,1.95108818319584,1.95809278632344,1.93605508003537,1.93541394832834,1.86118620726165,1.94956669153288,1.93707897694063,1.94509790784355,1.95149965578394,1.86362633540037,1.86305218760302,1.86221010416692,1.8626885606647,1.96353762126826,1.93716509911024,1.94401659615855,1.94938487806372,1.94455246743607,1.9431840818524,1.94358598531054,1.93847606991417,1.94797821596022,1.94791123205053,1.93661965870276,1.93788278385692,1.86376030321975,1.94263864144492,1.93784450733709,1.93907892510138,1.94124154847138
2.0002830802983,1.7834274572413,1.73490239923574,1.73562965311238,1.73446221925778,2.00679008866821,1.73267279195605,1.73029007859707,1.73326607801331,1.82813443239452,1.7294192877711,1.73151492723141,1.72830926869623,2.00137396111326,1.73124699159265,1.73174458635035,1.99635016788649,1.72937144212132,1.72901738431296,1.72962023950017,1.7315819111411,1.72768727524911,1.8108430145645,1.72704614354208,1.7275820148196,1.84199053257044,1.72530456189013,1.72762986046938,1.72635716618526,1.72828056130637,1.72629018227557,1.7735042694772,1.77331288687808,1.77469084159171,1.77168613478561,1.83829684840752,1.83931117618283,1.77244209605211,1.77332245600804,1.77303538210937,1.72261563637257,1.7220032120554,1.72526628537031,1.72519930146062,1.80484317008225,1.805761806558,1.72478782887252,1.774843947671,1.77472911811153,1.86428660536731,1.78645130230732,1.86344452193121,1.8584302978344,1.86429617449727,1.86417177580784,1.85547343667808,1.85490885801069,1.85485144323095,1.77872901443303,1.85180845990503,1.86739657260293,1.86754010955227,1.85066973344029,1.8528514950702,1.85027739911211,1.85002860173326,1.84863150875972,1.86966445640244,1.77325547209835,1.84753105881481,1.86706165305448,1.86925298381434,1.84589473759238,1.8466028532091,1.84323451946468,1.87224812149049,1.76854746016013,1.86866926688704,1.87372176750367,1.87106154937598,1.7689206562284,1.87170268108301,1.87261174842881,1.84290916904619,1.84422013985012,1.84387565117172,1.84469859634791,1.84507179241619,1.87477437179881,1.84695691101747,1.84738752186547,1.8750136000477,1.84784684010335,1.87411410183186,1.85138741818697,1.87614275738248,1.78341788811135,1.85714803442033,1.95391107653278,1.8614350046405,1.87229596714027,1.98950823996814,1.81111095020326,1.95082024755708,1.94039946503528,1.9404377415551,1.94517446088319,1.92351951979335,1.92328029154446,1.92209371942994,1.94317451272244,1.8507558556099,1.84902384308791,1.84705260231702,1.84729183056592,1.84735881447561,1.84780856358353,1.9234429667537,1.92418935889025,1.94101188935244,1.94331804967178,1.92272528200702,1.94507876958363,1.84998075608348,1.93823684166528,1.85139698731693,1.85127258862751,1.93651439827325,1.95318382265615,1.9371938065001,1.94731794599328,1.95069584886765,1.96170034831676,1.93157672721608,1.93102171767865,1.9287634030091,1.85748295396878,1.85830589914498,1.8572628639798,1.93363409015657,1.93365322841648,1.95679138464946,1.93200733806409,1.86049722990484,1.8608512877132,1.95634163554154,1.94633232560784,1.9375191569186,1.93445703533276,1.95446608607022,1.95698276724858,1.86427703623736,1.93705983868072,1.86408565363824,1.86457367926599,1.93661965870276,1.93880142033267,1.93817942688554,1.94005497635687,1.95723156462742,1.86410479189815,1.95502109560765,1.94336589532156,1.94665767602633,1.93680147217192,1.93811244297585,1.94174871235904,1.95609283816269,1.93629430828426,1.94650456994704,1.95870521064061,1.94080136849342,1.94116499543174,1.94521273740301,1.94355727792067,1.94500221654399
1.73897884859689,1.73519904226437,1.73495981401547,1.98348925722598,1.98637913447261,1.73570620615202,1.73679708696698,1.99306795631167,1.73427083665866,1.73487369184587,1.73361056669172,1.73305555715428,1.73260580804636,1.73139052854198,1.7335914284318,1.73261537717632,1.90389323425412,1.73227088849791,1.98014006174147,1.72815616261694,1.72856763520504,1.73109388551336,1.73162975679088,1.72618492184606,1.72923747430194,1.73170630983052,1.97263786385617,1.88111870495946,1.77571473849698,1.77603051978551,1.8173500229344,1.8183452124498,1.72741933961035,1.72736192483062,1.77482480941109,1.82155087098497,1.72636673531522,1.72785951958832,1.72548637535929,1.72669208573371,1.89556809119263,1.81989541150263,1.72800305653765,1.72645285748482,1.77373392859614,1.77509274504985,1.72903652257287,1.89179785399007,1.72715140397159,1.93986359375776,1.86551145400165,1.86654492003687,1.86499472098404,1.78452790718621,1.8567652692221,1.8594254873498,1.78434609371705,1.85706191225073,1.85870780260312,1.85576051057675,1.85744467744896,1.86822908690908,1.78070982433387,1.85096637646892,1.77809745185595,1.86915729251479,1.87074576808744,1.84788511662317,1.87029601897952,1.94409314919819,1.84731096882583,1.87389401184288,1.84609568932145,1.84436367679946,1.84445936809902,1.87310934318651,1.84664112972893,1.84440195331928,1.84415315594043,1.76955221880548,1.84644017799986,1.84294744556601,1.84280390861667,1.76988713835393,1.84504308502632,1.76951394228566,1.87406625618208,1.84400004986114,1.84555981804393,1.84389478943163,1.8475119205549,1.87723363819743,1.85057404214074,1.85057404214074,1.78130311039113,1.87712837776792,1.78226959251666,1.88054455716212,1.87642026215119,1.79361858064417,1.95114559797557,1.95054274278836,1.9794415152547,1.92575869620299,1.92653379572941,1.9435285705308,1.92213199594977,1.94710742513425,1.92632327487038,1.92381616282198,1.92358650370304,1.93039972423153,1.92546205317437,1.84947359219583,1.84882289135884,1.84805736096238,1.92328029154446,1.92406496020083,1.92470609190786,1.84922479481698,1.92506971884618,1.93666750435254,1.93542351745829,1.93331830886803,1.93700242390099,1.94760501989195,1.85233476205259,1.93887797337231,1.9406099858943,1.8541720350041,1.92151000250264,1.85803796350621,1.85538731450847,1.93893538815205,1.94471514264532,1.93253364021166,1.93170112590551,1.95970996928596,1.93228484283281,1.95816933936309,1.86113836161187,1.93378719623586,1.86319572455236,1.94838968854832,1.95609283816269,1.9582745997926,1.93364365928652,1.95724113375738,1.9627720908718,1.93687802521156,1.86379857973957,1.96245630958326,1.9379306295067,1.94410271832815,1.95700190550849,1.93920332379081,1.93415082317418,1.95370055567376,1.94787295553071,1.86596120310957,1.94431323918717,1.95258096746893,1.95088723146677,1.95863822673092,1.86486075316466,1.93680147217192,1.86484161490475,1.86573154399063,1.94885857591615,1.86407608450829,1.94050472546479,1.94337546445151,1.9451935991431,1.94485867959465,1.86444928057656,1.94449505265633
2.00439780617927,1.74128500891622,1.73944773596472,1.738088919511,1.73844297731936,1.78632690361789,1.81905332806653,1.73529473356393,1.73723726694494,1.73814633429074,1.82765597589674,1.82899565409054,1.73532344095379,1.73246227109703,1.98337442766651,1.7332469397534,1.7356679296322,1.83245967913452,1.73312254106397,1.73340961496265,1.73131397550234,1.72867289563455,1.72894083127331,1.73083551900455,1.73144794332172,1.81823995202029,1.73039533902659,1.72951497907066,1.72884513997376,1.72889298562354,1.82406755216333,1.72839539086584,1.8255890438263,1.72605095402668,1.72596483185708,1.72802219479756,1.77634630107405,1.72592655533726,1.82732105634829,1.72808917870725,1.82488092820957,1.72995515904862,1.72915135213234,1.72940971864115,1.89372124911117,1.8913576740121,1.89143422705175,1.89046774492622,1.89681207808688,1.86362633540037,1.86747312564257,1.86716691348399,1.86092784075285,1.8658463735501,1.85944462560971,1.85958816255904,1.85762649091812,1.85688009878157,1.85762649091812,1.85569352666706,1.96363331256782,1.94354770879072,1.85445910890277,1.85468876802171,1.86956876510288,1.8710137037262,1.8522677781429,1.87272657798828,1.85179889077507,1.8522677781429,1.84930134785662,1.8464306088699,1.84555024891397,1.84554067978402,1.87512842960717,1.9604372231626,1.87713794689787,1.87718579254765,1.84244028167836,1.9503609293192,1.87727191471725,1.84536843544481,1.87690828777894,1.77112155611822,1.77126509306756,1.84332064163429,1.84475601112765,1.95122215101522,1.77265261691114,1.77448032073268,1.85072714822003,1.85063145692047,1.85010515477291,1.85072714822003,1.85662173227276,1.85791356481679,1.87906134201898,1.78479584282497,1.86525308749284,1.86546360835187,1.96033196273308,2.00033092594808,1.95045662061876,1.92550032969419,1.94690647340518,1.92672517832852,1.94336589532156,1.92729932612587,1.92647638094967,1.92481135233737,1.85155009339622,1.92929927428662,1.85082283951959,1.84906211960773,1.84903341221786,1.84969368218481,1.92745243220516,1.92772036784392,1.92991169860378,1.92514627188583,1.93327046321825,1.85121517384777,1.92471566103782,1.93595938873581,1.85225820901295,1.9410214584824,1.93197863067422,1.85421031152392,1.85594232404591,1.85463135324197,1.95034179105929,1.85565525014724,1.94640887864748,1.85817193132559,1.94305011403302,1.93939470638992,1.85845900522427,1.9530211474469,1.95169103838305,1.93350969146714,1.95041834409894,1.94885857591615,1.93531825702878,1.93469626358165,1.93612206394506,1.86293735804355,1.95215992575088,1.93657181305298,1.96365245082773,1.93787321472696,1.86403780798846,1.93750958778864,1.93682061043183,1.95084895494695,1.96065731315158,1.95364314089402,1.95379624697331,1.93716509911024,1.93822727253532,1.94933703241394,1.9456911939008,1.94471514264532,1.95128913492491,1.94713613252412,1.9598535062353,1.94828442811881,1.86770278476151,1.86574111312059,1.94757631250208,1.93861003773355,1.93925116944059,1.93823684166528,1.86581766616023,1.94512661523341,1.94015066765643,1.94590171475983
1.74228976756157,1.79050861340855,1.79052775166846,1.79089137860678,2.00623507913077,1.7396678259537,1.73830900949998,1.73904583250658,1.83554093898027,1.83255537043408,1.73873005121804,1.73721812868503,1.85019127694251,1.85074628647994,1.81934997109515,1.98051325780974,1.73349573713225,1.73500765966525,1.7321656280684,1.7329215893349,1.73474929315645,1.73213692067853,1.83004825838567,1.83099560225129,1.73162975679088,1.82846935194298,1.73375410364105,1.73252925500672,1.82969420057731,1.72773512089889,1.8262588829232,1.73118000768296,1.73029007859707,1.73172544809043,1.73229002675782,1.72894083127331,1.7314957889715,1.7298307603592,1.77782951621719,1.7777625323075,1.73044318467637,1.72918005952221,1.77876729095286,1.73083551900455,1.82092887753785,1.73120871507282,1.72912264474247,1.77947540656958,1.77851849357401,1.9446098822158,1.86242062502594,1.87122422458523,1.86790373649058,1.87106154937598,1.86199001417794,1.86082258032334,1.86912858512492,1.8581049474159,1.85803796350621,1.95341348177508,1.87149216022399,1.87255433364907,1.85729157136967,1.87244907321956,1.87341555534509,1.87378875141336,1.85073671734998,1.8735208157746,1.94837055028841,1.8473396762157,1.84975109696454,1.87571214653447,1.85139698731693,1.84832529660114,1.84435410766951,1.77308322775915,1.84499523937654,1.87820968945292,1.84609568932145,1.84533015892499,1.87975031937579,1.84381823639198,1.77082491308959,1.8450048085065,1.87687958038907,1.84413401768052,1.95309770048655,1.96451367252374,1.88153017754756,1.84725355404609,1.84763631924432,1.8801809302238,1.85114818993808,1.85416246587414,1.85398065240498,1.9568487994292,1.95372926306362,1.88099430627004,1.87889866680973,1.79404919149218,1.96378641864711,1.95604499251291,1.81457497524724,1.8536744402464,1.92682086962808,1.92684000788799,1.85426772630365,1.92729932612587,1.92825623912144,1.94655241559682,1.94537541261226,1.85067930257025,1.85189458207463,1.85155966252618,1.85165535382574,1.85433471021334,1.85424858804374,1.93248579456188,1.92773950610383,1.93942341377979,1.85150224774644,1.94180612713877,1.92688785353777,1.92798830348268,1.92694526831751,1.92749070872498,1.94714570165407,1.95758562243579,1.93883012772254,1.95072455625752,1.94067696980399,1.93921289292076,1.85782744264719,1.92184492205109,1.94325106576209,1.94255251927532,1.94094490544275,1.86039196947533,1.94676293645584,1.94982505804168,1.86265028414488,1.9730206290544,1.95567179644464,1.94580602346027,1.86429617449727,1.9386865907732,1.86339667628143,1.95764303721552,1.93713639172037,1.93807416645603,1.93844736252431,1.96037023925291,1.86457367926599,1.95922194365822,1.95460962301955,1.94818873681925,1.95105947580597,1.95134654970464,1.86737743434302,1.96097309444012,1.94662896863646,1.86611430918886,1.93927987683046,1.95071498712757,1.94033248112559,1.93955738159917,1.94087792153306,1.86528179488271,1.96153767310751,1.86598034136948,1.95509764864729,1.94729880773337,1.94350943227089,1.94438022309686,1.94405487267837,1.94461945134576
1.74566767043595,1.74410790225316,1.74593560607471,1.7429117610087,1.79070956513762,1.74338064837653,1.74117974848671,1.74260554885011,1.83934945270265,1.84001929179955,1.8373495045419,1.74173475802414,1.7398400702929,1.78647044056723,1.78718812531391,1.8238378930444,1.73659613523791,1.73840470079954,1.73775399996255,1.83420126078646,1.73280675977543,1.7340890231895,1.73471101663663,1.73532344095379,1.82398142999373,1.73182113938999,1.73516076574455,1.73194553807942,1.73150535810145,1.83415341513669,1.72968722340986,1.73159148027105,1.82804831022492,1.82828753847382,1.72882600171385,1.73142880506181,1.73298857324459,1.72956282472044,1.72914178300238,1.77854720096387,1.77985817176781,1.77987731002772,1.81355107834198,1.81383815224065,1.73251968587676,1.90190285522333,1.7346727401168,1.90141482959559,1.97807312967103,1.87144431457421,1.86481290751488,1.94606438996908,1.86141586638059,1.86365504279023,1.8730232210169,1.87331986404553,1.78706372662448,1.86028670904581,1.87387487358297,1.7849202415144,1.85768390569785,1.85498541105033,1.85578921796662,1.85738726266922,1.85550214406794,1.78067154781405,1.87412367096181,1.85066973344029,1.77581042979653,1.8538466845856,1.87870728421061,1.9521120801011,1.84944488480596,1.77504489940007,1.84733010708574,1.77344685469746,1.84747364403508,1.77258563300145,1.97043696396635,1.85068887170021,1.8506027495306,1.84549283413424,1.84562680195362,1.8461722423611,1.77337030165782,1.88330046658937,1.84891858265839,1.88170242188676,1.77581042979653,1.84808606835224,1.95658086379043,1.96396823211627,1.850516627361,1.88286028661141,1.85391366849529,1.85455480020232,1.95778657416486,1.88149190102774,1.79172389291293,1.8674252799928,1.88375978482725,1.97906831918643,1.96406392341582,1.93811244297585,1.94707871774438,1.92784476653334,1.92942367297604,1.93103128680861,1.94489695611447,1.92606490836158,1.85555955884768,1.85483230497104,1.85307158505918,1.85528205407896,1.85362659459662,1.85407634370454,1.92781605914348,1.85359788720675,1.92985428382405,1.93688759434152,1.92704095961706,1.92666776354879,1.94886814504611,1.93387331840546,1.94994945673111,1.93014135772272,1.94800692335009,1.9297777307844,1.92014161691897,1.92037127603791,1.94794950857036,1.86022929426608,1.94697345731487,1.95171974577292,1.95393978392265,1.94020808243616,1.95352831133455,1.93670578087236,1.86173164766913,1.95073412538748,1.86390384016908,1.9449352326343,1.86328184672196,1.95601628512305,1.96054248359211,1.96261898479251,1.97037954918661,1.93842822426439,1.93790192211683,1.93822727253532,1.95337520525526,1.95513592516712,1.94854279462761,1.94790166292058,1.94145206933041,1.94328934228191,1.94686819688536,1.94780597162102,1.94074395371368,1.94746148294261,1.94135637803085,1.86586551181001,1.93959565811899,1.86749226390249,1.94195923321806,1.94000713070709,1.93854305382386,1.93841865513444,1.94437065396691,1.94858107114744,1.93943298290975,1.94129896325112,1.94127025586125,1.94194009495815,1.94392090485899,1.94401659615855
1.7486628081121,1.91554843454022,1.74760063468701,1.74907428070019,1.74730399165838,1.74817478248435,1.80437428271442,1.74294046839856,1.79208751985125,1.74237588973117,1.74023240462109,1.74190700236334,1.74266296362985,1.74213666148228,1.74117974848671,1.83093818747156,1.73855780687883,1.83485196162345,1.73831857862994,1.73743821867401,1.73602198744056,1.73802193560131,1.7385003920991,1.78434609371705,1.73519904226437,1.73500765966525,1.82133078099599,1.78104474388232,1.78093948345281,1.7324239945772,1.83280416781293,1.73278762151552,1.73124699159265,1.73068241292526,1.83073723574249,1.73447178838773,1.82918703668966,1.73226131936796,1.73420385274897,1.73422299100888,1.73465360185689,1.80765649428924,1.78097775997263,1.7816763064594,1.73486412271592,1.73419428361902,1.73514162748463,1.73580189745158,1.89358728129179,1.86568369834085,1.87281270015788,1.9536909865438,1.86611430918886,1.86568369834085,1.86681285567563,1.87489877048823,1.87517627525695,1.78996317300107,1.86058335207444,1.86129146769117,1.96957574227033,1.78261408119506,1.86078430380351,1.87858288552119,1.87903263462911,1.95270536615836,1.95636077380145,1.85113862080813,1.88092732236035,1.951269996665,1.8496745439249,1.84872720005928,1.84959799088525,1.84924393307689,1.77459515029215,1.7749300698406,1.96923125359192,1.84721527752627,1.84820089791171,1.84866021614959,1.88382676873694,1.88173112927663,1.88199906491539,1.84673682102848,1.84883246048879,1.88320477528981,1.77404014075472,1.7755137867679,1.95670526247986,1.85138741818697,1.85158836991605,1.88463057565322,1.96107835486963,1.78177199775896,1.88561619603866,1.85794227220666,1.86104267031232,1.7885086652478,1.8670999295743,1.86732958869324,1.98372848547487,1.97415935551913,1.8172639007648,1.94733708425319,1.93069636726016,1.94628447995806,1.95324123743588,1.95034179105929,1.85778916612737,1.93804545906616,1.85539688363843,1.85538731450847,1.85661216314281,1.85504282583007,1.92832322303113,1.9280265800025,1.92823710086153,1.92894521647825,1.93062938335047,1.92995954425356,1.93083033507954,1.93033274032184,1.96632223808538,1.9310982707183,1.94879159200646,1.93074421290993,1.93117482375794,1.95598757773318,1.94128939412116,1.93007437381303,1.93363409015657,1.93220828979316,1.93239010326232,1.93392116405524,1.94386349007926,1.86255459284532,1.93941384464984,1.86238234850612,1.86320529368231,1.96719302891135,1.86445884970652,1.94996859499102,1.95179629881256,1.86505213576377,1.94038989590532,1.9402654972159,1.93676319565209,1.96312614868016,1.94950927675314,1.95540386080588,1.95250441442929,1.95672440073977,1.94172000496917,1.94009325287669,1.94103102761236,1.95112645971566,1.93992100853749,1.94844710332805,1.9542747034711,1.95442780955039,1.96126016833879,1.96300174999074,1.94382521355943,1.94349986314094,1.94753803598226,1.94742320642279,1.95939418799742,1.95393021479269,1.94314580533257,1.94946143110336,1.94719354730385,1.94665767602633,1.94164345192952,1.94490652524443,1.94676293645584,1.94522230653297
1.83166544134819,1.84112931087442,1.7494187693786,1.75126561146006,1.74829918117378,2.00714414647657,1.99547937706052,2.00050317028729,1.79308270936665,1.7458303456452,1.74803124553502,1.74618440345356,1.73961998030392,1.74001231463211,1.74170605063427,1.74189743323339,1.74388781226418,1.74187829497348,1.7423280440814,1.73836642427972,1.73903626337662,1.78527429932276,1.78670966881612,1.73863435991848,1.73658656610795,1.73628035394937,1.82453643953117,1.78431738632719,1.78507334759369,1.73543827051326,1.73555310007273,1.73548611616304,1.73466317098685,1.73561051485247,1.73376367277101,1.73601241831061,1.78162846080962,1.82376134000475,1.83076594313235,1.73443351186791,1.90676397324085,1.73470144750667,1.7350842127049,1.90973997265708,1.90787399231571,1.73368711973136,1.8211776749167,1.73428040578862,1.73703631521587,1.87710923950801,1.866516212647,1.86683199393554,1.79265209851864,1.7920109668116,1.79238416287988,1.95138482622447,1.86188475374842,1.87890823593969,1.88050628064229,1.88050628064229,1.86078430380351,1.88007566979429,1.85805710176613,1.95415987391163,1.78454704544612,1.97692483407634,1.88027662152336,1.85715760355029,1.85407634370454,1.88123353451893,1.88125267277884,1.85199027337419,1.85166492295569,1.8547557519314,1.8829272705211,1.84898556656808,1.77685346496171,1.775925259356,1.8493491935064,1.84760761185446,1.8866879385937,1.88412341176556,1.84774157967384,1.88587456254746,1.88708984205184,1.85044007432136,1.84907168873769,1.85021998433237,1.85024869172224,1.85290890984994,1.8511003442883,1.8529376172398,1.88408513524574,1.88448703870388,1.85608586099524,1.78814503830948,1.88464971391313,1.884678421303,1.79645104311107,1.95730811766707,1.79904427732907,1.97246561951696,1.97131732392228,1.93974876419829,1.9506001575681,1.94149991498019,1.94667681428624,1.85751166135865,1.85812408567582,1.94692561166509,1.93105999419847,1.85733941701945,1.85691837530139,1.85556912797763,1.93150974330639,1.93601680351555,1.93691630173139,1.92781605914348,1.85723415658993,1.85670785444237,1.96317399432994,1.95496368082791,1.95629378989176,1.95471488344907,1.9467725055858,1.95991092101503,1.94965281370248,1.9371938065001,1.95053317365841,1.96013101100401,1.93821770340537,1.95701147463844,1.93373935058608,1.86212398199732,1.94204535538766,1.86211441286736,1.86386556364926,1.9526957970284,1.94364340009027,1.9473562225131,1.94687776601531,1.95370055567376,1.95337520525526,1.95750906939614,1.94700216470474,1.9514422410042,1.94149991498019,1.9540163369623,1.94726053121354,1.94405487267837,1.94265777970483,1.95711673506796,1.95448522433013,1.86710949870426,1.86763580085182,1.94868633157695,1.9686953823144,1.94109801152205,1.86565499095098,1.93825597992519,1.93839951687453,1.95756648417588,1.94757631250208,1.9568487994292,1.86752097129235,1.94304054490306,1.94252381188545,1.95781528155473,1.93966264202868,1.86680328654567,1.86738700347297,1.86774106128134,1.94317451272244,1.94628447995806,1.94970065935226,1.9473562225131
1.7552559386516,1.74977282718696,1.75397367523753,1.74931350894909,1.74836616508347,1.74974411979709,1.84244028167836,1.79570465097452,1.79537930055602,1.79549413011549,1.79444152582036,1.79519748708686,1.79926436731805,1.74378255183467,1.85788485742692,1.74354332358577,1.74443325267166,1.74330409533688,1.74139026934573,1.74027068114091,1.85639207315383,1.78810676178966,1.73939032118498,1.79813520998328,1.79877634169031,1.78715941792404,1.73942859770481,1.73630906133923,1.73713200651543,1.73296943498468,1.73627078481941,1.73681622522689,1.73586888136127,1.83224915827549,1.91014187611522,1.82223984834179,1.83249795565434,1.73337133844282,1.73524688791415,1.73437609708817,1.73387850233048,1.73494067575556,1.91131887909978,1.91191216515704,1.73651958219826,1.73739037302423,1.73794538256167,1.7383281477599,1.78588672363993,1.8718557871623,1.95483928213849,1.86791330562054,1.95446608607022,1.95758562243579,1.79215450376094,1.88046800412247,1.956025854253,1.88066895585154,1.86197087591802,1.86272683718453,1.86068861250395,1.85916712084099,1.78466187500559,1.95802580241375,1.97638896279882,1.85695665182122,1.85553085145781,1.88087947671057,1.85389453023538,1.8542581571737,1.85483230497104,1.85296632462967,1.77801132968635,1.88647741773468,1.88764485158928,1.88695587423246,1.88637215730516,1.84901427395795,1.77506403765998,1.77523628199919,1.77477696376131,1.88516644693074,1.88483152738229,1.77517886721945,1.85031567563193,1.84938747002622,1.88641043382499,1.84772244141393,1.7776764101379,1.78060456390436,1.85744467744896,1.85736812440931,1.88695587423246,1.78424083328754,1.78787710267072,1.88730993204083,1.79123586728519,1.86729131217342,1.79714958959783,1.88561619603866,1.97317373513369,1.97364262250152,1.81955092282422,1.93340443103763,1.94738492990297,1.93376805797595,1.94926047937429,1.93481109314112,1.93465798706183,1.95242786138964,1.86003791166696,1.86065990511409,1.93670578087236,1.9375191569186,1.85758821439829,1.94186354191851,1.93656224392302,1.93630387741422,1.93162457286586,1.85956902429913,1.93348098407728,1.93335658538785,1.93207432197378,1.95078197103726,1.85925324301059,1.93372021232617,1.93184466285484,1.96480074642242,1.96424573688498,1.953863230883,1.93458143402219,1.934189099694,1.93311735713896,1.86347322932108,1.95356658785438,1.93188293937467,1.95520290907681,1.93682061043183,1.93664836609263,1.94697345731487,1.8642674671074,1.86487032229461,1.94699259557478,1.96062860576171,1.86815253386943,1.95387280001296,1.86544447009196,1.95457134649973,1.94769114206155,1.94518403001315,1.951269996665,1.95890616236968,1.95342305090504,1.96321227084976,1.94216018494713,1.86693725436505,1.95350917307464,1.94161474453966,1.94854279462761,1.95048532800863,1.94972936674212,1.94749019033248,1.93814115036572,1.95586317904375,1.86782718345094,1.96399693950613,1.94412185658806,1.95287761049756,1.86732001956328,1.94173914322908,1.96005445796437,1.94148077672028,1.94780597162102,1.95029394540951,1.9441122874581,1.94523187566293
1.7527488266032,1.75481575867364,1.75656690945554,1.75337082005032,1.7529210709424,2.00196724717051,2.0155267043178,1.74960058284776,1.7512560423301,1.75135173362966,1.79688165395907,1.91028541306456,1.7953410240362,1.74848099464294,1.84427755462986,1.74482558699984,1.74244287364086,1.74388781226418,1.84412444855057,1.84428712375981,1.84412444855057,1.74457678962099,1.84164604389203,1.74013671332153,1.74194527888317,1.74125630152635,1.84178958084137,1.73882574251759,1.8311008626808,1.73885444990746,1.83059369879315,1.83132095266979,1.91750053705119,1.73503636705512,1.83490937640319,1.82181880662374,1.82396229173382,1.73661527349782,1.73689277826653,1.73548611616304,1.91067774739275,1.91111792737071,1.73553396181282,1.91002704655575,1.73900755598675,1.73668225740751,1.78580060147033,1.78581017060028,1.78593456928971,1.86932953685399,1.86961661075266,1.87030558810947,1.86925298381434,1.86758795520204,1.86790373649058,1.8802670523934,1.88188423535592,1.88209475621495,1.9561980985922,1.86432488188714,1.97691526494638,1.861760355059,1.86171250940922,1.85811451654586,1.85759778352825,1.88259235097265,1.85817193132559,1.8841808265453,1.85669828531241,1.85713846529037,1.85424858804374,1.88670707685361,1.85397108327502,1.7805088726048,1.85052619649096,1.85065059518038,1.85097594559888,1.85703320486086,1.88888883848352,1.89005627233812,1.88729079378091,1.84995204869361,1.84898556656808,1.89035291536675,1.88761614419941,1.77720752277007,1.85314813809883,1.96297304260087,1.85181802903498,1.88877400892405,1.78127440300126,1.85695665182122,1.85939677995993,1.8593393651802,1.86022929426608,1.8615211268101,1.79339849065518,1.86834391646855,1.87048740157863,1.87149216022399,1.80424988402499,1.97037954918661,1.96842744667564,1.95089680059672,1.95675310812964,1.96324097823963,1.86384642538935,1.9395286742093,1.95082981668703,1.94583473085014,1.86047809164493,1.93783493820714,1.93598809612568,1.94062912415421,1.94063869328417,1.86106180857223,1.94013152939652,1.93821770340537,1.93712682259041,1.8605067990348,1.93392116405524,1.93432306751338,1.93372021232617,1.93312692626891,1.95803537154371,1.96116447703923,1.94983462717164,1.95045662061876,1.86204742895767,1.86243976328586,1.95309770048655,1.94087792153306,1.93728949779966,1.93648569088338,1.9450213548039,1.86611430918886,1.95317425352619,1.86755924781218,1.94150948411014,1.94019851330621,1.94126068673129,1.94208363190749,1.94179655800882,1.86807598082979,1.95584404078384,1.86764536998178,1.94805476899987,1.86861185210731,1.86766450824169,1.95711673506796,1.95473402170898,1.96005445796437,1.95668612421995,1.9561119764226,1.95735596331685,1.9426003649251,1.94985376543155,1.94146163846036,1.95283933397774,1.86820994864917,1.94521273740301,1.86774106128134,1.94058127850444,1.96020756404366,1.96066688228154,1.94753803598226,1.94070567719386,1.95070541799761,1.96792985191794,1.93957651985908,1.94379650616956,1.94306925229293,1.94127025586125,1.86734872695315,1.94459074395589,1.94244725884581
1.8510142221187,1.75840418240704,1.75501671040271,1.75614586773749,1.80345564623867,1.75594491600841,1.75397367523753,1.85145440209666,1.75245218357457,1.80021171118367,1.75061491062307,1.79839357649208,1.79793425825421,1.79763761522558,1.75049051193364,1.74798339988524,1.84824874356149,1.74579206912537,1.84465075069813,1.84121543304402,1.74510309176856,1.74572508521568,1.79329323022567,1.79440324930054,1.84480385677742,1.84657414581924,1.99537411663101,1.92020860082866,1.91848615743663,1.8418469956211,1.78805891613988,1.74039507983034,1.83570361418952,1.73677794870707,1.78694889706502,1.78747519921258,1.78753261399232,1.73821331820043,1.78532214497254,1.82397186086378,1.7375913247533,1.73785926039206,1.91414177243672,1.73545740877317,1.90877349053155,1.91530920629132,1.73761046301321,1.98788148787566,1.74118931761666,1.87107111850593,1.8706883533077,1.8718557871623,1.87373133663363,1.88528127649021,1.88373107743738,1.88550136647919,1.88390332177658,1.87002808334076,1.86372202669992,1.79239373200983,1.8640091005986,1.86139672812068,1.86066947424404,1.86433445101709,1.8601814486163,1.78606853710909,1.88743433073025,1.85638250402387,1.85557869710759,1.78510205498356,1.88760657506945,1.8886783176245,1.855923185786,1.97056136265577,1.96959488053024,1.77907350311144,1.96250415523304,1.85402849805476,1.84815305226193,1.97128861653241,1.85099508385879,1.8510142221187,1.8875970059395,1.88975006017954,1.88996058103857,1.78007826175679,1.8516840612156,1.85379883893582,1.78158061515984,1.78188682731843,1.78257580467524,1.890515590576,1.78463316761573,1.89037205362666,1.8640952227682,1.89022851667733,1.79471903058908,1.8694347972835,1.88997971929848,1.87138689979447,1.89020937841742,1.98394857546385,1.97283881558524,1.95699233637853,1.95451393171999,1.93712682259041,1.94485867959465,1.94421754788762,1.95147094839407,1.93664836609263,1.86374116495984,1.93629430828426,1.86151155768015,1.93685888695165,1.93786364559701,1.93990187027758,1.94254295014536,1.94064826241413,1.93419866882396,1.93591154308603,1.95616939120234,1.93667707348249,1.86110008509205,1.93670578087236,1.9449352326343,1.9377775234274,1.93773924690758,1.86312874064267,1.94004540722691,1.94066740067404,1.95057145017823,1.94994945673111,1.94930832502407,1.94961453718266,1.94524144479288,1.94591128388978,1.93683974869174,1.95038006757911,1.9530211474469,1.94512661523341,1.86748269477253,1.86797072040027,1.95086809320686,1.94341374097134,1.95311683874646,1.96224578872423,1.95371969393367,1.94822701333907,1.945432827392,1.86977928596191,1.946514139077,1.94564334825102,1.95069584886765,1.96575765941799,1.86930082946412,1.94480126481492,1.86802813518001,1.9444376378766,1.86833434733859,1.96652318981445,1.94882986852628,1.95773872851508,1.96991066181878,1.95136568796456,1.95312640787641,1.94140422368063,1.98688629836027,1.96058076011193,1.94152862237005,1.95675310812964,1.94152862237005,1.94420797875766,1.94467686612549,1.94490652524443,1.94464815873563,1.86801856605005
1.76176294702151,1.85749252309874,1.75686355248417,1.75832762936739,1.85445910890277,1.75649992554585,1.75565784210974,1.92753855437476,1.75336125092036,1.7525095983543,1.75157182361864,1.75308374615165,1.75227993923537,1.75383970741815,1.74979196544687,1.74907428070019,1.74965799762749,1.74896902027068,1.74854797855263,1.84171302780172,1.74821305900418,1.74739968295794,1.74748580512754,1.74512223002847,1.74841401073325,1.74736140643812,1.74218450713206,2.01717259467019,1.74006972941184,1.74149552977525,1.74037594157042,1.74110319544706,1.83432565947589,1.7906712886178,1.79037464558917,1.73922764597574,1.78785796441081,1.78795365571037,1.74036637244047,1.79768546087536,1.73804107386122,1.91146241604912,1.83816288058814,1.73994533072242,1.74106491892724,1.7386726364383,1.92094542383526,1.7397539481233,1.74040464896029,1.97303976731431,1.88495592607171,1.87331029491558,1.88583628602764,1.87112853328567,1.88706113466198,1.87148259109403,1.96184388526609,1.86932953685399,1.88773097375888,1.86726260478355,1.8661047400589,1.79114974511559,1.78958040780284,1.88720467161131,1.86331055411183,1.8892620345518,1.85945419473966,1.89085051012445,1.85815279306568,1.85613370664502,1.88986488973901,1.8898457514791,1.86120534552156,1.78207820991754,1.85230605466273,1.97417849377904,1.85277494203056,1.8542581571737,1.85773175134763,1.78052801086471,1.85257399030149,1.8535213341671,1.89351072825215,1.89022851667733,1.85348305764728,1.85198070424423,1.85284192594025,1.85304287766932,1.96872408970427,1.89349158999223,1.8570906196406,1.89453462515741,1.86160724897971,1.86176992418895,1.79165690900324,1.89373081824113,1.86477463099506,1.86828650168881,1.79943661165726,1.80365659796774,1.97947022264457,1.98473324412022,1.82452687040121,1.94216018494713,1.86587508093997,1.96486773033211,1.93962436550886,1.95998747405468,1.96548972377923,1.86355935149068,1.9406099858943,1.93421780708387,1.86433445101709,1.93843779339435,1.8635115058409,1.86256416197528,1.86274597544444,1.86373159582988,1.94334675706164,1.93728949779966,1.93731820518953,1.95145181013416,1.93700242390099,1.86224838068674,1.9503609293192,1.93942341377979,1.865434900962,1.9475284668523,1.94680121297567,1.93900237206174,1.94698302644483,1.96408306167574,1.86620043135846,1.86754967868222,1.9596142779864,1.95022696149982,1.9540163369623,1.95449479346008,1.94959539892274,1.95035136018925,1.95367184828389,1.94747105207257,1.96600645679684,1.95311683874646,1.95529860037637,1.94878202287651,1.95170060751301,1.9497772123919,1.87057352374824,1.95718371897765,1.87154000587377,1.97383400510064,1.95996833579477,1.96081041923087,1.95352831133455,1.94297356099337,1.87052567809846,1.94373909138983,1.9428587314339,1.95661914031026,1.87121465545527,1.87065964591784,1.95575791861424,1.95696362898866,1.94357641618058,1.94305011403302,1.94361469270041,1.94356684705063,1.94358598531054,1.94293528447355,1.94653327733691,1.9437677987797,1.94325106576209,1.95042791322889,1.9461887886585,1.94691604253514
