0.330941, 0.331996, 0.00445204, 0.232659, 0.0042742, 0.545625, 0.712796, 0.311589, 0.00423046, 0.286047, 0.287654, 0.286264, 0.286619, 0.287944, 0.288489, 0.557485, 0.67556, 0.518455, 0.654789, 0.527808, 0.352306, 0.460823, 0.483795, 0.429139, 0.438737, 0.410973, 0.574714, 0.441183, 0.439636, 0.337267, 0.387784, 0.327577, 0.326928, 0.525395, 0.519151, 0.514121, 0.434912, 0.313451, 0.474013, 0.425623, 0.439191, 0.501806, 0.469013, 0.468176, 0.485689, 0.396104, 0.396263, 0.455977, 0.475673, 0.733718, 0.439719, 0.450684, 0.399107, 0.398094, 0.396768, 0.451968, 0.532252, 0.424727, 0.425663, 0.425169, 0.424033, 0.420122, 0.419063, 0.417543, 0.507431, 0.493224, 0.499481, 0.468077, 0.467292, 0.467437, 0.467142, 0.467058, 0.475041, 0.474561, 0.475654, 0.570866, 0.621814, 0.677192, 0.688017, 0.690972, 0.676831, 0.78332, 0.774008, 0.683312, 0.681121, 0.676676, 0.724737, 0.746403, 0.605343, 0.605579, 0.607181, 0.606982, 0.60475, 0.849423, 0.732508, 0.674232, 0.707525, 0.757229, 0.658975, 0.646146, 0.659271, 0.660662, 0.751094, 0.750779, 0.918775, 0.963977, 0.687096, 1.09959, 0.690191, 0.701759, 1.04054, 1.00177, 0.699411, 0.705757, 0.705709, 0.708319, 0.770763, 0.770286, 0.846556, 0.806685, 0.774577, 0.795891, 0.969538, 0.873872, 0.00398845, 0.918753, 1.14998, 0.992796, 1.18805, 1.16766, 1.32219, 1.19196, 1.17467, 1.31633, 1.13709, 1.27189, 1.28208, 1.09507, 1.09677, 1.09782, 1.09519, 1.24667, 1.24016, 1.25047, 1.12616, 1.14416, 1.14936, 1.14992, 1.23041, 1.23423, 1.14435, 1.21253, 1.09814, 1.13437, 1.13631, 1.0903, 1.05993, 1.0604, 1.06175, 1.14441, 1.20882, 1.04272, 1.04068, 1.04047, 1.0425, 1.0422, 1.04185, 1.04146, 1.07742, 1.02758, 1.02818, 1.02877, 1.10933, 1.02441, 1.02342, 1.03417, 1.05964, 1.04877, 1.0542, 1.04097, 1.04033, 1.05069, 0.974378, 0.96799, 0.967521, 0.96797, 0.967541, 0.966669, 0.966511, 0.968062, 0.968593, 0.967816, 0.991902, 0.972854, 0.972255, 0.972632, 0.974319, 0.977163, 0.984885, 0.989356, 0.99475, 1.04637, 1.07428, 1.0737, 1.00824, 1.01173, 1.01309, 1.01573, 1.04924, 1.02477, 1.14837, 1.05571, 1.08093, 1.08136, 1.0561, 1.05704, 1.0697, 1.08516, 1.07917, 1.16825, 1.17506, 1.1019, 1.243, 1.13007, 1.13625, 1.13877, 1.15182, 1.21349, 1.25424, 1.25032, 1.24432, 1.46525, 1.48171, 1.38324, 1.2055, 1.33927, 1.31313, 1.32809, 1.32446, 1.22851, 1.3008, 1.30605, 1.26508, 1.28733, 1.29969, 1.29999, 1.26243, 1.27537, 1.28134, 1.28133, 1.34788, 1.35582, 1.35834, 1.32858, 1.35691, 1.37528, 1.37754, 1.39259, 1.29287, 1.29897, 1.29696, 1.29946, 1.34518, 1.35415, 1.35469, 1.31373, 1.35797, 1.42399, 1.42323, 1.3344, 1.344, 1.34579, 1.34505, 1.35209, 1.35596, 1.36187, 1.51733, 1.37638, 1.39509, 1.43367, 1.46432, 1.49501, 1.57847, 1.57872, 1.70334, 1.55488, 1.61296, 1.72159, 1.50912, 1.57039, 1.51993, 1.68015, 1.53463, 1.52129, 1.50775, 1.62415, 1.60565, 1.58511, 1.60245, 1.59691
0.443584, 0.469344, 0.556799, 0.00444774, 0.407441, 0.00387773, 0.414756, 0.505756, 0.00365025, 0.00405032, 0.282266, 0.76619, 0.275612, 0.321058, 0.281037, 0.366092, 0.273316, 0.452113, 0.480651, 0.262211, 0.262708, 0.307593, 0.268854, 0.306614, 0.265202, 0.500889, 0.573435, 0.494014, 0.334558, 0.522062, 0.4826, 0.352051, 0.517043, 0.508619, 0.310751, 0.502725, 0.311882, 0.31116, 0.466635, 0.458904, 0.446689, 0.444015, 0.453083, 0.459422, 0.464916, 0.46727, 0.469722, 0.387907, 0.43875, 0.387647, 0.38796, 0.387776, 0.394855, 0.395225, 0.414147, 0.423221, 0.422718, 0.421611, 0.422242, 0.420819, 0.417521, 0.418048, 0.417169, 0.416487, 0.495302, 0.45659, 0.4972, 0.498698, 0.464089, 0.463989, 0.463668, 0.46259, 0.461525, 0.708312, 0.614671, 0.736412, 0.614294, 0.678692, 0.680941, 0.673503, 0.642357, 0.66644, 0.645011, 0.668294, 0.683779, 0.683799, 0.635498, 0.600897, 0.602551, 0.607195, 0.602698, 0.604455, 0.60445, 0.604295, 0.899679, 0.898734, 0.89526, 0.784798, 0.702582, 0.749747, 0.829007, 1.07773, 0.88359, 0.00418748, 1.0582, 1.08411, 0.941781, 0.866233, 0.704252, 0.698516, 0.834178, 0.705361, 0.707247, 0.704996, 0.704287, 0.706918, 0.707328, 0.71328, 0.799854, 0.852948, 0.825886, 0.842034, 0.984587, 0.986937, 0.921747, 0.91977, 0.902205, 1.13306, 0.946969, 1.02337, 1.24299, 1.22373, 1.35178, 1.31682, 1.22395, 1.10594, 1.13843, 1.2639, 1.12882, 1.25791, 1.10683, 1.23285, 1.10023, 1.11483, 1.11666, 1.14364, 1.22892, 1.24014, 1.13994, 1.12128, 1.1207, 1.22033, 1.15447, 1.06522, 1.06335, 1.064, 1.06567, 1.20488, 1.09433, 1.2176, 1.14715, 1.15699, 1.03956, 1.0408, 1.04132, 1.04231, 1.1167, 1.22321, 1.06057, 1.02933, 1.02679, 1.02657, 1.0255, 1.02599, 1.02354, 1.02659, 1.06621, 1.03015, 1.09579, 1.0371, 0.999142, 1.06549, 0.978357, 1.04732, 0.970772, 0.971554, 0.970173, 0.969326, 0.969428, 0.969734, 0.969936, 0.966119, 0.965062, 0.965549, 0.968192, 0.971306, 0.975963, 0.979195, 0.981814, 0.986803, 0.990907, 1.23647, 1.00167, 1.12684, 1.01078, 1.07478, 1.0186, 1.02051, 1.02154, 1.02543, 1.03309, 1.14311, 1.04717, 1.0483, 1.0516, 1.05724, 1.0601, 1.19199, 1.10208, 1.17108, 1.08923, 1.09871, 1.17134, 1.13688, 1.12109, 1.23607, 1.15746, 1.1502, 1.20153, 1.19859, 1.17118, 1.18095, 1.19497, 1.18493, 1.32524, 1.34275, 1.34159, 1.20736, 1.29947, 1.29123, 1.25391, 1.26315, 1.26138, 1.27129, 1.3064, 1.30127, 1.29446, 1.30285, 1.26816, 1.33474, 1.43159, 1.34384, 1.33044, 1.32984, 1.27499, 1.35466, 1.34762, 1.40485, 1.28699, 1.36213, 1.35296, 1.3987, 1.33063, 1.39216, 1.40955, 1.35801, 1.4896, 1.3808, 1.32917, 1.3311, 1.33711, 1.33886, 1.46029, 1.35916, 1.44132, 1.5443, 1.37085, 1.38179, 1.40031, 1.39903, 1.47412, 1.48908, 1.50349, 1.54825, 1.73726, 1.47772, 1.50916, 1.46343, 1.70662, 1.70452, 1.70425, 1.55252, 1.65802, 1.52089, 1.52924, 1.68245, 1.5158, 1.50529, 1.59505, 1.64457
0.190656, 0.273486, 0.00440146, 0.207569, 0.224013, 0.494859, 0.00396005, 0.442541, 0.389852, 0.379029, 0.653302, 0.75121, 0.534055, 0.268543, 0.00361291, 0.349864, 0.40549, 0.445543, 0.444375, 0.44322, 0.460221, 0.257965, 0.525011, 0.262802, 0.293743, 0.262484, 0.419337, 0.254692, 0.00436896, 0.280518, 0.286607, 0.433497, 0.514961, 0.308126, 0.309818, 0.307895, 0.450064, 0.418942, 0.435471, 0.477649, 0.467224, 0.453774, 0.47093, 0.468548, 0.466556, 0.480807, 0.478591, 0.469277, 0.385645, 0.384846, 0.384936, 0.384351, 0.517187, 0.427109, 0.432809, 0.439154, 0.420397, 0.420154, 0.420366, 0.420641, 0.418933, 0.419044, 0.415798, 0.415496, 0.499034, 0.611714, 0.470207, 0.504577, 0.504382, 0.460597, 0.461217, 0.461987, 0.461953, 0.606714, 0.814676, 0.602327, 0.679689, 0.672329, 0.66335, 0.665617, 0.670191, 0.659363, 0.665159, 0.705274, 0.649815, 0.654539, 0.656429, 0.601255, 0.636651, 0.608665, 0.610398, 0.621539, 0.656606, 0.729991, 0.700501, 0.79098, 0.902476, 0.756618, 0.797402, 0.79089, 0.833639, 0.862298, 0.862468, 0.862687, 0.905597, 1.03846, 0.790587, 1.02465, 1.0234, 0.98557, 0.839586, 0.704815, 0.70528, 0.706484, 0.71095, 0.709974, 0.711507, 0.860255, 0.945989, 0.944194, 0.816095, 0.912699, 0.895136, 0.773865, 1.05131, 0.873344, 0.864433, 0.940312, 1.01237, 1.00219, 1.01165, 1.00877, 1.05467, 1.07132, 1.24801, 1.30138, 1.28181, 1.16079, 1.09869, 1.09637, 1.13326, 1.13289, 1.10237, 1.13286, 1.10663, 1.10777, 1.23653, 1.15654, 1.15895, 1.12688, 1.15468, 1.15443, 1.22517, 1.07372, 1.16483, 1.12992, 1.06636, 1.06386, 1.10526, 1.05462, 1.05233, 1.05251, 1.0888, 1.04415, 1.04257, 1.03898, 1.1439, 1.15572, 1.02148, 1.02157, 1.02153, 1.01863, 1.01911, 1.01934, 1.02172, 1.01949, 1.05455, 1.00096, 1.00091, 1.00202, 0.998047, 1.02528, 1.07021, 1.05729, 0.980364, 0.975054, 0.975611, 1.10579, 0.983819, 1.01546, 0.969815, 0.966839, 0.969691, 0.970779, 0.971671, 0.974722, 0.973971, 0.973234, 0.974733, 1.08541, 0.9928, 0.99286, 1.13344, 1.07989, 1.01162, 1.07727, 1.01913, 1.01871, 1.02263, 1.15635, 1.03493, 1.03746, 1.04344, 1.0462, 1.05271, 1.07553, 1.0773, 1.11159, 1.07442, 1.07493, 1.1801, 1.08807, 1.10121, 1.10317, 1.14044, 1.12279, 1.25018, 1.13814, 1.16856, 1.16751, 1.16442, 1.17109, 1.20638, 1.3813, 1.18402, 1.36566, 1.35815, 1.30389, 1.25374, 1.26539, 1.27218, 1.2538, 1.25428, 1.24255, 1.25088, 1.26684, 1.31969, 1.31846, 1.30974, 1.29144, 1.30253, 1.264, 1.26419, 1.31349, 1.35723, 1.35225, 1.3163, 1.30856, 1.27534, 1.2831, 1.28409, 1.32969, 1.34394, 1.35108, 1.35195, 1.32618, 1.44352, 1.45739, 1.47119, 1.33062, 1.3378, 1.33794, 1.34298, 1.406, 1.37067, 1.58387, 1.36826, 1.37572, 1.39791, 1.39721, 1.54015, 1.50825, 1.55376, 1.46274, 1.56137, 1.4861, 1.49237, 1.48952, 1.71764, 1.68928, 1.68667, 1.48159, 1.67927, 1.48834, 1.67908, 1.57804, 1.57708, 1.52961, 1.56063, 1.52689
0.26972, 0.0038435, 0.366356, 0.00433703, 0.286546, 0.00385344, 0.256304, 0.00416318, 0.381037, 0.459973, 0.460087, 0.438902, 0.398503, 0.397364, 0.411855, 0.00415094, 0.241724, 0.00400723, 0.415094, 0.57277, 0.221723, 0.220351, 0.234557, 0.38821, 0.638651, 0.251693, 0.251893, 0.258445, 0.371089, 0.356303, 0.286835, 0.319486, 0.499588, 0.48009, 0.398394, 0.434554, 0.306361, 0.480808, 0.479523, 0.480611, 0.504858, 0.479186, 0.463613, 0.468858, 0.467843, 0.476913, 0.37494, 0.483587, 0.449569, 0.462859, 0.466282, 0.431913, 0.431382, 0.460717, 0.461385, 0.415593, 0.417285, 0.415343, 0.420134, 0.420181, 0.420692, 0.418576, 0.421203, 0.419605, 0.426347, 0.425404, 0.425094, 0.427588, 0.426889, 0.505498, 0.513617, 0.60346, 0.484875, 0.485373, 0.485293, 0.484762, 0.483622, 0.683266, 0.843247, 0.605486, 0.656478, 0.614585, 0.615803, 0.616461, 0.649541, 0.648443, 0.653758, 0.69536, 0.603947, 0.643904, 0.726587, 0.611997, 0.631564, 0.619702, 0.624339, 0.628381, 0.625053, 0.835363, 0.822967, 0.649139, 0.819116, 0.829061, 0.800758, 0.854606, 0.782421, 0.967085, 0.983797, 0.985217, 1.0164, 0.991851, 0.702244, 0.704048, 0.70497, 0.925983, 0.712086, 1.01114, 1.00929, 1.09226, 0.960685, 0.944619, 0.888744, 0.902873, 1.47948, 0.928943, 0.995479, 0.995646, 0.906317, 0.867762, 1.06325, 0.943538, 1.18176, 1.16891, 1.31928, 1.03579, 1.05342, 1.11667, 1.07479, 1.31382, 1.31531, 1.29814, 1.18034, 1.14914, 1.14992, 1.14096, 1.13981, 1.16057, 1.14872, 1.11612, 1.11752, 1.14669, 1.15706, 1.23943, 1.23099, 1.15687, 1.13334, 1.13372, 1.16904, 1.10261, 1.05592, 1.05702, 1.05898, 1.06032, 1.16822, 1.10191, 1.21228, 1.13199, 1.14288, 1.13758, 1.17812, 1.02176, 1.02519, 1.09522, 1.01929, 1.02038, 1.0216, 1.02217, 1.04489, 1.00988, 1.0103, 1.08236, 1.09028, 1.0914, 1.06624, 1.06364, 1.08209, 0.994021, 1.09486, 0.980001, 0.97972, 0.980674, 0.971763, 0.972538, 0.972387, 0.974607, 0.97594, 0.980379, 0.982338, 0.98246, 0.982599, 1.02878, 0.997181, 1.11223, 0.999896, 1.17763, 1.03254, 1.01377, 1.01688, 1.02513, 1.12229, 1.10521, 1.09376, 1.11583, 1.13352, 1.05308, 1.11617, 1.05807, 1.06001, 1.09048, 1.21693, 1.08699, 1.08662, 1.08872, 1.09589, 1.09829, 1.24706, 1.11866, 1.12945, 1.17905, 1.15725, 1.21742, 1.1641, 1.37698, 1.38001, 1.37955, 1.17648, 1.35477, 1.17824, 1.179, 1.23324, 1.23338, 1.26105, 1.21021, 1.23333, 1.23597, 1.2891, 1.28909, 1.49047, 1.36701, 1.30544, 1.25222, 1.25525, 1.25789, 1.33371, 1.34541, 1.34527, 1.33466, 1.34053, 1.34089, 1.33052, 1.34293, 1.32047, 1.29185, 1.29027, 1.3203, 1.35385, 1.33673, 1.34104, 1.34889, 1.37134, 1.3687, 1.37563, 1.37831, 1.34793, 1.37844, 1.35765, 1.3826, 1.58516, 1.38762, 1.5095, 1.50955, 1.53831, 1.55819, 1.55699, 1.707, 1.46978, 1.50995, 1.53826, 1.71399, 1.70413, 1.65428, 1.68763, 1.5494, 1.54931, 1.5231, 1.51256, 1.49899, 1.51418, 1.68682, 1.68231, 1.54664
0.00454795, 0.362525, 0.263699, 0.239934, 0.247305, 0.365936, 0.00387919, 0.427406, 0.218411, 0.216715, 0.22123, 0.212303, 0.214266, 0.214689, 0.398901, 0.401512, 0.206722, 0.206901, 0.207539, 0.215044, 0.21926, 0.219109, 0.231909, 0.234812, 0.232246, 0.256817, 0.265914, 0.257064, 0.254272, 0.252492, 0.00426013, 0.532221, 0.535395, 0.39742, 0.362912, 0.521982, 0.307231, 0.454882, 0.00390686, 0.522431, 0.521283, 0.452336, 0.500105, 0.487727, 0.416601, 0.475599, 0.652501, 0.486116, 0.456177, 0.470368, 0.452716, 0.461958, 0.446049, 0.446133, 0.46742, 0.422969, 0.414594, 0.415454, 0.415202, 0.415161, 0.424376, 0.424089, 0.424441, 0.423535, 0.424671, 0.424376, 0.424841, 0.425008, 0.424586, 0.507711, 0.50511, 0.507782, 0.482438, 0.482708, 0.483657, 0.684473, 0.48252, 0.684157, 0.666307, 0.599077, 0.666897, 0.654976, 0.650168, 0.649371, 0.787419, 0.648235, 0.651987, 0.651208, 1.00297, 1.00467, 0.641012, 0.628669, 0.690583, 0.622059, 0.622198, 0.622483, 0.625007, 0.763605, 0.635994, 0.746594, 0.902298, 0.736765, 0.734762, 0.68821, 0.826312, 0.797031, 0.883513, 0.962044, 0.949408, 0.900788, 0.902162, 0.701124, 0.703401, 0.706278, 0.92292, 0.807225, 0.853978, 0.826895, 1.11896, 0.756375, 0.904975, 0.948906, 0.95031, 0.93356, 0.963714, 0.889669, 0.876608, 0.93987, 0.970186, 0.987471, 1.18449, 1.36612, 1.38924, 0.984549, 1.02942, 1.00997, 1.13008, 1.31663, 1.2921, 1.29175, 1.29195, 1.18522, 1.1712, 1.1478, 1.21811, 1.14826, 1.16451, 1.13957, 1.15198, 1.14315, 1.2199, 1.15449, 1.21366, 1.15889, 1.16747, 1.14738, 1.22888, 1.23014, 1.0569, 1.05829, 1.06057, 1.06101, 1.05688, 1.07328, 1.16797, 1.164, 1.12934, 1.11145, 1.16469, 1.03129, 1.02923, 1.02957, 1.02085, 1.02076, 1.02026, 1.02018, 1.02136, 1.14457, 1.01199, 1.13418, 1.10728, 1.0986, 1.09876, 1.00784, 1.00883, 1.09246, 0.984618, 0.98364, 1.06258, 0.980012, 0.974298, 0.975358, 0.975656, 0.975279, 0.975608, 0.980046, 0.980956, 0.983037, 1.05331, 1.05378, 1.09586, 1.02944, 1.08234, 1.08181, 1.01558, 1.01623, 1.01771, 1.01928, 1.07641, 1.07744, 1.14707, 1.14857, 1.14961, 1.07089, 1.07827, 1.05804, 1.05894, 1.05993, 1.0626, 1.07137, 1.07452, 1.11893, 1.09095, 1.18905, 1.11195, 1.11936, 1.15464, 1.15404, 1.27489, 1.16533, 1.14928, 1.1543, 1.16663, 1.38082, 1.177, 1.36835, 1.16446, 1.16463, 1.22906, 1.2781, 1.25798, 1.27147, 1.23252, 1.2292, 1.22609, 1.33157, 1.34379, 1.24167, 1.24252, 1.24349, 1.23755, 1.23882, 1.23965, 1.24991, 1.25084, 1.24542, 1.3679, 1.33757, 1.33124, 1.24326, 1.2953, 1.30281, 1.27545, 1.42254, 1.31916, 1.31935, 1.32421, 1.45165, 1.44944, 1.44325, 1.32419, 1.33375, 1.40577, 1.40318, 1.41905, 1.42663, 1.42688, 1.53139, 1.3778, 1.38852, 1.38793, 1.53095, 1.46635, 1.5587, 1.48811, 1.67031, 1.68749, 1.46512, 1.69964, 1.57149, 1.66535, 1.53703, 1.53793, 1.49244, 1.55412, 1.53372, 1.68975, 1.50738, 1.54734, 1.57919
0.156687, 0.154008, 0.152693, 0.252149, 0.256322, 0.244351, 0.282511, 0.214834, 0.21517, 0.216433, 0.214167, 0.212464, 0.212582, 0.213896, 0.204147, 0.203838, 0.205117, 0.20338, 0.206718, 0.206108, 0.205112, 0.216709, 0.214227, 0.57, 0.230962, 0.00412523, 0.504969, 0.251338, 0.252503, 0.251084, 0.259108, 0.47255, 0.459192, 0.537684, 0.520325, 0.00353844, 0.362922, 0.00356872, 0.302955, 0.391361, 0.4049, 0.394045, 0.569392, 0.00409514, 0.345997, 0.51021, 0.47821, 0.477516, 0.466415, 0.00418243, 0.444008, 0.442499, 0.460281, 0.472152, 0.43515, 0.4432, 0.409597, 0.407939, 0.410841, 0.421978, 0.421034, 0.420751, 0.420843, 0.422079, 0.423106, 0.42439, 0.423788, 0.424032, 0.503766, 0.504925, 0.50534, 0.506181, 0.501896, 0.628634, 0.49399, 0.495402, 0.495465, 0.495499, 0.495445, 0.673201, 0.660683, 0.657848, 0.655795, 0.643881, 0.748496, 0.640257, 0.642073, 0.652589, 0.656529, 0.656936, 0.660644, 0.659688, 0.63532, 0.682819, 0.670387, 0.754093, 0.653357, 0.631344, 0.733187, 0.914147, 0.770723, 0.715879, 0.691021, 0.822752, 0.820676, 0.814876, 0.869748, 0.688367, 0.8495, 0.695189, 0.949241, 0.949486, 0.800443, 0.702764, 0.703954, 0.917796, 0.874557, 0.820102, 1.19162, 0.924617, 0.980526, 0.874472, 0.884425, 1.09086, 1.06726, 1.42761, 0.859433, 0.971219, 1.01022, 1.00967, 1.17922, 1.19922, 1.08167, 1.09845, 1.32268, 1.31075, 1.13331, 1.1026, 1.29932, 1.25933, 1.25056, 1.19278, 1.2499, 1.16275, 1.16418, 1.15736, 1.15782, 1.16505, 1.16771, 1.13077, 1.21004, 1.22698, 1.15802, 1.20203, 1.19076, 1.16651, 1.16342, 1.14448, 1.16161, 1.14943, 1.15113, 1.14422, 1.14566, 1.09115, 1.11619, 1.13335, 1.14734, 1.18461, 1.02904, 1.03033, 1.03089, 1.12597, 1.10115, 1.01634, 1.01546, 1.01826, 1.01665, 1.01603, 1.01647, 1.07561, 1.10696, 1.09149, 1.09052, 1.08775, 1.09563, 1.0943, 1.00089, 1.0736, 0.984442, 0.984449, 0.980493, 0.979828, 0.980365, 1.07809, 0.982315, 0.984623, 0.988126, 1.12726, 1.12957, 0.996241, 1.00852, 1.00879, 1.0114, 1.01498, 1.0151, 1.08831, 1.05381, 1.18408, 1.13259, 1.03271, 1.03417, 1.06351, 1.04309, 1.07418, 1.0542, 1.05511, 1.06828, 1.06127, 1.07136, 1.06866, 1.07344, 1.07587, 1.27505, 1.20641, 1.19074, 1.15277, 1.22469, 1.19146, 1.14013, 1.1436, 1.14462, 1.1444, 1.15355, 1.35035, 1.34763, 1.35426, 1.15961, 1.16007, 1.20431, 1.18286, 1.19616, 1.21772, 1.20821, 1.30773, 1.22698, 1.30289, 1.26297, 1.25845, 1.23809, 1.23822, 1.23877, 1.23586, 1.23566, 1.23592, 1.23752, 1.23699, 1.23383, 1.32354, 1.34695, 1.23372, 1.27486, 1.35261, 1.27953, 1.25297, 1.24765, 1.38063, 1.30274, 1.28086, 1.32634, 1.38608, 1.38889, 1.47246, 1.47216, 1.41358, 1.38939, 1.50906, 1.44412, 1.50167, 1.37171, 1.39199, 1.48413, 1.48987, 1.46807, 1.42373, 1.6824, 1.47124, 1.65914, 1.65284, 1.51354, 1.59955, 1.57934, 1.57248, 1.62278, 1.73078, 1.71188, 1.49699, 1.54043, 1.57636, 1.57945, 1.68523
0.155165, 0.15089, 0.15017, 0.14883, 0.00441823, 0.20395, 0.348474, 0.00390341, 0.210582, 0.210992, 0.210079, 0.208972, 0.197592, 0.194831, 0.19885, 0.200883, 0.201721, 0.199962, 0.202171, 0.20278, 0.200939, 0.207206, 0.228536, 0.542294, 0.480965, 0.2263, 0.225264, 0.435742, 0.31204, 0.435687, 0.251965, 0.253297, 0.297458, 0.29803, 0.44611, 0.345544, 0.287358, 0.394985, 0.320806, 0.377192, 0.411722, 0.389729, 0.395439, 0.341146, 0.5281, 0.666986, 0.494228, 0.419118, 0.00416197, 0.477299, 0.430809, 0.449286, 0.46273, 0.757185, 0.46513, 0.406432, 0.406203, 0.406275, 0.406614, 0.434671, 0.590798, 0.471898, 0.436048, 0.403399, 0.614563, 0.422344, 0.483109, 0.470087, 0.53575, 0.503488, 0.504776, 0.49108, 0.482849, 0.699619, 0.698676, 0.491844, 0.493535, 0.494576, 0.500953, 0.501431, 0.500411, 0.759883, 0.658294, 0.652473, 0.640952, 0.640335, 0.640264, 0.587186, 0.82546, 0.951018, 0.652995, 0.661122, 0.650116, 0.670424, 0.850569, 0.866721, 0.742572, 0.895907, 0.888955, 0.901342, 0.777983, 0.71937, 0.667607, 0.820611, 0.716986, 0.814098, 0.846274, 0.714892, 0.687896, 0.911198, 0.919154, 0.925653, 0.936762, 0.936168, 0.940647, 0.928783, 0.708068, 1.0776, 0.821571, 0.938829, 0.937677, 0.781806, 0.856019, 0.855433, 1.04017, 0.94246, 0.88183, 1.0379, 0.915631, 0.915591, 0.935498, 1.02991, 1.06062, 1.05398, 1.04735, 1.13562, 1.15667, 1.30049, 1.25326, 1.2196, 1.28582, 1.26815, 1.20213, 1.18102, 1.17793, 1.16836, 1.14429, 1.21839, 1.22199, 1.19587, 1.22099, 1.20021, 1.22395, 1.1645, 1.16388, 1.15538, 1.15544, 1.13479, 1.13657, 1.105, 1.06079, 1.13361, 1.08439, 1.03828, 1.03928, 1.0959, 1.06834, 1.07035, 1.06974, 1.14669, 1.08079, 1.08221, 1.06793, 1.01466, 1.01061, 1.01078, 1.13384, 1.12923, 1.07479, 1.08131, 1.0496, 1.08752, 1.02361, 1.02353, 1.10945, 1.0082, 1.00098, 1.00414, 1.0961, 0.990828, 0.989657, 0.993997, 1.09509, 0.996384, 0.998309, 0.994553, 1.02469, 1.02681, 1.00165, 1.00778, 1.07503, 1.03721, 1.01378, 1.03923, 1.13052, 1.01841, 1.02008, 1.02618, 1.02677, 1.03384, 1.03387, 1.03681, 1.15025, 1.04924, 1.05096, 1.05296, 1.07848, 1.08, 1.07109, 1.18461, 1.08936, 1.09206, 1.0936, 1.15257, 1.18568, 1.18866, 1.12607, 1.11836, 1.12027, 1.12294, 1.13758, 1.13764, 1.13897, 1.14375, 1.3572, 1.38462, 1.16023, 1.21247, 1.21878, 1.21724, 1.2222, 1.20209, 1.2094, 1.21254, 1.28309, 1.22248, 1.24157, 1.25019, 1.23655, 1.23312, 1.28914, 1.23174, 1.22989, 1.35038, 1.22872, 1.2253, 1.2911, 1.25662, 1.27819, 1.21565, 1.21585, 1.40854, 1.21097, 1.21919, 1.29549, 1.29132, 1.29692, 1.30017, 1.30498, 1.40311, 1.41169, 1.36112, 1.45737, 1.42733, 1.44487, 1.47499, 1.45402, 1.44951, 1.48168, 1.36919, 1.37406, 1.4618, 1.62354, 1.48531, 1.53042, 1.54877, 1.5859, 1.55456, 1.62002, 1.61763, 1.63691, 1.59974, 1.59852, 1.5026, 1.70273, 1.4933, 1.50786, 1.49834, 1.72403, 1.52007
0.150412, 0.150654, 0.147419, 0.149, 0.14988, 0.00392499, 0.290191, 0.1805, 0.180049, 0.355987, 0.624904, 0.19539, 0.195456, 0.195596, 0.193766, 0.193806, 0.193807, 0.192376, 0.192491, 0.20177, 0.200476, 0.199296, 0.225677, 0.226377, 0.227022, 0.22687, 0.225949, 0.224664, 0.360187, 0.541367, 0.246792, 0.249875, 0.252794, 0.296781, 0.317755, 0.359705, 0.344806, 0.270034, 0.270574, 0.269398, 0.268318, 0.362314, 0.387477, 0.409767, 0.553953, 0.652917, 0.534946, 0.513289, 0.423777, 0.511015, 0.504283, 0.504251, 0.408285, 0.448452, 0.483396, 0.562174, 0.386918, 0.386639, 0.386699, 0.38852, 0.476572, 0.403845, 0.40464, 0.404975, 0.404325, 0.403378, 0.521208, 0.487819, 0.541919, 0.499324, 0.738736, 0.507882, 0.814681, 0.805568, 0.75194, 0.685225, 0.687012, 0.502185, 0.503145, 0.502308, 0.743327, 0.885372, 0.655775, 0.657283, 0.656614, 0.656238, 0.638519, 0.646858, 0.750823, 0.659425, 0.6589, 0.683954, 0.65487, 0.679937, 0.820146, 0.620622, 0.622057, 0.621595, 0.621778, 0.876466, 0.873777, 0.745275, 0.816238, 0.809383, 0.797359, 0.953117, 0.988338, 0.931837, 0.771555, 0.839384, 0.988344, 0.683122, 0.891622, 0.921882, 0.853165, 1.00039, 1.00173, 1.03604, 1.04765, 0.905084, 0.945723, 0.918335, 0.870281, 0.852212, 1.00907, 0.949895, 0.785887, 1.12481, 1.01275, 0.926023, 0.95678, 1.00066, 1.09789, 1.09542, 1.09392, 1.08096, 1.11361, 1.32263, 1.1468, 1.123, 1.08494, 1.0873, 1.16983, 1.13347, 1.13442, 1.15951, 1.15684, 1.14465, 1.14485, 1.22027, 1.14138, 1.14053, 1.1778, 1.21337, 1.16889, 1.15359, 1.10496, 1.15079, 1.12578, 1.16721, 1.07678, 1.13369, 1.16827, 1.10575, 1.08148, 1.07391, 1.09595, 1.00704, 1.00842, 1.00893, 1.00812, 1.00367, 1.01842, 1.01842, 1.11319, 1.11689, 1.00819, 1.01402, 1.13395, 1.08422, 1.1452, 1.13328, 1.0997, 1.0858, 1.02263, 1.0139, 1.00496, 1.00231, 1.00033, 1.00286, 1.10429, 1.01448, 1.09894, 1.08536, 1.16399, 1.01247, 1.01057, 1.01315, 1.0162, 1.05658, 1.05162, 1.01708, 1.01786, 1.01773, 1.0165, 1.01628, 1.01861, 1.02464, 1.02685, 1.02973, 1.03749, 1.06875, 1.14857, 1.25308, 1.0781, 1.05816, 1.0614, 1.06499, 1.11278, 1.12045, 1.12849, 1.18271, 1.16174, 1.16752, 1.15676, 1.14692, 1.24785, 1.23165, 1.23566, 1.28169, 1.39685, 1.39811, 1.17382, 1.15867, 1.34469, 1.35044, 1.16306, 1.17094, 1.17509, 1.18067, 1.23334, 1.23449, 1.2415, 1.23828, 1.22204, 1.22191, 1.28219, 1.26496, 1.34739, 1.22829, 1.22983, 1.26101, 1.21675, 1.20851, 1.26211, 1.21502, 1.23282, 1.21404, 1.2115, 1.30041, 1.27404, 1.26469, 1.20137, 1.20188, 1.26478, 1.26714, 1.32143, 1.32989, 1.29008, 1.29032, 1.28856, 1.31227, 1.31969, 1.4685, 1.49951, 1.34242, 1.43104, 1.46735, 1.476, 1.36666, 1.3668, 1.57382, 1.58233, 1.57889, 1.45476, 1.41735, 1.42183, 1.42283, 1.51937, 1.59393, 1.59491, 1.50355, 1.49469, 1.58292, 1.54374, 1.61622, 1.58694, 1.58615, 1.49746, 1.60705
0.148578, 0.146547, 0.151071, 0.141363, 0.141322, 0.142247, 0.140471, 0.140277, 0.367142, 0.208345, 0.622758, 0.630497, 0.183109, 0.195242, 0.194012, 0.193537, 0.19268, 0.191973, 0.200718, 0.201585, 0.201319, 0.20038, 0.201165, 0.214294, 0.213516, 0.212815, 0.462098, 0.442379, 0.247228, 0.245642, 0.244693, 0.246277, 0.251337, 0.242767, 0.307948, 0.31264, 0.270541, 0.269553, 0.270564, 0.270936, 0.269819, 0.268423, 0.389946, 0.584466, 0.451747, 0.548946, 0.54576, 0.39458, 0.413903, 0.413808, 0.529135, 0.36764, 0.366228, 0.495787, 0.384769, 0.385575, 0.388668, 0.386651, 0.386651, 0.384665, 0.487414, 0.402578, 0.403263, 0.401374, 0.401558, 0.475218, 0.473962, 0.467069, 0.477329, 0.47025, 0.786335, 0.518871, 0.822832, 0.679095, 0.5217, 0.607488, 0.677028, 0.690548, 0.691317, 0.689024, 0.687767, 0.681273, 0.679629, 0.66202, 0.68024, 0.647176, 0.646474, 0.755834, 0.895534, 0.683984, 0.66985, 0.685782, 0.682361, 0.683219, 0.804886, 0.61883, 0.620412, 0.621047, 0.626688, 0.7835, 0.775603, 0.748572, 0.818926, 0.81874, 0.810592, 0.655135, 0.911422, 0.8655, 0.84978, 0.856273, 0.679652, 0.680206, 0.680523, 0.683986, 0.683477, 0.91103, 0.695678, 0.787424, 0.818744, 0.960139, 0.986354, 0.776126, 0.775886, 0.847178, 1.00583, 0.946926, 0.861085, 1.39622, 0.913258, 0.946639, 0.819716, 0.834306, 1.01878, 0.862963, 1.05305, 1.05484, 1.0557, 1.08137, 1.08529, 1.03966, 1.00965, 1.07094, 1.20207, 1.20264, 1.21618, 1.17389, 1.18835, 1.19777, 1.14875, 1.1494, 1.14525, 1.23138, 1.23247, 1.18085, 1.24453, 1.16774, 1.16897, 1.20681, 1.15024, 1.11748, 1.19516, 1.12528, 1.05777, 1.13724, 1.08001, 0.997591, 0.998002, 1.02604, 1.04416, 1.00643, 0.999884, 1.00053, 1.00102, 0.999105, 0.995013, 0.995071, 1.08031, 1.05798, 1.09192, 1.04691, 1.04143, 1.04232, 1.0428, 1.13703, 1.11972, 1.01596, 1.12893, 1.09522, 1.10608, 1.02956, 1.02616, 1.09142, 1.12319, 1.09533, 1.13642, 1.10838, 1.03669, 1.09526, 1.09542, 1.16688, 1.15457, 1.02261, 1.02262, 1.02362, 1.012, 1.13017, 1.1266, 1.02269, 1.07318, 1.02884, 1.03661, 1.03932, 1.21462, 1.15635, 1.10627, 1.05595, 1.07941, 1.20454, 1.07109, 1.09609, 1.20256, 1.20268, 1.08969, 1.16724, 1.17171, 1.10515, 1.22271, 1.2225, 1.11478, 1.23716, 1.18494, 1.12023, 1.12857, 1.20227, 1.40035, 1.16431, 1.34306, 1.16798, 1.21221, 1.22216, 1.22201, 1.18809, 1.19346, 1.21756, 1.22342, 1.25417, 1.26532, 1.22951, 1.20519, 1.20548, 1.21091, 1.21199, 1.21157, 1.2115, 1.21061, 1.21667, 1.24012, 1.2094, 1.24669, 1.19859, 1.24622, 1.27515, 1.27522, 1.19318, 1.26864, 1.314, 1.25316, 1.38969, 1.24619, 1.29821, 1.3053, 1.39651, 1.46209, 1.39176, 1.47284, 1.33393, 1.48857, 1.44119, 1.54069, 1.44058, 1.36455, 1.37577, 1.36991, 1.57788, 1.44437, 1.56656, 1.56876, 1.61401, 1.61758, 1.54342, 1.46331, 1.50491, 1.53141, 1.67556, 1.67241, 1.66772, 1.50304, 1.47922, 1.48555, 1.60595
0.144474, 0.14125, 0.142464, 0.140609, 0.139159, 0.142712, 0.141804, 0.140771, 0.143924, 0.146325, 0.14559, 0.285724, 0.356085, 0.00401438, 0.185486, 0.185633, 0.184673, 0.184154, 0.196933, 0.194718, 0.203752, 0.200445, 0.206798, 0.203838, 0.209938, 0.20984, 0.209069, 0.220312, 0.435666, 0.423873, 0.242732, 0.244652, 0.244787, 0.243888, 0.243012, 0.249012, 0.24906, 0.247702, 0.256489, 0.267736, 0.270804, 0.00424525, 0.420709, 0.393654, 0.400279, 0.40039, 0.562848, 0.556243, 0.551377, 0.59822, 0.535116, 0.545966, 0.411997, 0.383227, 0.383646, 0.383249, 0.382655, 0.383844, 0.383204, 0.38329, 0.367772, 0.50731, 0.508872, 0.40162, 0.400544, 0.474979, 0.660352, 0.466197, 0.44642, 0.738765, 0.770226, 0.790162, 0.517841, 0.684594, 0.691724, 0.636195, 0.697857, 0.688653, 0.701547, 0.540075, 0.539048, 0.552984, 0.673027, 0.663989, 0.656371, 0.654719, 0.660388, 0.648027, 0.877471, 0.675033, 0.678461, 0.783871, 0.792225, 0.69663, 0.770438, 0.816691, 0.784173, 0.735457, 0.739804, 0.729316, 0.839125, 0.862308, 0.863098, 0.649368, 0.651131, 0.652692, 0.655946, 0.725088, 0.736417, 0.913882, 0.673788, 0.677926, 0.679032, 0.680437, 0.683764, 0.683757, 0.692113, 0.692093, 0.797868, 0.830096, 0.890403, 0.735613, 0.826133, 0.828595, 0.849855, 0.898297, 0.895562, 0.98354, 0.934981, 0.915273, 0.939282, 0.91486, 1.08092, 0.851054, 0.92986, 0.933532, 1.05287, 1.09893, 0.997833, 1.12729, 1.02328, 1.07799, 1.06511, 1.03354, 1.22699, 1.16678, 1.18585, 1.21235, 1.30868, 1.34088, 1.15658, 1.20235, 1.17178, 1.18425, 1.1543, 1.13931, 1.16508, 1.17347, 1.16508, 1.10134, 1.19921, 1.06413, 1.09733, 1.07804, 1.11249, 1.10886, 1.07534, 0.987231, 0.987689, 1.01636, 1.07398, 0.999623, 1.0156, 1.08073, 1.02036, 1.03943, 1.0708, 1.06551, 1.04286, 1.05106, 1.14315, 1.05351, 1.14049, 1.03185, 1.03221, 1.13568, 1.13663, 1.08193, 1.10291, 1.04328, 1.03917, 1.03673, 1.04968, 1.11021, 1.09963, 1.1168, 1.07501, 1.1063, 1.1029, 1.09986, 1.0842, 1.11256, 1.12243, 1.10263, 1.01078, 1.01137, 1.01222, 1.01981, 1.02133, 1.17834, 1.13899, 1.17088, 1.16482, 1.16053, 1.09423, 1.09508, 1.10542, 1.10453, 1.11269, 1.12911, 1.1604, 1.16047, 1.16356, 1.09139, 1.15793, 1.16187, 1.16007, 1.14085, 1.11381, 1.11482, 1.11418, 1.11568, 1.15314, 1.12862, 1.39837, 1.35156, 1.15443, 1.18803, 1.19527, 1.2061, 1.20961, 1.18469, 1.21577, 1.22005, 1.19067, 1.19888, 1.19281, 1.19238, 1.19922, 1.2012, 1.27357, 1.27871, 1.26104, 1.25401, 1.20325, 1.19791, 1.19661, 1.21225, 1.1926, 1.23435, 1.25849, 1.28155, 1.25264, 1.30921, 1.18603, 1.37905, 1.34358, 1.34378, 1.34962, 1.24774, 1.35461, 1.30598, 1.39255, 1.40314, 1.38139, 1.4059, 1.4526, 1.3517, 1.47662, 1.35516, 1.3788, 1.43736, 1.51686, 1.48546, 1.41896, 1.36679, 1.44381, 1.57568, 1.42943, 1.48847, 1.4306, 1.58718, 1.61282, 1.67425, 1.43818, 1.57104, 1.50065, 1.50251, 1.50859, 0.00381376
0.135033, 0.138023, 0.139304, 0.140285, 0.140702, 0.13982, 0.143083, 0.140809, 0.147595, 0.147907, 0.145456, 0.143722, 0.143789, 0.255861, 0.00392346, 0.182426, 0.18121, 0.181615, 0.183304, 0.194611, 0.201182, 0.204242, 0.204529, 0.20413, 0.205352, 0.209931, 0.208451, 0.216016, 0.314976, 0.770195, 0.239558, 0.242164, 0.242956, 0.242093, 0.241331, 0.233791, 0.248436, 0.247649, 0.250181, 0.400725, 0.39009, 0.40491, 0.386087, 0.371585, 0.362398, 0.629568, 0.387641, 0.371969, 0.373061, 0.399789, 0.00407344, 0.557778, 0.415682, 0.411374, 0.418497, 0.376038, 0.375839, 0.376015, 0.372897, 0.369961, 0.368981, 0.367638, 0.517464, 0.504253, 0.48427, 0.464076, 0.6912, 0.438388, 0.440362, 0.444593, 0.443565, 0.44341, 0.728213, 0.693527, 0.458949, 0.522708, 0.639285, 0.684777, 0.645938, 0.683848, 0.669659, 0.664736, 0.822602, 0.655861, 0.659838, 0.665387, 0.658969, 0.662882, 0.663706, 0.670769, 0.681214, 0.824467, 0.850701, 0.846631, 0.687891, 0.782201, 0.763232, 0.743757, 0.626359, 0.816956, 0.79093, 0.709025, 0.780585, 0.784709, 0.787144, 0.78617, 0.655684, 0.660417, 0.663487, 0.914674, 0.672503, 0.674305, 0.675027, 0.678654, 0.681655, 1.03175, 0.688336, 0.755578, 0.828664, 0.808388, 0.832664, 0.873338, 0.757279, 0.77393, 0.793999, 0.895297, 0.88033, 1.00733, 0.807896, 0.814601, 0.888183, 0.937294, 0.964386, 0.934331, 0.94419, 1.08875, 0.912473, 0.977052, 1.0261, 1.33335, 1.04474, 1.04307, 1.05361, 1.0793, 1.07832, 1.07793, 1.2384, 1.19097, 1.22334, 1.27161, 1.17514, 1.17119, 1.16886, 1.1703, 1.21265, 1.16708, 1.11804, 1.1199, 1.12285, 1.09337, 1.11499, 1.08514, 1.05738, 1.06661, 1.1262, 1.01175, 1.11305, 0.98267, 0.984785, 1.06421, 1.0643, 1.07475, 1.07883, 1.06051, 1.07778, 1.06136, 1.0058, 1.06118, 1.16168, 1.09491, 1.16227, 1.03508, 1.036, 1.11503, 1.10556, 1.11193, 1.12231, 1.12546, 1.11094, 1.12602, 1.10697, 1.04946, 1.05024, 1.06348, 1.04852, 1.0483, 1.049, 1.19602, 1.10657, 1.12283, 1.12924, 1.10344, 1.10308, 1.01427, 1.01209, 1.01193, 1.01555, 1.017, 1.01887, 1.04566, 1.04775, 1.16619, 1.03677, 1.0363, 1.10557, 1.16807, 1.17858, 1.14673, 1.1303, 1.14766, 1.15677, 1.19464, 1.08592, 1.16116, 1.19554, 1.14799, 1.10897, 1.18538, 1.11258, 1.11415, 1.11401, 1.11737, 1.12086, 1.13569, 1.13388, 1.1518, 1.14697, 1.14788, 1.3312, 1.21805, 1.16728, 1.17466, 1.18176, 1.18798, 1.28851, 1.18507, 1.1857, 1.1916, 1.19119, 1.20978, 1.19609, 1.19614, 1.25611, 1.20859, 1.19329, 1.19472, 1.19179, 1.1886, 1.18262, 1.18198, 1.1795, 1.17761, 1.17864, 1.17766, 1.1806, 1.18172, 1.31285, 1.2631, 1.25561, 1.35477, 1.33012, 1.32057, 1.33024, 1.36518, 1.37876, 1.40123, 1.3983, 1.33425, 1.33659, 1.33637, 1.34725, 1.47668, 1.52018, 1.40997, 1.50698, 1.36811, 1.36911, 1.39829, 1.38249, 1.38436, 1.38917, 1.55159, 1.44051, 1.42101, 1.57147, 1.46788, 1.54805, 1.56819, 1.52836, 1.54505
0.133751, 0.135577, 0.135286, 0.141423, 0.143915, 0.144248, 0.143802, 0.143593, 0.144131, 0.143923, 0.144163, 0.143515, 0.142633, 0.144126, 0.14459, 0.25974, 0.178562, 0.17562, 0.223786, 0.220839, 0.199158, 0.200667, 0.199662, 0.207912, 0.207675, 0.209351, 0.20703, 0.209903, 0.562613, 0.223819, 0.237541, 0.238375, 0.237704, 0.237644, 0.236599, 0.235737, 0.234822, 0.247276, 0.407489, 0.366585, 0.393587, 0.366271, 0.697073, 0.618874, 0.613641, 0.599074, 0.377378, 0.581785, 0.374839, 0.38432, 0.675144, 0.49942, 0.703508, 0.557756, 0.540077, 0.375699, 0.373202, 0.374589, 0.373907, 0.373586, 0.514215, 0.512432, 0.507571, 0.503647, 0.683171, 0.479476, 0.545011, 0.460052, 0.561156, 0.548896, 0.44891, 0.722279, 0.573914, 0.715801, 0.715019, 0.605191, 0.618024, 0.811874, 0.68444, 0.677723, 0.670272, 0.816374, 0.658615, 0.65971, 0.528543, 0.739395, 0.668384, 0.66806, 0.668586, 0.805504, 0.665978, 0.674564, 0.681454, 0.85387, 0.694552, 0.687559, 0.684036, 0.673934, 0.739325, 0.759118, 0.724761, 0.946855, 0.946963, 0.767756, 0.698769, 0.659634, 0.660092, 0.660314, 0.662675, 0.664247, 0.666848, 0.669049, 0.863678, 0.677614, 0.679713, 0.891764, 0.835545, 0.808937, 0.871385, 0.830396, 0.792029, 0.778117, 0.898276, 0.933399, 0.76763, 0.998624, 0.988207, 0.817656, 1.00157, 0.870671, 0.912685, 1.00094, 0.993856, 0.938508, 1.01221, 0.967213, 0.973604, 0.919704, 0.934621, 0.925218, 1.1144, 1.15039, 1.06383, 1.05032, 1.2327, 1.1261, 1.19439, 1.17039, 1.2229, 1.18593, 1.26506, 1.17007, 1.17986, 1.17946, 1.15887, 1.19217, 1.17178, 1.21615, 1.10645, 1.1061, 1.11838, 1.07763, 1.02242, 0.992697, 0.990609, 0.987438, 0.983889, 0.979168, 0.978634, 0.973045, 0.972955, 1.03159, 0.946454, 0.945774, 0.946049, 1.06332, 1.07802, 1.07884, 1.0454, 1.11291, 1.14708, 1.04366, 1.09096, 1.10681, 1.06683, 1.0648, 1.13757, 1.08437, 1.10739, 1.08845, 1.12623, 1.13872, 1.0977, 1.05278, 1.05246, 1.05042, 1.04661, 1.04512, 1.10855, 1.13708, 1.10501, 1.1571, 1.01843, 1.01518, 1.01504, 1.01451, 1.01486, 1.01485, 1.01941, 1.09156, 1.02727, 1.16678, 1.04222, 1.31727, 1.039, 1.14231, 1.17836, 1.05776, 1.16116, 1.14527, 1.14631, 1.13041, 1.13462, 1.17479, 1.17538, 1.19488, 1.19569, 1.20188, 1.20404, 1.11238, 1.11225, 1.1153, 1.12164, 1.12819, 1.19151, 1.21226, 1.13952, 1.14086, 1.1428, 1.14972, 1.20207, 1.16121, 1.18985, 1.17135, 1.24518, 1.28076, 1.18793, 1.2773, 1.22981, 1.19085, 1.23526, 1.23621, 1.22682, 1.19405, 1.19291, 1.26369, 1.20946, 1.18185, 1.18367, 1.17402, 1.19976, 1.17213, 1.16754, 1.29514, 1.17418, 1.33654, 1.18113, 1.33683, 1.28719, 1.2854, 1.26093, 1.43696, 1.4622, 1.31698, 1.29713, 1.49536, 1.37905, 1.36878, 1.36826, 1.3305, 1.33327, 1.51341, 1.47833, 1.47603, 1.57328, 1.46705, 1.43102, 1.3683, 1.52935, 1.58228, 1.41392, 1.58847, 1.48147, 1.46922, 1.421, 1.53981, 1.48489, 1.47544, 1.55154, 1.65495
0.122769, 0.13645, 0.135747, 0.137641, 0.142718, 0.144128, 0.143806, 0.141532, 0.144384, 0.143936, 0.137894, 0.145011, 0.144395, 0.144485, 0.136442, 0.137448, 0.134916, 0.133803, 0.311679, 0.176678, 0.311472, 0.230034, 0.00417944, 0.197992, 0.195468, 0.206268, 0.207516, 0.209245, 0.20956, 0.209433, 0.237742, 0.238036, 0.237121, 0.236971, 0.237385, 0.236676, 0.361611, 0.320872, 0.328704, 0.318022, 0.40468, 0.370431, 0.00386426, 0.29737, 0.297493, 0.298279, 0.297358, 0.383052, 0.418541, 0.393498, 0.583103, 0.580318, 0.704479, 0.369883, 0.00429305, 0.37182, 0.37287, 0.376576, 0.37743, 0.377934, 0.376869, 0.528034, 0.525405, 0.612076, 0.638417, 0.472801, 0.463079, 0.463246, 0.46783, 0.465701, 0.464104, 0.608689, 0.472924, 0.472875, 0.472905, 0.683872, 0.614566, 0.614399, 0.619258, 0.661669, 0.708627, 0.547939, 0.549644, 0.660784, 0.567099, 0.676836, 0.58365, 0.5841, 0.674436, 0.672749, 0.66454, 0.674626, 0.781144, 0.683082, 0.676884, 0.691134, 0.681242, 0.681009, 0.753011, 0.778935, 0.840432, 0.720196, 0.800644, 0.78152, 0.658811, 0.660428, 0.660918, 0.664284, 0.664845, 0.664772, 0.66547, 0.668027, 1.11585, 0.784508, 0.704607, 0.792609, 0.942068, 0.961895, 0.829561, 0.740076, 0.771578, 0.7927, 0.79671, 0.820721, 0.774594, 0.890976, 0.89512, 0.976395, 0.990959, 0.975447, 0.991093, 1.01495, 0.991379, 0.930502, 1.01616, 0.976673, 0.918999, 0.923877, 0.926233, 0.920688, 0.991294, 0.981514, 0.963568, 1.12381, 1.04413, 1.0517, 1.03129, 1.02464, 1.0252, 1.11307, 1.10468, 1.11425, 1.11331, 1.18857, 1.18912, 1.14258, 1.17811, 1.20347, 1.12667, 1.19141, 1.11016, 1.06752, 1.05601, 1.02918, 1.01951, 1.02427, 0.979992, 0.979833, 0.980754, 0.981321, 0.970342, 0.960271, 0.940498, 0.939401, 0.938497, 0.970885, 0.959943, 1.0465, 1.14692, 1.10018, 1.04749, 1.05149, 1.05348, 1.20166, 1.07005, 1.08856, 1.16088, 1.16068, 1.1663, 1.16559, 1.14672, 1.07789, 1.06563, 1.06534, 1.14146, 1.07822, 1.05198, 1.14786, 1.15989, 1.15384, 1.17351, 1.06368, 1.13651, 1.01379, 1.01541, 1.0147, 1.00907, 1.01471, 1.01634, 1.01453, 1.01576, 1.01575, 1.01539, 1.15674, 1.19844, 1.1134, 1.04854, 1.06648, 1.12287, 1.10222, 1.0677, 1.072, 1.13376, 1.10511, 1.11982, 1.11551, 1.12827, 1.12845, 1.15483, 1.1922, 1.11211, 1.11538, 1.11976, 1.12109, 1.22263, 1.16468, 1.1436, 1.14454, 1.14565, 1.14716, 1.14951, 1.2156, 1.16201, 1.23231, 1.2374, 1.17039, 1.21047, 1.19309, 1.20921, 1.21234, 1.23398, 1.23288, 1.23641, 1.26419, 1.27658, 1.21507, 1.22692, 1.17528, 1.17135, 1.17166, 1.17158, 1.16487, 1.16199, 1.28125, 1.19771, 1.17818, 1.17902, 1.18128, 1.18656, 1.2758, 1.21249, 1.27374, 1.24054, 1.38556, 1.30154, 1.30958, 1.36352, 1.44561, 1.45598, 1.36818, 1.55716, 1.44422, 1.41672, 1.40749, 1.40505, 1.36156, 1.36029, 1.36022, 1.35947, 1.35999, 1.47408, 1.48892, 1.57653, 1.57858, 1.434, 1.46782, 1.61103, 1.508, 1.44486, 1.45423
0.134638, 0.133695, 0.132207, 0.136346, 0.135513, 0.136592, 0.140452, 0.13988, 0.138829, 0.139275, 0.137546, 0.137322, 0.136607, 0.135873, 0.13506, 0.137588, 0.136418, 0.134982, 0.134031, 0.00411927, 0.00385731, 0.194531, 0.192989, 0.00379459, 0.190973, 0.207637, 0.209235, 0.209046, 0.209382, 0.208597, 0.207272, 0.491909, 0.23478, 0.237213, 0.246834, 0.248862, 0.249942, 0.249273, 0.327767, 0.396168, 0.301, 0.300581, 0.296848, 0.297076, 0.298668, 0.299646, 0.298337, 0.297572, 0.417453, 0.421226, 0.511928, 0.586852, 0.429066, 0.434815, 0.436044, 0.415439, 0.444705, 0.374247, 0.374445, 0.54342, 0.539756, 0.425826, 0.446324, 0.494546, 0.496716, 0.00390179, 0.569859, 0.00353512, 0.462004, 0.00401627, 0.683305, 0.66971, 0.471611, 0.472578, 0.610559, 0.771717, 0.769184, 0.50092, 0.655268, 0.659324, 0.659635, 0.65621, 0.660146, 0.659304, 0.661553, 1.27203, 0.667396, 0.679874, 0.676478, 0.677316, 0.673899, 0.673088, 0.79117, 0.850796, 0.68319, 0.70068, 0.672463, 0.677057, 0.781265, 0.781169, 0.780858, 0.651795, 0.74364, 0.89451, 0.893884, 0.663597, 0.663833, 0.665587, 0.664037, 0.663843, 0.663825, 0.748574, 0.749717, 0.742596, 0.739348, 0.737099, 0.731464, 0.728249, 0.745152, 0.819447, 0.810705, 0.97849, 0.778101, 0.879605, 0.894705, 0.917556, 0.878508, 0.777872, 0.965177, 0.88798, 0.8093, 0.808015, 0.978312, 0.971667, 0.943698, 0.943084, 0.947393, 0.94672, 1.02187, 0.985873, 0.891969, 1.00907, 0.998528, 1.02391, 1.02536, 1.02616, 1.09436, 1.06108, 1.13527, 1.16338, 1.14034, 1.11948, 1.16646, 1.15311, 1.11715, 1.17701, 1.12328, 1.10975, 1.1516, 1.088, 1.07084, 1.09771, 1.09584, 1.10927, 0.992418, 0.992365, 0.97855, 0.977801, 1.03287, 0.989572, 0.974336, 0.963059, 0.999722, 0.933917, 0.933852, 1.00973, 0.966816, 1.11535, 1.11875, 1.06833, 1.06838, 1.14308, 1.06099, 1.11251, 1.18635, 1.20854, 1.2086, 1.17713, 1.16359, 1.09771, 1.10539, 1.17053, 1.07048, 1.06686, 1.17185, 1.16611, 1.05369, 1.05252, 1.13615, 1.03704, 1.03598, 1.13063, 1.01884, 1.01635, 1.01464, 1.01277, 1.00937, 1.01486, 1.00996, 1.01141, 1.01182, 1.01147, 1.01467, 1.01513, 1.01937, 1.13271, 1.041, 1.07095, 1.06129, 1.06041, 1.06547, 1.09943, 1.06705, 1.07506, 1.34068, 1.08597, 1.11615, 1.09145, 1.09788, 1.09925, 1.13628, 1.13493, 1.11981, 1.12538, 1.134, 1.14068, 1.14509, 1.14612, 1.14709, 1.14774, 1.14503, 1.20718, 1.21143, 1.15484, 1.42553, 1.51241, 1.17397, 1.27109, 1.20495, 1.21304, 1.16831, 1.16754, 1.17755, 1.24753, 1.23071, 1.23041, 1.21232, 1.28403, 1.27122, 1.27066, 1.2707, 1.15694, 1.21896, 1.27564, 1.23307, 1.23065, 1.24176, 1.2266, 1.19222, 1.2012, 1.20384, 1.29311, 1.31372, 1.29558, 1.24269, 1.40058, 1.40608, 1.49911, 1.29837, 1.36778, 1.36421, 1.3469, 1.35327, 1.47157, 1.51023, 1.57925, 1.36972, 1.5142, 1.50222, 1.4627, 1.47136, 1.46871, 1.45448, 1.46472, 1.57375, 1.57434, 1.54469, 1.43122, 1.65149, 1.69942
0.128266, 0.12857, 0.127047, 0.13431, 0.133559, 0.132672, 0.129246, 0.137136, 0.136797, 0.135609, 0.136153, 0.136614, 0.132389, 0.134432, 0.134497, 0.134636, 0.131945, 0.135711, 0.139107, 0.13806, 0.143947, 0.265734, 0.178569, 0.178074, 0.178719, 0.17767, 0.175931, 0.206248, 0.206486, 0.206142, 0.20492, 0.396426, 0.00339154, 0.244704, 0.245567, 0.246197, 0.246254, 0.245964, 0.00384381, 0.303831, 0.00362514, 0.422292, 0.00390632, 0.458119, 0.00346628, 0.295673, 0.307706, 0.30604, 0.306334, 0.305612, 0.304656, 0.437791, 0.431503, 0.610937, 0.611587, 0.599657, 0.595874, 0.43964, 0.554373, 0.556932, 0.474267, 0.537045, 0.431662, 0.527645, 0.521807, 0.521354, 0.746804, 0.708726, 0.621935, 0.460605, 0.61692, 0.6735, 0.607491, 0.717887, 0.715185, 0.660231, 0.00374105, 0.657192, 0.673903, 0.51426, 0.510626, 0.671511, 0.649284, 0.645247, 0.796977, 0.794507, 0.570219, 0.686701, 0.859383, 0.925043, 0.75987, 0.693895, 1.1983, 0.6858, 0.680537, 0.694596, 0.709016, 0.674204, 0.687731, 0.680927, 0.671584, 0.65566, 0.700653, 0.770174, 0.668787, 0.669343, 0.668963, 0.667213, 0.660011, 0.660956, 0.662028, 0.823282, 0.90443, 0.873249, 0.861229, 0.745667, 0.749758, 0.726301, 0.72589, 0.818732, 0.961197, 0.733658, 0.730672, 0.975975, 0.956286, 1.03071, 0.912773, 0.818383, 0.863101, 0.927703, 0.939101, 0.896923, 0.979192, 0.947455, 0.991382, 1.004, 0.94868, 0.966957, 0.858817, 0.859177, 0.916009, 0.914643, 0.996845, 1.01159, 1.0296, 1.06879, 1.1876, 1.08111, 1.15028, 1.20681, 1.20569, 1.20263, 1.13568, 1.10297, 1.10401, 1.1088, 1.10838, 1.14311, 1.17393, 1.11909, 1.09114, 1.1157, 1.10812, 1.04724, 0.997393, 1.00584, 0.971592, 0.973258, 0.983452, 0.984875, 0.985105, 0.984473, 1.00193, 0.970493, 0.948089, 0.947116, 1.03945, 1.07876, 1.05873, 1.0892, 1.0673, 1.0992, 1.06716, 1.0901, 1.16846, 1.16401, 1.14432, 1.11925, 1.16369, 1.15699, 1.11923, 1.16477, 1.07881, 1.07418, 1.16375, 1.06608, 1.07878, 1.08881, 1.0888, 1.09604, 1.0781, 1.07768, 1.02263, 1.02172, 1.20123, 1.13159, 1.01672, 1.01561, 1.01527, 1.01437, 1.01325, 1.01126, 1.0114, 1.01192, 1.07895, 1.26304, 1.25232, 1.02848, 1.07118, 1.24773, 1.26081, 1.08416, 1.06414, 1.06711, 1.3239, 1.07544, 1.07655, 1.22306, 1.14607, 1.22962, 1.21192, 1.1283, 1.13692, 1.13435, 1.144, 1.14982, 1.16474, 1.15965, 1.16009, 1.14359, 1.14452, 1.14559, 1.14655, 1.38462, 1.22437, 1.19977, 1.20578, 1.16228, 1.18546, 1.15936, 1.1601, 1.18409, 1.19198, 1.16754, 1.18099, 1.18519, 1.22145, 1.2683, 1.28583, 1.16432, 1.15785, 1.15634, 1.14945, 1.15047, 1.26127, 1.25148, 1.21297, 1.22278, 1.24382, 1.2055, 1.23776, 1.33759, 1.35402, 1.22304, 1.364, 1.34613, 1.2655, 1.26057, 1.50181, 1.33021, 1.54909, 1.54037, 1.43636, 1.45851, 1.48182, 1.34787, 1.51805, 1.52046, 1.39628, 1.47516, 1.48231, 1.46817, 1.4457, 1.43937, 1.52283, 1.50261, 1.56279, 1.43611, 0.00362042, 1.44348
0.124412, 0.125156, 0.124395, 0.122962, 0.129847, 0.129573, 0.128367, 0.127357, 0.128338, 0.129478, 0.133933, 0.133148, 0.131752, 0.130501, 0.131538, 0.129997, 0.128393, 0.140924, 0.140163, 0.138612, 0.13779, 0.140149, 0.140097, 0.177449, 0.176138, 0.175336, 0.181895, 0.00403664, 0.252203, 0.231063, 0.224264, 0.0035976, 0.224084, 0.223396, 0.543864, 0.224515, 0.241247, 0.00411592, 0.293231, 0.259881, 0.260266, 0.25911, 0.759808, 0.51069, 0.48386, 0.473703, 0.303113, 0.303603, 0.304051, 0.302953, 0.302629, 0.369512, 0.606977, 0.00386355, 0.394006, 0.00315752, 0.545345, 0.610838, 0.549645, 0.576627, 0.415497, 0.543533, 0.523346, 0.4972, 0.525152, 0.442733, 0.628784, 0.628076, 0.513266, 0.520784, 0.522805, 0.618456, 0.534047, 0.527562, 0.497057, 0.77442, 0.59376, 0.537993, 0.728292, 0.780663, 0.639507, 0.530962, 0.539787, 0.622789, 0.788566, 0.778334, 0.567432, 0.563775, 0.725019, 0.708092, 0.714849, 0.64096, 0.728004, 0.726114, 0.60397, 0.612212, 0.694312, 0.693137, 0.680738, 0.684359, 0.68524, 0.706037, 0.694396, 0.670564, 0.66803, 0.669268, 0.670308, 0.676611, 0.80311, 0.652124, 0.653107, 0.652359, 0.659021, 0.658595, 0.658249, 0.746463, 0.787138, 0.792513, 0.919141, 0.78919, 0.791542, 0.715005, 0.725926, 0.732804, 0.765654, 0.922666, 0.763827, 0.76633, 0.836043, 1.00892, 0.828878, 0.867316, 0.866486, 0.901573, 0.91564, 0.828722, 0.833579, 0.83388, 0.991699, 0.89647, 0.869966, 0.870895, 0.871634, 0.949753, 0.956003, 0.994945, 1.0176, 1.02603, 1.02552, 1.06445, 1.07383, 1.08436, 1.11872, 1.08914, 1.16989, 1.11544, 1.08382, 1.08437, 1.10587, 1.08125, 1.0828, 1.08494, 1.08583, 1.04604, 1.07427, 1.08425, 1.05788, 0.984328, 0.985095, 0.985427, 0.987938, 1.0607, 1.05697, 1.06497, 0.948574, 0.950071, 1.11325, 1.09432, 1.11312, 1.11672, 1.08095, 1.18982, 1.16802, 1.1362, 1.10863, 1.15831, 1.14827, 1.12206, 1.12549, 1.156, 1.16489, 1.15735, 1.21161, 1.21271, 1.07463, 1.13539, 1.10919, 1.15435, 1.05564, 1.04837, 1.16817, 1.13963, 1.1516, 1.0229, 1.02387, 1.10938, 1.19205, 1.2105, 1.09859, 1.01588, 1.01657, 1.07894, 1.13139, 1.00669, 1.00721, 1.00683, 1.00808, 1.09714, 1.13446, 1.03096, 1.0835, 1.08939, 1.0616, 1.06682, 1.06984, 1.07673, 1.17402, 1.1746, 1.09952, 1.16383, 1.26237, 1.12182, 1.11988, 1.11921, 1.11903, 1.17171, 1.15002, 1.1567, 1.13318, 1.13289, 1.17625, 1.15394, 1.19789, 1.15242, 1.15247, 1.14657, 1.14459, 1.14473, 1.14715, 1.14957, 1.14935, 1.1479, 1.14835, 1.20994, 1.16141, 1.15749, 1.17509, 1.1788, 1.26238, 1.16001, 1.164, 1.15297, 1.1478, 1.14827, 1.14885, 1.16033, 1.27722, 1.30859, 1.23456, 1.17935, 1.24978, 1.26687, 1.27697, 1.20932, 1.30802, 1.29603, 1.34216, 1.27129, 1.3105, 1.29597, 1.48849, 1.48203, 1.40011, 1.32589, 1.5675, 1.56752, 1.52052, 1.54035, 1.55399, 1.59599, 1.62064, 1.45258, 1.44823, 1.48485, 1.4832, 1.46921, 1.61295, 1.6271, 1.63663, 1.58995
0.121919, 0.11998, 0.122076, 0.121686, 0.122047, 0.129173, 0.128008, 0.126802, 0.130479, 0.128237, 0.128552, 0.13461, 0.130727, 0.127649, 0.12712, 0.128475, 0.127779, 0.127204, 0.126905, 0.136229, 0.139609, 0.141741, 0.142367, 0.142279, 0.141997, 0.140356, 0.00416208, 0.235089, 0.199182, 0.227509, 0.224266, 0.224024, 0.225347, 0.226337, 0.227596, 0.226822, 0.22496, 0.439794, 0.00373122, 0.256107, 0.780572, 0.821562, 0.640294, 0.286933, 0.00373657, 0.469453, 0.466788, 0.452235, 0.679218, 0.452011, 0.00411131, 0.621639, 0.336358, 0.462741, 0.47019, 0.590632, 0.420734, 0.58006, 0.493734, 0.592041, 0.00401031, 0.462043, 0.539551, 0.531856, 0.535964, 0.479073, 0.526176, 0.50052, 0.527416, 0.535326, 0.548073, 0.812517, 0.537455, 0.813284, 0.707994, 0.704897, 0.503665, 0.798053, 0.791035, 0.52859, 0.700317, 0.611884, 0.861172, 0.819315, 0.531232, 0.563836, 0.577882, 0.611546, 0.577162, 0.587995, 0.715147, 0.579795, 0.635237, 0.58162, 0.581795, 0.580761, 0.774967, 0.680924, 0.705278, 0.714, 0.697246, 0.67122, 0.710651, 0.757757, 0.761973, 0.686403, 0.697563, 0.808768, 0.808458, 1.02945, 0.654491, 0.655087, 0.655564, 0.659755, 0.660447, 0.661129, 0.809013, 0.817161, 0.677839, 0.7769, 0.787437, 0.852878, 0.914216, 0.88922, 0.822936, 0.91864, 0.93349, 0.939159, 0.890824, 0.957524, 0.957212, 0.958518, 0.878241, 0.813228, 0.821048, 0.82007, 0.829064, 0.831125, 0.836224, 0.840211, 0.900925, 0.874272, 0.984709, 0.980574, 0.956719, 0.967852, 0.965119, 0.964564, 1.00271, 0.994925, 0.995961, 0.999285, 1.0125, 1.0065, 1.09352, 1.16038, 1.08003, 1.12244, 1.10265, 1.10381, 1.09939, 1.09572, 1.1295, 1.06064, 1.06419, 1.07061, 1.13222, 1.16454, 1.09124, 1.03935, 1.04012, 1.03727, 1.06838, 1.04862, 1.04976, 1.09397, 1.03914, 1.05253, 1.04591, 1.0433, 1.10877, 1.1068, 1.18408, 1.14119, 1.15586, 1.14986, 1.14064, 1.13898, 1.16882, 1.145, 1.14612, 1.15222, 1.14065, 1.10821, 1.1855, 1.08819, 1.07465, 1.11981, 1.1615, 1.18236, 1.18022, 1.03954, 1.1607, 1.03253, 1.13279, 1.18593, 1.0701, 1.06095, 1.06047, 1.10524, 1.22922, 1.06827, 1.03989, 1.00702, 1.00751, 1.00487, 1.00698, 1.0085, 1.1682, 1.10576, 1.10695, 1.1498, 1.11915, 1.08272, 1.12006, 1.08721, 1.12802, 1.14549, 1.18257, 1.1081, 1.11208, 1.11346, 1.1148, 1.11548, 1.11917, 1.12148, 1.12182, 1.16706, 1.1329, 1.14104, 1.14375, 1.14762, 1.1474, 1.14978, 1.15391, 1.15028, 1.14784, 1.14733, 1.14367, 1.14463, 1.21021, 1.14652, 1.14625, 1.25663, 1.15345, 1.17432, 1.14908, 1.21231, 1.32259, 1.1602, 1.26763, 1.1996, 1.14815, 1.14716, 1.19739, 1.20079, 1.16388, 1.16394, 1.20318, 1.22055, 1.21936, 1.17592, 1.18589, 1.30425, 1.20883, 1.37644, 1.27091, 1.47555, 1.45364, 1.46511, 1.30625, 1.32301, 1.38568, 1.38783, 1.39579, 1.54602, 1.52272, 1.41855, 1.55739, 1.50568, 1.42678, 1.38684, 1.43291, 1.48546, 1.48522, 1.57836, 1.57969, 1.57512, 1.61329, 1.5524
0.113989, 0.113964, 0.113955, 0.11974, 0.119509, 0.121374, 0.133815, 0.134865, 0.134128, 0.134865, 0.137384, 0.138812, 0.137208, 0.125412, 0.124376, 0.125795, 0.125611, 0.126479, 0.127716, 0.127816, 0.135139, 0.138573, 0.138334, 0.143842, 0.141259, 0.140533, 0.289877, 0.00404659, 0.320677, 0.00387417, 0.299163, 0.222849, 0.226477, 0.227592, 0.2277, 0.226568, 0.225252, 0.24264, 0.241588, 0.241333, 0.429072, 0.00376948, 0.435134, 0.00368982, 0.371623, 0.292648, 0.437599, 0.00364016, 0.00353959, 0.00351196, 0.658938, 0.0036353, 0.42866, 0.424907, 0.618619, 0.618317, 0.442586, 0.435009, 0.615383, 0.00394967, 0.60628, 0.00373141, 0.550091, 0.578948, 0.556753, 0.556748, 0.540995, 0.519889, 0.749195, 0.530631, 0.545607, 0.525944, 0.784148, 0.717658, 0.739483, 0.775132, 0.58049, 0.694214, 0.501832, 0.732006, 0.774572, 0.690114, 0.759028, 0.671397, 0.532837, 0.532801, 0.571301, 0.561254, 0.688394, 0.561371, 0.595595, 0.600504, 0.589662, 0.581653, 0.582148, 0.581749, 0.581537, 0.579679, 0.595188, 0.595213, 0.594687, 0.717932, 0.663433, 0.739181, 0.714891, 0.715146, 0.700913, 0.797507, 0.819741, 0.809329, 0.905521, 0.80756, 0.808699, 0.656664, 0.843614, 0.791843, 0.784034, 0.675556, 0.675874, 0.676267, 0.678859, 0.686882, 0.687806, 0.687529, 0.690583, 0.802653, 0.911653, 0.793083, 0.853797, 0.837296, 0.807212, 0.821279, 0.806355, 0.929183, 0.820742, 0.881054, 0.88577, 0.811542, 0.812902, 0.819041, 0.820627, 0.924554, 0.899909, 0.920287, 0.944738, 0.946299, 0.967055, 0.957967, 0.991631, 0.992709, 0.994526, 0.997001, 1.00143, 1.00173, 1.01178, 0.986224, 0.988158, 1.03354, 1.11124, 1.22339, 1.12088, 1.1184, 1.08774, 1.21507, 1.0704, 1.01816, 1.01714, 1.01729, 1.0287, 1.02042, 1.02038, 1.01163, 1.01316, 1.01268, 1.0338, 1.05707, 1.02984, 1.0436, 1.0428, 1.05811, 1.11652, 1.11628, 1.10345, 1.10347, 1.10476, 1.17333, 1.14771, 1.14368, 1.14334, 1.22598, 1.15784, 1.15693, 1.15519, 1.12275, 1.10508, 1.09538, 1.14522, 1.08242, 1.14773, 1.0515, 1.05082, 1.04927, 1.04742, 1.04586, 1.05014, 1.26703, 1.07851, 1.22304, 1.22867, 1.25792, 1.12899, 1.08272, 1.09156, 1.05305, 1.02038, 1.19848, 1.01465, 1.01723, 1.02225, 1.19922, 1.15004, 1.02743, 1.16081, 1.06799, 1.26231, 1.12065, 1.12146, 1.10294, 1.27247, 1.21978, 1.11517, 1.11763, 1.12203, 1.15111, 1.1248, 1.12626, 1.13679, 1.15004, 1.14949, 1.15007, 1.48701, 1.34044, 1.17699, 1.15401, 1.15384, 1.15355, 1.14908, 1.14965, 1.16203, 1.20392, 1.14071, 1.22604, 1.19206, 1.16794, 1.14273, 1.18271, 1.13981, 1.14432, 1.17823, 1.14298, 1.17024, 1.17501, 1.17377, 1.13974, 1.23908, 1.21534, 1.23392, 1.23424, 1.28083, 1.16461, 1.28064, 1.28879, 1.16723, 1.21494, 1.2619, 1.19291, 1.20539, 1.28569, 1.26616, 1.27362, 1.3202, 1.27009, 1.35458, 1.36687, 1.36174, 1.42801, 1.41662, 1.3768, 1.37757, 1.42641, 1.44503, 1.41886, 1.54043, 1.48189, 1.54726, 1.60677, 1.65112, 1.65977, 1.57865, 1.74237
0.115221, 0.116373, 0.114988, 0.114195, 0.113295, 0.11768, 0.133654, 0.132641, 0.131972, 0.134008, 0.133597, 0.127437, 0.126166, 0.124514, 0.123697, 0.12226, 0.129549, 0.122876, 0.129696, 0.129469, 0.128639, 0.1273, 0.136295, 0.13576, 0.141598, 0.144018, 0.148015, 0.146612, 0.00385966, 0.324166, 0.271733, 0.213167, 0.210833, 0.225083, 0.00390769, 0.2408, 0.241228, 0.241351, 0.241716, 0.241061, 0.249556, 0.247666, 0.29818, 0.259542, 0.259385, 0.301056, 0.349852, 0.434712, 0.315192, 0.479896, 0.707708, 0.507655, 0.00344788, 0.650724, 0.445159, 0.615281, 0.62797, 0.470244, 0.438986, 0.610168, 0.559339, 0.594148, 0.427456, 0.567112, 0.562533, 0.46427, 0.53465, 0.495533, 0.539252, 0.541468, 0.537155, 0.733236, 0.514421, 0.553037, 0.547117, 0.548568, 0.5522, 0.639847, 0.559279, 0.639444, 0.559855, 0.558474, 0.526727, 0.730715, 0.531941, 0.532993, 0.677379, 0.687482, 0.553228, 0.58104, 0.572129, 0.733958, 0.5769, 0.578073, 0.578493, 0.578037, 0.579416, 0.567365, 0.568198, 0.679473, 0.727724, 0.589667, 0.754669, 0.75307, 0.757523, 0.718685, 0.688653, 0.708107, 0.738651, 0.753412, 0.695475, 0.801153, 0.880014, 0.798133, 0.803314, 0.791845, 0.843162, 0.832423, 0.719956, 0.929245, 0.907482, 0.864265, 0.699712, 0.710919, 0.711828, 0.81462, 0.859782, 0.925902, 0.835081, 0.785835, 0.793749, 0.794343, 0.778048, 0.806623, 0.81237, 0.811328, 0.827423, 0.822928, 0.822592, 0.857691, 0.857881, 0.856747, 0.895858, 0.913226, 0.932299, 0.932792, 0.962648, 0.962915, 0.986913, 0.997306, 0.993844, 0.965533, 0.959291, 0.966837, 0.967643, 0.977219, 0.989543, 0.991293, 1.03936, 1.01923, 1.06071, 1.11962, 1.04249, 1.03812, 1.03865, 1.04569, 1.0474, 1.04023, 1.01793, 1.0092, 1.00842, 1.00079, 1.01225, 1.01459, 1.0357, 1.02023, 1.02472, 1.03318, 1.05703, 1.05664, 1.07439, 1.06881, 1.06058, 1.08044, 1.10306, 1.10179, 1.18111, 1.23633, 1.20169, 1.1537, 1.15395, 1.17449, 1.18681, 1.12597, 1.13893, 1.13037, 1.136, 1.11288, 1.11265, 1.25401, 1.15365, 1.16036, 1.05353, 1.15423, 1.12296, 1.0796, 1.23421, 1.09431, 1.15462, 1.16427, 1.1435, 1.07424, 1.04197, 1.08146, 1.14061, 1.05413, 1.04713, 1.1824, 1.12072, 1.03319, 1.03033, 1.10085, 1.05028, 1.21217, 1.11996, 1.11959, 1.23999, 1.10532, 1.11414, 1.27811, 1.12872, 1.12982, 1.13201, 1.14354, 1.1445, 1.13333, 1.14313, 1.1457, 1.14978, 1.15437, 1.15535, 1.15988, 1.16086, 1.19619, 1.16054, 1.15504, 1.15056, 1.15231, 1.19939, 1.13994, 1.13711, 1.12782, 1.13288, 1.12317, 1.39591, 1.12935, 1.12745, 1.11523, 1.1351, 1.15269, 1.11851, 1.14406, 1.18062, 1.20683, 1.20614, 1.20165, 1.13718, 1.13698, 1.13473, 1.27461, 1.26756, 1.29788, 1.31331, 1.19453, 1.37104, 1.23046, 1.18198, 1.2941, 1.34406, 1.2724, 1.28024, 1.28645, 1.31577, 1.36433, 1.50579, 1.38693, 1.38586, 1.34111, 1.53866, 1.49861, 1.41032, 1.41082, 1.50193, 1.45314, 1.43686, 1.64309, 1.50045, 1.76142, 1.71772, 1.75333
0.115831, 0.113951, 0.114788, 0.114266, 0.115471, 0.115089, 0.116568, 0.124662, 0.124106, 0.123643, 0.121465, 0.123326, 0.124197, 0.123627, 0.124924, 0.129988, 0.128227, 0.128662, 0.127829, 0.127907, 0.128735, 0.13104, 0.135903, 0.141981, 0.139063, 0.141697, 0.00324015, 0.00365079, 0.299351, 0.00365215, 0.257972, 0.326241, 0.326704, 0.319192, 0.321855, 0.238395, 0.237346, 0.238787, 0.250856, 0.251033, 0.250819, 0.251363, 0.249119, 0.257778, 0.452898, 0.318052, 0.345977, 0.327392, 0.438614, 0.699278, 0.582781, 0.4628, 0.487199, 0.659968, 0.650771, 0.452107, 0.439161, 0.638922, 0.476859, 0.474027, 0.542891, 0.48047, 0.566491, 0.484168, 0.794812, 0.577031, 0.575146, 0.548383, 0.546206, 0.534273, 0.549222, 0.00404555, 0.543293, 0.52802, 0.547058, 0.538033, 0.544885, 0.634035, 0.53444, 0.54225, 0.550091, 0.528834, 0.56291, 0.529114, 0.536012, 0.786505, 0.81096, 0.79109, 0.545859, 0.547057, 0.749483, 0.80188, 0.753931, 0.575927, 0.57528, 0.574558, 0.562274, 0.562835, 0.56662, 0.570501, 0.683926, 0.574589, 0.669811, 0.752709, 0.673423, 0.778655, 0.738915, 0.769763, 0.758286, 0.763364, 0.717887, 0.719328, 0.752188, 0.760729, 0.741766, 0.741338, 0.735909, 0.761504, 0.761258, 0.74949, 0.787593, 0.791709, 0.7988, 0.710558, 0.710838, 0.77684, 0.780656, 0.787902, 0.785932, 0.801655, 0.808994, 0.805109, 0.780373, 0.794915, 0.804197, 0.817896, 0.841522, 0.887804, 0.868521, 0.870766, 0.893692, 0.877614, 0.921837, 0.957347, 0.940229, 0.985475, 0.984627, 0.953364, 0.96146, 0.978817, 0.980829, 0.965168, 0.962439, 0.960669, 0.959457, 0.967871, 0.96808, 1.01915, 1.00181, 1.00856, 1.00853, 1.03284, 1.01102, 1.01245, 1.03123, 1.04682, 1.05266, 1.03548, 1.03279, 1.02699, 1.01881, 1.01763, 1.01964, 1.011, 1.01553, 1.03839, 1.04544, 1.07018, 1.08085, 1.08452, 1.07761, 1.09095, 1.07798, 1.07874, 1.08749, 1.08714, 1.15082, 1.16479, 1.20201, 1.17529, 1.18042, 1.18173, 1.19285, 1.12669, 1.13329, 1.10861, 1.09125, 1.07384, 1.07321, 1.07084, 1.07221, 1.09464, 1.06284, 1.05682, 1.05764, 1.21898, 1.09151, 1.31733, 1.05923, 1.0976, 1.17463, 1.04982, 1.05609, 1.06367, 1.18943, 1.19957, 1.05736, 1.18189, 1.0532, 1.05566, 1.09499, 1.09444, 1.26551, 1.28562, 1.25846, 1.14446, 1.15694, 1.11958, 1.12866, 1.13436, 1.1487, 1.14276, 1.14069, 1.19192, 1.14653, 1.1535, 1.15093, 1.15656, 1.16574, 1.16226, 1.18095, 1.17971, 1.20677, 1.18535, 1.16017, 1.15865, 1.15758, 1.14925, 1.14335, 1.18545, 1.12652, 1.12152, 1.12382, 1.25784, 1.24627, 1.15753, 1.13739, 1.11055, 1.1077, 1.10897, 1.11199, 1.21659, 1.11948, 1.2127, 1.18403, 1.12055, 1.22256, 1.25983, 1.12927, 1.12362, 1.32312, 1.13385, 1.16758, 1.31699, 1.31768, 1.21905, 1.18547, 1.32254, 1.18819, 1.34417, 1.30585, 1.32573, 1.4798, 1.5056, 1.56723, 1.49892, 1.29235, 1.38585, 1.35006, 1.55838, 1.46741, 1.45781, 1.60922, 1.44501, 1.38757, 1.48611, 1.40322, 1.41377, 1.50059, 1.71465
0.115508, 0.114192, 0.112979, 0.11456, 0.112308, 0.113779, 0.114331, 0.114298, 0.12031, 0.120378, 0.120735, 0.125454, 0.123999, 0.122339, 0.123163, 0.130292, 0.129117, 0.128621, 0.128028, 0.129783, 0.128879, 0.128476, 0.148511, 0.138971, 0.147547, 0.147146, 0.424972, 0.42239, 0.00325947, 0.199352, 0.198912, 0.197646, 0.197735, 0.198086, 0.204548, 0.203243, 0.297163, 0.29871, 0.249122, 0.250227, 0.250071, 0.24915, 0.248599, 0.328035, 0.32112, 0.500221, 0.480498, 0.483543, 0.482861, 0.498053, 0.30223, 0.398298, 0.504833, 0.491134, 0.0034596, 0.431149, 0.00369243, 0.635697, 0.628601, 0.62092, 0.434754, 0.80924, 0.595526, 0.594677, 0.594374, 0.675799, 0.843147, 0.501344, 0.54933, 0.549639, 0.538169, 0.539806, 0.544296, 0.543618, 0.561001, 0.563458, 0.566391, 0.563334, 0.55832, 0.795367, 0.52578, 0.525762, 0.531097, 0.532637, 0.874805, 0.883618, 0.735586, 0.546724, 0.548681, 0.549783, 0.550024, 0.79327, 0.559589, 0.573541, 0.574103, 0.614616, 0.560623, 0.559663, 0.56215, 0.560219, 0.762643, 0.629135, 0.610549, 0.662548, 0.610643, 0.674098, 0.670948, 0.728802, 0.728492, 0.901831, 0.752589, 0.762753, 0.769467, 0.81192, 0.780276, 0.832218, 0.760516, 0.778386, 0.778338, 0.776777, 0.775944, 0.780329, 0.76387, 0.755838, 0.756439, 0.773732, 0.764366, 0.764177, 0.763097, 0.805861, 0.814558, 0.843202, 0.842921, 0.843212, 0.878787, 0.884695, 0.888515, 0.888386, 0.894327, 0.981925, 0.926779, 0.917745, 0.953197, 0.939006, 0.982109, 1.01842, 1.01958, 1.0232, 1.04324, 1.03347, 1.02957, 1.01617, 1.00704, 1.01935, 1.00932, 1.01171, 0.998217, 1.06046, 1.05086, 1.0603, 1.04388, 1.05735, 1.07061, 1.07017, 1.06851, 1.05928, 1.04516, 1.04705, 1.07827, 1.07829, 1.04821, 1.07033, 1.05512, 1.05323, 1.05595, 1.09112, 1.11652, 1.11528, 1.12336, 1.11173, 1.12275, 1.11347, 1.14236, 1.12538, 1.11538, 1.11059, 1.14317, 1.30209, 1.17568, 1.16407, 1.27567, 1.28214, 1.13989, 1.12293, 1.14871, 1.19527, 1.18898, 1.08342, 1.07847, 1.25426, 1.08802, 1.17475, 1.08513, 1.1778, 1.06969, 1.23667, 1.25386, 1.26469, 1.25851, 1.08476, 1.26135, 1.24502, 1.05669, 1.06788, 1.21596, 1.07113, 1.08854, 1.09129, 1.06629, 1.07393, 1.0822, 1.11566, 1.15354, 1.08681, 1.09739, 1.25393, 1.12768, 1.36058, 1.14104, 1.1405, 1.14165, 1.14164, 1.14696, 1.19712, 1.1545, 1.1616, 1.16792, 1.17414, 1.17513, 1.17749, 1.26721, 1.20853, 1.20782, 1.17105, 1.16441, 1.16386, 1.16334, 1.15093, 1.1411, 1.14108, 1.13002, 1.11494, 1.11351, 1.11053, 1.15298, 1.10452, 1.13776, 1.1077, 1.10852, 1.10865, 1.10808, 1.10448, 1.10296, 1.10358, 1.10919, 1.28505, 1.29194, 1.17027, 1.14691, 1.28632, 1.10899, 1.11059, 1.19546, 1.22923, 1.22329, 1.21926, 1.31286, 1.31207, 1.34031, 1.292, 1.23678, 1.28345, 1.28893, 1.28661, 1.28606, 1.2944, 1.31967, 1.37588, 1.43365, 1.48208, 1.43156, 1.46887, 1.46694, 1.46738, 1.57294, 1.66075, 1.65982, 1.63577, 1.75342, 1.75589
0.124365, 0.114451, 0.112611, 0.113137, 0.115352, 0.117038, 0.116065, 0.116054, 0.120157, 0.123726, 0.122753, 0.122192, 0.125471, 0.126865, 0.139252, 0.138218, 0.134113, 0.13868, 0.137969, 0.136857, 0.144374, 0.142308, 0.148343, 0.148954, 0.149211, 0.148297, 0.423272, 0.00350395, 0.27562, 0.00383078, 0.328568, 0.201564, 0.199808, 0.198792, 0.198146, 0.204795, 0.203208, 0.396407, 0.396556, 0.0039715, 0.248895, 0.248846, 0.247701, 0.00394531, 0.268951, 0.277103, 0.275036, 0.485958, 0.441833, 0.290369, 0.296166, 0.00368632, 0.369606, 0.402972, 0.498053, 0.414935, 0.341941, 0.0039416, 0.00338005, 0.00376067, 0.641503, 0.492812, 0.622262, 0.607406, 1.32798, 0.589544, 0.591126, 0.506617, 0.559903, 0.57294, 0.545465, 0.555344, 1.16793, 0.54902, 0.500201, 0.573529, 1.15742, 1.16998, 0.518544, 1.1501, 0.54393, 0.525854, 0.530954, 0.531313, 0.53094, 0.839453, 0.54435, 0.546516, 0.547171, 0.552521, 0.554331, 0.554329, 0.552212, 0.546638, 0.547062, 0.546965, 0.599059, 0.651948, 0.620322, 0.586938, 0.604106, 0.518087, 0.609949, 0.605792, 0.69205, 0.639554, 0.641677, 0.613601, 0.612303, 0.593462, 0.681151, 0.682202, 0.610438, 0.60875, 0.698645, 0.810808, 0.720996, 0.72185, 0.730456, 0.739013, 0.733978, 0.773247, 0.760031, 0.761886, 0.783689, 0.792917, 0.791769, 0.782179, 0.777451, 0.799414, 0.840223, 0.839438, 0.817458, 0.839576, 0.899009, 0.898874, 0.898702, 0.932907, 0.950486, 0.947567, 0.960618, 0.92398, 0.977547, 0.966935, 0.995615, 0.991771, 0.986965, 1.069, 1.02503, 1.03928, 1.04509, 1.04703, 1.04127, 1.04657, 1.03846, 1.03938, 1.04272, 1.05259, 1.06246, 1.07145, 1.06555, 1.09719, 1.08338, 1.054, 1.06499, 1.06536, 1.06803, 1.09238, 1.09815, 1.07406, 1.08265, 1.08064, 1.10462, 1.09577, 1.10021, 1.11534, 1.13429, 1.15705, 1.14077, 1.13991, 1.14192, 1.14237, 1.12387, 1.13437, 1.15653, 1.16062, 1.16577, 1.16193, 1.16731, 1.16074, 1.14295, 1.19487, 1.22681, 1.21892, 1.09781, 1.09189, 1.08725, 1.08713, 1.08922, 1.09135, 1.09439, 1.0974, 1.13017, 1.16556, 1.07805, 1.07676, 1.11527, 1.11572, 1.29233, 1.16343, 1.15524, 1.07295, 1.08756, 1.09057, 1.07272, 1.07825, 1.08111, 1.08012, 1.07798, 1.19284, 1.08771, 1.29193, 1.09702, 1.09723, 1.17395, 1.12291, 1.28554, 1.29515, 1.31262, 1.14723, 1.1463, 1.14617, 1.15187, 1.16069, 1.16958, 1.17435, 1.18125, 1.17827, 1.19268, 1.19578, 1.20409, 1.20921, 1.18696, 1.17201, 1.16827, 1.15959, 1.17534, 1.14398, 1.13563, 1.30075, 1.12974, 1.17456, 1.11258, 1.10748, 1.10101, 1.10244, 1.26391, 1.13709, 1.13652, 1.29925, 1.20146, 1.09898, 1.10039, 1.11979, 1.27734, 1.28077, 1.1812, 1.14394, 1.09271, 1.23059, 1.17196, 1.08712, 1.17572, 1.15747, 1.16394, 1.32328, 1.17395, 1.26435, 1.2837, 1.16132, 1.17146, 1.22876, 1.34037, 1.29908, 1.28574, 1.38072, 1.35492, 1.26819, 1.39208, 1.30182, 1.54759, 1.52435, 1.42594, 1.41703, 1.58582, 1.60295, 1.53985, 1.61325, 1.59611, 1.63747
0.126166, 0.110725, 0.111284, 0.111692, 0.109687, 0.115622, 0.115211, 0.115754, 0.118673, 0.123514, 0.12238, 0.121115, 0.136735, 0.137579, 0.141077, 0.138906, 0.140249, 0.139368, 0.138359, 0.144669, 0.144681, 0.142889, 0.147876, 0.14808, 0.150362, 0.149087, 0.152995, 0.151844, 0.159341, 0.270128, 0.00380721, 0.197956, 0.197603, 0.195956, 0.199299, 0.211043, 0.218477, 0.217159, 0.22937, 0.229513, 0.247367, 0.246907, 0.00363102, 0.327196, 0.264947, 0.267397, 0.00367549, 0.266019, 0.267141, 0.435525, 0.432399, 0.434349, 0.432743, 0.371975, 0.00399011, 0.453603, 0.708307, 0.630018, 0.630463, 0.638166, 0.649312, 0.535567, 0.656407, 0.816176, 0.822885, 0.6104, 0.587242, 0.604442, 0.603631, 0.508005, 0.556125, 0.550106, 0.560129, 0.559747, 0.555461, 0.565665, 0.00381309, 0.736975, 0.702005, 0.689253, 0.785465, 0.526011, 0.528139, 0.528809, 0.531057, 0.726573, 0.565209, 0.512719, 0.513655, 0.514254, 0.513937, 0.515033, 0.511257, 0.511264, 0.510143, 0.508023, 0.507311, 0.504369, 0.508085, 0.52542, 0.601995, 0.596974, 0.601106, 0.565602, 0.674248, 0.688201, 0.579866, 0.629574, 0.591385, 0.591935, 0.583145, 0.585662, 0.600986, 0.60496, 0.655266, 0.652917, 0.672209, 0.68286, 0.721804, 0.73159, 0.736335, 0.784705, 0.802897, 0.793642, 0.801818, 0.784263, 0.804921, 0.805378, 0.823305, 0.862217, 0.8564, 0.856248, 0.896944, 0.919633, 0.917595, 0.919452, 0.943853, 0.945505, 0.9468, 0.957346, 1.00684, 1.00502, 1.00176, 0.978169, 0.984061, 1.00986, 1.02258, 1.04698, 1.04947, 1.08147, 1.04595, 1.06735, 1.06426, 1.06443, 1.05411, 1.05466, 1.06753, 1.07745, 1.07541, 1.0747, 1.07514, 1.08654, 1.10126, 1.07884, 1.07768, 1.08142, 1.09841, 1.10149, 1.1298, 1.1205, 1.11172, 1.11143, 1.13512, 1.13217, 1.12967, 1.16155, 1.17223, 1.19824, 1.18467, 1.17858, 1.16656, 1.19106, 1.15651, 1.15107, 1.14836, 1.1478, 1.15291, 1.15334, 1.16622, 1.18457, 1.14661, 1.16852, 1.10459, 1.10226, 1.17435, 1.2098, 1.17097, 1.1776, 1.1841, 1.175, 1.11938, 1.09786, 1.09791, 1.08797, 1.08843, 1.13989, 1.1472, 1.08938, 1.20293, 1.23903, 1.24679, 1.08903, 1.14028, 1.09333, 1.09183, 1.08613, 1.10377, 1.12902, 1.1061, 1.11967, 1.10143, 1.10186, 1.10562, 1.25973, 1.12231, 1.14012, 1.14158, 1.18193, 1.18268, 1.15482, 1.35408, 1.33722, 1.3474, 1.18198, 1.17832, 1.1839, 1.18799, 1.20095, 1.24675, 1.2095, 1.2675, 1.26834, 1.2535, 1.37891, 1.37587, 1.15762, 1.14927, 1.13914, 1.24001, 1.126, 1.11827, 1.10541, 1.09643, 1.10443, 1.09957, 1.09649, 1.17297, 1.13754, 1.15471, 1.22728, 1.22829, 1.08531, 1.07864, 1.07904, 1.11892, 1.07897, 1.18875, 1.08209, 1.13615, 1.10832, 1.12286, 1.12932, 1.12389, 1.14611, 1.14408, 1.15359, 1.1469, 1.10882, 1.2723, 1.25105, 1.24497, 1.29566, 1.29624, 1.20331, 1.33264, 1.33014, 1.24861, 1.38246, 1.31538, 1.34446, 1.38315, 1.45588, 1.55064, 1.51009, 1.48277, 1.48045, 1.49179, 1.47845, 1.38211, 1.38836
0.101472, 0.101344, 0.10115, 0.10041, 0.102681, 0.114367, 0.114157, 0.11751, 0.119498, 0.119484, 0.123464, 0.126727, 0.124247, 0.138773, 0.139012, 0.139167, 0.137796, 0.140203, 0.141484, 0.140541, 0.140851, 0.142654, 0.152318, 0.150993, 0.149514, 0.152177, 0.149912, 0.162583, 0.161544, 0.161153, 0.185453, 0.185238, 0.186452, 0.18546, 0.211695, 0.21116, 0.211648, 0.210577, 0.209904, 0.0035068, 0.24555, 0.00324845, 0.446208, 0.441595, 0.438336, 0.265658, 0.264957, 0.265159, 0.26517, 0.00365247, 0.347877, 0.00383385, 0.363203, 0.00376398, 0.3797, 0.563279, 0.459082, 0.00376524, 0.620266, 0.00404685, 0.462447, 0.00340394, 0.642054, 0.632876, 0.80091, 0.590274, 0.618494, 0.00353601, 0.439271, 0.00339707, 0.579561, 0.559418, 0.568037, 0.00359673, 0.490942, 0.559394, 0.621845, 0.718177, 0.504644, 0.505675, 0.505645, 0.506359, 0.507203, 0.507395, 0.507325, 0.513968, 0.514708, 0.513649, 0.51549, 0.513888, 0.513678, 0.514087, 0.514862, 0.600889, 0.585153, 0.503465, 0.607946, 0.605286, 0.525084, 0.524986, 0.534012, 0.65952, 0.549382, 0.663816, 0.586883, 0.586973, 0.578745, 0.578318, 0.542812, 0.551977, 0.553493, 0.560561, 0.590616, 0.553919, 0.569845, 0.570792, 0.645583, 0.652476, 0.70948, 0.700854, 0.790205, 0.78917, 0.793888, 0.795348, 0.830251, 0.841968, 0.843232, 0.886449, 0.873123, 0.866857, 0.876459, 0.903321, 0.910214, 0.922209, 0.923944, 0.928614, 0.932417, 0.942627, 0.984875, 0.989459, 1.01602, 1.01869, 1.01601, 1.01468, 1.0427, 1.03415, 1.08155, 1.07177, 1.03644, 1.07708, 1.05345, 1.09115, 1.08492, 1.07848, 1.08531, 1.07029, 1.10609, 1.11539, 1.1116, 1.11444, 1.09742, 1.09355, 1.09655, 1.11557, 1.11357, 1.16076, 1.16289, 1.1641, 1.14957, 1.15127, 1.16561, 1.16754, 1.16349, 1.17179, 1.17749, 1.19153, 1.19671, 1.22187, 1.19898, 1.22817, 1.21243, 1.21311, 1.19712, 1.18503, 1.16505, 1.14693, 1.14161, 1.15379, 1.15467, 1.14502, 1.13541, 1.13506, 1.13583, 1.15855, 1.16181, 1.15745, 1.15587, 1.15501, 1.18041, 1.11114, 1.16935, 1.10435, 1.28889, 1.09295, 1.36537, 1.09534, 1.09499, 1.17553, 1.09822, 1.10924, 1.21626, 1.11896, 1.11675, 1.11691, 1.11269, 1.10275, 1.16048, 1.12305, 1.11053, 1.1032, 1.11833, 1.28537, 1.25014, 1.24691, 1.26003, 1.21888, 1.1675, 1.17498, 1.15199, 1.1592, 1.17716, 1.17811, 1.33698, 1.20993, 1.26058, 1.32672, 1.20306, 1.19573, 1.21533, 1.20893, 1.32354, 1.22272, 1.17281, 1.17069, 1.16444, 1.16243, 1.13777, 1.13558, 1.11906, 1.11081, 1.10026, 1.09435, 1.09152, 1.09531, 1.15811, 1.16138, 1.09282, 1.13304, 1.11559, 1.06027, 1.06054, 1.12903, 1.10509, 1.16906, 1.17002, 1.04487, 1.05331, 1.17688, 1.22205, 1.18247, 1.10409, 1.12041, 1.05734, 1.14238, 1.09828, 1.20688, 1.20951, 1.1348, 1.27794, 1.11332, 1.25349, 1.30912, 1.24724, 1.43339, 1.33764, 0.00328906, 1.40532, 1.36169, 1.25728, 1.3374, 1.47212, 1.46376, 1.39874, 1.46183, 1.58291, 1.54337, 1.35861, 1.42898, 1.37117, 1.43362
0.0999741, 0.101719, 0.0994851, 0.0992987, 0.106059, 0.105233, 0.116178, 0.116402, 0.115899, 0.126563, 0.127387, 0.124617, 0.124368, 0.12497, 0.124783, 0.140702, 0.141866, 0.143706, 0.139637, 0.142176, 0.141068, 0.14047, 0.139158, 0.149756, 0.151853, 0.152581, 0.153551, 0.152758, 0.16205, 0.17011, 0.170181, 0.191042, 0.184649, 0.192107, 0.192965, 0.209731, 0.208796, 0.211037, 0.210163, 0.310443, 0.00337692, 0.242328, 0.0041135, 0.283384, 0.00378556, 0.30039, 0.00383661, 0.265476, 0.263712, 0.298975, 0.00375746, 0.377075, 0.0034482, 0.725735, 0.370447, 0.477427, 0.487197, 0.713832, 0.00381408, 0.449658, 0.666265, 0.648616, 0.497001, 0.624772, 0.643549, 0.636226, 0.628758, 0.712603, 0.621229, 0.451725, 0.452944, 0.592063, 0.515075, 0.590028, 0.530259, 0.590939, 0.679609, 0.542606, 0.504608, 0.504519, 0.504224, 0.506004, 0.506638, 0.507777, 0.508628, 0.580937, 0.51251, 0.550582, 0.55169, 0.549607, 0.542898, 0.543775, 0.54241, 0.584914, 0.527575, 0.622065, 0.680413, 0.523353, 0.523308, 0.53555, 0.534747, 0.53773, 0.549737, 0.580193, 0.579605, 0.543196, 0.543392, 0.535194, 0.573843, 0.542638, 0.563371, 0.545731, 0.563971, 0.533266, 0.533264, 0.566755, 0.580451, 0.656816, 0.710615, 0.69782, 0.769155, 0.769882, 0.835861, 0.823367, 0.836203, 0.839755, 0.860775, 0.88255, 0.886709, 0.878781, 0.881483, 0.922152, 0.916433, 0.935536, 0.943633, 0.943773, 0.965095, 0.988663, 0.988881, 0.988509, 0.992283, 1.00289, 1.01283, 1.01535, 1.03033, 1.03407, 1.04255, 1.04323, 1.04741, 1.04682, 1.08138, 1.09194, 1.08878, 1.09902, 1.11594, 1.11769, 1.12906, 1.13692, 1.12914, 1.12803, 1.12683, 1.12828, 1.13781, 1.13909, 1.14414, 1.14613, 1.31536, 1.20697, 1.21795, 1.21167, 1.22198, 1.20076, 1.21424, 1.22059, 1.21635, 1.22278, 1.22529, 1.23391, 1.24596, 1.25674, 1.23361, 1.21754, 1.21992, 1.2005, 1.20242, 1.19825, 1.1983, 1.1474, 1.14572, 1.15018, 1.14581, 1.18117, 1.20041, 1.17889, 1.17876, 1.25536, 1.24319, 1.24163, 1.154, 1.19812, 1.22021, 1.19501, 1.34828, 1.11064, 1.15903, 1.18739, 1.19663, 1.12601, 1.14795, 1.33904, 1.12318, 1.1244, 1.12579, 1.1203, 1.15392, 1.23906, 1.13041, 1.25171, 1.11572, 1.1165, 1.11796, 1.12662, 1.13585, 1.13873, 1.23019, 1.23064, 1.31593, 1.17771, 1.18216, 1.1943, 1.21665, 1.21015, 1.20083, 1.20865, 1.2104, 1.21215, 1.2195, 1.22322, 1.21914, 1.41086, 1.4374, 1.17781, 1.17531, 1.16523, 1.15625, 1.14848, 1.14048, 1.13326, 1.20549, 1.14748, 1.08672, 1.09964, 1.06371, 1.09883, 1.07367, 1.09886, 1.08524, 1.03657, 1.02883, 1.0954, 1.07804, 1.02643, 1.02624, 1.12954, 1.09086, 1.02955, 1.05146, 1.05146, 1.01906, 1.04692, 1.05543, 1.06383, 1.07548, 1.12342, 1.07863, 1.16145, 1.2547, 1.21267, 1.08873, 1.11819, 1.15319, 1.13597, 1.19562, 1.1642, 1.18767, 1.1864, 1.32286, 1.32233, 1.37833, 1.37586, 1.49603, 1.33633, 1.33068, 1.36813, 1.39339, 1.44708, 1.38049, 1.39578, 1.39992, 1.41746
0.0894, 0.106679, 0.107234, 0.106876, 0.106502, 0.10521, 0.104668, 0.113804, 0.114419, 0.112562, 0.127798, 0.126269, 0.124939, 0.125372, 0.127575, 0.14489, 0.142715, 0.143399, 0.142075, 0.140931, 0.139054, 0.140913, 0.145356, 0.152344, 0.152167, 0.151948, 0.155512, 0.155163, 0.158471, 0.168981, 0.167546, 0.172732, 0.192105, 0.190608, 0.192036, 0.193759, 0.192964, 0.00363445, 0.246579, 0.00377496, 0.380521, 0.00408299, 0.00375608, 0.251308, 0.252344, 0.250789, 0.245041, 0.244245, 0.372185, 0.370565, 0.305295, 0.00352251, 0.397273, 0.003815, 0.495145, 0.00348515, 0.376273, 0.00364164, 0.711202, 0.00379569, 0.683699, 0.00364929, 0.439448, 0.53142, 0.680266, 0.627687, 0.728851, 0.645825, 0.618585, 0.616815, 0.447063, 0.577905, 0.512933, 0.511223, 0.519538, 0.582365, 0.581973, 0.591375, 0.590736, 0.77971, 0.584396, 0.537492, 0.813694, 0.812917, 0.54653, 0.547063, 0.549615, 0.556643, 0.556374, 0.554029, 0.539777, 0.537194, 0.53586, 0.536224, 0.545198, 0.544995, 0.541404, 0.527587, 0.526662, 0.673087, 0.536025, 0.660156, 0.583557, 0.586528, 0.602964, 0.558856, 0.55747, 0.561138, 0.557445, 0.560205, 0.530104, 0.546809, 0.549823, 0.534855, 0.573605, 0.586613, 0.601408, 0.613998, 0.711713, 0.71168, 0.7368, 0.76554, 0.835658, 0.82982, 0.843435, 0.853056, 0.881423, 0.887275, 0.902016, 0.933381, 0.916578, 0.950893, 0.959563, 0.956296, 0.980341, 0.986289, 1.04711, 1.04775, 1.0538, 1.04941, 1.0196, 1.02777, 1.02963, 1.03874, 1.03794, 1.05328, 1.04768, 1.05731, 1.13034, 1.10658, 1.14641, 1.13834, 1.13558, 1.13305, 1.13746, 1.1407, 1.13695, 1.14511, 1.15999, 1.15839, 1.1883, 1.17418, 1.18233, 1.24993, 1.41354, 1.33408, 1.48415, 1.33365, 1.31263, 1.25832, 1.2457, 1.2339, 1.23908, 1.22617, 1.25656, 1.26054, 1.27054, 1.27937, 1.27253, 1.26002, 1.25425, 1.24115, 1.24616, 1.22489, 1.21568, 1.21075, 1.22458, 1.23287, 1.19042, 1.19381, 1.195, 1.20404, 1.19432, 1.29139, 1.20794, 1.25674, 1.24045, 1.17814, 1.1529, 1.15054, 1.15045, 1.19567, 1.11576, 1.11608, 1.1651, 1.26756, 1.19241, 1.1296, 1.13655, 1.13637, 1.13894, 1.16291, 1.13741, 1.13391, 1.1344, 1.13582, 1.20596, 1.13015, 1.14066, 1.13229, 1.13299, 1.14389, 1.25131, 1.31675, 1.17139, 1.17039, 1.17307, 1.33477, 1.20329, 1.20777, 1.30582, 1.30401, 1.20802, 1.19476, 1.19504, 1.19529, 1.19477, 1.24262, 1.25636, 1.33486, 1.3247, 1.18134, 1.18142, 1.16101, 1.34451, 1.22617, 1.12718, 1.11472, 1.14426, 1.11602, 1.07056, 1.06237, 1.1267, 1.12692, 1.08298, 1.02146, 1.02852, 1.02906, 1.02297, 1.00277, 1.15507, 1.00556, 1.02607, 1.07478, 1.11144, 1.06033, 1.04293, 1.03209, 1.03309, 1.12638, 1.01641, 1.01198, 1.08218, 1.06441, 1.0293, 1.09295, 1.04867, 1.11525, 1.12254, 1.22024, 1.23431, 1.24483, 1.19555, 1.29593, 1.26879, 1.24255, 1.51394, 1.37606, 1.38785, 1.38947, 1.38913, 1.3478, 1.27797, 1.29271, 1.3437, 1.40589, 1.39253, 1.41697, 1.50615, 1.40945
0.0901302, 0.0897992, 0.105994, 0.105896, 0.105271, 0.104221, 0.104231, 0.11322, 0.113057, 0.112986, 0.111386, 0.128108, 0.129352, 0.127729, 0.131754, 0.132736, 0.13337, 0.144191, 0.143991, 0.142204, 0.135926, 0.144582, 0.142801, 0.144409, 0.142606, 0.143074, 0.154431, 0.15942, 0.169048, 0.168615, 0.169302, 0.173531, 0.171984, 0.170727, 0.186844, 0.187758, 0.186325, 0.0040027, 0.203117, 0.204935, 0.204557, 0.203238, 0.00343812, 0.407274, 0.24512, 0.246202, 0.245501, 0.243645, 0.00375575, 0.308529, 0.00364637, 0.309371, 0.00378173, 0.494416, 0.0034559, 0.337733, 0.659788, 0.734226, 0.732567, 0.00330242, 0.00363107, 0.638469, 0.00350786, 0.468789, 0.00389977, 0.639349, 0.00337299, 0.469372, 0.635372, 0.614254, 0.507775, 0.617599, 0.611573, 0.599658, 0.597189, 0.590275, 0.590181, 0.898892, 0.729134, 1.01181, 1.0055, 0.74017, 0.749975, 0.562357, 0.562265, 0.566969, 0.567558, 0.565804, 0.548631, 0.548339, 0.547796, 0.541956, 0.609714, 0.614679, 0.545913, 0.556573, 0.560352, 0.55893, 0.630097, 0.646662, 0.645741, 0.635151, 0.595324, 0.619426, 0.591761, 0.590611, 0.585725, 0.584282, 0.570507, 0.563093, 0.584367, 0.598892, 0.587516, 0.60715, 0.597501, 0.601825, 0.656257, 0.656838, 0.752933, 0.744062, 0.752914, 0.763298, 0.811643, 0.826879, 0.870064, 0.88395, 0.885295, 0.909293, 0.94365, 0.926689, 0.972346, 0.970715, 0.987831, 0.986952, 0.993168, 1.0013, 1.04053, 1.02549, 1.01774, 1.0149, 1.04676, 1.05341, 1.03877, 1.0754, 1.10253, 1.10452, 1.07123, 1.1704, 1.17331, 1.15023, 1.15144, 1.16744, 1.17626, 1.16328, 1.16364, 1.16101, 1.18309, 1.17822, 1.18721, 1.21574, 1.22089, 1.22021, 1.24318, 1.38153, 1.35312, 1.35075, 1.31769, 1.3217, 1.29567, 1.3004, 1.26017, 1.25538, 1.27821, 1.2825, 1.26478, 1.28811, 1.28097, 1.30551, 1.2994, 1.28095, 1.26425, 1.26522, 1.27698, 1.24713, 1.2368, 1.23501, 1.21886, 1.20832, 1.23883, 1.21203, 1.24786, 1.22067, 1.20601, 1.2127, 1.29644, 1.24662, 1.22951, 1.20701, 1.17248, 1.21426, 1.18588, 1.20239, 1.23899, 1.21278, 1.21256, 1.35057, 1.14427, 1.17703, 1.15811, 1.17311, 1.16672, 1.15283, 1.14686, 1.14928, 1.2308, 1.13963, 1.14102, 1.13892, 1.1348, 1.13804, 1.26153, 1.27137, 1.234, 1.27552, 1.17624, 1.19625, 1.23263, 1.24776, 1.21957, 1.21138, 1.20471, 1.19353, 1.19427, 1.19452, 1.19511, 1.31639, 1.32302, 1.1928, 1.27518, 1.20555, 1.30154, 1.17242, 1.26409, 1.19602, 1.13411, 1.119, 1.14758, 1.10959, 1.07946, 1.07237, 1.0554, 1.09839, 1.03644, 1.03033, 1.02159, 1.07676, 1.07667, 0.986512, 1.01531, 1.09599, 1.08543, 0.981632, 0.978926, 1.02907, 0.974699, 0.975788, 0.982856, 1.08409, 0.987207, 1.03485, 1.1636, 0.996707, 0.999632, 1.13739, 1.20217, 1.1195, 1.06942, 1.07023, 1.12211, 1.11979, 1.1439, 1.09966, 1.27391, 1.19948, 1.20111, 1.3073, 1.35395, 1.34997, 1.38503, 1.3023, 1.30982, 1.33603, 1.32259, 1.31615, 1.29839, 1.32617, 1.34375, 1.3302, 1.31941, 1.41625
0.0835486, 0.0832536, 0.0965109, 0.0966786, 0.0974642, 0.104262, 0.110705, 0.104622, 0.110141, 0.11111, 0.117056, 0.118641, 0.117471, 0.136383, 0.136999, 0.137634, 0.131105, 0.140906, 0.140542, 0.138446, 0.139285, 0.139344, 0.139339, 0.138663, 0.142926, 0.142037, 0.144682, 0.145687, 0.167687, 0.170768, 0.170667, 0.171357, 0.169511, 0.168616, 0.186698, 0.186811, 0.185412, 0.183922, 0.202864, 0.201653, 0.202285, 0.214901, 0.214556, 0.0036645, 0.236024, 0.23583, 0.235082, 0.00383996, 0.301252, 0.00402912, 0.400249, 0.00360554, 0.342101, 0.00372916, 0.497334, 0.00367434, 0.383235, 0.00360808, 0.0035293, 0.00369393, 0.00387631, 0.00389294, 0.469924, 0.676699, 0.465055, 0.45484, 0.559194, 0.00336638, 0.625105, 0.64623, 0.622431, 0.00377032, 0.609339, 0.602455, 0.59777, 0.587091, 0.58691, 0.586328, 0.876866, 0.78689, 0.791029, 0.814364, 0.812562, 0.57047, 0.569991, 0.566117, 0.564569, 0.564109, 0.546742, 0.548547, 0.546823, 0.54581, 0.828223, 0.770172, 0.566298, 0.565886, 0.572578, 0.571522, 0.632742, 0.760636, 0.638887, 0.629252, 0.618962, 0.618414, 0.618949, 0.604279, 0.615183, 0.598254, 0.598235, 0.594393, 0.578332, 0.588303, 0.597942, 0.619507, 0.621969, 0.61801, 0.622825, 0.700821, 0.760567, 0.745959, 0.771146, 0.811183, 0.814721, 0.87087, 0.898527, 0.907953, 0.933048, 0.932456, 0.977668, 0.979023, 0.996629, 0.984175, 1.00282, 1.02132, 1.00823, 1.04808, 1.04605, 1.02861, 1.03218, 1.0416, 1.06523, 1.06519, 1.08424, 1.08618, 1.13265, 1.11185, 1.18458, 1.18419, 1.18753, 1.18553, 1.22362, 1.20285, 1.20138, 1.20353, 1.20167, 1.20601, 1.2569, 1.23105, 1.23556, 1.25658, 1.26564, 1.28182, 1.35139, 1.3368, 1.33791, 1.31659, 1.30211, 1.30652, 1.28809, 1.28637, 1.30703, 1.30988, 1.2952, 1.31275, 1.29213, 1.30254, 1.30481, 1.34274, 1.3195, 1.32221, 1.29622, 1.26247, 1.28983, 1.27133, 1.26714, 1.24776, 1.24737, 1.24076, 1.24648, 1.23741, 1.22325, 1.22284, 1.31279, 1.29578, 1.22385, 1.22463, 1.20684, 1.20829, 1.20914, 1.25403, 1.25832, 1.18026, 1.18043, 1.15491, 1.15659, 1.17497, 1.17595, 1.19222, 1.18773, 1.19045, 1.17796, 1.2289, 1.23316, 1.25348, 1.253, 1.2849, 1.2126, 1.28203, 1.15449, 1.28677, 1.29341, 1.29983, 1.18843, 1.19127, 1.28501, 1.4414, 1.30554, 1.34725, 1.30048, 1.19092, 1.19233, 1.19249, 1.19415, 1.19455, 1.19548, 1.19673, 1.23946, 1.23591, 1.2298, 1.23269, 1.2664, 1.23359, 1.21528, 1.13941, 1.12375, 1.1086, 1.10209, 1.10506, 1.09892, 1.06343, 1.05654, 1.05746, 1.02582, 1.03655, 0.993334, 0.987741, 1.04006, 1.11245, 0.973109, 0.96999, 0.968634, 0.968715, 0.970666, 0.97346, 0.968215, 0.96855, 0.972574, 0.974373, 1.02504, 0.985485, 0.980666, 0.984923, 0.986841, 0.998009, 1.02952, 1.03089, 1.00561, 1.00548, 1.04946, 1.05691, 1.21904, 1.07889, 1.08694, 1.0994, 1.11075, 1.19583, 1.31866, 1.22062, 1.39248, 1.19279, 1.31704, 1.43822, 1.26847, 1.23475, 1.24729, 1.27198, 1.27086, 1.31019, 1.29543, 1.39662
0.0832121, 0.0826605, 0.0983398, 0.0975943, 0.0973574, 0.0967172, 0.0974233, 0.105118, 0.104488, 0.118414, 0.117641, 0.115093, 0.114175, 0.13419, 0.133798, 0.131463, 0.128961, 0.129584, 0.128812, 0.1338, 0.133917, 0.135078, 0.140074, 0.139468, 0.141158, 0.144921, 0.146952, 0.147737, 0.156161, 0.155718, 0.168146, 0.167504, 0.168385, 0.168094, 0.167788, 0.1829, 0.00407499, 0.200059, 0.201098, 0.218403, 0.216887, 0.216319, 0.215285, 0.214397, 0.216923, 0.355963, 0.235593, 0.235584, 0.00364265, 0.345464, 0.00341203, 0.335969, 0.00362208, 0.380069, 0.00398408, 0.403364, 0.00381384, 0.42206, 0.735555, 0.00327377, 0.00358739, 0.00373473, 0.0039889, 0.639638, 0.590991, 0.590408, 0.00358194, 0.655083, 0.610878, 0.00332124, 0.507884, 0.509918, 1.04193, 0.610783, 0.524703, 0.894292, 0.6631, 0.63856, 0.587133, 0.608629, 0.569207, 0.568975, 0.57103, 0.570599, 0.570588, 0.705924, 0.819028, 0.621476, 0.608936, 0.693048, 0.697281, 0.615206, 0.615317, 0.612289, 0.618074, 0.620182, 0.692664, 0.81137, 0.604392, 0.603256, 0.597614, 0.628672, 0.628114, 0.635754, 0.628596, 0.629404, 0.601255, 0.620551, 0.604118, 0.590987, 0.602458, 0.602051, 0.621885, 0.628006, 0.615385, 0.623213, 0.648369, 0.740658, 0.821475, 0.819929, 0.819162, 0.833868, 0.812844, 0.911836, 0.929072, 0.932163, 0.966861, 0.974233, 0.974364, 0.993528, 1.01554, 1.0215, 1.0816, 1.0664, 1.0781, 1.06825, 1.08391, 1.05879, 1.06982, 1.07525, 1.07576, 1.13607, 1.13585, 1.16843, 1.16889, 1.2125, 1.20814, 1.24822, 1.24087, 1.2413, 1.2221, 1.25767, 1.25743, 1.24471, 1.24477, 1.26036, 1.28182, 1.28839, 1.281, 1.29282, 1.33644, 1.36379, 1.36394, 1.35361, 1.34505, 1.32638, 1.32781, 1.32302, 1.31718, 1.32021, 1.34843, 1.34768, 1.31254, 1.31976, 1.31103, 1.31649, 1.33783, 1.31549, 1.31169, 1.31512, 1.29813, 1.30604, 1.30639, 1.29523, 1.28618, 1.28894, 1.28142, 1.27396, 1.25762, 1.25818, 1.24722, 1.22978, 1.23688, 1.25779, 1.26035, 1.22176, 1.22198, 1.2474, 1.28464, 1.28524, 1.40428, 1.21882, 1.2571, 1.25651, 1.19149, 1.19135, 1.19109, 1.30508, 1.2518, 1.24931, 1.26832, 1.26703, 1.23018, 1.28685, 1.29877, 1.18081, 1.32128, 1.32308, 1.19797, 1.20166, 1.26989, 1.26102, 1.20565, 1.2988, 1.20171, 1.18853, 1.19825, 1.23227, 1.18884, 1.19322, 1.19438, 1.42521, 1.1942, 1.19569, 1.24074, 1.1821, 1.18299, 1.17649, 1.17734, 1.1541, 1.16424, 1.14994, 1.14867, 1.12665, 1.11899, 1.10211, 1.10108, 1.08401, 1.14477, 1.06159, 1.038, 1.03968, 1.02911, 1.08222, 0.994173, 0.982629, 0.970306, 0.970738, 0.969949, 0.961145, 0.959962, 0.96067, 1.11307, 1.00899, 1.00976, 0.96144, 0.961237, 0.959597, 0.969401, 0.964636, 1.00468, 0.987497, 0.982161, 0.984478, 1.20512, 0.99133, 1.02747, 1.02627, 1.03408, 1.20013, 1.28161, 1.27354, 1.24751, 1.22319, 1.26673, 1.22296, 1.12703, 1.13559, 1.16806, 1.25347, 1.20945, 1.21207, 1.29166, 1.28173, 1.29877, 1.2474, 1.36811, 1.36918, 1.3507, 1.36851
0.0767478, 0.0754965, 0.0993481, 0.0974189, 0.0947701, 0.093373, 0.104184, 0.101184, 0.101889, 0.116716, 0.116701, 0.116612, 0.117203, 0.1198, 0.116772, 0.135857, 0.128452, 0.126288, 0.125733, 0.13296, 0.133314, 0.135409, 0.135484, 0.138251, 0.14538, 0.144298, 0.1431, 0.152016, 0.154108, 0.153106, 0.152475, 0.159052, 0.156774, 0.155939, 0.156557, 0.184138, 0.184351, 0.182934, 0.208519, 0.216321, 0.208184, 0.20831, 0.207766, 0.20802, 0.213219, 0.212271, 0.457375, 0.00335403, 0.00388619, 0.00342453, 0.00408009, 0.00344161, 0.451949, 0.0036341, 0.396253, 0.00342802, 0.422428, 0.422294, 0.422384, 0.00361822, 0.666214, 0.00401297, 0.600397, 0.00375074, 0.72894, 0.465059, 0.553177, 0.472751, 0.576545, 0.484004, 0.756079, 0.887693, 0.927069, 0.860263, 0.860963, 0.990883, 0.990562, 0.693987, 0.608135, 0.562448, 0.561216, 0.569613, 0.611515, 0.645274, 0.624342, 0.842701, 0.632287, 0.594059, 0.612555, 0.694938, 0.595261, 0.595371, 0.70927, 0.61197, 0.613083, 0.612265, 0.615286, 0.615413, 0.61476, 0.602838, 0.625103, 0.631597, 0.630929, 0.608783, 0.625244, 0.614925, 0.600785, 0.611772, 0.614353, 0.628527, 0.625698, 0.638339, 0.636077, 0.636191, 0.668621, 0.690256, 0.803802, 0.801242, 0.838631, 0.817013, 0.873318, 0.901322, 0.915583, 0.931905, 0.947495, 0.982338, 0.987298, 0.987752, 1.02486, 1.06332, 1.08319, 1.09784, 1.09952, 1.08567, 1.18908, 1.09517, 1.0935, 1.12968, 1.11822, 1.16566, 1.13727, 1.18975, 1.16691, 1.24068, 1.24789, 1.24963, 1.25023, 1.28386, 1.27666, 1.28491, 1.27585, 1.29942, 1.28529, 1.27994, 1.30891, 1.30309, 1.30307, 1.3413, 1.33699, 1.33613, 1.38993, 1.38794, 1.38811, 1.37604, 1.35433, 1.35674, 1.35371, 1.35201, 1.36011, 1.34397, 1.34022, 1.36553, 1.38632, 1.35425, 1.36691, 1.3639, 1.34445, 1.33373, 1.34, 1.33557, 1.32302, 1.31486, 1.30867, 1.30905, 1.2989, 1.3055, 1.30739, 1.31069, 1.30487, 1.29232, 1.26776, 1.26055, 1.23918, 1.29306, 1.2574, 1.25766, 1.26242, 1.26142, 1.26399, 1.27649, 1.28551, 1.2684, 1.19399, 1.19344, 1.19178, 1.18371, 1.21136, 1.2104, 1.31039, 1.30979, 1.22414, 1.30567, 1.21233, 1.27063, 1.21502, 1.21178, 1.2183, 1.25061, 1.24037, 1.23837, 1.18837, 1.18736, 1.18704, 1.33411, 1.23361, 1.19059, 1.19096, 1.20082, 1.20454, 1.33097, 1.30252, 1.19076, 1.22609, 1.1846, 1.18033, 1.17807, 1.18143, 1.1709, 1.18108, 1.16445, 1.20486, 1.23726, 1.20225, 1.27319, 1.20962, 1.16174, 1.1999, 1.08034, 1.06043, 1.05298, 1.04086, 1.06191, 1.00245, 1.00142, 1.03385, 1.07107, 0.959001, 0.959409, 0.958244, 0.952412, 0.957521, 0.987159, 0.969691, 0.954325, 0.981028, 0.956082, 0.957116, 0.958558, 0.974586, 1.14689, 1.12645, 0.977253, 1.10234, 0.984339, 1.0122, 1.1375, 1.14011, 0.999551, 1.01682, 1.1929, 1.21062, 1.16526, 1.23415, 1.06737, 1.13576, 1.24055, 1.25953, 1.25864, 1.22564, 1.15741, 1.25107, 1.21864, 1.16856, 1.20582, 1.233, 1.29302, 1.22628, 1.28293, 1.29967, 1.34399
0.0778635, 0.0841053, 0.083743, 0.0837244, 0.0859156, 0.0961788, 0.0947942, 0.0940116, 0.102688, 0.102386, 0.115054, 0.116923, 0.115841, 0.124937, 0.127623, 0.126309, 0.126547, 0.126305, 0.125795, 0.132661, 0.136867, 0.1344, 0.133153, 0.138742, 0.144401, 0.149332, 0.150924, 0.151207, 0.14991, 0.155645, 0.153083, 0.157808, 0.156627, 0.155656, 0.00335475, 0.182151, 0.181779, 0.00349007, 0.210047, 0.210883, 0.210842, 0.210044, 0.208034, 0.209234, 0.220146, 0.529372, 0.00391331, 0.00358974, 0.003697, 0.00316797, 0.381374, 0.37959, 0.00359453, 0.00366791, 0.00347977, 0.452556, 0.00386808, 0.00334358, 0.00364708, 0.559006, 0.933482, 0.991895, 0.907446, 0.764151, 0.778705, 0.584699, 0.59884, 0.904423, 0.698063, 0.832791, 0.671175, 0.653969, 0.662016, 0.667688, 0.00362447, 0.638673, 0.645785, 0.618465, 0.731869, 0.60842, 0.611377, 0.593048, 0.593608, 0.593174, 0.596644, 0.604275, 0.601418, 0.596709, 0.63872, 0.777421, 0.604358, 0.615032, 0.639442, 0.630739, 0.624072, 0.617408, 0.618063, 0.617584, 0.615761, 0.631006, 0.623055, 0.615598, 0.621409, 0.622555, 0.603293, 0.60601, 0.595786, 0.608205, 0.636146, 0.63546, 0.629405, 0.635591, 0.640292, 0.695358, 0.677479, 0.794386, 0.850327, 0.839901, 0.833683, 0.926256, 0.935282, 0.943925, 0.939855, 0.968988, 0.98031, 1.04956, 1.11569, 1.12025, 1.12471, 1.10915, 1.12641, 1.12679, 1.1514, 1.15602, 1.15744, 1.18091, 1.16721, 1.16442, 1.15608, 1.21317, 1.2256, 1.21729, 1.26506, 1.26544, 1.2801, 1.28001, 1.28855, 1.26466, 1.32626, 1.32631, 1.33038, 1.32742, 1.37829, 1.39641, 1.34683, 1.35321, 1.34996, 1.3712, 1.36986, 1.38855, 1.3877, 1.39254, 1.3849, 1.38391, 1.38454, 1.3698, 1.37756, 1.37583, 1.37553, 1.39756, 1.39457, 1.40287, 1.38173, 1.39827, 1.38432, 1.38474, 1.42249, 1.36403, 1.34046, 1.36201, 1.35533, 1.33755, 1.33449, 1.33451, 1.32275, 1.31466, 1.32691, 1.32218, 1.30502, 1.30573, 1.28191, 1.28049, 1.28233, 1.25544, 1.25758, 1.25898, 1.25834, 1.25873, 1.25807, 1.2581, 1.23773, 1.23749, 1.21321, 1.21498, 1.21577, 1.22033, 1.20363, 1.20463, 1.20457, 1.20457, 1.21951, 1.20521, 1.2058, 1.20634, 1.24296, 1.2368, 1.28447, 1.24846, 1.25588, 1.21655, 1.19617, 1.19302, 1.1988, 1.26469, 1.23918, 1.22542, 1.18798, 1.34518, 1.21026, 1.2836, 1.19934, 1.18571, 1.26513, 1.18149, 1.26872, 1.16458, 1.15731, 1.15176, 1.22345, 1.14315, 1.14259, 1.20801, 1.23349, 1.20304, 1.20576, 1.16101, 1.24324, 1.24544, 1.07143, 1.06383, 1.02905, 1.01273, 0.997326, 0.995869, 0.982247, 0.974066, 0.965615, 0.953402, 0.957438, 0.943152, 0.940411, 0.971501, 1.11476, 1.01512, 0.999291, 1.07133, 1.08413, 1.15411, 0.97863, 1.16445, 1.12598, 1.15308, 0.969507, 0.969686, 0.973476, 0.973982, 1.08263, 0.997828, 1.13049, 1.12578, 1.09174, 1.05987, 1.05816, 1.13547, 1.13034, 1.16695, 1.0806, 1.22246, 1.1975, 1.19355, 1.18452, 1.20786, 1.20092, 1.19994, 1.21024, 1.19516, 1.22124, 1.26747, 1.25905, 1.30214
0.0785401, 0.0859899, 0.0841027, 0.084032, 0.081547, 0.0848532, 0.0986141, 0.100517, 0.100046, 0.0992607, 0.0996812, 0.124544, 0.124842, 0.122591, 0.123271, 0.122126, 0.119674, 0.119442, 0.124061, 0.126567, 0.13459, 0.134854, 0.133382, 0.144132, 0.141401, 0.150749, 0.150562, 0.149824, 0.149238, 0.149821, 0.150132, 0.15286, 0.15813, 0.174088, 0.175156, 0.173369, 0.190531, 0.00349875, 0.208464, 0.208335, 0.207386, 0.207456, 0.222937, 0.223147, 0.222589, 0.221396, 0.220106, 0.00403542, 0.241509, 0.249356, 0.466833, 0.467337, 0.317125, 0.515492, 0.00415377, 0.00395294, 0.00354916, 0.00379249, 0.54236, 0.00373392, 0.00327702, 0.00379448, 0.532869, 0.840722, 0.701497, 0.711263, 0.684518, 0.808221, 0.657328, 0.713493, 0.732298, 0.732413, 0.636062, 0.655255, 0.667004, 0.669198, 0.583626, 0.606492, 0.645573, 0.616908, 0.615661, 0.740159, 0.703468, 0.704676, 0.655388, 0.76283, 0.755162, 0.732821, 0.698862, 0.746658, 0.635241, 0.635948, 0.639224, 0.6402, 0.639561, 0.636128, 0.832372, 0.662351, 0.64649, 0.646282, 0.646191, 0.642224, 0.630553, 0.629886, 0.619318, 0.633091, 0.624886, 0.644616, 0.685083, 0.666138, 0.645993, 0.644589, 0.674669, 0.719381, 0.856195, 0.902513, 0.901226, 0.939217, 0.937063, 0.948613, 0.968679, 0.969928, 0.999566, 0.997254, 1.00747, 1.04887, 1.08919, 1.08948, 1.10198, 1.11641, 1.15598, 1.19853, 1.17129, 1.19876, 1.17771, 1.17812, 1.17711, 1.19383, 1.19536, 1.21176, 1.3163, 1.32889, 1.31731, 1.31354, 1.31267, 1.30438, 1.3048, 1.37431, 1.39509, 1.45116, 1.36107, 1.39556, 1.37942, 1.36761, 1.36591, 1.37792, 1.37501, 1.38642, 1.38652, 1.43866, 1.43411, 1.43596, 1.39132, 1.42773, 1.42378, 1.41224, 1.41192, 1.42011, 1.46578, 1.44793, 1.4405, 1.41063, 1.41207, 1.41253, 1.42344, 1.41311, 1.47448, 1.47453, 1.36222, 1.36243, 1.3792, 1.37971, 1.38183, 1.36796, 1.3813, 1.33782, 1.33699, 1.30967, 1.31022, 1.30997, 1.28925, 1.27801, 1.27801, 1.28854, 1.27164, 1.27823, 1.25947, 1.25747, 1.25505, 1.2532, 1.23576, 1.23058, 1.23528, 1.2391, 1.2365, 1.21205, 1.21177, 1.20466, 1.20535, 1.20349, 1.21981, 1.28307, 1.27399, 1.22599, 1.21868, 1.28043, 1.24718, 1.24744, 1.19571, 1.26513, 1.18811, 1.18745, 1.19199, 1.17334, 1.27074, 1.25998, 1.23972, 1.26793, 1.25291, 1.19586, 1.17348, 1.17842, 1.18754, 1.22282, 1.16448, 1.16544, 1.15986, 1.21568, 1.28278, 1.18809, 1.18444, 1.19505, 1.18677, 1.14364, 1.21365, 1.18561, 1.37801, 1.23655, 1.23689, 1.05668, 1.04475, 1.02308, 1.0157, 0.985016, 0.968904, 0.966494, 0.942827, 0.928634, 0.928966, 0.926786, 0.927933, 0.929368, 0.976685, 0.927306, 0.934388, 0.971559, 0.920919, 0.987803, 0.987716, 1.10431, 1.1001, 1.10975, 1.17206, 1.14393, 0.973501, 1.10888, 1.13686, 1.14369, 1.25019, 1.084, 1.11801, 1.12521, 1.12625, 1.12045, 1.13386, 1.22674, 1.21195, 1.21189, 1.21083, 1.19262, 1.17822, 1.16137, 1.14747, 1.15768, 1.15395, 1.21014, 1.25695, 1.25797, 1.22921, 1.21711
