0.665075685226568,0.67316987480155,0.674227019460212,0.690178943600821,0.675639095695517,0.676478156829511,0.690541073956772,0.687836991431017,0.690201385411489,0.688267192858383,0.721054089215981,0.74422652601777,0.745606835003084,0.747163049576569,0.751238531057942,0.761246854886112,0.766774933827719,0.773838926466641,0.817581378341305,0.849648921419889,0.848707553288878,0.850644786922347,0.848740670106076,0.832157186852628,0.836845601731686,0.831701348305957,0.857061348172435,0.857809845057015,0.869662279699131,0.880642079974816,0.884840053299891,0.924941353024564,0.923002343759249,0.945443161040591,0.943835282688098,0.942427276337987,0.996842285277272,1.01882983353685,1.00756607019029,0.996279860480684,1.00028610753442,0.996312825405035,1.01221874468997,1.01892882544207,1.01469956897838,1.04284999987486,1.01204367970431,1.01225866857088,1.01422214813047,1.01444699564545,1.02095612380794,1.0167553110489,1.03144743322744,1.03692009092515,1.03545618203404,1.0375881874275,1.03468503742189,1.06487999995257,1.03305795422411,1.03429707737035,1.02858851189768,1.02511563586247,1.02367032649667,1.02200843593897,1.02126945452113,0.999920004487806,1.02200476585882,1.02399011108655,1.02790294775446,1.03023214044896,1.031846535969,1.03307199217844,1.03335972586868,1.07052804802358,1.06665489173684,1.07916999553731,1.13388239993127,1.18276770576227,1.1801347849901,1.22594340744906,1.22556549620786,1.22569659480413,1.22403039692674,1.22898672762296,1.21584942769502,1.21504490133478,1.21558354889976,1.21656225388775,1.21625390429565,1.21642570549715,1.21668489526509,1.2809699966705,1.2649228540072,1.28046300365133,1.27794667091471,1.30121000038943,1.2296378026262,1.21163329295095,1.21009521229118,1.21236433145776,1.20201965567157,1.20205541759221,1.20099223622126,1.19887092303643,1.20386005334119,1.29222000001644,1.21469115981531,1.22585304248717,1.22120093102238,1.25432903228753,1.25259206402618,1.26054387196183,1.25954929758502,1.26172155134511,1.18633997038104,1.12574701834587,1.12722022327977,1.12741046028376,1.13075973419461,1.13147150864021,1.13139010116607,1.09590154911105,1.1072861910445,1.1089613590268,1.10740449581028,1.08129000322982,1.10375978188762,1.10477883962263,1.10629239466088,1.11601883852108,1.10811538987069,1.11084181137916,1.0945684591991,1.09419284259267,1.09317689791448,1.08185920724868,1.08833535125147,1.08741497962005,1.09017121225364,1.09049481835301,1.09072272710326,1.10209001024556,1.06779058317957,1.06728615154645,1.04804798222073,1.02085165602165,1.02777979769122,1.02855896824801,1.02750136903865,1.02641929032078,1.02672880385921,1.02824233591583,1.03077701549892,1.03294952541623,1.02538862122116,1.0192050730826,1.01879715422921,1.01938078619018,1.02218300217083,1.02623905597161,1.00905555024397,0.997717827897231,1.00116971899994,0.998354361437088,0.997506439718393,0.966369228311275,0.976051313425667
0.658962047595103,0.675234287290528,0.675520117311567,0.676073566807503,0.675223942187509,0.674813326908592,0.692562759309363,0.690908218179492,0.691331585947654,0.692847486857128,0.721620486792193,0.737861449372669,0.744031394085844,0.751148343803936,0.75223243388675,0.764426979014591,0.766543325950884,0.771508044193853,0.80785150443842,0.849720537089732,0.849638633175655,0.850221513334265,0.850476788660384,0.852358748320024,0.854013165995888,0.855585031524535,0.85713802804683,0.857334062702551,0.865258118647968,0.871525102297902,0.884443299314824,0.908551309759568,0.919889332235879,0.931050283354036,0.9435029636523,0.96702426793594,0.997583569771277,1.00377143312559,1.00730058133555,1.00870321973495,1.01019121868037,1.0114277058476,1.01238629486986,1.01262764923937,1.01313975041632,1.01290163406721,1.01283051377446,1.01342078429344,1.01642497378998,1.01891954585118,1.02295382731068,1.0258488281209,1.03184822864034,1.03404648609642,1.03419303565852,1.03450991853162,1.03330593927857,1.03297386128571,1.03272443969205,1.03297252635587,1.02893993037799,1.02614884038335,1.02415669455716,1.01978977477161,1.01873076663041,1.01703461568745,1.02015403267043,1.02189019353943,1.02743225198219,1.02974022788183,1.03113805801226,1.03213746519075,1.03234546230075,1.05180466275921,1.06061345562222,1.06602770627684,1.12143241679544,1.17425570323205,1.17614158350866,1.22486688869451,1.22452024861616,1.22412695607244,1.22005509060313,1.21798276234229,1.21579926173158,1.21477755870605,1.21485711004184,1.21534744936057,1.21532146584057,1.21569510045014,1.21597497655889,1.23958978442699,1.24667878853405,1.27794667777342,1.27563754396526,1.27344668316887,1.24019326673094,1.23377010953626,1.20774540883776,1.20650606466336,1.20256810708558,1.20095879329159,1.20026475148847,1.20094335384755,1.20372687598209,1.20700811182965,1.21084545860729,1.21471622376295,1.21818603027417,1.2505506112399,1.25152120110294,1.25335740103355,1.25660622360148,1.25898958085643,1.19959895892869,1.17744705766887,1.13573581673614,1.13456094934791,1.13209825051091,1.13112357985454,1.12954432538395,1.12104725968375,1.1158988023259,1.11065737402314,1.10881026815557,1.10757583164725,1.106680303624,1.10671855638562,1.1072791285559,1.10797975696746,1.10492352590425,1.1011341240191,1.09702512404011,1.09542073132651,1.09495402657234,1.09473528967571,1.09274859032414,1.0924131723289,1.0922558586734,1.09145925418918,1.09160305133426,1.0700197447889,1.06034647791398,1.0573405518058,1.04185102529289,1.02499193320093,1.02685637825795,1.02810748242934,1.02816642402096,1.02825908760575,1.02893356902979,1.03031770113767,1.03156807588205,1.03169074547427,1.02773714687087,1.02485003248774,1.02270704690352,1.02133095846073,1.02149806356673,1.01641319389751,1.0093641911706,1.00823026649718,1.00618452703429,0.994848434362185,0.994742076453813,0.987361671808721,0.982354866569842
0.653579898304574,0.677152481109184,0.676760807907666,0.677750233325135,0.674697271167156,0.67298948662009,0.695689238376989,0.733542000099721,0.699342786857078,0.69413827014484,0.722121036399746,0.725902691799089,0.74260434672066,0.756214785025424,0.753917616856751,0.7665987772619,0.767333308376073,0.768890109797789,0.798939192931999,0.84969851857326,0.849820571784681,0.849937322261911,0.850349171563119,0.866285214950279,0.863349889514292,0.861322993000645,0.858499303869999,0.856945732154969,0.860598767983285,0.85459185693052,0.884842584123249,0.885738351936485,0.917325215019051,0.915236004279976,0.943541171399448,0.984619394793058,0.998566285025447,1.00035597687743,1.00959110080239,1.02942117991327,1.02833734180086,1.03567881151178,1.01324381183627,0.998732336134633,1.00685782276538,1.00034327104838,1.01278704712913,1.01207982825782,1.01930486200185,1.02932380519837,1.02714056475985,1.02853992090148,1.03051104553277,1.03408850723315,1.03263832045676,1.03361007292695,1.03121962702498,1.02613729814792,1.03245221612211,1.03596359896237,1.02790238064345,1.0267228731922,1.02522600248787,1.01602868104633,1.01665800212529,1.012525880777,1.01923058259744,1.01734245327576,1.02573149362393,1.03043821507108,1.03075723028155,1.03208865320489,1.03140985515382,1.03186854074001,1.03175638577856,1.03176150359559,1.11481898837238,1.17206348057643,1.17425942430132,1.24473778269724,1.23738904389173,1.24734000302705,1.21745978083334,1.21359458511527,1.21495212663166,1.21336947095338,1.21398934872476,1.21442510066994,1.21413454794408,1.21472198869156,1.21543701962844,1.21736405833201,1.23561306776828,1.32834000013407,1.27344668431827,1.27146300224825,1.25272955655412,1.26859999740356,1.20579489587736,1.1999112918577,1.20038186143478,1.19904795944921,1.19825494560212,1.21203608016135,1.19692123029986,1.19125481186808,1.18876043265948,1.1782470577319,1.20399791117233,1.2478787693752,1.24971667885146,1.24729436587225,1.25504693203848,1.26683796006206,1.21524595530691,1.20643000019751,1.13656800668764,1.13852608988154,1.13146544810247,1.11732101066714,1.12682365755639,1.12679704870391,1.12007791148292,1.11133287846986,1.10903711261642,1.10729378849877,1.10758422307532,1.1078870716516,1.10801537609197,1.11051380614065,1.10337312870344,1.07319000567429,1.09721073932996,1.11021995888357,1.09625302467196,1.09644046665785,1.09512900841093,1.09483987342042,1.09560091679033,1.09850036182777,1.09266503833243,1.05773295007801,1.05587090082494,1.02238999368685,1.03400075438524,1.02464071220876,1.02678677021526,1.02887012952355,1.02887213769184,1.02965093010334,1.03051023387945,1.03314580828826,1.03340114353516,1.03480390617713,1.03508087203992,1.03560086318394,1.0354359021059,1.03567887958941,1.02358690564451,1.01137009584295,1.01032576808364,1.01021194087522,1.00883238271594,0.990453245852453,0.992481627704348,0.99213832375155,0.987505972831272
0.649029800624378,0.66721287717056,0.668957915797695,0.670969825365697,0.672988501884787,0.675137788373537,0.698321492687296,0.708960503588851,0.708380303107785,0.707861348290991,0.722364363219024,0.732674880183588,0.741364016295528,0.74375965110151,0.747784251958727,0.752433361352189,0.757364068879668,0.762003470059002,0.791251304094547,0.823653911659361,0.828804055485986,0.833103920010904,0.83818980615359,0.862862602884335,0.862758688550103,0.86555054692364,0.875805867363453,0.885930023174108,0.895496299737097,0.903448822449532,0.909735905148023,0.921175018898995,0.924081694507968,0.934393034554077,0.944064922818235,0.98262939201512,0.999729138950581,1.00464812120199,1.01251709345646,1.02785694595337,1.02750525817719,1.02758920762633,1.01444119307263,1.01507619453589,1.01522802680883,1.01438909250055,1.01336683982371,1.01191948705738,1.02189788774588,1.0274379767422,1.02706938578179,1.02742298799026,1.0283879724277,1.02864403873367,1.02986430064409,1.03075074922235,1.03001315736099,1.03022217933538,1.03021458710089,1.02884253538717,1.02790225192404,1.02659607620055,1.02519024892389,1.02367152366497,1.02227011707709,1.02107988420757,1.02019808152084,1.02049414001674,1.0237439363692,1.02920914134555,1.02928957409025,1.0296474944666,1.02967959438183,1.03094360171422,1.03152846154394,1.03171623439471,1.10805727072758,1.13312386136683,1.1650331421618,1.2094643021458,1.21095480327429,1.21277814956738,1.21501662404421,1.21516074969432,1.2169767410403,1.21312847287896,1.21327600016948,1.21312440921513,1.21195150701959,1.21236536007713,1.21333468302618,1.21553779818424,1.22345270019618,1.23095965870417,1.22041075330258,1.21267006779726,1.20715484308985,1.20429487991294,1.20341937162256,1.20138026625603,1.1999867506849,1.1981781369443,1.19577331842308,1.1932487289224,1.19102232054723,1.18943396265872,1.18639807950568,1.18326876169512,1.20003845454112,1.22252415380536,1.25175202841003,1.25158780995426,1.25390706669268,1.25369537038399,1.23274459382458,1.22144115667112,1.13586450363713,1.13366639381895,1.13046157932188,1.12828482833166,1.12780128610163,1.12712393368561,1.12363330171229,1.10867435579478,1.10860121453568,1.10841811396805,1.10830922479876,1.10832994527858,1.10586892960526,1.10385560474109,1.10125925732053,1.09915903043234,1.09724639124948,1.09736127882659,1.09693182407545,1.09671068905774,1.0963274582089,1.09643549366961,1.09660128681312,1.0976081342334,1.09358348762683,1.05591311465156,1.05428631831803,1.04806550586979,1.04624957377404,1.04244475822281,1.04060476105247,1.03871921754451,1.0369924308504,1.0357253853353,1.03505887595048,1.03492644013394,1.03428410520128,1.03463398252943,1.03496035585441,1.03519832826481,1.03512458042502,1.03262226573874,1.0267230281209,1.0205219216911,1.01609290276616,1.01259071638023,1.01050739210951,1.00625119209314,1.00154945722086,0.996970586102469,0.991421954251076
0.644077484434042,0.665447226614147,0.665672390041799,0.665489654949871,0.671121739350201,0.679448593968745,0.700742306426056,0.709388565132596,0.708166245676895,0.707192537296135,0.722150947354768,0.739877019991242,0.740170998709297,0.739570786035626,0.745520557659867,0.746981366467024,0.748860900721574,0.750981273674849,0.78469384725781,0.814906575746483,0.816516250304606,0.818119378602172,0.828992098188141,0.860762331251224,0.861758981473402,0.900111649988463,0.901083817351277,0.902809242771219,0.90173703384748,0.929470359252165,0.929301694726396,0.928642131817168,0.929889143852477,0.948712788951744,0.944988948561031,0.980614177221123,1.00084047706441,1.00881176220203,1.01596384992165,1.02677044049778,1.02638985737092,1.02775431666002,1.0154096699551,1.01572987373039,1.01619681270387,1.01799116404035,1.01431142390457,1.01027584110745,1.0242256680713,1.02589819547711,1.02611395145688,1.02596096033364,1.02642857294394,1.02643123117339,1.02574294258581,1.01940616379808,1.02741569661433,1.03358584954351,1.02928918726343,1.02736218136645,1.02768816972965,1.02660443094571,1.02938563764372,1.05228601413356,1.0511233547172,1.0490448369834,1.02026749551295,1.02011304929399,1.02196071388928,1.0308720945352,1.0286399218401,1.02806575332049,1.02475386630202,1.02120601561633,1.02105783958875,1.02151740094726,1.09028387751795,1.09180276053335,1.15698451658104,1.20813208904497,1.20403880759309,1.19978541350734,1.23561722952501,1.26569999913431,1.22078210675388,1.20157484939047,1.20273200164775,1.20317600958706,1.20702414384951,1.20824180352561,1.20989803329808,1.209981050492,1.21647044233554,1.24538775869364,1.21906771954174,1.20190584067542,1.20277470031706,1.20318510454611,1.20280230043343,1.20217298255837,1.20006815849732,1.21935002623568,1.19330028826007,1.18248720935093,1.1862955143644,1.18337025255509,1.18452007046337,1.18114245561471,1.18189378511639,1.18149605582151,1.25453672447328,1.26020335025311,1.25614472778065,1.25369364335743,1.25493982722271,1.27021000001645,1.13690268866509,1.12594121792364,1.12792396934508,1.126463998339,1.12983186634217,1.13341950546451,1.12626234545711,1.10612233443661,1.10839170920194,1.10925292640681,1.10903404701776,1.11086559873914,1.10294293290696,1.09419591225335,1.09827049449716,1.09865045704764,1.09489382265449,1.06886087132004,1.07409035158931,1.07043304960808,1.09680947490756,1.09759412538014,1.09677826189151,1.12119999923893,1.09417964974918,1.04986253786284,1.05134261881032,1.05011094251521,1.04803727020106,1.04035796624895,1.04983196881775,1.06596425768345,1.05200466388401,1.04901085397243,1.04088745812437,1.0374771425997,1.0394848899463,1.04950145473237,1.04821383584904,1.07134999598195,1.03746116859524,1.02812455236745,1.0296126654188,1.03146194482898,1.03314402203292,1.0333410957238,1.01688895207612,1.01638289881103,1.0031453489952,1.00190761727012,1.00133448430193
0.638741211859136,0.64494293427283,0.656986876869531,0.664850609870852,0.669131497513269,0.693015826113321,0.70328754644383,0.707782014043428,0.70764293507087,0.713846939059218,0.721396909104772,0.726444165441746,0.731777233231578,0.735588369407139,0.743951808194234,0.744932000467073,0.747841682573088,0.751164633931798,0.779311487729969,0.791222969303303,0.80229838444514,0.809976656324176,0.821429975839725,0.838115292042516,0.842502718580853,0.900881682918298,0.900964779829393,0.901065776020991,0.900970733134741,0.929512745316956,0.929765178835104,0.930647899243831,0.931236552666714,0.942369774084132,0.942733334344839,0.990887810483226,1.00162508225021,1.01417608142952,1.01958237185777,1.02617267530082,1.02361963689369,1.01983689675059,1.01656180863257,1.01555335438098,1.01583514864522,1.01638651435713,1.01548835684712,1.01554259843799,1.02485897549688,1.02546716259736,1.02574856569897,1.02561713317704,1.02537660095445,1.02406541250277,1.02345599395087,1.02213106433492,1.02412635846002,1.02408901942322,1.02592490938005,1.0263734204182,1.02892112616262,1.03079284398515,1.03355752051852,1.05277965623744,1.05240899280993,1.03457384085415,1.02091224442339,1.02080560174665,1.02168813486391,1.02242071154506,1.0227276144859,1.02328405502727,1.02212599139844,1.02060291351692,1.02038184870233,1.02038434993523,1.08890034222745,1.10891329183801,1.14786372428731,1.17020808205838,1.19650469887252,1.21874105845373,1.24690781222356,1.25366122138093,1.22432291638466,1.20210190131342,1.20309095213938,1.20383001420484,1.20552997076828,1.2063340908877,1.20759461922029,1.20773812232547,1.20588890718602,1.20438204902705,1.20250340670235,1.20239518975852,1.2031310141596,1.20295534508536,1.20235834871416,1.20087690675705,1.1983227344063,1.19457467356186,1.19189801770413,1.1889485547561,1.18697112113003,1.18554256679223,1.18444018920562,1.18270544837336,1.18288964780622,1.1830213213594,1.25676874878442,1.25819607051655,1.25684499482235,1.25591080797158,1.25604049654575,1.20239018097718,1.13748244906217,1.1366019315139,1.13573667463452,1.133834475832,1.13189657270892,1.13190741613087,1.12852184725121,1.12148018134219,1.1099738737338,1.10878867121133,1.10799918193899,1.10503651180667,1.09939491692855,1.09683218833651,1.09887909678642,1.09880273774584,1.09215589086977,1.07633161890785,1.07616243022109,1.08595617516083,1.09620231284207,1.09641350213656,1.09592254561324,1.09509558670794,1.09442147874627,1.08782896606938,1.0798955124444,1.07093995233078,1.06996236368089,1.06951676606399,1.06903555688207,1.06787821280773,1.05440524202268,1.0493602922593,1.04273961429604,1.04157435964612,1.04191661666997,1.04599442044127,1.04634824126835,1.04598951007135,1.03938718985515,1.03713076935947,1.03392859425351,1.03384774238031,1.03422767360297,1.03406755563096,1.01710249992237,1.01744242210997,1.00469062310498,1.00338320734096,1.00247539343592
0.631682231967378,0.632276948525694,0.647608994894022,0.664021287064595,0.667138791650959,0.706595997250364,0.70657290495557,0.706331790840504,0.707034050331993,0.734409708256908,0.720174971450651,0.718693045499032,0.725540706696139,0.725677661203981,0.741651254659434,0.739856432139959,0.745608231759535,0.752972245912657,0.773105951303667,0.773215431245104,0.794307967730251,0.805236878648571,0.8053951024772,0.805535278556531,0.83155769078274,0.901615399879496,0.900762184408088,0.89976636538017,0.900287263625033,0.929255743074802,0.929557736272498,0.932967278949455,0.933295902283716,0.94012087462341,0.94058514137647,1.0018767768018,1.00193972911813,1.02628970086992,1.02304878586289,1.0281890060625,1.02223257096207,1.01273304182979,1.01598379075275,1.01443242836075,1.01541969523936,1.01616861897999,1.01572491999923,1.0154549452152,1.02906505097364,1.04678947140298,1.04753469288126,1.0483808637553,1.03416406692462,1.02128429870371,1.02192227107285,1.0210856710676,1.02243864723708,1.02187152952947,1.02375071768355,1.02330457758818,1.03082220056404,1.03284543368186,1.03973875025738,1.06341988830026,1.05229794987461,1.0236721926081,1.02209326457005,1.00585156396759,1.01095169389075,1.00592175915555,1.02018792161543,1.01721477317478,1.01933445601625,1.01868045374005,1.01943484492058,1.01919100837675,1.08769638295725,1.12524144121243,1.12541755959194,1.1257854655357,1.19252432006268,1.28409000023271,1.26327497535098,1.26379906086006,1.22758945257283,1.20134312290889,1.20356510510091,1.20286232419689,1.20484954260158,1.20313470184811,1.20652370495132,1.20717098160784,1.20532741169812,1.19814674869786,1.20056853859102,1.20190919748551,1.20375281905265,1.20304794613965,1.20274997413036,1.18145999480262,1.18859009747431,1.18150999341381,1.21836631989198,1.24051346323787,1.24155037021004,1.24140612851647,1.21620390919621,1.18307719331052,1.18354622716512,1.18457214615822,1.25785023940262,1.2592768325394,1.26018770773572,1.26860929328874,1.25845054157628,1.14081937150352,1.13874237515294,1.13615474338213,1.13705730793624,1.13798893338922,1.13940499670626,1.17026999813692,1.13977347026697,1.13687765980991,1.11275050234699,1.10843220589006,1.1079492454696,1.08982131142662,1.09714188138242,1.0941970672095,1.10196072810292,1.10491574295775,1.08914892131584,1.07694531327314,1.07756218048334,1.10239844285914,1.09499446137798,1.09543500685507,1.09539041465488,1.09471537141318,1.0937890844493,1.09165309472736,1.08288990271241,1.0721259796963,1.07667441634542,1.13063000043383,1.07901773388136,1.07799884007954,1.07626584265364,1.08816000091647,1.04569687522682,1.04050317651472,1.04086670869213,1.0800999999608,1.0446462557093,1.04506169440131,1.04281502690554,1.04285902013544,1.03292239264539,1.03574160116418,1.03532210725825,1.05674999865776,1.01683918668523,1.01873359161066,1.00793633011192,1.01458841148589,1.00304609137285
0.631185795625024,0.631390065805503,0.638775338158579,0.649735515637012,0.665653972327575,0.707541283558395,0.708193535304696,0.707323104389358,0.707300353057531,0.715071120877489,0.720190531341187,0.72117320837972,0.724834361129121,0.731722564774029,0.740856950375298,0.740557535324408,0.743304493734828,0.764354570257246,0.772772970913461,0.772528412779658,0.778965969410017,0.785194930734999,0.791162709376104,0.797532863048145,0.820350969992404,0.834539521544563,0.853598240621821,0.873214377704107,0.88723927195914,0.916258010695689,0.920810496571609,0.934364963823107,0.93576729593969,0.938362794939857,0.938956943097472,0.969573210748144,0.981031783556462,0.991719913659874,1.00467103559355,1.02022786175916,1.02092634117781,1.02110025337642,1.0202611876908,1.02444791728963,1.02842941847807,1.03180981879885,1.03408543280442,1.03693383366056,1.03882538968115,1.047161647783,1.04715786984248,1.04635463711903,1.04318257490365,1.03982953418209,1.03679866042741,1.03470509720383,1.033919412272,1.0343427398243,1.03629094421579,1.03878699260486,1.0417248622758,1.04506737783028,1.04879205939895,1.05071594618917,1.05131488810044,1.04150021980372,1.0381800721501,1.03731084975566,1.03618315308759,1.03462245514029,1.03252082817402,1.0300805876611,1.02937354801389,1.02918056392715,1.02903916737395,1.05148374787044,1.08661155914844,1.11421755227372,1.11925046547534,1.13944584850745,1.18727408718358,1.21875687175361,1.26227714853952,1.26327502862232,1.23074943018109,1.20730107296493,1.2063259271743,1.2062618256366,1.20690368989445,1.20688243517214,1.20770596361955,1.20470280462545,1.20266887200252,1.19983497030658,1.19970484431568,1.1998097898938,1.20888829522522,1.21307014905304,1.21665367955263,1.21967870450989,1.22238980131042,1.225602794967,1.22943222768535,1.24232972127419,1.24254748742823,1.24247508660845,1.24284602970928,1.24301185362292,1.24348569035737,1.25351781981581,1.25806535953544,1.25910025121073,1.26062039339716,1.26294864831724,1.26046878873098,1.20984475571716,1.1614748454467,1.13712478239522,1.13797193471547,1.13875105298979,1.14063588634692,1.14846879086509,1.14214441306519,1.12898604630406,1.115937588974,1.11470202965884,1.11334744068291,1.11154512433513,1.10917621071968,1.10648155915469,1.10388422006,1.09443676865833,1.08609698836167,1.07865665838495,1.07924867332066,1.08669706506554,1.09346088077443,1.09421021205498,1.09506845884928,1.09548156032559,1.09418083911626,1.09261775865399,1.08864739519624,1.08509325486511,1.08108560820835,1.08036272539131,1.07966975001138,1.0795258602291,1.07425299887946,1.06024485221217,1.04950128614347,1.0452623212269,1.04021453807482,1.04127063383789,1.0424661618751,1.04298217766941,1.04361035399217,1.04447487288821,1.02956344049585,1.02827120153713,1.02707882732837,1.0254393584387,1.01499829550485,1.01260676909409,1.00458528884564,1.00210052864502,1.00023040507816
0.630531162496871,0.626817395013544,0.631025714562673,0.62985151011565,0.663996111577357,0.718150863924278,0.713173690797451,0.763945000286109,0.707659249042341,0.68356300124031,0.719075302829422,0.72470577822365,0.723805361754997,0.753425809477734,0.740216572038242,0.740615245264024,0.741245346229812,0.772946821007291,0.772434197572059,0.771396002662759,0.773723250652711,0.775710444228071,0.771549163168867,0.765819061243279,0.803995453394739,0.805503143559471,0.808124563169695,0.810050522502593,0.882422998145365,0.908021109273639,0.916325995523257,0.956540996114634,0.937174668193903,0.938623643992564,0.938375769658091,0.956698997565494,0.969471031563549,0.97351975405136,0.993598370531705,1.01963721749419,1.02048289311499,1.0236826321114,1.0205638820932,1.04382001061012,1.03105469336974,1.0322239001781,1.03497996979465,1.04360600991284,1.0451659832677,1.23298999999329,1.12566630081155,1.23626999999329,1.0811617727629,1.10459999940775,1.07080659914509,1.07836826944093,1.04617686237266,1.03350368516812,1.04187845495914,1.07053970691295,1.05428341482279,1.05209538571513,1.05080966331627,1.05204988770849,1.0505245186309,1.08807000054293,1.03910012256693,1.03742000576393,1.0391145789196,1.05959999913444,1.03235924638269,1.028174806419,1.02886621393517,1.02906233229303,1.03207338239826,1.06769017165739,1.08549030843875,1.10583999661913,1.11531563165948,1.16541999994973,1.17938723389774,1.19671999989512,1.25961220128562,1.26767000019078,1.2339928743452,1.20781515114912,1.20777980848474,1.20783462528131,1.2114869581146,1.21518778150935,1.21309023322372,1.20106571018489,1.2008741726726,1.19887535166622,1.19878049177175,1.19792504622813,1.2127549081631,1.23722690266809,1.23530285510229,1.23583107797592,1.2350558470401,1.23609894400242,1.23373960804244,1.2437390601265,1.24340973121211,1.24777711364876,1.24271906436057,1.24255264208476,1.24392036679876,1.27748206751833,1.2730141480889,1.27214046505353,1.27117647919546,1.28311868989093,1.2808567407319,1.28587999898569,1.17209031154223,1.13688792185327,1.13866300608927,1.1377100665229,1.14358235126938,1.15934627370827,1.14390087167006,1.12201813372293,1.12056212767722,1.12168491026179,1.12181881776057,1.14645980054298,1.13467807783864,1.1369104499162,1.10606024496044,1.08066994932214,1.0832549613657,1.07912148107274,1.07893602038124,1.07180688011606,1.09352031931367,1.09302161850021,1.09525724329444,1.09777193182052,1.09513669942638,1.09387050098266,1.08980044052633,1.13351000061877,1.08057904576882,1.08035575374378,1.07946049589803,1.08067304376619,1.07188827971178,1.05458877980859,1.05664935273145,1.05923721249586,1.03808903826538,1.03698805745457,1.03837509020513,1.04084150836537,1.04337710226428,1.04712769519427,1.02696611319901,1.02026830412975,1.02135956508375,1.02331268710033,1.0142357670226,1.00349035555305,1.0040287850438,1.00059409804775,0.999277549536714
0.616184417364914,0.621079557341155,0.631765513812445,0.636560477506484,0.662048344476278,0.667215367732221,0.67613347168517,0.685615501380212,0.706092905899957,0.70861174315971,0.717577258748186,0.721103662407014,0.721943433458103,0.729110823351857,0.739050804287819,0.739474522707459,0.7398140985357,0.749951250882668,0.757876829209788,0.759834715361791,0.763050522069163,0.764921898572147,0.767359751255076,0.78312811547978,0.801809919492345,0.807085048364609,0.807902792610307,0.80893312907714,0.878382174869824,0.88557824087103,0.895721697477837,0.907617790153062,0.928565902429268,0.931712320325424,0.933815565908739,0.94888657252215,0.966803010459082,0.967801206130155,0.98424295982846,0.995515252918918,1.01033800528933,1.01170546774208,1.01429268956958,1.01934110659443,1.0299570507778,1.02959937279271,1.0381197689942,1.04476068103068,1.04637109391748,1.05834762837367,1.06052362711161,1.06226253719088,1.06358621508729,1.06458877004186,1.06484856712067,1.06498977676359,1.05956124723043,1.05899374377795,1.05959291253492,1.0596037643751,1.05696009314245,1.05318449847151,1.05046594323671,1.04951116379208,1.04808123235395,1.0449338078727,1.04175941636642,1.04067286641635,1.04077728088348,1.04111015459796,1.04032289790175,1.03948957890458,1.04317905506444,1.04494657820295,1.04584273334245,1.07491766810057,1.08417044434948,1.09268821924184,1.11156852411537,1.14052426522678,1.17093309817899,1.22199817841202,1.25606445532458,1.2538824013456,1.23739425910394,1.21434943762186,1.21420844875429,1.21463573553531,1.21443686211465,1.21601462278275,1.21667322884683,1.21819512723267,1.21893736181562,1.21923872297248,1.2213991497509,1.22446872699294,1.22619767945298,1.22731766190265,1.2329152549308,1.23487720203125,1.23323599912717,1.23462357482636,1.23574021791678,1.23847194496855,1.24048826586782,1.24176626703298,1.24249082979565,1.24264470127136,1.24557517955812,1.2679196725934,1.27111005265714,1.27218275599954,1.27048505697521,1.26852360591665,1.267237697443,1.24582611346945,1.18482515867867,1.14411060657136,1.14286247596,1.14302437932371,1.14622977050721,1.15015814827429,1.14536681861964,1.12331145014001,1.12271737745716,1.12293487390321,1.1225628905073,1.13844408712356,1.13185734289402,1.13009365517109,1.11156025152536,1.10266401591129,1.08944047903583,1.07911771692127,1.0778913448347,1.07467997201699,1.09430223229409,1.0942488166572,1.09484045080128,1.09482911841363,1.09454051184092,1.09436008322616,1.0854595727457,1.08300642651692,1.08041698444384,1.07928392498844,1.07699975238916,1.07154349504451,1.06908576329582,1.06420457521114,1.06150240258104,1.06033730343783,1.03614231334814,1.03467679271073,1.03353335335374,1.03108128180332,1.02854267008341,1.02648056810597,1.02473443502506,1.02239246265086,1.02059308861195,1.01711438307382,1.0141986651074,1.00593211673567,1.00577087601567,0.998760738828113,0.997000171195473
0.605337896629864,0.60487838561546,0.631961467618833,0.64245710300255,0.660100907703356,0.659220187916896,0.658646847978406,0.657811079956595,0.705398205646441,0.714753588209849,0.714891964800309,0.709069847076171,0.720826130690785,0.718384136217238,0.737391868859912,0.738418333817137,0.73883161198117,0.739201411411451,0.754841466405357,0.754773385320266,0.763375399464446,0.76509547987326,0.765787526634524,0.796304812406393,0.79896972029314,0.807616173098634,0.807752079719303,0.798106915518976,0.869332351013888,0.870602801418279,0.869945525610256,0.87097447785923,0.922570627322707,0.929934788668469,0.930774182298132,0.922891912633039,0.962280558607286,0.963451961090487,0.965913874579525,0.967422036982375,1.00892431364721,1.00908051240059,1.01149891001157,1.01577559553366,1.02937784064326,1.02668889764229,1.04099013872492,1.04406057121902,1.04879115518407,1.05573944536654,1.05402906252115,1.04497721361808,1.05500788948029,1.06500725304327,1.06475305811428,1.06474029422055,1.05950531195154,1.05747073019025,1.05999780833531,1.06267628942478,1.06124492178626,1.06454921753135,1.04910060768349,1.04746915384006,1.04725398446451,1.03312036503035,1.04264513360965,1.04274804679802,1.04226343524443,1.04240237514092,1.04077136616196,1.03464272855144,1.04449760340697,1.04505304426915,1.04636998212314,1.08278933680072,1.08261351368301,1.08434403369584,1.1082433506657,1.12960999987548,1.16275315868575,1.26230000002871,1.25388241273631,1.25127382487749,1.24141719901572,1.2148232526054,1.21473641728167,1.21543895007815,1.21587892597992,1.2174141934411,1.21828988418231,1.21856709425827,1.21877342733763,1.21642520137104,1.22007974039346,1.25148999700566,1.2259985106917,1.20107000411252,1.22875331622117,1.23757161272109,1.22839398887772,1.21812650832409,1.21874052737617,1.21846864506065,1.21908750248421,1.21935633986223,1.2182650300463,1.21648091466851,1.24695357445521,1.26493624948871,1.27097097282935,1.27691950589043,1.26996026481848,1.26871839389551,1.26731085781272,1.22523273189971,1.19511302931491,1.14546680924467,1.14401319582598,1.14186031740797,1.14787418048455,1.15403122809795,1.14688544459641,1.12527739318545,1.12429915122113,1.12502471985605,1.12356241837437,1.14445785496461,1.13011330369131,1.12778110820278,1.11756470925577,1.14287000034938,1.09503744229063,1.08047303761271,1.07905895367661,1.05853000300958,1.09476431757529,1.09433672269451,1.09474466285813,1.07360083557235,1.0935469548673,1.11189999316846,1.08290611499738,1.07858085148358,1.07906413184644,1.07901643805662,1.07279550715666,1.06226426699446,1.06555424420572,1.06605631211238,1.06510904188682,1.06764423357227,1.03466288979927,1.0331298470598,1.03203721213803,1.03132779053907,1.02827987725943,1.01565335278162,1.02221351736402,1.02434069875717,1.02054438609137,1.0102121398895,1.01210327940404,1.00845902622189,1.00776114710323,0.991495510349518,0.993725769664486
0.605681925678534,0.605097736756658,0.631973557100766,0.650712671113894,0.659322017907292,0.659040595887374,0.658773121006878,0.658461672462681,0.704246235058113,0.71583149764465,0.717185546812559,0.720252784428472,0.721906989546515,0.727376194338572,0.734657406531362,0.735022711696057,0.737960759321851,0.747129772438548,0.754147159521478,0.753326605418006,0.762523175383343,0.763983211616928,0.76457530679373,0.783246219811896,0.795511984714562,0.802212158602191,0.81754087406579,0.829548793575329,0.863630416610085,0.866629234515609,0.868496735615488,0.88342299534638,0.915575782414785,0.919152442352191,0.933370225400601,0.937171204777476,0.958986811226647,0.960816400244598,0.964608139395116,0.984077353346655,1.00453686616907,1.00478994597028,1.00576916186138,1.02613813153152,1.03168022348181,1.03320770382978,1.04369782459334,1.047574832808,1.05078185118806,1.05408441534583,1.05191209165129,1.04933637018811,1.05125477884442,1.0547786405843,1.05879275913133,1.06170559324246,1.06098707328991,1.06037402617536,1.06039580525694,1.06012730175617,1.05609376424632,1.05267116348189,1.04916735580418,1.0462990109292,1.04609889958914,1.04593434806724,1.04445377778827,1.04360091572285,1.04328050931316,1.04332559103102,1.04404876440553,1.04447118483909,1.0451662472977,1.04603785590926,1.04794501357504,1.07518222527283,1.07904428644998,1.08685890935947,1.10476798317382,1.11221302881394,1.15525559797244,1.22673215447057,1.23506055869707,1.24886285688478,1.24600537979491,1.23983618515036,1.2355551944577,1.23092710741883,1.22600729269974,1.22018525027501,1.2199676171068,1.22001875530864,1.22031301670103,1.221103863143,1.22088832945356,1.23089550278124,1.22469869327019,1.22399948735122,1.22488490498731,1.22370733524889,1.22373677543297,1.22067411296114,1.21987542385451,1.21982794829545,1.21953319367887,1.21951849237229,1.21896173264843,1.21857948531897,1.24785007223439,1.26805335790902,1.27104540758841,1.27222047203457,1.26953211385458,1.26798484026571,1.26698621528477,1.22715441529581,1.20115857856901,1.15236040757198,1.14935482796736,1.14605182409812,1.14927842548844,1.15063283623152,1.14865320754979,1.14275224229268,1.13687843513871,1.12177160052215,1.11860939962647,1.11544789966126,1.11224766534774,1.10919814606919,1.10658589603493,1.1065502163708,1.10198348563512,1.09953683346525,1.09772619653536,1.09640267653034,1.09516266945096,1.09486125786115,1.09438739953603,1.09342094037939,1.0923052396917,1.08820289608071,1.0833351138878,1.07851124743069,1.07309739698693,1.07037192298915,1.06941873745009,1.06447117682041,1.06456693762374,1.06158811755184,1.05806914307385,1.04559975891935,1.03372597729478,1.03382155373183,1.02987128576328,1.02827317313769,1.02585429749042,1.02015877658996,1.02078616448676,1.02093940746459,1.01988203460104,1.01700735779333,1.01439752971792,1.01062186611253,1.00907335947561,1.00046985353006,0.995294817710344
0.605588886193498,0.604670626372936,0.632257684751786,0.677144884322483,0.671619302483661,0.676699590553841,0.649910499096918,0.645614641458186,0.702221214828391,0.730034642350645,0.718513056703074,0.721892945459928,0.723189834510639,0.732174182379754,0.731660283224653,0.731299925890046,0.737193543674378,0.756310901410633,0.754294344759441,0.74937290632066,0.759910878207864,0.755864371007306,0.762678922604622,0.760092471659046,0.791578175395717,0.787403184623744,0.828252048982492,0.846493477601003,0.849968667149989,0.840104703864826,0.867519896540806,0.89981560806221,0.896909721737083,0.898067743742754,0.934842906676182,0.939928852609337,0.955578665602986,0.958420293469056,0.963668422176957,1.00271026124814,0.99666238203461,0.987030006203317,0.999956973552176,1.031265702796,1.03261330471017,1.03479270805549,1.04630462499023,1.05264330745946,1.05221103906764,1.05801976766317,1.04997997881403,1.04085956343752,1.0473666549293,1.04842149377809,1.05239154347207,1.07128742190788,1.06191417494004,1.06235511641387,1.06100225691237,1.06002477263748,1.04937293284096,1.0371308875944,1.03899204143684,1.04216921288189,1.04401656800286,1.0495658877523,1.04566714163315,1.04400046732814,1.04405570442912,1.0436864960966,1.0446259962571,1.05701934039141,1.05249834081654,1.04778433398163,1.05253671767974,1.0661599455795,1.07543041865066,1.08935657704715,1.10127584070573,1.09987230921485,1.14843308257246,1.21314000741533,1.22667518087586,1.25206848209773,1.24803152183792,1.25562294854495,1.25221348848734,1.2507798755952,1.22897297376131,1.22033717064168,1.22092303396371,1.22055592597688,1.22159487559047,1.22204617869055,1.22216407294629,1.23932424949883,1.2238551250091,1.22224415454152,1.22355221114582,1.22257402773979,1.22275982333386,1.22090714661412,1.22098841298261,1.22136210994433,1.22014874202135,1.22009733713062,1.21963565324447,1.22028822531894,1.24816815792551,1.27496560915953,1.27297362628221,1.28998999476658,1.26803859271706,1.2671817234999,1.26648303439242,1.22903961102665,1.20560538959784,1.15544252405826,1.15235526260752,1.12612000152742,1.15579056447102,1.16398578895822,1.16537701763338,1.16759422186953,1.14686392129347,1.10477009482914,1.11301360409482,1.10233015076405,1.11069726135688,1.10308710390718,1.10449421749099,1.07372999952304,1.10498787750286,1.1083261376995,1.10774052667261,1.11140636066739,1.09426777806797,1.07379034812937,1.09372184892678,1.09305840601735,1.09224427914016,1.06356133953816,1.06390523019705,1.06432550936604,1.06642965269905,1.065540205687,1.0667231998839,1.06545775887515,1.06537526935659,1.05109057097519,1.05378008466651,1.03435827822062,1.03357273189174,1.03544487575487,1.02843342508624,1.00670257969079,1.01807843952886,1.01946924894399,1.01920363689106,1.01937944159844,1.02059845993236,1.02246939366709,1.01827145753957,1.03125001109346,1.01530663619875,1.02593803256327,1.00810187253861
0.625379786775245,0.626845092559233,0.63306481646099,0.636708396706532,0.637161350644962,0.638462918488351,0.64041725315906,0.642854918942594,0.699242125620802,0.710114690524582,0.71200529256837,0.72511477930023,0.725674251504128,0.72778106590947,0.728590941019104,0.728993286995141,0.73655846403905,0.742595773535964,0.75683355030928,0.759242861121503,0.761704102094702,0.764964837046323,0.76828588370884,0.771935820542297,0.797351128894208,0.811075989209196,0.837966334121577,0.843114758589803,0.858387405853302,0.861436873045433,0.86693307464623,0.882498349928807,0.893363875693896,0.919202101718234,0.93601661189329,0.941072457373699,0.951837231585996,0.962005981153662,0.963258894815242,0.98061504753925,0.98243223686772,0.984611275196893,0.994220698830637,1.03515408287672,1.03868682984793,1.04305295523396,1.04899014370283,1.0511045493726,1.05256179883638,1.05499443116422,1.04782178976734,1.04375462777102,1.04518287102192,1.04604197308913,1.04569940529866,1.04590499946023,1.04421589803864,1.04265263887328,1.04182044748014,1.041418542439,1.04104599572502,1.03670407582031,1.03773322332329,1.03962159643841,1.04096971521613,1.04309482133764,1.04536818156112,1.04572428736045,1.04532578298216,1.04459225768483,1.04656505764682,1.05974482032551,1.06127429229008,1.06218925521297,1.06246534194801,1.06469321911306,1.07183670747171,1.07955721102268,1.10061663479448,1.1077965089769,1.1422675789959,1.17277945617327,1.20110195356206,1.2204557317791,1.22952121565474,1.25127947714878,1.25157668759099,1.25104271101048,1.23649319192854,1.22215872049361,1.22219503963545,1.22257752558443,1.22286920832584,1.22360065963573,1.22365914541766,1.22435618482026,1.22443730753399,1.22440718593369,1.22429970292852,1.22342682599827,1.22356086037993,1.22266726436077,1.22153444694214,1.22012382626078,1.21930097957111,1.21898894120453,1.21902558000415,1.21927994980825,1.24796077228391,1.25131277732863,1.25784739672876,1.26116111421682,1.26499591907754,1.26578390296793,1.26583800754916,1.2190530367104,1.21169726122421,1.20931269689865,1.20247972374474,1.19399097778124,1.18510915154416,1.17561254256309,1.1645567942139,1.16447690402391,1.15329651594191,1.14408850024991,1.12712059095045,1.1255489129731,1.12383213548247,1.12140966017336,1.11807452701317,1.11504723848414,1.11246327841185,1.11026390770196,1.10442753867554,1.09504900743272,1.09310405596456,1.09312234584601,1.09304760430854,1.09260810096148,1.09198000302586,1.06378656865165,1.06407522518952,1.06487663557649,1.06602410175299,1.06615364076631,1.06678823687016,1.06579569475677,1.06584339210098,1.05232694109311,1.05318529167807,1.03190084401018,1.02932139252834,1.02740906075402,1.02657353093812,1.01594461544045,1.01688063584631,1.01728268413994,1.01697075484023,1.01426707072059,1.01113805364856,1.00780690965329,1.00465576831996,1.00206001148046,1.00034209779226,0.999446074950904,0.998139208928729
0.627290947364827,0.630456995577182,0.634339264420575,0.636285812414583,0.63648118027548,0.63699038870378,0.636790481604615,0.637525974879047,0.69549399579648,0.707669035392453,0.709412671930027,0.728940183173188,0.726440715388633,0.725029404545075,0.726301609227622,0.724914025061167,0.736058020248245,0.735661644001712,0.762506830703496,0.795997996741648,0.77766149871509,0.766528907917442,0.771384338206791,0.777920499613749,0.799565984467489,0.868003000161612,0.841241178499393,0.839646354000649,0.862601942596631,0.86342026834116,0.866464828397945,0.864577176815056,0.890976327872405,0.938506605579522,0.937227985693602,0.941992579345931,0.947599752674402,0.965683716078118,0.963680583401862,0.979023294287088,0.978767199808292,0.979647648418922,0.989222608864479,1.04072225831991,1.04414583791781,1.05087516999025,1.05048061488609,1.05016926423246,1.05214781745575,1.05649123180567,1.04686936130641,1.04211178938606,1.04342446840627,1.04230666300178,1.04546654042695,1.04797204499956,1.04487716861962,1.04302184996276,1.04242180654765,1.04207972875136,1.04119551860731,1.03538264907484,1.03618217327436,1.03512307291362,1.03718918262996,1.03628983273581,1.04710608624834,1.04820123820898,1.04704925985383,1.04441292181188,1.04967727554671,1.06065245499993,1.06164186520838,1.0627872174747,1.06288720003781,1.06357799723525,1.06827002338307,1.06470991661571,1.10010372265385,1.11565132254389,1.13080921846725,1.13250048629704,1.18845784165743,1.20832000034875,1.21612428793029,1.24892646348534,1.2516057729978,1.26426850334781,1.24475277017191,1.22350468369597,1.22335401931991,1.2242518968283,1.22424774332571,1.22527894495588,1.22524852139913,1.22490081635441,1.22581664258281,1.22628788238194,1.22656421122893,1.23922945358568,1.22598032604952,1.22457038299964,1.22293544676534,1.21812802166084,1.21826644147175,1.21737453982403,1.21830715223213,1.21849447155276,1.24742431951425,1.24746890222111,1.25490054108054,1.25467192036046,1.26685673889093,1.26561138240493,1.2655738142334,1.18678999973869,1.241594322784,1.29579000303157,1.22869754210433,1.19783809545134,1.19843301070547,1.19903786533461,1.16383695424643,1.16134098722982,1.16141386285631,1.19003999802738,1.13309464217377,1.13512090370696,1.12461846581874,1.12285174185867,1.12412678166792,1.13623478390508,1.13198833581169,1.13910804949397,1.10103834694912,1.08949225184662,1.09183507701819,1.09297016003102,1.09241638472976,1.09203885018946,1.09092838159005,1.06395219794492,1.07906917036078,1.08593283073414,1.08464475527161,1.08671903000481,1.06824812388385,1.06487470906364,1.06598393128002,1.05266383984366,1.05299637720456,1.02282483873234,1.02633079500054,1.02551612838679,1.02436330947907,1.01495387665414,1.01611863447575,1.01579868063735,1.01669396440384,1.00291161300449,1.00083553511611,0.999329632167036,1.00073706342899,1.00140835153676,1.00008942804132,1.00076268237149,0.996971931289891
0.628966925664044,0.631941075359956,0.634038445838425,0.635193861037059,0.635438735282396,0.635615350096044,0.635754453813939,0.635897989999129,0.691261412252373,0.704955074205985,0.706766108767446,0.714786560858846,0.718882472168292,0.729219490540163,0.735105574569142,0.749381529412392,0.758675310046924,0.764328178885796,0.767964419608315,0.781581062225789,0.787274670430778,0.79359433260357,0.798186516908939,0.800039949640268,0.801886925192642,0.829608854469295,0.843179884536361,0.84441979196432,0.863924732451489,0.865101992506662,0.868042686650694,0.871292799424217,0.889969967675765,0.903708806623085,0.918495564642982,0.932104065311953,0.935818724732067,0.954165259917056,0.960437096650077,0.972032687874937,0.973816828555893,0.976842238821737,0.984880074235544,1.04410006177684,1.04745883524548,1.05090564877505,1.05183281531207,1.0506147880964,1.04956240561941,1.0472525384562,1.04590396738162,1.04403276559481,1.04370799435819,1.04357846864029,1.0442859695039,1.04510577150906,1.04466655548293,1.04441285952827,1.0433247314453,1.04232132585042,1.04084089489842,1.03709411212285,1.03627540537378,1.03591601751524,1.03608476134127,1.03573794987387,1.04775852496361,1.04850428117903,1.05029555009077,1.05294031258564,1.05340514703528,1.05672912299049,1.06488876857004,1.06968966697053,1.07495028501025,1.07979904658899,1.08155671352052,1.0901878207878,1.09995353601677,1.12064425402665,1.12940953749381,1.14086071982181,1.17089646184045,1.18733911084763,1.20645746414406,1.25137706495291,1.25372524574013,1.25608774541175,1.25471457410954,1.25095911344004,1.24641839144103,1.24148808213001,1.23661514091852,1.2266312870458,1.22644932884145,1.22670329140684,1.22706511616537,1.22811441634277,1.22906639084575,1.23126025026436,1.22972019535674,1.23059100643288,1.2304601448502,1.2291099196736,1.23432968371074,1.23841770830769,1.24111432430907,1.24398320172116,1.24687818238278,1.24733135761524,1.25276670774414,1.25297691614355,1.27016487208718,1.27193539595556,1.27414572355392,1.27727490400759,1.2814684413072,1.28432213520443,1.25004660864903,1.23324864974046,1.21462372486654,1.17784099634126,1.16315004166966,1.16248251080433,1.16198899733965,1.17759721788211,1.13144417000965,1.13063596565913,1.12703584117085,1.125794814016,1.12562491940395,1.12648730813088,1.12798625565075,1.12743600193828,1.09789290213475,1.09206077544626,1.09176923674876,1.09152080565995,1.09134862235921,1.09125681571953,1.08999515885819,1.08735096246075,1.08530852508353,1.08490771648048,1.0815126159128,1.07649734633143,1.06946521158096,1.06842553343445,1.06708595190288,1.06361273154918,1.06007180492103,1.04221362905706,1.02758828795218,1.02325350193766,1.02099633486208,1.01756277949816,1.01689841810844,1.01685168170771,1.01699266820201,1.00105658500346,1.00058218777543,1.00061164594814,1.00147654028164,1.00200199583652,0.998450099719035,0.995932193578983,0.994920458097659
0.630328191823904,0.670363999567621,0.657343939096116,0.669897002762624,0.634442314833476,0.634188039579415,0.634663437188756,0.634385038000201,0.686848068390476,0.699168552655975,0.700294830320152,0.701994975628168,0.716632031667025,0.791194998510546,0.760300674439562,0.754202726192449,0.763416908289342,0.780378698221422,0.778450870107293,0.77423195443691,0.792152225827683,0.804979665811641,0.806942775409874,0.80893673067817,0.809166701557484,0.809226325091875,0.844414990016071,0.846132579036355,0.870017227187388,0.874034323069761,0.874085125731657,0.874558799763427,0.890014354887905,0.887708233380616,0.899245544402574,0.899052033329731,0.930583161308818,0.943329000873983,0.958152421911773,0.970391074694985,0.971072429544926,0.971056613878935,0.981173166349473,1.06364000353475,1.05085545651194,1.05633625716114,1.05470633157546,1.05952665035902,1.04799866057853,1.04618894894735,1.04553128057052,1.04447502315562,1.04386963647331,1.06216001186683,1.04338321588001,1.04366826802707,1.04454607892803,1.04706890493448,1.04445724168042,1.04340929916942,1.0430521952501,1.03598589237083,1.03606750448508,1.03604461329209,1.03563979468723,1.03503043812135,1.04777992805856,1.04775537563101,1.05274412363836,1.05517671565948,1.05482321935496,1.05594852798658,1.07245619215411,1.09982993633665,1.08403749803795,1.08409156390495,1.0843120993501,1.09895626268722,1.09990242285792,1.12647583966373,1.12830202327829,1.14891008912411,1.148367665365,1.15044366596485,1.19576294640572,1.27409000003802,1.25610057247984,1.25850403050535,1.26051168543524,1.26103865125692,1.25082002142018,1.24298888074205,1.23910478994323,1.22769433770565,1.2274417087546,1.22785098731047,1.22823899839127,1.22942074600004,1.23020397423291,1.23042094764713,1.23556840057633,1.25793902857218,1.23638900751877,1.22580550770348,1.2386514742601,1.24878507444559,1.25059822003547,1.25155735840306,1.24835780249022,1.24680154065585,1.25205906908443,1.25215541659232,1.2716246411813,1.29906999528487,1.28226713468844,1.28533179914722,1.28498488775844,1.28804656200414,1.29102591810573,1.29371102836722,1.2336573323014,1.16308233701639,1.16327890630689,1.16370720277787,1.16260970371776,1.18652977488477,1.13033805473377,1.12866672795865,1.12779545396718,1.12753948391915,1.12621201444195,1.12583088656327,1.12691794492671,1.12689214863594,1.09510162815129,1.09550157851852,1.0915813554617,1.08991751992012,1.09037392398267,1.09158787080258,1.09115481520182,1.09365741730103,1.08442627892643,1.08659557695139,1.07905633946615,1.07183559896228,1.07158157548369,1.0720381388289,1.07331263511006,1.07438904295054,1.06993404397755,1.06598619514842,1.02934854912537,1.00671293821419,1.01867998510791,1.01748942189739,1.01684626934617,1.01770794274178,1.01711921664499,1.00000079136905,1.0002235418843,1.00132948306426,1.00219593789444,1.00792569002793,0.995654693410813,0.993009718702836,0.992565977343678
0.632995214352872,0.632644689416796,0.632647778517845,0.63302340069224,0.63371655846328,0.634010995580159,0.63430430125202,0.634346878858607,0.682510425516848,0.689491950846785,0.699876216161628,0.700421051972333,0.714728400091884,0.783635825126918,0.764127498997696,0.765107229723862,0.767402858965706,0.778266580471489,0.780508850179067,0.782479302207464,0.795377105668942,0.803087043819118,0.81283667868967,0.814609848210674,0.823046819776787,0.830821124977363,0.853229566489906,0.86013979997293,0.870226661925565,0.875129454064662,0.880758183828129,0.883749448655059,0.892601475078609,0.895307637709612,0.899844184638546,0.900116857626913,0.925246497397329,0.931473072319964,0.955984261266652,0.965861669083423,0.969854101900829,0.969776476726652,0.977899170720551,1.01213299246635,1.04017171242107,1.04341921786263,1.04383226920242,1.04467500485056,1.04540406276292,1.04578104848726,1.04536399194106,1.04449674684866,1.04341934380571,1.04287957711366,1.04237798700715,1.04297075308616,1.04318924675513,1.04466847938134,1.0445367614006,1.04436890109908,1.0454140118173,1.04703323066061,1.04709134863233,1.04690258751435,1.04655945017789,1.04612881512617,1.04822091408589,1.05401920363337,1.05973346480844,1.06565247659275,1.0717400139825,1.07636483803122,1.08102116705344,1.08544588136821,1.08433084145987,1.08287713658672,1.08595154121288,1.09903766077379,1.09982378952855,1.1216166873569,1.12735374034782,1.13679669084202,1.14581058758796,1.15146027425401,1.18199833538745,1.21219411566418,1.22985238495215,1.26025085112438,1.26136327000346,1.26105175777493,1.25759515635998,1.25482067594349,1.25097466498123,1.24757833240356,1.2451318405991,1.24220224963978,1.23856689607765,1.23325026354848,1.23168008457145,1.23155586028765,1.24039057925242,1.25060174982424,1.25127111075035,1.25159831479434,1.25143292050421,1.25063814905435,1.25143137890164,1.25155948676435,1.25898718462926,1.26311763883415,1.26700160832922,1.27034046662677,1.27278694812783,1.27756046862687,1.2797234153767,1.28261966806645,1.28352808053712,1.2896631920995,1.29146963589275,1.29261608413664,1.25362574641851,1.225764622871,1.19521328979717,1.15549561294348,1.1485409818746,1.14232307919354,1.13023203003354,1.12904953194928,1.12742762243966,1.12703977482182,1.12572018089497,1.12382006386031,1.12162464654003,1.11916946222409,1.09264548088783,1.0928857628319,1.09138179694136,1.08985085494183,1.08886478603633,1.08769972838597,1.086443381319,1.08306642072242,1.08186119641952,1.07996080384896,1.07636561794464,1.07364568902066,1.07278878077789,1.0726461536536,1.07336382566142,1.07393017192203,1.07370264459055,1.05425400187988,1.03175481998139,1.01931603336924,1.01736357767384,1.01681395662174,1.01545520227666,1.01654681069994,1.01670986000741,1.0073033718862,0.999415534129746,0.999463635383666,0.998259406513774,0.996834062015974,0.995160030954424,0.992748766342816,0.991766399437551
0.638465206232079,0.628371001987621,0.632622338664645,0.632923249515131,0.633473242410796,0.633857680323164,0.634168326426972,0.634326849708418,0.678374784615902,0.672441587857813,0.699180544710735,0.699589711906903,0.712445452851619,0.791114999119116,0.763959548040384,0.764433044515297,0.770358750300642,0.773742832813806,0.782475554976009,0.784034341684536,0.798179922800139,0.801371322240308,0.816486102672685,0.832166835631034,0.832314499322145,0.84202399483671,0.857867429703924,0.92433399942055,0.911925611780283,0.924652003524298,0.912716574378241,0.93185800759876,0.923368170768405,0.934362993646213,0.901746878785086,0.90185905251404,0.914656684534664,0.915799832433359,0.951899339625439,0.961155726828635,0.96903564280156,0.968714540900976,0.97417084191588,0.969328182219777,1.03789967135128,1.04672926715937,1.04359437053987,1.03444781508592,1.03660156839326,1.02541036759266,1.0302680835434,1.02571872953027,1.04250776816369,1.04288376557685,1.04067102055841,1.03220599292293,1.04101094366562,1.03670757730342,1.04491647935811,1.05699162161363,1.04718304240164,1.04828947358633,1.05005643524175,1.06375831130361,1.04918974393028,1.04464162110514,1.04986533652154,1.06610858198327,1.06992296799017,1.07670741757014,1.07805757675699,1.08673298779779,1.08708897194979,1.08684840859728,1.08534313033397,1.0801642476922,1.08858655309053,1.09920046681566,1.09983865349714,1.11696808580833,1.12647213864613,1.12847830124671,1.14337253132645,1.15244277981107,1.1675176275659,1.1782999953212,1.21234989357226,1.27129803596301,1.26717082265943,1.26993974908207,1.26682996965928,1.2724089957161,1.2519313546662,1.24693729985198,1.24652603433439,1.24512932067839,1.24118240978308,1.23235195689042,1.23219727867541,1.23275058909022,1.24496315433085,1.24982077618717,1.2513278768351,1.25162425783391,1.25449982620752,1.25631769419979,1.25228464754714,1.24894467980145,1.26183566987336,1.26913095121785,1.27079814313753,1.27183912875001,1.27388616632987,1.27582292760093,1.27704587346245,1.27508939623897,1.28374915323456,1.30237938954133,1.29694827166623,1.30322626502644,1.3011122404401,1.32352000028351,1.20865911277548,1.1370103797486,1.14327586312105,1.11924244757399,1.11872297016572,1.11523409207122,1.12516395604916,1.18505000035909,1.1254384421377,1.09903792972274,1.1079641539548,1.11653017612951,1.09033331672351,1.06299000298557,1.08443895364498,1.10492998339538,1.08358691236402,1.07852634837098,1.07970133309939,1.08065258602916,1.08065657030591,1.07976166682029,1.07496427729411,1.07299996654555,1.07290313234205,1.07241570643048,1.07308596091956,1.08914999106233,1.07693279711664,1.03822641475509,1.0347812364684,1.02397149022986,1.01550503557008,1.00787473246096,1.01164428482297,1.03221971970047,1.02257548580048,1.037339996155,0.996054250158094,0.986640676745074,0.983880468256021,0.981443713280291,0.986240917637525,0.99097346582395,0.990688296302148
0.650779607283231,0.653603368464715,0.656508539045912,0.659471739729688,0.662472610845661,0.665426472120324,0.668371414174214,0.669869820530569,0.680316533824875,0.681346261928816,0.698271900697967,0.697358099725397,0.710026469530837,0.73695829081061,0.760768237383602,0.772965286844178,0.77683312068585,0.781828953264756,0.78668214319852,0.794831440842221,0.802854051842838,0.810069503799747,0.819810792741464,0.83228091529564,0.832217382927033,0.852001970642494,0.86358314002306,0.891285729805793,0.893040497889148,0.894813841462681,0.896829010006407,0.899387952367598,0.902660379755486,0.906616975432464,0.904037220707609,0.903497856273572,0.913426363868421,0.913370263729695,0.94717406457562,0.949549208686309,0.980993379038424,0.982796605349794,0.984113412778737,1.00592064045532,1.03640828826798,1.03840061268602,1.04026294732817,1.0387616747764,1.03896619895274,1.03958642886954,1.04035915985341,1.04105252717094,1.04119385121945,1.0389724359643,1.03696013242716,1.03463529656889,1.04359633582179,1.04430479982256,1.04582699444788,1.04636823611463,1.04745994619932,1.04879565279867,1.05072558115018,1.05364848369053,1.0530481801221,1.05357869510999,1.05212911384496,1.0699085665866,1.07281577181499,1.07516112174455,1.07920104342582,1.08722540234215,1.08780392334643,1.08776780170704,1.08897948930594,1.08973027573932,1.09206597310651,1.09921758238063,1.10019034847542,1.10735475769338,1.12563991339346,1.12636040057704,1.1410149883568,1.15050807484336,1.1570643991541,1.16555977892068,1.19269581930427,1.21052315395817,1.22761072449843,1.26110873467715,1.2637752903,1.26576878891835,1.25375292727716,1.25262204742726,1.25255811916923,1.25290715570942,1.25298841624878,1.25263860364421,1.25190209004213,1.25097235028036,1.25217807852036,1.2514803032051,1.25247609853996,1.25448621636124,1.25625577576268,1.25875926915365,1.26130883367941,1.26386525429464,1.26663638196956,1.26872040468269,1.27149326387111,1.27301627167263,1.27516321985045,1.27615908933089,1.27779397879831,1.28075593676199,1.28393978792507,1.28839326199961,1.29202368094787,1.29549920955802,1.29857095253569,1.30367624907201,1.21778101788081,1.20455656009491,1.17725075745113,1.16138550362089,1.11843067293634,1.11818094763646,1.12208300701711,1.12372866382919,1.1244216726412,1.09642073554112,1.09446297282704,1.09036362395329,1.08798514993862,1.08065153907456,1.07864892318674,1.07833921512428,1.07813131657257,1.07803400336999,1.07721933761553,1.07648578524898,1.07582240480954,1.07520558355996,1.0745489577448,1.07370645689964,1.0733480645572,1.07306647033737,1.07325032044674,1.08117025645301,1.07984906490212,1.05683135624758,1.04877957254698,1.03535596519296,1.01389069984789,1.00476125349297,1.00175014751779,0.998784234257113,0.995757710355225,0.994039346472933,0.993668904612187,0.984937625051294,0.983208756726518,0.980770860241986,0.978616392378064,0.977201673359044,0.97611894991548
0.648849691492764,0.677062994055011,0.66096503069484,0.691217000382798,0.662550200088566,0.676323817333552,0.669833605486786,0.67147746823389,0.681310164769736,0.682383609591594,0.698219819097773,0.694282222654216,0.707417084923769,0.705056392252514,0.751629349287305,0.796891869985958,0.787415960579791,0.803571471841001,0.794112117072828,0.817525621095321,0.815357589279333,0.82815391001389,0.828426181030212,0.832443544220581,0.83180769362616,0.888773998713709,0.874610796671684,0.889261112321991,0.890258327310997,0.890777153997137,0.894348773142155,0.898197594423823,0.902282583736203,0.913657244279555,0.904435803290327,0.904742708628662,0.912165628987788,0.910822468789277,0.940275569300121,0.929041141390863,0.989383568833332,0.991387871935134,0.99434366103047,1.02013999696735,1.03353436873709,1.02962817997637,1.04024330830948,1.04133529301337,1.04103011169983,1.04304854890752,1.0418384301702,1.04317617230666,1.04217100209099,1.03069878604418,1.0338785862536,1.01952999743836,1.04632204186447,1.05276905051888,1.04782005921038,1.04576895670165,1.04706145680529,1.04759073579353,1.05117318060339,1.0561798885975,1.05420581118994,1.05576509521441,1.05307023130921,1.0789457598436,1.076259236565,1.05686999457157,1.08018980147051,1.09604301582203,1.08964267278416,1.10914997025795,1.0914352700294,1.08993556582481,1.09689443217279,1.09922112079803,1.10073880657277,1.10084277248434,1.12443483218827,1.12071708682965,1.13859797704448,1.14854922470049,1.14843357545572,1.14851945218218,1.15425082173268,1.16424983420955,1.20736835595814,1.25821608573281,1.26110725223151,1.26753154648518,1.25756757397474,1.26219506902287,1.25317278686049,1.25429773400556,1.25656093529298,1.25870570685622,1.25386383901022,1.24816010823414,1.25469517305209,1.25831415734115,1.26177683246162,1.26403773621617,1.26325036161949,1.26134690341818,1.26133731916403,1.27182872937584,1.26737815360123,1.26767390164399,1.27334090128674,1.27953147504084,1.2774181161991,1.29972000227545,1.28817543747566,1.29632639567141,1.28127699226039,1.22695999946561,1.26753928870721,1.26549092462774,1.27854211808367,1.31299999663661,1.22960968148404,1.25693999983401,1.19424106290099,1.2269000002383,1.11810709668463,1.11653809897192,1.12028032384942,1.12434256950171,1.12315217232825,1.08916150790488,1.09332498826773,1.08146515261828,1.08442813017914,1.08318398313896,1.07653636674642,1.0751238996957,1.07358901312265,1.05609188621233,1.05495279205462,1.05471659901237,1.05631474105457,1.0589343337332,1.05656795553998,1.03699000052013,1.04903497793938,1.04961192474079,1.05809232011528,1.08212376195269,1.08110108322443,1.08497991199654,1.06263637937988,1.08639000017704,1.01293857082095,0.999282302087942,1.00171042313612,0.992725602710837,0.994344862976582,0.992362230475913,0.990545973454678,0.975831815846171,0.977356041335507,0.979521760141613,0.97799590581946,0.975895657296389,0.975798547865774
0.647731550603321,0.651129945958036,0.655014595786737,0.658885635241442,0.662470687499041,0.66571334980889,0.668215108395884,0.670012603034978,0.688358096621441,0.69123714093584,0.702168645860995,0.705187777142378,0.706889896176987,0.706803568453727,0.743752559796185,0.757095204887378,0.764763121431563,0.775061668769068,0.78809015392856,0.796435224061709,0.81290032392677,0.827849144106184,0.828264789172031,0.829185581348161,0.830697654795742,0.841586022589858,0.851920953139944,0.862159720941345,0.8723597804138,0.882876617956941,0.886680767963603,0.889321774113867,0.892158638736879,0.89502175282492,0.899023008081269,0.914437847055264,0.927040304796552,0.938431919711134,0.943543481909313,0.96409418076215,0.992272300018807,0.994280032075103,0.996320535927609,1.03272150952854,1.03488214989952,1.03676343205164,1.03907458008945,1.04038604420033,1.04071918633644,1.04123076886501,1.0412792000484,1.04161146550753,1.04207310759418,1.04467777765056,1.04668433143968,1.04826205223765,1.04962214208008,1.05095406927919,1.04830864679862,1.04649120342992,1.04674327682352,1.04679857887539,1.0531338200644,1.05370310675518,1.05194374743069,1.05298627853521,1.05176787006617,1.08027456133206,1.08114440180866,1.08133933184011,1.08114765523271,1.0823997584407,1.08436522137859,1.09632889783398,1.0952313313245,1.09725912718866,1.09957806297662,1.10106861885204,1.10378529441169,1.11461137940002,1.12608724705323,1.12678778480227,1.13601053553188,1.1370556806281,1.13974287902994,1.14356920819454,1.15079774556822,1.15446817976395,1.17387538664196,1.1855689523055,1.19562966804392,1.2071587596356,1.21905433643492,1.23097276068359,1.24314172294203,1.25570738536856,1.25734074442161,1.2598560761119,1.2635345538578,1.26503328487876,1.26588376428791,1.26446570914787,1.26362235751745,1.26397411737875,1.26462607716157,1.26242178783671,1.26144106651584,1.26258482536283,1.26368644725443,1.27141444201554,1.27547087974965,1.27853501934106,1.27750249648501,1.27627504067863,1.27467164645917,1.27293706334315,1.27200280037926,1.27133943981903,1.26974247503883,1.26861679920769,1.26645342094899,1.26558168794377,1.21751311212183,1.19948714009439,1.17333759318213,1.15400115031969,1.11876399740282,1.11844534348908,1.11921938029192,1.11940240548497,1.12070333471019,1.10618147253193,1.09823332664341,1.09044586667574,1.08540185867874,1.08517251083011,1.07423197559201,1.07368728125781,1.0724280698544,1.06237344986347,1.05414228106705,1.05471516880047,1.05543463890185,1.05667037261097,1.0547230676215,1.05159265370436,1.04951363009871,1.04908488546921,1.04792666999059,1.04290300041698,1.03660928651914,1.03104396868515,1.02668470557967,1.02053819920574,1.01251049343395,1.00775912790897,1.00390979368197,0.996610165983774,0.995935867576838,0.99541058931357,0.985423942528196,0.976199470519582,0.975786040404184,0.973712289759318,0.970875379564365,0.967806086939188,0.96495396753931
0.61411310980779,0.614291515002511,0.632416717887478,0.647460149739655,0.648291594684089,0.649184226212394,0.645476730154025,0.638377639706355,0.698353652762343,0.711464696090682,0.710033924442902,0.707086494457811,0.707628603826178,0.708152372894016,0.735169321737895,0.749080063684881,0.744725639853633,0.739569389540611,0.741396876636369,0.739323736303512,0.810171905648932,0.826864361153487,0.827085723978383,0.82591565009661,0.824245936209352,0.824403862586381,0.827162929585254,0.830511966442066,0.857859292235908,0.876613629921172,0.881268705512421,0.885657861982997,0.886213650550353,0.886941579648151,0.895731931906755,0.954071994745705,0.936251963532332,0.950974668635856,0.953091309130995,0.998977387181902,0.999852947711571,1.00013575931402,0.999871496328383,1.05781999771652,1.04883939819707,1.05993954147257,1.05382193656294,1.06142000242592,1.04028636740906,1.03968108708832,1.04030975168529,1.03973585687285,1.03935144086006,1.09913000045743,1.05602519646487,1.05477991441217,1.0529787829082,1.05334846031713,1.04751979441636,1.04493405554565,1.04598891384553,1.0447255347555,1.05546808175078,1.06420093777198,1.04721548328413,1.03781293621546,1.0477975599549,1.13896000025469,1.09338356453144,1.11950000034402,1.0807816693377,1.08032496039215,1.08214740851077,1.09756062441609,1.09632609204692,1.10725070925363,1.10343489733602,1.11596948312827,1.10952311397135,1.14330969291521,1.12850601849473,1.12911219177796,1.13234605104761,1.13287294902695,1.13231466034911,1.13242731490053,1.14643030402552,1.14672937322829,1.14620618262773,1.14592313770131,1.16845698675033,1.17070193727326,1.17487582838528,1.18601001344608,1.21699414856786,1.27457997191699,1.26462162302751,1.2715649793119,1.26834684791293,1.2709608150909,1.26803255159336,1.2686825225363,1.26474346077454,1.28106001159031,1.26900913471273,1.27362039395172,1.25928373201472,1.25767532655164,1.26025606244195,1.28844982865051,1.27844745885351,1.28180099826928,1.26776507310359,1.25944741102544,1.26612702773824,1.27237996272965,1.27222057491852,1.27265930975244,1.27174217757468,1.27298157537727,1.26550714770173,1.26496113047995,1.20987055860958,1.11017000177854,1.12224178795729,1.10767119976427,1.10970405970306,1.09019000330638,1.11757381931424,1.11741734300688,1.11853559274766,1.11690134871876,1.10256216071272,1.10808125088868,1.08645094076713,1.08733382008012,1.07096273659678,1.06816292448792,1.07033716946656,1.07988906790758,1.05279380068381,1.04145443710944,1.05088745723883,1.09523999699685,1.08509645269756,1.09708999838188,1.08469831427276,1.09966000024653,1.04662093360666,1.04160000132655,1.03271881217415,1.01075977389034,1.01224500823535,1.01149540822727,1.0123646506798,1.01435899177744,1.00564163292848,0.999648626935935,0.997951358973848,0.998092368428997,0.980572253802981,0.965263124295866,0.963089212611066,0.962446810599953,0.960169830870093,0.958156028141837,0.960584721683194
0.614179778260511,0.614383138423969,0.622779580261576,0.629432090222347,0.635913195874902,0.638654613653954,0.642061776211367,0.675759312606817,0.70424967229415,0.711591386184672,0.711252544017155,0.709974724102387,0.708099485166399,0.708349047113638,0.726246094406561,0.741226656055791,0.742558222995847,0.743445163930063,0.744607320836971,0.77714252071718,0.807404349631497,0.812998053564565,0.814601516470157,0.81707047479592,0.820121235116384,0.822692077808339,0.824551073634839,0.829270066733669,0.844237529029643,0.852366205922196,0.863315205723804,0.87063578419726,0.877932676387917,0.889770992758296,0.892705595203434,0.912691909751651,0.921423509955639,0.953092619379382,0.955032701943056,0.999318582135912,1.000104159257,1.00174097205514,1.00230291324106,1.00598214147077,1.00741576523909,1.00954805564905,1.01241154490304,1.01549456956387,1.01899810700524,1.02282107492165,1.02701851279501,1.031456569215,1.03564293498385,1.05599799901926,1.05616127425632,1.05537395222901,1.05376649734874,1.05184372897591,1.04903879554002,1.04715378296095,1.04695832515334,1.0511639058005,1.05837662087547,1.06097487266448,1.04278670497942,1.04025706915508,1.04510625478071,1.06533582826886,1.06971935883583,1.07338921596315,1.07589249900248,1.07883073575641,1.08180882158342,1.08832207205976,1.09278587061701,1.09660560463355,1.09998326415077,1.10303272561239,1.10576993347043,1.13386778680794,1.12919319118762,1.12994893632864,1.1314735803225,1.13199630645285,1.13172472305888,1.1389299361262,1.14622179057766,1.14622590820604,1.1460719963743,1.15080587090516,1.16631843914824,1.16844241750828,1.17245717372277,1.17629727700384,1.18920928683611,1.19722895999603,1.20781833352152,1.21969391055141,1.23184485829446,1.24395133857617,1.25630043090147,1.26640540232816,1.26262684511569,1.26017250914338,1.2586891806592,1.25776787975095,1.25849859109664,1.25853976251851,1.25940679590677,1.25992871124706,1.2589282072552,1.25802508359462,1.25724718302738,1.25660755621854,1.25606666180592,1.25607312708426,1.24917418656719,1.24526254715996,1.24182395160398,1.23894811131598,1.2362977502161,1.21004647356389,1.20795510886255,1.16351842764251,1.13399819905945,1.10970405460704,1.1110440801575,1.1126693602961,1.11539087128646,1.11731628678365,1.10389492173052,1.09653334475524,1.09009871593058,1.08460959933482,1.07974871627573,1.07420652336527,1.06872580522851,1.06577469113365,1.06142920107059,1.05691314698123,1.0512827416607,1.04364241366297,1.04400043947674,1.04309928891206,1.03869214480446,1.03466220598374,1.03117758755354,1.0283933480198,1.02640229482344,1.02515735312515,1.02452482409645,1.01753511430949,1.01397396879736,1.01236529639742,1.01113188416093,1.01046122533485,1.00700556783107,1.00323836182515,0.99818105445599,0.989753538879021,0.976277159173352,0.96558908960725,0.961424817289116,0.960678761525787,0.960100771991758,0.959491764839031,0.957346390087353
0.602155703178549,0.587000895802349,0.596616678469285,0.595368437407189,0.615252822710256,0.624614690297339,0.639179646703232,0.728286360670708,0.726223321227946,0.729709002098546,0.712812157391322,0.71309707846861,0.706017774583225,0.701372577140709,0.717407300286825,0.739789522409923,0.741225831237226,0.75360521737826,0.748869895493231,0.802511480725971,0.804836832875547,0.811804006783292,0.814170270287649,0.816419656285221,0.819235951551574,0.820949559782937,0.822833895219438,0.829771535366216,0.834318128301096,0.840093442395191,0.845702588962724,0.856247060630475,0.868695507398339,0.892772544355429,0.890365014450011,0.888076024308016,0.909997229619971,0.962195251795439,0.9587032607762,0.998580917827965,0.999506301748076,1.00739948757784,1.00473133673129,1.004701764517,1.00686713165924,1.00857158087066,1.00957422222873,1.01037922354761,1.01518858485186,1.01985887766226,1.01951276254932,1.021103772525,1.03033034535156,1.0771299976028,1.03215009052736,1.02338776477807,1.02239764669388,1.0208214948617,1.02288141829412,1.02431208657186,1.03255297035607,1.06057125258134,1.05929264931517,1.08216000026963,1.04113841028256,1.03956231159992,1.0437038947242,1.06053004035913,1.06098107367888,1.06128175544383,1.05880044715485,1.05758817971488,1.06317521077654,1.06067537781062,1.06715025056908,1.05432999717035,1.07426765007674,1.07033303244862,1.09534725247067,1.15345000016756,1.12130477794554,1.11331652138541,1.11405496446405,1.11347962918074,1.13082293215537,1.16144999574727,1.14609120306825,1.14597762818886,1.14594645751348,1.18137999603591,1.16149323360557,1.15548076984615,1.15923415272782,1.16476716572344,1.17044848704494,1.18790880020394,1.19038196103617,1.19284175242309,1.19404775508833,1.19515936103881,1.22517021189157,1.26845207252627,1.25855738263864,1.25525290526796,1.25579861136698,1.25643300656506,1.25271803224097,1.24909387086512,1.25553153767818,1.26172589424267,1.25418330330985,1.24805984215228,1.24869337780124,1.24945881114588,1.25292449905625,1.25663440864059,1.2477817869454,1.23711112208857,1.23712671786281,1.23668155452008,1.23477113917283,1.11903999990827,1.19823440041038,1.20564843814771,1.14715885778058,1.08164999975736,1.11132321325124,1.11098216512357,1.11339110638938,1.11873863109546,1.09480408571892,1.0805370640258,1.07910616881811,1.07382139863508,1.07434058532104,1.05535064280233,1.06420147771727,1.04303429484852,1.04457644221671,1.04287924492525,1.04362989039615,1.04430360474036,1.04494862676786,1.04637720566359,1.03752107221402,1.02944999798179,1.01439015236398,1.00379508769975,1.01357454434266,1.02400425907849,1.02426392511519,1.02483905443713,1.01521011571371,1.00275784432183,1.01002014626669,1.00932441452486,1.0078895605923,1.01694466695357,0.998487282526789,0.969076790411694,0.972534916669485,0.968668400096768,0.958820740806171,0.958540111071988,0.960321784706506,0.962450786058821,0.952401899295213
0.592047665092052,0.595716029067454,0.597664605740988,0.598249259760308,0.611093878848699,0.615304127679568,0.637035864105937,0.726252162472943,0.724131396578203,0.719741095667745,0.713036327184198,0.711210688647278,0.707696879527428,0.704893780744347,0.708511303419097,0.72365841030007,0.731822512919553,0.74745176376328,0.7482632448295,0.763148906160533,0.773843836386555,0.784151533936,0.789510564608964,0.801301542865375,0.806230867104471,0.813488551194895,0.821194571745746,0.827488863981442,0.83217195357174,0.835535528547782,0.840421536685989,0.852309301534662,0.861026131368202,0.865674734043949,0.871634778091915,0.881312199586088,0.898279233994161,0.909731897041836,0.92508911947816,0.935625588302864,0.946423037860774,0.956623392626186,0.96577670424044,0.971742273386593,0.979701531384314,0.988339002886192,0.99659302940229,1.00655356212661,1.00980728207032,1.01282735844709,1.01576056794669,1.02437233602875,1.02591247439387,1.02519283964088,1.02475089182435,1.02403589666775,1.02305428090763,1.02263866350321,1.02359427206349,1.02526853218095,1.0272953652848,1.03046037407782,1.03350280004825,1.036196775323,1.03840861135299,1.04021809940111,1.04238734117854,1.04555514604513,1.04859653086545,1.05177621244384,1.05505677218239,1.06238135936125,1.06561381849245,1.06958543817563,1.0737856766174,1.07595226964724,1.07809639250407,1.08080511066979,1.09023112858223,1.09963361843207,1.1070601515833,1.11423029016003,1.11534440519224,1.1134128998477,1.12983702150281,1.13178616310615,1.13344891900086,1.13490165874584,1.13850164638539,1.14332192661339,1.14865689793187,1.15420206500228,1.15772450252576,1.1611497118967,1.16684391912253,1.17147700159731,1.17623007959664,1.18095770857211,1.1855474491501,1.189951861224,1.20312051110658,1.21391093758823,1.22750040172449,1.24394799454033,1.2442786129373,1.24504303473355,1.24651441226938,1.24779475500315,1.24585596780489,1.24499675123891,1.2439785951456,1.24295909160736,1.2420488369523,1.24119911776943,1.24021373822924,1.23885498786428,1.23704163411368,1.23493542836294,1.23282946603111,1.23103973024382,1.23033858008089,1.20345875139707,1.19273791289508,1.18846499893833,1.1600932187174,1.14097846858207,1.12221570588943,1.11781908678404,1.09926238225191,1.09355076567616,1.09007026914572,1.07893885668764,1.07775033913395,1.07591261824924,1.07482823343932,1.07231109848547,1.06930725737203,1.0519843018042,1.04708072586943,1.03749812377123,1.03319239627028,1.02981893581155,1.02683225057092,1.02398923204628,1.02101557358999,1.01775358312347,1.01418940866982,1.00852964062407,1.01114587602067,1.01291753867738,1.01436959559974,1.01569111693402,1.01586331998347,1.01547503300475,1.01240808475714,1.00929126167074,1.00537954496231,1.00316889954919,0.998858855067995,0.993080685365005,0.985562736736847,0.978483744968258,0.956226757500216,0.955716048311726,0.952284971432571,0.948550094886974,0.944568953383724
0.589756303248955,0.602291606975373,0.599498860877603,0.601563512616474,0.601517855799262,0.604096324953783,0.635713620201039,0.74308700029439,0.700944360460145,0.686430712202339,0.689466058156357,0.688405564124572,0.692322820012009,0.69091082760813,0.695452269751106,0.695023872134688,0.72070349455802,0.74656102118858,0.733955125740694,0.722668918199087,0.760506321659907,0.776893998193161,0.787327665121006,0.795481445712961,0.795656228163629,0.795913305438708,0.795278194036678,0.794648856392123,0.814063815650502,0.824813004504778,0.833458710124445,0.848407649704165,0.855198883239722,0.860207936359782,0.869195089150869,0.877639533103292,0.884359725082573,0.893805880396952,0.893061378630485,0.892232777190525,0.904185156604511,0.918392492118707,0.945762123323558,0.967512130390564,0.972163887827127,0.976822864952173,0.994316405429542,1.00228971502453,1.00254071800035,1.00265336763384,1.01326834547936,1.03215606048849,1.02683179414714,1.02451654864872,1.02477946908738,1.02492511309994,1.02339782494306,1.02321313917199,1.0236905771463,1.02594189821978,1.02618491342119,1.02552309779835,1.02046346625155,1.01515277093858,1.01959629318729,1.02182239630446,1.02571994947805,1.03352851375081,1.03476766848555,1.03587099447459,1.04781205677882,1.07730192147471,1.07559420894129,1.08128557335315,1.07759874877253,1.08343547424386,1.08131304474346,1.08328790638632,1.08325197482192,1.08367077658265,1.09868733328582,1.13293951806066,1.12183681043083,1.11134069716039,1.12675362723909,1.12204309789201,1.12428782823046,1.12525710166223,1.12514785523916,1.12654831375437,1.13177652855464,1.12628184088735,1.15479182754296,1.15219537617578,1.15396976440265,1.15278178936326,1.15490713233458,1.15434035820983,1.16224875431918,1.16334605859193,1.16458502300872,1.16559614350424,1.20107623838641,1.24394818170461,1.2442001167421,1.24459379023503,1.24686327724025,1.24981843535197,1.24466739743431,1.24151188331112,1.23505289154746,1.22703793897503,1.22433638935143,1.221592064212,1.22351215919248,1.22545612582334,1.22489720118677,1.22432331618407,1.22698098405337,1.22982531621023,1.22580944313331,1.21562024982914,1.18846723341095,1.17681007721908,1.1725076502906,1.1913100001248,1.12769147849346,1.13466920229778,1.09240815111442,1.07130063607031,1.07540278962745,1.07867764622599,1.07714188235365,1.07726279133958,1.07681902516317,1.07835527183107,1.07527738821445,1.09388000034022,1.04929933162301,1.0207425243826,1.03202328079344,1.0151679714223,1.01376032075555,1.00489129255458,0.996682952807624,0.981517415634694,0.984970314874826,0.987998894577354,0.988929545558953,0.989492663022687,1.00260095003258,1.01672113988177,1.0168813886191,1.01786258439474,1.01544035443533,1.02219126025232,1.00185908528539,1.00111394159474,0.999333728507435,0.9989250810778,0.995219448435621,1.00187845135471,0.954246269053885,0.935772579895176,0.944554954438546,0.941650134534936,0.942801824220536
0.587736074568937,0.595509971303494,0.597186551208409,0.599096984163651,0.599007623063533,0.616728607233628,0.635165058213636,0.660391482550753,0.674728459127636,0.689234544490098,0.692057335565511,0.693109911439639,0.695069403322242,0.695847746507955,0.696443180592894,0.696296082733047,0.703237383794608,0.70615909343558,0.709868646774985,0.714493322107001,0.743473824350421,0.755852820991729,0.765496547274141,0.780574655594603,0.78329693169011,0.78613641408533,0.78902130474425,0.791866781382504,0.804903069190541,0.815946944284876,0.824238958554812,0.847333458000677,0.854003705250119,0.858827119156758,0.863302238524782,0.869067002604929,0.873651390996936,0.878244215354112,0.88275835588525,0.88710272487416,0.895741318469455,0.917217532595262,0.922502212685882,0.931005997974902,0.940072546631566,0.94930656961507,0.958876108099686,0.968629352421507,0.97836172310966,0.987419252632132,0.994808795489784,1.00361664531713,1.00617529626286,1.00894947502227,1.01201017336412,1.01540879070137,1.01902554196626,1.02144878174702,1.02214930733454,1.02147575831823,1.02097596897672,1.02048439153947,1.01973481666119,1.0185663950818,1.01997474468034,1.0220319076186,1.02442173011641,1.02699223861471,1.03003175184802,1.03295641480137,1.03993704993341,1.07616825782823,1.07408879218056,1.0752413905146,1.07684130731792,1.07847132040801,1.0804104177943,1.08154691588436,1.08269426586912,1.08322454981432,1.08923551518048,1.13144815495358,1.12870727150426,1.12909825324713,1.12811589436447,1.12567803807072,1.12405107675932,1.12371791314003,1.1238660858331,1.13159036111986,1.13952254080534,1.14718581278652,1.15697964692761,1.15626525763187,1.15686981485077,1.15677922156729,1.15763656592918,1.15846265444057,1.16124917791655,1.16310889708158,1.16475468727692,1.16611603174834,1.16917340169329,1.17151397842355,1.17325260743977,1.17597363458941,1.18081317557986,1.18725733446558,1.19321490884824,1.19806603784776,1.20157698998721,1.205737531518,1.2105989322575,1.21556359095444,1.21942971140881,1.22257786827949,1.22492209357361,1.2247121040058,1.21393039541475,1.20441153100821,1.18789227169525,1.17270188002587,1.16022134123193,1.14622271144694,1.13298374146152,1.12048243246951,1.10785898870011,1.09699832437644,1.08511931516983,1.07242202676364,1.07370261021054,1.07570874583444,1.07504778455694,1.07270386493176,1.07063362786274,1.06835075076007,1.06532768602068,1.0603703218033,1.05106377674411,1.04453393324072,1.03981502130271,1.02765892179547,1.01198949257037,1.00606695708331,0.990889136685124,0.983455564813384,0.985113011664299,0.987444353444254,0.989074435706042,0.990206947954087,0.992919951326469,0.99596855532903,0.999789369065217,1.00362739518147,1.00775350325153,1.01242948598896,0.999303373544517,0.998821999242909,0.998578925533096,0.998574629671438,0.988845410518838,0.984685962559521,0.952316328556141,0.948236821635858,0.946939413060051,0.945772167327111,0.94434283047982
0.585612296605609,0.594093319912719,0.592892358622813,0.591822011026004,0.596628453697214,0.638276169703774,0.635263193421022,0.649382064464861,0.665347046961511,0.701543839950744,0.697047006143895,0.703423508396496,0.699757745919025,0.70184334044,0.698493048078179,0.697582204760881,0.699338650906223,0.701588968454833,0.706533207887457,0.708860702249089,0.730262153907533,0.738726996696621,0.754961835392929,0.777961867326458,0.774845403781636,0.771736772897979,0.78245491791919,0.788636449639658,0.78964175308417,0.79064988271309,0.807943841699121,0.836066114148933,0.835943279967908,0.835813790149686,0.8541452045857,0.863454064392647,0.860683082612776,0.857949426374616,0.866836341257252,0.869480271561868,0.887000094059376,0.916024516288206,0.917417800348921,0.918790502876122,0.924012675117035,0.929295421626714,0.929212801354226,0.929140591763349,0.949204511177319,0.964875000014482,0.985465513686288,1.00115556594418,1.00220738795979,1.00326326285395,0.999763502636285,0.996238265326089,1.00995930303208,1.05308000029238,0.998985410675589,0.981209050047784,0.993924122224643,1.00617000989073,1.00745086051991,1.00873395331775,1.01194788636592,1.01509437088762,1.01603606101121,1.01678675285544,1.02451561965346,1.02871820383152,1.03392495928444,1.07727487115576,1.06971186138452,1.06578616367338,1.06728830729043,1.06904178890709,1.06767387212957,1.0659650158893,1.06652174048063,1.06695270538727,1.08134397877507,1.13324785597699,1.13058270481355,1.13084159305552,1.13014438797058,1.13204460474125,1.12228736676468,1.12088367480691,1.12330176152311,1.15637675003084,1.1472098162842,1.15993806805916,1.15905086871251,1.16066852571024,1.15958747825758,1.16203524737747,1.15996082676621,1.16069872280433,1.15267450386931,1.14226866610646,1.13911438530454,1.1359912808152,1.14608669793913,1.1580080631984,1.16088202764532,1.16376017147728,1.14751104355951,1.13683925929869,1.13804849163617,1.13840884443688,1.13922943409034,1.13937723744961,1.20573661358203,1.2087910265084,1.20790372487766,1.20909004484998,1.23136914794208,1.24703284998949,1.20436150282149,1.19178000297548,1.15342409843847,1.10649817823633,1.10741558334602,1.10774443673407,1.10840381889857,1.0730724872205,1.07248137929602,1.07175233847898,1.07123761095967,1.07071896176322,1.07200472876812,1.08971972936751,1.05343646647725,1.04036991682181,1.03239508052085,1.02432563171148,1.0409002301447,1.05331274122838,1.05249431266001,1.06108984490663,1.04530619786563,1.05197897989591,1.00973556607976,1.00709714879837,0.986261803186283,0.983584809864816,0.982209621729532,0.972222217961349,0.972740846217785,0.970418630901433,0.988305089657991,0.993633674551544,0.992300904832509,0.990950510103758,1.00088542534406,1.01806406457103,0.997707989967496,0.996577072571477,0.997778497058402,0.9983275040323,0.9846860403356,0.976981307221819,0.950520137589028,0.949667176877422,0.949111621158897,0.950830327891494,0.948278568133723
0.583267188294566,0.586005518549692,0.588027919063707,0.590197879126296,0.594509089151053,0.61981525710821,0.632802167636156,0.648938291350434,0.652634603543084,0.661626885514342,0.671168756955032,0.681222131967975,0.691651487939775,0.699911673903346,0.698855308980815,0.698424382410639,0.698878490049524,0.702902610574466,0.70499248907022,0.706498642019553,0.721799055410356,0.728387886785978,0.735313809592506,0.743663557765621,0.75197658038845,0.763660920016513,0.768579304379404,0.774202224159013,0.781777818906168,0.78917759264466,0.795707636786761,0.800749866222034,0.807679146899509,0.814586836942466,0.824688274190233,0.834556335910373,0.842899110580618,0.85920394813322,0.864795562536124,0.866797156650752,0.875645029823451,0.88100086141976,0.886356729333221,0.892713849193706,0.898927480067453,0.904824510954225,0.91411691939778,0.922008280588485,0.927257354653422,0.932480712700331,0.93733974481178,0.940799474488673,0.944074492527443,0.947900159278727,0.952455822172692,0.95724126642306,0.962609300968733,0.967007838671809,0.970415919554596,0.974900736152371,0.989413123183204,0.998054251425259,1.00083872340438,1.00363213070546,1.00648246526315,1.00930735896706,1.01198246209438,1.01444873672483,1.02274863393691,1.0251884980208,1.02865552748146,1.04773234389491,1.05242653940761,1.05690708869431,1.06220323125013,1.06937750083257,1.06803127468283,1.06690534763521,1.06671848048078,1.06678601389402,1.07247554265439,1.07853411564912,1.08877702994545,1.09962952631281,1.11131594320069,1.1213086476808,1.12178330589591,1.12200487992972,1.12313598963718,1.12450839985748,1.12664690108819,1.12880485277681,1.13012341658192,1.13114258205214,1.13183792214421,1.13260931043389,1.13347228223881,1.13439926407461,1.13532637561894,1.13615969267819,1.13677024603846,1.1370237318871,1.13796533282242,1.13853792677066,1.13884378796078,1.13893229216166,1.13874938619475,1.1381901810191,1.13858534563444,1.13901612635284,1.13948014381376,1.16843637874627,1.20307537340041,1.20460007023629,1.20615223005818,1.22673454118043,1.2356723466712,1.24056172324603,1.1763898627956,1.15196379498438,1.13462051295819,1.10727420501968,1.10774897108344,1.10817246717833,1.10858047796033,1.09923973236216,1.06553862696289,1.06093967486867,1.0563558266754,1.05217563188327,1.04843425233068,1.04487089447137,1.04103127265963,1.03654827083997,1.0312589352227,1.02068459189287,1.01740930030939,1.01314470550673,1.00719484432479,1.00133655220504,0.995969157954472,0.991434698346264,0.987926232667822,0.986048923867548,0.984271817007075,0.982024439840136,0.979599282709691,0.975209822063595,0.974918258319228,0.975896769235135,0.97940233645413,0.980739164081754,0.982905400852904,0.9859385355176,0.984329190252146,0.982312456510655,0.977928145360398,0.972327214613214,0.967107102782489,0.963719958964434,0.961098113988519,0.958363585236063,0.94982803719607,0.949585994583154,0.949637655405918,0.95061725006038,0.943915204556886
0.580318920851912,0.578685354236211,0.584276509595553,0.580121669523164,0.592555615506014,0.590667506180833,0.630886557404138,0.648514526143097,0.649443783698057,0.651003006632396,0.644562647983087,0.632970000465261,0.674248438581664,0.717682999779565,0.678444083111701,0.662017479485682,0.682541639830732,0.719063980110275,0.698769153767021,0.694552322382106,0.715550248967499,0.719977074049985,0.720795112693149,0.721660114444313,0.74104181640463,0.758099777057979,0.759736389789393,0.76144335828693,0.763238482714281,0.765022790042349,0.76504216628894,0.764963933842633,0.770021998889385,0.775021038812117,0.773001413071005,0.771365028672821,0.814037174126007,0.859168818210446,0.854666960097503,0.850028300357324,0.847373717834044,0.844320611719635,0.845540336209743,0.846728025130684,0.872843533748605,0.901196283624058,0.893942751144875,0.885998260432786,0.896974988966704,0.89827968360151,0.9093345547506,0.927604132726628,0.927741681857074,0.927966564426773,0.934199741551813,0.939347832594186,0.943655417342111,0.948773469666513,0.955419513381809,0.965437991500788,0.979302069802096,0.995208931691046,0.982400464143826,0.970621209430736,1.00272254283325,1.0052356615325,1.00413533217779,1.00328653580408,1.00154543365458,1.00187018415295,1.02181127964479,1.04174088118103,1.04234804333623,1.0430255651594,1.05433848483364,1.07106369510848,1.05751395314798,1.04534724848164,1.04695149776772,1.04865166747085,1.06245433711463,1.07458891655984,1.07586649484056,1.0771489556096,1.09466902151127,1.12080302152927,1.12155070590087,1.12205012935081,1.12295308242446,1.12370582313632,1.12666983636357,1.12963676537069,1.13041998219764,1.13149321932231,1.11586761273369,1.10034714518684,1.10194086396935,1.10392757444192,1.09947156404336,1.09502370967503,1.09477119235212,1.09419542815504,1.09200129838168,1.08978471543879,1.09004450913026,1.08983137821161,1.10391788658064,1.11943163068783,1.12328469522752,1.1271398420148,1.12948859944608,1.20320305788823,1.20066681979804,1.1955713982582,1.20415919690384,1.2570299979206,1.25073519213965,1.25651999982506,1.14050600381846,1.06908652448725,1.07038883229454,1.07229000775391,1.09662069618549,1.18135000019853,1.14387212878773,1.18214000012523,1.05638149037355,1.05384000020039,1.04566865252128,1.03857999889169,1.02786803843421,1.00413096931055,1.00581894942747,1.00678579919777,1.00695891571207,1.00657646310949,1.00188225917823,0.993819140785991,0.994959934536146,0.996858059613718,0.991573464465046,0.982738132063476,0.982827018676399,0.983147477597388,0.978688699147493,0.974289927724597,0.97538838338493,0.974233028102683,0.975747075618924,0.9796150630025,0.97270767777513,0.958397905417175,0.972767155228291,1.001818653777,0.974591239001768,0.958254198500481,0.957535055954404,0.95836406973379,0.955885931716289,0.953358170480876,0.954383089291942,0.954952603247422,0.945078540978505,0.934092500369493,0.939870295418103,0.954633517073558,0.940578822867222
0.615660325271664,0.617206301500966,0.618391753598066,0.619421423207518,0.620535009265714,0.62190068862698,0.629505547501232,0.631857208342456,0.634415321739332,0.637199539670331,0.640451190418357,0.642524754306947,0.646445113675992,0.648736107073955,0.651915046114858,0.656261769165892,0.674012397558708,0.681490281446733,0.68898285015477,0.694892343761939,0.709827176468428,0.72045886727429,0.720647150335216,0.721260788377403,0.725022030481703,0.72837774399005,0.731725468589196,0.735448602043146,0.740087738376279,0.744721055291399,0.74894310002069,0.753291338202162,0.757538574879564,0.761183397275106,0.764335882873864,0.767679633357891,0.784247788685289,0.792949916996574,0.800935148061793,0.815656978236724,0.820098642488564,0.828084891975289,0.836220414542886,0.841737651459646,0.853708961624013,0.863446120212353,0.873483258622292,0.891650799692513,0.895300240059877,0.896886398879089,0.905977253582012,0.909995928664449,0.913676264933349,0.916451808364656,0.921587709932935,0.929018111942036,0.937738508304466,0.945878892435662,0.952129771122833,0.967279197570504,0.968096067686427,0.969245136773266,0.970906012582867,0.973828840669931,0.993115818894537,0.995547734342056,0.996454499442812,0.998484270463172,0.999805111060446,1.00207659195334,1.00866499771662,1.01311714622601,1.01699125769985,1.02117530829241,1.02580745755725,1.03265708320507,1.03498872555401,1.03785164177412,1.04116109682153,1.04478758281183,1.05617081957139,1.06268352113944,1.06744654428658,1.07147603347117,1.07522433338376,1.08069942826758,1.07915183839953,1.07768044861319,1.0765579613847,1.0760192836115,1.07615406316428,1.07691041898518,1.07815126053237,1.07971175540944,1.08144286786101,1.08324075971174,1.08505082107983,1.08683475293278,1.08851805780446,1.08996117758271,1.09098491471461,1.09143973983979,1.09127631814116,1.0905839731308,1.09038097405041,1.09029353614247,1.1018409567084,1.11039650434654,1.11790340379713,1.12419153586423,1.12666351334051,1.13572038850848,1.14507360637572,1.15918403294687,1.17600714378139,1.2043936064499,1.16904661672829,1.13807295461916,1.10889004840812,1.06339957068131,1.05894161824083,1.05562213698164,1.05344744284641,1.05177975876097,1.0502661463065,1.04845014036465,1.0366825530592,1.03331783283975,1.0313954979092,1.02732635462744,1.01937972840339,1.00640073867366,1.0065191353566,1.00674714071494,1.00747003075805,1.00812857723702,0.999307774417843,0.992547360541702,0.991095715041658,0.988918670609472,0.986551895073681,0.9835414787435,0.981869570453841,0.979862263704597,0.977589035366461,0.974967269596619,0.972415931229996,0.969869571829575,0.96756020798591,0.96544235941722,0.963318812511515,0.961015103117353,0.961069947131004,0.960669063074006,0.959733722791048,0.958328981164642,0.955460702575231,0.953388038739628,0.951100709610553,0.948624066635836,0.945855732799452,0.942778682989556,0.939539880201689,0.936368411466261,0.935708980491978,0.936257809025368,0.937229091830135
