1.01904, 1.10772, 1.03927, 1.03849, 1.03829, 1.05005, 1.05099, 1.05096, 1.074, 1.07278, 1.07135, 1.07104, 1.07702, 1.08065, 1.07819, 1.21172, 1.09514, 1.09544, 1.10351, 1.11277, 1.11456, 1.1222, 1.12817, 1.12878, 1.1356, 1.1375, 1.14262, 1.14778, 1.24878, 1.1616, 1.16365, 1.17011, 1.1772, 1.17761, 1.21263, 1.22321, 1.20803, 1.20581, 1.2098, 1.21966, 1.22161, 1.26278, 1.24426, 1.27264, 1.25, 1.25045, 1.25767, 1.27205, 1.30667, 1.27325, 1.27312, 1.27258, 1.27225, 1.27159, 1.27412, 1.33118, 1.33957, 1.29893, 1.3091, 1.34133, 1.34856, 1.32742, 1.33267, 1.44016, 1.34612, 1.34154, 1.3433, 1.34562, 1.34486, 1.38824, 1.344, 1.34034, 1.33834, 1.33597, 1.33027, 1.32935, 1.33039, 1.33091, 1.33583, 1.33455, 1.38548, 1.34408, 1.35058, 1.35374, 1.35348, 1.3536, 1.36039, 1.35975, 1.35909, 1.36015, 1.36012, 1.35998, 1.36044, 1.37518, 1.36788, 1.37358, 1.3718, 1.37421, 1.41285, 1.35127, 1.4094, 1.35453, 1.36211, 1.36428, 1.36873, 1.36877, 1.37682, 1.37767, 1.42127, 1.42135, 1.39565, 1.39671, 1.39639, 1.40195, 1.40684, 1.40646, 1.41341, 1.41464, 1.41533, 1.41632, 1.42576, 1.43051, 1.4325, 1.43584, 1.43568, 1.4404, 1.45062, 1.45201, 1.45592, 1.45546, 1.45506, 1.45395, 1.45457, 1.45476, 1.46036, 1.46479, 1.47075, 1.46945, 1.47357, 1.47615, 1.48055, 1.48094, 1.50055, 1.50606, 1.50315, 1.5014, 1.50587, 1.50905, 1.50967, 1.52266, 1.57907, 1.548, 1.58945, 1.55721, 1.62476, 1.61117, 1.58273, 1.58247, 1.66494, 1.64983, 1.66356, 1.70023, 1.69999, 1.73046, 1.78869, 0.00438616, 1.88678, 0.00404871, 1.7963, 2.3, 1.75139, 1.75032, 1.89036, 1.79971, 1.79125, 1.80331, 0.00408474, 1.82681, 1.83265, 0.00439342, 1.87223, 1.88641, 0.00356139, 1.89763, 1.89427, 1.91357, 0.00377851, 0.00404394, 1.92674, 1.92573, 1.92485, 1.92498, 1.92428, 1.93464, 1.93609, 1.93602, 1.93679, 1.9367, 1.93664, 1.93558, 1.93447, 1.95303, 1.93176, 1.95537, 1.93825, 1.91469, 1.92087, 1.97807, 1.90644, 1.90845, 1.92029, 1.89303, 1.88878, 1.88746, 2.11376, 1.98347, 1.98233, 1.91772, 1.91637, 1.92716, 1.9265, 1.93437, 1.95637, 1.94263, 0.00427429, 1.93885, 1.94351, 2.02481, 2.01608, 2.03165, 1.94628, 1.94492, 1.95733, 1.95865, 1.95723, 1.96192, 1.96117, 1.95993, 1.96636, 1.96609, 1.96791, 1.96405, 0.00438735, 1.96473, 1.96305, 1.96243, 0.00429667, 2.04191, 0.00501021, 0.00419487, 2.06595, 2.02419, 2.09376, 2.09332, 2.07221, 2.07354, 0.004433, 0.00472221, 2.13801, 2.11209, 0.00419633, 2.09065, 2.08916, 2.08819, 0.00454291, 2.13352, 0.00408041, 2.02299, 2.02289, 2.02083, 2.01093, 2.01031, 2.01271, 2.01305, 2.01294, 2.01274, 2.01324, 2.01123, 2.02094, 2.02007, 2.02867, 2.02673, 2.17714, 2.17787, 2.07284, 2.07276, 2.08705, 2.07679, 0.00430716, 2.16223, 0.00389736, 2.10921, 2.10091, 2.09987, 2.09834, 2.09914, 2.10359, 2.10395, 2.10462, 2.11254
1.03576, 1.041, 1.04223, 1.04235, 1.16536, 1.05618, 1.06077, 1.07574, 1.078, 1.07779, 1.08718, 1.08806, 1.09192, 1.09096, 1.09113, 1.10156, 1.10138, 1.10451, 1.1076, 1.11621, 1.12409, 1.12705, 1.13516, 1.13895, 1.14222, 1.14416, 1.14744, 1.15146, 1.15943, 1.16828, 1.1753, 1.17924, 1.18872, 1.18836, 1.1917, 1.19354, 1.20713, 1.21525, 1.21768, 1.22347, 1.23155, 1.28486, 1.24753, 1.24753, 1.26771, 1.29264, 1.27459, 1.26577, 1.26744, 1.26724, 1.26484, 1.3132, 1.25716, 1.31197, 1.26808, 1.22756, 1.29184, 1.34072, 1.34177, 1.34404, 1.34476, 1.34508, 1.34609, 1.39773, 1.3826, 1.36226, 1.3637, 1.36252, 1.36224, 1.35981, 1.36055, 1.39536, 1.40536, 1.39079, 1.33994, 1.33868, 1.33808, 1.3389, 1.33819, 1.33872, 1.34131, 1.34604, 1.34804, 1.35284, 1.35279, 1.35422, 1.35787, 1.36178, 1.36663, 1.36746, 1.3709, 1.3728, 1.37666, 1.38162, 1.40768, 1.3909, 1.41345, 1.38596, 1.39181, 1.4079, 1.37107, 1.37721, 1.37782, 1.37779, 1.3754, 1.37829, 1.38306, 1.3877, 1.38971, 1.39809, 1.39909, 1.4003, 1.40364, 1.40335, 1.40694, 1.40903, 1.41585, 1.41532, 1.41721, 1.41998, 1.42574, 1.42966, 1.4348, 1.43596, 1.44313, 1.44254, 1.44381, 1.45157, 1.45683, 1.45717, 1.45672, 1.45629, 1.45381, 1.45272, 1.45438, 1.46064, 1.46794, 1.47336, 1.47512, 1.47648, 1.48024, 1.48194, 1.4903, 1.49553, 1.49663, 1.4989, 1.51042, 1.51259, 1.51409, 1.52343, 1.53493, 1.53677, 1.56106, 1.55352, 1.55162, 1.5515, 1.62358, 1.64124, 1.66496, 1.64961, 1.65158, 1.68873, 1.68846, 1.67541, 1.70143, 0.00405702, 1.69709, 0.00395271, 1.72798, 1.72959, 0.00414923, 1.77916, 1.77272, 1.76234, 1.80927, 1.80315, 1.79918, 0.00483837, 1.81773, 1.82438, 1.85677, 1.87765, 1.89615, 0.00418621, 0.00424583, 1.90351, 1.9125, 0.00421029, 0.00457346, 1.9266, 1.9253, 1.9267, 1.92576, 1.92806, 1.93782, 1.93757, 1.93762, 1.93816, 1.9384, 1.93396, 1.94113, 1.94478, 1.95109, 1.99656, 1.94999, 1.93369, 1.85937, 1.85869, 1.88333, 1.87691, 1.8755, 1.8822, 1.88195, 1.88591, 1.88769, 1.88547, 1.98392, 0.00421501, 1.92092, 1.92078, 2.00769, 1.99645, 1.94177, 1.9231, 1.92617, 1.92796, 1.91952, 1.93168, 1.92565, 1.92768, 1.92805, 2.02119, 1.95426, 1.95841, 1.95912, 1.96251, 1.96738, 1.96783, 1.96695, 1.96638, 1.96453, 1.95843, 1.95821, 1.95945, 1.96484, 1.96604, 1.96628, 1.9657, 1.96924, 1.97515, 1.97503, 2.0061, 2.03185, 0.00422362, 0.00540048, 0.00471595, 0.00344635, 0.00426514, 2.10374, 0.00327547, 2.10092, 2.09275, 2.09537, 2.08629, 0.00473381, 0.00455773, 0.0046767, 2.05528, 2.06294, 2.02432, 2.02279, 2.02061, 2.01649, 2.01538, 2.01518, 2.0193, 2.02145, 2.02433, 2.02371, 2.02342, 2.02327, 2.02404, 2.02683, 2.02573, 0.00424673, 2.07099, 2.07354, 2.07195, 2.07292, 2.07012, 2.08594, 2.08492, 2.08228, 2.10115, 2.0846, 2.09698, 2.09563, 2.09422, 2.09957, 2.10505
1.26733, 1.03972, 1.04143, 1.04655, 1.04642, 1.05965, 1.05929, 1.06036, 1.08668, 1.08737, 1.10525, 1.10939, 1.09754, 1.09716, 1.09743, 1.24453, 1.24407, 1.11762, 1.12643, 1.12187, 1.11901, 1.11985, 1.13587, 1.13868, 1.14162, 1.14174, 1.14583, 1.15323, 1.16036, 1.16218, 1.17073, 1.20525, 1.18787, 1.19233, 1.19994, 1.2005, 1.2014, 1.21177, 1.21751, 1.22733, 1.22721, 1.26088, 1.26477, 1.26392, 1.25795, 1.27585, 1.27356, 1.27142, 1.26851, 1.26906, 1.27171, 1.31258, 1.32355, 1.24015, 1.25818, 1.30175, 1.26448, 1.34712, 1.32464, 1.38178, 1.38457, 1.34998, 1.35552, 1.35874, 1.36373, 1.37385, 1.36876, 1.36938, 1.36894, 1.36815, 1.38268, 1.36464, 1.39912, 1.44397, 1.39282, 1.3692, 1.40364, 1.35032, 1.35433, 1.34513, 1.41363, 1.37139, 1.35507, 1.35886, 1.36022, 1.36768, 1.36699, 1.3923, 1.37478, 1.37535, 1.3783, 1.38259, 1.38448, 1.38583, 1.38573, 1.39665, 1.40686, 1.40883, 1.40335, 1.4435, 1.43089, 1.43486, 1.41266, 1.42956, 1.3892, 1.39778, 1.43807, 1.46879, 1.43036, 1.40288, 1.40395, 1.40806, 1.45514, 1.41209, 1.45802, 1.4567, 1.41931, 1.43977, 1.43337, 1.42651, 1.42667, 1.43288, 1.43517, 1.43928, 1.4385, 1.44282, 1.44467, 1.4501, 1.45018, 1.45096, 1.45482, 1.45517, 1.45423, 1.4543, 1.45503, 1.45882, 1.45954, 1.47259, 1.47275, 1.47434, 1.51059, 1.49488, 1.49042, 1.4948, 1.53666, 1.50909, 1.50737, 1.50734, 1.54178, 1.55427, 1.55246, 1.55419, 1.596, 1.5982, 1.56924, 1.56946, 1.57436, 1.59877, 1.61981, 1.62718, 1.66852, 1.65737, 1.67463, 1.69282, 1.65888, 1.6857, 1.70069, 1.68646, 1.69766, 1.72051, 1.72714, 1.75886, 1.76881, 1.7688, 1.77288, 1.78888, 1.80773, 1.81474, 1.82, 1.82002, 1.81964, 1.84091, 0.00441224, 0.00425662, 0.00432026, 0.00485496, 0.00415108, 1.90352, 0.00420658, 1.90698, 1.9185, 1.93811, 0.00395082, 1.9769, 1.92881, 1.93297, 1.9347, 1.93303, 1.93677, 1.93661, 0.00412233, 2.18727, 1.86547, 1.86395, 1.86318, 1.8644, 1.85881, 1.85971, 1.85859, 1.85743, 1.86987, 1.87666, 1.88222, 1.88009, 1.87792, 1.886, 0.00402333, 1.89305, 1.96243, 1.90758, 1.90102, 2.01174, 1.9129, 1.90498, 1.9145, 1.90808, 1.90883, 1.92049, 0.00429987, 1.92409, 0.00442837, 1.98945, 1.94877, 1.94858, 1.96142, 1.96266, 1.96166, 1.96663, 1.96634, 1.96308, 1.96159, 1.95621, 1.95485, 1.95361, 1.9527, 1.95182, 1.96964, 1.96954, 1.96934, 1.97028, 1.97192, 1.97202, 1.97981, 1.97895, 0.00432397, 2.02802, 0.00430218, 2.11425, 0.00393566, 0.00455696, 2.09751, 2.09295, 2.0893, 2.08467, 2.07802, 2.0775, 0.00430997, 2.04513, 2.04309, 2.0348, 2.0216, 2.01998, 2.01989, 2.01872, 2.01953, 2.01853, 2.01369, 2.0172, 2.02447, 2.01588, 2.01575, 2.01452, 2.02052, 2.02158, 2.06856, 2.05238, 2.05125, 2.05051, 2.05326, 2.05843, 0.00491109, 2.08229, 2.0816, 2.08397, 2.08376, 2.08306, 2.08248, 2.12649, 2.12528, 2.12467
1.07161, 1.0413, 1.0431, 1.04533, 1.0446, 1.05684, 1.08258, 1.08313, 1.07353, 1.07804, 1.07843, 1.0823, 1.08246, 1.19764, 1.13437, 1.10943, 1.11236, 1.12358, 1.12408, 1.13313, 1.13729, 1.14031, 1.13911, 1.14126, 1.1404, 1.16875, 1.14877, 1.15044, 1.20189, 1.19515, 1.17544, 1.20179, 1.19394, 1.19816, 1.20957, 1.21134, 1.21092, 1.21402, 1.21556, 1.25643, 1.28205, 1.2558, 1.26422, 1.25653, 1.26096, 1.26852, 1.27218, 1.27071, 1.26763, 1.27513, 1.27456, 1.29922, 1.30615, 1.32032, 1.24535, 1.24396, 1.25124, 1.29608, 1.31912, 1.31972, 1.35589, 1.3584, 1.35801, 1.35931, 1.36284, 1.36832, 1.35449, 1.35557, 1.36882, 1.37223, 1.37155, 1.37127, 1.37227, 1.39256, 1.43647, 1.37442, 1.37924, 1.41051, 1.36064, 1.39194, 1.36155, 1.4295, 1.37136, 1.40277, 1.38558, 1.46768, 1.38251, 1.44041, 1.45499, 1.45482, 1.4124, 1.4409, 1.40946, 1.40909, 1.40934, 1.40814, 1.46966, 1.43168, 1.43116, 1.45312, 1.44722, 1.44082, 1.45083, 1.41347, 1.40868, 1.4292, 1.44096, 1.41514, 1.58145, 1.46903, 1.46909, 1.46823, 1.45757, 1.46014, 1.43838, 1.46487, 1.43772, 1.43736, 1.43295, 1.43397, 1.43365, 1.44762, 1.44338, 1.44367, 1.44251, 1.44787, 1.44817, 1.45357, 1.45344, 1.45152, 1.4514, 1.45148, 1.46436, 1.46415, 1.45897, 1.45849, 1.46858, 1.55384, 1.52312, 1.52268, 1.48963, 1.48987, 1.49326, 1.49603, 1.50606, 1.50592, 1.50977, 1.53151, 1.53368, 1.5517, 1.53711, 1.54731, 1.54807, 1.55973, 1.67069, 1.58984, 1.59035, 1.58152, 1.63357, 1.64834, 1.62873, 1.6427, 1.64068, 1.63736, 1.63802, 1.67182, 1.70458, 1.71923, 1.70009, 1.84876, 1.71028, 1.74364, 1.72445, 1.77306, 1.77567, 0.00425588, 1.79201, 1.97763, 1.90349, 0.0044144, 1.29515, 0.00433186, 0.00373615, 0.00394249, 0.00417015, 0.00457348, 1.89133, 1.88912, 1.8857, 0.00451284, 1.94842, 1.93433, 1.91027, 1.91086, 1.90454, 0.00453207, 1.92366, 1.91684, 1.91769, 1.92356, 2.05676, 0.00442256, 1.8643, 1.86468, 1.86437, 1.86454, 1.86185, 1.85923, 1.85941, 1.85834, 1.85803, 1.85842, 1.8662, 1.87673, 2.03084, 2.06576, 1.91617, 0.00394524, 1.8912, 0.00468596, 1.98545, 1.98333, 1.90015, 0.00428475, 1.96279, 1.90452, 1.98964, 0.004282, 2.01769, 0.00455113, 1.93953, 1.93893, 1.94258, 1.96589, 1.95778, 1.95599, 1.96993, 1.96487, 1.95698, 1.95953, 1.95821, 1.95679, 1.95549, 1.95479, 1.9526, 1.95238, 1.98915, 1.96956, 1.96368, 1.96429, 1.95651, 1.95464, 2.05201, 2.05865, 2.03337, 2.03294, 2.03869, 2.02388, 2.09915, 0.00440202, 0.00489255, 2.08906, 2.08761, 2.08663, 2.08573, 2.08609, 2.06751, 2.06875, 2.06779, 2.04216, 2.02177, 1.99328, 1.99237, 1.99397, 1.99584, 1.99958, 2.00805, 2.00689, 2.00745, 2.0168, 2.01626, 2.0163, 2.01553, 2.01464, 0.00442635, 2.0547, 2.05319, 2.0515, 2.05004, 2.05344, 2.05226, 2.07636, 2.07575, 2.07172, 2.08553, 2.0847, 2.08291, 2.07025, 2.0714, 2.07338
1.06303, 1.07691, 1.0867, 1.0959, 1.09658, 1.06611, 1.10182, 1.1123, 1.07779, 1.07656, 1.07579, 1.07658, 1.0761, 1.14547, 1.14538, 1.14498, 1.14305, 1.12633, 1.15721, 1.13773, 1.13683, 1.13759, 1.14206, 1.14848, 1.1481, 1.15048, 1.17293, 1.18489, 1.18541, 1.20082, 1.18922, 1.2045, 1.23334, 1.21169, 1.21931, 1.21928, 1.21904, 1.2203, 1.27408, 1.28474, 1.26747, 1.26587, 1.25415, 1.25979, 1.26161, 1.26066, 1.26436, 1.26523, 1.26747, 1.27307, 1.27296, 1.26306, 1.26297, 1.31598, 1.24317, 1.24342, 1.39213, 1.28032, 1.39997, 1.39026, 1.3682, 1.35081, 1.37227, 1.35694, 1.35494, 1.35403, 1.35503, 1.36481, 1.36541, 1.36997, 1.37102, 1.44144, 1.45797, 1.4571, 1.43893, 1.3963, 1.4062, 1.40567, 1.37793, 1.40752, 1.36955, 1.45265, 1.40623, 1.39609, 1.39989, 1.40967, 1.42646, 1.40784, 1.45132, 1.42744, 1.49009, 1.42754, 1.42436, 1.45424, 1.52484, 1.50995, 1.44699, 1.44712, 1.442, 1.46428, 1.44211, 1.44323, 1.44421, 1.43376, 1.44442, 1.44201, 1.45808, 1.49113, 1.49509, 1.47298, 1.46751, 1.4441, 1.44642, 1.45785, 1.45473, 1.45081, 1.45727, 1.45648, 1.44754, 1.44358, 1.44394, 1.45108, 1.45255, 1.45267, 1.4548, 1.45601, 1.45731, 1.46036, 1.46144, 1.46077, 1.49233, 1.51926, 1.46969, 1.47279, 1.47025, 1.47413, 1.53027, 1.54175, 1.52225, 1.53911, 1.52568, 1.52765, 1.50582, 1.50561, 1.50615, 1.50436, 1.50662, 1.50797, 1.52799, 1.54389, 1.54084, 1.55109, 1.56097, 1.56076, 1.56725, 1.57795, 1.59926, 1.62989, 1.63106, 1.61723, 1.6403, 1.66645, 1.6552, 1.65522, 1.67582, 1.684, 1.77936, 1.6934, 1.71441, 1.6999, 1.75475, 1.75454, 1.74086, 1.75565, 1.75834, 0.00418993, 1.77723, 1.98936, 0.0038858, 1.81644, 1.8211, 0.00432364, 0.00402006, 0.00460078, 0.00410983, 1.87144, 0.00404226, 1.8686, 1.87873, 1.88062, 1.88366, 1.90187, 0.00388874, 1.93105, 1.87904, 2.01887, 0.00397919, 0.00392722, 0.00454039, 1.89801, 0.00427082, 1.86852, 1.86635, 1.86499, 1.86544, 1.86163, 1.86158, 1.86244, 1.86106, 1.8618, 1.8593, 1.86749, 1.85504, 1.89302, 1.86305, 1.85597, 0.0041966, 1.84601, 1.85847, 1.84248, 1.98675, 1.99044, 1.97547, 1.97587, 0.004582, 2.00468, 2.02393, 1.9971, 0.0041133, 1.97611, 1.95608, 1.9547, 1.92856, 0.00425112, 1.96013, 1.92444, 1.97214, 1.9616, 1.98058, 1.91916, 1.96196, 1.92541, 1.94049, 1.94156, 1.93837, 2.03211, 2.01354, 2.01232, 1.95096, 1.95306, 1.97779, 1.95875, 1.96441, 1.96906, 2.04526, 1.9881, 2.06627, 2.04165, 0.00446349, 0.00487071, 2.07382, 2.0899, 2.093, 2.09008, 2.09301, 2.08888, 2.0901, 0.0043171, 2.04838, 2.04108, 2.02673, 1.99616, 1.99409, 1.99402, 1.99258, 1.98004, 1.97756, 1.99761, 1.99539, 2.02892, 2.0177, 2.01748, 2.01655, 0.00416565, 0.00455706, 0.00510735, 0.00412241, 2.05796, 2.06274, 2.06064, 2.06221, 2.07504, 2.07431, 2.07337, 2.07589, 2.07373, 2.07405, 2.07251, 2.07208, 2.07071
1.10492, 1.06967, 1.06404, 1.06377, 1.09549, 1.10912, 1.11478, 1.11727, 1.10572, 1.08083, 1.13232, 1.13303, 1.08412, 1.10217, 1.10293, 1.1154, 1.12264, 1.14993, 1.15652, 1.16053, 1.15198, 1.15253, 1.15347, 1.15328, 1.15419, 1.17128, 1.16985, 1.17875, 1.19826, 1.19456, 1.22191, 1.22612, 1.20935, 1.22283, 1.22109, 1.22157, 1.22055, 1.23405, 1.27217, 1.2714, 1.25125, 1.25324, 1.2531, 1.25675, 1.25744, 1.25918, 1.25888, 1.26526, 1.27383, 1.27422, 1.33283, 1.31209, 1.28635, 1.27137, 1.24691, 1.24698, 1.38779, 1.3052, 1.40284, 1.3582, 1.35633, 1.3494, 1.34969, 1.34966, 1.35016, 1.35361, 1.36063, 1.36289, 1.36715, 1.37503, 1.46175, 1.4054, 1.38852, 1.47264, 1.46021, 1.47433, 1.47768, 1.42062, 1.47629, 1.45442, 1.45718, 1.47339, 1.50714, 1.42631, 1.41338, 1.50545, 1.42211, 1.47937, 1.46357, 1.52606, 1.49847, 1.4717, 1.52041, 1.5206, 1.5349, 1.56979, 1.53806, 1.45797, 1.46105, 1.46134, 1.44813, 1.44967, 1.45015, 1.45547, 1.50326, 1.48208, 1.61914, 1.4752, 1.61935, 1.46094, 1.46131, 1.46232, 1.47135, 1.47496, 1.47745, 1.46426, 1.46219, 1.45719, 1.45, 1.44938, 1.45035, 1.45543, 1.45033, 1.4496, 1.45004, 1.46057, 1.46361, 1.46501, 1.46587, 1.49575, 1.46865, 1.50317, 1.47668, 1.47601, 1.47646, 1.49533, 1.54916, 1.5428, 1.4996, 1.51375, 1.51247, 1.5113, 1.50964, 1.50954, 1.50721, 1.50436, 1.50645, 1.55221, 1.53242, 1.54621, 1.56526, 1.57148, 1.58125, 1.56908, 1.57618, 1.57629, 1.60957, 1.62049, 1.64181, 1.61861, 1.64883, 1.65423, 1.62993, 1.67668, 1.6414, 1.64037, 1.67042, 1.68116, 1.69775, 1.70354, 1.72769, 0.00471275, 0.00484291, 0.00486152, 1.77195, 0.00453147, 1.78518, 0.00450259, 0.0108458, 0.00384461, 1.81113, 0.00443551, 1.83823, 0.00383173, 0.0136935, 0.00447489, 1.88461, 0.00422321, 1.85204, 1.84174, 1.84013, 1.8361, 1.83511, 1.99041, 0.00462383, 0.00464967, 1.85418, 1.85434, 1.87166, 0.00384217, 1.88428, 0.00409279, 0.0040691, 1.8572, 1.86503, 1.86338, 1.86264, 1.86167, 1.85952, 1.85807, 1.85776, 1.8525, 1.84077, 1.84026, 1.84048, 1.82116, 1.82365, 1.83144, 1.82168, 1.90219, 1.89942, 1.96873, 0.00455925, 1.97196, 2.00104, 1.93413, 1.8682, 0.00431196, 0.00442426, 0.00446512, 0.00401875, 0.00380726, 1.90668, 0.0042936, 1.92728, 0.00446116, 1.92705, 1.92731, 1.92846, 1.91992, 1.91858, 1.91979, 1.92474, 1.92018, 1.91838, 1.91731, 1.9341, 1.92221, 1.99463, 1.93928, 0.00423766, 1.96509, 1.96223, 1.97852, 1.97818, 0.00424743, 2.04799, 1.99031, 1.99467, 0.00438471, 0.00485026, 0.004323, 2.09588, 2.10115, 2.09262, 2.0915, 2.09175, 0.00398063, 0.422295, 0.00422859, 0.00445689, 2.00339, 1.98436, 1.98377, 1.98318, 1.97964, 1.97858, 1.97789, 1.9764, 1.97406, 0.00441214, 2.16074, 2.16179, 0.00447426, 0.00391527, 0.0045178, 0.0045867, 0.00426722, 2.06366, 2.0621, 2.06077, 2.06292, 2.07485, 2.07053, 2.06931, 2.0672, 2.06574, 2.06524, 2.06339, 2.05494
1.05638, 1.05791, 1.1102, 1.07098, 1.13655, 1.11105, 1.11854, 1.1153, 1.11499, 1.11707, 1.13174, 1.13945, 1.14076, 1.14325, 1.13331, 1.16396, 1.20183, 1.14946, 1.16792, 1.14768, 1.14764, 1.14809, 1.15615, 1.15637, 1.17048, 1.17164, 1.20485, 1.21459, 1.19912, 1.20221, 1.20269, 1.26325, 1.23944, 1.21518, 1.27155, 1.21946, 1.28191, 1.26715, 1.24257, 1.25353, 1.25194, 1.25294, 1.25579, 1.25626, 1.25455, 1.25454, 1.25662, 1.31436, 1.27436, 1.27549, 1.27596, 1.2756, 1.26735, 1.26718, 1.27143, 1.28592, 1.3415, 1.39867, 1.40056, 1.392, 1.34382, 1.34655, 1.36692, 1.35395, 1.35367, 1.35607, 1.36099, 1.36439, 1.36894, 1.37446, 1.37902, 1.41361, 1.42986, 1.45465, 1.48163, 1.45747, 1.47676, 1.44082, 1.44728, 1.44828, 1.44484, 1.44739, 1.44149, 1.49633, 1.43931, 1.45564, 1.45505, 1.45356, 1.45221, 1.46185, 1.48524, 1.50938, 1.48538, 1.49098, 1.49193, 1.53637, 1.53024, 1.49616, 1.54789, 1.5272, 1.52708, 1.51362, 1.45408, 1.45435, 1.45215, 1.45171, 1.4816, 1.51779, 1.50269, 1.50816, 1.51337, 1.50993, 1.46941, 1.48353, 1.47275, 1.47006, 1.4709, 1.45753, 1.45697, 1.45598, 1.45628, 1.45258, 1.45069, 1.45002, 1.45002, 1.46066, 1.4605, 1.46669, 1.47406, 1.49856, 1.51282, 1.52287, 1.52337, 1.54691, 1.52773, 1.52787, 1.5057, 1.54653, 1.50925, 1.51063, 1.51219, 1.51337, 1.51394, 1.5615, 1.50918, 1.50896, 1.53474, 1.53627, 1.53724, 1.54851, 1.55104, 1.55585, 1.56662, 1.58251, 1.58115, 1.57794, 1.60644, 1.58961, 1.61639, 1.61974, 1.66393, 1.64417, 1.63437, 1.76281, 1.63069, 1.67245, 1.65024, 1.687, 1.69244, 1.70755, 1.81433, 1.73489, 0.00411681, 1.74832, 0.00396803, 1.84439, 0.00415726, 1.77149, 1.80079, 1.81341, 1.81286, 1.83704, 1.83669, 1.82966, 1.86858, 0.00445437, 0.00411934, 1.82283, 0.00397738, 1.83448, 1.83548, 1.83555, 1.83404, 1.83501, 1.83725, 1.84522, 1.84634, 1.85449, 1.85502, 1.87746, 1.89081, 1.91997, 1.83729, 1.83344, 1.83395, 0.00472806, 1.84142, 1.84194, 1.84173, 1.8424, 0.00423434, 0.00452361, 1.84556, 1.88968, 1.8221, 1.93805, 1.80666, 1.81613, 1.81537, 1.8138, 1.81183, 1.81745, 1.81955, 1.82083, 1.82157, 1.8861, 1.88348, 0.00431504, 1.85089, 1.86683, 2.08414, 1.87945, 0.00389218, 1.88727, 1.90636, 0.00370361, 1.96145, 1.96222, 1.92129, 1.91983, 1.9177, 1.92095, 1.91994, 1.91951, 1.91885, 1.91827, 1.92234, 1.92148, 0.00368513, 1.92332, 1.92824, 2.09985, 0.00418543, 1.95687, 1.96237, 1.96105, 1.9604, 2.05259, 2.06278, 2.04239, 0.00379948, 2.05958, 2.07785, 2.07527, 2.07597, 2.07607, 2.08321, 2.07327, 0.00422769, 0.128874, 0.00418201, 2.01808, 2.00077, 1.98318, 1.98263, 1.98079, 1.97836, 1.97717, 1.97615, 1.97616, 1.97644, 2.07797, 0.00416032, 1.99346, 2.14573, 2.1215, 0.00430993, 0.00455234, 0.00454067, 2.06539, 2.06577, 2.06433, 2.06946, 2.07661, 2.07186, 2.06481, 2.05891, 2.05829, 2.05649, 2.05387
1.14623, 1.09137, 1.08135, 1.11356, 1.11627, 1.12559, 1.12307, 1.13671, 1.12451, 1.12229, 1.12103, 1.13702, 1.15412, 1.14649, 1.13394, 1.13615, 1.16428, 1.18111, 1.16729, 1.15697, 1.16213, 1.1629, 1.16527, 1.17245, 1.17309, 1.21509, 1.18609, 1.19133, 1.27518, 1.27403, 1.24422, 1.27482, 1.26219, 1.26788, 1.25567, 1.2672, 1.27404, 1.24722, 1.25092, 1.25049, 1.25161, 1.25715, 1.25698, 1.25773, 1.25705, 1.31045, 1.31425, 1.33757, 1.34516, 1.27737, 1.27865, 1.28127, 1.28569, 1.37725, 1.35008, 1.38776, 1.3934, 1.32952, 1.39195, 1.34175, 1.34612, 1.34836, 1.35035, 1.35012, 1.35202, 1.35923, 1.35946, 1.36062, 1.36069, 1.36153, 1.40074, 1.38542, 1.38405, 1.4351, 1.44417, 1.51689, 1.51775, 1.52774, 1.52637, 1.4506, 1.56481, 1.58992, 1.45086, 1.44413, 1.44306, 1.44031, 1.43975, 1.45537, 1.45646, 1.45666, 1.48084, 1.47955, 1.54362, 1.5334, 1.54814, 1.49899, 1.49937, 1.49909, 1.49907, 1.49278, 1.49029, 1.56902, 1.46705, 1.45491, 1.45107, 1.45071, 1.45432, 1.52757, 1.54444, 1.51466, 1.50994, 1.50922, 1.50241, 1.50124, 1.51263, 1.50092, 0.00433368, 1.46729, 1.45968, 1.45939, 1.46064, 1.46504, 1.52988, 1.46397, 1.51227, 1.51444, 1.52383, 1.52392, 1.51234, 1.48979, 1.49329, 1.4963, 1.49983, 1.50009, 1.50191, 1.50938, 1.50981, 1.51184, 1.51218, 1.51125, 1.5119, 1.53516, 1.54506, 1.54038, 1.53769, 1.53619, 1.53667, 1.54008, 1.54073, 1.55049, 1.57021, 1.55218, 1.55736, 1.58389, 1.56907, 1.57446, 1.58972, 1.58927, 1.58918, 1.59793, 1.60903, 1.60809, 1.61569, 1.67225, 1.63945, 1.69582, 1.69048, 1.65184, 1.69977, 1.71048, 1.73441, 1.70385, 1.74026, 0.00431209, 1.7418, 1.75833, 1.75455, 0.00423914, 1.78212, 0.00356297, 1.88078, 0.00442502, 1.8297, 1.83066, 1.83099, 0.0041833, 1.8211, 1.82376, 1.82099, 1.82829, 1.81028, 1.83406, 0.00413458, 0.00409265, 1.85911, 1.8878, 1.88983, 1.90339, 1.85985, 1.8588, 1.83318, 1.8344, 1.82652, 1.82642, 1.82585, 1.8378, 1.84151, 1.84066, 1.83989, 1.83573, 1.82525, 1.92438, 1.92473, 1.79874, 1.80046, 1.80129, 1.80869, 1.8013, 1.80237, 1.8035, 1.80442, 1.80489, 1.80799, 1.81587, 1.81469, 1.83263, 1.83788, 1.84774, 1.85255, 1.85835, 1.85466, 0.00412369, 1.87593, 0.0044839, 1.91461, 1.87589, 1.95982, 1.94734, 0.00444511, 0.00457225, 1.92416, 1.92323, 1.92267, 1.92107, 1.92143, 0.00465531, 1.91535, 1.90957, 1.9135, 0.0045099, 1.93387, 0.0040844, 0.00436068, 1.95465, 1.95423, 1.95328, 1.9583, 0.0046434, 2.04657, 0.00421, 0.00443917, 0.00427234, 2.03706, 2.05411, 2.05285, 2.0601, 2.05999, 0.00452242, 2.04884, 2.04208, 0.00396911, 0.00409468, 2.00049, 0.00404043, 1.98251, 1.97781, 1.9719, 1.97161, 1.96991, 1.97089, 1.97253, 1.98914, 1.98268, 1.99227, 1.99645, 1.99026, 2.0324, 2.03167, 2.03105, 2.03051, 2.03447, 2.10355, 2.06147, 0.0042957, 2.06176, 2.06306, 2.06195, 2.05983, 2.05885, 2.05784
1.10196, 1.09918, 1.0939, 1.07353, 1.07338, 1.0787, 1.15864, 1.17995, 1.16072, 1.15877, 1.16095, 1.13909, 1.14032, 1.15655, 1.17287, 1.17256, 1.18884, 1.20229, 1.18496, 1.17759, 1.16478, 1.16682, 1.21148, 1.37574, 1.22204, 1.23222, 1.22805, 1.23063, 1.23686, 1.27988, 1.28515, 1.26985, 1.26194, 1.24474, 1.24758, 1.24768, 1.25046, 1.25351, 1.26919, 1.25832, 1.26298, 1.26299, 1.28857, 1.30288, 1.27411, 1.32671, 1.33865, 1.31579, 1.29071, 1.28645, 1.28477, 1.33968, 1.37984, 1.30393, 1.37824, 1.35839, 1.33262, 1.34094, 1.34735, 1.38554, 1.35133, 1.35374, 1.35448, 1.35651, 1.35789, 1.36022, 1.36163, 1.36265, 1.35776, 1.35751, 1.35935, 1.36318, 1.50895, 1.50618, 1.46706, 1.537, 1.5066, 1.53081, 1.43623, 1.48003, 1.46116, 1.47352, 1.43128, 1.4118, 1.48124, 1.42694, 1.43039, 1.44487, 1.44637, 1.45438, 1.60563, 1.49903, 1.49186, 1.50776, 1.56366, 1.52006, 1.51024, 1.5093, 1.5008, 1.50136, 1.50159, 1.62012, 1.46937, 1.46098, 1.46049, 1.46364, 1.46691, 1.47267, 1.48153, 1.48158, 1.56699, 1.49856, 1.50364, 1.50564, 1.48787, 1.4863, 1.47647, 1.47049, 1.46967, 1.48069, 1.48084, 1.46889, 1.46807, 1.47421, 1.55006, 1.48006, 1.48642, 1.48588, 1.48545, 1.48724, 1.5008, 1.50101, 1.5199, 1.51582, 1.51548, 1.51347, 1.50675, 1.50564, 1.50761, 1.5748, 1.57739, 1.55801, 1.58252, 1.575, 1.56141, 1.54099, 1.54079, 1.57857, 1.56824, 1.56148, 1.58599, 1.58484, 1.56886, 1.57583, 1.58498, 1.58676, 1.61124, 1.59514, 1.59216, 1.65202, 1.60731, 1.61002, 1.60926, 1.6097, 1.63937, 1.64092, 1.64028, 1.69513, 1.66274, 1.67356, 1.69987, 1.73485, 1.73473, 1.75226, 1.75795, 1.75373, 0.00410183, 1.77572, 0.00433328, 1.88065, 0.00389718, 1.80202, 1.85153, 1.82, 0.00427346, 1.82433, 0.00454336, 1.8085, 1.84863, 1.8508, 0.00469567, 1.95436, 1.97893, 0.00436985, 0.0039294, 0.0046771, 0.00425539, 0.00447179, 0.00418253, 1.89071, 1.80079, 1.81964, 1.80104, 1.80148, 0.00439196, 1.8377, 0.00419176, 1.82528, 1.82467, 1.82631, 1.8133, 1.80435, 1.80075, 1.802, 1.80245, 1.80244, 1.78974, 1.78896, 1.90125, 1.88631, 1.85184, 1.90451, 1.82689, 1.82632, 1.82928, 1.83724, 1.8397, 1.8521, 1.85221, 1.93912, 1.84957, 1.84805, 1.92791, 1.8832, 0.00424791, 1.94992, 0.00414495, 1.95284, 1.87022, 1.93567, 2.03425, 1.96583, 0.00399869, 2.02698, 0.00444359, 1.89347, 1.89236, 1.90425, 1.90282, 1.90244, 2.02449, 1.90651, 0.00446484, 2.07408, 0.0040151, 1.95425, 0.00471801, 0.00444648, 2.00487, 2.0122, 0.00465709, 2.01068, 0.00415731, 2.04215, 2.04959, 2.06962, 2.06169, 2.07304, 2.05528, 2.05345, 0.00408874, 2.12491, 0.00382752, 1.96264, 1.96189, 1.9683, 1.96514, 1.96508, 1.97264, 1.97318, 1.97238, 1.98095, 1.98314, 1.97746, 1.99293, 2.12818, 2.03572, 2.03479, 2.03386, 2.03449, 2.03248, 2.0373, 2.03823, 2.03858, 0.00349711, 2.05836, 2.07067, 2.1322, 0.0039053, 0.00429263
1.11529, 1.22349, 1.15087, 1.09815, 1.07761, 1.07804, 1.08634, 1.16436, 1.16401, 1.18201, 1.16702, 1.14374, 1.18268, 1.16324, 1.1809, 1.1684, 1.17847, 1.18875, 1.18483, 1.19473, 1.17827, 1.18195, 1.23686, 1.22681, 1.1939, 1.19433, 1.25991, 1.29191, 1.2891, 1.28932, 1.28883, 1.29118, 1.26434, 1.25115, 1.25562, 1.25596, 1.25713, 1.29849, 1.27973, 1.26638, 1.26807, 1.27222, 1.30504, 1.27855, 1.28099, 1.28622, 1.28512, 1.2934, 1.29449, 1.29265, 1.2907, 1.29104, 1.30209, 1.37465, 1.38281, 1.35892, 1.3714, 1.3718, 1.38038, 1.3549, 1.35658, 1.35454, 1.353, 1.35724, 1.36009, 1.36255, 1.36222, 1.36275, 1.36074, 1.36145, 1.37131, 1.37929, 1.50002, 1.39052, 1.39096, 1.3918, 1.39495, 1.39216, 1.51759, 1.41326, 1.58495, 1.4092, 1.40194, 1.39208, 1.41445, 1.42788, 1.42653, 1.49817, 1.45808, 1.65697, 1.42882, 1.48599, 1.46782, 1.49903, 1.52351, 1.49943, 1.55651, 1.49579, 1.47745, 1.49495, 1.48461, 1.48103, 1.55076, 1.49656, 1.47538, 1.48769, 1.48636, 1.48382, 1.48754, 1.49113, 1.49031, 1.49154, 1.49168, 1.49122, 1.4923, 1.48817, 1.48657, 1.48006, 1.47782, 1.47775, 1.47409, 1.47163, 1.47112, 1.47239, 1.47405, 1.48884, 1.48827, 1.48854, 1.48852, 1.49147, 1.49325, 1.57102, 1.55181, 1.50162, 1.50837, 1.50841, 1.51039, 1.57362, 1.56975, 1.58342, 1.57869, 1.53667, 1.58387, 1.58349, 1.57251, 1.57646, 1.59262, 1.58652, 1.57234, 1.57143, 1.58609, 1.58462, 1.58531, 1.58501, 1.58736, 1.58745, 1.59483, 1.59432, 1.59388, 1.5962, 1.6466, 1.61312, 1.61249, 1.62653, 1.64965, 1.68253, 1.64461, 1.67667, 1.68569, 1.68565, 1.69996, 1.69015, 1.70971, 1.71263, 1.76035, 0.00386643, 1.76973, 1.76302, 1.78583, 1.81376, 1.80813, 1.80978, 1.83003, 1.77149, 1.77321, 1.77362, 1.77308, 1.7733, 1.80884, 1.8597, 1.7893, 1.78921, 1.78946, 1.78888, 2.00085, 0.00435853, 1.95609, 0.00393621, 1.8182, 1.86646, 1.80355, 1.8029, 1.80331, 1.80374, 1.80446, 1.80298, 1.80284, 1.81848, 1.81628, 1.81626, 1.79342, 1.7929, 1.7923, 1.79181, 1.79055, 1.78906, 1.7852, 1.77947, 1.78257, 1.78228, 1.82681, 1.82695, 1.82648, 1.82855, 1.8307, 1.82572, 1.82496, 1.82573, 1.8234, 1.82653, 1.82679, 1.82774, 1.82861, 1.83442, 1.8329, 1.83405, 1.83175, 0.00403746, 0.00433475, 1.92397, 1.92851, 0.00385435, 2.06665, 1.9251, 1.93892, 1.89674, 1.89407, 1.8926, 1.89251, 1.89038, 1.9179, 1.90509, 1.91174, 0.00432509, 1.93479, 0.00407486, 2.01211, 0.00413753, 1.98391, 2.01443, 2.17047, 2.02392, 2.02744, 0.00404043, 0.00454675, 0.00425895, 2.05125, 2.05119, 2.06286, 2.06227, 0.00420383, 0.00419204, 1.98293, 1.97587, 1.96691, 1.96388, 1.96188, 1.96892, 1.96862, 1.96819, 1.96977, 1.96883, 1.97614, 2.08247, 0.00444339, 0.00422621, 2.04224, 2.03821, 2.03805, 2.02827, 2.02858, 2.02959, 2.04041, 0.00460753, 0.00412603, 2.09457, 2.09403, 0.00390653, 2.12581, 2.1344
1.11213, 1.31632, 1.14297, 1.14717, 1.13617, 1.0841, 1.1491, 1.19894, 1.10179, 1.14126, 1.16618, 1.20285, 1.19617, 1.22244, 1.18569, 1.20905, 1.19964, 1.27237, 1.188, 1.18852, 1.21965, 1.19416, 1.24757, 1.29682, 1.28072, 1.28103, 1.27066, 1.23599, 1.29167, 1.26852, 1.28916, 1.26555, 1.28568, 1.26673, 1.26221, 1.27047, 1.26748, 1.2674, 1.27012, 1.2692, 1.27032, 1.27481, 1.2773, 1.30988, 1.34796, 1.28861, 1.29505, 1.29491, 1.29402, 1.29279, 1.28731, 1.28811, 1.38621, 1.38528, 1.3893, 1.35862, 1.3946, 1.35074, 1.3543, 1.3551, 1.35528, 1.35089, 1.35076, 1.35253, 1.35795, 1.36077, 1.36475, 1.36526, 1.36586, 1.36555, 1.36691, 1.375, 1.37578, 1.37953, 1.37849, 1.3894, 1.38892, 1.38902, 1.39188, 1.48632, 1.49301, 1.62035, 1.38263, 1.48791, 1.38413, 1.39687, 1.5023, 1.40214, 1.43075, 1.42804, 1.40829, 1.40548, 1.42008, 1.46553, 1.50395, 1.56253, 1.67038, 1.6696, 1.42969, 1.46214, 1.43491, 1.47791, 1.50006, 1.46711, 1.66892, 1.49168, 1.49039, 1.49013, 1.4909, 1.48973, 1.49085, 1.48835, 1.48811, 1.49237, 1.49186, 1.48789, 1.48782, 1.48183, 1.4766, 1.46241, 1.46262, 1.46225, 1.46484, 1.47006, 1.48232, 1.4921, 1.48792, 1.48693, 1.48686, 1.48228, 1.48232, 1.48465, 1.48622, 1.48689, 1.49513, 1.55427, 1.5122, 1.51266, 1.5221, 1.59225, 1.57992, 1.59849, 1.59659, 1.5708, 1.5683, 1.57516, 1.57781, 1.5758, 1.5743, 1.57456, 1.58087, 1.5898, 1.58937, 1.58844, 1.58899, 1.58886, 1.60381, 1.59478, 1.59486, 1.60894, 1.62089, 1.61575, 1.61797, 1.61991, 1.62427, 1.69195, 1.69963, 1.64478, 1.64563, 1.67844, 1.66842, 1.68242, 1.70304, 1.76151, 1.73028, 1.77576, 1.77204, 1.76643, 1.7571, 1.75446, 1.75378, 1.81273, 1.77895, 1.77218, 1.77231, 1.83047, 1.85319, 1.80623, 1.85101, 1.81397, 0.00447099, 1.81942, 0.00442043, 1.77306, 1.82217, 1.81867, 1.81627, 1.81665, 1.79755, 1.79504, 0.00396092, 1.8668, 1.79399, 1.78974, 1.80296, 1.8172, 1.80348, 1.80036, 0.00423863, 1.84592, 0.00404708, 1.79279, 1.79205, 1.79094, 1.79026, 1.77895, 1.77952, 1.77793, 1.77669, 1.77508, 1.88266, 1.82845, 1.82696, 1.82659, 1.82559, 1.82594, 1.82511, 1.82507, 1.82503, 1.82428, 1.82509, 1.81551, 1.81671, 1.81183, 1.81941, 1.8181, 1.82351, 1.83091, 1.83147, 1.83769, 1.84576, 0.0038159, 0.00459743, 1.87723, 1.87745, 1.87828, 1.88363, 1.88317, 1.88236, 1.88333, 1.88777, 1.88656, 1.88643, 1.8851, 0.00365457, 1.98348, 0.00402452, 1.97299, 0.00450304, 2.01115, 0.00434427, 2.03485, 0.00416123, 2.02185, 2.0421, 0.00425616, 0.00396423, 2.04318, 2.04344, 2.06956, 0.00423135, 0.0047748, 1.97412, 1.97495, 1.96472, 1.94243, 1.94857, 1.94676, 1.95195, 1.95862, 2.11483, 2.11624, 0.00440554, 1.97766, 0.0039391, 2.15658, 2.07273, 2.03006, 2.02841, 2.02761, 2.02584, 2.02615, 0.004074, 2.06882, 0.0043507, 2.09125, 2.09423, 2.09189, 2.13585, 2.13428
1.30274, 1.28465, 1.20259, 1.15085, 1.28071, 1.18771, 1.21599, 1.21583, 1.1718, 1.27649, 1.16702, 1.16826, 1.19561, 1.17593, 1.19606, 1.19424, 1.2272, 1.17588, 1.19561, 1.19113, 1.19085, 1.2366, 1.25403, 1.2468, 1.25146, 1.28933, 1.24176, 1.24331, 1.25746, 1.25654, 1.24731, 1.27498, 1.27395, 1.28051, 1.2683, 1.26776, 1.27018, 1.27126, 1.27258, 1.27853, 1.27553, 1.32476, 1.28291, 1.32971, 1.33035, 1.29898, 1.29836, 1.29514, 1.29348, 1.29179, 1.29309, 1.38206, 1.38871, 1.38985, 1.38865, 1.35831, 1.35242, 1.35343, 1.36219, 1.35794, 1.36376, 1.36069, 1.39537, 1.39841, 1.36849, 1.37034, 1.36966, 1.37462, 1.36926, 1.36689, 1.36521, 1.36568, 1.37289, 1.3742, 1.37489, 1.45699, 1.41792, 1.3858, 1.48157, 1.36825, 1.36882, 1.37421, 1.37309, 1.49871, 1.50701, 1.41608, 1.50222, 1.50243, 1.46252, 1.37973, 1.378, 1.47931, 1.38069, 1.45824, 1.41251, 1.4259, 1.41952, 1.42729, 1.39865, 1.43551, 1.43664, 1.4193, 1.43036, 1.45268, 1.45821, 1.53398, 1.50531, 1.70635, 1.49218, 1.49134, 1.4912, 1.48435, 1.48198, 1.48192, 1.48338, 1.48463, 1.48476, 1.48385, 1.46183, 1.46335, 1.46145, 1.46276, 1.462, 1.5176, 1.48056, 1.48176, 1.48224, 1.48908, 1.47381, 1.47554, 1.4774, 1.48465, 1.48589, 1.48782, 1.49196, 1.62474, 1.62485, 1.60044, 1.53417, 1.59352, 1.5779, 1.5789, 1.57431, 1.60919, 1.58727, 1.58605, 1.59367, 1.59265, 1.59517, 1.59264, 1.59292, 1.59087, 1.58931, 1.58987, 1.61145, 1.60682, 1.62376, 1.6044, 1.60575, 1.61201, 1.62716, 1.64499, 1.62631, 1.62666, 1.62766, 1.63169, 1.63183, 1.71111, 1.66864, 1.7197, 1.70674, 1.73521, 1.67414, 1.73524, 1.7197, 1.76158, 1.7734, 1.79208, 1.75966, 1.80927, 1.75792, 1.74732, 1.74787, 1.86588, 1.75022, 1.74867, 1.74851, 1.75226, 1.74939, 1.74789, 1.74715, 1.80837, 1.78906, 0.00407607, 1.75551, 1.82435, 1.81212, 0.00382073, 1.75847, 1.79376, 1.85958, 1.84426, 1.80577, 0.00438367, 1.8626, 1.78623, 1.91829, 1.86263, 1.85892, 1.77754, 1.77765, 1.77671, 1.77918, 1.77678, 1.77641, 1.77754, 1.77693, 1.7617, 1.8574, 1.85673, 1.84473, 0.00412013, 1.84035, 0.00395262, 1.87514, 1.79192, 1.79638, 1.79595, 1.79594, 1.7948, 1.79243, 1.80078, 1.81079, 1.80869, 1.80237, 0.00379036, 1.83364, 1.83234, 1.83131, 1.83093, 1.8333, 0.0042412, 1.88187, 0.00407796, 0.00450081, 1.89001, 1.87883, 1.87824, 1.88376, 1.88309, 1.88675, 1.88584, 1.88524, 1.88709, 1.8912, 1.91687, 1.91746, 0.00395952, 1.96973, 0.00437449, 2.00245, 0.0039088, 1.9726, 1.95327, 1.95257, 2.03489, 2.03572, 2.03574, 0.00437081, 0.00410692, 0.00387777, 0.00399129, 1.97843, 0.00422177, 1.9445, 1.93978, 1.9403, 1.94295, 1.94077, 1.94063, 2.10354, 0.00478555, 0.00435274, 0.00433327, 2.00165, 0.00387526, 0.00405369, 0.00423373, 2.01596, 0.00405722, 0.0161836, 0.00400519, 2.0563, 0.0037001, 0.00427436, 0.00367418, 2.09356, 0.00426965, 2.13278, 2.13549
1.09992, 1.04656, 1.05131, 1.05425, 1.16865, 1.30191, 1.16765, 1.08868, 1.19796, 1.20925, 1.23275, 1.2142, 1.21293, 1.21523, 1.21805, 1.21704, 1.29081, 1.1741, 1.21964, 1.19589, 1.2119, 1.25293, 1.22237, 1.21845, 1.25346, 1.26671, 1.25811, 1.27692, 1.27593, 1.25105, 1.32085, 1.28481, 1.28569, 1.29169, 1.30956, 1.27265, 1.27409, 1.27646, 1.27911, 1.27945, 1.28093, 1.33148, 1.31351, 1.32458, 1.30096, 1.30013, 1.29898, 1.29439, 1.29384, 1.29291, 1.29421, 1.30669, 1.30231, 1.3686, 1.36843, 1.34883, 1.35341, 1.35648, 1.3591, 1.36048, 1.36452, 1.36821, 1.37029, 1.3717, 1.37274, 1.37349, 1.37353, 1.37279, 1.37169, 1.36669, 1.3661, 1.36476, 1.36059, 1.36674, 1.36566, 1.37028, 1.36009, 1.36, 1.35833, 1.3566, 1.35687, 1.3565, 1.35581, 1.35341, 1.35791, 1.38603, 1.38214, 1.36047, 1.35126, 1.35411, 1.43463, 1.42633, 1.3992, 1.43185, 1.38232, 1.39015, 1.3707, 1.39171, 1.48166, 1.47557, 1.388, 1.44067, 1.41734, 1.45016, 1.42665, 1.43416, 1.45472, 1.52006, 1.67679, 1.48758, 1.48924, 1.48814, 1.48541, 1.48417, 1.48377, 1.48454, 1.48244, 1.48034, 1.46534, 1.46369, 1.46311, 1.46619, 1.47046, 1.46904, 1.47125, 1.47416, 1.47336, 1.46967, 1.46999, 1.47288, 1.64713, 1.49722, 1.50641, 1.50621, 1.50507, 1.52742, 1.53666, 1.55121, 1.54024, 1.53904, 1.57742, 1.57685, 1.58245, 1.60055, 1.60093, 1.61784, 1.5983, 1.61398, 1.59597, 1.59527, 1.59607, 1.59423, 1.59469, 1.62267, 1.6091, 1.60986, 1.60927, 1.61234, 1.63425, 1.62314, 1.62413, 1.64744, 1.64552, 1.65532, 1.64208, 1.68605, 1.64338, 1.7103, 1.65556, 1.6489, 1.69302, 1.70445, 1.75544, 1.70351, 1.69991, 1.72791, 1.77926, 1.71943, 1.81403, 1.72787, 1.831, 1.83093, 1.78537, 1.74422, 1.74454, 1.89276, 1.89458, 1.74385, 1.77674, 1.77292, 1.8023, 1.80037, 1.80991, 1.74353, 1.74271, 1.8176, 1.81516, 1.73728, 1.74346, 1.76516, 1.85432, 1.82019, 1.81463, 1.75734, 1.75567, 1.75607, 1.7546, 1.75321, 1.76534, 1.76815, 1.76776, 1.76588, 1.76639, 1.76656, 1.75072, 1.74937, 1.76173, 1.75959, 1.75983, 1.75893, 0.00417221, 1.78308, 1.78229, 1.79222, 1.79275, 1.7936, 1.79361, 1.79247, 1.79273, 1.7932, 1.79025, 1.78949, 1.79272, 1.79305, 1.7923, 1.82229, 0.00444636, 1.82868, 1.82736, 1.82656, 1.82246, 1.82224, 1.83144, 1.83382, 1.8944, 1.89441, 1.92853, 1.93752, 1.94553, 1.88657, 1.88586, 1.88522, 1.88358, 1.88284, 1.88621, 1.90232, 1.90279, 1.94627, 1.91762, 1.9873, 0.00366411, 1.9734, 0.00396974, 1.95297, 1.95471, 1.95453, 1.95469, 1.96506, 0.00382548, 0.00387435, 0.00392128, 1.96255, 0.00403432, 1.9558, 1.94762, 1.92422, 1.92537, 1.93326, 0.00363961, 0.00409716, 0.00492992, 0.00426846, 0.00417733, 0.00381774, 0.00458213, 2.04055, 0.00426639, 0.00422906, 0.00444881, 0.00435398, 0.00412615, 0.00494217, 0.00403311, 0.00429266, 0.00480067, 2.07898, 0.00384041, 2.12004, 0.00410831, 2.11693
1.18061, 1.06513, 1.06922, 1.11954, 1.05954, 1.06945, 1.08951, 1.09519, 1.06329, 1.13005, 1.12259, 1.09803, 1.09784, 1.28236, 1.295, 1.19837, 1.25198, 1.29242, 1.20926, 1.30621, 1.30617, 1.25145, 1.23353, 1.23305, 1.25758, 1.23989, 1.23984, 1.27435, 1.28308, 1.32576, 1.26811, 1.28871, 1.33318, 1.2832, 1.33617, 1.33307, 1.27999, 1.28117, 1.28064, 1.28074, 1.28675, 1.31576, 1.2985, 1.30198, 1.30384, 1.30315, 1.30189, 1.29679, 1.29738, 1.297, 1.31729, 1.39217, 1.35395, 1.34694, 1.34979, 1.35075, 1.35349, 1.35527, 1.36053, 1.36506, 1.37063, 1.37307, 1.37417, 1.37368, 1.37418, 1.37429, 1.37102, 1.3712, 1.37183, 1.36923, 1.36732, 1.36325, 1.35133, 1.35081, 1.60644, 1.34788, 1.34705, 1.44738, 1.46863, 1.36527, 1.37693, 1.37258, 1.36199, 1.36729, 1.38877, 1.38552, 1.3792, 1.33284, 1.33384, 1.33076, 1.32994, 1.32736, 1.37239, 1.42732, 1.38786, 1.34074, 1.33945, 1.33906, 1.39217, 1.47475, 1.47333, 1.38615, 1.40992, 1.55186, 1.44064, 1.41466, 1.42373, 1.44066, 1.47644, 0.00415581, 1.49943, 1.49162, 1.48913, 1.48808, 1.48799, 1.48303, 1.47987, 1.47702, 1.47626, 1.46627, 1.46542, 1.46733, 1.47112, 1.47068, 1.47036, 1.4739, 1.47391, 1.46647, 1.46615, 1.5852, 1.50364, 1.50405, 1.50331, 1.50885, 1.50855, 1.5088, 1.53046, 1.53273, 1.62367, 1.61448, 1.59197, 1.64463, 1.57607, 1.57768, 1.57783, 1.59241, 1.61781, 1.58582, 1.58536, 1.65495, 1.60293, 1.60239, 1.60397, 1.61568, 1.61282, 1.6351, 1.64505, 1.65117, 1.794, 1.64194, 1.65229, 1.64438, 1.66302, 1.66216, 1.67582, 1.6579, 1.70972, 1.65307, 1.65479, 1.65458, 1.70134, 1.70044, 1.76337, 1.78688, 1.78908, 1.77955, 1.79161, 1.78573, 1.79642, 1.73201, 1.83781, 1.72544, 1.72164, 1.72664, 1.72662, 1.72729, 1.72742, 0.00461133, 1.7865, 1.98655, 1.71501, 1.78592, 1.78679, 1.77505, 1.75727, 1.76102, 1.80442, 1.71832, 1.71863, 0.00420302, 0.00434664, 0.00424171, 1.79622, 1.76091, 1.75991, 1.75873, 1.75891, 1.75837, 1.76104, 1.75998, 1.76565, 1.75872, 1.74739, 1.75423, 1.75398, 1.7531, 1.75213, 1.75724, 1.75703, 1.75576, 1.83142, 1.83774, 1.78121, 1.78314, 1.78922, 1.79431, 1.79273, 1.79306, 1.79712, 1.79583, 1.79171, 1.79199, 1.79566, 1.79666, 1.79568, 0.00455743, 1.86227, 1.83131, 1.8305, 1.82995, 1.84395, 1.8437, 0.00401525, 1.83929, 0.00412101, 0.00422512, 1.99755, 1.90672, 1.87402, 1.93715, 1.88862, 1.88953, 1.89112, 1.89317, 1.89278, 1.89251, 1.90389, 1.9101, 1.95218, 1.94269, 1.92723, 1.92599, 1.97493, 1.97569, 1.97243, 0.0043511, 1.96245, 1.95495, 1.96975, 1.96727, 1.98689, 1.98602, 2.03876, 1.92432, 1.91691, 1.91676, 1.92036, 1.92221, 1.92225, 1.92072, 0.00359489, 0.00438174, 1.95149, 1.95137, 1.95461, 2.10767, 2.07276, 0.00411778, 0.00410383, 0.00412448, 0.0033371, 0.00466113, 0.00397306, 0.00410437, 0.00425545, 0.00422851, 0.00389206, 0.00419948, 2.12889, 2.11169
0.997856, 1.02415, 1.00262, 1.05274, 1.04355, 1.05086, 1.23998, 1.08144, 1.09658, 1.08481, 1.11187, 1.1084, 1.10817, 1.18645, 1.18636, 1.18737, 1.19255, 1.26923, 1.17054, 1.25206, 1.26463, 1.32309, 1.29472, 1.30516, 1.29206, 1.29438, 1.28963, 1.28906, 1.28094, 1.26059, 1.29073, 1.32875, 1.27489, 1.27521, 1.27721, 1.27727, 1.27958, 1.28187, 1.34377, 1.33864, 1.3395, 1.33495, 1.33187, 1.32975, 1.35688, 1.35731, 1.38258, 1.3016, 1.30322, 1.38491, 1.38808, 1.33771, 1.34315, 1.35, 1.35263, 1.35716, 1.3573, 1.36018, 1.36372, 1.36877, 1.37344, 1.37316, 1.37411, 1.3748, 1.37757, 1.37768, 1.37566, 1.37439, 1.37537, 1.53749, 1.35777, 1.35581, 1.38672, 1.32715, 1.33643, 1.4637, 1.45975, 1.33097, 1.33554, 1.334, 1.43652, 1.32127, 1.32199, 1.32521, 1.32378, 1.34376, 1.34685, 1.32108, 1.38458, 1.34843, 1.34787, 1.34808, 1.34401, 1.33392, 1.35118, 1.33097, 1.34681, 1.34158, 1.33467, 1.33625, 1.34136, 1.35396, 1.45297, 1.36115, 1.41615, 1.41013, 1.41542, 1.41232, 1.45048, 1.44993, 1.45769, 1.51515, 1.47956, 1.49048, 1.4921, 1.48373, 1.47892, 1.47667, 1.48224, 1.46816, 1.4688, 1.46974, 1.46978, 1.48498, 1.48405, 1.47126, 1.4647, 1.46416, 1.46914, 1.49565, 1.60668, 1.50579, 1.50531, 1.50345, 1.50306, 1.50575, 1.52076, 1.54692, 1.52934, 1.59264, 1.55506, 1.55827, 1.56054, 1.56536, 1.6765, 1.58542, 1.68564, 1.62154, 1.65213, 1.67284, 1.67354, 1.64955, 1.64854, 1.65161, 1.6465, 1.66597, 1.66232, 1.64387, 1.6744, 1.65689, 1.65501, 1.66162, 1.67808, 1.67236, 1.69649, 1.66206, 1.66111, 1.66063, 1.66141, 1.6618, 1.66989, 1.66988, 1.7148, 1.71426, 1.77879, 1.69547, 1.69436, 1.70033, 1.7023, 1.70179, 1.83456, 1.73675, 0.00393052, 1.72433, 1.72315, 1.72833, 0.00351947, 1.74808, 1.74165, 1.73149, 1.71693, 1.71603, 1.71473, 1.78501, 1.7738, 1.78591, 1.69964, 1.78231, 1.81012, 1.81601, 0.00403009, 1.74085, 0.00398959, 1.8025, 1.84445, 0.00371671, 0.00468982, 1.75991, 1.76034, 1.76134, 1.75158, 1.75109, 1.75004, 1.7493, 1.74609, 1.7455, 1.74569, 1.7506, 1.74931, 1.75555, 1.75851, 1.82978, 1.84195, 1.80649, 1.82126, 1.79974, 0.00418383, 1.77915, 1.77549, 1.79327, 0.00384373, 1.78238, 1.76834, 1.7929, 0.0034582, 0.00419213, 1.80982, 0.00470499, 1.86176, 1.86189, 1.84605, 1.84497, 1.84378, 1.8546, 1.8542, 1.85379, 1.87292, 1.87159, 1.88643, 1.8792, 1.879, 1.89206, 1.89199, 1.89005, 1.88923, 1.89107, 1.89049, 1.90047, 0.00432567, 1.95863, 0.00400207, 1.96048, 1.9271, 1.9325, 1.93071, 1.9304, 1.9386, 1.94171, 0.00395912, 0.00424524, 0.00360717, 0.00479928, 1.92906, 1.92301, 1.92008, 1.91903, 1.9176, 1.91825, 1.92078, 1.92525, 0.00371457, 2.06848, 0.00357195, 2.08736, 1.98037, 1.97896, 0.00431989, 1.99087, 0.00385933, 0.00504059, 0.00404598, 0.0044538, 0.00406372, 0.566194, 0.0038682, 0.00449146, 0.00371235, 0.0049256, 0.00424981, 2.11341
1.02145, 1.01267, 1.01715, 1.01627, 1.02576, 1.02156, 1.11009, 1.25574, 1.0558, 1.07829, 1.06947, 1.15177, 1.17714, 1.16739, 1.31016, 1.09954, 1.19275, 1.13528, 1.30382, 1.2812, 1.26886, 1.18274, 1.33205, 1.25065, 1.29601, 1.37458, 1.29242, 1.32223, 1.30919, 1.30362, 1.30765, 1.33317, 1.30549, 1.31251, 1.30261, 1.27952, 1.27757, 1.34935, 1.27292, 1.27193, 1.37262, 1.36408, 1.36642, 1.3508, 1.37503, 1.37935, 1.36275, 1.39264, 1.37769, 1.32007, 1.32645, 1.33998, 1.36533, 1.35186, 1.35462, 1.3567, 1.35806, 1.36002, 1.36261, 1.39028, 1.38941, 1.37552, 1.37595, 1.37619, 1.37642, 1.37581, 1.37495, 1.37481, 1.40895, 1.4791, 1.44414, 1.4173, 1.39864, 1.33111, 1.36127, 1.33168, 1.32287, 1.34611, 1.32703, 1.33256, 1.30517, 1.29524, 1.29547, 1.29507, 1.31529, 1.31772, 1.3092, 1.2987, 1.29703, 1.30893, 1.30893, 1.34089, 1.31893, 1.44174, 1.44093, 1.31972, 1.31745, 1.41249, 1.31568, 1.31542, 1.31599, 1.44648, 1.343, 1.36518, 1.37598, 1.48727, 1.48827, 1.37611, 1.40648, 1.42593, 1.41825, 1.46867, 1.43341, 1.50353, 1.47511, 1.47962, 1.4816, 1.51017, 1.58799, 1.44433, 1.50604, 1.49352, 1.48609, 1.49015, 1.47442, 1.47398, 1.4738, 1.46712, 1.4732, 1.47478, 1.47909, 1.47882, 1.48015, 1.55141, 1.54912, 1.52678, 1.46805, 1.5491, 1.60242, 1.60345, 1.56035, 1.56183, 1.56082, 1.62055, 1.57476, 1.5819, 1.58873, 1.58272, 1.59492, 1.59408, 1.59397, 1.6911, 1.68136, 1.67717, 1.74861, 1.65165, 1.65799, 1.66278, 1.67002, 1.67298, 1.66904, 1.68023, 1.70045, 1.69977, 1.72687, 1.68893, 1.71057, 1.66756, 1.69831, 1.66906, 1.76844, 1.68893, 1.67824, 1.80291, 1.81431, 1.69063, 1.69614, 1.69405, 1.69878, 1.69952, 1.6996, 1.69839, 1.70252, 0.00416763, 1.71356, 1.73169, 0.00436444, 1.69183, 1.69239, 1.69397, 1.99681, 0.0042021, 1.73184, 1.7343, 1.80733, 0.00377772, 1.75225, 1.81029, 1.79853, 1.69765, 1.69584, 0.00408119, 1.89995, 0.00402174, 1.79223, 0.00446576, 1.79683, 0.00372837, 1.80335, 1.78929, 1.7727, 1.75209, 1.75212, 1.87398, 1.74819, 1.74719, 1.74511, 1.751, 1.75049, 1.75594, 1.76811, 1.76623, 1.76587, 1.7618, 1.75822, 1.75647, 1.75748, 1.76697, 1.77272, 1.77163, 1.77095, 1.76663, 1.76774, 1.76947, 1.78881, 1.79278, 1.86013, 1.80926, 1.80752, 1.82023, 1.86136, 0.00410471, 1.86991, 1.85963, 1.85849, 1.86193, 1.85752, 1.84492, 1.84436, 1.87281, 1.87069, 0.00426118, 1.89209, 1.89267, 1.89956, 1.88892, 1.8942, 1.89043, 1.91096, 0.0043466, 1.92411, 0.00392954, 1.93498, 1.93322, 1.93376, 1.9396, 1.94446, 0.00404141, 1.95321, 1.95757, 1.95853, 1.95623, 0.00384042, 0.00416652, 1.92294, 0.00415971, 1.96321, 0.00406569, 0.00374073, 0.00402787, 1.96212, 0.00410709, 1.97952, 0.00436644, 0.00345169, 1.9895, 1.98936, 1.98903, 1.99604, 1.99127, 2.00066, 2.00346, 0.0039137, 0.00433482, 0.00408429, 0.00385915, 0.00388845, 0.00430505, 0.00442586, 0.0044114
1.05395, 0.987149, 0.998454, 1.0989, 1.04034, 1.12573, 1.06132, 1.07941, 1.09235, 1.05292, 1.39644, 1.13059, 1.07841, 1.0783, 1.34764, 1.09562, 1.22003, 1.20957, 1.21255, 1.26057, 1.28112, 1.27556, 1.26367, 1.26855, 1.1981, 1.19869, 1.28467, 1.2224, 1.22261, 1.29146, 1.3618, 1.25722, 1.3386, 1.27035, 1.35089, 1.33078, 1.33735, 1.28787, 1.28044, 1.40495, 1.27525, 1.26052, 1.33278, 1.36144, 1.35742, 1.27028, 1.27196, 1.37943, 1.38967, 1.33396, 1.33895, 1.36679, 1.44763, 1.36462, 1.35659, 1.35657, 1.3577, 1.35511, 1.36052, 1.37746, 1.37795, 1.37084, 1.37107, 1.37491, 1.37407, 1.37249, 1.43679, 1.37146, 1.43054, 1.36128, 1.44081, 1.33656, 1.31404, 1.31535, 1.45213, 1.30335, 1.39158, 1.30317, 1.2999, 1.29828, 1.29296, 1.29094, 1.27571, 1.27578, 1.29415, 1.28548, 1.28395, 1.29378, 1.28155, 1.34767, 1.34055, 1.30032, 1.34996, 1.33317, 1.33457, 1.31591, 1.33277, 1.36786, 1.43749, 1.42834, 1.30859, 1.35694, 1.30237, 1.30604, 1.30604, 1.36948, 1.31285, 1.31396, 1.30998, 1.4019, 1.32389, 1.40779, 1.4118, 1.42529, 1.41718, 1.46512, 1.45153, 1.46833, 1.47855, 1.52405, 1.4613, 1.46378, 1.53212, 1.4655, 1.47336, 1.54258, 1.53677, 1.47063, 1.47389, 1.51689, 1.48498, 1.47949, 1.5158, 1.45639, 1.45569, 1.45941, 1.46259, 1.46627, 1.46795, 1.47942, 1.57396, 1.55902, 1.56222, 1.51769, 1.51697, 1.57527, 0.00437549, 1.56823, 0.00387048, 1.63145, 1.60275, 1.72792, 1.61687, 1.61378, 1.74431, 1.68151, 0.00414487, 1.72538, 1.74468, 1.68028, 0.00401272, 1.68375, 1.68857, 1.68321, 1.73067, 1.68917, 1.68843, 1.68767, 1.68723, 1.68755, 1.81084, 1.81081, 1.69154, 1.69064, 1.69302, 1.69212, 1.69214, 1.69919, 1.69699, 1.69634, 1.70035, 1.70067, 1.70016, 1.70748, 0.00414893, 1.8416, 1.68954, 1.68929, 1.6894, 1.69512, 1.74571, 1.74729, 0.00411334, 1.73486, 1.9825, 1.89831, 1.81088, 1.80333, 1.79625, 1.7873, 1.72364, 0.00395358, 0.00416698, 1.75429, 0.00390599, 1.75918, 0.00409169, 1.77955, 0.00363542, 0.00390903, 1.77275, 1.82119, 0.00427044, 0.00397066, 0.00438163, 0.00415294, 0.00451856, 1.77579, 0.00423111, 1.77265, 1.77119, 1.77027, 1.76944, 1.7698, 1.76071, 1.75952, 1.76109, 1.77131, 1.77342, 1.77504, 1.77461, 1.79448, 1.7929, 1.79276, 1.79288, 1.79365, 1.79632, 1.87104, 1.87383, 1.86587, 0.00430237, 1.85812, 0.00398693, 1.86357, 1.86201, 1.86044, 1.8487, 1.84789, 1.84732, 1.84646, 1.84651, 1.8469, 1.86937, 1.87096, 0.00388889, 0.00309454, 0.00404392, 0.0047807, 0.00417664, 0.00376024, 0.004002, 1.91451, 1.94194, 1.93784, 1.93529, 1.93387, 0.00415181, 1.95599, 1.95589, 1.95405, 1.96131, 1.9597, 1.95915, 1.95855, 1.96101, 1.9696, 1.96686, 1.96923, 1.96559, 1.96345, 0.00438565, 0.0103642, 1.97654, 1.99712, 1.98857, 1.99543, 1.99329, 1.99832, 2.00755, 2.00643, 2.00678, 2.00519, 2.00669, 2.02428, 0.00370518, 0.00407047, 0.00384523, 0.00438602, 0.00401661, 2.09509
1.05607, 1.00764, 1.00974, 1.0098, 1.01075, 1.12685, 1.04677, 1.07603, 1.03952, 1.24414, 1.07176, 1.09466, 1.32887, 1.08832, 1.33116, 1.14529, 1.16144, 1.19503, 1.21003, 1.13881, 1.27119, 1.15404, 1.21877, 1.21893, 1.20673, 1.21134, 1.33329, 1.33372, 1.31855, 1.33328, 1.32009, 1.32894, 1.23336, 1.23286, 1.37105, 1.32727, 1.38503, 1.36143, 1.31277, 1.35261, 1.22922, 1.23186, 1.23369, 1.44683, 1.39068, 1.39123, 1.35961, 1.38875, 1.38989, 1.31104, 1.33353, 1.33346, 1.36596, 1.33052, 1.41949, 1.34023, 1.34029, 1.33874, 1.34441, 1.3712, 1.38338, 1.38637, 1.36381, 1.36529, 1.38544, 1.38881, 1.35759, 1.37457, 1.36915, 1.45565, 1.3435, 1.33273, 1.34434, 1.38305, 1.30579, 1.26744, 1.3732, 1.37426, 1.25036, 1.25737, 1.30497, 1.2772, 1.3226, 1.265, 1.38636, 1.28153, 1.31709, 1.31411, 1.27588, 1.26221, 1.32181, 1.26423, 1.29946, 1.2914, 1.26116, 1.26368, 1.27817, 1.31298, 1.28867, 1.28613, 1.33675, 1.33604, 1.45549, 1.29891, 1.30107, 1.51308, 1.31433, 1.51542, 1.30668, 1.30923, 1.30976, 1.32999, 1.33436, 1.39241, 1.41403, 1.41054, 1.39252, 1.39567, 1.4267, 0.00365165, 1.51634, 1.45802, 1.46215, 1.47793, 1.42728, 1.42646, 1.49341, 1.45852, 1.45831, 1.45512, 1.46491, 1.52796, 1.62803, 1.55496, 1.49273, 1.4747, 1.48547, 1.51325, 1.49668, 1.55154, 1.48072, 1.48085, 1.57491, 1.57563, 1.57231, 1.57219, 1.5879, 0.00376277, 1.57562, 1.58118, 1.59228, 0.00396334, 1.7109, 1.61721, 1.61309, 1.61241, 1.79642, 1.7891, 1.83426, 0.00416209, 1.73018, 1.77241, 1.71836, 1.694, 1.69197, 1.69163, 1.69079, 1.69121, 1.69079, 1.69122, 1.69084, 1.69038, 1.69341, 1.69302, 1.69366, 1.69368, 1.69346, 1.69312, 1.70261, 0.00384695, 1.76008, 1.6986, 1.88242, 1.86911, 1.75973, 1.75821, 1.68151, 1.67941, 1.67922, 1.6792, 1.67296, 1.67243, 1.67842, 0.00392376, 1.64952, 1.64816, 1.64887, 1.64916, 1.66229, 1.75779, 1.79689, 1.76594, 1.73858, 1.67599, 1.68146, 1.69273, 1.69162, 0.00415924, 1.797, 0.00418993, 1.69938, 1.70454, 1.71016, 1.70669, 1.70619, 1.77864, 1.75578, 0.00422214, 1.77541, 1.76557, 1.77096, 1.77225, 1.77128, 1.77151, 1.81834, 1.82099, 1.82358, 1.82109, 1.81432, 1.81485, 1.78828, 1.78693, 1.79575, 1.79528, 1.83679, 1.79793, 1.79827, 1.79825, 1.79777, 0.00371664, 0.00398001, 0.00436996, 0.00330694, 0.00366401, 0.00441385, 0.00407846, 0.00433934, 0.00376307, 1.84676, 1.8475, 1.84803, 1.84728, 1.84774, 1.85876, 1.85699, 1.85432, 1.87224, 1.86947, 0.0049227, 0.00389576, 0.0047685, 0.00362646, 2.0791, 0.00392362, 0.00468625, 0.0040137, 1.95308, 1.96059, 1.95896, 1.95834, 1.9624, 1.95994, 1.95944, 1.96511, 1.9649, 1.96779, 1.96953, 1.96873, 1.96961, 0.00393461, 1.97943, 0.0038787, 1.98595, 1.99953, 2.00032, 1.99637, 1.99737, 1.99621, 2.00858, 2.00834, 2.0073, 2.00415, 2.02732, 2.0253, 2.02408, 2.02472, 2.03993, 0.00424936, 0.00619579, 0.00346564
0.990927, 1.13073, 1.09407, 1.00022, 1.01827, 1.01098, 1.01959, 1.11708, 1.02976, 1.17737, 1.08385, 1.12632, 1.06754, 1.33361, 1.08103, 1.09703, 1.32279, 1.1769, 1.13439, 1.15052, 1.24327, 1.24356, 1.27093, 1.25009, 1.17456, 1.38126, 1.24999, 1.26497, 1.35864, 1.38269, 1.3023, 1.22709, 1.22894, 1.22957, 1.27811, 1.3853, 1.28858, 1.26065, 1.21897, 1.21942, 1.22101, 1.22856, 1.22586, 1.34781, 1.34519, 1.35486, 1.35148, 1.34477, 1.35196, 1.29957, 1.31638, 1.32437, 1.32731, 1.33218, 1.33266, 1.33942, 1.3327, 1.33323, 1.33439, 1.34466, 1.37394, 1.47288, 1.34881, 1.37277, 1.41298, 1.39958, 1.40952, 1.44687, 1.46401, 1.33749, 0.00387683, 1.34177, 1.25586, 1.26042, 1.24696, 1.25021, 1.24082, 1.33924, 1.28228, 1.24611, 1.24849, 1.25801, 1.31706, 1.24113, 1.2986, 1.29949, 1.28534, 1.27587, 1.27179, 1.25516, 1.26945, 1.2926, 1.24698, 1.24897, 1.28714, 1.25746, 1.27062, 1.28143, 1.31574, 1.27299, 1.27297, 1.32674, 1.28667, 1.33655, 1.33204, 1.30166, 1.29702, 1.29759, 1.31686, 1.30778, 1.30735, 1.36536, 1.37183, 1.38893, 1.38916, 1.41114, 1.37394, 1.38569, 1.39006, 1.44451, 1.4161, 1.41239, 1.41031, 1.46773, 1.48676, 1.49883, 1.4792, 1.47902, 1.53383, 0.00388094, 1.48691, 1.43352, 1.43305, 1.43311, 1.4263, 1.48224, 1.50263, 1.49358, 1.55856, 1.62016, 1.57843, 1.52357, 1.56072, 1.49267, 1.48525, 1.65192, 0.00407316, 1.72811, 1.61499, 1.63046, 1.69291, 1.62414, 0.0038765, 1.70411, 0.00335668, 1.60664, 1.61666, 1.63082, 1.62451, 1.84521, 1.83025, 1.7882, 1.79241, 1.68212, 1.68541, 1.69058, 1.81385, 1.69092, 0.00399874, 1.75519, 1.79055, 1.77611, 1.92781, 1.75153, 1.72988, 1.73753, 1.75872, 1.73184, 1.68842, 1.74043, 1.72837, 1.69576, 1.6941, 1.70397, 1.65616, 1.65567, 1.77964, 1.69265, 1.67168, 1.67231, 1.66168, 1.66161, 1.66476, 1.65465, 1.65041, 1.64694, 1.64755, 1.65127, 1.65328, 1.65405, 1.65601, 1.65583, 1.77276, 1.6764, 1.6757, 1.67827, 1.67538, 1.67357, 1.67286, 1.68834, 0.00361389, 1.6988, 1.69986, 1.70935, 0.00410035, 1.77338, 1.77532, 1.74571, 0.00391665, 1.77882, 0.00402219, 1.80314, 0.00374928, 1.81461, 1.77481, 1.77662, 1.77826, 1.77755, 1.77726, 1.78034, 1.7865, 1.78647, 1.7855, 1.78578, 1.78713, 1.81134, 1.7954, 1.79375, 1.78448, 1.78361, 1.90732, 1.90606, 0.00401137, 1.84565, 0.00428414, 1.82368, 1.82287, 1.83436, 1.83341, 1.82759, 0.00426167, 1.84011, 0.00403654, 0.00402351, 0.00463238, 1.85619, 0.00409743, 1.85934, 1.89384, 1.87832, 0.00412034, 0.00366006, 0.00390302, 0.00426077, 0.00442129, 1.93115, 0.00417396, 0.00350515, 0.00457462, 1.95893, 1.95806, 1.96136, 1.96551, 1.96634, 1.96795, 1.96761, 1.96298, 1.96023, 0.00392602, 0.00333605, 0.00416068, 0.0037304, 2.00038, 1.99688, 1.99836, 1.99726, 1.9968, 1.99572, 1.99478, 2.00008, 2.00787, 2.01507, 2.01487, 2.0226, 2.02169, 2.02149, 0.00405872, 2.04945, 0.00376911, 0.00353019
0.960304, 1.0403, 0.991238, 1.01333, 1.00673, 1.00879, 1.00944, 1.01454, 1.06472, 1.09541, 1.14287, 1.14227, 1.12829, 1.08003, 1.08394, 1.12318, 1.08284, 1.10123, 1.31656, 1.14766, 1.12262, 1.12245, 1.25143, 1.23955, 1.24413, 1.39482, 1.37915, 1.19374, 1.24588, 1.33118, 1.21614, 1.21516, 1.21857, 1.27457, 1.21305, 1.25087, 1.26776, 1.23735, 1.20725, 1.20893, 1.3185, 1.33324, 1.22414, 1.39332, 1.26357, 1.24206, 1.2482, 1.36902, 1.36088, 1.35999, 1.30887, 1.31063, 1.49228, 1.32818, 1.32886, 1.32901, 1.32907, 1.32868, 1.33141, 1.33278, 1.3356, 1.33646, 1.33456, 1.37261, 1.35432, 1.39337, 1.42975, 1.43301, 1.28897, 1.33633, 1.32037, 1.23387, 1.23341, 1.24074, 1.34741, 1.22591, 1.22135, 1.39121, 1.23301, 1.21124, 1.20948, 1.23654, 1.22707, 1.24187, 1.23947, 1.31359, 1.28472, 1.28761, 1.21322, 1.29576, 1.23402, 1.23757, 1.26499, 1.23655, 1.24824, 1.39259, 1.27732, 1.35812, 1.29556, 1.26668, 1.27182, 1.2785, 1.28012, 1.2863, 1.32339, 1.36174, 1.28338, 1.28428, 1.35983, 1.30264, 1.33114, 1.31149, 1.30043, 1.35107, 1.37381, 1.45719, 1.39141, 1.38408, 1.36718, 1.4447, 1.38915, 1.38803, 1.45056, 1.65111, 1.44572, 1.4015, 1.40029, 1.40943, 1.50015, 1.52232, 1.47409, 1.43456, 1.4322, 1.41695, 1.41518, 1.41613, 1.42404, 1.48079, 1.42295, 1.49384, 1.4896, 1.50643, 1.46282, 1.46175, 1.47023, 1.61073, 1.65515, 1.66075, 1.52693, 0.00398469, 1.81092, 1.81819, 1.65232, 1.67829, 1.67947, 1.65858, 1.67571, 1.66917, 1.60812, 1.61424, 1.93903, 1.93068, 1.84668, 1.81171, 1.81198, 1.87655, 1.83491, 1.7891, 1.78828, 1.70785, 1.80704, 1.75055, 1.76125, 1.7725, 1.75631, 1.70394, 1.63911, 1.69139, 1.69518, 1.65303, 1.64462, 1.68295, 1.70712, 1.71718, 1.65516, 1.65415, 1.65397, 1.7269, 1.68694, 1.66207, 1.66089, 1.66056, 1.65754, 1.65317, 1.65356, 1.65393, 1.65389, 1.64469, 1.64356, 1.64734, 1.65155, 1.65168, 1.66417, 1.66456, 1.66133, 1.67147, 1.67122, 1.67118, 1.67114, 1.67156, 1.79685, 0.00435093, 1.7528, 1.74234, 1.75721, 0.00376346, 1.75463, 0.00406229, 1.77848, 1.74171, 1.76977, 1.79584, 1.78969, 0.00369095, 1.77298, 1.80019, 1.80436, 1.77599, 1.7645, 1.76412, 1.76209, 1.76178, 1.77383, 1.77394, 1.8002, 1.78218, 1.78158, 1.78505, 1.78323, 1.78335, 1.86896, 0.00377193, 1.84813, 1.85176, 1.82037, 1.82096, 1.82166, 1.82038, 1.82, 1.8618, 1.81607, 1.83841, 1.85179, 1.79944, 1.85536, 0.00417152, 0.00384414, 1.87124, 1.87304, 1.87154, 1.86799, 1.86661, 1.88629, 1.88422, 1.89385, 0.00411578, 0.00354524, 0.00412528, 0.00372949, 1.96023, 1.957, 1.95622, 1.9551, 1.95461, 1.95319, 1.95009, 1.9493, 1.94997, 1.94946, 0.00359252, 0.00351434, 0.00394102, 1.99321, 1.98899, 1.99605, 1.9904, 1.99277, 1.99345, 1.99135, 1.99778, 2.00132, 0.00387164, 2.08886, 0.00377556, 2.08365, 2.08198, 2.08077, 0.00383138, 0.00485341, 0.00417928
0.982253, 0.983377, 1.05893, 1.01195, 1.01395, 1.0235, 1.04282, 1.00933, 1.0141, 1.04217, 1.02162, 1.02705, 1.12551, 1.04027, 1.04946, 1.10237, 1.06433, 1.08754, 1.08784, 1.09486, 1.13578, 1.17939, 1.19483, 1.21753, 1.24971, 1.24287, 1.29896, 1.26055, 1.23575, 1.29623, 1.21655, 1.20476, 1.2059, 1.20669, 1.20531, 1.20365, 1.2035, 1.20313, 1.20363, 1.20419, 1.37137, 1.23664, 1.22006, 1.31247, 1.27411, 1.23594, 1.24108, 1.2515, 1.32212, 1.31449, 1.30303, 1.30869, 1.32663, 1.32327, 1.32879, 1.32946, 1.33057, 1.33197, 1.33228, 1.33244, 1.33318, 1.33669, 1.32839, 1.37217, 1.34, 1.38764, 1.41592, 1.42374, 1.40574, 1.23628, 1.23595, 1.22469, 1.22549, 1.22814, 1.22783, 1.21928, 1.20931, 1.20469, 1.23417, 1.23277, 1.19461, 1.20578, 1.20931, 1.24395, 1.21323, 1.19965, 1.19173, 1.36583, 1.20178, 1.21013, 1.26875, 1.22882, 1.22929, 1.26685, 1.23999, 1.40008, 1.23516, 1.23346, 1.23363, 1.24823, 1.26428, 1.26472, 1.26602, 1.27165, 1.27923, 1.33384, 1.27085, 1.31719, 1.28238, 1.2828, 1.31402, 1.32221, 1.33721, 1.30166, 1.35217, 1.34103, 1.38826, 1.31906, 1.33714, 1.34579, 1.37615, 1.42676, 1.36565, 1.36782, 1.4791, 1.40898, 0.00343435, 1.47953, 1.42965, 1.43003, 1.422, 1.40534, 1.4063, 1.40507, 1.40622, 1.43024, 1.42423, 1.42033, 1.41987, 1.47566, 1.49375, 1.47835, 1.45653, 1.45995, 1.46152, 1.47097, 1.59222, 1.54759, 1.60189, 1.59715, 1.60242, 1.60206, 0.00391565, 1.55144, 1.56459, 1.56496, 1.55426, 1.59865, 1.59904, 1.9181, 1.91848, 1.59601, 0.00404817, 0.00360525, 0.00350551, 0.00367827, 1.74142, 1.9184, 1.87902, 2.09796, 0.00395219, 1.65265, 1.64211, 0.00453834, 0.00416955, 1.6681, 1.63176, 1.63147, 1.72374, 1.81901, 1.81999, 1.74157, 1.8035, 1.80404, 1.66134, 1.65543, 1.68381, 1.67135, 0.00352233, 1.75757, 1.7796, 1.738, 1.65328, 1.65184, 1.65095, 1.65194, 1.65367, 1.72758, 1.724, 1.75668, 1.75833, 1.72434, 1.66339, 1.66102, 1.6607, 1.66071, 1.67181, 1.67218, 1.75428, 1.74915, 1.73891, 1.70802, 1.70923, 1.70808, 1.70863, 1.74938, 1.72053, 1.72059, 1.76961, 1.74161, 1.7768, 1.77643, 0.00368765, 1.76565, 1.76653, 1.77659, 1.77513, 1.77558, 1.7534, 1.75332, 1.75414, 1.75279, 0.0039722, 1.76699, 1.76587, 1.76545, 1.7682, 1.79631, 0.00391093, 1.78893, 1.78926, 0.0118244, 0.00363871, 1.83459, 1.81301, 1.81879, 1.82429, 1.80997, 1.81026, 1.86114, 1.83759, 1.80979, 1.80107, 1.80033, 1.80032, 1.80739, 1.80473, 1.86947, 0.00363569, 1.83459, 1.85951, 1.8582, 0.00369726, 1.88278, 0.00381173, 1.90415, 0.0038708, 1.90834, 1.91926, 1.92155, 1.95636, 1.95521, 1.95429, 1.9526, 1.95173, 1.94826, 1.9456, 1.94306, 1.9415, 1.94164, 0.00393271, 1.99713, 0.00443802, 1.98885, 1.98716, 1.98599, 1.9859, 1.98574, 1.98621, 1.99378, 0.00397915, 1.98919, 1.98855, 1.98888, 0.00407268, 1.99596, 0.0038984, 0.00415809, 2.06264, 2.09067
1.06106, 1.09668, 0.976591, 0.984275, 0.981573, 0.99779, 1.013, 1.01546, 1.17126, 1.02603, 1.01398, 1.01473, 1.04977, 1.04188, 1.03097, 1.08873, 1.07118, 1.09081, 1.08189, 1.08257, 1.25234, 1.28448, 1.24396, 1.18067, 1.20008, 1.19218, 1.24282, 1.21656, 1.28475, 1.25063, 1.24319, 1.41643, 1.25136, 1.26778, 1.21627, 1.20285, 1.21064, 1.22473, 1.20994, 1.21108, 1.21136, 1.21412, 1.21531, 1.22129, 1.3015, 1.30221, 1.25271, 1.25364, 1.2774, 1.32333, 1.32435, 1.32326, 1.33613, 1.33944, 1.34348, 1.35677, 1.33463, 1.33399, 1.3328, 1.33039, 1.33173, 1.34853, 1.3582, 1.35698, 1.30224, 1.38533, 1.40954, 1.42328, 1.30131, 1.22955, 1.22047, 1.22203, 1.22171, 1.22041, 1.2249, 1.36663, 1.20201, 1.19815, 1.18885, 1.22577, 1.17834, 1.17814, 1.21418, 1.21406, 1.17661, 1.17639, 1.1779, 1.25335, 1.18886, 1.19421, 1.20262, 1.27958, 1.20729, 1.22918, 1.27172, 1.22222, 1.2234, 1.24869, 1.22276, 1.2243, 1.23652, 1.25402, 1.28596, 1.27906, 1.2613, 1.31658, 1.27992, 1.34153, 1.33017, 1.33821, 1.27929, 1.28102, 1.44071, 1.29436, 1.32122, 1.31628, 1.31714, 1.40798, 1.40748, 1.34371, 1.38133, 1.35876, 1.36829, 1.37181, 1.39921, 1.42306, 1.36043, 1.36071, 1.42652, 1.39705, 1.48047, 1.4378, 1.55143, 1.55218, 1.42089, 1.43601, 1.39645, 1.47404, 1.50313, 1.43432, 1.43871, 1.45802, 1.58244, 1.52465, 1.6464, 1.5543, 1.47103, 1.6487, 1.64809, 1.61635, 1.63915, 2.0662, 2.19802, 0.00401955, 1.5274, 1.54943, 1.54054, 0.0039875, 1.58586, 0.00392995, 1.62579, 0.00408844, 1.64986, 0.00369589, 1.7275, 0.00389776, 1.61046, 1.61283, 1.61667, 1.61554, 1.61527, 1.60759, 1.60304, 1.6039, 0.00368474, 1.62809, 1.64477, 1.64771, 1.62728, 1.59773, 1.6187, 1.64053, 1.65425, 1.64579, 1.63058, 1.65164, 1.77338, 1.6545, 1.63802, 1.68649, 1.70772, 1.74233, 1.70311, 1.68185, 1.77803, 1.66975, 1.66001, 1.66426, 1.70757, 1.7618, 1.67825, 1.67571, 1.67519, 1.66939, 1.66745, 1.66622, 1.76534, 1.75739, 1.75632, 1.73049, 1.72694, 1.71273, 1.71188, 1.71069, 1.70948, 1.70984, 1.72156, 1.72425, 1.72466, 1.73345, 1.73342, 1.73535, 1.76869, 0.00423826, 1.80679, 1.74899, 1.75118, 1.79406, 1.78255, 1.75471, 1.78144, 1.75381, 1.7583, 1.7547, 1.75483, 0.0041141, 1.82923, 0.00346785, 0.00422331, 1.77486, 1.77351, 1.77267, 1.81377, 0.00398212, 1.79244, 1.79279, 1.79618, 0.00396529, 1.82569, 1.80429, 1.81201, 1.78936, 1.7878, 1.78678, 1.7833, 1.7965, 1.79578, 1.79321, 1.8105, 1.93011, 0.00402833, 0.0036671, 1.86101, 0.0041517, 1.87581, 1.8761, 1.87537, 0.00402784, 1.89995, 0.00377715, 1.92706, 1.98363, 1.94501, 1.95188, 1.94567, 1.94454, 1.9462, 1.94532, 1.9447, 1.93913, 1.94012, 0.00413952, 0.00392256, 0.00385233, 1.9703, 1.97747, 1.97959, 1.978, 1.97629, 1.97735, 0.00415411, 1.9901, 1.98664, 1.97485, 1.97688, 1.98059, 1.97716, 1.97592, 1.97409, 0.00404181
1.05687, 0.95009, 0.988736, 0.997398, 0.972695, 0.96487, 0.998894, 0.985277, 1.16136, 0.990763, 0.991881, 1.01245, 1.11471, 1.02116, 1.11254, 1.04322, 1.04282, 1.18279, 1.07701, 1.06241, 1.07121, 1.07214, 1.28867, 1.23651, 1.11929, 1.26504, 1.26109, 1.18154, 1.17753, 1.17353, 1.27374, 1.23485, 1.23437, 1.23386, 1.20005, 1.20145, 1.28803, 1.21188, 1.21161, 1.21265, 1.21548, 1.21723, 1.2235, 1.36477, 1.24343, 1.25165, 1.25616, 1.26548, 1.26978, 1.3451, 1.33353, 1.36768, 1.36239, 1.32625, 1.35132, 1.35186, 1.35656, 1.32347, 1.32437, 1.33373, 1.32343, 1.35481, 1.33282, 1.35542, 1.32083, 1.39364, 1.38282, 1.22245, 1.21578, 1.21203, 1.2108, 1.21143, 1.21166, 1.21605, 1.28891, 1.20067, 1.2371, 1.19545, 1.22572, 1.23326, 1.17836, 1.17415, 1.18065, 1.17241, 1.22611, 1.21945, 1.20205, 1.21852, 1.22773, 1.19762, 1.19875, 1.20594, 1.20853, 1.21004, 1.20951, 1.21599, 1.22855, 1.22015, 1.22321, 1.2235, 1.2348, 1.24838, 1.24375, 1.30805, 1.26913, 1.27439, 1.25612, 1.25766, 1.27773, 1.28507, 1.2711, 1.28964, 1.31657, 1.30258, 1.31225, 1.41439, 1.33098, 1.3827, 1.37422, 1.31344, 1.36279, 1.36764, 1.38836, 1.39357, 1.39503, 1.34, 1.39125, 1.34216, 1.4576, 1.45486, 1.40939, 1.4861, 1.41732, 1.49095, 1.45214, 1.49855, 1.46294, 1.39627, 1.4003, 1.45854, 1.45757, 1.44048, 1.4188, 1.49942, 1.41986, 1.43101, 1.62219, 1.4395, 1.53085, 1.52118, 1.61968, 1.53518, 0.00373527, 2.09732, 0.00401672, 1.50606, 1.52221, 1.52982, 1.53602, 1.55595, 1.64162, 2.21429, 0.00390884, 1.58387, 0.00452066, 0.00444905, 0.00362186, 1.58846, 2.08063, 1.56243, 1.72454, 1.74403, 1.58493, 1.56754, 1.68665, 1.70248, 1.52958, 1.6217, 1.60188, 1.60065, 0.00386614, 1.59865, 1.59632, 1.59683, 1.63472, 1.61517, 1.62083, 1.65525, 1.66909, 1.67292, 1.7001, 1.69976, 1.68418, 1.72077, 1.67355, 1.75289, 1.76442, 1.70409, 1.68846, 1.75911, 0.00410771, 1.67964, 1.67507, 1.67434, 1.67343, 1.67306, 0.00404428, 1.76716, 1.69317, 1.70006, 1.70899, 1.70776, 1.70923, 1.71322, 1.71263, 1.71374, 1.74521, 1.74507, 1.76483, 1.76087, 1.75113, 1.73318, 1.73309, 1.73371, 1.73418, 1.7341, 1.74785, 1.7474, 1.74623, 1.73506, 1.77769, 1.77825, 1.75876, 1.75854, 1.75812, 1.75806, 1.75779, 1.78292, 0.00443232, 1.79004, 1.80044, 1.76774, 1.76992, 1.77039, 1.77909, 1.77832, 1.77689, 1.77992, 1.77955, 1.82082, 1.77931, 1.77888, 1.77374, 1.7726, 1.77156, 1.8, 1.79968, 1.79818, 1.79783, 1.92432, 0.00384202, 1.84882, 1.84776, 1.86105, 0.0144547, 1.87381, 0.00391297, 1.89676, 0.00412063, 1.89875, 0.00448883, 0.00410209, 1.95213, 0.00331742, 1.94729, 1.94783, 1.94509, 1.94152, 1.94041, 1.94033, 1.93853, 1.9388, 0.0037296, 0.00447948, 0.00419905, 1.96854, 1.97972, 1.9809, 1.97759, 1.9683, 1.96666, 1.96883, 1.969, 1.96798, 1.96836, 1.96947, 1.97923, 1.97794, 1.97663, 1.97591
0.949447, 0.969891, 0.927577, 0.928519, 0.936141, 0.9867, 1.00288, 1.00104, 0.981876, 0.9988, 1.02559, 0.999679, 1.00666, 1.01388, 1.01393, 1.02332, 1.02944, 1.03673, 1.04676, 1.04994, 1.06338, 1.09491, 1.20881, 1.26186, 1.088, 1.28877, 1.18031, 1.13389, 1.16879, 1.15154, 1.24328, 1.21779, 1.23454, 1.19157, 1.20091, 1.19671, 1.19813, 1.20894, 1.21165, 1.2151, 1.21948, 1.2501, 1.22427, 1.22537, 1.22954, 1.27444, 1.35753, 1.36858, 1.26071, 1.32704, 1.33793, 1.27805, 1.27488, 1.3541, 1.3062, 1.33072, 1.34704, 1.32742, 1.33115, 1.32759, 1.30688, 1.33774, 1.33503, 1.31273, 1.31236, 1.36174, 1.3927, 1.23002, 1.22191, 1.21672, 1.2095, 1.20824, 1.23673, 1.23419, 1.19137, 1.19057, 1.1826, 1.18111, 1.17426, 1.16689, 1.16741, 1.1677, 1.16713, 1.16891, 1.17021, 1.17101, 1.17334, 1.19685, 1.21638, 1.189, 1.19207, 1.19543, 1.19743, 1.24224, 1.22634, 1.20517, 1.38607, 1.22024, 1.21479, 1.21543, 1.2191, 1.24394, 1.23407, 1.23161, 1.30659, 1.23315, 1.30402, 1.25292, 1.26048, 1.25057, 1.25227, 1.32917, 1.27906, 1.27603, 1.30274, 1.30241, 1.30237, 1.42528, 1.32334, 1.34073, 1.2949, 1.42002, 1.39209, 1.36853, 1.36103, 1.38511, 1.37908, 1.32593, 1.38413, 1.38744, 1.38814, 1.3812, 1.4539, 1.45654, 1.3728, 1.475, 1.47538, 1.46106, 1.45483, 1.39822, 1.55541, 1.44268, 1.57223, 1.57133, 1.4866, 1.41513, 1.41654, 1.41752, 1.42608, 0.0039616, 1.51689, 0.00365273, 1.66033, 0.00381091, 1.48255, 1.49191, 1.50212, 0.00422684, 1.51914, 1.66854, 1.56297, 1.55967, 2.10823, 1.68308, 1.53086, 1.70526, 1.7028, 1.75039, 1.67902, 1.78832, 1.78538, 0.00364241, 1.53648, 1.53613, 1.53559, 1.53429, 1.53097, 1.52951, 1.53137, 1.62206, 1.56809, 0.00390407, 1.77461, 1.66208, 1.60032, 1.58331, 1.58985, 1.58902, 1.62729, 1.63362, 1.63333, 1.65817, 1.66972, 1.64552, 1.72543, 1.68303, 1.61688, 1.70192, 1.71135, 1.63067, 1.70634, 1.70303, 1.76864, 1.73535, 1.72364, 1.7312, 1.70387, 1.76983, 1.76555, 1.76049, 1.76195, 1.75917, 1.7009, 1.78587, 1.78285, 1.77985, 1.7876, 1.76995, 1.76883, 1.77242, 1.78413, 1.71854, 1.78601, 1.74447, 1.77629, 0.00425014, 1.78245, 1.73806, 1.7368, 1.73537, 1.73138, 1.7374, 1.73682, 1.73839, 1.73838, 1.75418, 1.74668, 1.75286, 1.75315, 1.75157, 1.75939, 1.75772, 1.7563, 0.00343312, 1.77511, 0.0039006, 1.80563, 1.80428, 1.80364, 1.77048, 1.76468, 1.75675, 1.75561, 1.75377, 1.79993, 1.79912, 1.79891, 1.79881, 1.79894, 1.80392, 1.9783, 0.00380216, 1.84466, 0.00388286, 1.85271, 0.00427651, 1.87176, 0.00374815, 0.00378751, 0.00390577, 0.00479313, 0.00383824, 0.0041042, 0.00391219, 1.95192, 1.94636, 1.94548, 1.95058, 1.94143, 0.00372443, 1.96172, 1.96463, 1.96268, 1.96237, 1.96116, 0.00372438, 0.00415966, 0.00393589, 2.01456, 0.00393702, 1.96485, 1.96449, 1.96397, 1.96803, 1.9688, 1.96799, 1.96727, 1.96481, 1.96516, 1.96321
0.89135, 0.998762, 0.914675, 0.926012, 0.929748, 0.953391, 0.939085, 0.952832, 0.959774, 1.10563, 0.975303, 0.987332, 1.01867, 1.02573, 1.01242, 1.01384, 1.01703, 1.02561, 1.08735, 1.14849, 1.05075, 1.14001, 1.24262, 1.24125, 1.21499, 1.17459, 1.18156, 1.19983, 1.13753, 1.13707, 1.1553, 1.16551, 1.18115, 1.18204, 1.2856, 1.18664, 1.1952, 1.20434, 1.38303, 1.32304, 1.21581, 1.24051, 1.22197, 1.29463, 1.26368, 1.22547, 1.24748, 1.2439, 1.2653, 1.24562, 1.2489, 1.25346, 1.25346, 1.28827, 1.34743, 1.34477, 1.30989, 1.29693, 1.31999, 1.3208, 1.29877, 1.29579, 1.2957, 1.28573, 1.25327, 1.25147, 1.2431, 1.22323, 1.21626, 1.21181, 1.23213, 1.20078, 1.19801, 1.19109, 1.26737, 1.18086, 1.18024, 1.17668, 1.18599, 1.16853, 1.16814, 1.19853, 1.16748, 1.19489, 1.17143, 1.17412, 1.17599, 1.19111, 1.18701, 1.18679, 1.18703, 1.18643, 1.18745, 1.19306, 1.19547, 1.19659, 1.20056, 1.20439, 1.20429, 1.29848, 1.21236, 1.23257, 1.23966, 1.22688, 1.22784, 1.23342, 1.23451, 1.23393, 1.23558, 1.236, 1.23722, 1.24751, 1.27294, 1.24691, 1.29261, 1.28093, 1.2573, 1.2575, 1.26131, 1.26154, 1.44845, 1.32515, 1.32589, 1.3278, 1.28608, 1.31202, 1.34334, 1.32709, 1.33018, 1.31874, 1.31716, 1.40137, 1.33315, 1.47507, 1.38075, 1.42994, 1.36471, 1.36126, 1.44823, 1.47855, 1.47791, 1.4169, 1.4714, 1.4916, 1.48621, 1.48825, 1.48537, 1.40206, 1.40516, 1.40454, 1.492, 2.24897, 0.00382056, 1.46414, 0.00380084, 1.46845, 0.00403219, 1.48696, 1.51156, 1.54825, 1.63984, 1.58889, 1.61769, 1.57487, 1.55909, 1.59898, 0.00368115, 2.13925, 1.57179, 1.57557, 0.00362679, 1.83319, 0.00390056, 1.72334, 1.53756, 1.52633, 0.00389539, 1.51618, 1.51238, 1.51341, 1.51289, 1.51277, 1.64687, 1.76533, 1.60143, 1.57085, 1.57933, 1.55208, 1.58837, 1.55054, 1.58497, 1.59925, 1.65796, 1.64192, 1.6141, 1.63839, 1.67985, 1.67763, 1.61643, 1.66903, 1.7812, 1.70285, 1.67151, 1.74318, 1.71456, 1.72153, 1.71389, 1.73126, 1.6751, 1.73906, 1.74037, 1.798, 1.80771, 1.79682, 1.79031, 1.76076, 1.87962, 1.79976, 1.779, 1.79174, 1.76256, 1.7631, 1.79301, 1.75471, 1.91708, 1.77275, 1.79711, 1.75154, 1.74916, 1.73878, 1.73875, 1.74005, 1.7381, 1.73705, 1.73399, 1.75206, 1.7404, 1.74845, 1.7476, 1.74516, 1.7755, 1.77337, 1.7808, 1.7654, 0.00382004, 1.78566, 1.77194, 1.75812, 1.75517, 1.75508, 1.7523, 1.74803, 1.75485, 1.75506, 1.76118, 1.77754, 1.81317, 1.79411, 1.79367, 0.00403448, 0.00391418, 1.82375, 0.00386785, 0.00365443, 0.00446132, 1.85308, 0.00418952, 1.865, 0.00375947, 1.87956, 0.00376624, 0.00334865, 0.00393175, 0.0047941, 0.00412632, 1.94555, 0.00420447, 0.00438581, 1.96793, 1.96687, 1.96464, 1.96262, 1.95992, 1.93816, 1.93664, 0.00312669, 0.00388649, 1.92507, 1.92421, 1.93415, 0.00422937, 1.95253, 1.96373, 1.96332, 1.96569, 1.9653, 1.96299, 1.96144, 1.962, 1.96072
1.00609, 0.974771, 1.04008, 0.957278, 1.06817, 1.04747, 0.970847, 1.10337, 1.08605, 0.958721, 1.10596, 0.984364, 0.99436, 0.988477, 0.998761, 1.00627, 1.02039, 1.02545, 1.02961, 1.04714, 1.12382, 1.12673, 1.04605, 1.12427, 1.22735, 1.0905, 1.12928, 1.10615, 1.20943, 1.28112, 1.26428, 1.18904, 1.31203, 1.31826, 1.1909, 1.24606, 1.26249, 1.28452, 1.18185, 1.22573, 1.2069, 1.20882, 1.22312, 1.21233, 1.23508, 1.36108, 1.28876, 1.24463, 1.30275, 1.32604, 1.33444, 1.34324, 1.34107, 1.26045, 1.27764, 1.28138, 1.27115, 1.29237, 1.26772, 1.26848, 1.26896, 1.26618, 1.27352, 1.26128, 1.29233, 1.23693, 1.30165, 1.21632, 1.24808, 1.20643, 1.19799, 1.1958, 1.19463, 1.18782, 1.20599, 1.18032, 1.17439, 1.17299, 1.17367, 1.17204, 1.17134, 1.17153, 1.17246, 1.17279, 1.17537, 1.17874, 1.18077, 1.18255, 1.18212, 1.18273, 1.18315, 1.18435, 1.18665, 1.18857, 1.1935, 1.19713, 1.19734, 1.19871, 1.20282, 1.20374, 1.20741, 1.22254, 1.22508, 1.22564, 1.23059, 1.31858, 1.23016, 1.23171, 1.23244, 1.23288, 1.23262, 1.24346, 1.46128, 1.23946, 1.24018, 1.28594, 1.24664, 1.24712, 1.24835, 1.24947, 1.25725, 1.30491, 1.26764, 1.27219, 1.28049, 1.28077, 1.38796, 1.38913, 1.31661, 1.31567, 1.3168, 1.31392, 1.32704, 1.33558, 1.32566, 1.32654, 1.35458, 1.36404, 1.34643, 1.34804, 1.37452, 1.38236, 1.36724, 1.42263, 1.40178, 1.45759, 1.39618, 1.39612, 1.39538, 1.39503, 1.50969, 1.40188, 1.40549, 1.41843, 1.4186, 1.58145, 1.45853, 1.47301, 1.48515, 1.49286, 1.5371, 1.54023, 1.4672, 1.45802, 1.57084, 1.46569, 1.59697, 1.50255, 1.56208, 1.50996, 1.60921, 1.58215, 1.53935, 1.54539, 1.538, 1.52479, 2.06201, 1.52936, 1.50448, 1.50217, 1.51547, 1.51588, 1.56581, 1.52745, 1.52832, 1.64224, 1.54041, 1.68328, 1.5649, 1.58479, 1.59354, 1.58871, 1.58028, 1.56538, 1.59337, 1.63708, 1.62421, 1.63487, 1.60283, 1.62153, 1.60917, 1.70869, 1.71703, 1.66998, 1.68489, 1.68232, 1.67601, 1.69023, 1.67931, 1.73794, 1.71481, 1.72288, 1.92024, 1.91902, 1.79563, 1.84847, 1.79625, 1.86555, 1.75165, 1.76686, 1.76922, 1.78883, 1.7887, 1.75902, 1.73036, 1.72829, 1.73848, 1.83456, 1.72619, 1.74051, 1.81432, 1.73909, 1.73872, 1.7373, 1.73672, 1.73505, 1.74257, 1.74116, 1.77719, 1.74257, 1.74261, 1.73533, 1.73655, 1.73635, 1.73726, 1.73885, 1.77164, 1.75455, 1.74913, 1.75187, 1.75142, 1.75107, 1.75397, 1.77285, 1.77465, 1.76553, 1.79605, 1.80292, 1.79735, 0.00391174, 0.00393214, 0.00410753, 0.00310785, 0.00382804, 0.00441752, 0.00399837, 0.00450308, 0.00424675, 1.87922, 0.00378707, 0.00418967, 0.00424321, 0.00352269, 0.00377335, 0.00357708, 0.00376369, 0.00338177, 0.00416294, 1.96949, 1.96873, 1.96807, 0.00365338, 1.92146, 1.90949, 1.90937, 1.91092, 1.91586, 1.91341, 1.9079, 1.92098, 1.92357, 0.00392039, 0.00396374, 0.0038301, 1.96838, 1.96717, 1.96729, 1.96533, 1.96563, 1.97496
0.867278, 0.965434, 0.879979, 1.00127, 0.967174, 0.897836, 0.917391, 0.91966, 0.92126, 1.04338, 1.09144, 0.987425, 1.02045, 0.979856, 1.04374, 1.01283, 1.00871, 1.03577, 1.02667, 1.06304, 1.02857, 1.0351, 1.03921, 1.04292, 1.17789, 1.0668, 1.18304, 1.14865, 1.20791, 1.12526, 1.12104, 1.14146, 1.30936, 1.16295, 1.31688, 1.33496, 1.3271, 1.27194, 1.24472, 1.23403, 1.26428, 1.23363, 1.28227, 1.23933, 1.23978, 1.29489, 1.32212, 1.25329, 1.24968, 1.20754, 1.20295, 1.33752, 1.33713, 1.33703, 1.3121, 1.30967, 1.27056, 1.25396, 1.26482, 1.28777, 1.28849, 1.26658, 1.2779, 1.26151, 1.27125, 1.22597, 1.32559, 1.2305, 1.20687, 1.20488, 1.20155, 1.19894, 1.19333, 1.24716, 1.24408, 1.18387, 1.17487, 1.17236, 1.172, 1.17124, 1.17323, 1.17382, 1.17554, 1.17721, 1.18154, 1.18004, 1.1797, 1.17881, 1.18045, 1.1816, 1.1838, 1.18692, 1.18798, 1.19522, 1.19513, 1.19786, 1.19919, 1.20202, 1.20421, 1.20473, 1.2203, 1.2218, 1.22178, 1.21866, 1.2214, 1.22206, 1.22189, 1.22234, 1.22349, 1.22367, 1.22347, 1.23845, 1.23658, 1.23072, 1.23612, 1.27493, 1.24398, 1.26249, 1.24015, 1.24038, 1.24338, 1.2502, 1.26163, 1.32183, 1.26389, 1.3474, 1.37754, 1.29909, 1.38879, 1.37236, 1.36008, 1.33592, 1.30919, 1.31116, 1.31377, 1.32937, 1.3782, 1.34605, 1.35427, 1.36216, 1.33912, 1.41212, 1.39199, 1.37835, 1.35239, 1.34556, 1.38023, 1.3577, 1.40665, 1.39838, 1.38899, 1.40699, 1.40568, 1.40553, 1.40873, 1.55932, 0.00412419, 1.44768, 0.00383738, 1.43396, 1.43595, 1.51954, 0.00379187, 1.42444, 0.00359971, 1.44553, 1.53885, 1.50659, 0.00349411, 1.58285, 1.54906, 1.5723, 0.00343422, 2.22431, 1.56864, 2.14306, 0.00381879, 1.49409, 1.49547, 1.49595, 1.53304, 1.66156, 1.69659, 2.14204, 2.09331, 1.54223, 0.00379279, 1.50026, 1.5549, 1.56562, 1.5661, 1.57947, 1.57884, 1.57849, 1.5753, 1.63768, 1.5896, 1.61283, 1.63116, 1.60016, 1.6105, 1.58857, 0.00376411, 1.70522, 1.6413, 1.71448, 1.68118, 1.59232, 1.59263, 1.68244, 1.74329, 1.86923, 1.86795, 1.76554, 1.8219, 1.87162, 1.74849, 1.74833, 1.85906, 1.74165, 1.83502, 1.84165, 1.71749, 1.72331, 1.82793, 1.73997, 1.80315, 1.73125, 1.73077, 1.71634, 1.71549, 1.73075, 1.7319, 1.73017, 1.729, 1.7284, 1.73025, 1.7339, 1.73219, 1.73408, 1.7334, 1.73414, 1.73348, 1.73339, 1.73392, 1.74132, 1.74068, 1.74075, 1.74232, 1.74871, 1.7478, 1.74717, 1.74758, 1.7566, 0.00360787, 1.78668, 1.78795, 1.7793, 0.00381477, 1.81415, 0.00383849, 1.81272, 1.81009, 1.83347, 1.82453, 0.00418684, 0.00406853, 1.85865, 0.00423386, 1.86058, 0.00378125, 1.88641, 0.0039255, 0.00393501, 0.00356177, 1.90244, 0.0042188, 1.92879, 1.93462, 1.94352, 0.00382649, 1.93464, 1.91782, 1.91886, 1.92037, 1.92037, 1.90582, 1.90165, 1.89995, 1.89908, 1.94918, 1.94801, 0.00379262, 1.96956, 0.00368572, 0.00451272, 1.96822, 1.97731, 1.97602, 1.97586
0.860043, 0.952791, 0.873213, 0.974977, 0.88546, 0.894305, 0.983716, 0.9914, 0.916127, 1.04604, 1.04113, 0.936834, 1.13853, 1.13672, 0.95298, 0.980915, 1.07149, 1.1915, 1.00228, 1.05383, 1.07733, 1.03049, 1.03555, 1.03596, 1.09508, 1.05926, 1.0604, 1.32611, 1.08094, 1.09537, 1.20395, 1.11536, 1.25769, 1.25349, 1.1424, 1.14171, 1.29181, 1.32588, 1.23359, 1.26484, 1.21305, 1.19436, 1.25539, 1.27688, 1.29556, 1.28076, 1.35507, 1.28486, 1.26735, 1.21898, 1.21768, 1.22316, 1.22128, 1.25684, 1.24026, 1.24308, 1.2364, 1.26476, 1.27444, 1.2545, 1.23649, 1.26868, 1.23347, 1.27948, 1.28162, 1.27352, 1.27594, 1.21243, 1.23389, 1.19763, 1.19536, 1.3284, 1.24759, 1.2714, 1.1759, 1.17559, 1.17639, 1.17045, 1.16692, 1.17, 1.17279, 1.17473, 1.17599, 1.17654, 1.17948, 1.21529, 1.18421, 1.18511, 1.20908, 1.18838, 1.18804, 1.18743, 1.19475, 1.19706, 1.19779, 1.19863, 1.20041, 1.20129, 1.20402, 1.20783, 1.20847, 1.20933, 1.21339, 1.21608, 1.21811, 1.21779, 1.21922, 1.21845, 1.21979, 1.21866, 1.22003, 1.22262, 1.22354, 1.22576, 1.21594, 1.21595, 1.21831, 1.21884, 1.22262, 1.29224, 1.23208, 1.28276, 1.30083, 1.31125, 1.28402, 1.32225, 1.26088, 1.32921, 1.2879, 1.28032, 1.28861, 1.29994, 1.36152, 1.29901, 1.29878, 1.29816, 1.32321, 1.36086, 1.35108, 1.35418, 1.31533, 1.36441, 1.32621, 1.37624, 1.30865, 1.3149, 1.31617, 1.39102, 1.3984, 1.37867, 1.37594, 1.38196, 1.38105, 0.00366311, 1.40234, 1.40295, 1.44804, 1.42957, 1.44391, 0.00390418, 1.4747, 1.41733, 1.41391, 1.52435, 1.43693, 1.44118, 1.43904, 0.00369007, 1.66318, 1.46053, 1.4758, 0.00341707, 1.55161, 2.09442, 1.56891, 0.00371479, 0.00397779, 0.0035455, 2.21059, 0.00368222, 1.53723, 0.0037953, 1.47105, 1.46727, 1.46641, 1.46963, 1.47481, 1.475, 1.55629, 1.48536, 1.48831, 1.48839, 1.48836, 1.49182, 1.59043, 1.55569, 1.55845, 1.61518, 1.61751, 1.59602, 1.62756, 0.00364898, 1.71022, 1.57718, 1.67968, 1.64997, 1.5934, 1.59533, 1.59022, 1.69522, 1.74265, 1.73052, 1.73816, 1.59379, 1.59399, 1.91495, 1.83389, 1.76619, 1.68605, 1.70986, 1.83141, 1.83088, 0.00327092, 0.00420449, 1.73465, 1.7213, 1.72259, 1.72117, 0.00327199, 1.71618, 1.7161, 1.74835, 1.80068, 1.83424, 1.72819, 1.72779, 1.7267, 1.72526, 1.72528, 1.727, 1.72753, 1.73124, 1.73003, 1.72983, 1.73123, 1.73308, 1.7333, 1.76536, 1.73867, 1.73347, 1.74049, 1.73946, 1.76836, 1.75229, 1.79465, 0.00392389, 1.82002, 0.00382988, 1.782, 1.78086, 1.80482, 0.00393484, 0.00343659, 0.00429005, 1.8275, 1.82793, 1.83432, 1.82836, 0.0045847, 0.00397591, 0.0166477, 0.00389156, 1.89216, 0.00398197, 1.88877, 0.00350771, 1.90253, 1.90116, 1.93134, 0.00390933, 1.95116, 0.00394961, 1.92139, 2.01968, 0.0112335, 1.99748, 0.00399904, 0.00351137, 1.90099, 0.00345089, 0.00388576, 0.00344613, 0.00361138, 0.00417693, 0.0042059, 0.003432, 2.05564, 1.97777, 1.9784, 1.97653
0.84589, 0.855543, 0.86458, 0.857436, 0.867757, 0.869492, 0.868302, 0.885757, 0.899012, 0.964505, 0.976029, 0.990833, 0.935433, 1.02175, 0.987934, 1.03382, 0.970574, 0.972158, 1.04556, 0.996377, 1.01747, 1.03695, 1.02953, 1.03241, 1.03189, 1.11655, 1.05428, 1.05347, 1.10026, 1.0863, 1.09388, 1.16921, 1.11257, 1.11233, 1.12107, 1.13228, 1.13311, 1.132, 1.39577, 1.19719, 1.21252, 1.40697, 1.20484, 1.21882, 1.27602, 1.24341, 1.37862, 1.23293, 1.22583, 1.22227, 1.17988, 1.16149, 1.16037, 1.19312, 1.28408, 1.21582, 1.2174, 1.20539, 1.27992, 1.25858, 1.29334, 1.29213, 1.26541, 1.27076, 1.27758, 1.2001, 1.19981, 1.25001, 1.2476, 1.24675, 1.1859, 1.23623, 1.17426, 1.17262, 1.17185, 1.17179, 1.17294, 1.18841, 1.16553, 1.16638, 1.16773, 1.18359, 1.20304, 1.19992, 1.18739, 1.18832, 1.18477, 1.18421, 1.19015, 1.19132, 1.19304, 1.19282, 1.19378, 1.19298, 1.19292, 1.19224, 1.19495, 1.19781, 1.19841, 1.20077, 1.20584, 1.20627, 1.20695, 1.20817, 1.20773, 1.20571, 1.20826, 1.20956, 1.2133, 1.21277, 1.21416, 1.21669, 1.21651, 1.2169, 1.21055, 1.20977, 1.20984, 1.2152, 1.2148, 1.22053, 1.22101, 1.22836, 1.25129, 1.2949, 1.29585, 1.31879, 1.24981, 1.32583, 1.35026, 1.3471, 1.27018, 1.28399, 1.37138, 1.28675, 1.28712, 1.28976, 1.29024, 1.29162, 1.3296, 1.44787, 1.36371, 1.29437, 1.29789, 1.29962, 1.30046, 1.30621, 1.3092, 1.31053, 1.38901, 1.35017, 1.32962, 1.37857, 1.38712, 1.43801, 1.39796, 1.36105, 1.36255, 1.35259, 1.35398, 1.35618, 1.41705, 1.4874, 1.43021, 1.46619, 1.43345, 1.42636, 1.48596, 1.45713, 1.46236, 1.46186, 1.43639, 1.49141, 1.51596, 1.49558, 1.53155, 1.57888, 0.00408385, 1.45263, 2.09617, 1.5993, 1.5158, 1.49489, 1.57845, 1.46489, 1.46419, 1.46599, 1.46966, 1.46912, 1.47218, 1.513, 1.48292, 1.48805, 1.48808, 1.49098, 1.49153, 1.49203, 1.49198, 1.49095, 1.55063, 1.59593, 1.59559, 1.56406, 1.57563, 1.57171, 1.65953, 1.61304, 1.62052, 1.57105, 1.56517, 1.59366, 1.654, 1.65487, 1.57909, 1.57816, 1.57933, 1.73564, 1.61771, 1.64536, 1.75914, 1.83852, 1.69962, 1.67529, 1.79088, 1.69517, 1.69288, 1.6752, 0.00347458, 1.72425, 1.72299, 1.69401, 1.80576, 1.74573, 1.74434, 1.71931, 0.00393385, 1.80278, 1.75153, 1.78573, 1.756, 1.72046, 1.72009, 1.88712, 1.77857, 1.72327, 1.72294, 1.72182, 1.72809, 1.72664, 1.72646, 1.72806, 1.73093, 1.72784, 1.73667, 1.74081, 1.8197, 1.81937, 1.80354, 0.0037038, 1.82375, 1.80439, 1.82291, 0.00446559, 0.00387652, 1.83148, 0.00376983, 1.82678, 1.81494, 1.81526, 1.82065, 1.82062, 1.81708, 1.81931, 1.90427, 1.90647, 0.00397071, 0.00346624, 1.8858, 1.88512, 1.92471, 1.91392, 0.00351275, 2.08771, 0.00337431, 1.86539, 1.86441, 1.86367, 1.86604, 1.9661, 0.00394586, 2.0216, 0.0036619, 0.0042209, 0.00367433, 0.00444404, 0.00455364, 1.93019, 1.92841, 0.00445946, 0.00366265, 1.97802
1.01487, 0.9729, 0.845503, 0.843315, 0.856643, 0.862668, 1.06277, 0.867796, 0.885352, 0.894774, 0.895509, 0.898263, 0.911775, 0.929829, 0.927561, 1.005, 0.952151, 1.03256, 1.03639, 0.982839, 0.990516, 0.99305, 1.00315, 1.01505, 1.02261, 1.02245, 1.1315, 1.13691, 1.13644, 1.14695, 1.15526, 1.16065, 1.09247, 1.18111, 1.21919, 1.22133, 1.12644, 1.12521, 1.11709, 1.11681, 1.11499, 1.11479, 1.25213, 1.23291, 1.21151, 1.3579, 1.28813, 1.26879, 1.13974, 1.21057, 1.14015, 1.27447, 1.27819, 1.23788, 1.24476, 1.14743, 1.23243, 1.15511, 1.27839, 1.18801, 1.29158, 1.2915, 1.28556, 1.29311, 1.2618, 1.28125, 1.27584, 1.2273, 1.22123, 1.18879, 1.17138, 1.17167, 1.17706, 1.17811, 1.17643, 1.1718, 1.173, 1.16898, 1.15931, 1.15979, 1.2301, 1.17392, 1.1705, 1.22899, 1.18654, 1.18821, 1.18865, 1.18392, 1.18474, 1.18867, 1.19228, 1.19168, 1.19083, 1.18912, 1.18889, 1.18815, 1.19521, 1.19528, 1.19544, 1.19626, 1.19939, 1.19944, 1.20011, 1.2004, 1.20245, 1.20306, 1.20358, 1.20457, 1.20589, 1.20776, 1.20892, 1.20848, 1.21485, 1.21448, 1.20576, 1.20665, 1.2308, 1.2176, 1.21739, 1.21823, 1.22014, 1.22101, 1.2288, 1.22883, 1.23015, 1.27163, 1.24064, 1.24332, 1.30693, 1.25406, 1.34692, 1.32966, 1.3563, 1.28106, 1.2856, 1.28668, 1.28626, 1.28677, 1.28753, 1.28738, 1.28786, 1.2921, 1.2918, 1.29472, 1.29292, 1.29525, 1.35066, 1.30543, 1.30857, 1.35388, 1.32598, 1.37104, 1.37129, 1.32072, 1.32109, 1.38825, 1.38655, 1.38616, 1.35064, 1.35023, 1.35189, 1.51476, 1.42358, 1.41991, 1.43673, 1.39245, 1.39221, 1.42889, 1.42409, 0.00360335, 1.5056, 1.51476, 1.5192, 1.44352, 1.55057, 1.55425, 1.51716, 1.55775, 1.44277, 0.00370281, 1.48191, 1.50693, 1.52424, 2.04426, 1.57532, 1.51934, 1.48373, 0.00339592, 1.54094, 0.00363268, 1.55826, 1.55845, 1.53186, 1.48922, 1.49158, 1.52889, 1.48514, 1.48245, 1.54751, 1.60375, 1.53638, 1.57572, 1.59335, 1.55844, 1.54321, 1.56754, 1.56389, 1.5577, 1.55563, 1.62867, 1.59121, 1.63335, 1.61326, 1.58132, 1.67878, 1.64849, 1.60052, 1.6453, 1.64481, 1.62633, 1.64094, 1.68344, 1.67979, 1.68302, 1.67617, 1.78915, 1.65992, 0.0036671, 1.73287, 0.00347562, 1.74023, 0.00358591, 2.06913, 0.00404412, 1.74626, 0.00359072, 1.7934, 1.79278, 1.88726, 0.00359898, 1.77141, 1.75178, 1.74173, 1.78363, 1.71953, 1.71852, 1.72316, 1.7243, 1.72759, 1.72706, 1.72713, 1.72987, 1.73025, 1.81102, 1.76991, 1.75396, 1.75477, 1.75619, 1.77859, 1.77206, 1.77124, 1.77001, 1.79769, 1.82138, 1.83123, 1.79473, 1.85523, 1.80444, 1.80252, 1.80099, 1.79976, 0.00375572, 0.00331331, 1.83319, 1.83223, 0.00394249, 1.92447, 0.00335923, 1.95531, 0.00338066, 1.85308, 1.85118, 1.84955, 0.00354474, 1.86675, 1.86582, 1.86468, 0.00436426, 0.0035536, 0.00359454, 0.00370569, 0.00415642, 0.0110165, 0.00401978, 0.00410462, 0.00371525, 1.93102, 1.92955, 0.00364946, 0.00365555
0.825987, 0.883588, 0.842125, 0.843611, 0.877256, 0.850427, 0.970516, 0.853407, 0.862749, 0.966532, 0.884616, 0.899214, 0.0037738, 0.922332, 0.92226, 0.943168, 0.971891, 0.948, 0.963692, 0.960463, 0.974523, 0.985171, 1.07777, 1.08094, 1.02589, 1.02785, 1.03666, 1.05981, 1.06737, 1.08612, 1.154, 1.13761, 1.09737, 1.09438, 1.10401, 1.21768, 1.17716, 1.13434, 1.11311, 1.11268, 1.38262, 1.18371, 1.22914, 1.23041, 1.32188, 1.24451, 1.11277, 1.24088, 1.21949, 1.12129, 1.12361, 1.12762, 1.12822, 1.1694, 1.16853, 1.14558, 1.14241, 1.14315, 1.14801, 1.25145, 1.15582, 1.17087, 1.29128, 1.29867, 1.29296, 1.19471, 1.21346, 1.2806, 1.28255, 1.19886, 1.18353, 1.18081, 1.18037, 1.17979, 1.17988, 1.2445, 1.15933, 1.15676, 1.1537, 1.17831, 1.19621, 1.23147, 1.19793, 1.24726, 1.25065, 1.25153, 1.2228, 1.1804, 1.20805, 1.21968, 1.19782, 1.19159, 1.19193, 1.19477, 1.19552, 1.19565, 1.19549, 1.19541, 1.19511, 1.19745, 1.19809, 1.19467, 1.19777, 1.20065, 1.20083, 1.20165, 1.20444, 1.20254, 1.20447, 1.20519, 1.20805, 1.20952, 1.21228, 1.2064, 1.20707, 1.22855, 1.22581, 1.23051, 1.24269, 1.23205, 1.23115, 1.23214, 1.22943, 1.2293, 1.28844, 1.24369, 1.24997, 1.24986, 1.2507, 1.25102, 1.31055, 1.30994, 1.30546, 1.27879, 1.29138, 1.2882, 1.28778, 1.28791, 1.28784, 1.28888, 1.29005, 1.29334, 1.29491, 1.29451, 1.29453, 1.29151, 1.30871, 1.2996, 1.4269, 1.31971, 1.32102, 1.36461, 1.30495, 1.36705, 1.36669, 1.3555, 1.37351, 1.40914, 1.3776, 1.41955, 1.34196, 1.34423, 1.35923, 1.37319, 1.50348, 1.51658, 1.54477, 1.47737, 0.00371436, 1.44052, 1.36765, 1.50968, 1.53793, 1.3913, 1.39924, 1.54773, 1.56519, 1.44434, 1.59579, 1.60283, 1.43859, 1.42342, 2.12069, 1.41235, 1.43014, 1.4309, 1.478, 1.49991, 1.4983, 1.52715, 1.5226, 1.50678, 1.53732, 1.54295, 1.46264, 1.4642, 1.46431, 1.46447, 1.54429, 1.55173, 1.55699, 1.51951, 1.56466, 1.55351, 1.57186, 1.58203, 1.58906, 1.60049, 1.59305, 1.59922, 1.65869, 1.56717, 1.59815, 1.57164, 1.57104, 1.57087, 1.59549, 1.59516, 1.62054, 1.68016, 1.61636, 1.61752, 1.64079, 1.64376, 1.66836, 1.65001, 1.96231, 1.7367, 1.77148, 1.68845, 1.76902, 1.75008, 1.67901, 1.81041, 1.69387, 1.80091, 1.741, 1.96615, 1.96333, 1.74789, 1.71407, 1.70772, 0.00409924, 1.70594, 1.74054, 1.7166, 1.93683, 1.82047, 1.74854, 1.72798, 1.73415, 1.73533, 1.734, 1.73329, 1.82133, 1.82708, 1.75403, 1.75324, 1.86074, 1.77601, 1.77341, 1.77376, 1.7803, 1.77827, 1.84345, 1.78544, 1.78061, 0.00380441, 0.00409734, 1.89161, 0.00382961, 0.00391896, 0.00359496, 0.00399259, 0.00371962, 0.00427441, 0.00340612, 0.00372394, 0.00392611, 1.84807, 1.84286, 1.84201, 1.8464, 1.84571, 1.85841, 0.00362847, 1.86311, 1.86542, 0.00384074, 1.88647, 0.00344375, 0.00426423, 0.00383133, 0.00366787, 0.00388958, 0.00352437, 0.0040266, 0.00378056, 0.00424434, 0.00340045
0.814313, 0.81521, 0.825891, 0.830119, 0.83598, 0.835056, 0.84971, 0.853295, 0.853127, 0.868489, 0.869011, 0.884895, 0.912188, 0.914962, 0.917462, 0.925875, 0.935536, 0.935124, 0.936381, 0.954188, 0.966291, 0.978316, 0.982816, 1.07848, 1.00542, 1.01536, 1.02228, 1.02718, 1.07089, 1.05423, 1.06254, 1.09762, 1.08165, 1.09426, 1.08921, 1.09187, 1.09228, 1.18509, 1.14013, 1.19456, 1.31181, 1.22977, 1.24852, 1.25317, 1.2398, 1.1684, 1.11423, 1.22628, 1.20595, 1.11177, 1.11211, 1.12074, 1.23058, 1.12522, 1.12692, 1.12789, 1.26488, 1.1607, 1.15445, 1.21278, 1.15055, 1.15184, 1.15306, 1.28785, 1.29379, 1.29539, 1.29599, 1.28613, 1.30844, 1.31256, 1.31209, 1.28233, 1.23438, 1.18752, 1.2066, 1.17754, 1.16007, 1.17281, 1.14721, 1.1893, 1.14392, 1.20964, 1.16769, 1.21211, 1.22904, 1.16834, 1.25605, 1.20356, 1.19909, 1.17423, 1.18801, 1.1937, 1.19544, 1.19153, 1.19771, 1.19607, 1.19697, 1.19463, 1.19338, 1.19429, 1.19749, 1.19771, 1.19837, 1.1996, 1.20041, 1.20029, 1.20007, 1.20094, 1.20438, 1.20511, 1.20607, 1.21367, 1.20565, 1.20544, 1.20645, 1.33121, 1.23054, 1.23021, 1.24316, 1.24267, 1.24368, 1.23698, 1.23589, 1.23572, 1.24075, 1.24565, 1.24993, 1.25155, 1.25196, 1.3107, 1.30981, 1.32425, 1.33235, 1.28339, 1.28642, 1.28809, 1.28844, 1.28771, 1.28786, 1.28567, 1.28533, 1.28466, 1.28518, 1.31498, 1.36025, 1.33422, 1.30206, 1.31323, 1.34473, 1.31954, 1.31583, 1.3165, 1.31355, 1.33811, 1.37476, 1.37255, 1.37088, 1.35641, 1.3479, 1.36838, 1.3624, 1.34007, 1.34033, 1.34408, 1.34668, 1.3462, 1.36541, 1.34779, 1.56353, 1.37775, 1.38749, 1.37174, 1.40082, 1.39054, 1.38885, 1.38996, 1.39435, 1.38932, 1.60251, 1.41207, 1.41961, 1.42304, 1.42685, 1.43398, 1.41015, 1.47184, 1.47381, 1.4754, 1.48298, 1.48252, 1.43401, 1.43661, 1.43471, 1.43334, 1.51589, 1.51427, 1.4938, 0.00361511, 1.5173, 1.52417, 1.55361, 1.5527, 1.57239, 1.52984, 1.50807, 1.50676, 1.51058, 1.54475, 1.66045, 1.58286, 1.57492, 1.56106, 1.55794, 1.57793, 1.62049, 1.6162, 1.62021, 1.60314, 1.63144, 1.62942, 1.64094, 1.66136, 1.62634, 1.62773, 1.6108, 1.63218, 1.64231, 1.73882, 1.73, 1.64025, 1.64836, 1.63897, 1.65956, 0.00381794, 1.6858, 1.97253, 1.97313, 1.67811, 1.80675, 1.71687, 2.03415, 1.72762, 1.70488, 0.00371178, 1.98311, 1.88126, 1.88315, 1.70938, 1.83582, 0.00353316, 1.85885, 1.86177, 1.8353, 1.82746, 1.76521, 1.84941, 1.813, 1.84571, 1.83508, 1.76712, 1.76648, 1.77422, 1.77312, 1.77193, 1.77491, 1.7787, 1.77869, 1.77858, 1.79352, 1.799, 1.79697, 1.79642, 1.8063, 0.00361332, 1.80059, 0.00384218, 0.00377808, 0.00386465, 0.00355263, 1.84501, 1.84437, 1.84496, 1.84312, 1.84505, 0.00397951, 0.00367415, 0.00371421, 0.00411305, 0.00391904, 0.00342278, 1.87285, 1.87185, 1.87081, 1.86949, 1.87064, 0.00369695, 1.89148, 1.89158, 1.89012, 1.89025
0.801598, 0.800716, 0.814037, 0.811896, 0.894633, 0.83901, 0.846591, 0.845038, 0.85223, 0.851894, 0.882141, 0.891218, 0.883727, 0.9115, 0.906131, 1.00201, 0.929626, 0.928713, 0.935967, 0.953663, 1.04758, 1.04491, 0.969961, 1.0733, 0.995529, 0.994889, 1.01113, 1.02002, 1.12608, 1.05873, 1.08501, 1.08858, 1.12394, 1.12456, 1.14599, 1.11314, 1.11725, 1.22268, 1.16798, 1.12263, 1.17775, 1.24879, 1.21023, 1.17781, 1.17935, 1.18433, 1.11269, 1.15781, 1.25926, 1.17109, 1.11031, 1.16767, 1.18183, 1.12514, 1.12537, 1.12942, 1.13005, 1.13597, 1.13613, 1.13775, 1.14318, 1.14498, 1.15204, 1.15642, 1.17579, 1.17283, 1.16306, 1.1436, 1.14266, 1.14089, 1.1428, 1.14168, 1.14231, 1.18194, 1.23964, 1.15183, 1.1528, 1.15047, 1.22919, 1.13295, 1.13656, 1.1389, 1.14136, 1.14413, 1.14608, 1.14747, 1.14797, 1.15384, 1.15355, 1.18162, 1.19235, 1.19156, 1.20162, 1.19547, 1.1946, 1.40492, 1.2392, 1.19496, 1.18532, 1.1917, 1.19048, 1.19486, 1.19312, 1.1948, 1.19614, 1.19802, 1.1979, 1.18953, 1.18986, 1.19056, 1.19433, 1.21081, 1.2054, 1.20524, 1.32282, 1.21939, 1.22053, 1.22575, 1.23097, 1.24318, 1.23749, 1.24408, 1.24431, 1.24159, 1.24282, 1.26788, 1.25438, 1.25793, 1.27241, 1.27565, 1.31411, 1.32657, 1.33278, 1.29165, 1.29097, 1.29163, 1.29095, 1.29045, 1.28249, 1.28094, 1.27729, 1.27919, 1.28029, 1.28065, 1.28095, 1.35197, 1.29923, 1.23624, 1.23954, 1.24662, 1.29967, 1.31154, 1.30548, 1.30572, 1.32274, 1.30826, 1.31656, 1.32966, 1.34778, 1.34487, 1.41757, 1.42362, 1.45746, 1.34082, 1.34008, 1.33731, 1.33376, 1.45278, 1.46473, 1.37146, 1.38238, 1.44688, 1.36285, 1.36412, 1.40956, 1.40127, 1.40205, 1.42003, 1.36818, 1.36482, 1.66902, 1.66818, 1.67736, 1.39495, 1.39677, 1.43826, 1.45024, 1.46041, 1.45942, 1.45832, 1.42243, 1.42478, 1.42449, 1.42688, 1.43773, 1.43612, 1.4363, 1.44711, 0.00358076, 1.5093, 1.52379, 1.48805, 1.48732, 1.48572, 1.48198, 1.50527, 1.51271, 1.5123, 0.00351429, 1.53718, 1.51972, 1.53853, 1.63108, 1.54361, 1.59312, 1.54906, 1.54764, 1.58523, 1.58625, 1.58848, 1.58828, 1.61675, 1.62317, 1.60962, 1.62374, 1.62744, 1.65566, 1.64946, 1.62284, 1.65765, 1.65672, 1.7148, 1.62227, 1.74043, 1.67931, 1.65597, 0.00355042, 1.74515, 0.00366624, 1.65696, 1.72515, 1.70442, 0.00401213, 1.69396, 1.82196, 0.00354931, 1.94879, 1.70807, 1.73453, 1.9976, 1.89401, 1.77178, 1.93963, 1.84717, 1.85049, 1.83847, 1.82375, 1.85211, 1.79182, 1.81407, 1.84286, 1.85447, 1.846, 1.76816, 1.76629, 1.77098, 1.77891, 1.78564, 0.0033988, 1.79954, 1.79302, 1.79084, 1.79536, 1.79537, 1.79919, 1.79886, 1.80339, 1.82042, 0.00330052, 0.00353925, 0.00354283, 0.00392458, 1.82172, 1.82065, 1.82871, 1.83214, 1.83547, 1.84113, 0.00396298, 1.8533, 0.00367832, 1.87213, 0.00355618, 1.86916, 1.87037, 0.00322478, 0.00365186, 1.89142, 1.89435, 1.89239
