0.930693149902225,0.936559171623501,0.972752755185848,0.999115086924864,0.979289356755832,0.905598412108315,0.948968402062055,1.11021507287675,1.05908523255026,0.9042261231898,0.57867412000061,0.93447459378667,1.05773157629742,1.06288451900862,1.07785082611806,1.06606739310519,1.05999777892561,1.05152382754404,1.03182418803795,1.03949230685524,1.04751262945737,1.08152758671917,1.12323926022372,1.02028422164015,0.641967947352239,0.98975291154366,1.0006434794289,0.783449088340933,0.505841705873223,0.674811732167396,0.553409880133803,0.958277728127704,1.06276867604962,0.973051290938591,0.946581739287109,0.933846968995806,0.977437740476819,1.01627831085887,1.0330583346458,1.04508488135726,1.02328362625666,0.989278821038391,1.03531803664844,0.956659112369506,0.919838452332596,0.884197712489076,0.865298541002919,0.862444741776775,0.865748632843199,0.868179251834856,0.878450436164174,0.890129747441295,0.895217431495942,0.914853994148872,0.926506243895165,0.959016529605771,1.01724698900705,1.01183499793876,1.01372618426193,1.03712922433416,1.08155856144732,1.12083144884092,1.14283450112789,1.17509916492567,1.22988565755472,1.25559838671754,1.28963024862301,1.30754884745233,1.34352699131182,1.35187642437461,1.35300890967202,1.36449353447669,1.34987809509824,1.33630034795835,1.31110085590079,1.31859173319778,1.36995589165996,1.38052618688229,1.37627453973234,1.3465584570218,1.3481544199555,1.38196070734398,1.36756461028727,1.36986635327246,1.36967497961996,1.3717800999436,1.37718978278864,1.38266628562673,1.39485052605191,1.39339060234788,1.40044918715209,1.41746156422005,1.4409177893282,1.45894453215601,1.47617115758624,1.52285185688032,1.50688237504523,1.49058225375508,1.4926490596435,1.51167209542991,1.568285323037,1.5638635031786,1.55870397494845,1.56055576729463,1.57715247236715,1.63974495892798,1.63349659882536,1.57470113142426,1.57091635831937,1.57767592959018,1.59428823980145,1.60773445550817,1.60862023378169,1.60522910899775,1.60349467402964,1.60133005960246,1.60254952915879,1.60481826712259,1.61843361931132,1.64663194552995,1.65472225872873,1.67592452003825,1.67117859001399,1.6730930032646,1.68957767579787,1.70191949066193,1.69566306384024,1.69535828224922,1.7022499910936,1.70807605534467,1.69672634719189,1.68687945498792,1.68357155628267,1.69406020577689,1.74011928211482,1.75052952107536,1.7553944814026,1.76126782319616,1.73782861868448,1.76812399208491,1.76257266169649,1.74873534058106,1.74399757629265,1.72918438362816,1.71855863086356,1.65773942847006,1.62396596958496,1.61108533340542,1.59698891764897,1.60444286201933,1.61677100131245,1.64345246241219,1.66244433869974,1.63854263850995,1.59309196810966,1.56798316280934,1.55008697095806,1.5390902662263,1.53403012334142,1.51729315357733,1.49430899133916,1.47721990656543,1.50592374340506,1.48482234522636,1.4707287331944,1.45415257578398,1.42769233054863,1.41475414036466,1.421010691792,1.42295068953022,1.43359554867207,1.41790524793191,1.35978674942618
0.914498273106876,0.926508727644639,0.985015871078989,1.00348066113289,0.972965804936559,0.899889270028578,0.902910065799427,0.924542284315426,0.924927910028906,0.965117639511864,0.901030085264493,1.00264252814339,1.05450785726991,1.03734353138816,1.03005171135755,1.05719652150404,1.04887991400911,1.03246367697629,1.02717590372266,1.05498406753799,1.11742035061719,1.07317939823457,1.14913821717791,1.11235395111842,1.00427316037101,0.996718954275419,1.00168088876082,0.966617261717205,0.876883110205394,0.946045629852385,0.90646533112751,1.02687285296633,1.06368440685258,1.0538997296413,1.01897942557858,0.905899062278799,0.914794856068842,1.01016002129642,0.968058812450386,0.954426980312713,0.94204841102544,0.979296515172103,1.01690778044771,0.951264184551648,1.02847727617076,0.939230542427132,0.873124780321125,0.864844426603113,0.870452315530602,0.871596555304282,0.87974714819497,0.902761350453541,0.912266326058415,0.932836837485941,0.941590995144309,0.958297052609792,0.997660807417293,1.01177411731771,1.02627487625758,1.042483302816,1.08923604005881,1.13546025634976,1.15262991616645,1.18184218914513,1.22394207365376,1.23774735294804,1.2839222899405,1.33902771494284,1.41678477410987,1.36574297538507,1.34097169785894,1.34255394793546,1.3393963571788,1.33541725802767,1.33633777571598,1.35123286915793,1.39064822178762,1.38771563241748,1.36524546238642,1.35519160948661,1.36575690080944,1.37286803749537,1.37654536991983,1.38521553774486,1.38369904050418,1.38807163647809,1.39162592759704,1.39927230190264,1.40167660446329,1.40212614807816,1.41087969139994,1.43796263175162,1.45108727622037,1.47429099394723,1.49430216108843,1.49590533762757,1.4886743025333,1.48671808877652,1.48564369220271,1.50684105030424,1.57178707365175,1.56594238976841,1.56151431646363,1.55096837759375,1.56768003811461,1.62814945526782,1.58586140087193,1.55883983099895,1.5719310929579,1.6139020548532,1.58583427440161,1.5832266791003,1.60847127182894,1.60695938102809,1.60394288985336,1.60372628459221,1.61089588111794,1.6145733259949,1.61940330863717,1.63876162015767,1.64835025054288,1.66147694880224,1.67724435835818,1.69508364292871,1.72291990810679,1.75158421241694,1.73829212099959,1.7206275126461,1.71841760892743,1.71731457223795,1.70730738628985,1.69276083536245,1.6838847123393,1.68624621559146,1.70288021025879,1.73502990945984,1.78461076082096,1.78135010054241,1.75342119925304,1.7611817039323,1.78879506460368,1.76525410217129,1.76772307360112,1.78565723520003,1.74020452012451,1.67908372190408,1.64786545344241,1.63193189988185,1.60493504748452,1.60483435532152,1.62384971494104,1.63259966455243,1.64467057920903,1.63838725170801,1.61533618919232,1.60423754290637,1.57169849759884,1.55241218661381,1.53211774773888,1.52395388532892,1.53000213395769,1.49441152307292,1.49863046574017,1.51274306193207,1.47513096699405,1.4330509603324,1.41300235285811,1.41543900629967,1.43198466838322,1.42930955257256,1.38765410905745,1.36492036939253,1.34481074856595
0.913759219500083,0.932869399691517,1.02041067064539,1.04126115771532,0.993266668715993,0.933990406106199,0.962128067037236,0.911231762308619,0.915659017765521,0.988037559822516,1.00439900287112,1.05753528003166,1.06797147979875,1.01354709550337,0.994076155122114,1.01426847162226,1.01402149765392,1.00230110278286,1.0044111038376,1.04232224709664,1.05781885351264,1.05821345457116,1.06822258359377,1.07279411471087,1.06041404354461,0.98788007062369,0.971843542010619,0.951258633742779,0.947717214200095,0.972475904437056,0.98676029083626,1.01320121865277,1.01942889205962,1.0482397729699,1.03143734345052,0.899712228108745,0.880767352464704,0.928441466540821,0.901418390083124,0.925732834530115,0.941219914373594,0.967496302902439,1.00399681720423,0.976360128320283,1.03025141755857,0.907853162387386,0.871293604708148,0.87773673547328,0.891368148127581,0.892699489831584,0.896915232803586,0.907926742602845,0.919359988193096,0.956269292193145,0.958999250917233,0.973212558305384,0.99509592938136,1.01905408559283,1.03556541532982,1.05630025816471,1.09684926703783,1.14468536683491,1.18441549694984,1.19986855154503,1.21270289685976,1.22817809370188,1.2736340985946,1.40854736680736,1.48060979719622,1.37243281661626,1.33603370709134,1.33873273099382,1.33892087814299,1.34572798449283,1.37096673833321,1.39288739181738,1.39757366751663,1.3852879735048,1.37069369773791,1.38265678707497,1.41839736673511,1.41388387957026,1.39708759158609,1.39382688310464,1.4030953465134,1.40644398722857,1.40717001006253,1.41545798908764,1.40886072843638,1.41866403856417,1.4429260823614,1.48418566734815,1.48509773456762,1.49330439732523,1.52711812050927,1.5007162771009,1.50027544887841,1.50554061103892,1.50526522004706,1.5395507549991,1.5770899181713,1.58570421359064,1.60047748525,1.56113766644152,1.55488133623201,1.57551038724346,1.56201074428703,1.55903424490112,1.57046767770308,1.59966322367638,1.59059593558465,1.58315985695865,1.60514320904888,1.60832234541453,1.6134433967351,1.62000684628028,1.64784824295951,1.6578850114017,1.63637804038482,1.64087086243359,1.6599632382571,1.67264421446336,1.68344048935434,1.70954101640504,1.72467659691234,1.7325016572036,1.72876110908595,1.7238429291707,1.72259827767456,1.72312259356121,1.72324803429615,1.69835402395359,1.6902603473347,1.69449933834275,1.70564866615485,1.72710294035368,1.74307926259395,1.59520425397092,1.67916659492351,1.58568583373728,1.7253037982643,1.61245282341363,1.76525807148156,1.80905339254528,1.71016410867413,1.53252307767987,1.63729378160678,1.64627422057505,1.61651272289021,1.6149384410178,1.63112485768636,1.62572412356519,1.62772196191595,1.63460238675385,1.63398550149188,1.62982359280538,1.60801988598251,1.57856889295631,1.55097058647854,1.53848604732684,1.52346922751896,1.50340699445518,1.50076326924308,1.51780790751087,1.50785245265904,1.4424746142926,1.42349960317833,1.40957251556241,1.41775569928559,1.42456085504153,1.38423190104684,1.35847662181592,1.34811564013631
0.911380761758285,0.911898306970404,0.942174092690397,0.993355425377586,0.995339102886208,0.996786873918092,0.991739275502526,1.00059993609545,0.99685788601191,0.911838500917682,0.929275420733086,1.03013847806714,1.01368282799151,0.905413677882511,0.87874238191657,0.908158629791964,1.00766734511242,1.00219920885717,0.996992169180708,1.0262558416236,1.0454225052866,1.11583758449547,1.06963534094142,1.09258193994123,1.08742704429816,1.01946502990841,0.995909362571184,0.950730095128983,0.940839355498679,0.942093459574341,0.947224123276257,1.00970474837362,0.99157741964391,0.940725472150695,0.965742380853898,0.886982163496506,0.895785899621988,0.994189412801842,0.898912844931784,0.892195611283143,0.968039968244219,1.01109707311829,1.03062725610804,0.959066357482161,0.941134275721186,0.883755094549078,0.857086109968195,0.87117905557148,0.895425408028349,0.902460283105476,0.904150192157875,0.907423319004944,0.91919325350057,0.95596925002974,0.979976487693291,0.986841002932054,1.0019904533336,1.04024534824277,1.04573085071153,1.06799117783053,1.09945682925951,1.13569770942819,1.15956978687639,1.18180304408385,1.20424750549761,1.21574104907895,1.26484140492476,1.41771903117699,1.49173220640061,1.38425111231925,1.33990305466291,1.34952926047239,1.3531279973443,1.3692092042122,1.3769040263824,1.38469784645284,1.3836288949136,1.37667613817419,1.38441052394039,1.41891634012659,1.44551297363517,1.48178146751373,1.4507439272348,1.43864437116368,1.45602235031129,1.45825394843702,1.45296475768413,1.45945975098326,1.43683956422268,1.44592674819094,1.50102995781103,1.51816617949254,1.50845963108736,1.49445565877036,1.50905603555925,1.52324255007373,1.55486983935467,1.5570854114604,1.54442314914656,1.5827173819318,1.57582433215678,1.57275439793449,1.57759751249781,1.56705742578318,1.55924477147794,1.56079148736886,1.56524757395361,1.57562087949417,1.58797650060018,1.63483380180964,1.65178529129795,1.6158342851916,1.6074019575219,1.62268632244951,1.65250535926878,1.66785474696586,1.69262726633609,1.69718883878176,1.65437143525873,1.65449313081634,1.66869058149789,1.67785838791458,1.70058614349817,1.71656209227185,1.72438151100036,1.72506923820718,1.72208282021674,1.72161354263194,1.72361300564218,1.72388601790209,1.72481312748951,1.72103949431006,1.713639185253,1.70585852460353,1.70669049070128,1.71108480790045,1.55333470398189,0.948671899606656,1.16185804798416,0.728530429518529,1.25049837243893,0.988867350233741,1.63284523369839,1.82279476457076,1.61667452567365,0.936759822457961,1.33990531672881,1.61708726633503,1.6323066585138,1.61922164293441,1.62413206775644,1.62350066388585,1.62465162162377,1.63263567764571,1.63709538765942,1.62011829143786,1.58335378801231,1.58473313220924,1.60375962872674,1.59310751512189,1.53462251053499,1.519757393093,1.50810521347707,1.50724410508114,1.51395463765205,1.46013283199026,1.43676268227151,1.42340311132385,1.41647453757233,1.40769941460014,1.38466428358506,1.37401378640142,1.3614087333524
0.910128223723141,0.905169777114518,0.908069573825574,0.933384153137647,0.993876179013821,1.00795914895942,0.995459728199847,1.00992460195783,1.01583694377146,0.91899855361958,0.982285309870425,0.996111621784192,0.898600518608021,0.851725009913122,0.847110067259993,0.874644989636715,0.96874513110643,0.93675391612381,0.969195497720924,1.03927018008334,1.10408629265216,1.12367319882785,1.06571439963689,1.04944902069412,1.0439344900418,1.01947081397161,0.985144753288244,0.969522902581802,0.966502854663239,0.965751470580651,0.952785449355478,0.961728094285368,0.969807857384068,0.894669586907864,0.883155928903269,0.865512741854675,0.867330493259959,0.891476696128659,0.867791341563953,0.872130095530757,0.936529494580128,1.01757961251814,1.02469442487852,0.949700668148093,0.907303066749238,0.87582685808986,0.836891249719053,0.832902654557911,0.841513950770077,0.85219203146336,0.86456282804817,0.895696923136345,0.925808987576159,0.96811807476418,0.994087909759635,1.00268639823799,1.02018618918374,1.04109115271469,1.05456472106713,1.07785068226664,1.11871675511534,1.13931219301767,1.16066985338588,1.19391059756134,1.20831018135524,1.21605843564261,1.26819291002405,1.4103865656556,1.42861756065302,1.35555566264891,1.33328013266718,1.34400282696053,1.35474722659329,1.38020377209977,1.38173522722272,1.38167885518595,1.37996994820746,1.38296259023116,1.40848898934852,1.44745366265123,1.46349684474062,1.4928756838629,1.46273777344186,1.45142438232769,1.45897419022685,1.46066656120021,1.46486115154857,1.48436538029063,1.46715149474229,1.4768646652104,1.51137432575866,1.5037574646534,1.49643245120746,1.50321086855516,1.54571401194653,1.57410663182005,1.58195698224776,1.57447019095144,1.56866953663943,1.57469889622272,1.56932062751946,1.56882369821519,1.57748785899748,1.58696160514559,1.57163838225296,1.56687815759382,1.57739754765835,1.57981967688813,1.58858798088235,1.61113484805044,1.64155102643536,1.64516954125213,1.62435635734804,1.65421734500167,1.67017642250728,1.67802490500111,1.69447717482996,1.69821125452353,1.66328097112321,1.65286759230459,1.67240353005164,1.6781735779494,1.66414699428664,1.54107668564122,1.67660195100919,1.71956063824517,1.71317680664889,1.71453653450944,1.72478997207439,1.72465929814099,1.72585642031849,1.73001835784343,1.71673265126923,1.7080473675003,1.70635910042743,1.70654318540433,1.67409655550514,1.38991613405881,0.71197053327891,0.434482356030861,0.742130652766749,1.42611288013844,1.77919203451439,1.83014620950763,1.71974353635062,1.18425492842538,0.867981494881115,1.4997726819506,1.67481263858905,1.63047187151979,1.61984331314806,1.62292312964665,1.62809533674616,1.64779187537487,1.63852846972381,1.59246761794135,1.56546849218261,1.56118483915582,1.58379188784506,1.58210936904896,1.53874426950346,1.52868893501408,1.52794545468836,1.5313943589716,1.510186451717,1.46853970195337,1.45044758316597,1.42154195734495,1.40599347713584,1.40259888594094,1.39073002428354,1.3846031125704,1.37552788851449
0.951123934018519,0.947610947978961,0.946154613894008,0.951150114839752,1.03349465345015,1.01532590074092,1.00997032955373,1.03825980529078,1.0345840218113,0.974195195989918,0.999554957336189,0.901318884748849,0.849969890744169,0.843402276553728,0.843849682092613,0.851108952143453,0.884732820893271,0.925293728983598,0.931498196407957,1.01840517445664,1.10316482036575,1.12706925461195,1.10057861181172,1.03740143848097,1.00866463055727,1.01961022082486,1.01297233216399,0.997891141889642,0.989134808396216,0.982138068031911,0.966758897013743,0.931318615212762,0.964259379044206,0.912229769132363,0.888085799014697,0.863588492922401,0.856577669218835,0.856823939082996,0.856706733380268,0.862112932140091,0.888909948486787,0.918728015055099,0.930748766799658,0.922774255232909,0.871122045870509,0.850547272017269,0.827652948690162,0.824690426979128,0.833358788424492,0.841493453142433,0.857346554187172,0.88683774847684,0.920009518919683,0.988391416671439,1.01746123873749,1.03279915066953,1.06092575605518,1.06289704995989,1.07245261102815,1.10895218407605,1.12418432242997,1.14387435376613,1.18654717000089,1.18376692402076,1.19915166849187,1.22534663688441,1.27739778092308,1.38107670916271,1.35909594462291,1.34788470792289,1.34617779639379,1.34226092324029,1.35542048496469,1.3829156856896,1.37452541477724,1.3775775452498,1.37835112925079,1.39901674111711,1.41882252296161,1.45155137429368,1.45634844561985,1.46461085400061,1.46425557405509,1.45838907708136,1.453947692435,1.45541912457734,1.46044252804034,1.47406579879827,1.48466522089098,1.52056615641945,1.52449806070039,1.50422933339958,1.49680730499117,1.51579944114784,1.58116185797879,1.6371404081548,1.63493339925814,1.60409988210576,1.59262965806481,1.58805074249545,1.57530093250853,1.57467090279817,1.59724698670588,1.63225842109541,1.5984863131299,1.58213582475729,1.57816962550071,1.57726866513749,1.58129150480483,1.59492211348325,1.62046965194995,1.663347188413,1.64356900408847,1.64166884150425,1.64685648025726,1.65988102872438,1.65574220156398,1.65737331136758,1.6555675883157,1.65309047324114,1.65833726949921,1.67489208872417,1.54361177294837,0.918050003572136,1.33674615714838,1.65525284986715,1.7039515941179,1.70975734000438,1.71905148451113,1.72403882154064,1.74013319389628,1.76303409099132,1.73611639534673,1.71647661647305,1.70665959576489,1.70469784343476,1.7148574972646,1.71436420016596,1.54267885029994,1.55304733182887,1.59306455407241,1.77080693441077,1.82855995896788,1.82861367376487,1.62977918253352,0.958789720640133,1.33771372253422,1.6380900947948,1.66797129949823,1.62854590290154,1.61895912468864,1.62096879237626,1.62326943047355,1.6381640669787,1.61652351744218,1.58024123512604,1.55511678075135,1.55212164401465,1.57130834817285,1.57255795994401,1.53397253766877,1.52945617563887,1.54115747548053,1.55083274748723,1.50726975513225,1.45654789999009,1.42788791583557,1.4129834026363,1.40477177751607,1.40228211604192,1.39981690489742,1.40109364374984,1.40357959777992
1.04035522127395,1.08158537509107,1.08992977102387,1.05219437804397,1.09214289489128,1.05242567545196,1.02530597598587,1.02611002716615,1.04158813178109,1.01997244923237,0.993025820635834,0.877259386985215,0.846210284561399,0.849414426354216,0.847052451524023,0.863509730517632,0.869770599424555,0.908284475531197,0.980444619482334,1.02095829806494,1.06366135121307,1.11972753727047,1.11187425127524,1.0480619241257,1.03057872117686,1.03086446272092,1.00229424210578,0.982686057541725,0.978953213337808,0.837445576222332,0.887432203569786,0.911057993453967,0.97308094619956,1.00257632062675,0.981197564094691,0.880122711234574,0.854164936272982,0.855444072546973,0.856359157700312,0.874939916521694,0.938857738615663,0.901422153123582,0.874618294061766,0.862308149774625,0.852057996737522,0.843745157430656,0.828998095119173,0.825963069772518,0.834033733161718,0.844865593128225,0.857466834585668,0.883407671365217,0.914228165751551,0.9668349554849,1.02123578087124,1.04938710035315,1.09792847668678,1.09919417161882,1.10347757566228,1.13351281432471,1.14605022224362,1.1514889664978,1.1692081944367,1.18022374953558,1.21822392447764,1.23569159700956,1.2588145683506,1.30096891592057,1.31678211550408,1.33202231369376,1.34807108809939,1.32831000459372,1.34221789195205,1.35527445741678,1.35466788866559,1.36011991656466,1.36875564875432,1.40411426137683,1.42049640072356,1.44299755321865,1.45416778001127,1.46845443773555,1.48262387160741,1.46536860017051,1.45081383220902,1.45168733359896,1.46686910149498,1.48553975505911,1.50928424295612,1.54011862422128,1.51472728577329,1.5041818354855,1.50997466022624,1.55131963629769,1.62150098910032,1.64253112354389,1.62208201158799,1.60369950108765,1.59802133857931,1.5960153170519,1.59213729579571,1.59656488000673,1.62618417686787,1.63769987259554,1.6139429401479,1.59879494168546,1.58150102186365,1.57710013239533,1.57869454114887,1.58613050143464,1.6024736992255,1.64425439380181,1.65938002376918,1.63855650214144,1.63357579004098,1.63688003955735,1.64233173662246,1.6457756962045,1.65288100693929,1.65376654225468,1.65478997866844,1.66405546777828,1.62801590893527,1.25734976307716,0.671551088404406,1.28321020022866,1.6533700645959,1.70334036792242,1.7070482096613,1.72353187532033,1.76769990446495,1.76856604876436,1.73706907973559,1.73408783672791,1.70729469876352,1.69961770513504,1.71180865659721,1.75976628714005,1.76505075952166,1.7953788115429,1.80155368214724,1.63225475251931,1.77844549524143,1.82698940008235,1.7881310495994,1.64168772225594,1.67331869017007,1.67580952288225,1.63416773508083,1.61685697645991,1.61395254748847,1.61199905332122,1.61713145834123,1.60189922967779,1.5937267793302,1.57880019763513,1.55597351247687,1.55128633576379,1.56003801292226,1.58413472344136,1.54752445197477,1.53528974377367,1.56210958674381,1.55808573061856,1.52953816747046,1.45431634431728,1.42352925780676,1.41701196186671,1.40522778703929,1.39803281342672,1.40510610104323,1.43366855256469,1.43238050263744
0.951193091028302,0.982828022098625,1.02743641351953,1.06531986933927,0.988175745734234,1.0012068897342,0.977457176836649,0.965100796372096,1.01916303803528,0.985455436644694,0.968250718756891,0.903338581399627,0.869585227489576,0.871789387311923,0.862120271977849,0.926021610207403,0.931157701691055,0.974224539303584,0.986037419551494,1.00150437265135,1.05646425802739,1.1012531336502,1.10034582470606,1.04883109087487,1.03738443534305,1.01070424015256,0.910568887216235,0.955986857333882,0.845186457770933,0.511517696392077,0.795585593245343,0.893840890859331,0.92468757667686,0.99365321347475,0.983847352986239,0.892657722353449,0.850917276518346,0.854908620983472,0.871341568751302,0.898077079956037,0.986725181075005,0.974802850408052,0.881318978178039,0.857683452792031,0.859021874498061,0.838868132685549,0.835339416317722,0.836480968719018,0.832115385146677,0.846113423701056,0.869260026359505,0.89586369695635,0.937578679673675,0.964910147022288,1.01671073331836,1.05636644459908,1.08283238956087,1.09647557693292,1.10890953890327,1.14310318706379,1.15599528623474,1.16809045569145,1.18618863882753,1.20373896013105,1.23950320296548,1.24712288513027,1.25802470827066,1.27833552411419,1.29483564806278,1.29672034922047,1.30574600258007,1.30695139500098,1.31959844206372,1.33825180991181,1.34729982013209,1.34553428630387,1.34718641619407,1.37438140315826,1.403805100523,1.41912463436316,1.4378129943535,1.47584311033211,1.48721998741195,1.47130037217775,1.45075248644366,1.45579509917274,1.49085631261329,1.50555717222258,1.49604777767793,1.50179019357246,1.497561376558,1.5016675370153,1.50738078075052,1.53618002576333,1.61096366663984,1.63012152345131,1.6295800686968,1.60660485872058,1.59947869571436,1.5978410733174,1.59656837319156,1.60024119879684,1.61110984459304,1.61824861932287,1.62211983492776,1.62026444386202,1.59152411490804,1.58234061864602,1.58136486059791,1.5855604508229,1.60812815459698,1.62863265252321,1.63867993705144,1.6394337640397,1.63679722218644,1.63577470993008,1.6488342150998,1.65236552817437,1.65417702330296,1.65603718536305,1.66036885052886,1.66500490751344,1.65998843508071,1.43170508960893,0.573787886365185,0.719418774305297,1.51444346971057,1.70077556930331,1.70341053466924,1.71894836145309,1.76835439350865,1.74577150147357,1.72245890552011,1.71706541032678,1.7013029061876,1.69817836100115,1.71224887075086,1.71215895212746,1.57761128700153,1.72383254721824,1.58876102103995,1.01107906623254,1.62370141621838,1.82599523679479,1.81195346182858,1.73944536223,1.69266242221741,1.65384845159037,1.62348758037655,1.61557093856379,1.61700740424769,1.62797163692128,1.65903499555461,1.60093477260211,1.57699031958214,1.57004957207833,1.55658384254773,1.55457659197837,1.55842655520952,1.59733850342871,1.58827821052708,1.55272023897095,1.56464912205985,1.54691279123044,1.53607248996889,1.48500243165829,1.43925514224359,1.43422027933227,1.43064404784093,1.42737257335259,1.43003795080595,1.43806690921712,1.44027619835546
0.9492738889857,0.998249750989676,0.980990659984451,0.953491670412379,0.928870039979264,0.931613404818621,0.946339265580972,1.00794924676261,1.05476446264474,1.09225507641329,0.966061195080842,0.970758860617768,0.930427155775964,0.863300719217018,0.840728288178834,0.853698797538686,0.866773367925263,0.915645254656136,0.878601219784907,0.869150291621975,0.882066254593621,0.911823576137395,1.00080240515638,1.01775022012182,1.02194725118163,0.972551491158359,0.854014547280113,0.854363091104355,0.861489637753258,0.790638884272168,0.868970628754219,0.905153195590872,0.904120375447725,0.895646992362685,0.954668564041618,0.927283535130002,0.854677314302452,0.858654905063975,0.917152163394027,0.930680469789211,0.88623215447396,0.867849375856904,0.845782931077345,0.862898334362497,0.894892990021826,0.849489798133782,0.822573347732614,0.833554895007595,0.837988057121702,0.84686921394387,0.875288205678035,0.911854969553459,0.957654547859247,0.969724024277524,0.994814872238698,1.05010551046769,1.06925598811345,1.08571046706887,1.11134798629975,1.15017390531837,1.17097344674877,1.19417334312673,1.22852014258931,1.2631047155373,1.28133174273542,1.26050747000263,1.25752454907964,1.28122901745304,1.31717720045845,1.29914277608581,1.29037864750561,1.29674170140793,1.30117557347507,1.31649416424165,1.32536148109605,1.32680079249885,1.33158161325425,1.35169413253381,1.36638831120058,1.38850081191708,1.41384250941832,1.43331879864847,1.43947320256319,1.45079295006142,1.44416011550227,1.45588906106206,1.48268123185309,1.51032362591205,1.49397364576359,1.49196907102278,1.49392833440197,1.49664796228768,1.50492669127782,1.52664657486434,1.54995416800713,1.56504909173225,1.59832601801969,1.60241504987548,1.6012404026365,1.60424453318904,1.60342648452363,1.61212162433992,1.61799405614538,1.62987775563645,1.62576866024374,1.62447133114144,1.60669490763876,1.60460727729225,1.59461549469046,1.58940441032593,1.60610169492263,1.60597307435892,1.63003343701889,1.65727188647309,1.65820028205083,1.64511482468451,1.65857526307567,1.66155811959239,1.65873435821214,1.66798737735694,1.68319618351041,1.67904296354862,1.67003390857786,1.62267450286327,1.44689305985424,1.45552786019633,1.65727418146776,1.70415084563742,1.70661169148335,1.72711322184333,1.77186051397216,1.77289362106938,1.73373914176256,1.70966974110021,1.69390849346402,1.69385884060923,1.70983581563175,1.55142229975616,0.994135440430901,1.57090442162623,1.7137316097961,1.58142371078005,1.75470693715675,1.83026818854186,1.81995144818754,1.74311980554538,1.68030917474552,1.64930713490447,1.63223959954871,1.62169783781924,1.61984481883365,1.61703637376405,1.60998243634044,1.59042910519956,1.58345206758438,1.57469310839845,1.552562795966,1.54277441769583,1.54540694485946,1.54301943798581,1.53439297754521,1.530122134699,1.54732507768565,1.51058906007881,1.51940094040664,1.48715698040804,1.45475639519133,1.43148322958633,1.43027435161191,1.42486480073673,1.4229619761397,1.4369180203402,1.4367055681854
1.00213540994872,1.01571251108164,1.06980623469723,0.972238729884127,0.965917211468701,0.965172047030702,1.02009089577527,1.02228204362988,1.02754039221191,1.03575855823111,0.978181524325953,0.999682512126018,0.990881774118174,0.906943708861788,0.862121850270563,0.834812946061161,0.832497764556387,0.8440765315048,0.836704438077768,0.834720349579324,0.840831961466538,0.862840587289577,0.864083924966865,0.89160744878728,0.97673688220131,0.875357955158792,0.821500297210983,0.818722040073725,0.829376470368076,0.844349362537579,0.912402110372188,0.96779969000807,0.88180157616186,0.564516378623828,0.85745460682203,0.89020534173321,0.848114411840644,0.845676029413633,0.85965420703479,0.857721788454921,0.839435089801614,0.834645764911486,0.844545933032366,0.893035971866936,0.880158381670971,0.832216724410644,0.815842414919509,0.818591057852613,0.837673157706529,0.844956367098672,0.884160422439402,0.950064702652395,0.973368671227936,0.972673594794161,0.994631452100178,1.03936036471019,1.06421114409765,1.08220629566316,1.12311625983431,1.16458807616362,1.20402194314682,1.21677305380846,1.26368009590816,1.27276968314228,1.26746168454377,1.27365186901045,1.27180140646001,1.28041724355619,1.29345457364723,1.29295493422787,1.29337510237708,1.29076976014949,1.29396858931329,1.30185421859518,1.31551525426907,1.31539491454315,1.31504392607661,1.32430784488165,1.33866868774741,1.35177016697083,1.37179215819357,1.40281955394245,1.41463798337948,1.42082319248178,1.43190508393765,1.4581037230831,1.4844239571209,1.48588484978474,1.49129824921357,1.49733291953878,1.50056507411009,1.50171901402547,1.49922002528155,1.50481737616896,1.51827732501816,1.53686549132091,1.57761722633493,1.6061074141654,1.60889827658266,1.62636150606275,1.6273097772684,1.62904207596858,1.62785213791978,1.62985938751743,1.62676107190516,1.6340087486553,1.62813558203526,1.62880036716908,1.62710954892382,1.60102946944407,1.60197716289792,1.60780987335591,1.61577262977538,1.63330719031227,1.64481962564428,1.64909024661952,1.6787757286171,1.68981823584807,1.67630209658631,1.68473373510513,1.69234594292933,1.68809765241423,1.6836796708945,1.67819920610071,1.67793037280418,1.68114117984451,1.69589844189325,1.70569178557516,1.72674992531737,1.75720274468893,1.74882412849726,1.76860389604484,1.7585920618057,1.71610787844251,1.69425617948215,1.69054436636159,1.69445011614173,1.66744438638723,1.57468782655622,1.67536116270227,1.72508816532501,1.72361791928038,1.74707983350889,1.84503529048316,1.84395914443261,1.75071051861304,1.68161264735523,1.65414602631176,1.64414875736204,1.63480991588696,1.63352204005151,1.62276361480206,1.59579332825027,1.59191612847006,1.59435611343304,1.57386657183568,1.55176084615548,1.54127914801763,1.54756089194648,1.5347454819367,1.52050036938992,1.51617485549858,1.52242548988881,1.50013087467027,1.50771605035351,1.47841992214653,1.45074599053094,1.42128899778765,1.41343387454534,1.41259281772107,1.43252442805084,1.4391063076174,1.42894514128482
1.05987824306721,1.12614616899917,1.01740902508053,0.938429242282248,0.931418667624978,0.970549447166265,1.08841075331252,0.984619035184123,0.980902190615063,0.979677699487621,0.968218328974057,0.998628687601799,1.05785355801334,0.903058376737827,0.938007437214354,0.874242540890935,0.835333828009675,0.830578865130094,0.83130519294098,0.833289940827358,0.862779952510743,0.954666677489051,0.883917546799831,0.8851602032239,0.94804013448506,0.841841946834281,0.812800853344262,0.815294564450906,0.81727625020281,0.843735785744496,0.954587234710895,0.991939927596595,0.970362869333153,0.902646258208581,0.960885867769018,0.925404598357435,0.859676452240899,0.840150709297846,0.837787451301519,0.834300269370612,0.832703917834598,0.831291113459605,0.832285265824803,0.857718437074236,0.90548126891057,0.859834486392302,0.836070487692551,0.836004280810733,0.850796934167966,0.841661353505655,0.88452213487002,0.924745095754913,0.942629372408339,0.950169005638582,0.971048865978472,1.01792550470211,1.05481396978256,1.08623081390369,1.14189024472454,1.16742073159319,1.23110895064517,1.24327800805815,1.25146908687951,1.25564141459766,1.26652313965995,1.27621724489339,1.28542916018093,1.29672104371611,1.28523279436078,1.29132892735434,1.31623790978461,1.29936568432298,1.29399634909714,1.29607696129001,1.3015637598179,1.29944423365019,1.29901568882614,1.30718389666368,1.329042198868,1.33789866961659,1.35349231871851,1.36626998436808,1.38618286572199,1.39691517374265,1.41955046906755,1.44179937108869,1.46378267645006,1.46862772993762,1.4809812921875,1.50439568755198,1.50843175448652,1.50177143467288,1.49677916198705,1.49606765600025,1.49772339716847,1.50232053655061,1.53037900181883,1.60933530292343,1.61690449118137,1.62668801038025,1.6311879188671,1.63907148717989,1.63801220702833,1.64940584958427,1.64903871683314,1.67259265006943,1.63264982719111,1.61915112367555,1.6180912010268,1.62358160129042,1.61479536569531,1.61031493008662,1.60986039552958,1.61686323351404,1.63844044715807,1.61110953930583,1.48976900701032,1.65573781375893,1.70257557465473,1.69741911461673,1.69339186427205,1.69547476386374,1.68857621479216,1.6852059241142,1.68509103198485,1.68677844424817,1.69810325493214,1.71315848598833,1.75490542715682,1.74291584122647,1.69122941159374,1.54788349224468,1.68636658521466,1.70880158667964,1.69924926101383,1.69177159098349,1.68994995901736,1.69210329930904,1.70081379604561,1.69078143826334,1.65438472662685,1.49773548249392,1.50847817179821,1.79550214840078,1.83403722156974,1.7593844021163,1.69417657652107,1.66272930825745,1.65633654286021,1.64371470083097,1.63772579519427,1.63351349755932,1.60495164809258,1.6113811087106,1.61994099827431,1.59990896138258,1.58070899524417,1.54860883912682,1.5449467157054,1.5373679061001,1.52530353246714,1.50527387697669,1.49476352034465,1.4952804567841,1.48444719646604,1.47179422866193,1.45217890640287,1.42401938303329,1.41374416132756,1.41572150949715,1.41333595888417,1.40926829333119,1.41636747296178
1.0507903765984,1.15746999547047,1.05502104828698,0.954176274548528,0.926342935242933,0.933363832990246,0.969796685098311,0.949014068497387,0.964594760074535,0.981020317837631,1.00017455741944,1.12347828170577,1.32162558068185,0.717315803869964,0.800917211736069,0.928774285084114,0.871915522828924,0.835618366183928,0.831204070583325,0.831431020433228,0.859758221632619,0.968802874412782,0.976113907718169,0.983743773967864,0.896819772435485,0.823071308207266,0.813667078681894,0.815077811003905,0.815436349264054,0.821514952459848,0.856553636447229,0.904151582846534,0.932874099499737,0.968764237620971,0.950956570608514,0.927434921772247,0.889973353527094,0.840478265893454,0.829921984377545,0.828861291100364,0.828974097813757,0.826309770258686,0.82564793315095,0.837660023839847,0.883446519023306,0.869858621095742,0.837512919220075,0.854552934438292,0.860818060571872,0.871761646592693,0.901360015789165,0.91252333844074,0.929082678643744,0.950779682417396,0.967588371411954,1.00013948552822,1.05910801783509,1.09338891867608,1.13829854525364,1.17495525524753,1.22441847523428,1.24601012672809,1.24889193432407,1.26257028358364,1.29509827287266,1.29917246505117,1.3077849717744,1.31138674074079,1.31625102407529,1.3171659584667,1.32275780856367,1.30313340018487,1.30514738648492,1.30592211123408,1.29950581339731,1.2955067672444,1.29425555970989,1.3004804836934,1.32325200140921,1.33263613377209,1.3529825522308,1.36138939960069,1.36825453118096,1.38373700805537,1.41430510243288,1.43534952307871,1.45929385817978,1.46808320798942,1.47494930878287,1.48072250749099,1.48823147898319,1.50540777106071,1.49888036595047,1.49543182435839,1.49356981147522,1.49518820518399,1.52182363734852,1.60966408842347,1.62439352693647,1.61163201904943,1.60794352861141,1.61801682538726,1.6419833621636,1.66510785552313,1.67842493705588,1.67813566635202,1.6434548736562,1.62996295226951,1.62591944999309,1.65159419946823,1.62641621711523,1.61176464971936,1.61028376261681,1.61689787924868,1.64693323875572,1.50385665742684,0.950789261719659,1.53125651429347,1.7185579038211,1.70978132463845,1.69665493396719,1.69260856298464,1.689721794255,1.68706794054249,1.68670411526321,1.69125077284567,1.70398020575137,1.7061830920024,1.71796495041237,1.72488040356653,1.57529190870839,0.984749263637424,1.52589884232534,1.70200550872547,1.70326712940654,1.69950741129126,1.69378173417022,1.69807547908486,1.69871334931066,1.6945371216242,1.51713206119957,0.780851097610559,0.798670472754519,1.62799150005569,1.81906781786492,1.74054119118603,1.55788382308624,1.63670324275515,1.66835465868663,1.66022444985401,1.64297408367447,1.63597838730882,1.64216540680545,1.66430292808095,1.61605075190946,1.60144724818432,1.58515318147462,1.563100527471,1.54504823015454,1.52407392864073,1.50525324826496,1.47533759840895,1.46917606855159,1.47072301584762,1.4714483988058,1.45482320664197,1.43180163721019,1.41874458676954,1.42037987953342,1.43341529318765,1.42130718686524,1.39719306128665,1.39702003342765
0.980039144612605,0.980676293938379,0.973270394594496,0.976495334886791,0.934080730335071,0.922536075712498,0.932944732129859,0.960020914091702,0.953199680087097,1.00270360581123,1.14611420156827,1.36105657100497,1.51626575946206,1.2292958156477,0.590012202885825,0.769626521247772,0.923101589568288,0.869670662178324,0.835851593422464,0.830506555360675,0.834560014886319,0.857467999683473,0.887853356316314,0.987852910502143,0.960544198064347,0.843045237374379,0.816199958278954,0.815004636589864,0.814950398141764,0.815430716643975,0.818288165939211,0.839467063947897,0.886560387853439,0.911231666129455,0.920799560017109,0.933131575677071,0.945606533319377,0.852430169101276,0.826821378577737,0.825824715374846,0.825080054164559,0.824353827048386,0.824761941133066,0.826824028249615,0.84342611988333,0.876852229673726,0.866185131592403,0.826692117304301,0.840912722211806,0.892100641395803,0.923006679014746,0.917145649493764,0.931201529613936,0.946316505103958,0.967310236979451,0.997368516118516,1.05464943009409,1.11294338746787,1.14326539514311,1.1872351974741,1.22077887793837,1.24522416324162,1.2561091519207,1.28559445738597,1.3007554078466,1.30138739078136,1.30691591214289,1.3354950558854,1.36670572207162,1.39814948512127,1.37647812236686,1.32165869832756,1.34344279728833,1.3476856679289,1.31121484531365,1.30082997669588,1.29945920577956,1.30589433980898,1.32155684335502,1.33096326551357,1.34518444070615,1.3620727382594,1.39010492820409,1.40391654605768,1.42474026620636,1.44595260107936,1.46082461851528,1.47190006154613,1.48343979868431,1.48455480719881,1.4961024559676,1.51099193531411,1.50123335257423,1.49725701982632,1.49669114444927,1.50356696586179,1.54082943192092,1.60944234475634,1.62386514597044,1.61657445975924,1.60683476672808,1.61596156809636,1.6379950822616,1.65299619601322,1.65669893874205,1.65653400894901,1.64947393329187,1.64388472782724,1.63982872163342,1.64500565871981,1.63671382927135,1.62003991112171,1.61655967832922,1.62046492642108,1.65716247753528,1.69470995875701,1.52216948303755,1.65431837470331,1.70647141888319,1.71295945989034,1.70910461863937,1.70011645819856,1.69161420517441,1.68701062190275,1.68709824091814,1.69619431828272,1.70457822085511,1.70291790935233,1.7083268506624,1.72648621880942,1.70441672043925,1.57863865727592,1.6711463346034,1.70446871985787,1.70996620185468,1.72163554541391,1.70810195326852,1.7345712151306,1.70080690886076,1.5596632935121,1.67564518133367,1.51682042122134,1.51133014646691,1.70931405214456,1.75365213391488,1.56058005606864,0.982711354121097,1.54602768079036,1.69172861326749,1.67759660382929,1.68442536778222,1.6781728386276,1.65880089043349,1.6472009333603,1.62836675065614,1.62265468772409,1.61304320714332,1.61010533399153,1.55851985649487,1.50927378121898,1.47515009190985,1.46383886473424,1.45798240900562,1.46170884637905,1.48762631344925,1.47221689433631,1.43477472720949,1.41780719587022,1.42042667016098,1.431573004479,1.40808224810746,1.39444899386565,1.38748627899112
0.942887415280984,0.940050979481707,0.93887413773963,0.939273383505153,0.92623854580226,0.92276816721235,0.954588359949419,1.05410086263969,0.980546354410039,1.05496619227837,1.23190481235098,1.36457524772011,1.21865876334928,1.20350548980202,0.832150644643546,0.54605782119354,0.892279146700497,0.947314044800305,0.87796989715168,0.855113906172981,0.832896574363383,0.826517264139399,0.839763632753015,0.890779259086999,0.899532692161418,0.833339893153306,0.816073844246489,0.815460081216691,0.815155261633877,0.815592105293277,0.814953795795652,0.823964434525532,0.857067952327021,0.853876542010951,0.854376800948153,0.873070051728129,0.927048521901539,0.875657155397819,0.862851496351817,0.856067813186724,0.830108435115405,0.824547074830872,0.827507181191099,0.82505073442858,0.832414361002896,0.87154978298638,0.873481574902174,0.829655860740028,0.860655589152213,0.881816414644094,0.902465376618401,0.91478588857892,0.921886523058601,0.945375663547657,0.982146316144877,1.01488220950823,1.05107153724614,1.11481574512067,1.15737614745861,1.21409048798502,1.22287898365453,1.2459375594109,1.26050548254173,1.29020631410486,1.31628104115335,1.30033830317208,1.30574311336874,1.33575746712442,1.33158812021593,1.33663524787644,1.33532230440411,1.31940833014339,1.33990469431724,1.35774883824252,1.33009965970314,1.32430337198994,1.32114731031117,1.32718531537111,1.32366055325877,1.33057577115146,1.34796084754524,1.3597652769077,1.37426823287546,1.39008058496914,1.42504990528344,1.45562946038402,1.4631720759761,1.46990675480201,1.49923721986879,1.49870244432807,1.51284267295307,1.53520813244283,1.5153577139769,1.50929327568186,1.51132888986723,1.52362184847024,1.55485819251329,1.6089274229591,1.62021414321722,1.61344241038455,1.61089638868518,1.61912542004786,1.62996601129268,1.65591757888799,1.65869757752475,1.6537534878743,1.65437316040666,1.65001944887911,1.64736508036656,1.65320913324437,1.67163612749297,1.63990452594244,1.62758395571335,1.62433295831134,1.64663172879673,1.67819737221992,1.68569693121893,1.69449599807825,1.70201443426173,1.71976591161887,1.71150078857889,1.71287111194235,1.69217794801206,1.68746410015194,1.68835820255376,1.6924087573964,1.69397465458047,1.69822996389956,1.716978898434,1.72805200782093,1.77920275060031,1.73415781794298,1.70806877462676,1.70547423926698,1.70609223945291,1.70760302990794,1.70562663081161,1.72062970983061,1.51046465829105,0.748826773845809,1.35709351838056,1.69551493710152,1.57961813452196,1.69495687097066,1.73476831424593,1.68898256020942,1.55109163599957,1.69457109294179,1.70307162441163,1.70744439167303,1.77410807093209,1.77603613955616,1.70469175618065,1.68633703930256,1.68422658667781,1.66981725414553,1.63719728816682,1.63563791050433,1.56309234624884,1.51639010056141,1.47866027914705,1.4677633823239,1.45705431897818,1.48268828310135,1.49924215512763,1.48260968792362,1.44307426969277,1.43144735263589,1.41936846187252,1.41987733277028,1.42571661121819,1.40054936473492,1.37374590853249
0.941967306223766,0.942270161216292,0.933565987437457,0.930008563329419,0.925558859856992,0.923838772060448,0.932821199659798,0.960028812028438,0.942486735353404,0.991265828189704,1.12927412753169,1.10209792038864,1.15666674143923,1.21715847300982,1.06858224703663,0.967705248998142,1.00699703811523,0.873533253360632,0.825144640579488,0.828254747987887,0.827735751482341,0.752676814482493,0.871166381487733,0.989930853763587,1.0333843000425,0.863382277305896,0.816872533598391,0.816977390475439,0.816850689075476,0.816732320006979,0.816511198678815,0.85190890792226,0.964190697529366,0.870101387779519,0.839392261392276,0.866615242074108,0.974362680626073,0.983888557614925,0.976906355717825,0.949735126377896,0.84549175994868,0.827946653709777,0.836979144633355,0.81868244311099,0.816614247356711,0.837584368728381,0.858446990964353,0.82301963706586,0.831922770263491,0.864983765422746,0.920626308583707,0.916746044160223,0.911129806117083,0.946162346070845,0.984732796199733,1.07381595612867,1.10645591064965,1.13224361053785,1.1590073665639,1.20773667309882,1.23464947734518,1.25716005288963,1.27949902202975,1.28287197016695,1.28861798952862,1.29141726362957,1.31071617526312,1.33811921910067,1.32969391802411,1.32644080274465,1.33039901502628,1.33174318715004,1.3458275961535,1.35959605923391,1.35314064222003,1.3354969427346,1.32930332201521,1.33669853606316,1.33035757456316,1.34124207623025,1.35100542336001,1.37544867719605,1.388970993641,1.40261277107643,1.43292392395766,1.46190526631196,1.4680745202169,1.47095733680226,1.49749658002823,1.50982749227339,1.51620194273794,1.52612068817661,1.54076769462498,1.54088155048382,1.52399644878486,1.53220556120751,1.55279732681786,1.60158552677476,1.61630993537507,1.61148592972021,1.61403254285952,1.6274430030749,1.63000559808999,1.65377487916571,1.65585902522338,1.65297012290131,1.65249781958931,1.65258338613128,1.65606851526592,1.65285026209753,1.65402724727348,1.64140007818886,1.63920568181581,1.62729729566986,1.63353481738817,1.66093795931479,1.68044950009928,1.70014248046684,1.70749572080973,1.73184343130731,1.70177393628866,1.67563566539316,1.66686319139176,1.68170607624547,1.69211451593249,1.69384240160196,1.69976281629163,1.7115184213375,1.76461902347331,1.73796494329326,1.78350856527902,1.72550710718684,1.70590967489844,1.70431740543005,1.7027235147109,1.70207346934427,1.70379248042308,1.71038307178364,1.44687371853329,0.409396033511027,0.684624320238825,1.19899236629881,0.70825278484438,1.26002504271227,1.44639354920044,1.49956363366277,1.7002709434526,1.73632469290466,1.70335806634146,1.70029303728636,1.71707385348842,1.71839658851088,1.70531545580883,1.70476314486959,1.69835046649209,1.67269898979736,1.64809571308405,1.63444149845196,1.57135657407431,1.52113033972,1.49795222760249,1.47217768236557,1.457272772788,1.45537760593697,1.47869335442047,1.4553867056438,1.4557021836036,1.4999190584022,1.43920977566446,1.43523612407311,1.43994000539306,1.41252610028433,1.36239890644563
0.940911264738225,0.941848588682623,0.934487009649803,0.931836608697174,0.928282892635817,0.925686279350971,0.9262020255023,0.929736611114268,0.93147891705037,0.94049932707067,0.970387929899715,0.96615899350202,1.03354188836585,1.20075274394659,1.04431094376734,1.02614068487417,0.891958148459304,0.467706268456751,0.351582376099447,0.44084189132966,0.680888331319151,0.544920093180664,0.952957294577191,1.03812132830378,1.03114609540002,0.882941973267865,0.823144121784253,0.818083346484863,0.819564890235421,0.820742198665727,0.821459606439014,0.868821732345111,1.02008237505727,0.884005548760982,0.839584348864965,0.862490002177917,0.961530891759358,0.976315309993918,0.870016640545753,0.835973495076833,0.817297090462269,0.840514631888114,0.830189668607622,0.786489164402706,0.781508498553135,0.814320171199467,0.831477273285481,0.824573516376251,0.854078040765093,0.884591867507813,0.925854335148811,0.920429110979934,0.914113175996101,0.940430652658449,0.996076522715079,1.09146111634388,1.11983688284544,1.15018400164625,1.15847506611996,1.18406830113804,1.2176197992038,1.2429692842824,1.25800399898843,1.27508223705914,1.27606741757435,1.28478549576027,1.33706718776582,1.37244976664861,1.36519792785986,1.36834404846527,1.38520112056064,1.3830988640105,1.36148328017567,1.35806927212179,1.36230060950337,1.36814774634828,1.35501611945129,1.35547850624979,1.34991756526782,1.34645648104985,1.3527266806844,1.38710125095847,1.40899934500326,1.43054932051469,1.46337701443567,1.47734068014226,1.47862574413877,1.48661705037944,1.50570582631921,1.51341611245408,1.51917308257423,1.51752061524373,1.52279736230788,1.53021837102444,1.53026741286989,1.53843001338406,1.55300725148179,1.58805851788618,1.60293801984354,1.60776184539131,1.61839782498873,1.63988461179341,1.63523553023663,1.64496893936889,1.65832231199253,1.65216230885693,1.65026566908811,1.65562235675809,1.68074389994094,1.70100692216254,1.69234845860754,1.65896960046162,1.6481916685679,1.64846240367011,1.65107572537956,1.6629470731375,1.68488511476594,1.7105072036785,1.70630275834401,1.68810421528628,1.67555408645746,1.67062656143862,1.66340564816255,1.66710213331438,1.68425784785577,1.69607179374649,1.72397946765894,1.708838469145,1.71808878996244,1.71036817137048,1.71916489501128,1.70744092252455,1.70418098687202,1.70139810807553,1.70033731560243,1.70397467984056,1.72322607482308,1.74673957875219,1.52731828006014,0.723088072733056,0.97816117863781,0.43797236446277,0.118597931300033,0.250373710711395,0.299213576415198,0.508538883684199,1.35930433678738,1.66825449019093,1.69256114720407,1.6966393935786,1.69737031761867,1.69700972743502,1.70084738422428,1.711671051053,1.70585870871154,1.68353107004444,1.6228422816709,1.60431083890506,1.58214645071693,1.52331809843129,1.49179445058685,1.46268737975136,1.43648421476266,1.43178757797618,1.44279912911529,1.44149148466952,1.4571410121637,1.50484473098353,1.43736189669522,1.42186422089422,1.43024231770105,1.41497422410717,1.36286500090002
0.943975264485197,0.947284446775875,0.936944618974653,0.934032533872743,0.93384682261937,0.927753409059385,0.926771990555,0.929683414849326,0.932028793304115,0.932759029391228,0.943244524217526,0.98335038156526,0.993789847387185,1.00627250758568,0.96945948980427,0.969676566685935,0.953823751498779,0.925135062495501,0.877285179351695,0.809933843277691,0.414111060526082,0.720670602964918,0.9859521646595,1.03396131591748,1.08705756042375,0.990315772316567,0.871770574736918,0.827439488466342,0.822893159842721,0.823821396007941,0.822703056014749,0.832690697735543,0.870131414503615,0.844615735141548,0.837716431761385,0.844465696878193,0.891855540487484,0.958615860196908,0.85884115930528,0.816423152031464,0.801493326331443,0.823353872460995,0.784555209520128,0.763278358909924,0.767943977543199,0.802106572233017,0.822184853788462,0.828141340232895,0.857455177126289,0.879462118957176,0.913663970717085,0.903708002033318,0.897651934408507,0.939296150314504,1.04782041483259,1.10255701288832,1.11920643348751,1.15400141695778,1.17189538226281,1.19621246448397,1.22403773434945,1.23787394224359,1.2539532844659,1.27554025546358,1.27299049785452,1.27710950207391,1.31949061499834,1.40094977947958,1.37604123114229,1.38723922715499,1.4323075100849,1.42696844613404,1.36870018506489,1.35726481364535,1.37319118157197,1.39542133085715,1.38684754716384,1.38528756007104,1.36864814529274,1.3593891619098,1.36356189398238,1.39676515468899,1.45412953512418,1.47511144234235,1.48663307597852,1.49019441974797,1.49888358765744,1.50698330686836,1.50966593864902,1.5099369534622,1.51162517506272,1.51574321700144,1.52661638624171,1.5352832715053,1.55081935115446,1.55379496627288,1.56632306522699,1.57832446391944,1.59452375932129,1.60305154371018,1.61296316517424,1.62450293943725,1.64314639970996,1.64821471674489,1.65458051869521,1.64544095894637,1.64436431001445,1.64541804085757,1.65716684283648,1.68420815368004,1.67981952639769,1.66502998184,1.6435475538813,1.6525484944509,1.65542617766587,1.65977237742096,1.68283515047318,1.72664518036595,1.74292924424324,1.68574121280579,1.66880256417494,1.66923847635861,1.67868547647365,1.67735440636506,1.69317066244368,1.69313002837675,1.69803828325424,1.69556493849412,1.70546620937559,1.703538524987,1.70492978453448,1.70209975885351,1.70151376726446,1.69954512530846,1.69631922019821,1.71530084690663,1.7871500389149,1.8179000045772,1.76741772908756,1.42592371375239,0.71853454856412,0.354164864467595,0.252253076399178,0.0635534985923486,0.0604735836104404,0.305931033902077,0.736363275992256,1.504047280043,1.685437430493,1.69789477148076,1.7014572815212,1.71591103215369,1.74226241101202,1.7383712535237,1.696623241219,1.67465783258002,1.62658658103373,1.60854439134968,1.58579847460331,1.51968154553367,1.47669534451193,1.45832781268912,1.43657792450202,1.42766442844478,1.43261276114954,1.43764546379553,1.44222368332585,1.45212179713225,1.4466564127133,1.44822210493027,1.44229246636723,1.4124747221745,1.35955043728896
0.94347823285148,0.942046835611587,0.93583516737587,0.934186804405006,0.933607976579625,0.929242009693129,0.92884959708157,0.930983863873331,0.938773893498501,0.961480258042842,0.982258693953159,1.12356687869228,1.09622896596244,0.973694658783098,0.954329663900251,0.932346090906485,0.935947283006871,0.998789164499253,1.08197411416246,0.982647421596435,0.414687185347534,0.466107410527703,0.800725866728947,0.969387731843245,0.939191414423484,0.991715952776298,0.956923752361858,0.855311650262896,0.827655310988031,0.824549851313579,0.822405057898901,0.822637937193136,0.827594464160241,0.8318194672476,0.83448461550899,0.847329627216755,0.909691282806132,0.961059681789856,0.927086529123618,0.857169486806043,0.759071825907724,0.742653344222103,0.737936054111056,0.741605065686735,0.758197421582811,0.799134374253898,0.818385226925466,0.83751098441039,0.853423475948368,0.875222377742723,0.888185167254034,0.901834527666304,0.893208468694172,0.914707112040152,1.01053683647016,1.0948784002449,1.12997655285436,1.17759475801347,1.19410825613096,1.2092857563864,1.22427784499556,1.23623153794161,1.24922166921,1.2726864030491,1.27918982756969,1.28959467469068,1.33355190988607,1.3643256573702,1.36864862733334,1.3802947867987,1.40360701190438,1.40156241800425,1.37069430665006,1.37098836539399,1.39895785469324,1.38340358571601,1.25849502125157,1.38279838202547,1.40221774978417,1.37686523004319,1.38601993704673,1.41715030388745,1.48382165764452,1.50969226282755,1.51145853404327,1.53807397328208,1.5447180066032,1.52916941586841,1.51417741552916,1.50943558725367,1.50854131020843,1.51804722712724,1.56148685508588,1.57532586464273,1.57646087089504,1.56105917553378,1.55258840534028,1.57346842241813,1.58265586824488,1.59175956604676,1.60120882804555,1.60656112133332,1.62172287663798,1.63985199832127,1.64032621871481,1.64255390326118,1.65088191395856,1.65043264664153,1.64719885840772,1.65051061197116,1.67479765125336,1.64904264733852,1.6509011045987,1.64932076029395,1.65708233192675,1.67181261114012,1.69138711952853,1.7433367059205,1.74763049389678,1.68661982796784,1.66887663613484,1.66762525644762,1.67564648874293,1.69543940402493,1.72962630511698,1.70689942076459,1.69200731299126,1.69483053123264,1.71174400709334,1.70594892318121,1.71825370373752,1.70958624961932,1.70739210403526,1.66429818264805,1.51492293205017,1.68053601492868,1.79029220012195,1.79993681906197,1.77717136974796,1.74923091767983,1.51052179248066,1.44325421185683,1.25542313955216,0.442131721454439,0.299765337365002,1.16029221176843,1.30192583916699,1.60140149000635,1.68693549749861,1.69640318387528,1.70998618513716,1.75594240381984,1.75487593809404,1.71974427699747,1.64673419468912,1.62555854823401,1.58260826775226,1.56336168688014,1.5297424276658,1.50386023550327,1.495299663277,1.47730089909543,1.47031050342411,1.43860367609263,1.43217038186674,1.45456853785589,1.45561530719572,1.43602926489248,1.43324537939258,1.45273641294432,1.44476936355117,1.38250955013523,1.3451712923976
0.963693558079115,0.944108336734334,0.935039021235305,0.934158473654883,0.933574258027851,0.931358175485988,0.930562011305364,0.930933966459361,0.958316611918009,1.04421389225903,0.977236137978452,0.974623743204678,0.960528438830183,0.92872646531263,0.924853129142085,0.920356023837659,0.952137855962694,1.06770093902375,1.05890743117525,0.988162510306789,1.02431073622809,0.961671904053116,0.596549496649585,0.815838729146549,0.558767480028818,0.821095999506153,0.873878556008011,0.842736682651134,0.834212131625857,0.827032591885111,0.821701861770556,0.821216940816297,0.828186675897136,0.849957120305242,0.83794294903829,0.859191948841994,0.939764802129609,0.863345654284926,0.815224293682279,0.761833836757546,0.727875451604411,0.720468376654043,0.723593422708013,0.746520011457672,0.759847140633202,0.793503456874902,0.824511695708211,0.851637622320077,0.87156762035965,0.900650114675789,0.898633989069328,0.909348780548993,0.903449936012001,0.929864073339806,1.00371935949277,1.10193644771317,1.16199625092219,1.19359121983043,1.20614918833376,1.22384653341602,1.23086525194632,1.24635160903768,1.25434125315199,1.26958117678605,1.27914534468752,1.29478292113496,1.34002612457641,1.35096664799164,1.35762797914156,1.37213274801301,1.37122348371422,1.37482681350256,1.39713291740713,1.41506861903037,1.42262967106238,1.28227813798266,0.814515082057676,1.30259541070235,1.40340340461954,1.39047462201506,1.41389844743358,1.47599486289735,1.50672110002119,1.51392821702953,1.5163801268205,1.54212577561553,1.55145581824595,1.54476933580843,1.52147080166316,1.51221553310624,1.50952091118534,1.50851952285717,1.51778407510271,1.51835281673058,1.52521692022734,1.54877044150248,1.54304999908227,1.57736260070418,1.58240830451376,1.58433412569842,1.5878204746442,1.58617884633162,1.60634195990514,1.62778139567531,1.57886390809137,1.47772754811523,1.64482688118073,1.68757100293991,1.67068674415016,1.65637230098022,1.67696351367619,1.6493140047838,1.64882309772703,1.6390273337501,1.66720050461889,1.6999515203442,1.70060601172877,1.70990921516936,1.70868627288016,1.68908171472092,1.67056063148589,1.66487820153196,1.68533042795248,1.72804259710532,1.74541924587864,1.72924550903626,1.69938854502542,1.69660757849954,1.70557729976826,1.70886515094375,1.72821139396297,1.72999500176894,1.73280489545599,1.52196983939026,0.745601400766648,1.33961008340536,1.69203174959245,1.73188880461481,1.73538158934458,1.7450315027195,1.73253513979952,1.72848507848405,1.66133534423721,1.27920732515503,0.675153290595604,1.11605045436629,0.913676284182894,1.50742868059978,1.68920262391388,1.69738970858407,1.70889834677384,1.74750131323485,1.72568122523812,1.65373146171044,1.61966314771957,1.59841262616564,1.57267124947771,1.56104670779503,1.54705938188286,1.50895725321803,1.5014808622477,1.50016358989843,1.52115578201683,1.47310688125528,1.45001088167167,1.46447242988041,1.46779357369498,1.4560009366616,1.43400496529327,1.43773766906245,1.43632868517001,1.37797054303591,1.34364153801308
1.03010816440231,0.957647187827169,0.935514276732071,0.934138241250025,0.93309741306334,0.932024957564714,0.9303525940749,0.93065335122368,0.937708837778146,0.94867508143635,0.928015688907703,0.918978701664491,0.916862235027711,0.923784181186197,0.950312826593708,0.935092887788816,0.978461237686487,1.07259285136865,0.874473629756947,0.572350194208927,0.948142687987148,1.02675418736144,0.834465107492057,0.820455568061005,0.735672234194961,0.819472173545936,0.840056322591556,0.838063452687693,0.837020630217046,0.836853933999139,0.837114059310915,0.823612579911456,0.841055829267886,0.907614195863845,0.851237653053551,0.838713555359937,0.85301083099274,0.807404023196994,0.748018123350515,0.726953761767505,0.724406576224765,0.717608558784449,0.725661401232641,0.770113368612242,0.778465168661639,0.803461490395139,0.842718443247801,0.868469884668517,0.884255228207217,0.897840574028367,0.909950533166924,0.933148763282133,0.93844346665493,0.954728905605572,1.01085744058662,1.09622784404587,1.16531030027842,1.19024035749608,1.19967715650607,1.21407515906144,1.23175452615382,1.24705986510939,1.25351869383564,1.27088049261665,1.2795553431904,1.29427951489187,1.33801430663403,1.34988260128758,1.35552842577713,1.36198153819972,1.36277298089237,1.37639326579909,1.41847637011147,1.44014618487322,1.43962724470984,1.42336434237613,1.31415334697135,1.43923867515362,1.41956327787007,1.40102171824713,1.42080411272058,1.46370338170774,1.49313474231121,1.50089852766553,1.50765354523682,1.51398162475114,1.51829074886014,1.48599511795909,1.3572705941065,1.47860528634906,1.51534593701247,1.51145973841328,1.50737638475919,1.50115378875039,1.50885297341035,1.52397398334981,1.53904149964864,1.58305891790313,1.58793490648535,1.57874261664917,1.58697705828674,1.56904925015443,1.58053980282594,1.60346983521403,1.43564949779127,0.935626310466938,1.52974484569367,1.7145089949827,1.69396265535315,1.69633819646637,1.68456414927931,1.67197953387776,1.66288240858435,1.65159712236028,1.67826503385708,1.73532449394638,1.71591783092135,1.70682125026084,1.71376180868495,1.73615528025034,1.70230704738196,1.66844122821771,1.67785664030981,1.69964530850076,1.71451578229798,1.71275877905609,1.70420026071875,1.69948775318975,1.70150085506954,1.70628743581465,1.74174806942207,1.77303541266648,1.74835820426582,1.52921142594074,0.559957572855657,0.506428603088424,1.29669216393095,1.67107874368552,1.71422772893314,1.70963350056738,1.70952485476376,1.70931279759135,1.68899995844501,1.65054625162933,1.34161991217362,0.876476830945377,1.34968783213788,1.65739051483868,1.70301918749572,1.70045916509835,1.70120959883085,1.70278954231167,1.66679773805855,1.63411821526227,1.62486537040249,1.6040786039655,1.59249733915299,1.57675558376924,1.57444682364183,1.52860956530786,1.52701205170611,1.50090453781578,1.50090014517427,1.48707650617968,1.4878678228482,1.46828353792479,1.46773403006781,1.46307314645239,1.43498376584152,1.42925302399403,1.41331644638264,1.38681371473384,1.37199086450614
0.975560277973776,0.939340532778832,0.934229194543629,0.933692724178766,0.933049989156086,0.93206119337409,0.92965223910494,0.932538092926401,0.940594431707108,0.920429466318987,0.91526425557002,0.915777987908545,0.916894493990657,0.956835624108022,1.08401513795728,0.994421397769655,1.02857648204782,1.00782811547026,0.567433287005224,0.795811350802339,1.12106598336097,0.958874411234034,0.479130115516421,0.251261471735218,0.408732433572306,0.784984465011927,0.869097335672639,0.855301592941066,0.841520658681137,0.852165335936935,0.884794175921535,0.833954437790853,0.823811467056697,0.844107925087087,0.835852410434756,0.832353569821931,0.809014615152989,0.72013522898444,0.717363575321667,0.724588602430528,0.731527602209626,0.722469644033885,0.732343137607188,0.769596783104708,0.788659779572368,0.845740637107522,0.879333965894523,0.89084935849745,0.89309306917293,0.8991091771221,0.913641670216995,0.943018614808068,0.955760601553748,0.972934371465115,1.01094350895615,1.06935817120299,1.1315616206467,1.18124588736748,1.2006164153415,1.22304116670911,1.23531013604061,1.23898869624381,1.25628435550664,1.27831395754099,1.28371638746465,1.30044524372847,1.34509516679502,1.35974027284863,1.36628313823696,1.36518523248103,1.36486794553234,1.39243314708795,1.43754583180697,1.43748142621218,1.39993404302432,1.30860685473632,1.43725469111698,1.47636584222833,1.44793859100721,1.42655703533301,1.43119006487254,1.44900458366043,1.48012419402952,1.49946980740299,1.51016041816181,1.50977389227501,1.50717044475582,1.35510614527313,0.857335508079604,1.35422393768147,1.52115342065972,1.53024379784382,1.52763043605179,1.50883646458569,1.52785643842328,1.54156384704319,1.57440700058231,1.58939680501539,1.584322236367,1.57715223092514,1.58957407480974,1.57306988891875,1.57324202224673,1.59507025093931,1.57734464226669,1.49217338559393,1.60840117246141,1.53282889843481,1.66040893647653,1.70396084783595,1.68319240317927,1.66968747142191,1.65861651352022,1.64419570296172,1.64197474099361,1.56436665433464,1.70654027367351,1.73477717295461,1.73442033942308,1.74340540304661,1.71522401697376,1.67163046052455,1.66957584888265,1.67411491711119,1.69601777671073,1.70304503294786,1.69389789658703,1.67093442906271,1.67102957425587,1.68587884274669,1.75961237025341,1.88207072062024,1.77445193372817,1.71538567427493,1.33323258594485,0.548579761349256,0.734720341431958,1.54755065301073,1.70994545155671,1.70228810379503,1.69906950333176,1.70512941423666,1.68383084900484,1.70566594725127,1.67806478448621,1.53850164393184,1.67226449104379,1.73102140555107,1.74185332642359,1.70938419743804,1.68963048657209,1.66832472736207,1.6514632440782,1.63294754695555,1.622330519905,1.60475442735563,1.5883152158409,1.5712745558032,1.55872621267822,1.53932163607948,1.51740234127152,1.50236322315721,1.4928624463732,1.48632218899668,1.47361205075691,1.47080515862465,1.47103227112542,1.44496586390613,1.43836201654196,1.45081644633618,1.43843486970094,1.40243648695915,1.38783675612129
0.936974730391073,0.932511884089821,0.933100668711151,0.933438387597054,0.933675781119725,0.933382680812988,0.938383591401065,0.961769928708302,0.948984973827846,0.925010769097953,0.916100410526986,0.915000904378689,0.916205602601757,0.959461752045878,1.10055384454756,1.03228394768863,1.13109749849096,1.15182267886732,0.901865290925222,0.9726471243454,1.07446071847079,0.640865230870146,0.791434768169232,0.435042987878698,0.787865438755577,0.990272142846248,1.00317205611546,0.942653037199449,0.88339292641313,0.872217694391063,0.872190629224216,0.853324932850503,0.829534855571637,0.831481938785743,0.833589778614626,0.831774494180381,0.738315945658681,0.435915630320338,0.646006210941287,0.724664004340928,0.736948201776514,0.741400531218574,0.760315688074512,0.774599804594088,0.785744790859747,0.838094079473738,0.860947349324266,0.881382496490092,0.882749144147433,0.913179892770637,0.932849006165895,0.951309688883496,0.972174613089944,0.984092983797035,1.01162358787407,1.05100719539481,1.11595550499531,1.18240549050307,1.22075205047198,1.25572997989199,1.25573249338047,1.24041577816865,1.25710658495465,1.31480463857861,1.29275791847327,1.30863534525859,1.36325423046317,1.37678099434817,1.38989079405029,1.38709198332965,1.36671172577373,1.37526755352509,1.41186339535267,1.41536443535867,1.26973869910536,0.816938214508398,1.32940488712445,1.44547714942446,1.29207784471749,1.39463312582655,1.43369868086317,1.43813127745419,1.45816858410958,1.49814619110363,1.51604439948338,1.51606268662079,1.49933658896165,1.4642812077354,1.36878992102754,1.47541349928219,1.53319677782047,1.53032486392257,1.53033968306202,1.5298173498418,1.53498419224554,1.54643534528647,1.58660096535431,1.60232023516341,1.60810829597802,1.5850850312912,1.59422818666799,1.59245455030686,1.5894597568979,1.6058435617563,1.65367133606393,1.68257749521542,1.50945698900512,0.965167152384845,1.54090011664124,1.67843615845256,1.66206375117842,1.650256988691,1.64313839088963,1.6566106229581,1.49461947328062,0.957983513810321,1.53260841355245,1.72755700279561,1.72860745092193,1.71851748243375,1.68516045443395,1.67362443658936,1.68491514183121,1.673685590287,1.6855562352575,1.6697040983063,1.66211366970319,1.65805738445754,1.6670653707053,1.69209656822074,1.72489003600361,1.77195641031978,1.74539054855538,1.74166109660201,1.7119831382264,1.49808664038845,1.49248224414494,1.68146666965409,1.71127632030262,1.71500705721514,1.69541694534559,1.69787573642131,1.67431076318027,1.68107351693919,1.71021630941782,1.71523608716293,1.713906344708,1.72048603101776,1.69077721143025,1.53920291267938,1.6460658770913,1.66153978436088,1.6559391572021,1.65058626292505,1.63906031666657,1.64473455723488,1.6322454733829,1.57986877856708,1.55392983153366,1.53410713544039,1.50789093978744,1.49788624367141,1.49243439414859,1.49096667247508,1.47580703399319,1.50203004982506,1.50272231163217,1.46884533458377,1.46285174282592,1.46081725889837,1.44420091992554,1.4318075858461,1.39935892778063
0.930215641277103,0.931045970807439,0.931857644399033,0.932414458215253,0.938503137802172,0.954548839283824,0.94380774905194,0.955255092543366,0.955720610143057,0.94604036642557,0.925453875526038,0.920781058847388,0.921854920027632,0.946485234684364,1.04312097568151,0.99622282679933,1.00605364830988,1.01057248145747,0.967277034760149,0.998333103953602,1.13746700753104,0.91931751767269,0.940900090458485,0.783916477490761,0.969747876700886,1.02751959786709,1.03114006142309,1.01459049382072,0.993076968106469,0.977030665715157,0.954861207729866,0.972394880544597,0.881665519047569,0.83975613214722,0.834872238493787,0.833367145853654,0.794888124698736,0.661142973669478,0.702236851646304,0.72426136499974,0.737262596535812,0.748742976110001,0.763215723642817,0.777787496147318,0.776808388564909,0.785973206622778,0.806009788528931,0.857365181240472,0.875166932245524,0.887690433402103,0.908744890199888,0.941773709297266,0.969186718842926,0.981191783191647,0.994970391967723,1.03443178824547,1.1105641039415,1.19203097880524,1.22689041240661,1.25615152740236,1.24553089433857,1.23621167193527,1.24760448847283,1.29199716948299,1.29534825574406,1.30732981637051,1.34922961365585,1.37017437181662,1.37597750648669,1.39785266270215,1.36955759918244,1.3558466269414,1.36636712279441,1.38197208688323,1.36322168907399,1.26885138841777,1.39672803701583,1.28102774583025,0.79900011775803,1.26334177410833,1.42930734150861,1.43371798600693,1.45105099418765,1.49234353902032,1.50717056261634,1.50906494780454,1.48196902769472,1.48120833437357,1.51724487430921,1.49834841118221,1.52796561521208,1.4990721824789,1.49731844129816,1.52895629797705,1.5389766379622,1.54609727825251,1.58939012966064,1.61003122569991,1.58713601079153,1.57830476785139,1.5956703412099,1.59469346540125,1.5961449885634,1.59975915043146,1.64045648516739,1.69788433200661,1.66538330840907,1.52799539200214,1.66098438980164,1.66463947657407,1.66002993010915,1.67280860329313,1.64295377309946,1.64404458792114,1.62069497252144,1.48891824720742,1.63243381973036,1.68513583665812,1.68132836361326,1.67415202971757,1.66661562789537,1.66954784226452,1.67212956176169,1.66699744194213,1.66363976595537,1.6572258548097,1.66111652213211,1.6733093742147,1.68640530007466,1.70297611025727,1.72637686427992,1.74125010581374,1.74754047516462,1.73511448456654,1.7530810087467,1.74546601461853,1.7210018729989,1.75431695536545,1.71781131768221,1.72291283849715,1.70502515719409,1.67281645765217,1.66158799478931,1.66794431200519,1.67678192287901,1.69017861180508,1.70501114500781,1.71117690091734,1.54254309511988,0.993936269267697,1.58246858045905,1.69818131165539,1.66809434828198,1.65963810713119,1.64373070923158,1.65014134486757,1.64182960804141,1.60222120344703,1.56769564715069,1.5337477442302,1.51830712527203,1.51170805578063,1.49950465678383,1.49943853722508,1.47609237436878,1.46373446083816,1.46248062118184,1.4617135582542,1.45611888420556,1.44506691907149,1.4414839769581,1.43886915874022,1.41364975445075
0.929098713832629,0.929329318644195,0.930356813352091,0.930983199122662,0.9568096761593,1.03374818542167,0.866680547355594,0.560216090400312,0.861285087956658,0.955289124717529,0.948043489748823,0.95636678427945,0.956966254338759,0.963286761210138,1.02567623813553,0.988034079980685,0.963755108153529,0.950482203507103,0.946617967251681,0.954759265985032,0.992524637801999,0.999141480791215,0.948023831116007,0.581807162206446,0.89481518331267,1.00208926642245,1.00776673031126,1.01596175058146,1.01390448447954,0.992484724676573,0.986051647921674,1.00637012535786,0.924341818200138,0.849473867746285,0.834666121583149,0.833462619065378,0.817753112649714,0.753826550661476,0.728971223997109,0.726129399542162,0.735714990868474,0.767616008004811,0.778456150665075,0.781655738560943,0.78045592388718,0.790236022249656,0.78534711271779,0.801204168981736,0.849883409527282,0.877261806246233,0.922272440663642,0.937597371364112,0.952709918412771,0.980803516133779,1.00608107371812,1.03713406252423,1.11816119204593,1.17687017324197,1.20540044683271,1.23316256774476,1.23787539671515,1.23635828914925,1.2471020168231,1.27427497993062,1.28971842390604,1.30654445302462,1.35153656606158,1.37557329470369,1.36217912915412,1.37560537991994,1.34767713328075,1.34334153073012,1.35622478225888,1.36402850271479,1.38011287911362,1.41410432911973,1.4087225462641,1.36995153791548,1.24863266343926,1.36776096928729,1.42781701892723,1.43978861354128,1.45616211052507,1.46161059332588,1.47314703183276,1.48229168012394,1.46658938552103,1.4637310362072,1.47510287643602,1.48194451964946,1.50323373651036,1.48869792537809,1.4900498233914,1.52053245314928,1.5476656768553,1.55058431502848,1.59368003865504,1.59509756966674,1.57691983370314,1.57960660865193,1.60003345952764,1.59386498673328,1.58938371470546,1.59807507336902,1.677110676662,1.70916828117911,1.71319044438503,1.70781405967516,1.6826486986376,1.64890358151159,1.6401359284507,1.6494416908204,1.64516398035059,1.65011569924207,1.66297184252733,1.66617297494627,1.67435677319167,1.67629639537921,1.67174593577063,1.66788971430484,1.67528774523197,1.67364867491591,1.66873525038677,1.66640347814125,1.66398266719778,1.66634658421006,1.68799033856796,1.71742455461068,1.69958321049498,1.69853687291431,1.71659509957303,1.72544678494696,1.72790193470853,1.72420028929367,1.73060229949062,1.73387714381097,1.69158926153917,1.69206511352767,1.69317467102926,1.71176640679175,1.67509012244814,1.65629799521882,1.65823933039768,1.67461397510273,1.67855929971846,1.69826277683944,1.70466427134688,1.67249939242918,1.5466492889937,1.57589511029914,1.773789447586,1.78691233731492,1.70605135509041,1.66113143397475,1.63634683880741,1.62948032648686,1.61547459165726,1.59955279297078,1.58057938964866,1.55367611954527,1.52251117559589,1.51353600811915,1.50474862203379,1.49478837365097,1.49339321651813,1.45850246302214,1.44644311626643,1.44010873089026,1.42494235615098,1.42414259960665,1.44157128632892,1.44710330672896,1.42250954501801
0.927673421298859,0.928083305807994,0.929113546204931,0.932323408254291,0.965053912561456,1.03747757495784,0.939083806000866,0.839965474637287,0.918906826008439,0.943201525048869,0.951812168413262,0.987633566508171,0.981298599715471,0.99188904824797,1.00407290976538,0.980257982181441,0.952285435809812,0.944289690744376,0.9432366384289,0.942129637900137,0.940107121936825,0.950245663628142,0.9546746223374,0.911248311730646,0.964495080094125,1.02973383437858,1.0191279243077,0.912508954499686,0.993186902723485,0.997951132181312,0.981408427340566,0.975381843881966,0.902853795141957,0.863615219762367,0.839874722590644,0.835970453564044,0.832714261506717,0.790856607173,0.740573642505793,0.729310420539097,0.734581169162792,0.764503440027732,0.777898365725625,0.796931225760727,0.811884522945279,0.848412996336299,0.794846913221101,0.780532330819044,0.79511749990531,0.833520345540277,0.920900082069213,0.949755540302384,0.972746333817713,0.989371428133968,1.01944830200537,1.0617658217852,1.11844081416963,1.16784384874871,1.20147195067636,1.22213189285715,1.23342351992656,1.23823433539262,1.2496972018227,1.2799974296386,1.29989745871515,1.31253171295369,1.33029433558775,1.3436907206434,1.33804346667872,1.33160536949848,1.3237213095853,1.32635169021088,1.34239536817696,1.35562470372639,1.37091163853022,1.38206755449194,1.38643943285837,1.39213825509974,1.3866125189534,1.39696478802582,1.41644391467798,1.44097992345592,1.44949398392069,1.45161312342656,1.45894341445612,1.46491695020825,1.46027943434271,1.46409832323003,1.47870780821359,1.49204029435527,1.50456362640244,1.49878081920759,1.50255560374913,1.5176779185165,1.53241881586332,1.53978060848679,1.56081804015386,1.6057289598248,1.5826579289843,1.58652510368684,1.59441606068753,1.5918379042317,1.59193859649217,1.61461301745258,1.69426817008285,1.71200801078197,1.71348324797714,1.7074664661107,1.6836336338648,1.66526490046136,1.64491779518849,1.64131053845961,1.64857302392706,1.66542946257123,1.67269153657305,1.67080124415012,1.68734686221891,1.67899755858586,1.6736558154698,1.67501320986255,1.70739973242073,1.68439284095992,1.67406808830817,1.67495615598947,1.6728119716268,1.68674838398054,1.69310271740096,1.6945482395516,1.69589432936312,1.69946731017239,1.71147220381324,1.71752630471023,1.72152573168845,1.72016504215095,1.71787738157272,1.68901856430651,1.67325077234351,1.6725649576655,1.67878256128168,1.69005685579349,1.66236191386574,1.65361800460362,1.65846356227189,1.68057470025151,1.68242341709077,1.70102426481353,1.70248045575444,1.52544069048896,1.00970081752829,1.63447557590412,1.82858318092854,1.82516123097169,1.78276593482607,1.67813013235504,1.63548890782698,1.62354146339292,1.61282614558016,1.5930390220528,1.57819930053535,1.54307972576249,1.52148916853068,1.51337338543895,1.49850163226328,1.50120866861246,1.52271827870559,1.46377996915088,1.43586763119423,1.42673066547182,1.41696789721475,1.41662222534469,1.41018993009852,1.40302842122627,1.38477173358628
0.92687848701066,0.928322519722399,0.931970900912104,0.950090688914383,0.978339733591397,0.968260271401117,0.945721049325037,0.939706827538732,0.939854046402196,0.938927211368766,0.941217376532054,0.958625373769755,0.982211288357875,0.958410367718732,0.952147622572239,0.949717373903383,0.944550052199962,0.943373795885506,0.942904461730903,0.941327352722334,0.936939730761691,0.937155016083975,0.94252683378461,0.95915167722125,0.978677533575679,1.09348631582227,1.04360647992397,0.573334887468511,0.827361388111617,0.986556023655164,0.881983419002464,0.950739193953862,0.968709079568615,0.950394800415681,0.864218006125702,0.855428528490408,0.84884424670811,0.769954639235092,0.741017190611276,0.736324554666358,0.73246961735881,0.732001103847614,0.756105060594383,0.851332519719129,0.874995224021026,0.851666501582754,0.794514303652239,0.782521776658393,0.793696710892517,0.841696516003328,0.946520962310811,0.971697952413124,0.982176193989146,0.996550063035529,1.0439410682686,1.06466746820561,1.10171883155915,1.17308082415177,1.20581794007122,1.22233799823135,1.23322853248878,1.24766347280702,1.26127744328147,1.28486891211402,1.2961097807578,1.30565016146163,1.30906891248747,1.32803928978441,1.32612916189885,1.3192642005449,1.31870741828775,1.32534492373679,1.34145622235834,1.34443086686203,1.35414488258182,1.35277879318485,1.37167966228666,1.38539259905027,1.39064729782332,1.39442703727925,1.40104388685462,1.42208098215384,1.43219441547805,1.44426452559718,1.45446506779913,1.47519410727144,1.4672823485137,1.47029604333599,1.4858204720824,1.49976225541904,1.5034304696129,1.5025137324055,1.51043569024446,1.537772215089,1.53059470948696,1.54322212932402,1.54601740864674,1.54847148697806,1.54677254440041,1.573797911452,1.58837754506713,1.59687491144044,1.62083882307139,1.681323457227,1.71801527511686,1.71811814520796,1.71259767784323,1.7031852722777,1.69360880846841,1.68074986528095,1.67023743070693,1.64964641832462,1.64608579237327,1.65095331066463,1.66773648500105,1.66896600334921,1.67912395727557,1.67803879864153,1.67285293627493,1.66744076612108,1.67830646317445,1.67944813609475,1.67797857239044,1.6926570835833,1.68080947703318,1.68120412225871,1.67991132624781,1.68448176579917,1.7035313890852,1.70927122127048,1.70531029560635,1.71768755549318,1.72032592871878,1.71262745915529,1.72538111342298,1.68676058409151,1.68166351822128,1.68209888701881,1.68029435527565,1.68304511155619,1.66556986377596,1.65613105883124,1.65351384331462,1.67061329922216,1.69105535659307,1.69746321559756,1.70080948955668,1.63522842063508,1.44469743069148,1.77179845228069,1.83876978274274,1.83115363559961,1.81658145659275,1.74601801189339,1.65864062755139,1.63656335615246,1.633600195562,1.60050267070873,1.59101080837962,1.56652996009636,1.52996689856512,1.51986027423023,1.5007950658551,1.49837501152496,1.50035529902769,1.45926200511353,1.43410725061945,1.42614792597732,1.41543730315444,1.40636123476643,1.39749187893143,1.37773543197863,1.36838713922396
0.933352792022607,0.954888404175235,0.959301272764052,1.00384674010044,0.970181187146653,0.94501846244877,0.941409561251854,0.940685318245418,0.939316706493774,0.938379540093158,0.938293456039871,0.940189634761976,0.946432130572683,0.939826273706431,0.940106935471736,0.94195706073104,0.942546818033628,0.942326751755261,0.940377561731717,0.938217345936096,0.936257160568053,0.936525833617475,0.937546814033148,0.938377445085613,0.944734439517421,0.999185217717408,1.0715011446957,0.805833713979528,0.565992516687021,0.823926037967212,0.573559602607618,0.941838950902969,1.01702536766095,0.983157586319522,0.898553014879747,0.905958139309727,0.834194853840896,0.764930981835122,0.754839917879829,0.740890905449155,0.733976142779793,0.727774066235878,0.762680947863803,0.854518491321185,0.87931038395095,0.824402297735095,0.800341322053965,0.801171499387393,0.840963685723545,0.9090238698482,0.949568208046423,0.963719401263338,0.982808409730399,1.00202082188377,1.05810829718849,1.06626334150283,1.09747421692087,1.15304391122729,1.20433900413702,1.22251995014945,1.23360829599111,1.24801606846709,1.24812733482637,1.25272182098011,1.2697543011541,1.31096812476357,1.31152078008631,1.34425467955542,1.33358259703321,1.3226688874278,1.32361798352995,1.33522961767451,1.34158457465986,1.34318867970905,1.33669134455689,1.33732714981044,1.36145970098749,1.38329305801224,1.38787474004282,1.39306628766139,1.40183719502205,1.4104189216759,1.42414244612025,1.43985457157308,1.46143238803654,1.49666005047488,1.48154077504233,1.47507789392469,1.4839962780529,1.5069918811656,1.5129109861891,1.51464214579908,1.51786643913372,1.51955438146462,1.51625685666705,1.5365765672196,1.56853301785868,1.53900046054414,1.53105413174136,1.53974464661492,1.56295557123043,1.62938148947676,1.68660538006294,1.70760320293693,1.72075241997054,1.72067861223952,1.69565498805558,1.69201939759223,1.69434859887532,1.69365943628387,1.67591637674089,1.65090358991647,1.64666349020262,1.65013598597955,1.66714029620372,1.67309067600293,1.67639929904937,1.67698306062837,1.66577785824331,1.6634024025718,1.66467560160947,1.6700649039255,1.67478598197556,1.67968249911936,1.69821040548788,1.69143269175847,1.68283781634832,1.68669785943949,1.70393893765782,1.70619725226218,1.69742257672759,1.71073717501624,1.70207100887668,1.70323654999024,1.73599845347148,1.72857735309301,1.7264428066532,1.72242280209491,1.7017059173954,1.68452796857973,1.68698702075665,1.67908322230181,1.67784262623704,1.71069065478958,1.70397802952634,1.69321390956997,1.71149015381183,1.51000395675895,0.776476862838255,1.43160855821774,1.79014981877984,1.82808233964714,1.78636794999202,1.61954451312629,1.60999757993859,1.48280612846068,1.64333052850442,1.62789318106267,1.61723472708604,1.59025918943282,1.54215366261137,1.52106450058039,1.52065251976513,1.5033778122133,1.47744665937115,1.46860310369847,1.46986919928509,1.45990301667605,1.42051250983867,1.40846374378659,1.40215186278605,1.38256002662615,1.37702480296423
0.954376017186207,1.0375877909623,1.01063111065534,1.05487092741736,0.973553129655518,0.94249694386365,0.940772242781073,0.940332543095984,0.939057887004715,0.937979565421712,0.937739332803639,0.937387112833792,0.937183998525682,0.937180993817255,0.939203477763872,0.94064509444497,0.941441236599592,0.940286443549244,0.938509159394143,0.936463101685166,0.935828675682521,0.936820355341745,0.937730113144363,0.93708285810063,0.938930794859255,0.966586322037036,1.07273767548024,1.05889017940752,0.979449936645146,1.01255865397,0.937673206293449,1.19919385036328,1.01981813632054,1.00706119165055,0.974179558539066,0.949253437798182,0.812389511510553,0.767258346906391,0.757165102869785,0.741085762493049,0.739351228438317,0.751771382303422,0.803946724522801,0.812729665244408,0.865820702077358,0.823881597572383,0.809282533385514,0.825190426984822,0.852091069872854,0.92925491133809,0.975091285981686,0.970090256804078,0.98772480317245,1.01240123601766,1.06785909873052,1.06901743715919,1.10133213872406,1.17608647406478,1.21476306259095,1.22200285810244,1.2235998127246,1.22817258284528,1.23467736695581,1.2333825715786,1.24110969904257,1.26446605078269,1.28827975811374,1.327495910265,1.33989647838143,1.33974045609195,1.34422367618029,1.35454208531362,1.35311263827678,1.37146440003369,1.34245623013031,1.33504413499839,1.35747964459217,1.38950501929168,1.39208020574634,1.41170532309381,1.42834342532389,1.43000509975734,1.43390169909801,1.43908952756172,1.45510055128119,1.47520054725906,1.48057211010108,1.49105349204481,1.50327294477739,1.51600927700962,1.51623360865752,1.51418625874731,1.53000809635011,1.5249407305466,1.52144329887802,1.52849353668521,1.53150249302563,1.52782952914516,1.52810044803331,1.53899835671046,1.60169673146852,1.70198080152543,1.72305683117557,1.7073996017095,1.70499530031088,1.6802554270357,1.67271366606944,1.67765401325084,1.67664070039591,1.68100936082337,1.66641254313142,1.65345764208668,1.66829002717692,1.65288329118669,1.65336585028636,1.6783696535075,1.66983247899441,1.67731109055667,1.66835253223519,1.66523452460206,1.66827680567055,1.67537195272001,1.67679543853719,1.67105965784898,1.69224857127288,1.70878100201026,1.69181358605393,1.68821755931586,1.69442174658084,1.69627717826363,1.68385995694249,1.68718424245168,1.69479027828817,1.70602671355219,1.75818585440284,1.7432897665792,1.72955103332558,1.72931634765277,1.72949160628245,1.70379813981048,1.7102385790354,1.74219141316464,1.74760302273974,1.75054286330137,1.72415408465829,1.71666012591196,1.7548055540803,1.49460429258745,0.420617642755399,0.732793554636212,1.57436895626738,1.57630644404376,1.40301348378737,0.986498355597294,1.42469522415437,0.927817196885627,1.33406106747655,1.58495831819713,1.60572017779738,1.59385651989944,1.58503032903488,1.57700983012984,1.55514579539583,1.51408467952355,1.49289725655571,1.46855702169677,1.47143321260449,1.46485763885606,1.42903728325093,1.41025740845145,1.39185968486382,1.3773861405659,1.36784821842056
0.939052966192066,0.961007714662675,0.953679232189193,0.962627349003713,0.944527767371839,0.939049651187749,0.939497762276904,0.939468982282722,0.938053101215578,0.936021528866604,0.935753936570246,0.940037508111604,0.950332254439555,0.940540867699901,0.939849298142618,0.941030933054996,0.941007196846035,0.937412298162011,0.936310506930084,0.936218936430377,0.936407471495077,0.937308522029228,0.938374301833715,0.940937936048787,0.947521103839539,0.948737318938666,0.968001191595456,0.970330168217827,0.966640709740479,0.964623663505303,0.972954867354262,0.921526378650609,0.574193792176819,0.860775634810437,0.967575292762789,0.957148729621159,0.868485741977498,0.828924828756024,0.811602506833415,0.765748351345576,0.763469189248893,0.796523061476266,0.798812798354457,0.865015059276779,0.89077449167178,0.860085177424469,0.821686688758888,0.818400181321269,0.84689784046307,0.970099925761687,0.992838716837382,0.983101899517995,0.980443812282121,1.01303455206044,1.06731745772999,1.09225673485492,1.17125615196103,1.20570908883138,1.21725025105196,1.22050070384053,1.2213498238749,1.22394124650941,1.2342713697929,1.23889844568058,1.25214098010943,1.26417128426459,1.27986180590622,1.30530640875571,1.32137553795963,1.33638458979437,1.34516215536811,1.35693290958198,1.35284107118997,1.35642979777597,1.34808387943936,1.34091080757682,1.35885592706733,1.37848379003616,1.3826359056035,1.39965224541499,1.42227995460085,1.43753086441507,1.4463202721754,1.45108999699244,1.46169412209156,1.49970814656695,1.52994014529396,1.54077718904039,1.53899446318049,1.51991937340464,1.51467963237753,1.5328938716575,1.57142734870599,1.5814166349303,1.56838571794525,1.57131202449081,1.53334652598361,1.52437177741098,1.52713552069659,1.54904494182601,1.64608626371145,1.71348335906768,1.7045474261409,1.71558871897393,1.6960042695253,1.67288651975746,1.68318294317582,1.68588622038138,1.67644432690521,1.68203084255848,1.70052929792156,1.67039601798526,1.68245785999862,1.6652468888316,1.64380444962776,1.64510278686014,1.64311469603922,1.65840194487853,1.67111566696301,1.67360341882019,1.68122711407445,1.67958927542896,1.68026352017185,1.66794750764397,1.66490262024712,1.67457909947339,1.67369181396273,1.67307084905202,1.67766792509072,1.68741522690091,1.6791967172711,1.67841976524293,1.68407860179202,1.6944625863859,1.73654871091753,1.73808664247332,1.7062096658799,1.70505999135031,1.73657855400068,1.73783674469343,1.724985962074,1.71402670480233,1.58356443115831,1.72029076624329,1.72718896561371,1.72170323769149,1.76523478234036,1.54251556370653,0.764481217196017,1.36138036611362,1.5082554449801,0.570003727047921,0.482460041222767,1.19906886122769,1.67954631976466,1.36637100777462,0.890730317679181,1.43866165362901,1.6012100701306,1.59625759110889,1.60043317925586,1.58899909274343,1.53725157492856,1.51827606779799,1.51700923991446,1.50147548556009,1.46569070579074,1.4494939267415,1.43412526999628,1.41586256523112,1.38062305605323,1.37326691668442,1.36309553584683
0.93428789247547,0.935460482228385,0.93498561392433,0.934686975753673,0.934841573955603,0.935893192737251,0.936576500027423,0.937182291757843,0.936224950443958,0.934539403930064,0.934290398890597,0.948916511770351,0.990422831336387,0.950809926990158,0.94282906834113,0.944221984962749,0.942798180611152,0.938556897575255,0.937379073915303,0.937017309383221,0.937262434812152,0.937292019818564,0.938407618004957,0.940934036717884,0.942821208952589,0.946482702361418,0.965076814590071,0.961122143334756,0.936032497970006,0.943098761664665,0.981614810813657,0.942948795464371,0.853911589148281,0.920300630227626,0.915766287550687,0.940952644916796,0.944477306672019,0.863064950034775,0.837907776535246,0.825839208120304,0.830821924699155,0.84939593623788,0.862847379159403,0.91513619814973,0.902114708605478,0.874303279770389,0.862661742515837,0.866494961704603,0.870058883841744,0.972599065314214,0.973822605405829,0.990253561904719,1.00001950429415,1.01631446110538,1.05307437151245,1.10317104861229,1.19566974385756,1.21034145317263,1.211906534963,1.22084603631093,1.22359824966769,1.23604501454351,1.25046313993584,1.25346111157656,1.26120091562606,1.27653019458824,1.2792901419044,1.30120347322242,1.30976067268791,1.32610058844298,1.34284194084798,1.36339082165258,1.35414157692308,1.34932537699987,1.34473317459425,1.34690075107324,1.36003409989011,1.37115825509318,1.38480342659105,1.39972443446272,1.42239673675898,1.4413357250446,1.45924489364562,1.46630834548806,1.49290878385925,1.53814180555929,1.54989640962114,1.55369300610673,1.54714203385816,1.51544585456618,1.52018153025433,1.57737650501467,1.60035758832373,1.60785437675278,1.59200365182667,1.60341125390442,1.547006711461,1.5299312175196,1.53133566337803,1.55610927535958,1.63258766703028,1.65983776738504,1.66802216221903,1.69244469511321,1.68957175888865,1.67859810934941,1.67405428558525,1.67814776444209,1.69031229516719,1.69449446518444,1.69793627523037,1.69237411156642,1.70047076297241,1.67146848747358,1.64525992885452,1.64051485472032,1.63666339229097,1.64074475903378,1.64741945546616,1.65906346119337,1.66613432815763,1.66102332264547,1.65970404117085,1.64764304368468,1.66303232599847,1.68692738763577,1.68740012912782,1.68351873462351,1.67673359241134,1.67608256934085,1.67514436936495,1.6792499245465,1.68511161652371,1.68198046991941,1.69271833593997,1.72068297944622,1.72306821202492,1.72573134827892,1.75211590896147,1.74142553495544,1.7039261197142,1.47574939801022,0.791469372387887,1.52357095838714,1.71459993004667,1.71476881068709,1.76128980046309,1.74187166989441,1.62517190844918,1.75503093891938,1.55278846631748,0.514830918217378,0.120130344591216,0.512208346420675,1.51397943243932,1.65819534032261,1.4519309631927,1.56764119659096,1.60389715938179,1.60208526925353,1.60970724064947,1.59920595492751,1.55210378511775,1.5496449268001,1.55451035298168,1.54444181282028,1.4980552667651,1.45459452852082,1.42688359876697,1.41160421589556,1.3665055999165,1.3660506508347,1.34047666008553
0.935820932290668,0.935089210187601,0.934711069015634,0.933966584008988,0.933609342915887,0.933778201872223,0.93407983175923,0.934767200929056,0.934080136122134,0.933083542419195,0.933379773047179,0.93793374861801,0.948795742298634,0.939975360833578,0.941360818004328,0.956518205984894,0.99056897506592,0.953004896098852,0.941140973122644,0.941530755373235,0.940752870383908,0.94992852742871,0.951921289707534,0.943347381670113,0.94084594440281,0.962918814313419,1.06101467529378,1.0663164275785,0.95714878077584,0.95540483229232,1.00676475025468,1.00366796722267,0.966683880760745,0.956322156287491,0.954530988571571,0.990577929731527,0.96711876755639,0.890649639696199,0.851626243700479,0.85848399370505,0.899975045573089,0.950633551283492,0.978893583291165,0.977435133416986,0.91408949999635,0.892673391730527,0.888214647160709,0.896073538700989,0.924067060774533,0.950254571448573,0.966004397254327,0.978524640558006,1.00265968025753,1.0201343242455,1.06161142238473,1.11357638501509,1.17838073628279,1.20306098273225,1.20366777549705,1.22731983468257,1.23361404511395,1.25905500123182,1.2423743294169,1.23727035415036,1.24911753375872,1.25670596967628,1.27338844587359,1.31454658777697,1.31290859664142,1.33765916829552,1.34228916580966,1.36255347080405,1.36620023601288,1.35723062743918,1.34580817408862,1.34695309604733,1.3597348884426,1.36744689966577,1.38654657036701,1.41917738615806,1.43168390599956,1.45773066484045,1.45214475898723,1.33317039996278,1.50164950409673,1.55664108126707,1.54364498570951,1.55009807748362,1.55544366415718,1.52651351283553,1.52160497409855,1.56981076562687,1.57461610717372,1.5730520782986,1.59591975505772,1.60162617349161,1.55124562723246,1.53346134458302,1.53995066482305,1.57989959725985,1.63243197475909,1.64650007077022,1.66710363786778,1.68578922934047,1.68514247851974,1.68222646806779,1.68202099201794,1.68978705228309,1.69266563438894,1.68641163110816,1.68465443290318,1.68584733937542,1.69175817221416,1.68631964733481,1.6682399490191,1.66507600865086,1.64366688347963,1.63619250028409,1.64226735792229,1.64614826281339,1.62717653371727,1.62089255084834,1.62612110400768,1.64910945588769,1.66968715580302,1.67411315908082,1.68291204157788,1.68763035967069,1.68513782857219,1.68079079917659,1.67854959493233,1.68650707878553,1.70152593380412,1.68112093104759,1.67250715998021,1.6995299661524,1.71293352262204,1.75105686555569,1.81609875659045,1.77827220801814,1.70770338678374,1.46303125640083,0.775534311497827,1.50409776801668,1.71108252763059,1.70687649509869,1.71673425483525,1.73782675009051,1.75577624304655,1.56264241282894,1.45958400087441,1.07591081980828,0.266912749535439,0.487160751838138,1.41944495217137,1.62811633915823,1.59545308128763,1.58416862163723,1.57936032117805,1.57682086724114,1.57209267111089,1.56643745443886,1.54925500278005,1.55076356292417,1.5529691669107,1.55249086125219,1.52940171744314,1.4696041510936,1.43883461427389,1.40821700192855,1.36754146579779,1.35936422999568,1.31469598365515
0.937726895001253,0.934956484177814,0.934119614805065,0.933904809981199,0.933248103189073,0.932361735337763,0.932884226440466,0.934296464365853,0.934270104403918,0.933569424047718,0.934450207952843,0.93438198235245,0.933744112521161,0.933582587433314,0.936000611004924,0.988769263617248,1.13384457923422,0.98969048181164,0.944130029610053,0.948905110950914,0.946955687069953,0.98695253035171,1.00283652172221,0.953549815376129,0.915346579029918,0.872434717562656,1.08422249581984,1.07214146345021,0.882574977423107,0.99807904732412,1.0483901565782,1.01119671204499,0.970524171508547,0.961593833718774,0.962150431067162,0.939851948972393,0.91507784013966,0.976894734094484,0.939127500314199,0.930998478809529,0.962326104944032,0.991649459297624,0.99310193027092,0.930946116867849,0.901905099287692,0.898360656104417,0.898242973891021,0.902678176227528,0.938466291985994,0.94813962463545,0.963957931529348,0.990091283222268,1.01390723193917,1.04031583027763,1.09902690155953,1.13133612336964,1.18533022350164,1.20461052540476,1.19759259561571,1.21479680182886,1.22449980547816,1.24459450173176,1.24326257915124,1.23702625164137,1.24270912447341,1.2401878131213,1.25442424969778,1.28455863022472,1.31721120644998,1.35528311665255,1.33934080600237,1.3447888305155,1.36780167825925,1.36366257619013,1.35358250712712,1.35184127144452,1.35718568541612,1.369110743789,1.39524680464508,1.43444562843974,1.44698734258428,1.4778797923228,1.33793204369149,0.853370155315295,1.40917129629086,1.54460904308358,1.51922224506869,1.52767011669637,1.56933994292499,1.55982457839017,1.52263537790363,1.54585927862132,1.57083345903173,1.55954750565758,1.56383546169542,1.56867472555946,1.55611194616927,1.54264960703691,1.55233492703907,1.58452887361663,1.63016619415245,1.6398624277891,1.66199501455355,1.67624633449836,1.69176717901891,1.69381300936581,1.69356972234557,1.68799059786736,1.67396505305989,1.64417018432087,1.64899272299853,1.67344932727853,1.67686513315765,1.68914170363659,1.70191216713171,1.64867792088045,1.43694853570864,1.42114296610088,1.61357754942269,1.66815522746179,1.62415873993577,1.61277411305283,1.61978534967166,1.64057650825104,1.64671303237531,1.66817012481734,1.66252417938748,1.67838921823719,1.68768792616881,1.70428112606726,1.69901702181882,1.69543390731048,1.70097060547487,1.69976058286583,1.68213071026683,1.6977403375555,1.7227357010506,1.79789126689205,1.85168212284572,1.82882745789916,1.73402606784728,1.66034140717861,1.52348673620882,1.67318928456449,1.71079432883014,1.7075762732361,1.71305625546266,1.71493020119139,1.54973587035343,0.744932349132732,0.409308681597261,0.454604357042854,0.351172256696602,1.24659294185336,1.59380846055243,1.60258468796059,1.57566888479273,1.5724126726044,1.56679169293173,1.55593523332704,1.55268800364376,1.54940382157862,1.54374812906076,1.5478705420679,1.55051296287635,1.54348873143016,1.51922645481664,1.47317126752521,1.42194362747497,1.39365756813723,1.36386275465322,1.33842280414672,1.30617661074753
