0.972955994336556,0.964791503811313,0.957486768358977,0.8991426974454,0.935478786323726,0.954924297053727,0.963718491155933,0.963816508515326,0.961819038628449,0.935913083934749,0.861696851542456,0.829816834893766,0.826945853317644,0.8259926052263,0.826316370994013,0.82724048809123,0.898073065195298,0.92585652284724,0.909723504121552,0.893377435651326,0.840096172196578,0.854402558643544,0.81391216475157,0.792591548919338,0.813202332889868,0.80997081423164,0.868122461578029,0.873033119055922,0.898665110297612,0.928606057732567,0.955571117111548,0.978738848607843,0.981529178201542,0.984677845189322,1.01266842368489,1.01821593239997,1.09275461586322,1.09243404288636,1.13552977418399,1.13548026949758,1.15980712320899,1.16049793727431,1.22971185907718,1.38516829648438,1.2785031212163,1.26570759013168,1.26971927455675,1.28690284298603,1.28643385404721,1.35765666311385,1.31744970933341,1.31963855504483,1.31133597155204,1.31246959848638,1.32458402550629,1.39166124592112,1.38911634236315,1.38678223858035,1.39075967753961,1.39684006691323,1.40325165456105,1.41010595255406,1.40177377444721,1.39383483839956,1.40855477855009,1.45235496094842,1.44684135115405,1.4579420787046,1.44893122150203,1.49082333499348,1.49270259123386,1.4947133349946,1.50403735997663,1.51386850991584,1.50539022194315,1.49778368224588,1.49772911211357,1.49686251207593,1.49377762124953,1.49175873415805,1.50726116261075,1.525298649137,1.51031127281789,1.51033795645631,1.50923930346449,1.57086643798659,1.54652616671047,1.52923478490527,1.54716198634517,1.58914597010911,1.5799439194197,1.64138495674637,1.56817651372832,1.57241247075436,1.57765086183087,1.58402237359571,1.58889676070157,1.64097686149951,1.64085137874892,1.64485497662221,1.64798260678753,1.64634795709253,1.64560715681882,1.64810117594318,1.64449662947862,1.64408910988973,1.64381786935051,1.6440563534174,1.6380734445442,1.62763934394711,1.62765641325057,1.626194434016,1.64805876663422,1.75554877640534,1.72606366125559,1.75085739973372,1.75077541855757,1.74803129870939,1.75228645195694,1.74860345983215,1.7552406330853,1.77187968328629,1.64319761481735,1.66731611244344,1.55547805597316,1.54502254049941,1.54476639902723,1.54576247783946,1.544882034981,1.58375071422876,1.57062470091637,1.57205702841837,1.50252409606855,1.50794595715602,1.49656711292475,1.50670552970467,1.4599182816043,1.46026169571028,1.46284810466237,1.43201199139372,1.42426602262433,1.39699852260354,1.36897627616118,1.35104907076334,1.3490149744696,1.3264132167184,1.32385405194116,1.30862861861522,1.2946505705776,1.2910186665722,1.28029073216393,1.27261254440342,1.25758597736626,1.23790795705342,1.2502437869561,1.26774249330134,1.27768080871394,1.28455506090946,1.26725374879647,1.26832676358356,1.25131623199933,1.25082188216102,1.23900853977388,1.25086216022804,1.19131216261323,1.21840100010254,1.15776900241047,1.16541837480871,1.07451755566048,1.07394549544516,1.03371217470852,1.03187842605665
0.983456694852213,0.985170225613837,0.981629747044906,0.967871599530857,0.946665726999452,0.962859556487172,0.963716421172427,0.984119910203158,0.977548131629928,0.982497496545575,0.87329281611274,0.825009823615791,0.8255507874214,0.824757976707396,0.82531174385592,0.824803680448859,0.873766093836476,1.01418466183664,0.932817603796719,0.971397411430495,0.834659958333563,0.815511410168273,0.803899456843385,0.79262042986311,0.81678063959042,0.816039859553944,0.864953486653176,0.867847331733541,0.898220009707221,0.969755360805528,0.980732314917344,0.987387704408482,0.991697141439575,0.993595985984302,1.03717576403293,1.0701282747324,1.09329402189882,1.09373663307981,1.13197007323224,1.12876820831565,1.1666995646994,1.17098125569978,1.22681214804418,1.38458361283236,1.27573594820622,1.27045092998831,1.26961443102018,1.28492175851706,1.28601323252067,1.30809615531019,1.30928808343337,1.31072988120261,1.31117446474353,1.31173010321656,1.33449939000811,1.39046998219485,1.389986181553,1.39437485169807,1.39312068649094,1.39424915514921,1.40657349239237,1.42696055329532,1.41268630283879,1.40471351325666,1.42091764658329,1.44470659886553,1.44452618502994,1.42469418397857,1.44888371530548,1.4913506783724,1.521218265216,1.57096955043098,1.5250311417908,1.52481382130182,1.52379935609663,1.52260584736209,1.52203218246287,1.56701259225549,1.52120076367595,1.51516801952603,1.51346047779119,1.51203114814669,1.5105767077617,1.50699060417802,1.50681538845825,1.57085851061541,1.55097624820956,1.55622020222964,1.55834812022236,1.5598570441619,1.56119607427661,1.56133293206832,1.56600467319364,1.59212809660829,1.57818974192049,1.58020938714272,1.58929576118224,1.63925204374703,1.63801285427659,1.67494181460577,1.67119361546846,1.72642389381176,1.63615186085502,1.63202280185166,1.6413716620351,1.64396429023494,1.64464116568849,1.65813615199571,1.63442871279042,1.62771313655961,1.62680848183502,1.62610696495925,1.64451380012444,1.64503287296469,1.6685300925304,1.83497247424074,1.75077150291893,1.74731833241693,1.74790829002816,1.74740405654119,1.75265593417926,1.87008440307615,1.63156331187716,1.60481402434272,1.55672791487797,1.54470542141976,1.54463877003463,1.54510292046915,1.54429644408096,1.58411925734465,1.53137338464039,1.49770832101838,1.49050547575194,1.47725448364347,1.48692940124907,1.50734619577084,1.45886782238912,1.46027318497887,1.4638586058679,1.46639110804359,1.42931659742414,1.37007538130867,1.36610244763207,1.35518198169077,1.34478567986815,1.34094827667234,1.34280276681874,1.39105236707113,1.33980391629994,1.32695938146748,1.31794403506695,1.30950971927829,1.31336659299063,1.31902121527069,1.30037403253,1.30070635588033,1.28573006612999,1.28446642666033,1.26783654164692,1.27104760643647,1.23322265437869,1.2185965346257,1.21501163157267,1.21146993396822,1.17917542491906,1.14068368091805,1.13557099264988,1.10582923736901,1.07646801201196,1.07196027855624,1.03299673251937,1.03665622048002
0.989782862722328,0.899469800717947,0.986964328873933,1.03808459107647,0.922042013655617,0.865207684156924,0.862188177904487,0.860307875137989,0.960807416747736,0.991673677035881,0.884217070997443,0.824326154294099,0.825194283556596,0.82485981417128,0.825009443688285,0.824674553568027,0.835071366700567,0.831660641547324,0.836593693692365,0.841409802666511,0.825339618688538,0.791492257660861,0.791675999679534,0.790874490117254,0.82031790607505,0.822468418465815,0.858799304832915,0.859333557014437,0.897661073489882,0.988552779636505,0.989230810774268,1.02783379920227,1.03327334423714,1.05820878350111,1.06786162534771,1.08520457307414,1.09321111970897,1.09330436643244,1.14103356792059,1.17724703198294,1.1779261432812,1.17857617494165,1.22387827241266,1.26220397038581,1.26239292412995,1.26426055649286,1.26698160481948,1.26793437000402,1.27610850665054,1.29156832131926,1.29970806549784,1.30826816656168,1.31020876854392,1.35278855181442,1.35273456521714,1.35279631238466,1.36649315307615,1.38834049199473,1.3942858991336,1.42569622469739,1.40992324474503,1.42643323096323,1.42360249037781,1.45624989821745,1.43211030688052,1.44787237483659,1.44361253237302,1.43998915566115,1.44392790986425,1.5689073967641,1.56920148198363,1.56895151860366,1.52515427149736,1.52519357910994,1.52435450679428,1.52372657254781,1.52285132042712,1.52099937064752,1.5227837020554,1.56097702546323,1.5233366793756,1.52241425925591,1.51915751583164,1.50558436504546,1.50528272664518,1.53778435096653,1.5482159970347,1.56347004042168,1.56020345527121,1.55826733118148,1.56038037757672,1.56355511921985,1.56414249557517,1.56518387134677,1.57923895477332,1.5800633127849,1.59000751747003,1.58989348078653,1.63556112533945,1.68249451862104,1.66711218184239,1.62691634544263,1.62879653990783,1.62700208740755,1.63632793290878,1.70889828707912,1.70786847695924,1.7182285197902,1.63233588878282,1.62664845154125,1.62304217009182,1.6185901333333,1.62854908768664,1.63098649312058,1.67458139446872,1.67469915734279,1.71488388100873,1.74011148612212,1.74515194426894,1.74647145248995,1.74843117024163,1.74593067067054,1.62229777609724,1.57204941446786,1.55731374266739,1.54197094860584,1.54400107508894,1.5477022359981,1.54155797952958,1.51171383600042,1.50433313837202,1.4821704976717,1.48597418037969,1.48025400523098,1.47730819361889,1.47702270132424,1.45780208665209,1.44820778868803,1.46568141985392,1.4852235136438,1.43440650059487,1.35811773451063,1.3627532505265,1.33341523044968,1.33984608578707,1.32565359646212,1.34564064396457,1.34722359864534,1.35391710884097,1.3636405558058,1.36637736216957,1.41310467014843,1.31826368731938,1.32021250848077,1.30281762637531,1.30778809687953,1.28545650413115,1.28387940817664,1.24584134146872,1.21824808336923,1.22424509354147,1.23285889186343,1.17846207913442,1.12640374644645,1.15842888846569,1.21138503539713,1.12270110632829,1.08313406905424,1.07790847034306,1.09929260625837,1.02975545139085,1.02490819912318
0.995277165936626,1.00180286483107,0.999090072868469,1.00087104170354,0.901599759541984,0.86099262384489,0.861020272835322,0.860867935394137,0.959761372569127,1.02432771917714,0.894050159676529,0.823924195795966,0.825035384599787,0.82458212308885,0.860269214423009,1.04136470775295,0.834807672236293,0.832912221001168,0.824621901898864,0.819569046710608,0.812434169234497,0.792416294833097,0.792132824214955,0.791283242830198,0.821852234620342,0.81999961690589,0.854247898988075,0.857454217767737,0.897866649747548,0.985087957900015,0.990133507606431,1.01603060619616,1.03639284976632,1.05570467910576,1.07623555701713,1.08156047813358,1.10435152795183,1.1170222203313,1.15370983364442,1.18048583923318,1.1872721014024,1.1978841180996,1.22092016820309,1.22517203396221,1.25184012374096,1.31949466582054,1.26101430544896,1.25572235347264,1.27041734132101,1.28265962790503,1.28067554600387,1.27907639193487,1.29469723912977,1.35293836618729,1.35306676053048,1.35279092959218,1.35471258126807,1.43848117956985,1.39450831687613,1.39509823221,1.39709308633327,1.38465520067888,1.4196037926995,1.41894933375678,1.42440591384867,1.42736025977768,1.43391619371974,1.43939768195484,1.44131136068472,1.56903892888361,1.56928180822461,1.56913450877133,1.52532154867649,1.52565078653001,1.52503977393947,1.52430300390632,1.52513197959337,1.52818724148853,1.52837154878239,1.52926826068732,1.52910693609644,1.52855647142628,1.52183683642979,1.50578128342766,1.50625589443992,1.51091296259467,1.54662860967402,1.56337979705714,1.56064346484818,1.55706763017908,1.55768410403854,1.55616890768238,1.5754808111712,1.58169977118617,1.59179899384482,1.61642986572073,1.60312015690402,1.58976729106757,1.63509766551598,1.68230805228364,1.65325394307847,1.62750173413765,1.62828973371951,1.62697114607478,1.63360891940728,1.70960701961027,1.70936290151675,1.7091510800164,1.6325785983089,1.63867114540612,1.61712051698411,1.61761337695877,1.61117188245594,0.00438041467030344,1.6752728537558,1.70158213676567,1.69713290056813,1.6865596277277,1.7545252447668,1.74716360108554,1.70094050102803,1.67035645637887,1.61187730969548,1.58298459639191,1.55734547624347,1.54221199306686,1.5431506436266,1.52810065394343,1.53897065539745,1.49515511300046,1.49944320723316,1.49466930565609,1.48893031358811,1.48152203967895,1.47539993978181,1.45349495126304,1.45605672557148,1.46667472844256,1.46617775626889,1.48051545683079,1.44225029557474,1.43177205947434,1.36380524938386,1.3427380093732,1.34438434774625,1.37383130894673,1.34714785780014,1.34761628968246,1.35819336556769,1.3894869765374,1.36794716502834,1.33935471490611,1.31055832096532,1.30356483693058,1.30200796456683,1.3310104726861,1.27542984036794,1.26781361110484,1.22145367285925,1.16450449153061,1.15583024904716,1.14722488921511,1.13698992067037,1.10801239917957,1.11589734723703,1.13339934803762,1.1097343469233,1.09522829767695,1.07576817037691,1.06786267338747,1.0276368225786,1.01836267745824
0.987123218242504,1.00091726457348,0.994916976419155,0.990278313119267,0.881139652246589,0.860717868159693,0.860703389329664,0.860628121350634,0.956615651444531,0.972713258214426,0.903269901427004,0.802445855566968,0.815216835594073,0.915227876463975,0.875169648536979,0.939258874392784,0.819172317098308,0.79925026301772,0.79945512987128,0.798333102289796,0.808247859829248,0.818163279648592,0.815485584121662,0.813134283871402,0.823413186113008,0.840857538243059,0.848255444023565,0.838358179330812,0.899254854967166,0.993562720845367,0.992179400052021,1.01692736767742,1.03861718273278,1.04785522702045,1.08242621655917,1.11839458902411,1.12516808713225,1.13204853653956,1.16576756976985,1.22422291515969,1.21459015041956,1.19562224004681,1.2181669248305,1.21573853423419,1.23335830292551,1.23197920865852,1.2432646856951,1.25132481561971,1.2617722801081,1.27820185550213,1.27973012089807,1.28356692445072,1.28851775663502,1.29407250536652,1.30782691038701,1.3243762399587,1.33829752529483,1.3539749267323,1.36854933310598,1.3905552220937,1.39621188490541,1.3977550516599,1.41648081837769,1.4188292530822,1.42165601481248,1.42739506238398,1.42784365444605,1.42700644530778,1.43736232342013,1.44242047356503,1.50586045556712,1.60363155817199,1.52536251582239,1.52685197399571,1.52601149087572,1.52659989120426,1.53140429873858,1.54096033651437,1.54316963166487,1.54347225844255,1.54089822992568,1.53946618667667,1.53912493259628,1.53633171518261,1.53645947720098,1.54509813747362,1.54551225411791,1.55855592358021,1.56062345216139,1.66045047434589,1.55941077955569,1.55613121479885,1.57784509689132,1.58183384549723,1.59348729343043,1.59803882825,1.60394244475223,1.61988077564528,1.61981833021211,1.6157579927169,1.61868489865673,1.62829735185227,1.62683202353205,1.62665268004948,1.63288463120235,1.7125397322524,1.71151500212837,1.71169006228498,1.63141366291492,1.63039050229888,1.61147365142316,1.61068325007759,1.61505068172679,1.69427688755789,1.67924389580101,1.68609783664035,1.69366208771769,1.74999811410921,1.75203848849619,1.74396409318014,1.69645212454452,1.59951975481333,1.60859376120927,1.56041327177454,1.55807777261297,1.54215640466668,1.5438462108946,1.54393518037157,1.54304335637009,1.56374239546313,1.51380044963316,1.49436955091832,1.49269655407949,1.46586526781776,1.47540575862674,1.47839006436516,1.45430790595959,1.45058702932428,1.44811838653952,1.41077035148061,1.45207296031332,1.46863138510567,1.36465555977447,1.36643674110073,1.34541646681657,1.340057523291,1.34771547865312,1.37383882905254,1.36838894447753,1.36815463177627,1.36764865068322,1.36615500037372,1.30783293524491,1.25841915910195,1.25544859922481,1.22171101347858,1.22021596523773,1.21922467515816,1.19531768657563,1.17158115960402,1.15474668535946,1.13942799660794,1.13397554626573,1.10857303551634,1.10724304069209,1.10763454242938,1.09913957298915,1.07687458733715,1.07437676021066,1.07573903543453,1.02709080268362,1.02965422010106
0.798726314680189,0.788688815351762,0.78828090848544,0.789329592350337,0.789360258901094,0.789838389689787,0.847666810939376,0.860682455679359,0.949240154894625,0.950496643837111,0.911580645456285,0.810789278310364,0.811362374932519,0.811952270378198,0.80819506336625,0.802412864155169,0.801708156286539,0.801475792875824,0.800222156901015,0.779035655436308,0.781590989125218,0.77807412918214,0.816184386205764,0.819234051564979,0.823450067663631,0.841017085279338,0.848858217388685,0.905173399432473,0.901627360853845,0.929850130150793,0.983296494335109,0.998506376881031,1.04257569730495,1.05511427605108,1.08935160068235,1.11911590076616,1.13734187130511,1.15284876382947,1.17785266677622,1.22434065746147,1.22113963266996,1.22108257970623,1.22753237879117,1.29717664223196,1.2347371873758,1.23444983534247,1.23509314601465,1.23627157762992,1.24203393187591,1.24369904269643,1.24898778555582,1.26297129368093,1.27661227872387,1.3082767892442,1.29907964735502,1.29199059504537,1.32786581373817,1.35665399590142,1.36197152176173,1.36715077209046,1.39763637346363,1.42190076608983,1.4139189789528,1.40807312166975,1.41813999585379,1.42402054693954,1.43053240543307,1.43052466405366,1.43264285938733,1.43443794554345,1.44903187746323,1.469695118181,1.52405983174898,1.52677531089381,1.52586001668228,1.56541798390834,1.55375679932838,1.54904232160972,1.54807967754306,1.54782348436913,1.54856350771584,1.54769183966949,1.541195945974,1.53547101489701,1.53567191287926,1.51493480175456,1.54241604553919,1.53052300471561,1.55177010865907,1.65232140384751,1.56644962063859,1.56433574196243,1.59451800021362,1.6263868687397,1.61271994471408,1.61085598353529,1.60943600870824,1.60749760945482,1.60793800412378,1.60191980466113,1.60361957797302,1.60510655241853,1.6233874415034,1.62539769830391,1.63381462170646,1.71497573920578,1.71301850016911,1.71272264464262,1.6335182982788,1.61164983815935,1.61190152501613,1.61186168011275,1.61335697051492,1.61055560912748,1.60570601142858,1.61620605304978,1.6448248674271,1.63443258066424,1.65952890841814,1.63088419211222,1.69024736254811,1.70510678884974,1.61662169413871,1.57206422625177,1.56808111104081,1.54300410521006,1.54577160349251,1.54921776726842,1.54475408813807,1.520656974507,1.52050475428822,1.51961577741258,1.50464505873581,1.46711045572828,1.471335422791,1.46496431840238,1.45163261522662,1.45061267336813,1.44868057145699,1.46902075310034,1.46152785306428,1.46841382280543,1.36314509859708,1.35663930854345,1.34600684652281,1.33972953425241,1.34867420292453,1.38660759343831,1.36807375674672,1.36685521296868,1.35411325514041,1.34324965512981,1.30438013339781,1.26001816582717,1.25193969639,1.20834151054163,1.19686572972268,1.16878414922081,1.16931316075751,1.15290832445102,1.15241750867334,1.12956781252415,1.12853075138774,1.10668498587457,1.10564752506315,1.09224315985475,1.09087160388482,1.07471533108217,1.07316392279132,1.02663409943826,1.02618203043412,1.02779932226595
0.799154585615984,0.783677720866075,0.786710199119278,0.788812674868738,0.789082235472413,0.789594325544173,0.831287602026393,0.973685797815618,0.9439539283073,0.934475183765213,0.924520240688021,0.811393837951541,0.812071092905369,0.809920670450368,0.805829133847433,0.802235175827012,0.800892368756577,0.801027616662102,0.798911957374955,0.777920861324952,0.785655062077902,0.818309117396724,0.814320554811372,0.810393937251126,0.827292063865456,0.857280384374246,0.861219565004106,0.903276936430471,0.901687144736603,0.930439115597886,0.976929099624124,0.990044065743838,1.0485773370632,1.09057282747352,1.09568595797282,1.14290624838037,1.16246819857789,1.19213431353158,1.19270070315292,1.19318069509232,1.2314379269679,1.2388985682233,1.23851487395346,1.23855119135242,1.23661294443147,1.23197986537578,1.23583056684364,1.237458926783,1.23920035911319,1.23849250082459,1.23868148927421,1.23836827714943,1.25892374276861,1.27073312788689,1.28123386907932,1.28579352986095,1.30427233347896,1.30197762298666,1.33220944137201,1.33133009621601,1.39855312443408,1.39835760837998,1.40599373746624,1.4064853685668,1.41681069940628,1.4561642529185,1.43118187338502,1.43084988498326,1.43068114782434,1.42927622982845,1.42782554294473,1.42670322089416,1.52365496394227,1.52781330896003,1.52536582041424,1.56096877429565,1.55702108647307,1.57986305529304,1.54725779267975,1.5477204955568,1.5488751045773,1.5480669765924,1.54269044876064,1.53595494016136,1.5484258038934,1.60717609067465,1.5450892598845,1.53800679749551,1.54275921545656,1.53531981352551,1.56761789609595,1.57333472142879,1.59886659990884,1.62414627509661,1.61451249617663,1.61096185597261,1.61145384382292,1.61450556990464,1.61082017664375,1.60983920090439,1.60715748088963,1.64064992935975,1.62138353212401,1.6233626746163,1.63567881508294,1.64281595782006,1.64220727496781,1.64366310155678,1.63776941815773,1.62381911681678,1.61497440481699,1.61256711895544,1.61263646853644,1.6116631913055,1.60848627398921,1.60872624694177,1.6509957507797,1.68931860026824,1.68635863536741,1.79051663825884,1.68333412211826,1.65669487070442,1.6218043730005,1.58263524475502,1.57948412142321,1.55780219995179,1.5601226286837,1.5612777631065,1.56385603006527,1.57133608933102,1.54000064474842,1.52873456487471,1.51243631490882,1.47522774120011,1.47555465179282,1.47580047246231,1.44932918786673,1.44893634530989,1.44948358939752,1.45240471977734,1.427657177889,1.40942371642228,1.3625085570953,1.34977938519654,1.34705267631893,1.33959044794673,1.35007079734321,1.37033644148747,1.35217713924346,1.33180429997453,1.32376577893615,1.3037606670074,1.30028625902549,1.24926254991424,1.24628357678006,1.20213822494614,1.18796512009865,1.16853400983209,1.1689202330984,1.1474073636781,1.14981264617144,1.12557920793709,1.12814800064172,1.11369517374809,1.1016835936507,1.08541998274174,1.08907130094829,1.07361000503525,1.07209206603386,1.09284028966153,1.03758254653038,1.02522529219276
0.800509527023218,0.781100561808288,0.787403303973017,0.787982500914977,0.788435999988054,0.7884429668306,0.815782432697161,0.87557901970606,0.900438834129875,0.975401088214422,0.932882957601005,1.02022890915721,0.845568884079878,0.799009494607578,0.798221737522102,0.800669757978621,0.79810869807207,0.794876790003249,0.795776606824949,0.794049403594361,0.787869096735543,0.769228758188425,0.772867525503312,0.766057688097751,0.833703162784483,0.867538158440944,0.866487006873485,0.884959944474872,0.898065467581649,0.929305337109588,0.971303901706782,0.998613949799757,1.05501323183779,1.08704889391376,1.10120986711493,1.18916244168814,1.19003035820164,1.22248795924507,1.19779579080842,1.19288871098684,1.23461036514357,1.24999456196272,1.25073050150286,1.25136037206826,1.2511636607287,1.24991503966806,1.24168045670589,1.23810580364736,1.2391168100422,1.23912719819746,1.23885238023216,1.23746969590949,1.24089739785171,1.23554686845706,1.27845350619224,1.30481765817858,1.30589395949662,1.28898769274387,1.33252044149022,1.36159439635835,1.3975633134897,1.39733378544879,1.40573367128606,1.40359640147814,1.41336279466696,1.40743718040418,1.43184227563928,1.43228849231685,1.43030789537834,1.42847895959366,1.42836643252131,1.42764509322322,1.52011823540583,1.52106597340865,1.52286519077431,1.52191238596343,1.52964260783696,1.53004196688353,1.54607079008868,1.5874824458595,1.57917610575994,1.63919224872787,1.55989248069113,1.53594332806938,1.55726106659427,1.61263436163801,1.55130269025336,1.5374548647053,1.54302916605117,1.57616504320604,1.57461845182705,1.57400418163826,1.60142915524138,1.60297210785561,1.61622927392174,1.63002959771881,1.60986457549192,1.61299212760559,1.61120495261982,1.60996980397143,1.60862563023543,1.60911780424522,1.62247475233809,1.62608167204722,1.63264070327599,1.72009407055287,1.63812844843034,1.64332430633697,1.63570423032375,1.62476847969353,1.61810028077032,1.61314935923501,1.61279667989638,1.61222642622292,1.61081215676279,1.60883921795281,1.65989948068853,1.66150159562413,1.68408720606493,1.78173840014148,1.67822012712409,1.6761712465497,1.62486787715771,1.56816044714205,1.58046309117331,1.59105671753136,1.58165369612956,1.55092015469579,1.5697542044184,1.65284423952133,1.55381622022346,1.52789440841445,1.51955926407458,1.50260566218424,1.47508351894181,1.47625856954036,1.44789101544113,1.44692694042811,1.4230510505305,1.40302197463193,1.38763306116779,1.38060944601012,1.36379288003059,1.35474225851903,1.35535853915395,1.35499333301146,1.35177720163413,1.32489656274692,1.34147361638687,1.37232804232462,1.31668414823735,1.31252569618291,1.29719374943952,1.2288297106531,1.24035012847583,1.16197657258112,1.17052085115891,1.16631354640618,1.16847926645774,1.14890377667713,1.14905475524581,1.12858778585972,1.1293752976025,1.09259465971822,1.09756040696675,1.09296056161338,1.09284875453753,1.09338894115473,1.06999824510523,1.07002176158165,1.04344824390577,1.00788452277166
0.80063283299964,0.789173768909921,0.788082489695161,0.787747669881138,0.788389920586825,0.788077166346494,0.788384726644178,0.788757256822619,0.850621999009876,0.908531007113779,0.90629200077211,0.904070471260232,0.863907119576508,0.796670394713425,0.796046525228643,0.794298141694202,0.795249094654278,0.794473551315709,0.794315571296383,0.793468287822043,0.790991579792639,0.768575267233616,0.775527027979852,0.778304063286958,0.840419882943137,0.868010206659245,0.866274543942658,0.895345614476145,0.895555199822847,0.928347370724068,0.960323904590713,0.95413056664079,1.06115409756979,1.09422274372597,1.10823780070095,1.15873399461653,1.19001537474187,1.20551395434737,1.20570098741554,1.20932377713041,1.23845952240124,1.24835688300456,1.2519905574363,1.27390926891428,1.28092141413287,1.40235118219027,1.24306316749908,1.23829598005607,1.23981488578874,1.24195281685308,1.24015215494409,1.23572381094485,1.24656557540332,1.2553852181014,1.2778532290353,1.31372922761203,1.30772122908439,1.31654663638718,1.33231316611635,1.34984142734646,1.39558338014241,1.42034528349837,1.42014678319906,1.43619219598969,1.43263373504059,1.42286634203693,1.43219387629881,1.43229597371685,1.43094966718298,1.43158262365047,1.42952126056139,1.4286185311202,1.51705487779398,1.54701878718291,1.53001680641603,1.52749859393689,1.52938869327268,1.53037069476993,1.54564921849023,1.57103349103482,1.57218454689426,1.57281875671637,1.56984847345476,1.56739497576323,1.5660527784861,1.56474777888754,1.55845340494519,1.54214727911569,1.54513994648459,1.5642161119803,1.57700713297874,1.75411874943676,1.59934631806659,1.60315079267324,1.61680658627657,1.62868453330192,1.60864123761015,1.61303076550117,1.6107663721878,1.60883207458819,1.61029688787907,1.62314635685657,1.62369668835908,1.62534245804535,1.63118056318443,1.73487968939695,1.62924525239272,1.62561872867631,1.62474135906358,1.62588086537419,1.6214058852434,1.61358185313106,1.61310311297419,1.61222246393951,1.65166104305732,1.68255108551947,1.66980044220397,1.66232451672521,1.66240943081331,1.66191868576709,1.66159175707311,1.65866652092117,1.62654449578928,1.5688633547676,1.58367688574202,1.59047154981582,1.5822737681305,1.5743819319253,1.57548119659886,1.57457845868266,1.57017844721363,1.52775731961597,1.52753775802007,1.52735178185686,1.47406559100796,1.43759478264718,1.43971477772191,1.39674754526225,1.39649715626334,1.36965861893613,1.38075963447537,1.40331130644468,1.36735212118458,1.3618271217473,1.36613671290612,1.38308498840281,1.3535517919433,1.3427682404224,1.33040118287485,1.29056757048842,1.28780049557749,1.28492171482668,1.29275790315392,1.30674661047671,1.25184403501817,1.18682088077828,1.17706951412104,1.17538529865928,1.17021996523189,1.149079817484,1.1487310736558,1.12794762302894,1.1306498214608,1.11746490598791,1.10661883577603,1.09643557748024,1.0951699435263,1.06754477026169,1.06877287785009,1.05242556716981,1.04660944643987,1.03814722463304
0.799984647545515,0.788771902771973,0.788669604060624,0.788168902179316,0.78868752784664,0.788117279928034,0.788182914899467,0.787103376158489,0.808505307929445,0.80775601923183,0.875684802696601,0.904751369715135,0.882646164803712,0.795941757061408,0.796436602498776,0.793173140485047,0.793751348842762,0.79331501281869,0.793319609535934,0.792991743307887,0.792456256052651,0.856057460699829,0.833247016027566,0.852567791742302,0.846324119880366,0.849956058750168,0.860779683775976,0.858071224088616,0.893645649859926,0.897278144771436,0.965600177666043,0.97506781494953,1.06685649467816,1.08053860313887,1.11622744369989,1.19137211599848,1.18893228860843,1.1852543540475,1.20518288841217,1.26971960588447,1.24250394109091,1.25052327206616,1.25984728891255,1.28823013450463,1.28413360676081,1.2583138186668,1.24708405425668,1.24410847584396,1.24999913992001,1.26387698932682,1.2697638715778,1.27438637200305,1.27554862221795,1.27651983368871,1.27727634885623,1.26997855843098,1.30004649218436,1.29205527743082,1.33257999350477,1.35313968241913,1.39405293973736,1.39340360674029,1.41840532807938,1.4506461404111,1.43479272152324,1.42852810944232,1.43128696862293,1.43263308086709,1.43727840906331,1.4451528324785,1.44550027849802,1.44592798632339,1.51864457811012,1.54636815509641,1.53314862782434,1.53446434696743,1.53416085350556,1.54489984583841,1.54734525390598,1.56769646929266,1.57446677648775,1.57628745605311,1.57244777706564,1.56394315415134,1.56698215985673,1.57060977272471,1.56198219612837,1.55766060856654,1.54943590379958,1.54530729342142,1.57584803102519,1.58872930589578,1.59530851145105,1.61707008438872,1.61892097525956,1.63647144393841,1.60881596796143,1.61317437910302,1.61068349405133,1.62774876919921,1.61611552363726,1.67689729313298,1.62264793755433,1.62064700833277,1.62461160338003,1.63628478477137,1.62984044522326,1.62689242976047,1.62521339630223,1.62559725391265,1.6239887504235,1.62487842913696,1.62226211749661,1.63519643600077,1.66660724697396,1.70590524612312,1.6802694922224,1.66298165776982,1.67030976486839,1.66320015456322,1.66317218412293,1.65835627548352,1.64678183037696,1.65087976351893,1.61437979157519,1.61467767076156,1.6119458919134,1.58924689149543,1.61618261771842,1.61632136835354,1.6145165786415,1.63354627655109,1.55662627034988,1.53847115507003,1.47379488877401,1.46586092912781,1.44047478979538,1.40006918476448,1.3972363245984,1.36989423587467,1.37221140596307,1.43781310165553,1.36998033962326,1.37131372376635,1.36869709652247,1.3535770194898,1.35497563716962,1.32957890538309,1.32253896999163,1.28588717989607,1.28555615425629,1.27505507476788,1.28768031187931,1.3071425383192,1.26801162811183,1.3051559881068,1.1916506876616,1.17232329458737,1.17180818902628,1.16581522191003,1.15557581946117,1.13304731132155,1.13336321521208,1.11949935589514,1.11256594774162,1.10460710317959,1.09904515845745,1.06906166030377,1.07050549733058,1.05048293100635,1.05191464637104,1.08345009637993
0.800176431670379,0.789251164419092,0.789560855294477,0.78943636374864,0.790089347714777,0.789373177926787,0.789263680677036,0.78683495920555,0.808543629088026,0.808986416579805,0.85102064835989,0.990961023866768,0.913608038268522,1.02732184292141,0.799281776819912,0.791234756196015,0.792407750464477,0.791604900206857,0.792392828155087,0.79257118550697,0.793353119782814,0.856865878689409,0.814511340717186,0.775862925422346,0.817564660284639,0.806372840216528,0.872497814384722,0.879377689249429,0.889990542624095,0.919665347726441,0.971245376420985,1.06418916502213,1.07244787066059,1.09945692839792,1.12400278376206,1.1527020168413,1.18851626637749,1.1886278340585,1.2057314927374,1.22167815667232,1.22602194705497,1.22998558460176,1.2683620851751,1.29711268370133,1.30531860611401,1.32646121383645,1.30136112629109,1.28625080987884,1.29112442399557,1.30433450037634,1.2894964336111,1.27464921867658,1.27551945370514,1.27621368873591,1.27797255924057,1.28083417812123,1.3118240543401,1.31654571955892,1.33398959616605,1.33579066600715,1.40278696510451,1.40535695539581,1.41480460591155,1.40806588811887,1.4397181453575,1.44677508148509,1.44779071423939,1.4547348979734,1.4486066824958,1.44602129954718,1.45219292099801,1.46725139945355,1.51957017106388,1.54496556666938,1.53132237871822,1.53477792830389,1.53435625403342,1.53543674404906,1.55076108846963,1.58953313283641,1.57508478887818,1.57573134273545,1.57501292047065,1.57540373311351,1.57423115675329,1.57214239484426,1.56485539610044,1.55024034289992,1.56907221155853,1.57430576132561,1.57599093836008,1.59530848461422,1.59379261614691,1.65040549525643,1.62119204364987,1.62366578953703,1.60723192754817,1.58036952680569,1.6088537141491,1.61585332277382,1.61374150755965,1.61293410005093,1.61167990298629,1.61279362386823,1.61962690787662,1.62372886069999,1.6263261039065,1.62662483054048,1.6250869066881,1.6259292151979,1.62403066866271,1.62372807350699,1.62398632231745,1.62351615723031,1.66946969001098,1.7116380455891,1.70455619374927,1.71937862761318,1.69557729554796,1.83186410363403,1.67614977665733,1.65687522835294,1.64408298936278,1.61660733898709,1.615016463297,1.61581505460673,1.61521830466441,1.65351801504173,1.65073694370737,1.6548087795707,1.61412804905958,1.61841174128853,1.57542952784142,1.57699895810105,1.47442205353049,1.44220813023744,1.44035649890478,1.39990881056398,1.39729616141569,1.36953733631516,1.37116700230853,1.37162318903454,1.37008192747466,1.37037896744151,1.37996994905922,1.38825504778564,1.35654573706296,1.3117156702744,1.30820887458998,1.28581296449257,1.28503357441244,1.25455749418879,1.25571081854934,1.26053457808885,1.25722825074148,1.21956266295613,1.20169186040318,1.18144486176897,1.1760794703901,1.17227165538691,1.16017614297534,1.13391337106924,1.13480566775888,1.12191154894555,1.11684775404519,1.11003726454717,1.10270574153959,1.09733030582744,1.07423296103497,1.05868296731264,1.05419526994382,1.07426794248324
0.844074203885365,0.789667898984723,0.790172889233993,0.79065761247354,0.791958765958484,0.793158857837653,0.792412777159539,0.792273052118679,0.806875347871023,0.809292552001269,0.809485390142076,0.809427393741229,0.86290847660875,0.978433986521607,0.807591792511843,0.828427403880282,0.82524907410297,0.820948257009992,0.776963937844107,0.739480215364373,0.789032789872228,0.792809412841591,0.798943986229093,0.790894946000016,0.823705739989436,0.892912629107653,0.879046255446658,0.879488733457603,0.885386329269795,0.886496185891022,0.975607962950098,1.06405112806306,1.08258241915113,1.09684477016285,1.1308110223143,1.15425611379221,1.18752350244906,1.18845739624755,1.20625007259492,1.22118791466204,1.22538439080491,1.23355162594252,1.27650859448965,1.31214660783728,1.31338263115765,1.31259697733553,1.31306189508054,1.32588003221141,1.2941566814793,1.29550111165826,1.29838174829696,1.30049297354683,1.30021920106321,1.29973390485137,1.28922461230569,1.28235042359557,1.3164990615352,1.33060019218173,1.34678069163433,1.35824491146582,1.4069524997281,1.42015440278684,1.41860734320911,1.41736439930882,1.44340347593488,1.45077688412979,1.44891298079034,1.44979028877657,1.45023656212025,1.47587487189344,1.47771140125226,1.49298351128173,1.51810918960613,1.54462609188286,1.5307415800587,1.53176462056907,1.53501682186483,1.54979062387916,1.55418883944283,1.57212599271957,1.57414783958914,1.57787300442581,1.57649473291579,1.57605314492147,1.57275475352364,1.64686672679263,1.57678801935965,1.57709081351562,1.57787518134251,1.58011643870206,1.5788241402184,1.58341477012185,1.59548241135789,1.59858549492183,1.61976940682946,1.62271729294152,1.60912011937629,1.58752594757496,1.60890730228947,1.6140246746896,1.61283535277065,1.61252292921526,1.61021143814227,1.62367191664239,1.62144987076685,1.62281648516794,1.62403237377502,1.62524324843872,1.62401907141043,1.62154816596492,1.62336194772364,1.62331001472587,1.6481471566188,1.65354314651119,1.68673737564464,1.71902675115928,0.654263363739666,0.00446534307147455,0.0927509483769056,1.81679250894141,1.69878449131073,1.78464505845955,1.63412323359779,1.61142046271271,1.61349438932638,1.61702664163024,1.6168568623045,1.61709931900283,1.62411503717666,1.63359727005898,1.61218963325319,1.57749412546993,1.57436950805436,1.57405080130497,1.47609524817044,1.43675425969375,1.43900555300113,1.44268051943526,1.39634434763231,1.36972058034609,1.37109109825987,1.44406822911859,1.37840285911239,1.38651553432777,1.38419703365809,1.35161841549934,1.35674205575863,1.35858169713094,1.30710322894683,1.28580345275705,1.28307667040627,1.25317931952495,1.25384495163928,1.25305457335575,1.25340953732954,1.2209140899516,1.21365475555175,1.19548190640408,1.18415694193106,1.17978127735483,1.16620871134444,1.14003409983917,1.14076747338867,1.14089827008193,1.12860035701593,1.12559482676515,1.10663545321219,1.08995309644019,1.07750821687739,1.05688017113763,1.05143930214579,1.03528128075868
0.873810062051019,0.789383314902362,0.790869662874015,0.792670902419484,0.794036865103286,0.796086261775851,0.794320465999052,0.792808899426526,0.804494758009516,0.809709519839888,0.809582527538757,0.809910497239377,0.811475386238042,0.769634443813687,0.801836612882628,0.770402610379792,0.831906418173424,0.836080707957508,0.76617233963587,0.74244195681734,0.784746765212541,0.786081161842256,0.80763454872212,0.832634764522876,0.833978533815439,0.902030382152395,0.877128220102371,0.856013565753953,0.885167297980259,0.930430311162732,0.977596001794791,1.06320608532396,1.09274383300185,1.11363327351388,1.13372577804758,1.14047649823925,1.18600744861056,1.19183006152986,1.20573599138212,1.20571284389641,1.22371093803322,1.21933294482709,1.28382099807346,1.31794271798906,1.31621023320458,1.32372153378167,1.31159529068735,1.29217232038566,1.29288358159171,1.29325800044056,1.30626621669426,1.3277022491106,1.30565349932205,1.29767252280347,1.30025836122128,1.30335739544869,1.32133137525536,1.33312747038529,1.38598693178491,1.4287398168778,1.42567417625912,1.42300174755286,1.42700702922188,1.44286598293163,1.44448832864668,1.44743617489743,1.44784286928924,1.44896846507491,1.44961152303677,1.44829543902176,1.48004723197825,1.48084984624073,1.51442845014457,1.51242972782448,1.53343432436648,1.54015042321468,1.53717347239641,1.55738938383667,1.5566371542591,1.56676941282034,1.56519098814318,1.56574312086615,1.56696388620516,1.56775298084704,1.56813442724676,1.57999776369274,1.57846672307355,1.59713936828743,1.58942592913557,1.60701171226489,1.59014231841113,1.5909470081279,1.60777512264274,1.63421652075665,1.61689727003878,1.61999782080325,1.61110524301749,1.58684155070811,1.58737512561731,1.5937530463887,1.6114108259057,1.61113180098005,1.61062351945353,1.61010081976929,1.61303059460218,1.63414898215438,1.62115830311065,1.62226028974743,1.6227944613585,1.62177068062564,1.62298828061527,1.62135556244029,1.64424622933661,1.758804470587,1.70143650393355,1.68352975073034,0.654263832015369,0.00448287272526417,0.0632994636504115,0.00374916243040389,0.0632678954879496,0.00421128055987274,1.63104414070297,1.6056268858695,1.61451941000532,1.61766177681863,1.61723694382672,1.61780921103438,1.61933477461656,1.61984025448008,1.61548598120434,1.59896476174545,1.56482750816235,1.54804358304459,1.47845249414663,1.42300303679232,1.43247719979824,1.4479036983094,1.39577143455339,1.36082894283259,1.36389952398951,1.36724264285105,1.36841695032914,1.39356722500131,1.39308427574815,1.39121866163465,1.35953661925533,1.30105552664893,1.3006174382407,1.29487390265859,1.2804288797881,1.25298673346006,1.25386572704896,1.25428977039814,1.25354015233053,1.25362504462569,1.22461773309423,1.21261518991898,1.19972015336498,1.17946483932958,1.17448688300944,1.14555718283791,1.14330804067703,1.14055385139257,1.13097032055961,1.13422788735503,1.11037462387029,1.09229181701232,1.07929225910004,1.0799996899662,1.0498825854056,1.03724179384612
0.965782501218809,0.987146676835363,0.800619146676964,0.796466395499816,0.795530228723684,0.796196539325737,0.795717019304683,0.797887045462322,0.80343777446895,0.809606232550402,0.809718576420968,0.810290690992302,0.810866301825531,0.956278103121939,0.846000309943025,0.983353280393878,0.833606072362124,0.835374818710288,0.756153835376303,0.722028390313348,0.780180337900191,0.815030384378412,0.814464716368615,0.81179844613795,0.835947517375482,0.836327976247413,0.875355796546902,0.873821730068723,0.884458696144896,0.939012037019944,0.977877690227174,1.06861784474523,1.1025725756809,1.11720927204276,1.13651234171828,1.16113408297696,1.18383540859873,1.17922475995255,1.20477029270766,1.20833860492769,1.22508652686815,1.29055216721417,1.291145858072,1.2916360459509,1.30892028824425,1.31208505703115,1.30857852195865,1.29260695390636,1.29277792941802,1.29265049613142,1.33654379439442,1.37327752367272,1.36633029331709,1.35997143758015,1.34875976202122,1.36016599621526,1.333148032437,1.31989753480902,1.41383551647823,1.45637834946168,1.45905454475742,1.49131292971767,1.45216776091656,1.44275289637168,1.44488148774119,1.44563301748889,1.44638288589414,1.44725539605353,1.44903341030148,1.53503974309197,1.48080177291094,1.47271298107529,1.5096746407892,1.50719504752818,1.52962649116523,1.53297149984663,1.53561413257256,1.5372993012161,1.54641088971199,1.54934856173731,1.56489109293214,1.56674168986799,1.56760784053446,1.56737241828035,1.56729971475937,1.55539681442151,1.55675529157919,1.55613119853669,1.55596085123104,1.54432353152427,1.59160835663392,1.59825116436968,1.61103987509144,1.69442942376788,1.61695240804749,1.59607829832922,1.59234138441496,1.59048168172327,1.58574496412694,1.67817776370094,1.63728062444447,1.61192430793033,1.61097986570331,1.61090744656219,1.61152461366256,1.61359199218839,1.62091040589477,1.62172195381538,1.62254975818444,1.62157648228155,1.62356196005557,1.62326452569171,1.64127457936133,1.75905234192822,1.70973047009567,1.76777074023021,0.654263363739666,0.00421583959180251,0.0927509483220369,1.68082142026878,1.67332469308616,1.66243103269965,1.6285011917802,1.60639989708285,1.61481191465695,1.61675644417098,1.61601144903853,1.61751861815416,1.59371142344918,1.53242596736869,1.53572679932287,1.5294877482389,1.52268626489424,1.50985078815972,1.48057619452428,1.42180696474047,1.43050570555805,1.3932645963411,1.39517877378012,1.3595843276628,1.36104089077182,1.36010369238212,1.36471552393438,1.35663076198326,1.39523819078794,1.39891642556646,1.36129685329313,1.29923604367854,1.30111880312183,1.27335383355883,1.27811934070572,1.27941463206713,1.26461532172212,1.25153812481795,1.25247502914009,1.25092574553229,1.23506925260058,1.23463593285648,1.23187071104778,1.25243557383895,1.18715961415727,1.18828536660915,1.14657361617694,1.14799485161623,1.1293705227138,1.12277008269626,1.11356467301243,1.07765758410602,1.07949573355659,1.06664146997259,1.04801596479195,1.03669941372926
0.966898908542936,0.81029100266713,0.810649785747685,0.810066292300909,0.800283510739148,0.795122736004443,0.79414261614961,0.793362033866741,0.803566433189137,0.803912193132371,0.804429759956708,0.804429898620887,0.808436570751794,0.895326539215125,0.781070253236014,0.697242014283415,0.695540678072574,0.694064297563892,0.7380424969489,0.733428628143396,0.775254546950351,0.791527462817334,0.828942852497938,0.836629558454794,0.845665408079778,0.856295242921718,0.875113008248023,0.874026763822983,0.883416792726611,0.882248173627472,0.980733237768704,1.07347081525298,1.11070463793644,1.13707606406581,1.13979748578618,1.17606330735815,1.1856604894002,1.20510421661969,1.20422616360803,1.22456120797287,1.22509676590709,1.29420235593694,1.29123382212279,1.29017150002588,1.30609883876235,1.31256742371631,1.30414319961021,1.30257712940666,1.30341418126224,1.36111616440999,1.36714226464422,1.37300070110375,1.3697333423589,1.32351547203619,1.33581469869004,1.32621016410524,1.34479397485534,1.44954830402048,1.44310890081202,1.45507608140405,1.45833725997457,1.49175775483401,1.46378941623819,1.49231623764055,1.44649751390193,1.4443217694593,1.44402461624842,1.43947456675231,1.44826128597087,1.53638079590009,1.48597360776692,1.49609587196901,1.50788484586324,1.50762245531171,1.52499817919543,1.52593542311201,1.5279743138409,1.53090207363904,1.54326313303936,1.56960672310616,1.57873074554255,1.61907135622612,1.61564118876628,1.613139219605,1.59601477236977,1.55585180746494,1.55691437437065,1.55637311086043,1.55598607524452,1.54556924354493,1.58817363217043,1.62165613279011,1.61630721834151,1.61993275774481,1.62172431808834,1.62656487598966,1.59058253906441,1.58371282515192,1.5841717266491,1.67992705269648,1.63925767514044,1.64511548679079,1.60860601979327,1.61081093771435,1.61072422369163,1.61349632414185,1.63932975318227,1.65192046497634,1.64910190325214,1.71974090111189,1.68964015232396,1.72084678863427,1.63885199396023,1.63311009577155,1.64432743463897,1.64949089258837,1.61971652303338,1.62734973811329,1.61949679310708,1.69259313490589,1.68215618424783,1.70632724814653,1.62470616107975,1.61395114856938,1.61482152144805,1.61654168122036,1.61348063579412,1.68830890834232,1.5863749284734,1.54432760819255,1.53613757178072,1.51347456010117,1.51775040087242,1.48816350832322,1.48149587237612,1.43713132883577,1.43466272992787,1.40239460706586,1.40708102803594,1.42904397980885,1.4053901545902,1.40457543584641,1.40278150812824,1.39635645951436,1.39648907602388,1.36786555147491,1.36185645070852,1.30441706889013,1.30354056170701,1.27089144657299,1.27933577811246,1.27865305145794,1.27330414658186,1.25256072961036,1.25446244606459,1.25761354592372,1.23574300839346,1.23547000167829,1.22883652646241,1.19202115768525,1.18645523190709,1.14571201662477,1.14628019802125,1.1462518972961,1.12871266689412,1.12408635530023,1.11762616015236,1.12545659368665,1.08076377964601,1.05319027159717,1.04670324576489,1.02596059312818
0.967565635902084,0.810329589374862,0.810666192463537,0.810135352056993,0.805527602629193,0.792031401368284,0.792621634695188,0.792357454500118,0.804094848590214,0.801742450194224,0.80383423807811,0.803395620717915,0.796894594192533,0.778593012251061,0.747204991541133,0.697723484803565,0.696322289464298,0.692318210917855,0.740494513255481,0.76353797090031,0.767143092461695,0.792227863784437,0.838127061295602,0.860112892185623,0.861310749606675,0.85952159566454,0.875254342132608,0.874360174220084,0.903740028569203,0.965127660847878,0.985957502408179,1.13948001404301,1.12895674156356,1.13933139046347,1.14229807073364,1.15774855701225,1.18743291360928,1.19861297913571,1.20247195990874,1.22241989186044,1.2256617589973,1.28949750096029,1.28990944526584,1.28862681447034,1.29915374511234,1.29836177733453,1.30281031884561,1.30243630290685,1.30642934171264,1.39553424938077,1.3765405433254,1.41406249413039,1.37726414897249,1.37097784078033,1.34714838484798,1.33657420483677,1.34672385540822,1.44939180991782,1.43721669845729,1.42762771078146,1.44160802944043,1.44025378627112,1.45032087965844,1.45463353326957,1.45044665837891,1.44329384124623,1.44268335524367,1.44019900625701,1.44616675699853,1.462299343418,1.47242369741341,1.44556802909434,1.50774708190655,1.50853685290092,1.51965911594245,1.5286944730781,1.52074141984626,1.48584265358994,1.51874518679351,1.52606387990394,1.58944965992631,1.67176826307231,1.62452845607589,1.5940593423729,1.60686490578223,1.63944910157529,1.59014578569216,1.5921420164824,1.59002556029971,1.58839299287206,1.58740941276697,1.61191661194458,1.61262074995428,1.62112988979098,1.62314506594277,1.6240958661188,1.59048465023641,1.58358815639525,1.58363361235644,1.68861289636219,1.63730564189856,1.63684827884226,1.60270505584736,1.60396399142096,1.6057953094405,1.63644534629594,1.6393217218407,1.65057559214697,1.64940255475953,1.64910648266645,1.65159147994375,1.66556394452392,1.63975452165563,1.63324571493772,1.6402457074796,1.69905278585549,1.62878149317887,1.61306984185344,1.62898525033491,1.64643660187793,1.64146343306937,1.63147631954792,1.62764435376334,1.61390792722756,1.61506448050018,1.61743581505268,1.61117489838371,1.55927848397741,1.56062144368205,1.55697014945141,1.53637643581235,1.52253592383373,1.52158335554058,1.49516659459904,1.48212839473052,1.48410858814382,1.45111219131046,1.48364131189518,1.41575840201528,1.41256019749157,1.41621279465207,1.44674563799498,1.40475566231509,1.41690267332219,1.39673369722424,1.36210531085005,1.36149649559212,1.31525378003831,1.30904213370385,1.27853287019866,1.28097382704186,1.28346085642233,1.27798999365282,1.25284254489259,1.25454343006355,1.2599565291229,1.23716025685957,1.23786429386567,1.22476202305683,1.18311378731804,1.18544233102924,1.1546441825624,1.14628101569857,1.13799196407058,1.12841567618139,1.11248404827951,1.11158995392256,1.08020308411434,1.08115915750824,1.08264364608517,1.0451515510408,1.03025421665305
0.969385550219956,0.809873634420858,0.810617756584724,0.809522208559054,0.812770900768816,0.878696549795995,0.796196342477155,0.790079416925041,0.804280271185358,0.803923324175125,0.803928688231308,0.803786482299331,0.792871193132239,0.697587951592635,0.696976035233464,0.697515032195755,0.696151434136008,0.693164288045853,0.742274603151916,0.751485990554724,0.759371965210355,0.878510824887212,0.853546578297681,0.862785068932617,0.863463327653848,0.901657472952398,0.898758206653187,0.907137680763307,0.910222307822948,0.958036245594075,0.991820762129713,1.07156627026529,1.12264608307702,1.14019898096253,1.14536940659764,1.17955968050635,1.18884915074448,1.19297093416772,1.20116253239974,1.21874394010574,1.22610594893721,1.22607978584309,1.28898342915877,1.29528150511929,1.30062935012277,1.3003384549196,1.3014343022035,1.33408745018228,1.31467830180266,1.35663046166568,1.36531164554729,1.40199783694551,1.40145771645839,1.40149886857061,1.35854989538771,1.36119557454847,1.3557093313402,1.42506586801229,1.42936615561747,1.43971647745397,1.44123517604185,1.44098213926688,1.4487641916977,1.45349835904343,1.45238355301189,1.45441775384119,1.45118700454727,1.470570595477,1.44341600990885,1.42922061524292,1.47807871328447,1.51608769422367,1.51706890291578,1.51785518639269,1.51446243428219,1.50166997489054,1.50339799295133,1.48651010583713,1.51423389742822,1.50528108860763,1.59634069388395,1.61375090491776,1.62575569932988,1.64135232807074,1.61085117085471,1.61010830018744,1.59012031894346,1.59242607285924,1.5885137781482,1.59493768109515,1.59173131291567,1.61149891168417,1.61128134381849,1.73339289190535,1.64999509012241,1.65584511294255,1.5915722382268,1.58152739974695,1.58581761733289,1.58480856615588,1.62285872680447,1.63821719225421,1.598266787894,1.58064705962505,1.60107118574275,1.58883944741168,1.63854750094224,1.65122634094964,1.64972877752649,1.64875744580247,1.64642776820258,1.64663532814659,1.64442154428319,1.64812759965794,1.64192442541773,1.61605695176455,1.61294794421064,1.61621579378367,1.619543669912,1.61999350473096,1.63014952440044,1.63244768454161,1.63169711638251,1.63289869838323,1.62532697359762,1.61666889345542,1.60928661516609,1.56901184624068,1.56213956343274,1.54199511135463,1.53859471684089,1.52658537841681,1.52409481658649,1.49499480068048,1.4806473379478,1.43227723697467,1.43159811116773,1.42495860569208,1.41785289129462,1.41355689109131,1.41722098874957,1.38539385364449,1.3941238051238,1.41794540428522,1.39673340353846,1.36154589705258,1.36098199787659,1.32606155103106,1.31320240927057,1.30935660723415,1.30392927087433,1.29881669255362,1.28810149677167,1.27814245273127,1.24823396132233,1.24644858015729,1.23131055601458,1.22195089663055,1.22020354390306,1.21105317206683,1.19425349941262,1.21135293591971,1.14565689619859,1.1443522014045,1.12848811948361,1.12965715364199,1.11138495912846,1.10441441245237,1.08010506249195,1.04270841448073,1.04342421362314,1.00165382466905
0.971879643461892,0.809354314932552,0.81143202695031,0.813314297536208,0.813842968497315,0.81327924691225,0.81210491756846,0.810579327203348,0.808564659813541,0.804382056766613,0.804724267483697,0.804193362766483,0.787906430343534,0.69685544884577,0.697161947475307,0.717140879646548,0.717348300794,0.717238657559695,0.743616652473419,0.751277359125669,0.755491667783659,0.848097484642148,0.84110134135151,0.83054209982443,0.853537693746999,0.894553140150729,0.896304682501023,0.925685168375436,0.930946261062348,0.951039407547593,0.998414190990863,1.05304427926574,1.11612879963575,1.13264402307187,1.14836409283447,1.21907725360209,1.18947794742954,1.1918510857466,1.20032596754854,1.21781372072585,1.23589925491822,1.243181700092,1.2873007505018,1.31716333852722,1.30014044191904,1.29930745682224,1.30001616330703,1.30537921515999,1.30935653443806,1.35707567476158,1.36065422830378,1.40187814134834,1.40122147627923,1.41997706024206,1.3586885171347,1.34310815701297,1.35166869481962,1.39646181852182,1.40974217062374,1.46293552078358,1.44175059896234,1.44138022748945,1.44560926515044,1.51537981236943,1.43303356500336,1.42901432606273,1.43355780722061,1.48026517562884,1.44246650852178,1.42961469833356,1.48218190187113,1.55399598660204,1.5175952433556,1.5184215009637,1.51247097704281,1.50570932685492,1.50538157196496,1.52470510002447,1.52515332974302,1.61471018702564,1.61552132201119,1.61366391854764,1.62881205387833,1.66943147755816,1.60707546555386,1.57038883005147,1.56945137923665,1.55476669552138,1.58466305845226,1.60092904030558,1.59779977655192,1.65596146925796,1.60690406643388,1.59689186174256,1.63191360097803,1.65703667598667,1.59356234073033,1.58999503783956,1.58784099788904,1.58637795189856,1.58747814031915,1.57676979763929,1.5942308351451,1.58077359127171,1.60264833257736,1.6172420797854,1.64070410690127,1.64750121344568,1.64919653953668,1.64773623936565,1.64605632655472,1.6453914299267,1.64500665922255,1.63944828689517,1.64044073458794,1.6507689445208,1.60565716451811,1.60084628238224,1.60657331841399,1.61505322900711,1.62929961090909,1.63364863390827,1.63291533446208,1.63219746534256,1.63149461451727,1.66312136556859,1.64245741118965,1.58171968214596,1.57499993861642,1.56403979483997,1.56198737305604,1.52716849599426,1.52489047818092,1.48542645056702,1.48003285499983,1.42961615370736,1.43056002527973,1.42601459498373,1.42965895516977,1.51150665847642,1.42055452647662,1.39443290399492,1.39318344156098,1.39298657427832,1.39569714895041,1.41275943643148,1.36522816534702,1.37492801178986,1.343576841941,1.34327997768851,1.3258233202888,1.32278988044364,1.30606505023543,1.32042537817878,1.24315591759359,1.2358150358929,1.22887275662776,1.22402898923487,1.21475348951707,1.2098443815504,1.18289731009674,1.1730672283449,1.14527129323659,1.14593295441775,1.12625000532013,1.10359973385213,1.09216040055395,1.07615771467335,1.07737631627439,1.0545819142097,1.04171356335103,1.0109952255204
0.973568157317281,0.997222576842016,0.9784440373167,0.980853006212728,0.975481359970036,0.981997348325913,0.914915736902706,0.885315395849644,0.848190066260824,0.805837574442958,0.805118342456674,0.804505659069343,0.781281787373015,0.698286771494272,0.699118413488529,0.717821001796252,0.718447695485526,0.717506021902156,0.74535434025547,0.747668016513337,0.754127698313179,0.753708866079303,0.810076740756758,0.840360245450666,0.846038980706753,0.846722119129987,0.894530180201725,0.902864311228114,0.932819575501118,0.940675238535425,1.00542144473215,1.0403729418676,1.11080575225398,1.13964864419495,1.15139914746419,1.17250625600102,1.18760777213162,1.18476539342813,1.20034297655784,1.26060352469636,1.24622754699238,1.24482714228671,1.28496959630792,1.33469980954255,1.2995191709856,1.29850459162955,1.29931549927891,1.30442932077185,1.30682079388597,1.33121857823792,1.33699588490015,1.35198463180357,1.37482120512297,1.43582203960289,1.35519967859801,1.35210001208868,1.34978141883262,1.39399508411223,1.40171862645397,1.46332340432478,1.42348199956679,1.4222169804244,1.40710082271007,1.39580888582185,1.39535911919072,1.39555406778227,1.41534860982613,1.41416173526672,1.44451182431415,1.49979039278314,1.49874645274665,1.5652729192641,1.51216500859852,1.50975235884754,1.50838107071675,1.50514535185995,1.50857593086718,1.61284161845335,1.52331356946438,1.5192451590547,1.61582150971785,1.63653746089587,1.63571126349114,1.63712806591516,1.60401399937481,1.57042366198957,1.56879291993599,1.63451129378402,1.58213751241238,1.55748407087531,1.58670064269193,1.59475728900033,1.59793414333533,1.59836502951546,1.59278506383291,1.58435261928938,1.59521534818689,1.62794160633852,1.58915808687207,1.58824234812147,1.58823601248832,1.59033768501447,1.59335083461262,1.61101082053892,1.60806923338918,1.660076584067,1.65492414399483,1.66012274695736,1.65094882648309,1.68278645208911,1.6785719380761,1.68270636283501,1.64721590139664,1.65209573398741,1.63175964250507,1.60210972270362,1.59622523766316,1.58612212251246,1.58254638472249,1.58826434014526,1.62586024129454,1.62848720282237,1.63020214779024,1.63135686954896,1.63634945621065,1.74506168358161,1.75110409782916,1.74501865562051,1.59453996329211,1.58983280423898,1.56456948581124,1.55567853401802,1.53466273934789,1.47608331031413,1.4776892186609,1.45537723180535,1.45293892748544,1.4493171981314,1.44795177967828,1.49793556031566,1.42008173134275,1.38150270342651,1.38176956927569,1.3789924941318,1.37814298168164,1.37809421702589,1.3609795852915,1.34724894274943,1.34560485443148,1.34712513569179,1.32796967896242,1.29717083390364,1.29677673266233,1.27853009460473,1.23834142157416,1.21155574877081,1.20273322577636,1.18299739250342,1.16844887265056,1.16208543532671,1.16197411903703,1.14370264272999,1.14457772955886,1.14411223968098,1.12441194787183,1.07290069645154,1.07196612439296,1.0745984966806,1.07519224825599,1.03817874745744,1.0398066434793,1.01127574831231
0.973492758015766,0.97239762501548,0.976521445378526,0.951162437269497,0.966040496438021,0.961864308913865,0.964342825185385,0.991684007150704,0.876333189062341,0.80505536629395,0.805214498150147,0.804553218228211,0.772714813440076,0.704324968637693,0.702179459258148,0.702175182755984,0.721222319003719,0.782497816857359,0.75644802552318,0.756020090428992,0.753849049639911,0.751531923794487,0.789229263118304,0.847614289662172,0.847493999673372,0.846531141717621,0.894666049537706,0.89588605398725,0.933263427267752,0.940635917420026,1.01261111731893,1.08327574200935,1.10629543885096,1.14656372575538,1.15485084604324,1.18883117760678,1.1884190742201,1.18719054634657,1.20173410465393,1.22349289780743,1.24626948239619,1.27520344046232,1.2820131229973,1.27898189400568,1.28568114153113,1.29216116757097,1.28969214703147,1.28620938118987,1.30065782764941,1.31557994915779,1.32322675270188,1.3368866152259,1.3419685682287,1.34954389559691,1.34629614442583,1.33923722449936,1.3470544808362,1.40218257303426,1.4014207895041,1.40038330113031,1.40270456065068,1.4225124462523,1.40403886570013,1.39756885883734,1.3959921875561,1.39565966643055,1.41620027752281,1.41551021835858,1.44783126212495,1.50011609446195,1.4965493641619,1.48515789689699,1.50672231590356,1.50318762312887,1.50477043786621,1.50320864104632,1.51285521047423,1.51565382269904,1.51738975641616,1.50678965599885,1.61838204794974,1.63362307248588,1.63444626667769,1.63739336201299,1.60501855192678,1.5582309779101,1.56756480013351,1.56749187263589,1.58175911691507,1.6374762158154,1.58300454003006,1.58442978062456,1.59376294546207,1.5917085653265,1.58882241036553,1.58443270222567,1.59408975444732,1.59534610615675,1.58977253702047,1.58813806450487,1.58742829471693,1.57778885761696,1.59395538790406,1.61209422400977,1.61015177752543,1.61122196887364,1.65171682707223,1.65759075855617,1.64818973829355,1.61159966600194,1.66047306616469,1.68354643751362,1.63286012598046,1.59327955540795,1.59668048311703,1.59688815493134,1.59467937166975,1.57587830629245,1.57476353978955,1.59818158850378,1.62147793560334,1.62334525461435,1.62573211032754,1.623376094579,1.64722366048696,1.74584757146346,1.75065560814017,1.74494476031523,1.59696803892178,1.58988681584254,1.56538260297253,1.56679553487752,1.53661297488687,1.49848709038093,1.48847730518016,1.46878963763862,1.45739449380513,1.43734095024921,1.44452047461986,1.4351135926818,1.41630108995052,1.41034251654428,1.38290502888876,1.3517653157937,1.3522416399245,1.3511119908299,1.35823056513821,1.39185191277783,1.35975431663905,1.35715379907391,1.32890390620932,1.32832816696548,1.29554068207367,1.26416289607962,1.23496487885847,1.21867004002807,1.19213621583637,1.16002950825947,1.16040341426704,1.16138390027242,1.16124175532433,1.18561738564062,1.14514239075382,1.14420061373991,1.12187520965891,1.08724803798923,1.06890776123049,1.07256077337219,1.07333135743651,1.07241861897714,1.03853906273953,0.997750524851918
0.955878494736657,0.980622080665587,0.979008905035453,0.972607163205763,0.96960180847881,0.941778963277857,0.963506008528032,0.960841361066981,0.903575125067486,0.805643837977325,0.805703692691897,0.804777167839753,0.762456577038756,0.703756430955593,0.70265194523903,0.702256443590073,0.721249642379787,0.758781502821795,0.756457514225605,0.753518966185729,0.753085820581979,0.751540738922127,0.750598408348305,0.750265348520518,0.861355135429713,0.889452796369122,0.89478915662077,0.895504624466129,0.936209960413775,0.950261346264555,1.01949779931295,1.08042202682697,1.10074286402449,1.11140838341028,1.15860757177365,1.17986924604086,1.18970183781748,1.19253790831795,1.20373004341779,1.21620080576504,1.24433341636225,1.30417247429431,1.29398109018195,1.30173610900858,1.27856203238258,1.2630284423547,1.26278943169348,1.26195584401137,1.28802631118909,1.29097724796758,1.30744586736688,1.31840502448253,1.32731434406305,1.3354153890955,1.33434641060757,1.33282823158981,1.34571584833487,1.36011899505663,1.37809113185772,1.39659017896254,1.39636661788258,1.3952576224826,1.40333938153648,1.39848699381228,1.40350582512958,1.43208199008635,1.42489185002429,1.416179367732,1.44985592659225,1.49034354957064,1.49371204692888,1.59069467810015,1.54121670181839,1.58784436221906,1.51092264509139,1.51490923560159,1.51426611551949,1.51577789990136,1.51771569891446,1.50048032650388,1.62200874694342,1.63270152655973,1.63280363124023,1.59984249769943,1.60865936838809,1.55825518760559,1.56768240518275,1.56803152826093,1.57428070607296,1.63972612491265,1.58256358075748,1.58472746344057,1.59586188730028,1.5959995956248,1.5811215029409,1.57853956524302,1.59431897840135,1.59434117230153,1.5920407603909,1.59054435908823,1.59117138946738,1.60522034702389,1.59797790038843,1.61179120928548,1.6083892989103,1.61090681914942,1.62512476457378,1.63000567868468,1.64665924180036,1.64688497473362,1.64294303277968,1.59280046784882,1.59332036428308,1.59297803592628,1.59704104897662,1.59654135872489,1.59368970109229,1.57662760261688,1.5766838892366,1.58037333300013,1.62015078998814,1.62318565593632,1.62405784079269,1.62316592566435,1.65899405178732,1.74598604364335,1.74945671907032,1.74484786669694,1.60613374883787,1.59027490792657,1.56219364489691,1.54814071219304,1.54085220024055,1.51486054751077,1.51066608856905,1.50135692996891,1.47156897742538,1.44635089095383,1.44622665836718,1.42416245324433,1.41934646160813,1.3860463271169,1.38411790894891,1.36592438239928,1.35367929929803,1.35015921167356,1.35504696848268,1.36075668537721,1.36047731803168,1.35979152935517,1.32952599739645,1.32940509244381,1.29400273060632,1.24915468463791,1.23336558803116,1.16893728133182,1.17417240213579,1.15896887398532,1.15967648231948,1.16109476597856,1.16001774597867,1.16925173482069,1.14583184140359,1.11925759472083,1.11836149133629,1.09166125794754,1.06539388711968,1.05691158900084,1.05101972553065,1.03105708922882,1.03517861876237,1.01155178524341
0.938368875056764,1.20560807185188,0.995760180491868,1.03450878618019,0.9907333623066,1.03683629000955,0.962742530839132,0.959945123926786,0.951527339924131,0.974181323191874,0.807418495603442,0.804403798434996,0.751895541531494,0.708772486579286,0.710434164379162,0.712320704787164,0.717084270395476,0.695809803124207,0.788981024874429,0.861334686120909,0.782729073786896,0.7486168056744,0.749922211340497,0.750816264696074,0.870453740167257,0.873607165288032,0.907884981151794,0.938996769372365,0.938464995132273,1.02641139695552,1.02395713398439,1.02203360892541,1.09432084518487,1.1561553206072,1.16207440946085,1.17993868545263,1.19054360860244,1.20472064136805,1.20478026322412,1.2489423158999,1.24075958027628,1.23792345958849,1.26154821981304,1.26579882635475,1.26482966041006,1.26321317870002,1.26395850535957,1.26286170436444,1.2851646335977,1.28964003524025,1.29892892521057,1.31404434237727,1.32423224865403,1.33470114244959,1.33415087335755,1.3347706564817,1.34535253251216,1.35337035085743,1.37444126918112,1.37475603022721,1.39773014082203,1.39541444976738,1.40698791776396,1.41654286926919,1.41991575731272,1.43119077397496,1.43050747161786,1.43058739767341,1.45055423230098,1.45277034571332,1.47459754018863,1.55375799558287,1.51684770955883,1.45932939332391,1.49564962641791,1.52126675452035,1.52318371884381,1.52210744156912,1.53432825124793,1.54496227499212,1.62431768722617,1.63194041869253,1.63188090485983,1.61911150610716,1.61434254267651,1.60268411045639,1.58593256787723,1.56094345841765,1.56255142988932,1.56048344776587,1.5812326910053,1.58699266800312,1.59668798480042,1.59751756670468,1.57870409040048,1.57987321255885,1.59438242642884,1.59304210463217,1.59162045132344,1.58953628941794,1.59024217805721,1.59659180316484,1.59789997084607,1.5985311362778,1.60112262146763,1.62330363342684,1.62183911103425,1.64927676400665,1.64771102773816,1.64770422514096,1.63956919919745,1.58799589020374,1.59262429854233,1.59337918671822,1.59697134969633,1.60827434223455,1.59207238628929,1.57718583994079,1.57676023211991,1.56836043079531,1.61900156686935,1.62103725633751,1.6220138363602,1.61949844335785,1.6721369471922,1.74633403373834,1.74978467623203,1.74600948477568,1.61856000624935,1.59862741738704,1.56162154080034,1.5692773799742,1.54411019029486,1.53854791471982,1.51703098902747,1.50186132773681,1.48584337681952,1.45203676188452,1.44663033070977,1.42941136299846,1.43039981798985,1.42970647837424,1.3840980337281,1.35447065166705,1.35450804928854,1.34540520295446,1.34015848379027,1.3366499260068,1.33096612571311,1.29057419564188,1.30466954045385,1.28919888945658,1.29182656591815,1.24841365020137,1.22736229126599,1.19829164464343,1.17863987440164,1.15644651667626,1.15580225392202,1.15440271331567,1.15278772152527,1.15115867537844,1.14583258543102,1.10743125952735,1.11209770553719,1.09672887464897,1.06522569042042,1.03860906727859,1.03875055364349,1.03701806908142,1.03602354739276,1.04337253772594
0.905309370800622,0.904323141603367,0.905948107355071,0.905973908115702,0.962724634535618,1.50099444248349,0.94315626018795,0.937600983022583,0.934081558216036,0.809659405752012,0.808994653751331,0.80511677473232,0.744665831339593,0.744214417170763,0.715086048489196,0.713493457085072,0.716064171780635,0.698392532214823,0.813109074440328,0.862515463186553,0.79711774691362,0.748076960845474,0.749594464415729,0.750762235397537,0.877872010378593,0.886298377625899,0.922444371604005,0.938457655364868,0.939659663115013,1.04514867086717,1.03429504464242,1.04656817145156,1.08832914353361,1.08135866353397,1.16513681839136,1.21089659975717,1.19146745232351,1.19202548287344,1.19633207475169,1.20053813809646,1.22780070605618,1.29782450006731,1.26145561044511,1.26507507777227,1.26500489030937,1.26476375759969,1.26678617402951,1.27028343614553,1.28137855050493,1.27289069549936,1.28059058231402,1.28785743715367,1.32098832079415,1.32444001439942,1.3324566570285,1.33239652720897,1.34539755671949,1.33998466564702,1.37358220174563,1.37286329266585,1.40070275396933,1.40233766339373,1.40833914345864,1.40872770891454,1.42064446809352,1.42863225353615,1.43501998936158,1.45240286291781,1.45256563695507,1.44187581259634,1.47095058562713,1.5481709922696,1.49599540329185,1.46015207566232,1.4591260407027,1.45931358703135,1.53709712643229,1.60048200863499,1.62482528909418,1.63227834217126,1.62831427475067,1.66800198961834,1.65893826470804,1.67044310474809,1.6148561478976,1.62537113354444,1.5969381719675,1.56188451194869,1.56374720627749,1.57212691388734,1.57842984187203,1.64379649860954,1.59718591434871,1.59939366170165,1.57969381695197,1.58005809636373,1.59520591191371,1.59194229986135,1.59136761530276,1.58975665198068,1.59000238989161,1.59861886099099,1.5981362737066,1.59863027346978,1.59697377248441,1.63683884821378,1.62062219134389,1.61775481396846,1.61645356434413,1.61240875419485,1.63648165723577,1.65985889907151,1.65528863649305,1.65459223894587,1.63355029662346,1.5934174633769,1.59233499658785,1.58492134582459,1.58798063950727,1.59748044512593,1.61765497887286,1.61842145962505,1.62058500865075,1.61854030857105,1.68190532479057,1.74730755355596,1.75714949621233,1.74729096391509,1.63325415488913,1.5707569294185,1.5636256971759,1.57013333437323,1.55106211611052,1.54839410783917,1.52521742746276,1.5281160178363,1.49502223199016,1.47921006864068,1.46142588834197,1.42821174015786,1.42951210525226,1.38192737490036,1.38268977611708,1.35656542484566,1.35554908236008,1.34701942165765,1.3363899498849,1.31629103923414,1.32635579557953,1.33354920767759,1.32102343123206,1.33302485929722,1.29119243226163,1.235231123858,1.21898039024182,1.19593435477124,1.18183043992228,1.15655622701772,1.15526378398681,1.1555324394672,1.15250901887433,1.15265200887042,1.14562020942136,1.11660139347246,1.11494938329249,1.09449062588028,1.06690671530161,1.04969080011777,1.03915007336469,1.03988519847638,1.02461238443833,0.994214163155336
0.905933515622501,0.905729292075098,0.907681174173298,0.907717781088662,0.911648256875352,0.913338978332539,0.916679793804589,0.91598175527072,0.931000323683658,0.943978431184648,0.856342545998692,0.7224648403162,0.737923781245318,0.723873134009788,0.716147790796216,0.714412687469268,0.75868437124312,0.839119823829075,0.846240846106604,0.850287522791835,0.811302781420738,0.778795600716997,0.778841636865683,0.814151028452161,0.882358794077349,0.957141017517988,0.940820520955797,0.9219813855253,0.942965226551211,0.946096405229649,1.02892356120747,1.01356492366059,1.10450701374241,1.15232623573225,1.16785492389629,1.17075936921156,1.17105279763115,1.17060993040811,1.19327327189234,1.20585746934781,1.21633298762973,1.22272836752401,1.26156476223661,1.26475188257414,1.26564752478822,1.26789011765573,1.27909935737855,1.2915729113084,1.28368784828236,1.27421371306997,1.27545441969891,1.27299912075778,1.31404674466911,1.31543377736596,1.33044185082063,1.36514867351741,1.36836907028518,1.37297777334704,1.37348035361903,1.37430384538649,1.400711242757,1.39743567730896,1.40911026781383,1.43064026628972,1.43515353794226,1.44231134765728,1.44635829581415,1.45363057581968,1.45356263600268,1.44211211181119,1.46463942358165,1.44583961826555,1.45841168836847,1.45615490818788,1.4584090319602,1.45761871633837,1.54496271297098,1.66633257112266,1.62604567489945,1.63203626040311,1.62465662572745,1.58178284464675,1.59676122904176,1.6022383210708,1.6123100011363,1.66043256247195,1.59802213456199,1.56650333822064,1.56577766100059,1.56396735739435,1.57546733750311,1.62888695689776,1.59017529546972,1.5803696224638,1.58018794397994,1.57968029318326,1.59764035425624,1.6368658212005,1.59147759504081,1.59409599367142,1.59199584609763,1.6132549634312,1.6097763361271,1.66611488978983,1.59569855491477,1.59837020816552,1.59931306337696,1.59810938042807,1.61033698688055,1.61741944486412,1.62600950242642,1.65720818111142,1.65619386696598,1.65570182011255,1.67326173496367,1.70324706744517,1.66766647985972,1.67078361758274,1.66989265328129,1.66973163243621,1.64312159623073,1.64985862944202,1.64564537188873,1.73978034459805,1.7491432541787,1.83813760059788,1.78304523369388,1.81426642243056,1.64103970424807,1.7915187214219,1.61609852094659,1.66889231939643,1.55341890560455,1.55236092228188,1.52268072592912,1.51799156601493,1.51212995134253,1.50554940680174,1.47201400404466,1.42789105284395,1.4291155531513,1.37923014734184,1.38111576933996,1.40935608802613,1.35882598963523,1.34616519022308,1.33177027487865,1.31316015126289,1.31362530105013,1.2583589221868,1.30792162252067,1.31184167526388,1.28880356733489,1.28508839918117,1.21493984621569,1.21184493910574,1.18576653180157,1.15402658746888,1.15301660352472,1.15013752270689,1.14946516247219,1.14731347505785,1.14604253330745,1.14728763563872,1.12911344452704,1.11353345719578,1.06868137809509,1.05759838135452,1.03882241580818,1.03979491108374,1.01455777563403,1.00972938908521
0.907218425501663,0.907852949986545,0.910053527642343,0.897818447816836,0.902452570050545,1.16188738066557,0.917387313237345,0.914713144113213,0.929853725969287,0.945264166074519,0.885544883445367,0.809915065844529,0.810042457890963,0.810145370735393,0.763494328607483,0.713630124903242,0.788640858765251,0.874201240081112,0.874544199823779,0.874511462232337,0.826496131496798,0.77689604026068,0.778914670733947,0.769418277916948,0.8948295505339,0.965090773079798,0.949948796808094,0.921850476452844,0.960318117197892,0.967297795681529,1.03515503222002,1.03820814519595,1.1146956157608,1.1714749207458,1.17036787744751,1.17144373503625,1.17127280465196,1.17079045781013,1.18932224117235,1.17884588641919,1.21312360484532,1.29975064372852,1.2868768161742,1.29826797458742,1.27959302544315,1.28891025188947,1.29224140048252,1.3035999299118,1.29246496057356,1.29409450392127,1.29301565769844,1.29782597524404,1.31329655495695,1.31915087802722,1.32768076953862,1.34155565000229,1.37015692641254,1.42603004171458,1.38778893162081,1.38258734652836,1.40234086971328,1.42064470385105,1.44371828467085,1.48109141681334,1.45202437261409,1.45549782616633,1.44978194480265,1.46287761463611,1.47701836720463,1.52138415651761,1.46724189537564,1.44535099394383,1.45782013857617,1.45494974140131,1.47179558508164,1.52068174111481,1.54837778492984,1.66705076244466,1.62341364994408,1.60436133687346,1.60275279458753,1.58203136957239,1.59355550158935,1.62014389538163,1.61081601640732,1.5908160777302,1.60049612543059,1.66282519408639,1.58607410930328,1.56301661182951,1.56145596585241,1.55928548690938,1.57241302718449,1.58057421227912,1.57984337200849,1.60137323190507,1.59912097565205,1.5641381728607,1.59079783694748,1.59332941943428,1.59279533710496,1.61341452211062,1.60400856995402,1.58425358622561,1.5968893793115,1.59778027671845,1.59884730867214,1.59839290486902,1.59977579951503,1.60144315670215,1.60852671661831,1.59746639817846,1.63676580270045,1.59695470433271,1.6736641360437,1.67791147515226,1.66758888448207,1.67161191168949,1.67027148290063,1.67110109332351,1.64275387438296,1.6492757607193,1.64465066438851,1.79007916094019,1.74444043683138,1.73437452194836,1.74903454457667,1.8350384690373,0.953610035267497,0.00419012672539104,0.953610035267497,1.67180321873694,1.55557136653926,1.55777840163064,1.51987275283084,1.51872227536074,1.51816998248057,1.51757874747739,1.47888835658632,1.43820815396418,1.43201634294736,1.38034166830284,1.38074630882229,1.38073553476279,1.37012005251075,1.36676154608549,1.32758891063569,1.31358750581449,1.31351602555504,1.28717848630569,1.30048036744812,1.31278396404731,1.24989807779147,1.2015104334271,1.1999946461763,1.1984915856076,1.18884250342852,1.15144617355146,1.15276191199251,1.14955252500955,1.14792621865472,1.13963263902372,1.14375968349439,1.1551589150525,1.15198959976064,1.16264391449837,1.06934622494159,1.06842385472826,1.0290564338111,1.01679764553033,1.00751650971485,1.00128079844496
0.908267577659078,0.908995158016132,0.910995077916882,0.898533873217566,0.896542979095116,0.891000710294646,0.919443716156424,0.92181375462298,0.928506025172205,0.925683920658333,0.926466561136647,0.957583619126929,0.84180224057875,0.810169679405232,0.788055950328723,0.714006765893737,0.817709328890145,0.874680305548415,0.874481656850197,0.874611752975569,0.84135507098913,0.772390936304673,0.826542690872568,0.85842088448925,0.908422124485268,0.982446318514369,0.959714916721659,0.961551887513255,0.969022927980789,0.987696823194694,1.03641852009286,1.14023675752985,1.13349368656911,1.1718471373285,1.16997019725163,1.17050449992274,1.17117847363347,1.17200971258015,1.1944238594729,1.20911066337198,1.21214763510601,1.23818390171217,1.25254452737156,1.2593054513812,1.27168578874335,1.27281564776077,1.29377918003183,1.30496140969477,1.29326424189069,1.28639331215118,1.29314790729403,1.29878546904571,1.31264627472957,1.30681102463212,1.32502379399353,1.32263149291012,1.37115786246695,1.37437735674018,1.39026223991441,1.40302546040911,1.43176621457875,1.47995505085044,1.4658123704395,1.47992832388512,1.45083650428927,1.43889213621645,1.4454153617174,1.53717170533607,1.48757380108395,1.48598980010715,1.48794118244916,1.56246655064026,1.46290295133494,1.46106409347644,1.47393793727234,1.5703287044556,1.56742757453908,1.56488208234245,1.60194929566997,1.60593753147513,1.60327045913973,1.58760214330082,1.59253836312044,1.587255904423,1.60854368237021,1.60914235266277,1.60485313941646,1.63599915429282,1.58415141395518,1.56093458591747,1.560801437473,1.55838272875319,1.55950752506625,1.55867105689279,1.57770736327548,1.60731143276255,1.60254806368439,1.6069028501762,1.59085534475369,1.59538543918277,1.594199961928,1.59773871926386,1.60073045944539,1.58457551520451,1.59539627731233,1.59647100229021,1.59817480375447,1.59770346080911,1.5983758169835,1.60315870130835,1.61069436425133,1.67442770454983,1.68462273188384,1.6826353548193,1.67854398323307,1.65884145782952,1.65352301083976,1.61338608504568,1.62253463522756,1.62687997575125,1.62506272034694,1.62213632840952,1.64372720837223,1.73397461147275,1.74491711674748,1.72955747178787,1.74764233138854,1.72973320261904,0.953610035267496,0.00437784795326002,0.953610035267496,1.55208017676852,1.53996507186001,1.5315329107481,1.51856071987375,1.51760675559313,1.51787349768809,1.55361809352192,1.48861421790791,1.51140065347218,1.48888103266689,1.5116326683503,1.40811090098494,1.38800806087482,1.37172525706424,1.34301457771768,1.32758000382786,1.314962619086,1.31267230196837,1.2438225176374,1.23481136125522,1.23167962832925,1.21592474546183,1.20082656080553,1.19915515357717,1.19236131114582,1.19027730435252,1.1850977061824,1.16444425249608,1.14167273748029,1.14374040313811,1.14152757674352,1.14100713567951,1.15086918465918,1.15106316500863,1.16225041517808,1.06590805480728,1.06117588499672,1.02342751823858,1.02307575809035,0.998023781644788,0.993979917417083
0.908578261631851,0.908860985804623,0.910545461173852,0.891718260130438,0.893047929638446,0.891129238332531,0.946527619399657,0.967804432617688,0.929394666710771,0.927968511216013,0.9269686864445,1.00789254317485,0.871227764875073,0.810739160003202,0.85878157231333,0.968222152954208,0.937090927888833,0.937940856895958,0.873275476428465,0.863379461519061,0.859613419417207,0.857057618287855,0.857292842115184,0.857639601211471,0.922967225160893,0.982026859951556,0.958474657340031,0.926503685744078,0.982140552494526,0.98688321637002,1.03726242516584,1.03976374614995,1.13110747421433,1.1666764627534,1.16661706719047,1.16459280757023,1.17021442875073,1.23945119579188,1.19953576148494,1.20837177417966,1.20707549368363,1.20636913980708,1.24852333943424,1.25453873670194,1.27141384903299,1.28351358800432,1.29337063503769,1.29273254954453,1.29272468209355,1.28542020690603,1.29202060029494,1.30422463091764,1.3164250522747,1.31644560285604,1.3329075683568,1.34181276920579,1.38467993582522,1.44930008242114,1.43272669369422,1.44726100139741,1.44363614944417,1.44066347480467,1.45679922102701,1.47756780140338,1.44776031943665,1.43909411010829,1.44314540188919,1.53805774533696,1.48647047745116,1.48377996612988,1.48694456320428,1.46386480342826,1.46342706521807,1.4617291427164,1.47615798339735,1.56746191194882,1.56688758170269,1.56496994667538,1.60197286185261,1.60631169490994,1.6048806866432,1.6064541126047,1.60799415777,1.60613737394641,1.60831422263903,1.60973729741537,1.6032724906729,1.5867295136853,1.58477947460442,1.59962092773765,1.59320960993756,1.55798955957409,1.55957908252919,1.56004124598094,1.5593440827502,1.56042809279698,1.55364871737877,1.53378019619535,1.55448843473439,1.56129645563272,1.5927153255918,1.62415925039727,1.60758238560263,1.60742654073656,1.59752135271046,1.59729784240031,1.59861664156852,1.59770227645883,1.59537563045546,1.62300495528419,1.61485377751841,1.62474399673077,1.69034347356453,1.78113618080321,1.69518379997507,1.65868830733383,1.65250835949889,1.6134081046464,1.62267539149534,1.62720648811881,1.62514431420897,1.62264999786613,1.64859430840222,1.66296213012204,1.685129555932,1.72996877771385,1.74563034282481,1.72853281185716,1.60850739987309,1.68958639910092,1.52757226197193,1.53374753026885,1.53290276863534,1.52282166842453,1.50966849833906,1.48569839275222,1.48376609549144,1.48202098474738,1.48168032710841,1.48138171445598,1.472687882184,1.4508464571205,1.41458567940185,1.38709818451841,1.37403838772355,1.28967574447732,1.32644438402174,1.32392182917066,1.31057224329204,1.23896616400635,1.22664864018371,1.20584078331022,1.1975297220062,1.19449833443754,1.1954978376376,1.19376695362872,1.19434111100786,1.20412159252103,1.17174501701153,1.18776420152467,1.15377791537167,1.16770085740903,1.14145856125336,1.1348578644009,1.13600124802384,1.13704889302792,1.05349988781533,1.04646510510947,1.01783344001695,1.00157927356462,0.991751069382144,0.979894608912158
0.90849556185704,0.908733686390963,0.910271033718145,0.890318117290909,0.953139830338718,1.00775906669896,0.9740821677343,0.976572476697436,0.93023017793909,0.930852972899098,0.927525031511501,0.93899914287399,0.908595096982248,0.948799052955458,0.94031673531836,0.940845148775416,0.938796309609999,0.962448380467668,0.869545457638642,0.864453843324214,0.863340582234186,0.864045872777745,0.86629495469662,0.981970430987025,0.936909724275417,0.926083972511228,0.957585345389622,0.956036497179444,0.990348864510265,0.99932120733734,1.05224768903657,1.10115832071763,1.12731746912659,1.14575838628045,1.15990334050451,1.16716301424627,1.16786411695442,1.17632749378306,1.1791823756227,1.18215747026144,1.19395126951158,1.20024497256331,1.24218949330905,1.24810325096505,1.27177144105251,1.28450141301516,1.293877957786,1.3135002066327,1.29640671259772,1.28523034658367,1.29150367114254,1.29170884971783,1.31728382949134,1.31530941959133,1.35432241946556,1.37052742580073,1.39496613722289,1.41290726243178,1.41330525896578,1.53432366556362,1.44979143755018,1.46753382890441,1.44878273935471,1.44206862608142,1.44334311330947,1.43873664299733,1.4423649785975,1.52980808752144,1.48569607281124,1.48337119999734,1.48601079792573,1.46484077954848,1.46384518377469,1.46172581077994,1.47879396605114,1.56767240458032,1.56732531069046,1.67250234358286,1.601843714524,1.60604338375483,1.60555619794401,1.60665613988133,1.60775903533567,1.60644564621902,1.60408742362691,1.58056211093557,1.58831615790273,1.58896059558273,1.58757750800281,1.67803406128971,1.62992120130866,1.60166933891638,1.59047014052843,1.56008079014167,1.55887425026309,1.53696776445594,1.54710211123995,1.53602024914238,1.54596799386433,1.54716931129759,1.59316845066974,1.61009935109236,1.60904634878588,1.60974646450368,1.59989768048495,1.60353783866331,1.59990390395458,1.64270037691033,1.59092846143641,1.56349000662822,1.60925917209748,1.57520800571017,1.69060309533242,1.78132466994,1.78204221196726,1.78095449928168,1.6500374387194,1.63280783498289,1.62951944075016,1.62892605005464,1.62564492096643,1.62476718863946,1.6447597515374,1.66506149763781,1.61937501529341,0.00434885873176978,1.61937755215964,1.7949031185809,1.59203931327642,1.53376158281616,1.52639419002661,1.51586655450841,1.514543805195,1.49764317230635,1.49409291118603,1.48564803205041,1.47582906024727,1.45896828081722,1.47037310634586,1.48387042776361,1.46097553115265,1.45099660997926,1.42318598537494,1.38611955220964,1.37900982940758,1.34999220272646,1.32594702078172,1.32394716454496,1.30733300487942,1.21626107603681,1.20782997920935,1.19180685789565,1.19153097048211,1.19226888420847,1.19493386252646,1.20060295719396,1.1956676526775,1.18634787827329,1.16423785154807,1.13336383883163,1.14669155970388,1.17447218976265,1.12446034491056,1.10714473266917,1.10859133593105,1.10963870012887,1.0516429085593,1.02379390763385,1.01171936515625,0.974785001874638,0.974804181032998,0.974513890720512
1.01445452815995,0.98181902287549,1.02035421869627,1.25255109047407,1.01755519902832,1.05285169657976,0.972270735901042,0.88230217859201,0.926678812960792,0.934282688903864,0.889305232753297,0.826258513243398,0.890992887063345,0.946467004279428,0.941708119165593,0.940578684505299,0.939303119236637,0.946543169039967,0.868414161594825,0.8643874826283,0.864844705170974,0.864396389262848,0.867232967992246,0.980940818382087,0.948861520353902,0.898516880444334,0.966630559959849,0.974572367095568,1.00262084221728,1.08383808109721,1.06804635133946,1.0520038665548,1.12396664885253,1.15605427816526,1.15301021388866,1.14991491969388,1.16563642752832,1.17467195697491,1.17680027475878,1.18564079444048,1.18868574187141,1.20075795784979,1.22176732015183,1.22369167450792,1.27185638757218,1.26966252823278,1.2960797917377,1.29872173149152,1.30184261083948,1.3028401179542,1.30204114346252,1.31273459271397,1.31859491189258,1.31975273665317,1.39239336431226,1.42799280698735,1.40326306905538,1.40336808976121,1.41012606805937,1.68007195300325,1.44609383449921,1.4414812661611,1.44251174012719,1.44251754621658,1.44294391403236,1.53181582705049,1.44303408650334,1.43883697525414,1.48543523570614,1.48435660023211,1.48559335228174,1.46672104833469,1.47454675855531,1.49020236282798,1.48864669405496,1.48792001985609,1.54846244680965,1.54994236971865,1.54823954844978,1.54487654240199,1.6009090378965,1.60669990991136,1.58508380806506,1.53735796122067,1.55511944903053,1.55014593069803,1.58911946308696,1.59031773914582,1.58978107881456,1.67741689879793,1.67420852043479,1.68446866339713,1.60702034544187,1.57491917084799,1.56912877929777,1.55845949087061,1.55363108973523,1.53719554713494,1.54583598441487,1.54671444061788,1.56598845084974,1.56945850981846,1.57469317793659,1.57060354878432,1.60060351256691,1.62090599695761,1.5963679467368,1.5634060493517,1.59278166552635,1.65054507338944,1.62111137326949,1.68314904194729,1.6874327933591,1.78112092718221,1.78413438023033,1.7807594688048,1.65149682064544,1.65041378134881,1.64314528541998,1.66219678142273,1.6252872295489,1.62558773904578,1.62377127739246,1.59286306712748,1.58614039463589,1.57587452647431,1.59473482819575,1.63724741095026,1.58361877351087,1.54706435312316,1.52391326564263,1.51754647169089,1.51366105882256,1.48865063512849,1.49190990960643,1.48841660646624,1.46591327946909,1.45919631955813,1.46063183117725,1.46146654856641,1.45638754259908,1.44981854166436,1.43194690936911,1.44903282615979,1.38433957875437,1.2980640145331,1.29947035130801,1.2985015184342,1.30321516928796,1.33662648467449,1.20419590089976,1.19356548744901,1.19257695932428,1.23235646951763,1.19218651962822,1.19247583099522,1.19443068985437,1.19446215077437,1.15711068912837,1.13401429231044,1.13224890777959,1.11580318214577,1.10588581526451,1.08622830477563,1.07385605555546,1.04054396722734,1.02615269499398,1.00691786879332,1.00068714072027,0.970672372991219,0.974708290483263,0.975562743965608
1.04472599508273,1.18713212341772,1.04754381819058,0.989988587065803,0.997347317042671,0.966495363780435,0.970615714104354,0.930931835615368,0.921509762938265,0.838973196026271,0.838987639801272,0.839032075998997,0.874022125723132,0.938308074050437,0.887307163848307,0.829276275706402,0.893581809711782,0.948393173112889,0.855734792213159,0.852732864295324,0.856885071840192,0.870685886523657,0.870353750985705,0.877484295112705,0.960301790751807,0.964685920654657,0.970792559210857,1.00466090032762,1.01133766440395,1.07673656767455,1.07797990956379,1.11029124143289,1.11881404180117,1.12237491592709,1.12438342593118,1.1264158922376,1.16345963684651,1.17568929702711,1.17583667450468,1.16908556777409,1.1744237059758,1.16976444352533,1.22044805598377,1.26443691763467,1.27295955710765,1.32407934704657,1.30763843819142,1.34065714889394,1.30269808352585,1.30229465520811,1.30204219653173,1.30165693576515,1.33460069814241,1.42637285166891,1.42691667699961,1.4271234582655,1.40488239392903,1.40586034922087,1.40490044965562,1.4029187435339,1.42616463088458,1.44167013790284,1.44308249270523,1.44636279213511,1.44424444718763,1.45236477589179,1.44628890220374,1.52648625124781,1.48457523983946,1.48346678832827,1.48510163685353,1.50314122683972,1.50128713161225,1.55689704211255,1.55490910845522,1.57734591879275,1.54848029983728,1.54954600759689,1.5481341652098,1.54507146437157,1.59276797888646,1.597764884271,1.57669725847258,1.53765834716866,1.55264644775667,1.59206825768447,1.59024922854795,1.59156773946533,1.59135113684579,1.59142797160882,1.67131898795862,1.71940689040132,1.67686596871747,1.68544966490319,1.59504071353468,1.56504697268532,1.55795922888035,1.53723958628256,1.56687253334513,1.57208217831125,1.56708161551812,1.60344366238367,1.57718579584331,1.57033465709071,1.5856558945795,1.57036327517483,1.57826928263408,1.55541026122168,1.58179168788602,1.64977603666411,1.60141435837047,1.57480759375276,1.57476481815279,1.55156335378506,1.60744771670924,1.7789791553624,1.65237175188693,1.6227535840234,1.62181840718436,1.62593498859368,1.62677665763845,1.63040645829667,1.6130854671895,1.58980606398868,1.58519824979548,1.57953585190399,1.57547478302127,1.56388294385116,1.5599187927329,1.53472519514724,1.52981343407427,1.53288456405264,1.52674983396554,1.50833108825313,1.49329907658139,1.45879124055089,1.4623585062333,1.43386768770563,1.43641782387426,1.43946007661078,1.44668994043852,1.46904707884461,1.42601314937712,1.40674558512025,1.38839013303543,1.30244073952317,1.3008717024633,1.27229873945667,1.27072897345595,1.19566627645084,1.20015277085355,1.19400622454714,1.19264212706492,1.19137547943726,1.19105858334725,1.22545862545715,1.2052117856606,1.21346833427094,1.15105849777103,1.13177618670758,1.12884191738223,1.12512273213498,1.09406490799159,1.07697311938023,1.07243583748155,1.02789356702787,1.0155857478168,1.00531007838622,0.988828732152973,0.980601462987918,0.976156686556227,0.977076417656145
0.893841764000064,0.894204944971268,1.07585952694573,1.18741812771111,1.0026543370922,0.974572868384055,0.972636504874737,0.934634144141253,0.918768482639243,0.839041904471328,0.839486898628819,0.839014821931405,0.839031201123732,0.837308193071209,0.839498026470364,0.8293714626473,0.847015466041289,0.849186284649566,0.846794413038318,0.840053996013017,0.839704651619463,0.840312576395283,0.894877302223804,0.994239653067352,0.967065597994819,0.993967656809716,0.979423325403516,1.04489292634051,1.02496177669892,1.07542628197413,1.07784321252387,1.1127120930098,1.11463527711013,1.12482234891779,1.12455356902847,1.12323665372633,1.16184176006525,1.16003215650805,1.1763864504402,1.1830423957963,1.18471903842718,1.21815282668545,1.22125805868046,1.27165413719418,1.27238847256571,1.25396420926539,1.30077055420097,1.30677831655533,1.30476469906138,1.30435746074197,1.30274257292959,1.30185386632193,1.33897693415513,1.42701523564181,1.42724875468954,1.42778026431076,1.40640057754701,1.40815868612527,1.4062854962316,1.41854282100679,1.41935918159899,1.4570164500088,1.41599205558551,1.36677459261714,1.374565246403,1.37763771930989,1.39256438245529,1.41601163478307,1.48364434288175,1.48270241352976,1.48536039582277,1.4975300497312,1.49882227140028,1.55745619032301,1.55431916925203,1.55132345039162,1.54833778558982,1.54722416090808,1.55551079509725,1.56731914634414,1.57863243425018,1.63368128337061,1.56098154931598,1.53784454764964,1.55113251576609,1.57507472665127,1.58924493450608,1.59511438594627,1.59296673832736,1.67008092157424,1.66962066615318,1.66953907079811,1.67057831000393,1.68793840724665,1.6805293050919,1.68127631806812,1.6256907776335,1.59722719793522,1.57102726457103,1.57269093591324,1.5693882090717,1.60124020590563,1.58152624308887,1.59015142440317,1.58557207560676,1.62601729844865,1.58265705594149,1.55480024911024,1.55620553681735,1.55551999518126,1.56406878750691,1.57402829680878,1.574081388877,1.58066896741064,1.59706983978813,1.60568186002928,1.60453490446567,1.60116724629639,1.61601299635905,1.66067998455,1.62851069854945,1.64138439003623,1.58821890321114,1.56442111314903,1.5640630479151,1.56202949630493,1.56469869373434,1.56863493911832,1.55889276516293,1.55581793437333,1.53017834656717,1.53044171880514,1.52739070507796,1.49755806136319,1.49440257440046,1.55833813330423,1.46375330750406,1.41667802894318,1.43258020757164,1.42328003095798,1.44527805980927,1.44052090942897,1.42162241753992,1.39355076170675,1.38935047266215,1.38798601444184,1.32726069937977,1.26568687514048,1.2676247407459,1.24803248386969,1.22093192335349,1.21580871015824,1.19217552033857,1.18548108212897,1.18607989638786,1.21486968969819,1.17880709302063,1.14871322636459,1.14666792304869,1.13265607968526,1.11461083775104,1.08166862016022,1.08263525285048,1.05956011023317,1.05768743673367,0.99578163070664,0.995633410416656,0.969110687457193,0.968512018068193,0.965506901316191,0.969297419734034,0.97194049202085
0.892964796657543,1.23525806405932,1.2350372142747,1.24045423081353,1.00781714858577,1.01467523527553,0.983303179149444,1.20490259188071,0.919394426144834,0.839409040868353,0.840269561419487,0.84032264801558,0.84056928146226,0.839808400901264,0.84126055131409,0.830789004211671,0.844219017654826,0.841419194575326,0.843848928447685,0.83910873979219,0.839480338565802,0.915001907936665,0.907451320362078,0.937988122521048,0.919363241670428,0.907218129641286,0.968486696434561,0.970632441621218,1.02008163637088,1.03154443919463,1.05673020991105,1.05936863346193,1.11040811807298,1.10745354708247,1.11731553310617,1.11318192456339,1.16204619844219,1.162689995236,1.17749537089503,1.18480979943255,1.18381840105483,1.19830617897807,1.22324240297003,1.29072993310118,1.27646019709421,1.27039792836516,1.2903748795234,1.27742575112666,1.30572376030462,1.30630757544789,1.3082785373532,1.3625973057239,1.36057496562418,1.42719662013132,1.42085523408331,1.40874792712322,1.40689112108092,1.40882751301698,1.39909896026202,1.39161871799508,1.38593074789018,1.35778173653899,1.35144964558805,1.34841562562644,1.35782844365614,1.36950242256969,1.37354345134011,1.38028395486849,1.4822941748132,1.48867259891107,1.48698980320757,1.4914514496281,1.49700302914028,1.5515691441791,1.54856452959566,1.54614189912098,1.54705438022834,1.56163129525195,1.56326887089404,1.56494132973918,1.56500254897175,1.53783068155697,1.53849765103097,1.53743908662111,1.55185544797551,1.57772905040534,1.59048777494045,1.59358600063024,1.59346441688567,1.5934955185084,1.66709889943913,1.66773314660544,1.66955265022761,1.66637894008704,1.68072219180351,1.6818807894306,1.63469561027098,1.69134056551573,1.57167822249525,1.57301239474063,1.57235274417406,1.57345829954856,1.5749146150821,1.57741891814134,1.58439623994005,1.61801651830698,1.5814439694455,1.5528637601076,1.55580883290787,1.55677582421955,1.55252082532146,1.53564184381949,1.55728993478439,1.53733856282845,1.57177811836091,1.57761926622491,1.57107735597166,1.56791571497069,1.56874891495897,1.55683357069849,1.57307561564456,1.58413911515045,1.57364674084143,1.54520623498823,1.54592538046337,1.54651823331388,1.54801314958249,1.5532533626984,1.55401887055414,1.53153372247313,1.53047643880173,1.52946179397256,1.53181753012601,1.53609779976059,1.48950875974686,1.46338696512749,1.46385582297514,1.41645380470792,1.43762733493281,1.44334411973943,1.44606426713177,1.42741868127502,1.41732781588118,1.39555322385772,1.39066914582787,1.39224363264638,1.34594935139692,1.2772038439487,1.27441071749482,1.27188198105725,1.23305602352658,1.23027851791548,1.19189807209199,1.18170133197822,1.17668396873734,1.15442468788744,1.15720560790051,1.1591615807673,1.13961145867847,1.09021571691679,1.0962319303065,1.09053102369202,1.08395641568191,1.05771765653335,1.05722120295811,1.01487280519781,0.997044132006915,0.980661384509611,0.967841938591917,0.949448954766055,0.969419309304823,0.973120220296
