0.910882954253844,1.12055052521653,0.942172687981231,1.10979950720913,1.19239967852723,1.1589197543182,1.22851510165608,1.12198641773147,0.960575740783426,1.00426140736128,1.02263719638155,0.916617436386281,0.951087944672072,0.954623148395556,1.04550242149282,0.85045187281509,0.850258299963392,0.84826531750437,0.847929972986641,0.847792745284264,0.851005327588252,0.851279782993006,0.853210967546323,0.852715675507942,0.853031935378321,0.853284579757531,0.864592687709023,0.864563606341632,0.864250981642178,0.84012707859851,0.837484309336842,0.835718525060562,0.838596671639552,0.838105923564827,0.845150884815326,0.87300810839783,0.792187353246974,0.791796572372656,0.797736441662293,0.797441084024726,0.795933396884043,0.794908278683506,0.898583353432861,0.89301336278473,0.875738121761672,0.87633519858592,0.87813824336417,0.867676221445214,0.885327702658894,0.884705179638178,0.91034676654257,0.97569805182681,0.963665636068733,1.03674165956624,1.18944610215157,1.19362654871404,1.14810512081962,1.14786883470957,1.22715191255962,1.13211036875451,1.13600908957038,1.13460046083737,1.14422457585837,1.17038871858307,1.1691073208324,1.16931634316052,1.31826747176693,1.31188774679551,1.23096884202971,1.22829699140065,1.23014184064452,1.22450732571249,1.23006913722604,1.22807888114521,1.26018652833048,1.25240726255335,1.25514272867358,1.25821444810426,1.28390601860886,1.27007419324346,1.26801123374415,1.28970411623247,1.4819410426151,1.43731931952435,1.43492010671458,1.43514730489732,1.41419054452109,1.41249110211417,1.44524399213843,1.40861964508023,1.41110064923579,1.49488225110415,1.42445081445377,1.46482847549089,1.46093884260232,1.4655918613849,1.51993766669707,1.51325804012442,1.53985840335999,1.56003360198758,1.58140840702005,1.57683717958326,1.57658271761859,1.5823899031695,1.5867793720601,1.61102596212245,1.48687578714428,1.4871756887455,1.48714842496357,1.53483277955771,1.56315984898212,1.58660670144122,1.60356477380117,1.60409187358513,1.51344888659792,1.49388257910008,1.5126764127766,1.51422136041925,1.51279455583162,1.52160984532206,1.49789035504367,1.49383713946353,1.5103499033853,1.46729130379182,1.50366118888535,1.47200793806557,1.45590413087274,1.45496807435983,1.4789511145302,1.52200062619637,1.53365134900744,1.5473468554632,1.53240630296601,1.54150331820305,1.48580341172173,1.50362483717611,1.44069094055625,1.40400297800689,1.51928333593077,1.4275588855937,1.42654103773501,1.4723169275941,1.3088887307833,1.26281293932299,1.26476684369458,1.25873245996092,1.26401254572787,1.23840276656906,1.19525328770248,1.15558448499553,1.14451538953228,1.12573064378308,1.09549510962362,1.09286869863111,1.07325695149672,1.05578995520743,1.0764195502005,1.07378405128068,1.07640137434589,1.05952509333172,1.01711173657723,1.00806924890405,0.961829874752169,0.951315142854816,0.949861074485259,0.950560844888108,0.932339550632107,0.887596958108133,0.954895786214848,0.912818682770816,0.901650528899893,0.894903651665153
1.08282653895386,1.09823057574385,1.08288106651772,1.08271748382614,1.12464009250591,1.11180793914458,1.19657103716239,1.07930042315769,1.16152798945609,0.979224167622984,0.986394542270358,0.897939928179332,0.948634204298446,0.957985681500154,1.03181600296437,1.02104680910234,0.850723601841651,0.850569107077385,0.850179234995798,0.849336784134186,0.851756899176766,0.851457906368276,0.851476082222896,0.851431551379078,0.850767223892737,0.851709641954756,0.862555174406183,0.862551539235259,0.912646012151931,0.857668595891743,0.83593209135234,0.835985710123468,0.838399463616931,0.8379877805098,0.838386740518697,0.865718681902699,0.880545635308516,0.892727093074473,0.891459327214767,0.904645000948448,0.794253947917206,0.916880986278263,0.90006832075527,0.900144659344672,0.875741756932595,0.876580572623283,0.922697259756488,0.935493061408582,0.920025409127429,0.885710304398634,0.913463925609806,0.973426069999379,0.995009897359978,0.994473709648705,1.02910780062607,1.09204169724592,1.16728973537046,1.06581393903005,1.08612545656729,1.14661470074083,1.12407664101271,1.14082569104453,1.14577861142833,1.1760232335151,1.16986161879911,1.19955187731998,1.30810716903466,1.30877967565558,1.23344075825795,1.22042684635042,1.22055407733276,1.22177185959226,1.22770627612551,1.24839039868245,1.2587142841063,1.27190995456002,1.25353416553976,1.26550296580667,1.28416048057353,1.2831971602787,1.29362101290296,1.29647462207821,1.47587939509951,1.55875220423691,1.5566892447376,1.43731931952435,1.41782571544498,1.4179347705727,1.44186328317921,1.4092467120646,1.41030999955984,1.41207305745793,1.42186984309781,1.4647466841451,1.4625019660996,1.55039131111196,1.51331256768828,1.5392222484483,1.54661073335111,1.54741955888168,1.54638353516837,1.56985765140939,1.57997251450512,1.58239899109681,1.61110775346824,1.6107896760124,1.51299449023244,1.49826296006337,1.55138189518872,1.56739482310846,1.579118249338,1.64549647040824,1.64552373419017,1.59755765384944,1.51405777772767,1.5035248699757,1.55026408012962,1.51227654397497,1.51338527110675,1.53446926246532,1.49200137814697,1.49290108295063,1.45810340928169,1.45614041698279,1.45495898643252,1.47169894853704,1.45664934091213,1.47921466442218,1.4769881222313,1.54176686809503,1.55897940241965,1.51259462143081,1.5126764127766,1.53518720872279,1.5432391123192,1.44164517292378,1.43707394548698,1.38863529292614,1.38067426860282,1.42631383955227,1.42560498122211,1.35212000099566,1.28933151121277,1.26242215844867,1.28412412886429,1.28376969969921,1.22627947153789,1.23444951818933,1.18637438272088,1.18746493399805,1.1549937697204,1.11750606956778,1.10983585891837,1.0965947488281,1.09284143484918,1.05252738930323,1.05092791409672,1.03316101620621,1.06096098584666,1.0011078965848,1.00065350021932,0.967264455283385,0.990747659451717,0.943090568639513,0.94153653306955,0.911164680000446,0.878519027518448,0.878527206653026,0.884722446700067,0.901584187030532,0.897280144656646,0.903965223985681
1.09505888911275,1.05217296013816,0.958521869211428,1.02656318097935,1.07337509455175,1.13988054660432,1.09524973558626,1.19926106364607,1.20850348572006,1.08658894086009,1.11053562932122,1.1113626307064,0.940136992263852,1.03523306363283,1.01653010922941,1.00576091536738,1.00955966898285,0.85086355592222,0.850528211404492,0.850101987613665,0.914363630413469,0.856008231572256,0.852115872305501,0.851439730513657,0.850503674000755,0.853654458399037,0.861040216923652,0.856129101005476,0.913536629028284,0.966964553682164,0.837489762093227,0.836287429310151,0.838437632911632,0.837878725382084,0.838040490488197,0.860437687343017,0.85006927107535,0.815127099362184,0.815482437319995,0.832042458463778,0.873049912863455,0.881600743669176,1.27160096503149,0.873611546771196,0.873133521794704,0.871614020348518,0.865370614286736,0.856366295908259,0.846725822618102,0.845679802184753,0.891143067344388,0.929785843058074,0.942781579110983,1.02402764925993,1.02400947340531,1.03855015710088,1.02456383697121,1.06159714075834,1.06528683924609,1.05826187143567,1.10756387709094,1.09355029317934,1.15074061973944,1.16257310109671,1.16319108015377,1.17786808275898,1.25237999877142,1.205449942144,1.21160246893268,1.23798472191281,1.21918180030899,1.21566477244013,1.24087468279731,1.24201067371102,1.25940496658184,1.37653017374959,1.45846692637408,1.44724333614657,1.29461159697972,1.29482061930784,1.28083429917817,1.29605657742196,1.29721983211761,1.37926563986982,1.37817508859265,1.42115189684034,1.41807108948235,1.41855274962976,1.42878575578051,1.40566606870457,1.4059750582331,1.40656577350823,1.49206499363814,1.45419560053851,1.47307122556081,1.47770606848877,1.48554894975706,1.5174475746142,1.51563907707957,1.51571178049804,1.61581529981468,1.58536165539978,1.57889105115526,1.60891756298659,1.59706690577471,1.54906447372474,1.50000784210684,1.49970794050562,1.60206526579506,1.54388435515819,1.75042567912634,1.64543285491707,1.64605992190144,1.53415118500948,1.4934281827346,1.48729383180053,1.53518720872279,1.53471463650268,1.53595968254411,1.51931059971269,1.48583067550366,1.4920286419289,1.45851236601063,1.45778533182585,1.45890314688495,1.47292581872385,1.45261430118662,1.48262263716333,1.44788857898556,1.46411052923342,1.49749048624204,1.51690229897562,1.51692956275755,1.52594478664879,1.50970466054631,1.42840406283351,1.37220432035016,1.37154090165655,1.36548834206827,1.36576097988756,1.3283278072988,1.32836415900804,1.28475119584867,1.2689927298936,1.26850198181887,1.24387369880952,1.22525253575189,1.19981542721197,1.18446591798584,1.13962608463965,1.14026223955133,1.12364042050184,1.10178395532195,1.10549182966432,1.07615600030852,1.05141866217145,1.02228276721647,1.02326426336592,1.00790566621248,0.986439981906907,0.966737355499421,0.966382926334341,0.962874986392787,0.918771275158686,0.947816290840571,0.947834466695191,0.875817186729266,0.888758395218316,0.969481909546958,0.896724872298022,0.896877549476825,0.894233871422426
1.07970029195932,1.04899218557975,0.953605300536866,0.991620100473451,1.11209875281849,1.29371189217606,1.10216564826896,1.15271269996565,1.19052756550142,1.13014737645561,1.08350813350209,1.11577936337893,1.09325947950543,1.08898815366986,1.16011027279577,0.980905434175284,1.01107735284357,1.01515783220564,1.01379464310918,0.935747523373255,0.905787353411281,0.925323670748999,0.939927969935729,0.888254015252626,0.972435485922619,0.853667181497271,0.850839018518484,0.856384471762879,0.84435023841934,0.841446645643882,0.837961425520602,0.836079315774758,0.83747340382407,0.838224975412584,0.83824951281632,0.867337241756561,0.873359811184716,0.815918657830861,0.890713208382638,0.866040394529463,0.866791057325246,0.866593849302625,0.873037189765221,0.907288679002848,0.873432514603194,0.873937803361615,0.84283709852227,0.844278443793593,0.875694499710585,0.884978726250201,0.883545560113457,0.996500317438774,0.977633780343782,0.983504581385865,0.989148184245205,1.03201593736518,1.0243729904977,1.0245547490439,1.04206718496974,1.05581721898936,1.10030262317046,1.09319586401426,1.1451878961532,1.14918658416948,1.14217070428637,1.19363563664135,1.19618934421538,1.18385702685609,1.19562589272218,1.21742783033821,1.20778553946259,1.21546483803931,1.21824574379609,1.24877209162946,1.47435262331148,1.38838991888878,1.37601216189293,1.45116023281706,1.28816825651712,1.2885226856822,1.28541461454228,1.29724709589954,1.2978650749566,1.29979171554626,1.39649635004906,1.42175170004279,1.416535229767,1.41567187667258,1.40563880492264,1.4067202682725,1.40478453975553,1.41255471760534,1.44817939265947,1.50687831515299,1.5037066285219,1.48760282132906,1.49839927897302,1.48501276204579,1.56014265711529,1.62363091730104,1.61614246519783,1.6175238301489,1.58801533017422,1.60104741793637,1.59833921559807,1.50102568996553,1.49740869489626,1.49730872769585,1.60840863905725,1.57601926612539,1.60408278565782,1.75102548232878,1.60960824546213,1.5550988574584,1.48721204045474,1.48759373340175,1.48175928406891,1.49937168719516,1.49783582747981,1.49062001319589,1.48936587922715,1.48961125326451,1.48088684304717,1.48265898887257,1.52039206306255,1.39117991257287,1.4054116067399,1.43472017231376,1.43285714721527,1.43949133415137,1.48553986182975,1.51806555367126,1.5175384538873,1.60530965584463,1.50131650363944,1.37270415635219,1.37564864480055,1.33836996697605,1.34915733669269,1.32526517579542,1.30171835613592,1.30040060667601,1.33368968441154,1.27105568939291,1.2521709764433,1.22697015401343,1.21900912969011,1.21225679969898,1.17049777371079,1.16408169703012,1.14121647191885,1.119214599902,1.12452194945088,1.08972427578194,1.12666670029598,1.0574439579778,1.02567256410299,1.00392515405082,0.966900938190996,0.958994441431534,0.954886698287538,0.927713795631457,0.914427245904637,0.933730003510495,0.909810578831297,0.87512014270461,0.917926097918882,0.870978774229568,0.870827005843495,0.938773803167394,0.892326315480115,0.882813981965024
1.08079993116379,1.12045964594344,0.997890770317162,1.00453404518057,1.11447070184633,1.0897788033458,1.10839996640343,1.10725488756241,1.12301335351747,1.12634862284014,1.12663034858674,1.23681237928986,1.0835172214294,1.11730613516696,1.12712109666147,1.1267757554237,1.14950466162532,1.00845094185106,1.00920523981777,0.0034250035169257,0.92030713487403,0.00444454173009463,1.10824547163917,1.2150831450923,0.00360704378886683,0.982768459273777,0.986876202417774,0.899038658591078,0.919870914363163,1.04982827489225,0.835550398405332,0.835933908937802,0.835958446341539,0.839143764863598,0.838340392089418,0.836177465389703,0.832500490000188,0.832033370536468,0.827137704094718,0.827266752662517,0.853645370471727,0.893846725719032,0.926523277153883,0.873984151790895,0.921715763607038,0.904233317841318,0.859994196490302,0.854153385608341,0.857445941672655,0.882264162362786,0.888272191107246,0.911955329676392,0.941272983177568,1.01627564726474,0.973098904616229,1.02849890949632,1.01382190689111,1.0761378244539,1.01830225505481,1.05657151695606,1.06392365014963,1.08160875669436,1.16388176262931,1.13994416209549,1.15970131606683,1.15535728681279,1.19209977692601,1.19963366866577,1.19886119484444,1.19606211323305,1.20790368251762,1.31168781239469,1.22327136759837,1.256006081768,1.45350491806297,1.37000504194121,1.37038673488821,1.45006968153989,1.37137731896497,1.28846815811834,1.33375329990271,1.29022212808912,1.31087898686413,1.38203745769928,1.38127407180527,1.43888244302162,1.43707394548698,1.42196072237091,1.40530255161218,1.40464822084588,1.40402115386151,1.43403857776554,1.46989953892971,1.4809141068291,1.48051423802747,1.47506148164164,1.46862722910635,1.51991949084245,1.51473028434859,1.5279077789477,1.51261279728543,1.51260370935812,1.59092346691334,1.58250804622453,1.59742133493979,1.50519704860069,1.50173454829568,1.49802667395332,1.60530965584463,1.59664886111846,1.59564010118708,1.6087358044404,1.57758238962266,1.56324164032791,1.50710551333573,1.48134123941266,1.48210462530668,1.50932296759931,1.48510364131889,1.47644284659272,1.47982355555194,1.47914196100371,1.48198648225165,1.45275062009626,1.45784894731702,1.41134602327315,1.39152525381064,1.39358821330994,1.43274809208755,1.44042739066427,1.46305632966549,1.56280541981704,1.60120191270064,1.51590262697155,1.55431729570976,1.37248604609676,1.33713400886193,1.33079972352705,1.3566367008686,1.30117308049734,1.28460578901171,1.28396963410003,1.38370054839696,1.27529066351924,1.34445887827357,1.27503620155457,1.2120841290801,1.22492537036874,1.17461460478209,1.15852897344388,1.13099255369541,1.12176830747604,1.14924111173334,1.07685577071137,1.0784734217725,1.05631705499139,1.00207121687964,0.993055992988387,0.961266423258965,0.948352478551845,0.921952049717091,0.900963481595278,0.900560886415457,0.920670651966419,0.923178919903904,0.917498965335325,0.86292596184042,0.87072794743582,0.871903016436967,0.863869288695169,0.913400310118638,0.875634519390341
1.01613932835509,1.11999616165064,1.00972325167442,1.0118498266649,1.10496472988035,1.07121216785203,1.0924870056841,1.10263822048906,1.11786049873286,1.1265031176044,1.13832651103436,1.13814475248816,1.23865722853373,1.2232986313803,1.09694009006587,1.06072469973661,1.14734173492561,1.03001659335704,1.03525123948745,1.32063033286746,0.00385177258339044,1.19924288779145,1.22572510797199,1.227133736705,0.967609796521154,0.00431289401508594,1.10848175774922,0.894225692287847,0.992728827605237,0.921206839677693,0.923442469795886,0.835817583468238,0.83591300670499,0.837555195169857,0.83926736067501,0.838972003037444,0.83112003384184,0.831075502998023,0.826795998027873,0.826772369416867,0.841103121991574,1.01178621117373,0.958058384918632,0.881921547503209,0.881247223296827,0.872059328786694,0.872151116852523,0.961066488858152,0.85944074171714,0.909238039410784,0.890515091567286,0.916408414058158,1.00144414989526,0.999299399050169,0.966173904006217,0.964738011491281,0.995727843617447,0.996164064128313,1.03496042581353,1.03379717111789,1.06518687204568,1.08289924237234,1.14296135396232,1.12152293343868,1.12923858372463,1.20317796031656,1.22099938577094,1.20892153037631,1.19887028277175,1.19927015157338,1.24384643502759,1.24724531984143,1.27147373404916,1.35777269178231,1.41947971821535,1.58236263938757,1.4538139075915,1.45139651892711,1.4249415625285,1.27895309822506,1.26246759808522,1.30362682087097,1.28471484413943,1.38854441365305,1.31567741248366,1.39891373871344,1.38254638162863,1.3976596047447,1.39536944706265,1.39478781971483,1.50783254752051,1.42831318356041,1.52768966869226,1.5355689016698,1.52848031836821,1.4885752295512,1.47253503784953,1.51873806029218,1.51889255505645,1.51961050131392,1.51275820412238,1.55803425797944,1.59082349971293,1.58209000156828,1.50487897114485,1.50459724539825,1.50118018472979,1.52806227371196,1.52713530512637,1.51232198361152,1.61555174992269,1.61260726147434,1.604528094096,1.61128042408712,1.54979150790952,1.55347211846996,1.47609750535495,1.48120492050301,1.47794235459882,1.48141394283114,1.47268044468649,1.46580997164034,1.46611896116887,1.45332315951677,1.45295964242438,1.43545629442585,1.39293388254364,1.38394592243433,1.38300986592142,1.42153358978735,1.45627673589243,1.51647516639206,1.45959382936048,1.45339586293525,1.45356853355414,1.36676973981894,1.33577081976547,1.32126648777914,1.31665890863311,1.30067324449531,1.28442403046551,1.38997121824067,1.27538154279234,1.27239161470744,1.48896601042552,1.28082521125086,1.20897605794017,1.18880994723989,1.16787136271828,1.16151890152878,1.11806043313367,1.14348845374628,1.09961194069493,1.09154186124389,1.0598795224968,1.03765954022452,0.980060256935479,0.993101432624936,1.00164408429608,0.929340534619898,0.92926783120142,0.90301190041089,0.903227284288131,0.91368203586524,0.894102096476435,0.859227175425361,0.859434380168023,0.865073439063708,0.86041314993928,0.865162500751343,0.862629695410123,0.864088307743334
0.934738763441875,1.07289343440433,1.09315951230502,1.00499752947337,1.09522247180433,1.09702188141165,1.10109327284641,1.10510104879,1.14788701056419,1.12513084058064,1.1160338253436,1.20155122132812,1.1684529900661,1.23581270728579,0.00382125532348438,1.12225905555076,1.11928730332048,1.18295732205242,1.03600553745415,1.18054902131535,1.35287429896237,1.07770094795118,1.05816190423527,1.21898186590818,1.20813088070036,1.02370048387678,1.13092893820424,0.876220690701818,0.971235879517735,0.974489357494617,0.959930497944436,0.834551635193993,0.834770654242157,0.834594348452349,0.839350060813528,0.838236789718087,0.830233960929142,0.830211241110868,0.831034607325129,0.82986771745856,0.84119218367921,0.845202686000992,0.89933038105772,0.880631970617959,0.881428981843022,0.909810578831297,0.950733515506993,0.86892490265757,0.868685890169324,0.94020060775502,0.936456381703413,0.936274623157219,0.922942633793851,0.954014257265804,0.954632236322865,0.97872433162095,0.992537981131733,1.03854106917357,1.06029756715305,1.05100970544251,1.07773729966041,1.08901541745178,1.14414278451258,1.11510685675801,1.11424350366358,1.12812985659285,1.21663718066227,1.19030036731868,1.19913383266374,1.19561680479487,1.20494101821465,1.24549134987065,1.23052353359153,1.26962888480528,1.27091937048326,1.25704210548131,1.46023907219948,1.37440359875911,1.27720821618159,1.26352179765315,1.26188597073739,1.27015598458924,1.27108295317484,1.28017088048456,1.28652334167406,1.35947213418923,1.37510336916196,1.38155579755187,1.35860878109481,1.36620628832574,1.50686013929837,1.53019793662975,1.53118852070651,1.48306794560151,1.52841670287704,1.52782598760191,1.50407014561428,1.47179891573745,1.51919245665767,1.51691138690293,1.51512106522291,1.54975515620028,1.57754603791342,1.57594656270691,1.50194357062381,1.56037894322535,1.49609094543634,1.53462375722958,1.53237903918408,1.55403556996316,1.58510719343511,1.5851889847809,1.57904554591952,1.54714692106239,1.55178176399035,1.5517363243538,1.45863050906565,1.48748467827403,1.46447404632581,1.52664455705164,1.52578120395722,1.54534751145506,1.46667332473476,1.49918992864896,1.51115872891587,1.51089517902389,1.42841315076081,1.38397318621625,1.42865852479818,1.52136447128469,1.5191288411665,1.4608206995473,1.47631561561038,1.46005731365328,1.4361560648287,1.36634260723539,1.34228686364654,1.32116652057874,1.29960086907276,1.2904856779811,1.28801376175286,1.28213387278346,1.26512127285966,1.27725365581814,1.24166533247325,1.2407747155969,1.21353819744965,1.18273921179699,1.17519623212992,1.17416020841661,1.17563245264078,1.10898159375125,1.08506216907205,1.0826720441896,1.0674406780185,1.02040156626335,1.00122603963983,1.00889625028924,0.959394310233162,0.977406582161039,0.923696931760558,0.906970601547007,0.899293120555751,0.904430525863939,0.875268275919759,0.865495118890879,0.861557319987575,0.860054176810546,0.858991798108039,0.869890949330594,0.858730065801519,0.863473055064465
0.936928953923519,1.06196974577804,1.01879300312953,1.00532469485652,1.08876095548711,1.08806118508426,1.08025465552521,1.10404684922207,1.13390977836183,1.13739954244877,1.1759232663147,1.13755403721303,1.10962683659024,1.19072749990224,1.19255417329149,1.22111752882596,1.08575285154759,1.14880489122247,1.14897756184136,1.13281013915735,1.07119399199741,1.05713496844927,1.22116296846251,1.13340085443249,1.19117280834042,0.978951529803692,0.00385696178988429,0.904419620351167,0.904695893341383,0.952950969770566,0.907679459877166,0.834823364220554,0.834890614882646,0.834491654873749,0.834396231636997,0.839380959766381,0.829575086199187,0.828567235060538,0.826588793285211,0.831835253721116,0.858551942426249,1.0459568178583,1.04899218557975,0.879687734970478,0.881057285616054,0.941191191831781,0.967600708593845,0.902876490293975,0.894594662136622,0.941027609140205,0.923915042015991,0.920534333056773,0.921397686151197,0.948961369681597,0.985140408301616,0.971045033044231,1.01153174920906,1.02068329200995,1.02011984051675,1.07386584262647,1.06667729212448,1.08933349490763,1.08375350753945,1.08381712303062,1.11077191543127,1.17360584485072,1.19282681111079,1.20521365603394,1.1844295662766,1.18364800452796,1.21140253453187,1.2314323263225,1.26620273620951,1.27159187710418,1.26267662041334,1.2673114633413,1.2093759267418,1.21524672778388,1.23588541070427,1.23111424886666,1.23140506254057,1.2589051305798,1.26145883815384,1.27462724482563,1.2619859379378,1.37489434683384,1.37443086254104,1.35927219978842,1.35873601207715,1.36186225907169,1.38284628322985,1.42035215923709,1.40122207225011,1.42258778935528,1.4767972757578,1.47631561561038,1.47470705247656,1.52278218794501,1.49629087983716,1.52210968132409,1.51968320473239,1.55822510445294,1.64663246132196,1.51131322368014,1.4664279506974,1.5529541066133,1.513803315763,1.50386112328616,1.49254665378555,1.52833491153125,1.52721709647216,1.58467097292424,1.58022697646979,1.58893321083251,1.45535885523415,1.43449297413102,1.42417817663448,1.42499609009236,1.47812411314502,1.52871660447826,1.47621564840997,1.47660642928429,1.54066722889055,1.43415672082056,1.4306396929517,1.40624769605239,1.42890389883554,1.39234316726851,1.39199782603074,1.39779592365435,1.42342387866778,1.49217404876585,1.47958726944188,1.44934264735511,1.46357434152214,1.34972987611321,1.34108725724166,1.31741320659982,1.42472345227307,1.29251228577117,1.33163581283954,1.25296162611924,1.25280713135498,1.25171658007781,1.23775752373007,1.20614062461953,1.17456916514555,1.17365128448726,1.17455098929093,1.15451210957298,1.13002923340058,1.10024809560661,1.07939130243079,1.04630215909607,1.04013145645277,1.02737200650991,0.993201399825343,0.962838634683548,0.963129448357459,0.945280759121157,0.919443781779606,0.945980529524006,0.896567651155564,0.913082232662798,0.884992358141166,0.863274938249113,0.862951408036887,0.923378854304717,0.85145154481916,0.902816509973731,0.849791180499673,0.867687126957985
1.07016705621141,1.02666314817975,0.960975609585054,1.0808998983642,1.04647482971496,1.09036043069362,1.09730360715826,1.08602548936689,1.12822073586594,1.13336450272325,1.13314639246781,1.11045383797543,1.11053562932122,1.11171705987148,1.18992776229898,1.27747176607357,1.31541386259168,1.08508034492667,1.15185843479854,1.16227319949549,1.08854284523168,1.08740685431796,1.36170776430743,1.21479233141839,1.21234767897208,1.04193086606009,1.08595278594841,0.00427717846075872,0.931039977026817,0.943172359985301,1.36013555288284,0.844462019925249,0.833992727664445,0.833511067517029,0.833074847006163,0.83927735739505,0.839193748463801,0.827563019092814,0.827870191035882,0.828065581473041,0.847612804323531,1.21768229230289,0.970199855804426,0.910937481817702,0.935865666428281,0.944453757735972,0.949642964229826,0.897286506205763,0.897183812627163,0.879865858345749,0.883985415795248,0.917462613626086,0.920552508911393,0.946971113600767,0.965855826550377,0.973180695962017,0.975498117425997,1.01623020762819,1.02900783342566,1.05470849185757,1.06642283015981,1.07283890684047,1.07754645318691,1.10494655402573,1.1045375972968,1.12503996130754,1.14835049485699,1.15654780529036,1.16767142831746,1.15286719472992,1.19934285499186,1.17781355519512,1.18738314265226,1.22347130199918,1.2208721547886,1.20999390579886,1.20907602514058,1.21003934543541,1.20814905655498,1.24760883693381,1.23939335064582,1.26300378579649,1.26440332660219,1.26214952062938,1.26456690929376,1.26495769016808,1.34359552517914,1.37867492459468,1.36143512648813,1.40203089778068,1.37874762801316,1.41612627303807,1.38817180863335,1.39437886298589,1.47401637000102,1.46993589063895,1.4933373034615,1.48245905447176,1.49355541371693,1.52723527232678,1.471844355374,1.47187161915592,1.46027542390871,1.48944767057293,1.55683465157455,1.53918589673907,1.44655265367103,1.46700957804522,1.49276476404099,1.53150659816235,1.53204278587362,1.52303664990968,1.58048143843446,1.46019363256293,1.63267340497422,1.4275588855937,1.42314215292117,1.44966072481095,1.45893949859418,1.47583395546297,1.47566128484408,1.46692778669943,1.4826862526545,1.51261279728543,1.44153611779606,1.45902128993997,1.42786787512223,1.38740842273933,1.43452932584026,1.39786862707283,1.49713605707696,1.49200137814697,1.43504733769691,1.41446318234039,1.37634841520339,1.34779414759623,1.34297754612208,1.3320629454231,1.32965464468602,1.27822606404028,1.2636672044901,1.25306159331965,1.23279551541896,1.21896369005356,1.25090775454725,1.18107612109931,1.17768632421278,1.17738642261156,1.16240043047782,1.16423619179439,1.11259858882052,1.07384766677185,1.07485642670323,1.02704484112676,1.01734802268729,0.99828155119148,0.998735947556966,1.04854687714157,0.99726370333279,0.943963009661247,0.966455629752819,0.913727475501789,0.903323616317614,0.868902182839296,0.869228439429715,0.86036589271727,0.860984780567062,0.849428572200015,0.851005327588252,0.849999294035065,0.85004109850069,0.861105650000282
0.951551428964868,1.01823863956364,0.992574332840972,0.998390606319197,1.04188542642355,1.0791277525388,1.08555291714678,1.08280836309924,1.08552565336485,1.10181121910388,1.11979622724983,1.13704511328369,1.14546053397249,1.15205836919935,1.25005348938013,1.19767067636687,1.27723547996352,1.11551581348695,1.05191849817348,1.05261826857633,1.0881884160666,1.12477641141556,1.23472215600862,1.21309288901147,1.21024836776353,1.18751946156191,0.978742507475569,1.05745304590511,0.845666170293788,0.847121147456075,0.847684598949278,0.925105560493565,0.833073938213432,0.831186375711201,0.829365155078332,0.872084774983162,0.827228583367816,0.828838964087099,0.829461487107815,0.828932569738389,1.140516701516,0.833780978958128,0.832515939476614,0.962166128062628,0.918834890649855,0.994191983902103,0.902783793435416,0.903523550718428,0.907484069440007,0.907284135039193,0.944771835191813,0.879084296597113,0.91567229194607,0.975525381207926,0.978451693801658,0.978269935255463,0.978260847328153,0.992029057202388,1.05254556515785,1.05522650371422,1.07281164305854,1.06924917555313,1.07385675469916,1.08898815366986,1.10312896856379,1.13161962067978,1.12693933811527,1.13884452289101,1.14329760727278,1.14688733856012,1.15552995743167,1.20418672024794,1.18158504502865,1.21481050727301,1.2157283879313,1.19616208043346,1.19538960661213,1.2717009322319,1.20794912215417,1.25313429673813,1.23421323207928,1.24075653974228,1.26543026238819,1.25885969094326,1.29875569183295,1.27849870185957,1.35359224521984,1.36517935253974,1.36657889334544,1.33336251902839,1.37898391412321,1.35045691029798,1.36928709568374,1.38477292381951,1.45527706388836,1.45478631581364,1.46828188786858,1.51315807292401,1.46859996532442,1.46403782581494,1.46775478808462,1.47178982781014,1.48616692881412,1.47286220323268,1.43124858408145,1.51134957538938,1.4588577072484,1.44969707652019,1.49103805785214,1.49075633210554,1.52353648591172,1.45346856635373,1.47581577960835,1.48851161406003,1.50943202272702,1.42685911519085,1.42528690376627,1.49426427204709,1.50168002073183,1.45015147288568,1.42902204189057,1.42785878719492,1.43719208854201,1.4363378233749,1.43978214782528,1.51022267240297,1.42947643825605,1.39305202559867,1.39310655316253,1.40283063538394,1.40308509734861,1.49647263838335,1.43693762657734,1.43487466707803,1.37510336916196,1.40322141625825,1.3427139962301,1.32491983455765,1.29643827036897,1.27529066351924,1.25272534000919,1.24837222282783,1.22214446461196,1.2191908882363,1.21945443812828,1.18753763741653,1.15548451779512,1.21852746954269,1.17625043169785,1.11571574788776,1.06419628796892,1.04180363507776,1.04315773624691,1.06712260056265,1.00393424197813,1.13590912236997,0.99793620995371,1.047356358664,0.991392902290707,0.987694115875649,1.00480668299986,0.972689947887291,0.919689155816969,0.881098181288948,0.873670618298709,0.875171943890276,0.846039684106218,0.845918814672998,0.835737609707912,0.837867819869312,0.851491531699322,0.856842503299289
1.05269097199481,1.02368230802216,0.994709995758758,1.0729570498955,1.05255465308516,1.09242339019293,1.08883365890559,1.10394688202166,1.09039678240286,1.11464337246521,1.11556125312349,1.11688809051071,1.12601236952968,1.11418897609973,1.16813491261026,1.25372501201326,1.28386966689962,1.05705317710348,1.05678053928419,1.27699919385347,1.06115183232016,1.12802988939244,1.11250770954743,1.19411729678877,1.2158283551317,1.1871377686149,1.03794126597112,1.23733039114651,0.846898493236987,0.847085704539567,0.847533739355937,0.836055687163753,0.83400726834814,0.82820462676088,0.827575742191047,0.828916211469232,0.828413649089004,0.828108294731397,0.82809193646224,0.826022615413815,0.826906870741052,0.829516014671674,0.828888038894572,0.904243314561358,1.06810409671211,0.901721414732909,0.902931017857834,0.922533677064913,0.921679411897799,0.886030199439936,0.875897160489592,0.882544979316656,0.920034497054738,0.920143552182455,0.947825378767881,0.996772955258065,0.986067376887208,0.986085552741827,1.0581982559445,1.04871954776046,1.06730435910885,1.08633447889542,1.08667073220588,1.07758280489615,1.08962430858154,1.12375856355687,1.12982021107245,1.13021099194677,1.12915679237885,1.13982601904046,1.15120410403224,1.17070679603891,1.17962205272975,1.20873068390281,1.19658921301701,1.19209977692601,1.2034960377724,1.19707087316443,1.19110010492194,1.19569859614066,1.20831263924656,1.29980080347357,1.28425135984663,1.2557243560214,1.25528813551053,1.27673564396149,1.303099721087,1.36163506088895,1.36820563233388,1.33471662019754,1.39744149448927,1.35138387888358,1.35564611679184,1.37200438594935,1.41976144396196,1.40745639038459,1.4785785095105,1.41267286066037,1.41172771622016,1.46283821941006,1.43760104527095,1.4373738470882,1.47144448657237,1.43131219957262,1.43147578226419,1.44849747011531,1.39170701235683,1.39168883650221,1.44796128240404,1.53434203148298,1.53391489889942,1.45425012810237,1.48533992742894,1.46889077899833,1.43539267893468,1.46909071339915,1.45920304848617,1.42319668048503,1.4289584263994,1.42105192963994,1.42909474530904,1.42901295396326,1.42888572298092,1.5292164404803,1.52888018716984,1.44165426085109,1.39542397462651,1.39464241287787,1.39474238007828,1.40293969051165,1.3992499920239,1.40667482863595,1.43790094687217,1.41630803158426,1.4037303401876,1.35821800022049,1.33833361526681,1.33136317502025,1.29511143298175,1.26785673897988,1.2444189744481,1.22446188607594,1.22338042272608,1.21795493012218,1.17456916514555,1.19955187731998,1.21242038239056,1.174523725509,1.14364294851055,1.14353389338283,1.05876170743771,1.06966722020938,1.06873116369648,0.999526597232912,1.00130783098562,0.975452677789448,0.975870722445695,0.991792771092335,0.99229260709437,0.945035385083795,0.97537997437097,0.975979777573412,0.904689531792266,0.879954011240653,0.878070083909347,0.880190297350706,0.849896600456466,0.848898746037857,0.831834344928385,0.832949433609288,0.854942217698825,0.85729144690839
1.04677473131618,0.969518261256197,1.06424172760547,1.16469967608718,1.06740432630926,1.06567762012041,1.07820987188052,1.09280508313994,1.08403523328605,1.09799428963379,1.11831489509834,1.12507631301678,1.12440380639586,1.13353717334213,1.14952283747994,1.27106477732022,1.27258246118094,1.21225679969898,1.27732635923662,1.06532319095533,1.0653868064465,1.21209321700741,1.20589525058217,1.22686109888571,1.20906693721327,1.02635415865122,1.12036876667034,0.003997970070022,0.877625684263902,1.09553146133286,1.11475242759293,0.832155148762418,0.83245595915637,0.826892330057356,0.827058639127124,0.827485771710681,0.827575742191047,0.82769025007515,0.827032284137926,0.82625163118202,0.826684216521963,0.828651752784519,0.828529974558568,0.827832021741182,1.12205912114995,0.997863506535232,0.922406446082577,0.961184631913178,0.937874098363731,0.954714027668653,0.894655551249597,0.875852629645774,0.876081645413979,0.94086402644863,0.982832074764945,1.00845094185106,0.970581548751435,0.979278695186843,1.02907144891683,1.02712663247255,1.0321249924929,1.03788673840727,1.07515632830445,1.07044878195801,1.09849412563583,1.10085698673636,1.10943599011674,1.11755150920432,1.13215580839105,1.13326453552284,1.13231030315532,1.17344226215914,1.15329432731348,1.18987323473512,1.21990883449377,1.18498392984249,1.21268393228254,1.21512858472885,1.1932175919851,1.2171370166643,1.265630196789,1.25905053741676,1.30547167011484,1.30079138755033,1.28805920138941,1.26174056390044,1.28864082873723,1.4382099364007,1.35631862341276,1.35830887949359,1.35878145171369,1.34606744140739,1.3572001523618,1.36843283051662,1.40262161305581,1.47473431625849,1.4141996324484,1.50271604444514,1.44697069832728,1.44710701723692,1.46743671062878,1.43205740961201,1.42061570912907,1.47055386969601,1.44902456989927,1.44841567876952,1.38742659859395,1.44178149183342,1.43782824345369,1.5046426850348,1.54527480803658,1.48490370691807,1.47961453322381,1.4759611864453,1.43336607114462,1.39774139609049,1.43530179966159,1.42123368818613,1.4190525856318,1.41720773638792,1.45227804787616,1.47899655416675,1.44865196487957,1.52693537072556,1.45986646717978,1.41240931076839,1.41210032123986,1.39645091041251,1.39505136960681,1.40546613430376,1.40073132417539,1.39968621253477,1.42665009286273,1.42445990238108,1.41539923885329,1.39097089024474,1.3377610758463,1.29629286353202,1.29349378192062,1.27276421972714,1.2505896770914,1.22169006824648,1.23057806115539,1.18319360816248,1.17478727540098,1.17710469686496,1.13978966733122,1.16217323229508,1.1017385156854,1.1065914688688,1.02641777414239,1.02716298418179,1.02729930309144,0.998517837301533,0.988575644824692,0.973989521492582,0.967255367356075,0.967309894919933,0.948815962844641,0.945398902176184,0.929231479492181,0.916172127948105,0.877705658024227,0.883331993821679,0.862459751169431,0.893210570807351,0.920897850149162,0.874402196447142,0.835130536163623,0.832383255737892,0.894114819574669,0.857026079430946
0.970481581551028,0.970354350568692,1.06107004097438,1.06180616308647,1.0584708937638,1.09899396163786,1.0733296549152,1.09508615289468,1.09858500490893,1.09779435523298,1.11608835290746,1.11228959929199,1.12743917411731,1.11684265087417,1.15240371043712,1.18955515727928,1.04582049894866,1.20792185837224,1.26005929734814,1.06471429982558,1.06500511349949,1.24400092979185,1.21505588131038,1.1267757554237,1.20574984374522,1.03899546553905,1.04781075502949,0.891608369222646,0.891308467621425,1.09834871879887,1.15643875016264,1.15494833008385,0.825631834539497,0.825715443470746,0.825803596365651,0.825109278719188,0.823524344196371,0.82384969199406,0.824519472236786,0.824934790514841,0.827639357682215,0.827081358945398,0.885142308941776,0.828599951598853,1.07951853341312,0.907996628540275,0.921952049717091,0.972971673633893,0.963901922178786,0.961639028278664,0.871339564943764,0.872903597233768,0.881808857204568,0.93094000982641,0.913109496444727,1.01845674981907,0.950869834416639,0.976243327465394,1.0258634105765,1.02743562200108,1.05780747507019,1.04282148293645,1.06715895227189,1.06792233816591,1.07363864444373,1.08817024021198,1.10864534044079,1.12426748748621,1.13189225849907,1.12316784828174,1.15244915007367,1.15288537058454,1.15566627634132,1.15672047590924,1.21931811921864,1.1827482997243,1.17635039889825,1.19617116836076,1.1901276966998,1.21830935928726,1.22808796907252,1.31763131685525,1.29167619645868,1.64924069645985,1.29974627590971,1.281797619473,1.27998912193837,1.3554189186091,1.35586422704727,1.35620048035773,1.38263726090172,1.33584352318394,1.3368250193334,1.34992072258671,1.39366091672842,1.39286117912517,1.39693257055992,1.4111097371631,1.45323228024368,1.42245147044563,1.42253326179142,1.42009769727242,1.42020675240013,1.46797289834005,1.44478959577294,1.40837427104287,1.38979854762179,1.39015297678687,1.39921364031466,1.44754323774779,1.43808270541836,1.42100649000339,1.42584126733216,1.4341021932567,1.4281223370869,1.39659631724946,1.44041830273696,1.42125186404075,1.42061570912907,1.43282988343334,1.46911797718108,1.45511348119679,1.41580819558222,1.44722516029195,1.40501173793827,1.40443011059045,1.39488778691524,1.39506954546143,1.43777371588983,1.40603867372427,1.44114533692174,1.41314543288047,1.47958726944188,1.43696489035927,1.39262489301511,1.36636078309001,1.3295455895583,1.31750408587292,1.2957203241115,1.2477815075527,1.23057806115539,1.25331605528432,1.2151740243654,1.19287225074733,1.17879505134457,1.17624134377054,1.14511519273472,1.13867185227213,1.10919970400669,1.05835275070877,1.03695068189436,1.01075927538773,1.00237111848086,0.977624692416472,0.961575412787496,0.963329382758273,1.06292397814556,0.949942865831047,0.933675475946637,0.927741059413386,0.912591484588073,0.904294206954293,0.869442005721493,0.876715982740198,0.878957065614776,0.839492741272291,0.840496957240016,0.87506379755529,0.867264538338083,0.848999622030995,0.893749484896817,0.860256837589553
1.04274877951797,1.0588525867108,1.06396908978618,1.06037027057153,1.05748939761435,1.06721347983575,1.06776784340165,1.09218710408288,1.09180541113587,1.08413520048646,1.09083300291373,1.11477060344755,1.11388907449851,1.13971696391275,1.25194377826055,1.03138887038081,1.19145453408702,1.19584400297761,1.0636146606211,1.06470521189827,1.06557765292,1.05974320358716,1.19897024997216,1.21286569082873,1.13975331562199,1.08627995133156,0.00382817123616708,1.1621914081497,0.925723539550627,1.10042076622549,0.83452982416845,0.825356470342012,0.825211063505056,0.823901493179725,0.826096227625024,0.825404636356754,0.822522854606839,0.824773934201459,0.823759721513693,0.821865797462346,0.821944862429941,0.833103928373554,0.830817405862426,0.834200841199838,0.83447438781186,0.912282495059542,1.06067017217275,0.9322395834317,0.932830298706833,0.956567964839837,0.982832074764945,0.923996833361779,0.887405202841898,0.911664516002481,0.974807434950458,0.974198543820706,0.944908154101459,1.02619057595965,1.02579979508533,1.07379313920799,1.04304868111919,1.04152190933116,1.04198539362395,1.07061236464959,1.0703397268303,1.0797820833051,1.10653694130494,1.11678812331031,1.18895535407684,1.12358589293798,1.12082316303583,1.12819347208401,1.13324635966822,1.15194931407164,1.17707743308303,1.17455098929093,1.20177841951087,1.17468730820057,1.18400243369304,1.20548629385323,1.24812684879047,1.2448824587409,1.28174309190915,1.28982225928749,1.28851359775489,1.28059801306812,1.32642843049107,1.36249841398337,1.36842374258931,1.35422840013152,1.29990077067398,1.30598968197149,1.34688535486526,1.39954989362512,1.37574861200095,1.40075858795732,1.40016787268219,1.40912856900958,1.40929215170115,1.40856511751637,1.40353040578678,1.41934339930571,1.42114280891303,1.4108370993438,1.41017368065019,1.40070406039346,1.4121366729491,1.37391285068439,1.48169566857774,1.43158483739191,1.42619569649724,1.42339661488585,1.4221424809171,1.45909399335845,1.39942266264279,1.39945901435203,1.39387902698386,1.41669881245858,1.56438671916894,1.41932522345109,1.41853457377514,1.45305052169748,1.39311564108984,1.3921432328677,1.39725973594307,1.37513063294389,1.36547016621365,1.3761666566572,1.37297679417149,1.37940195877946,1.39097089024474,1.42013404898165,1.4819410426151,1.42024310410937,1.36103525768651,1.38737207103009,1.40845606238866,1.30948853398574,1.2917943395137,1.22754269343394,1.20764013262564,1.19520784806593,1.19292677831119,1.19288133867464,1.18006736116793,1.17007972905454,1.15916512835556,1.12927493543387,1.08867916414132,1.06375097953075,1.02662679647052,1.00216209615273,0.996654812203039,0.991783683165026,0.960848378602718,0.958049296991323,0.973344278653591,0.940346014591976,0.934875082351521,0.905140292986828,0.89682574829116,0.885537633779749,0.888174041492301,0.877741100940735,0.852921971457873,0.838263144707285,0.85175053762765,0.830472973417388,0.853394543677979,0.868889459741062,0.880363876762322,0.859971476672028
1.02589067435843,1.03639631832847,1.03712335251325,1.04036774256282,1.05908887282086,1.05282729090446,1.07011252864755,1.10114780041027,1.08970609992732,1.09469537202036,1.09072394778601,1.10177486739464,1.10712765658007,0.00358140674592609,1.15530275924893,1.15671138798193,1.17769541214009,1.16046470196085,1.06253319727124,1.06228782323388,1.28498748195872,1.31493220244427,1.1478960984915,1.20904876135865,0.00423292025476035,0.00436825766825679,1.09614035246261,0.904055194466047,0.982895690256113,0.827969249443558,0.825151991977543,0.954850346578299,0.960721147620382,0.824055079151259,0.826307067538609,0.827576650983778,0.821585889301207,0.824402237974491,0.824694869233864,0.824865722267287,0.997636308352489,0.82186034470596,0.822137526488907,0.835275943000578,0.835185972520212,0.844676495009759,1.06384185880384,0.945635188286237,0.966800970990589,1.10921787986131,1.11667906818259,0.920334398655959,0.969809074930108,0.88423078983261,0.971317670863522,0.975479941571377,0.928522621162022,0.97704306506865,1.04652935727882,1.0736113806618,1.05477210734874,1.0482924151769,1.04713824840857,1.03900455346636,1.08265386833498,1.08563470849257,1.1555572212136,1.12046873387075,1.12550344560033,1.12600328160237,1.16288209062524,1.13051089354799,1.15754747729443,1.13826289554319,1.16110085687253,1.16024659170542,1.18353894940025,1.18674698774058,1.17647762988059,1.1797583716394,1.24779968340732,1.33763384486396,1.28817734444443,1.28217931242001,1.28800467382555,1.28406051337313,1.32610126510792,1.29661094098786,1.27763534876515,1.27717186447235,1.27716277654504,1.30000982580169,1.34413171289042,1.34169614837141,1.37199529802204,1.42893116261747,1.44267210870978,1.41102794581731,1.40985560319435,1.41004644966786,1.40577512383229,1.43133037542724,1.4312031444449,1.39136167111906,1.40423926411694,1.39151616588333,1.40272158025622,1.40303056978475,1.48792998671221,1.42263322899183,1.44005478564457,1.56721306456226,1.56945778260776,1.46529195978368,1.39996793828137,1.39937722300624,1.44943352662821,1.37846590226656,1.39982253144442,1.39824123209252,1.41868906853941,1.44733421541966,1.39367909258304,1.37181353947584,1.374576269378,1.34400448190808,1.34455884547397,1.36597000221569,1.4068111475456,1.36839647880738,1.35320146434552,1.39596016233778,1.4321392009578,1.43798273821796,1.41180950756595,1.35052052578915,1.41613536096537,1.29408449719575,1.29366645253951,1.24269226825925,1.2151740243654,1.20223281587635,1.17965840443899,1.1708794666578,1.16459062095947,1.16531765514425,1.16737152671624,1.10820911992993,1.08367171619367,1.08462594856119,0.995782371181305,0.997554517006702,0.959821442816719,1.01508512878716,0.985131320374306,0.95383249871961,0.961702643769832,0.963620196432185,0.908810906827227,0.922451885719126,0.956822426804509,0.891365721563476,0.867181838199564,0.864639036138303,0.887925032284014,0.888714773167229,0.817240042461696,0.855081262986664,0.840317925072014,0.864960748765067,0.87691409955555,0.884120825912163
0.99862689242925,1.03093447401533,1.04279421915452,1.03654172516543,1.06732253496347,1.06958542886359,1.07354776517063,1.08230852709721,1.09266876423029,1.09978461131381,1.10464665242451,1.09900304956517,1.11699714563843,1.13578189138764,1.13319183210436,1.1614461981103,1.17320597604909,1.24714535264102,1.09103293731454,1.23967507639242,1.28815916858981,1.36838739088007,1.27150099783108,0.00446444429090293,0.95383249871961,1.2084398702289,0.901107979639503,0.891050370485829,0.889345475322524,1.13371893188833,0.821666771854263,0.963720163632592,0.815176174169657,0.81534702720308,0.822437428090128,0.822960892703168,0.823206266740531,0.822544665632383,0.82473758249222,0.82456036790968,0.818891318853873,0.820073658196868,0.820219973826555,0.822578290963429,0.839362783911762,0.839470021454017,0.862928688218613,1.07349323760677,0.941409302087214,0.944153856134751,0.909456149666217,0.915217895580583,0.931721571575046,0.903752566486633,0.872294706104016,0.871705808414346,0.93226684721363,0.966591948662465,1.00098975352978,1.04005875303429,1.03815028829925,1.05838910241801,1.02370957180409,1.04151282140385,1.05405416109127,1.05432679891056,1.18643799821205,1.11975987554059,1.12384035490266,1.1184603019353,1.11894196208271,1.11275308358479,1.11050836553929,1.14466079636924,1.18610174490159,1.17750456566659,1.16464514852333,1.19846132604282,1.1895733331339,1.21352910952234,1.18372070794644,1.27886221895196,1.26900181782091,1.26822025607227,1.27840782258648,1.25873245996092,1.29682905124329,1.26741143054171,1.26748413396019,1.31463230084304,1.27709916105388,1.30613508880845,1.33440763066901,1.35246534223343,1.36497941813893,1.37492161061577,1.41705324162366,1.41233660734991,1.40617499263392,1.40998283417669,1.40427561582618,1.4004586863561,1.39043470253347,1.40665665278133,1.50958651749129,1.38818998448797,1.38592709058785,1.4070019940191,1.41923434417799,1.4269954341005,1.4286767006528,1.42756797352101,1.47270770846842,1.46731856757375,1.52533589551904,1.39025294398728,1.38394592243433,1.40761088514885,1.40732007147494,1.39882285944035,1.38704490564694,1.38791734666868,1.37307676137189,1.36228030372794,1.34443161449164,1.34361370103376,1.34309568917711,1.35520080835366,1.35664578879591,1.33597075416628,1.35256530943384,1.38054703762049,1.40684749925483,1.42464166092728,1.40962840501161,1.3377610758463,1.31203315363246,1.3727132442795,1.37475802792419,1.23384971498689,1.19566224443142,1.20805817728189,1.17431470318087,1.17391483437925,1.17455098929093,1.16089183454441,1.16390902641124,1.16539035856272,1.05451764538406,1.02226459136185,0.978569836856684,0.978978793585621,0.967064520882571,0.941400214159904,0.938855594513181,0.955023017197184,0.973089816688919,0.902642930562116,0.908724571517784,0.900556342451802,0.878748952079384,0.878855280828908,0.878909808392766,0.839186478121953,0.83237144143239,0.833865496682109,0.829510561915288,0.854789540520022,0.83034392484959,0.872761825567736,0.851716003503873,0.862952316829618
0.961248247404346,1.06482335495329,1.06815862427596,1.07244812596615,1.04218532802477,1.1205141735073,1.06833129489485,1.07752827733229,1.09170544393546,1.11689717843802,1.07104858516046,1.10222017583282,1.1150068895576,1.13123792773277,1.15279449131144,1.15476657153765,1.17295151408441,1.17040689443769,1.08047276578064,1.23138688668595,1.29051294176303,0.880520189112049,0.951796803002231,0.951687747874514,1.33455303750596,0.878784394995892,0.879485074191472,0.901870456740789,0.840251583202653,0.819158503916779,0.819717411446327,0.822897277212,0.815451538367142,0.816395774014622,0.823648848800514,0.824211391500987,0.824024180198406,0.823786985295622,0.824670331830128,0.824260466308459,0.82009365163695,0.819553828754752,0.819790114864805,0.822301109180482,0.946153200142891,1.01769336392505,0.867869794296911,0.849215005908236,0.951651396165275,0.945753331341263,0.946098672579033,0.963020393229743,0.963420262031371,0.872689122149258,0.872432842599124,0.912518781169595,0.917117272388316,1.01686636253987,1.01480340304056,1.01454894107589,1.01501242536869,1.03232492689371,1.01473978754939,1.05507200894996,1.03654172516543,1.05760754066937,1.14940469442491,1.16384541092007,1.123322343046,1.14375200363827,1.12041420630689,1.10527371940888,1.1938719227514,1.16110994479984,1.18327539950826,1.14793245020074,1.14661470074083,1.15246732592829,1.20490466650541,1.17118845618633,1.19032763110061,1.27770805218363,1.27934387909938,1.28162494885412,1.25954128549148,1.26115893655262,1.31602275372143,1.26752048566942,1.26765680457907,1.28664148472909,1.29005854539755,1.29303029762783,1.29812862484858,1.33470753227023,1.32962738090409,1.34599473798891,1.3513111754651,1.50373389230382,1.40483906731939,1.40729280769301,1.40609320128813,1.44118168863098,1.3844821101456,1.43593795457327,1.38515461676652,1.38936232711092,1.38948047016595,1.39484234727869,1.39381541149269,1.42666826871735,1.42704087373705,1.42623204820648,1.41278191578809,1.46831823957782,1.40067679661153,1.3913980228283,1.39785045121821,1.38492741858378,1.38464569283717,1.38570898033241,1.38646327829912,1.39275212399745,1.35930855149766,1.35849063803978,1.34448614205549,1.34370458030686,1.35639132683124,1.41676242794975,1.33021809617922,1.32951832577638,1.38228283173665,1.31932167133486,1.33173578003995,1.36018099251939,1.36814201684271,1.31353266163857,1.28752301367813,1.28062527685005,1.23467671637207,1.21505588131038,1.20488649065079,1.18598360184656,1.16988888258104,1.17064318054774,1.13155600518861,1.15897428188206,1.10843631811267,1.06592299415777,1.03370629184479,0.981868754470115,0.964147296216149,0.972262815303734,1.0006353243647,0.914127344303416,0.9309309218991,0.901724141111102,0.916926425914812,0.889983447819667,0.893903979661083,0.901784121431346,0.940582300702029,0.850029284195187,0.867478104629861,0.841608410749995,0.83602569700363,0.828993458851364,0.85333001939408,0.832483222938299,0.830127632179618,0.878683519002754,0.840648725626088,0.863490322126354
0.910610316434552,0.830931004953798,0.829720493036143,0.938310318874597,0.9412093676864,0.944926329956078,1.07075777148655,1.07509271281328,1.05486298662183,1.12670305200522,1.07860974068215,1.07814625638935,1.17804984130517,1.17806801715979,1.19600758566919,1.13586368273342,1.16201873753081,1.18403878540228,1.20906693721327,1.21398350588783,0.851625124230775,0.956677019967554,0.973789587091768,1.02038339040873,0.9038807062617,0.878486310980133,0.87836271516872,0.903239098593634,0.968618556452534,0.81978557090115,0.819398425197756,0.81217988453564,0.812023572185913,0.812989618858937,0.823257159133465,0.82354161125826,0.824077798969534,0.824115059471504,0.824701230782981,0.819033999312636,0.818909494708492,0.819735587300946,0.821327792165611,0.823643396044129,1.01075927538773,1.00678785115338,0.849371318257963,1.06684996274336,0.860990233323448,0.949488469465561,0.949234007500888,0.963211239703247,0.963474789595229,0.969309238928073,0.966864586481757,0.908122041937149,0.928658940071668,0.94751638923935,0.98235950254484,1.09752171741369,1.00459766067174,1.01638470239245,1.0220373931791,1.01967453207857,1.0713666626163,1.07462922852049,1.04732909488207,1.06733162289078,1.17024331174612,1.1297656835086,1.12063231656232,1.12809350488361,1.15904698530053,1.19201798558022,1.14370656400172,1.1493956064976,1.15829268733383,1.15729301532976,1.1845204455497,1.1657447877278,1.18136693477322,1.22692471437688,1.2454459102341,1.24171986003711,1.25218915229792,1.25279804342767,1.30661674895587,1.29371189217606,1.25143485433121,1.25206192131558,1.32343850240617,1.32312951287764,1.3026271488669,1.34863932483604,1.30957941325884,1.32920024832054,1.39375179600152,1.34457702132859,1.3757031723644,1.40602049786965,1.44003660978995,1.40663847692671,1.44152702986875,1.43753742977978,1.3785931332489,1.38761744506745,1.38781737946827,1.44713428101885,1.39947719020665,1.49292834673256,1.43250271805019,1.46006640158059,1.41591725070994,1.40169464447022,1.40090399479427,1.3951331609526,1.39599651404702,1.39798677012785,1.38643601451719,1.38778102775903,1.38704490564694,1.38642692658988,1.35873601207715,1.35847246218516,1.35366494863832,1.34992981051402,1.35280159554389,1.35858151731288,1.38458207734601,1.38618155255252,1.32427459171866,1.31943981438989,1.36268926045688,1.29960995700007,1.29078557958232,1.27017416044386,1.29662002891517,1.27437278286096,1.23862996475181,1.21150250173227,1.167335175007,1.158737995772,1.14167995621165,1.14116194435499,1.12798444975589,1.12082316303583,1.09134192684307,1.07818260809859,1.00392515405082,0.977742835471499,0.972853530578866,0.958712715684933,0.936501821339962,0.906647980127512,0.894227509873309,0.915635940236831,0.891897365311095,0.913654772083311,0.907967547172884,0.9068706343466,0.880374782275094,0.859776086234869,0.838391284482352,0.851706915576563,0.828707189141108,0.83415631035602,0.834410772320692,0.822201141980075,0.828684469322834,0.819072168607337,0.875471845491497,0.847080251783181
0.834774289413081,0.829688685290559,0.829665965472284,0.836972659029304,0.863274029456382,0.863832028193199,0.961702643769832,0.888623893894132,0.888786567792976,1.15662050870884,1.12702112946106,0.972026529193681,1.04041318219937,1.04838329445,1.13522752782174,1.13669068411861,1.14366112436517,1.19350840565902,0.94884322662657,0.866503878822259,0.993119608479555,1.00602446525937,0.913827442702196,0.928958841672889,0.877342140931838,0.880374782275094,0.882773995084861,0.91866222003097,0.907230516268065,1.16780774722711,0.82964324565401,0.991329286799539,0.814603634749144,0.817778956551163,0.81917849735686,0.824481302942086,0.823350764784756,0.823637034495012,0.823947841609005,0.820986994891496,0.818382394924528,0.820681640533889,0.887607863620905,0.869287510957228,0.82612076502876,1.0146489082763,0.831948852812487,0.859560702357628,0.870740670534053,0.909065368791899,0.984804154991156,0.987248807437472,0.995400678234297,0.917835218645785,0.891458418422036,0.899959265627553,0.928849786545173,0.947670884003615,0.97706124092327,0.992374398440158,1.00111698451211,0.985649332230961,0.995482469580084,1.06185160272301,1.08466230027043,1.08406249706798,1.07442929411967,1.06795868987515,1.07265714829428,1.10784560283754,1.11174432365341,1.17226083160888,1.17214268855385,1.14847772583932,1.1369633219379,1.16422710386708,1.16441795034058,1.15592073830599,1.24131999123548,1.16788045064559,1.17865873243492,1.2406838363238,1.20831263924656,1.26145883815384,1.30271802813999,1.26093173836987,1.23321356007521,1.25099863382034,1.25097137003841,1.25190742655132,1.32308407324109,1.32272964407601,1.28722311207691,1.28966776452323,1.28972229208709,1.32830963144418,1.32520156030426,1.34453158169204,1.3503751189522,1.40221265632687,1.39752328583506,1.3918615071211,1.41835281522895,1.35753640567226,1.35781813141886,1.37445812632297,1.44672532428991,1.44851564596993,1.41256380553265,1.48472194837188,1.43296620234299,1.45934845532312,1.40586600310538,1.41048267017873,1.37633932727608,1.3997134763167,1.37389467482977,1.37833867128422,1.40303056978475,1.37549415003628,1.38715396077466,1.38692676259192,1.4164352625666,1.36176229187128,1.35371038827487,1.35306514543588,1.4394277186602,1.43784641930831,1.40632039947087,1.40605684957889,1.3249652741942,1.3081435207439,1.28951326975896,1.28922245608505,1.27158278917687,1.2584325583597,1.26080450738754,1.25622419202343,1.18797385792739,1.17980381127595,1.17642310231673,1.16799859370061,1.14240699039643,1.14090748239032,1.12018700812415,1.1644361261952,1.06150626148524,0.991038473125628,0.982568524872963,0.965710419713422,0.953887026283468,0.948361566479154,0.948325214769916,0.915036137034389,0.896718510748905,0.908182931050125,0.910928393890393,0.868201503643716,0.901223396316336,0.858296571668845,0.858940905715105,0.856014593121373,0.841955569573227,0.839830812168213,0.829328803369093,0.828169183844372,0.826669675838268,0.838666648679837,0.844352056004802,0.831087317303525,0.848063565518094,0.855921896262814
0.832963974292984,0.826836893700767,0.846850327222245,0.806235471282348,0.862714213134103,0.862614245933696,0.861987178949325,0.859227175425361,1.15483018702882,0.902708363638746,0.840383358148644,1.16622644787522,0.856269055086045,1.15473021982841,1.18893717822222,0.941809170888842,0.901303370076662,0.938510253275411,0.953859762501539,0.815872309401582,0.815985908492954,1.27444548627944,0.914245487358443,0.901973150319389,0.98433158277105,0.900006522849564,0.9315852526654,0.907357747250401,1.02298253761932,1.02146485375859,0.846053315997182,0.816282174923251,0.816089510864284,0.816593890829974,0.821619514632253,0.823053589561728,0.821805817142102,0.821691309258,0.824118694642427,0.870850634454501,0.859399846044246,1.17573241984119,0.827944712039822,0.828945292836623,0.828785345315972,0.827865647072227,0.827971975821751,0.83515598236009,0.851676925416441,0.884381649425952,0.969372854419241,1.02006531295289,0.962720491628522,0.919798210944686,0.929567732802641,0.898814186786528,0.900458192836857,0.915772259146477,0.951069768817453,0.973480597563237,0.983586372731653,0.970354350568692,0.991292935090301,1.07023067170258,1.07965485232277,1.07755554111422,1.07880058715565,1.08256298906188,1.05458126087523,1.06611384063128,1.10040259037087,1.17581421118698,1.14265236443379,1.14218888014099,1.12099583365471,1.10253825328866,1.12218635213229,1.16829849530184,1.14997723384543,1.19239967852723,1.17029783930997,1.18063990058844,1.18402060954766,1.19075476368417,1.23813921667708,1.23050535773691,1.27751720571012,1.27703554556271,1.25418849630606,1.25283439513691,1.26568472435286,1.27613584075904,1.28484207512176,1.28474210792136,1.31774037198297,1.31494129037157,1.33840631868529,1.338133680866,1.37134096725574,1.36314365682236,1.35646403024971,1.38024713601927,1.38061974103897,1.36620628832574,1.37849316604849,1.3686872924813,1.35701839381561,1.47797870630806,1.48919320860826,1.48732109558246,1.41529018372557,1.41628076780233,1.40413929691654,1.40305783356668,1.36925983190181,1.44295383445638,1.38449119807291,1.38480927552875,1.46844547056016,1.3778479232095,1.39435159920396,1.35402846573071,1.35195641830409,1.33663417285989,1.35949031004385,1.35927219978842,1.35840884669399,1.42764067693949,1.40922853620998,1.3599083547001,1.31345995822009,1.28429679948318,1.27202809761505,1.26236763088481,1.25985027502002,1.24455529335775,1.24405545735571,1.20873068390281,1.30345415025208,1.16409987288474,1.1639635539751,1.15626607954376,1.13500941756631,1.13008376096444,1.11166253230762,1.09054218923982,1.06457798091593,1.06192430614149,0.990120592467346,0.991401990218017,0.955704611745413,0.930567404806711,0.947589092657828,0.911728131493649,0.881356278424544,0.881396265304707,0.872766369531391,0.883331993821679,0.890984028616468,0.856864314324832,0.900037421802417,0.842778026994757,0.838741169683777,0.838191350081538,0.834255368763696,0.829042533658837,0.82948420692609,0.841345769650744,0.837999594815303,0.830357556740554,0.852773838242725,0.852075885425338
0.866423905061933,0.827481227747026,0.853642644093535,0.805741088036699,0.806365428642878,0.813069592619262,0.829349705601906,0.835553124783525,0.835174158214709,0.83641738667068,0.841596596444493,0.830197609219903,0.847589175712526,0.845540756896914,1.18880085931258,0.881915185954092,0.89911499718048,0.806404506730309,0.917780691081926,0.815865947852465,0.816812909878139,0.970436141914479,0.976079744773819,0.895627050679007,1.27668111639763,1.18279373936085,0.890792273350233,0.89663853698858,0.889725350684071,0.862696037279484,1.12111397670974,0.85405887116432,0.816796551608981,0.818494176430438,0.818715921856795,0.821505915540881,0.821593159643055,0.821668589439725,0.826168931043502,0.826576978979708,0.825058386326253,0.825613658684877,0.82905434796434,0.827614820278479,0.829148862408361,0.827679344562378,0.827832021741182,0.834768836656695,0.835879381373944,0.876099821268599,0.891110350806073,0.981214423703814,1.00258014080898,0.912755067279648,0.924142240198735,0.89757368470875,0.90025553205785,0.934738763441875,0.919807298871995,0.966537421098607,0.96676461928135,0.950079184740693,0.979905762171214,1.02364595631293,1.07650134154629,1.14229793526871,1.14744170212601,1.06042479813539,1.05091882616941,1.05574451557088,1.09203260931861,1.16397264190241,1.12666670029598,1.11676085952838,1.09073303571332,1.09498618569427,1.10909973680628,1.13349173370558,1.1346277246193,1.14775977958185,1.16579931529166,1.17728645541115,1.19852494153398,1.17853150145259,1.18204852932145,1.20411401682947,1.20512277676085,1.21064823656516,1.24035667094065,1.2432011921886,1.26772042007024,1.26858377316466,1.28592353847162,1.28456943730247,1.31904903351557,1.32255697345713,1.32400195389937,1.33165398869416,1.33102692170979,1.3622439520187,1.35331960740055,1.34505868147601,1.33706130544345,1.3520563855045,1.35077498775383,1.36266199667495,1.3658882108699,1.35317420056359,1.41937066308764,1.41799838606387,1.39645999833982,1.39964077289822,1.37453991766876,1.36875999589977,1.41651705391238,1.36636078309001,1.43012168109504,1.37160451714772,1.37602124982024,1.38165576475227,1.35865422073136,1.35255622150653,1.34285940306705,1.33779742755554,1.33410772906779,1.39716885666998,1.39652361383099,1.33951504581707,1.35908135331491,1.34297754612208,1.34145077433405,1.3439317784896,1.28516924050491,1.27493623435416,1.24693633031289,1.24284676302352,1.21840023856036,1.18769213218079,1.17871325999878,1.16766234039015,1.15133133501458,1.16847116592072,1.14268871614303,1.11337106264185,1.08567106020181,1.06760426071007,1.09218710408288,1.09813969647075,0.969809074930108,0.972508189341097,0.975916162082244,0.932148704158603,0.92296080964847,0.911101064509278,0.882092400536632,0.882491360545529,0.864943481703179,0.925850770532963,0.900244626545079,0.857418677890726,0.85755317921491,0.844065786294545,0.838301314001986,0.838197711630655,0.83326841985786,0.873331638610056,0.828086483705854,0.874926569852913,0.839679043782141,0.841004063583898,0.86978462058107,0.87311080197643
0.857399593243375,0.856577135821845,0.853004671596392,0.803437298463684,0.944699131773335,0.82152318260277,0.828763534290428,0.828701736384722,0.832845831237957,0.834366241476875,0.838097744430248,0.825190161272244,0.824992044456892,1.25001713767089,0.881348099289965,0.88165163606211,0.798383502086745,0.806278184540704,0.806472666185132,0.825880843747783,0.943108744494133,0.938264879238049,0.950788043070852,0.891241216959333,0.890590521363957,0.889101010077893,0.888914707568043,0.89420933401869,0.999962817743779,1.01946550975045,0.982177743998645,1.08257207698919,0.848962361529026,0.818197910000141,0.820062752684097,0.820777972563372,0.820796148417992,0.820908838716632,0.82246741825025,0.826945948828483,0.823455275948817,0.825501877178968,0.826679672558308,0.828009236323721,0.828044679240229,0.825774514998259,0.825462799091536,0.822427431370087,0.845329916983328,0.844876429410573,1.10597348981173,0.989275415227541,0.981387094322699,0.922660908047249,0.951742275438373,0.894493786143484,0.903417221968904,0.937801394945253,0.929304182910659,0.929122424364464,0.954132400320831,0.946216815634059,0.957176855969589,1.02330061507516,1.03963162045073,1.02883516280678,1.02738109443722,1.04204900911512,1.05487207454914,1.0781916960259,1.07748283769574,1.07742831013188,1.10910882473359,1.09227798335598,1.10178395532195,1.09702188141165,1.14891394635019,1.13190134642638,1.13298280977624,1.14040764638829,1.14868674816745,1.14583313899219,1.14532421506285,1.16081004319862,1.18157595710134,1.19216339241718,1.21346549403117,1.23689417063565,1.2247981393864,1.26019561625779,1.25596973005876,1.28729581549539,1.28267914842205,1.36276196387535,1.30183649919095,1.30653495761008,1.32507432932192,1.36613358490726,1.39997702620868,1.36247115020144,1.34201422582725,1.35013883284214,1.33690681067918,1.33644332638639,1.34484057122057,1.34889378680071,1.35978112371776,1.36198040212672,1.35218361648683,1.37394011446632,1.38372781217889,1.37221340827747,1.39490596276985,1.36797843415114,1.35471006027894,1.35258348528846,1.42724989606517,1.35257439736115,1.35098401008195,1.3518746269583,1.3494390624393,1.36519752839436,1.31684066717931,1.31443236644223,1.36585185916066,1.338515373813,1.3394423423986,1.34194152240877,1.43087597906175,1.36736954302138,1.36367984453364,1.34969352440397,1.3342167841955,1.28506927330451,1.23144141424981,1.22093577027977,1.21700978568197,1.21738239070167,1.17253346942817,1.16726247158853,1.16457244510485,1.14747805383525,1.13408244898072,1.08806118508426,1.07346597382484,1.04929208718097,1.04098572161988,1.01394004994614,1.00218027200735,0.970463405696408,0.967255367356075,0.926077968715706,0.900850791296637,0.895645226533626,0.892730728245397,0.914563564814283,0.872932678601159,0.867324518658327,0.862758743977921,0.868297835673199,0.87501744912601,0.897086571804949,0.847232928961985,0.841697472437631,0.845396258852689,0.848077197409058,0.875186484573971,0.840317016279283,0.874673925473703,0.845278115797663,0.86707460065731,0.868666805521974
0.85422699781955,0.867583524586654,0.867384498978571,0.904417802765705,0.906834282637361,0.81685107917284,0.829929515364266,0.829048895207954,0.826012618693774,0.82622345860736,0.826762372696827,0.824921158623876,0.838397646031469,0.834859715929793,0.832575011004127,0.798326248144694,0.797889118841096,0.809734323296593,0.822890915662883,0.828147372818829,0.92362422834208,0.92396956957985,0.91036494239719,0.915808610855716,0.889008313219333,0.889499061294059,0.888333989012952,0.886129257847612,0.891553841658788,0.890554169654718,0.861101106036627,0.916826458714405,0.870699774861159,0.929958513676959,0.820694363632123,0.8193557119394,0.81918758528417,0.820681640533889,0.822441063261052,0.8197664862538,0.821746745614589,0.826281621342142,0.826361595102468,0.826713297889354,0.827318553848182,0.826303432367686,0.823274426195354,0.822402893966351,1.04148555762192,0.867618058710431,1.00766029217512,0.906812471611818,0.910001425304801,0.911619076365932,0.933039321034956,0.986539949107314,0.904757691247089,0.936410942066865,0.936928953923519,0.890524179494596,0.913782003065647,0.935411270062795,0.946353134543705,1.03230675103909,1.03828660720889,1.03964070837804,1.02971669175582,1.03867738808321,1.03906816895753,1.08242667015223,1.05169129999074,1.04911032863478,1.05472666771219,1.0783734545721,1.07920045595728,1.09908484091096,1.09437729456452,1.12345866195565,1.10259278085252,1.13142877420628,1.13457319705544,1.12191371431299,1.13050180562068,1.1890098816407,1.18950971764274,1.19008225706325,1.19096378601229,1.20019712015897,1.23404056146039,1.22341677443532,1.26612094486373,1.29632921524126,1.28535099905111,1.30010070507479,1.36945976630262,1.30751645375953,1.30344506232477,1.30499909789473,1.29003128161562,1.33606163343938,1.3132781996739,1.34323200808675,1.33064522876278,1.33180848345843,1.3187945715509,1.31213312083287,1.33168125247609,1.33350792586535,1.3287912915916,1.40745639038459,1.37814782481072,1.3703776469609,1.42610481722414,1.34726704781227,1.32564686874243,1.3529015627443,1.43280261965141,1.34813040090669,1.35459191722391,1.35405572951264,1.36499759399355,1.30703479361211,1.28136139896214,1.30372678807137,1.29439348672428,1.27577232366666,1.29103095361969,1.34157800531638,1.35987200299086,1.35628227170352,1.352247231978,1.38164667682496,1.30644407833698,1.26184961902816,1.25611513689572,1.19549866173985,1.2035869170455,1.17429652732625,1.15620246405259,1.15258546898332,1.19739803854758,1.18492940227863,1.1042558715502,1.09012414458357,1.06347834171145,1.02749014956494,1.02304615311048,0.999308486977479,0.989457173773736,0.982241359489813,0.957013273278014,0.920416190001747,0.907541323382058,0.946962025673457,0.890629599451389,0.890933136223533,0.871622199483097,0.848069018274479,0.878647167293515,0.900163743992022,0.899641188171713,0.898263458391559,0.850597279652045,0.84112675060258,0.847016636292013,0.848758791957288,0.845038194516686,0.845881554171029,0.846003332396979,0.845549844824223,0.842748945627366,0.866659282379255
0.847679146192892,0.791470315782236,0.782458727061912,0.782301505919454,0.812531587322527,0.811527371354802,0.813086859681151,0.823344403235639,0.822246581616624,0.826729656158512,0.828546332827726,0.820588034882599,0.819090344461956,0.815526968163812,1.15176755552544,0.811536459282112,0.815640567255184,0.810847594392034,0.826451565582834,0.826968668646757,0.89912408510779,1.29308482519168,0.915117928380177,0.915581412672973,0.889505422843176,0.890223369100644,0.886772683101141,0.886211957986131,0.887477906260376,0.886777227064796,1.0232460875113,1.14888668256826,0.847805468382498,0.86410375721976,0.819570187023909,0.819273011800881,0.818921309013995,0.817313654672905,0.818591417252652,0.819474763787157,0.819415692259644,0.825362831891129,0.82512109302469,0.826094410039562,0.827788399690095,0.822213865078309,0.82181308748395,0.823798799601125,0.824956601540384,1.00594267391358,0.911473669528976,0.974571148840405,0.912391550187259,0.932612188451399,0.930621932370569,0.927750147340696,0.893782201435133,0.893176945476305,0.860314091531604,0.900457284044126,0.913227639499753,0.912591484588073,0.943835778678911,0.983086536729618,1.03187961845554,1.0330610490058,1.00429775907052,1.00435228663438,1.00218935993466,1.01450350143934,1.03214316834752,1.04116748016608,1.03824116757235,1.04865593226929,1.04919211998057,1.06737706252733,1.09318677608695,1.07936403864886,1.08909720879757,1.08918808807067,1.12703021738837,1.10224743961475,1.09873949967319,1.1343459988727,1.18642891028474,1.14501522553432,1.19192710630712,1.18582001915499,1.20918508026829,1.20823084790077,1.26285837895953,1.28500565781334,1.30828892758086,1.30014614471134,1.29990985860129,1.29999164994708,1.29716530455375,1.35236537503303,1.31932167133486,1.31063361282676,1.36359805318785,1.33687954689725,1.3291638966113,1.30972482009579,1.31607728128529,1.31205132948708,1.3031906003601,1.31311461698232,1.31714965670784,1.33747026217239,1.30334509512436,1.29494785029018,1.32116652057874,1.33343522244687,1.32882764330084,1.32801881777027,1.32749171798631,1.33960592509017,1.34404992154463,1.34410444910849,1.35625500792159,1.286932298403,1.30385401905371,1.26999240189767,1.25566982845754,1.28109784907016,1.28868626837378,1.32155730145306,1.36020825630132,1.35939034284345,1.35192915452216,1.31419608033218,1.30133666318892,1.24263774069539,1.21830027135995,1.20238731064062,1.18256654117811,1.16753510940782,1.1637817954289,1.15343973415043,1.19429905533496,1.10821820785724,1.06479609117136,1.07194828996412,1.02798998556697,1.02131944692164,1.0085781728334,0.984458813753386,0.985985585541421,0.966155728151598,0.954586796686317,0.898618796349369,0.899314931581294,0.900211910006764,0.903302714084802,0.846896675651525,0.847690960498395,0.843784060547944,0.84460288279855,0.90061995794297,0.900921677129653,0.860354987204498,0.907266867977304,0.837915077091323,0.838174991812381,0.856373566250107,0.857036076150986,0.84698573733916,0.850914448315155,0.842199126025127,0.842949788820911,0.843706813165811
0.799464056643872,0.845954257589506,0.792128281719461,0.783113057828212,0.781769862171835,0.784468976582824,0.882105123634866,0.821755833541899,0.822491046861256,0.824922976209338,0.824248652002956,0.815324307384806,0.814322817795274,0.812670632610365,0.812215327452148,0.812220780208534,0.811471934998213,0.82032721136881,0.825863576685895,1.26638449475571,0.869932753796218,0.858530131400705,0.875360972778318,0.882354132843152,0.883091163747971,0.888848365698682,0.88691172838898,0.885487650179546,0.887615133962753,0.885608519612765,0.870141776124342,0.872268351114818,0.866420269891009,0.885247728898569,0.825515509069932,0.818245167222151,0.815285229297374,0.816540272058847,0.816798369194443,0.81750540993914,0.817484507706327,0.824537648091406,0.824046900016681,0.824549462396908,0.826564255881475,0.82397147022001,0.82273823848408,0.8229999707906,0.824160499108052,0.828263698288394,0.827900181196004,0.987085224745897,0.933811794856283,0.936101952538334,0.90699241257255,0.892510800404502,0.893685869405649,0.861994449291173,0.862199836448373,0.862483379780436,0.916372062348919,0.91500887325246,0.957676691971624,0.953750707373822,0.983377350403529,0.985522101248624,0.986031025177969,0.980005729371621,1.02272807565464,1.02441843013425,1.02367322009485,1.05285455468639,1.05135504668028,1.05191849817348,1.04878316325163,1.0420308332605,1.12709383287954,1.07027611133913,1.08505308114474,1.09261423666644,1.11207148903656,1.08394435401296,1.09390472234442,1.10506469708076,1.12746643789924,1.13726322353912,1.14307949701735,1.21285660290142,1.21341096646732,1.22401657763777,1.25109860102075,1.26960162102335,1.26939259869523,1.30299066595929,1.29937367089001,1.30359955708904,1.31527754368203,1.3311268889102,1.2782442398949,1.34386816299843,1.37073207612598,1.37020497634202,1.33139952672949,1.35221088026876,1.31915808864329,1.30214548871948,1.30812534488928,1.30672580408358,1.29725618382685,1.284878426831,1.31798574602033,1.33464391677906,1.28985861099673,1.28669601229295,1.3335624534292,1.33403502564931,1.33587078696587,1.38361875705118,1.34464063681976,1.34436799900047,1.33726123984426,1.30266350057614,1.26509400907773,1.24627291161928,1.2465637252932,1.28446947010206,1.20536815079821,1.23933882308196,1.29986441896474,1.25660588497044,1.23746671005616,1.26785673897988,1.2404021105772,1.20230551929483,1.17831339119715,1.18934613495116,1.16370909201042,1.15876525955393,1.15221286396362,1.13300098563086,1.12897503383265,1.12035967874303,1.07070324392269,1.05147318973531,1.02938043844536,1.02679037916209,0.964547165017777,0.964329054762343,0.958576396775287,0.954041521047733,0.953314486862955,0.91101018523618,0.889274589489509,0.900662671201326,0.931630692301949,0.85381622350515,0.845678893392022,0.844432938557858,0.8444811045726,0.859519806684734,0.867778006231082,0.859161742348731,0.906509843632404,0.835446796034001,0.837974148618836,0.867014620337065,0.856326309028097,0.856219071485842,0.857486837345549,0.844230277778851,0.842084618141025,0.880651055265309
0.829329712161824,0.853634464958956,0.829800466796468,0.829333347332748,0.76958113406403,0.768536022423412,0.800580054117506,0.838666648679837,0.822634636112749,0.822357454329802,0.821537723286465,0.815965006260141,0.814763582269796,0.811781833319474,0.811625520969747,0.810372295793736,0.808270258206996,0.818976745370585,1.23265010858201,1.24042028643182,0.854274255041561,0.876124358672335,0.865008914779809,0.881986980579839,0.880527459453897,0.888563913573888,0.88666908072981,0.88650095407458,1.09255970910258,0.888082253426473,0.878163689560637,1.03870465186514,0.865226116242511,0.831534443327164,0.826656952740034,0.81568328051354,0.815426092170675,0.81276787343258,0.812172614193792,0.813846610404244,0.818252437563999,0.818574150190764,0.824843911241744,0.823220807424226,0.820780698941565,0.821153303961264,0.823063586281768,0.822827300171715,0.823304416355476,0.8277093347225,0.979251431404913,1.03250668543991,0.936765371231944,0.936383678284936,0.948715995644234,0.875807190009225,0.876177977443462,0.85738505255968,0.862256181597693,0.859473458255455,0.959694211834383,0.928695291780907,0.979933025953143,0.989593492683382,0.94819798378758,0.979769443261568,0.980451037809797,0.964710747709352,0.957104152551111,0.975925250009554,0.977288439106013,1.01529415111529,1.041839986787,1.04248522962599,1.03863194844666,1.06833129489485,1.14279777127074,1.08039097443485,1.13859006092634,1.0919235541909,1.10583717090209,1.10823638371186,1.072120960583,1.11477969137486,1.12076863547197,1.13813566456085,1.13910807278299,1.18305728925283,1.19960640488384,1.2041503685387,1.21425614370712,1.23763938067504,1.2399295383571,1.25891421850711,1.32540149470507,1.2962746876774,1.27405470540512,1.26723875992282,1.27090119462864,1.27445457420675,1.27214624067007,1.31605001750336,1.2979559542297,1.32127557570645,1.3379519223198,1.33903338566966,1.29526592774602,1.31477770768,1.27138285477606,1.26931080734944,1.26748413396019,1.31802209772957,1.27489988264492,1.27547242206543,1.28576904370735,1.37171357227543,1.33980585949099,1.3322537918966,1.32246609418403,1.32375657986201,1.330945130364,1.29367554046682,1.29236687893422,1.23564912459422,1.23296818603785,1.21847294197883,1.22083580307936,1.29830129546747,1.22397113800122,1.22139925457256,1.21521037607464,1.23723951187342,1.20119679216304,1.22294420221522,1.18123970379089,1.164899610488,1.15850170966195,1.13676338753709,1.12753914131771,1.10935419877095,1.10916335229745,1.09620396795378,1.0548266349126,1.02420031987882,1.00472489165408,0.985549365030553,0.947888994259049,0.94885231455388,0.97072695558839,0.954123312393521,0.953396278208743,0.886241948146253,0.88720163327016,0.942281743108948,0.944044801007035,0.853456341583685,0.855964609521169,0.838543052868425,0.838932016157281,0.877047692087003,0.862058064782341,0.882185097395191,0.881548033690779,0.865773209466557,0.85899270690077,0.869156644803968,0.900676303092291,0.901612359605193,0.860598543656399,0.848186252536775,0.842251836003524,0.842487213320846
0.854011613942309,0.853888926923628,0.785256899880577,0.773070898150965,0.772676482105723,0.800036596064384,0.804063456655324,0.83423083135996,0.824650338390046,0.823459819912472,0.818097034007003,0.818357857520792,0.812233503306768,0.810798519584562,0.810733086507932,0.809887000475396,0.809887909268127,0.809857010315274,1.22678839546723,1.22627038361058,1.26175873975506,0.857704038808251,0.855510213155683,0.875436402574989,0.880472023097308,0.871609476384863,0.871051477648046,0.888642069748751,0.888670242323412,0.872656405610943,0.871991169331871,1.03687797847589,1.04915576827133,0.830145808034238,0.833178449377493,0.815906843525359,0.815210708293434,0.812595202813695,0.811313805063023,0.812543401628029,0.81331951062028,0.818511443492326,0.819452043968883,0.819740131264601,0.819906440334369,0.819890990857943,0.823892405252415,0.822823665000791,0.821745836821858,0.822307470729599,0.902135824218233,1.03836839855468,0.851976827017662,0.885602158063648,0.932866650416071,0.864685384567583,0.858304750803424,0.85791760510003,0.861254692008161,0.862196201277449,0.924233119471832,0.912037121022179,0.912473341533046,0.941700115761125,0.922697259756488,0.960503037364948,0.95881268288534,0.961884402316027,0.933002969325717,0.986694443871579,0.981387094322699,0.983868098478254,1.02420031987882,1.05350888545269,1.03677801127548,1.04180363507776,1.10371968383892,1.0897788033458,1.08255390113457,1.1407984272626,1.14884124293171,1.1327556115935,1.07723746365838,1.10381965103933,1.10366515627506,1.12768454815467,1.17423291183509,1.17715922442882,1.15870164406276,1.19319941613048,1.19898842582678,1.22360762090883,1.21835479892381,1.26110440898876,1.26106805727952,1.28557819723385,1.29631103938664,1.23929338344542,1.29175798780446,1.29304847348245,1.31723144805363,1.31021556817052,1.31226943974252,1.33478023568871,1.33408955321317,1.3347711477614,1.29559309312917,1.29412084890499,1.34066921258541,1.27393656235009,1.33230831946046,1.26445785416605,1.25293436233731,1.253570517249,1.26959253309604,1.31897633009709,1.31475044389807,1.38682679539151,1.3259013307071,1.32607400132599,1.34820310432517,1.31503216964467,1.26620273620951,1.23857543718795,1.30178197162709,1.30016432056596,1.20628603145649,1.19669826814473,1.18369344416451,1.21245673409979,1.21167517235116,1.21488321069149,1.18369344416451,1.16744423013472,1.15878343540855,1.15402136149826,1.13573645175109,1.11000852953725,1.11372549180693,1.11056289310315,1.11141715827026,1.09121469586074,1.02779005116616,1.00780569901207,0.991810946946955,0.985867442486394,0.939146408187092,0.943499525368451,0.979833058752736,0.95449591741322,0.887875957476542,0.888403966053237,0.891119438733383,0.91368203586524,0.849470376665639,0.848641557694992,0.850085629344508,0.839785372531664,0.838316763478412,0.838277685390981,0.898333435431844,0.853360918346933,0.853818949883343,0.832937619303786,0.850926262620657,0.851371571058834,0.853172798251622,0.907185985424248,0.991401990218017,0.841270339854073,0.842044631260862,0.842493574869962
0.787916936204134,0.788800282738639,0.788411319449783,0.782153372704305,0.780396676355335,0.794271214979094,1.06028847922574,0.808274802170651,0.814288283671497,0.816070426216934,0.820894298032937,0.810487712470569,0.811155675127834,0.812425258573003,0.812647912792091,0.812661544683056,0.811794556417708,0.810450451968599,0.810137827269145,1.24341021451672,1.09988457851422,1.24892658639372,0.863459423173501,1.24568219634415,0.894148444905715,0.871758518392743,0.894260226411624,0.892559875211974,0.887278880652293,0.900589058990117,1.07462014059318,1.04233073486172,0.829833183334783,0.828258245532008,0.830631103352577,0.816733844910544,0.812645186413898,0.81117021581153,0.81121747303354,0.811620977006092,0.812495235613288,0.812464336660435,0.814659071105733,0.814709054705937,0.817308201916519,0.969927217985134,0.827938350490705,0.828376388587034,0.823873320605065,0.82455127998237,0.828879859759993,1.06093372206473,0.875497291687964,0.884883303013449,0.892025505086163,0.879266963936038,0.905551976093959,0.906112701208969,0.863517585908283,0.863899278855291,0.882276885461019,0.888280370241824,0.92961317243919,0.919398342143058,0.940255135318879,0.923178919903904,0.926832266682413,0.915954017692671,0.948679643934995,0.935838402646352,1.00264375630015,0.985194935865474,1.03730511105944,1.02665406025244,1.02646321377894,1.03989517034272,1.13943523816615,1.10954504524446,1.12621230393049,1.06830403111292,1.12411299272195,1.09340488634238,1.07365682029835,1.12363133257453,1.10593713810249,1.12851154953985,1.16913458461433,1.13581824309687,1.13561830869606,1.14926837551527,1.15242188629174,1.15889249053627,1.19979725135735,1.21011204885388,1.22712464877769,1.23137779875864,1.24579125147187,1.23289548261937,1.22538885466153,1.21042103838242,1.21030289532739,1.25232547120756,1.26493042638615,1.34180520349913,1.29763787677386,1.29693810637101,1.33279906753519,1.29075831580039,1.26997422604305,1.2695561813868,1.2689927298936,1.25801451370345,1.24640014260162,1.25335240699356,1.25577888358526,1.26613912071835,1.26921992807634,1.33435310310515,1.32005779344695,1.32209348916433,1.32528335165004,1.29687449087984,1.28093426637858,1.29909194514341,1.29893745037915,1.29833764717671,1.18356621318217,1.17439649452666,1.17143383022369,1.18520204009793,1.18711050483297,1.17064318054774,1.15254911727408,1.13488218658397,1.14599672168377,1.1334099423598,1.1203324149611,1.12952030947123,1.12120485598283,1.1613553188372,1.08896997781524,1.05523559164153,1.01798417759897,0.988630172388551,0.971117736462709,0.944908154101459,0.940027937136136,0.939809826880702,0.919861826435854,0.967528005175367,0.894936368203468,0.911500933310906,0.866033124187615,0.86720546681057,0.87104602489166,0.857424130647112,0.851029864991988,0.887524254689655,0.840754145582881,0.841260343134033,0.902155817658314,0.852766567900877,0.853092824491296,0.88512685946535,0.850971702257206,0.849982935765908,0.851439730513657,0.848327115410076,0.849773004645053,0.840073459827382,0.890515091567286,0.890429665050575
0.788374058947813,0.789486421250523,0.788971135772062,0.782759537455864,0.784983353268554,0.787987822037149,1.07141210225285,1.1525672931287,0.814968060634264,0.815088930067484,1.1735876689961,0.812186246084757,0.811681866119067,0.811383782103308,0.8132349928963,0.812587023679116,0.81459000285818,0.811572810991351,0.814121065808998,0.818355131142599,0.818370580619026,0.895524357100407,1.2403112313041,1.23968416431973,0.864875322248356,0.894371099124803,0.893738579384046,0.894661004005983,0.868355998407981,0.901845919337053,0.915790435001096,0.832145152042377,0.83095190718661,0.819910075505293,0.819492939641777,0.817771686209315,0.811872712592572,0.810547692790814,0.811214746655347,0.812252587954118,0.811800009174094,0.812518864224293,0.813882053320752,0.813630317734273,0.815613303473255,0.975261831315944,0.828837146501637,0.828851687185333,0.823110843503779,0.824645794426392,0.826343419247848,0.831983386936264,0.87215838719437,0.835473151023199,0.834946051239235,0.879826780258317,0.834039076093724,0.9103740303245,0.870376244648933,0.870351707245197,0.884163539170519,0.90970152370358,0.923542436996293,0.970208943731736,0.969927217985134,0.920398014147127,0.905167556768757,0.916590172604352,0.922742699393037,1.00804198512213,1.00407964881509,0.999226695631691,0.997045593077357,1.02523634359213,1.02587249850381,1.03075271546913,1.03278841118651,1.05594444997169,1.06834947074947,1.06826767940368,1.10301991343607,1.05150954144455,1.15146765392422,1.06240596628891,1.08701607344365,1.10617342421255,1.11564304446928,1.13682700302825,1.17250620564624,1.13918077620147,1.18715594446952,1.145651380446,1.16413622459398,1.17510535285682,1.20792185837224,1.19699816974595,1.20245092613179,1.20509551297892,1.20253271747757,1.21141162245918,1.21060279692861,1.22215355253927,1.27560874097508,1.28315172064215,1.30283617119502,1.29778328361081,1.33739755875391,1.25923229596295,1.25935043901798,1.30881602736482,1.24910834493992,1.23944787820968,1.23039630260919,1.21835479892381,1.23297727396516,1.22238983864932,1.24831769526397,1.33833361526681,1.34992072258671,1.31807662529343,1.31844923031313,1.33012721690613,1.25933226316336,1.2932847595925,1.20228734344021,1.18398425783842,1.17316962433985,1.16441795034058,1.15263090861987,1.16545397405389,1.15566627634132,1.14549688568173,1.14392467425715,1.12598510574775,1.12319511206366,1.11132627899716,1.11225324758275,1.12041420630689,1.08097260178268,1.09642207820921,1.07964576439546,1.10116597626489,1.01841131018252,1.00159864465953,0.960357630527993,0.948797786990021,0.937719603599465,0.935265863225839,0.9189712095595,0.903612612406063,0.903658960835343,0.907230516268065,0.862730571403261,0.915872226346884,0.861992631705711,0.835926638595955,0.839088328507008,0.848816045899339,0.825371011025708,0.826743288049476,0.828259154324739,0.841525710611477,0.836301061201115,0.854147932851955,0.853802591614186,0.850431879375008,0.847731856171289,0.848606114778484,0.848052660005322,0.83734253767081,0.846903037200642,0.846890314102408
0.846838512916743,0.85114346408336,0.782034320856548,0.781881643677744,0.784432624873585,0.787481624485998,0.79633235689294,0.840595106854961,0.815152545558652,0.808084864489878,0.806800740361013,0.811430130532588,0.809859736693467,0.809397161193402,0.812529769737065,0.81419831319113,0.816193113235615,0.816314891461566,0.814619084225571,0.81752449458649,0.819256653531724,0.820124550589803,1.07630140714548,0.857193297293445,0.96013043234525,0.961393654241302,0.892377207873049,0.892469904731608,0.893559547216044,0.863430341806109,0.838465805486292,0.829117963455508,0.8266442296418,0.820421725812831,0.819829192952237,0.814998959587117,0.809842469631579,0.809975153370301,0.809251754356446,0.808207551508559,0.808168473421127,0.811186574080687,0.812650639170284,0.815075298176519,0.818440557659311,0.965910354114236,1.09851230149045,0.973689619891361,0.968591292670605,0.970108976531329,0.831104584365414,0.831165473478389,0.81724367763262,0.845227223404728,0.845933355356694,0.848696994051581,0.85938530536055,0.910128656287137,0.9065625536108,0.95614992018359,0.982613964509512,0.910937481817702,0.941427477941834,0.975670788044881,0.972280991158354,0.924805658892344,0.908307435654268,0.904653180083027,0.920379838292508,0.929031545091367,0.950951625762426,1.02401856133262,0.979460453733037,1.04982827489225,1.04981009903763,1.01958365280548,1.00867814003381,1.02545445384756,1.01303125721517,1.03032558288557,1.03225222347524,1.12950213361661,1.03525123948745,1.04821971175842,1.07021249584796,1.0705305733038,1.0824902856434,1.10819094407531,1.13988054660432,1.12207729700457,1.12393123417575,1.13773579575923,1.14952283747994,1.15562992463208,1.16591745834669,1.18899170578608,1.17459642892748,1.20910328892251,1.20762195677102,1.21868196430696,1.19977907550273,1.20605883327375,1.2386208768245,1.24520962412405,1.25847799799625,1.28222475205656,1.26258574114024,1.35558250130067,1.32716455260316,1.25529722343784,1.25545171820211,1.23420414415197,1.25636051093308,1.25566982845754,1.2287241239842,1.21165699649654,1.21809124903182,1.34350464590604,1.31609545713991,1.31708604121667,1.31676796376083,1.30434476712843,1.3039358103995,1.29094007434659,1.20200561769361,1.17900407367269,1.15402136149826,1.14581496313757,1.14505157724356,1.14563320459138,1.1367724754644,1.12772089986391,1.12804806524706,1.10086607466367,1.12244990202427,1.09891217029208,1.08675252355166,1.10450124558756,1.06420537589623,1.06150626148524,1.14000777758666,1.05511744858651,1.14550597360904,1.01655737301134,0.986294575069951,0.937165240033572,0.936865338432351,0.946162288070201,0.920434365856366,0.882748548888394,0.872391038133499,0.86042223786659,0.859700656438198,0.845653447195554,0.855559287963156,0.838433088947977,0.839644509658363,0.827418521048589,0.825220151432366,0.824482211734817,0.835809404333659,0.833877310987611,0.845308105957785,0.846921213055261,0.846766718290996,0.847309267551386,0.845694342868448,0.844393860470426,0.843160628734496,1.1103356949204,0.846717643483523,0.846783076560153
0.822835479306294,0.83800595636442,0.857071519067494,0.783106696279096,0.783207572272234,0.786620088977036,0.786124796938656,1.11770600396859,0.812233503306768,0.811817276235982,0.804337912060078,0.804851379953077,0.808450199167729,0.809204497134436,0.809737958467517,0.814703601949551,0.815628752949681,0.816947411202323,0.928858874472482,0.832199679606236,0.933066584816886,1.2430194336424,0.951715011656444,0.841094034064265,0.855790121316823,0.877984657392636,0.868832205799011,0.893644064940025,0.863565751923024,0.862476109438588,0.854097040459021,0.825467343055191,0.824847546412668,0.826778730965984,0.826773278209598,0.811098421185783,0.809683430903658,0.80978794206772,0.807476882152857,0.809246301600061,0.805177636543496,0.806879805328608,0.807427807345385,0.807272403788388,0.813690298054517,0.821786732494752,0.978451693801658,0.837902353993089,0.838338574503956,0.833294774847058,0.831041877666977,0.818537798481525,0.849235908141048,0.84863974010953,0.849030520983849,0.849924773031126,0.850245576865159,0.845552571202416,0.865080709405556,0.845509857944061,0.944699131773335,0.928804346908624,0.929785843058074,0.905093035764818,0.897538241792242,0.903669866348115,0.903029167472779,0.896357720034709,0.897389199784363,0.954196015811999,0.953932465920017,0.948334302697225,0.978969705658312,0.979251431404913,0.991047561052938,0.991910914147362,0.976097920628438,1.02279169114581,1.0287624593883,1.01712991243185,1.02960763662811,1.0235278132579,1.02293709798277,1.05045534187662,1.05884349878349,1.07063054050421,1.06565944426579,1.11889652244616,1.1396715242762,1.10197480179545,1.12000524957795,1.12314058449981,1.12991109034555,1.18777392352658,1.1713520388779,1.16675354765918,1.17216995233578,1.17868599621685,1.18461132482279,1.17868599621685,1.1796674923663,1.19677097156321,1.19220883205372,1.19712540072829,1.21464692458144,1.20815814448229,1.24209246505681,1.23892986635303,1.24934463104997,1.35533712726331,1.23954784541009,1.24112005683467,1.20203288147554,1.18917346433228,1.19963366866577,1.18434777493081,1.19646198203468,1.20184203500203,1.28283364318631,1.33098148207324,1.31585917102986,1.31495037829888,1.31446871815147,1.31895815424247,1.21256578922751,1.17799531374131,1.16778048344518,1.15700220165585,1.15106778512259,1.13299189770355,1.1307017400215,1.12340413439179,1.10598257773904,1.11460702075597,1.0980942568342,1.08011833661556,1.07037607853954,1.05336347861573,1.05756210103282,1.05181853097308,1.03495133788622,1.03340639024357,1.03252486129453,1.00740583021044,0.960466685655709,0.938492077420792,0.944989945447246,0.957113240478421,0.958367374447163,0.926468749590024,0.932357726486727,0.859934216170058,0.860208671574812,0.91632662271237,0.856414461923001,0.857269635882846,0.945889650250909,0.887514257969615,0.823620676225854,0.839750838407887,0.836341956874009,0.835705801962328,0.851824149838858,0.853113726724108,0.860058720774201,0.846993007681008,0.844479286987138,0.846714008312599,0.843320576255148,0.84535990714345,0.848560675141936,0.848509782749001
0.808223000984986,0.803784457286915,0.786760951850336,0.782999458736841,0.784018215388261,0.786842743196124,0.79082870811417,0.798590706829407,0.809047275991978,0.80841384745849,0.795598052366314,0.793727756925973,0.809079992530293,0.809614362656105,1.13307368904934,0.8143382672717,0.815407916316055,0.816186751686498,0.926414222026166,0.811139316858677,0.815489707661843,0.816686587688533,0.815933198514557,0.8851459441127,1.24257412520423,1.27091028255595,0.866265775126744,0.863715702723635,0.862409767569227,0.861857221588796,0.868678619827476,0.949479381538251,0.817078277355583,0.81678564609621,0.809219037818132,0.810707640311465,0.810254152738709,0.80702157699464,0.807118817816854,0.806828912935673,0.804001658749618,0.804855015124001,0.805672019789145,0.804835930476651,0.954441389849361,0.834565267084958,0.837839647294652,0.838547596832079,0.838368564664078,0.830338472093204,0.829725945792528,0.812433437707582,0.812425258573003,0.849494914069375,0.84951763388765,0.852632975369424,0.848846036059461,0.815197076402469,0.857827634619663,0.844993663672868,0.843744982460512,0.932375902341346,0.929713139639597,0.890002532467018,0.894355649648376,0.907904840474447,0.908050247311403,0.914163696012655,0.900090131780813,0.916844634569025,0.90902901708266,0.930013041240818,0.955959073710085,0.963238503485176,0.967055432955261,0.952278463149646,0.956440733857501,0.983259207348502,1.02723568760027,0.992792443096405,1.01705720901337,1.05904343318431,1.03233401482102,1.06413267247775,1.0507188917686,1.0680041295117,1.06404179320466,1.0644598378609,1.15136768672382,1.09607673697144,1.15416676833521,1.12490364239789,1.12489455447058,1.16650817362182,1.140516701516,1.15935597482906,1.17324232775833,1.17548704580383,1.18393881820187,1.18273921179699,1.18908258505918,1.18416601638462,1.18382067514685,1.17055230127465,1.19617116836076,1.20222372794904,1.25181654727822,1.24315575255205,1.23756667725657,1.23051444566422,1.22369850018193,1.21472871592723,1.22223534388506,1.17680479526374,1.16462697266871,1.16749875769858,1.17737733468425,1.18945519007888,1.23065076457387,1.29511143298175,1.32264785273022,1.3056170769518,1.31293285843613,1.31123341602921,1.29921008819844,1.16306384917143,1.15927418348328,1.13345538199635,1.13244662206497,1.13103799333196,1.14165269242972,1.12117759220091,1.0957586595156,1.08278109931731,1.08161784462167,1.0847350036889,1.06169710795875,1.0237186597314,1.02907144891683,1.03012564848476,1.01974723549705,1.03215225627483,1.01380373103649,1.00467036409022,1.00537013449307,0.96210251257146,0.938373934365766,0.936983481487378,0.927132168283634,0.928540797016642,0.867144577697595,0.850682706168757,0.863671171879817,0.862914147534917,0.847036629732095,0.852812007537426,0.886214684364324,0.879032495411447,0.84117400782459,0.838476710999064,0.837835103330997,0.843604119587211,0.8437622495224,0.856582588578231,0.856738900927958,0.844768283075587,0.844615605896784,0.846232348165184,0.882383214210543,0.848412541926787,0.848664277513267,0.84918138057719
