0.702590170540882,0.704771061572544,0.705789841677959,0.716162946123061,0.715577282475287,0.715450308623975,0.714724044696644,0.714874833694915,0.71338851077567,0.713258387896047,0.711915818145242,0.7150569190283,0.714116608709382,0.714223464215867,0.713999152702689,0.715509466793145,0.715218792959147,0.715556981136496,0.714665342683481,0.71417765863011,0.712592722732637,0.711215787413816,0.708850929687167,0.711488935351966,0.711509174323684,0.710583066646055,0.71147274213988,0.71203008900988,0.711622492459543,0.7099235390024,0.709568252617687,0.709327303707819,0.709052157983837,0.708136363452383,0.708000281938569,0.713560336382125,0.714422915130496,0.71524339988726,0.716210958400422,0.719356084067145,0.720163324168491,0.717201506806805,0.717896130856666,0.736440482897026,0.821013772516881,0.732173676777828,0.732274689364431,0.73346864645296,0.732706573418541,0.731880306041992,0.732031654388996,0.732529213696321,0.797825317196972,0.750918235968725,0.79617409555931,0.754362770884413,0.754866237498423,0.755929937761698,0.756519730599078,0.757310033129647,0.75834466858673,0.759264885827628,0.761422216897524,0.907813505696023,0.783855740031586,0.784641204839512,0.879938277692873,0.881222533212727,0.943573851424005,0.788676690724143,0.78934899519754,0.776463986633577,0.840120081487459,0.839852255443969,0.806368366529469,0.852757748249934,0.846880324355578,1.07586966632492,0.983263432928595,0.897800987408823,0.818889923540872,0.819527931716218,0.8220588824157,0.822558292795034,0.822898031574627,0.828791733047736,0.827839223933675,0.828840307045902,0.829146578373893,0.829403289947871,0.902256793890521,0.914317432907353,0.812042777770199,0.861731055849232,0.799445867129375,0.800149927759865,0.799580652686344,0.798708617560207,0.797256796008391,0.796025821348056,0.785904045085911,0.785505067558922,0.784598724874759,0.782016593634227,0.781864112616911,0.782297751449375,0.782416479167289,0.783728061950974,0.768820760898681,0.768715794841251,0.76742736720662,0.766780495793878,0.765061725813699,0.763169434553667,0.762193386350524,0.761292131642738,0.760384338095381,0.759567896185222,0.758259696960557,0.758205890528722,0.758361338582377,0.760055672978475,0.763704732421344,0.763463715187427,0.759961623537965,0.757604043167166,0.757601699132908,0.757546704535225,0.757437155421882,0.757426655672017,0.754647681048625,0.75375757997636,0.752711334098496,0.752323277105643,0.750657760518935,0.75051206272286,0.751650848637841,0.907837944643089,0.757349727180179,0.758697534488499,0.759682588439437,0.732910646652254,0.756422735491522,0.75566894563335,0.753696405242312,0.755201997615303,0.732517062041219,0.721905883985019,0.72197635979336,0.722309362666874,0.72232469053067,0.934012035094412,0.840624162179965,0.841076546470097,0.833372150588987,0.835438694056227,0.769035039950095,0.769827553117531,0.77063524422992,0.862370532291589,0.778543325318187,0.781161087990012,0.783834275174969,0.785212090843525,0.821220828627295,0.791061248764929,0.804048565246073,0.814701822078156,0.816097312059009,0.778720740654862,0.781759198786746
0.69985585090428,0.703402429169613,0.708238992063642,0.714922392652142,0.714684730679657,0.714800550618576,0.714315627648952,0.714089215557922,0.714070504036631,0.712251747767822,0.711569498723358,0.714362752389533,0.714911262515758,0.714074290661885,0.715249402258147,0.715667339917797,0.716162315084908,0.716795892795474,0.715830269738231,0.714729936819488,0.713546657235797,0.708953542847546,0.709098921849376,0.710953452778446,0.711156137329311,0.711064249232673,0.711321596893771,0.711476221253808,0.710648148519082,0.710266266865054,0.710163653924708,0.709513158459413,0.709548428709506,0.70884742688753,0.711347808470613,0.713775961914629,0.714439016404384,0.715760747793356,0.716764122175406,0.720042676127697,0.720178545069518,0.719562743064,0.718496245137241,0.871083922006094,0.72833668966811,0.730109963616628,0.730917836939829,0.731271041053082,0.731245893760199,0.731905623270763,0.732948213649203,0.734486956149942,0.781959678045533,0.753610013333535,0.7912204539542,0.751684861800801,0.753333336002618,0.754408753082471,0.755636527535673,0.756968878302908,0.758291430146451,0.758870515427754,0.761695776297582,0.896759612049814,0.784485772237351,0.894085452101348,0.880819812081623,0.883898689757308,0.797761881583212,0.796858105658938,0.789474693482349,0.77646247465613,0.776524805762052,0.84072420057542,0.797864522697555,0.808736108834722,0.841419570831025,0.834407536488527,0.829805648593773,0.933470291508483,0.969247398656506,0.834959424867061,0.880159285897887,0.878858387759063,0.95234662221838,0.951735752036048,0.823575622396623,0.821485818847882,0.867673246447924,0.824952641502298,0.880748409434282,0.901585276046707,0.810955733254486,0.811308812435839,0.802337404244598,0.801318811912746,0.800466972883255,0.799584504387437,0.797644938791039,0.795831585950177,0.784999564231472,0.784974858062806,0.78315011456207,0.781931761477716,0.782707082159116,0.784109882944213,0.783983060872212,0.785207635197312,0.785990203356792,0.775092412239372,0.766968636743156,0.76602672740397,0.76525828202696,0.763849342801858,0.76200595124951,0.761114218081785,0.760534777993501,0.760156680911617,0.758977403561655,0.757501420485635,0.7569941880579,0.756885882191853,0.763611907658376,0.764477650993093,0.758004292453887,0.757723588736407,0.757200657114592,0.756534085362912,0.756280897168379,0.755885611283593,0.754245962279346,0.753429096950307,0.752745377399667,0.752189473654439,0.751268922833408,0.750881098158252,0.751275044737556,0.751049195359454,0.758952183446592,0.76003238457443,0.761361392389764,0.734366036660332,0.756391274203714,0.755764505150596,0.753528927631834,0.753649566292447,0.741744766886787,0.725760981331108,0.753801179557804,0.755284732633968,0.756265390378005,0.79530883655417,0.792251134235601,0.841528638694048,0.829065282646366,0.837408082771791,0.764089918743123,0.729529015610829,0.770681510643897,0.774992659670308,0.779284253882547,1.12608828589749,0.785747754553603,0.777015480049679,0.776780434236774,0.792812601035725,0.797380882281244,0.813454784285757,0.817470846597897,0.779597822256997,0.779840742828745
0.697472251517001,0.826565617568535,0.828910922041491,0.712527219104948,0.712562540664569,0.712596303368389,0.71323124415719,0.714191475262778,0.713535522193982,0.713016711411938,0.711405566951941,0.713927140892964,0.713977499209872,0.714490935276777,0.714558458284552,0.716013412066429,0.716568884919259,0.717332667444273,0.716765100011837,0.716350761819267,0.713792148028783,0.711231713480469,0.710323666986185,0.710839946611108,0.710792094714174,0.711219892563501,0.711245335788869,0.711240569931446,0.71055377689118,0.710534995524451,0.710476010133601,0.709916722640191,0.710462594659089,0.711110970086446,0.712015335201902,0.713410052402108,0.713677525535278,0.714671639765988,0.716680139142948,0.719387548302622,0.720605900863761,0.719305104058441,0.718553350581382,0.726335212477092,0.727761186615634,0.728895725334343,0.72991856572182,0.73070107312027,0.731052505825525,0.732123414507122,0.732927159238053,0.734782617268954,0.739245735621702,0.740678458962131,0.740996118825786,0.750851092640367,0.752188873420215,0.752252527069354,0.756226827796414,0.758195374369362,0.758445058615315,0.758431274015361,0.887541583221363,0.88759652978884,0.897056999311921,0.896127377498847,0.83414983795713,0.779084694766074,0.958182304642369,0.940375466970278,0.777441800764683,0.777080563522252,0.776688416845343,0.861589980562718,0.798846375594711,0.855039550250512,0.843460250691277,1.0845491108448,0.824337228168436,0.93694293858147,0.936492813768257,0.993402192205499,0.838195386018545,0.952261782387927,0.881366886312326,0.820365229827756,0.821044462893551,0.819712619869342,0.819588914028172,0.821095922574888,0.821692146500159,0.892372932674387,0.812253315465625,0.811597715318505,0.803409799986171,0.802197879073304,0.801206089068374,0.800302524303775,0.798276608190937,0.796612691361959,0.783693590461092,0.782742694972525,0.781884013983785,0.779966626737827,0.779775757557457,0.784323701589238,0.784118555084798,0.785318001257325,0.785860081470608,0.780764866336607,0.767764389441774,0.766045915291125,0.76509731042627,0.764058513354398,0.761571669388311,0.760962463345612,0.760397889349429,0.760160857871441,0.758821154707839,0.757074307293777,0.756187205346911,0.7552480121773,0.755201727294968,0.982253810882491,0.758630517051545,0.757925036102506,0.756993891804422,0.756321010159631,0.756451786799269,0.756363331385588,0.75386128442317,0.753603895558288,0.752646977539788,0.752559895858006,0.751369450309777,0.750850179992283,0.751151828023645,0.750956337825261,0.766098820265333,0.762943131527681,0.762969125419855,0.765333927863085,0.733119520469827,0.756142365530507,0.755237580797106,0.753751232418375,0.753552026281525,0.752056615628333,0.75300274636396,0.754877006597912,0.756339059554643,0.75852741024438,0.859345873804145,0.935109171311784,0.831665270851275,0.729070153836191,0.760703374272038,0.730044297278482,0.770989877043636,0.77633953432846,0.784224747654036,0.949058114038466,0.905900159745634,0.776270537142718,0.776449987871436,0.776215832789123,0.776413891022857,0.776103640127683,0.844497325281377,0.776179339384775,0.779841525609913
0.696557291732206,0.723664821557184,0.834323606088362,0.712011290739442,0.712026302861519,0.711339115005684,0.712160159803214,0.712776749912898,0.712545771046624,0.709025819001429,0.709594886850294,0.710781731081651,0.714482308764064,0.714416464323901,0.715478291624225,0.715288040242529,0.717029850080166,0.719418149157673,0.718891504949995,0.717710832593853,0.714551460705182,0.712074268319148,0.711392788126784,0.711428393785093,0.711463404260401,0.711242876264394,0.71119697661758,0.711243612322619,0.710913504396689,0.711135169136845,0.71107833323215,0.710855726145733,0.711404768257538,0.711846708722265,0.712172346582486,0.711952747804023,0.712350601901109,0.711509783943557,0.717695276876409,0.718350372670889,0.720875155843218,0.719041238581824,0.718901057307927,0.727266249450996,0.727595654242124,0.727930277689987,0.729166661586815,0.730005991574255,0.731777706972663,0.732860660450819,0.733375614641333,0.73574047570825,0.738291785393934,0.740273883721892,0.741206801261842,0.750924114734287,0.751585267846104,0.751810854673324,0.755450844906994,0.757149060447386,0.758139142373486,0.758204319477069,0.796928566424614,0.796641430057375,0.796736540740122,0.795173347544723,0.791698717911011,0.770481298373351,0.958210594529588,0.78765432172818,0.815941756106236,0.781883027106899,0.781541339504091,0.933672644312691,0.855871549533217,0.814531701627526,0.837913318665384,1.08526179272419,0.819775016394731,0.82685818958199,0.833289535699645,0.836438011132916,0.834900212951031,0.879305205926955,0.952329656831778,0.877811983555628,0.819860537477342,0.819189600050538,0.817438812812141,0.819978025321143,0.889155501677971,0.826916658813552,0.817599682398597,0.908423361901158,0.803594216933105,0.802307484102982,0.801735909190557,0.80061367869278,0.799590418686616,0.795489028352621,0.783757231748382,0.783254331793336,0.782138179032045,0.779109886070873,0.77902143534542,0.77954012822356,0.783037083499283,0.784763318621218,0.78527820827372,0.784323087123189,0.893194028883289,0.7668154437934,0.764909830818956,0.762248572209129,0.76137375131835,0.760747376092509,0.760171869283504,0.760096111809131,0.758775714509305,0.757784898857512,0.75624465574989,0.755217826532152,0.755066394771631,0.754419373018919,0.757206427338241,0.7574306270645,0.75676429981179,0.756201727146414,0.756060900559762,0.754455214832552,0.753875721189823,0.754011760103529,0.753888183469512,0.753383119104688,0.75184444188359,0.751227913934743,0.751429686060808,0.751152113597402,0.742754406135666,0.742380481981617,0.764661433219708,0.76495750185783,0.809692323834796,0.757209344047088,0.756256426901266,0.75565591973645,0.754330577928359,0.752760833229846,0.75304834789158,0.754334361197464,0.857432664984403,0.779678215726662,0.861297264664374,0.949365966951394,0.764302506151497,0.833537681758651,0.816555990432647,0.85526185840015,0.856350461081391,0.87653932410378,0.966471727807268,0.951275450148183,0.906327649122866,0.800770484479519,0.805350083020156,0.775498845479079,0.776132926602632,0.775693684102765,0.773514987242603,0.774226435759126,0.780426729763704
0.697709337283007,0.699302988610824,0.8349338132358,0.709605009700302,0.709565836889852,0.710714074813278,0.710927813432675,0.711312885926593,0.710917552338813,0.709147359486177,0.70850168449099,0.710040510825534,0.713795748940814,0.715587330728053,0.714964659585942,0.714329733294997,0.716458647424208,0.718882828632821,0.71987594980883,0.720503166038043,0.721179466739185,0.713687011592117,0.712130157373404,0.711639365095212,0.71158952943994,0.711452420339867,0.711057723137479,0.711097009875739,0.711188829814071,0.710974952893265,0.711411567050189,0.711999512907424,0.711983048715888,0.71157392265059,0.712019761748144,0.712408279688498,0.71250911284765,0.712460195571984,0.718679963294251,0.716078822796255,0.714568865485009,0.712403918759379,0.712069759827493,0.72715280239778,0.727935983060432,0.72824724124267,0.728685589066641,0.72901473772982,0.731723541448376,0.733749318018684,0.734034330496516,0.736198461248018,0.737743422252543,0.739350190519219,0.743840827424005,0.749617428528578,0.750749775883051,0.751201647104652,0.855404920659564,0.757537025075232,0.758330540167633,0.758672817955582,0.763706689494346,0.766786433743516,0.959414053509732,0.779244831353503,0.786651384860285,0.769099068195792,0.769777449224615,0.814366528214494,0.815577503143139,0.780990339214836,0.781107293348998,0.932077620692201,1.01129559746754,0.875672775392914,0.836954219889084,0.819929409344146,0.818430477018502,0.825702181107133,0.948637565532598,0.793917477469664,0.794174059829602,0.83145795272376,0.847012640971655,0.851350498281402,0.818069343694938,0.815651634466865,0.815516375513465,0.815600113427247,0.816796629643946,0.816658991380374,0.816961174696869,0.817422547581549,0.803557686495476,0.802968841737987,0.802663465808591,0.801623924103484,0.799575381514735,0.796590811554978,0.894738172955296,0.784256552262417,0.781859610671788,0.779221172048741,0.778409675206195,0.780941451492481,0.782394264297507,1.09260213327161,0.984179743510274,0.782050538248421,0.769677486982863,1.21571651653859,0.762116190164571,0.761418899083362,0.761430273534184,0.760523518363462,0.759444195112148,0.759339348225394,0.75831745923276,0.757413858989162,0.756264583223749,0.754441341798443,0.753993132298841,0.754352865906595,0.757345006156609,0.75758833737082,0.756509952064242,0.755861401159404,0.755482247075738,0.755193322806381,0.755439414983338,0.754333191171222,0.754201215814273,0.754348471088387,0.752935138228025,0.752141357911272,0.751990674770819,0.75205399649369,0.915024153593582,0.743541105807544,0.859401029768988,0.765976077247593,0.736295789551362,0.756684731184251,0.756227472680554,0.756008744999415,0.754904938061178,0.753882743402853,0.754180934127662,0.75375797200997,0.892868099592849,0.890716328057313,0.760392908306171,0.76277352738531,0.764651654599686,0.767714826490042,0.802178845978054,0.95234662487247,0.858183790528805,1.02599843152134,1.00511948773395,0.792063461372366,0.907535934344991,1.37457669261563,0.808429475264302,0.808715478331092,0.793410883039888,0.775982400156186,0.978987362748933,1.00677346639578,0.779915536189875
0.698056762137782,0.700008960807687,0.701291679982857,0.709163152584102,0.708851856861926,0.709165076118918,0.709804474357897,0.709985659449654,0.711144105771276,0.71004570976333,0.707976878807882,0.707118482483917,0.711141447791611,0.715269393273913,0.71490642755106,0.714624863902509,0.71550909729549,0.71525833344694,0.720669483670324,0.721456470640231,0.721150478714769,0.714064675978661,0.713514506574666,0.712460670029025,0.712080264610187,0.710928790065297,0.710470351412357,0.71032071822137,0.710325260465711,0.711040755399496,0.711433242007452,0.711706564670566,0.712137397471425,0.711534593039156,0.711358530205053,0.712608867873261,0.713032067789568,0.714001231583852,0.717086416220035,0.715452911963404,0.715284868204556,0.712973453623597,0.710287221794201,0.709565417278169,0.727803313779859,0.728544616495324,0.728279831730913,0.728571598244509,0.73123991012303,0.732987361610859,0.733914686110563,0.736936886725072,0.737825989752882,0.738711641564848,0.870040352111276,0.750962443667793,0.750270207573076,0.751721244875275,0.776767119472063,0.761033671236229,0.759269373042083,0.759458305707581,0.762064669100127,0.762950821097043,0.76234554017584,0.925213807607209,0.790062018646367,0.802581485686892,0.815353020387384,0.768096261478203,0.818620633192547,0.780219545143359,0.780822402910831,0.814659696690912,0.829064834051234,0.863864940735836,0.834923677909294,0.810932553409424,0.811084312095865,0.832760929808494,0.948156788074281,0.793906582194079,0.7940038621196,0.7946986881081,0.954897320046114,0.871013733077366,0.816709250248631,0.814988609900751,0.814266258216084,0.813064332458897,0.812806046249692,0.815305013880412,0.816548088087077,0.916012572831738,0.853343231412436,0.805393854376079,0.80407057304028,0.802430215955361,0.801785748899252,0.892956468256827,0.787738671967315,0.786836090022103,0.779310867203175,0.778665885491283,0.777210037817585,0.776521623563755,0.78078696360316,1.09315078519463,0.770011733119226,0.768674743202207,0.821425265056707,1.11126619435966,0.760251388954078,0.759451708675421,0.759718520777064,0.757555701427651,0.75790437316229,0.757507640092878,0.758004625707971,0.757470030769493,0.755943615582769,0.754952475210743,0.753966046529761,0.756021584340546,0.757496024624185,0.75677789258527,0.755978308432021,0.755392866193326,0.755506665132015,0.756205103764909,0.756897628667906,0.754095892768913,0.754286031891396,0.753699775457291,0.75297922063286,0.753069782613174,0.752204161034092,0.751743912985822,0.846544752415138,0.782911738632729,0.783020901230662,0.756424434535926,0.756845381100458,0.756679518176515,0.755815271974927,0.755692319409535,0.75506716108291,0.754388582223588,0.754568957786412,0.754460784677346,0.755923257023122,0.902886906550759,0.757205938932453,0.944328842066624,0.765199310581746,0.766152731677006,0.788715735337451,0.767728028503596,0.859412613383215,0.779707060221926,0.738726147818534,0.793755123226371,0.794775760226358,1.40602803451291,0.807727143478199,0.812515761412933,0.815834112352602,0.819819095981251,0.963452591922986,0.930558871778906,0.781278351492848
0.695602053553341,0.700657478625503,0.701681580920094,0.70862312740524,0.708880438847979,0.708747650843181,0.70883680527751,0.709079099470715,0.7105011860195,0.710776238647396,0.707955651795559,0.70734180633576,0.707774755710064,0.7166600928566,0.71678435559231,0.71447990450176,0.715164353840971,0.714894174484587,0.719836470662745,0.715461747618331,0.714688665162668,0.713931338050011,0.713098468752846,0.712233829612495,0.711797275175006,0.710443220732587,0.709599688254195,0.708446241339279,0.708426149070375,0.710667249879178,0.71133602195404,0.711011977982352,0.71082995120664,0.71013297050457,0.710503884982388,0.712785164252354,0.713129461919424,0.714210042968124,0.716663031475065,0.716585217792236,0.715235023358819,0.714536841348911,0.709736980644054,0.710139933200226,0.769380834041427,0.726913202440295,0.727149531231661,0.727198039971597,0.728472760421615,0.729019638395299,0.729874524628036,0.731465046600637,0.738135001639383,0.739005131139186,0.739866582152178,0.740304419292985,0.747009305756014,0.882266448021907,0.967957751754296,0.794229674706129,0.757903532220874,0.958124438680363,0.797921483955675,0.808622136443443,0.760289438323702,0.761668801621482,0.782984924364573,0.802862118454969,0.767809479927766,0.81920405477873,0.821120745692129,0.779304767721389,0.77888901527234,0.834236111466138,0.842687111139428,0.831100522070135,0.832051896498724,0.811030916558508,0.810488705362631,0.784813898890072,0.793078627688158,0.793556203109577,0.954883432990767,0.854681092200638,0.955462231130219,0.806416211396176,0.815530239270236,0.813011960165277,0.813378507410266,0.81144761122757,0.811705268231048,0.813218383253653,0.815159891387814,0.914672052153842,0.808104006302485,0.805460776274327,0.80546051301333,0.804270921605318,0.802688045508156,0.796845651913149,0.789741118076489,0.78773763885497,0.779050566141552,0.779159928900346,0.775717539555609,0.768683811130684,0.768089664782463,0.768583122718362,0.768140706958451,0.768572313225277,0.76894295760695,0.829621097763925,1.13218001910464,0.758326764377512,0.75755468190211,0.75722817539396,0.75720901896938,0.757332194660322,0.757979254205626,0.757412227495888,0.756267013644633,0.755453289532643,0.754824210050826,0.75584782802919,0.75729328741947,0.756896982942909,0.755315924932376,0.754191279846782,0.754815921698809,0.756093894784988,0.757267353373916,0.754985828727765,0.754445676866086,0.753757592682044,0.753584981091848,0.753770399172866,0.751862034028324,0.750435443929772,0.749718346713106,0.74931752438246,0.745314302304332,0.755716114018252,0.756036406390285,0.754519599685717,0.755673830791928,0.755662902293798,0.75506010477456,0.754725867712784,0.754486928699018,0.753947621914697,0.906514392581369,0.75673073362821,0.946074614611571,0.946228735958528,0.764745753515119,0.960788511419979,0.836511565004992,0.96194237731994,0.865099007967281,0.870008353458875,0.895337961450055,0.795739897681718,0.797903395490024,0.911432128350301,0.809257353517601,0.923661914501974,0.839340857820674,0.820219332520136,0.768314322741909,1.01037929219404,0.77594785057919
0.695049260792045,0.694050836352919,0.704732358830108,0.706181678793322,0.708594350065531,0.708866983480916,0.707898912189341,0.706883463483963,0.70886094062878,0.708757539877812,0.708769920718331,0.707631112744093,0.71740849771775,0.717510545845194,0.960246924650845,1.05654241250057,0.776509781639444,0.714299519270999,0.816567995078796,0.713731348552284,0.712491596371764,0.712371902061278,0.710736926506497,0.710563385123788,0.710217639473673,0.709008402598824,0.709004282609866,0.708612929718016,0.705484106248924,0.704672614957694,0.71167866095953,0.711417999452128,0.709421948860108,0.709476457598749,0.709910208672134,0.711522730159795,0.712505608004082,0.713675087739451,0.716201605698146,0.715655957685501,0.716308392492409,0.71642309484946,0.711126188747696,0.712303477117783,0.71278148758314,0.725848826222502,0.726078612765069,0.726310192417111,0.726498732342785,0.727191495504705,0.72891623343547,0.730466367184672,0.730997016428424,0.738764929507228,0.74013863388538,0.740517263654026,0.74295004978824,0.87566685908345,0.753286499045513,0.764637446107629,0.904902374044659,0.751164684071555,0.75205901163564,1.09239709848025,0.759525557816542,0.928556624993861,0.770493708442831,0.76475823008281,0.758058519403476,0.758960126324723,0.820585974933837,0.820447141083025,0.875211538149028,0.87370134816153,0.838750998830184,0.984307013439774,0.83028546467957,0.810984574923286,0.810986661609255,0.782997070362212,0.79197044857072,0.835711167645421,0.785381427245148,0.839283128868963,0.957052136500032,1.04783750709416,0.862501961094501,0.80620238620902,0.807492941085344,0.809512533862879,0.81103446577846,0.81227462569445,0.813986846722857,0.811223836459413,0.811617879050106,0.811129181438694,0.80764791991035,0.805531822275686,0.896358675800094,0.795835840415342,0.789786288946576,0.788055232956517,0.784629734468492,1.06049710692886,0.774629446641471,0.768261725561018,0.767395320729941,0.766414916015738,0.767270230254159,0.768063057945642,0.768419674806911,0.767591064696267,0.757497209871457,0.756870979058245,0.757526737805564,0.756339157917423,0.756469218856265,0.756200647626523,0.75626734964612,0.755893494501603,0.75631809369305,0.755893469106485,0.756129370775615,0.756375505965998,0.757910176971183,0.753865931614513,0.754227996824786,0.753558634241687,0.753789429631459,0.754164012584602,0.757357050437605,0.756653273370069,0.754901065893399,0.753450043968139,0.752792479815714,0.752228135584157,0.751080811139603,0.749829203389252,0.749981040513963,0.749958894628085,0.749302793885696,0.749273719992103,0.750514175662898,0.752303533812596,0.791253372118553,0.897970694336805,0.754554683326811,0.754812887467194,0.753418564913892,0.75330106454744,0.753577907073851,0.755680463670584,0.946421070643897,0.946583686347988,0.753223875094129,0.752072638528294,0.79346949143216,0.741486355467471,0.766131677540628,0.973998579112916,0.779150989329493,0.779516645164191,0.77854131689557,0.9149000359698,0.796940848978711,0.937842275199994,0.852514678091262,0.83266777977725,0.843342722569431,0.772121564842517,0.774822065410021
0.694644391504296,0.693788550648211,0.704865164320386,0.708464574796498,0.708279712228256,0.707576500845803,0.706809230168233,0.705783917003207,0.706712842828788,0.707099244634258,0.707349010920677,0.715680425120428,0.716641831150355,0.716530945688591,0.957367906365446,0.978894023593535,0.818352189284667,1.00010478589554,1.02636373665015,0.711042530885014,0.711836975305292,0.711068238105425,0.709507201330443,0.70877973175401,0.709042676539578,0.708967033831139,0.708820774915829,0.708653415462818,0.705521831164724,0.705505283781028,0.705623679432785,0.706105941705657,0.706996302684593,0.710304083842596,0.710809722498158,0.711034460344184,0.711675207467609,0.712192413606405,0.713806399143205,0.714679470110808,0.715175629034431,0.714945515084285,0.711706607421703,0.711676361474258,0.711864258262748,0.723830241843506,0.72477365381581,0.724864055187002,0.72502758649205,0.726255025328405,0.727821162583736,0.730068673230388,0.730427277976662,0.737857580272892,0.738503530549174,0.73853331343129,0.740520196326387,0.887567292722497,0.96968006629615,0.758594911610569,0.794951680613695,0.749718708465944,0.751888216349607,0.753684486664979,0.761361505416718,0.754410789242036,0.755181066507201,0.755584954690786,0.757768507563711,0.757965956646964,0.756730716249156,0.979123101198037,0.831324529454537,0.846981230262517,0.832857902575224,0.827241021550647,0.829218022864466,0.811005186884873,0.811195351341918,0.782679642860091,0.782689336356716,0.783199301376179,0.784578457373233,0.906658620510683,0.956593248108148,1.13168792923554,0.888505668311952,0.806228323262791,0.806852264730576,0.808236115653096,0.810638061250763,0.811213513915189,0.808912381214364,0.808834744810892,0.813521449122798,0.81287773006771,0.813976282247375,0.981054692685304,0.800007103529075,0.798455413605854,0.790599305131607,0.789372619104495,0.789409251016346,1.08001748081244,0.871143306854529,0.76726369060282,0.76700674984982,0.766230377448535,0.766919048932538,0.768367691528447,0.769898625912556,0.75843594351031,0.756616901705918,0.756458930977631,0.756649408765532,0.756413006892717,0.756290542212439,0.756305978448314,0.755898863649465,0.755756675433014,0.757180819190895,0.756715440964371,0.757299066357096,0.758027669518322,0.758387205928628,0.753858013224871,0.753743548089286,0.753161092115433,0.753360555357905,0.754141707573453,0.756814474886584,0.756778603220239,0.755551121252348,0.754693872791263,0.75217961320211,0.750373400266528,0.75040647805235,0.74976911315081,0.750127270659375,0.750832984082999,0.750521221514086,0.74985651850807,0.750094588721204,0.750443109497761,0.749996572757371,0.777936756472708,0.753408689516356,0.753239345643132,0.75357655851096,0.785609611853263,0.753126044424227,0.753669394232268,0.755494355733874,0.981761726401336,0.762577051702528,0.764125479396765,0.819927712646143,0.858781671397078,0.765396835197322,0.885320580361311,0.975698569990589,0.793366654787668,0.777171717065533,1.03752649706109,1.02807165026362,0.935890977824437,0.865945222873748,0.768263107826992,0.768605402724799,0.770640338010006,0.772653303985668
0.694454943487179,0.694537230371725,0.856321220624882,0.928794185620324,0.7064103686358,0.706193501913763,0.706096552402321,0.70572821655618,0.706230645931781,0.707025818895889,0.707625203228668,0.715300646425011,0.71592675337177,0.715935307774755,0.714106832096155,0.713291238928841,0.755474192415596,0.768761983077485,1.00084292047241,0.71034625168537,0.710722314435967,0.710499900722727,0.706397090763463,0.707682810811684,0.708474353461339,0.708798977310133,0.708681008477177,0.70922799999708,0.706521774440884,0.706018415451144,0.705850845895802,0.706167287671037,0.706798577726254,0.708907522078859,0.710746582222684,0.710851001935496,0.710904813154373,0.710946588133256,0.714594595197055,0.715671956622387,0.716594203050261,0.716788366517731,0.708623541665252,0.707022843069778,0.723106542317717,0.723252904412139,0.724007882567664,0.725096795788678,0.724593500693987,0.726113059881871,0.727981971055008,0.729128138092963,0.73029062843604,0.731674875274591,0.732579256980885,0.736612230234999,0.738674780128812,0.762478383704683,0.762131373075571,0.741629659454701,0.747802500596897,0.747804059197613,0.749434665332051,0.751154448498814,0.75277047696819,0.754688189525656,0.75482107071126,0.755272966441655,0.75590358296957,0.756396894394141,0.75653875669394,0.820710256879979,0.771354818240716,0.771577676918409,0.83325130966947,0.85055381819796,0.83065462737137,0.82884542087825,0.831238330975679,0.782334711144594,0.782386048452865,0.78240049598922,0.835614233213907,0.787649186141638,0.868123993785707,0.972641084510664,0.912975360205615,0.966744497400957,0.805253902779044,0.806535672050211,0.810383470348732,0.810712993298089,0.810468467210549,0.80909199302657,0.814307540247026,0.813724200892932,0.813861355964278,0.978498087848135,0.801085411052467,0.799958540057592,0.790541043098032,0.790113722787479,0.789726259158374,0.791648970054447,0.793463421446846,0.802573323302447,0.802800425885251,0.967837554735627,0.907770064870205,0.775808985969562,1.13138249414437,0.764939661703847,0.756520539740983,0.757105120033909,0.756078334250967,0.755944973423835,0.756005292513337,0.756434231094595,0.755966124969499,0.756226578127676,0.757057260750147,0.757234213128721,0.757453333524436,0.75857549634074,0.759049613381249,0.753041136707658,0.753644750299516,0.752589745043037,0.75264361966326,0.753173010365966,0.755630523386661,0.755392798930383,0.753804324412792,0.753248710944517,0.750681026657796,0.750414506419858,0.750421742389832,0.75003527430274,0.750413132306829,0.751637365940218,0.751518558230672,0.7509296038177,0.750609408856793,0.75109162178984,0.75036029968429,0.750617457782785,0.752023889432591,0.752045032613896,0.753835339775418,0.752646599136449,0.752091210764336,0.752744713760054,0.753791144877526,0.884506092093048,0.759948211659649,0.965418959605699,0.968455924596123,0.972514063092203,0.76673282808091,0.767090822278414,0.977000806823857,0.978094572086964,0.91221584230829,0.770778196111431,0.812481102616709,1.01439236991964,0.878581991646186,0.769469388637353,0.768961418874233,0.769405857547725,0.771589312656482
0.69411658948536,0.692935055455677,0.692887439092618,0.704591863264767,0.705544334047625,0.705573110025659,0.705558860268628,0.705397621084039,0.704813816313,0.704292130090525,1.01124469161901,0.714799910324516,0.695203831840163,0.695373415062509,0.959125581726561,0.813936162709914,0.743952003199679,0.726401837652059,0.708546510792385,0.710316088885252,0.711067002974286,0.710385442886401,0.707516161054151,0.708344352088172,0.708818662731784,0.708600468283952,0.70791388269207,0.707486653522411,0.706250276194088,0.705811788240469,0.706065641357755,0.70664858086924,0.707448555882192,0.707881154356846,0.708468590137048,0.709028862073388,0.709879157751216,0.709252538811727,0.714317327590464,0.715559313436183,0.717041075918022,0.717091557908509,0.707768205760054,0.706544633711567,0.707073359283124,0.721679130930262,0.722609223974808,0.722285009997218,0.723211946023998,0.724325968488126,0.725506164761489,0.72654283070684,0.727414959244276,0.731502266600156,0.732438722719333,0.733623732751339,0.733506848391768,0.733733578892742,0.765013683490571,0.743281060354945,0.747064102801319,0.74595239126261,0.749446086554106,0.749947843282449,0.756736781934213,0.75491305839774,0.753824762896356,0.754386945298942,0.754748464598021,0.754043548559556,0.820221561468428,0.820058827740945,0.928791510047418,0.905855281507053,0.838168965760499,0.837700929711567,0.833380916187293,0.853333508879204,1.03534861089688,0.814221305576081,0.805638926833197,0.834899226934986,0.835276005509617,0.997203161733457,0.869428933658687,0.861547443968481,0.869603095165023,0.876231233460914,0.847649255351424,0.806125567426294,0.808637054663443,0.810108003611962,0.810644596580392,0.809046199170543,0.813672088585797,0.813501437657512,0.813036949082118,0.812133616049169,0.801787744701818,0.800229754503867,0.877896821391539,0.78841408545556,0.888111919443285,0.913615465555687,0.830584917947528,0.797086986592765,0.800317958346193,0.966949530489088,0.796127353757192,0.790156295743369,0.786443729864973,1.03987923141584,0.757256356675841,0.757744178976521,0.756347768903534,0.755491851061844,0.755427222843131,0.755473808223833,0.755479829691609,0.755799930396442,0.755178300277341,0.757442425150953,0.758212972809442,0.758901660252677,0.75967405942478,0.759213578722145,0.755590232905575,0.752346086599085,0.752819947837182,0.753178842294731,0.753792256176766,0.754260193342656,0.753786615659876,0.753499631969547,0.752310130898242,0.751364724453019,0.750869440887398,0.750501802998495,0.750182407855806,0.751941417902289,0.751719250301005,0.751360617127907,0.750829384411284,0.750661297953678,0.750289011349562,0.750553723186103,0.751765942882083,0.752774419917202,0.754010776617956,0.754156397674869,0.753513180690805,0.75380064990708,0.754422126574712,0.754527234277629,0.755105090558984,0.982076244600298,0.975869687209218,0.980527025887317,0.749823918698584,0.748201104750902,0.74816861020502,1.05471828626166,0.770310994779972,0.77034878209142,0.776590224946592,0.911460219109063,0.892519001599851,0.946594264368616,0.768802801113778,0.768860248105896,0.770575984559954
0.693380943946723,0.693114530387577,0.692825802231957,0.705280980737909,0.705538169375732,0.705269148977426,0.705204822141655,0.704941585348961,0.7044869524025,0.703890335369548,0.703599063557278,0.696174828534276,0.694962776171672,0.694986680377008,1.02405599683182,0.701966047461848,0.701645027923664,0.702211716908441,0.707627296911887,0.710113430300765,0.711968276203064,0.71097317989342,0.708602216292533,0.708426229055562,0.708635831219843,0.706984600025083,0.706845965000165,0.706456730502055,0.705873439749685,0.706209026506806,0.705997450249143,0.706350008374519,0.708011429451075,0.708748193406941,0.708876981897858,0.709949922206587,0.710193179005786,0.710611424549553,0.713175635031357,0.719688481786014,0.718259869368365,0.717724553741235,0.707125746404043,0.706734031625386,0.707723068810554,0.870702128142136,0.722075132772325,0.72230864938906,0.722944527875597,0.724101869867997,0.724551597920195,0.725968222357669,0.726298637446848,0.728509522348853,0.730191856412874,0.732329372107638,0.732885394515429,0.733784986694058,0.735065151634488,0.742118114308918,0.740872764463304,0.744038775762562,0.745515335960608,0.746943177556316,0.749653045234752,0.751396692774498,0.751482353341604,0.751842726135527,0.752796114636492,0.753182697595131,0.935781864876034,0.937023954268951,0.818290293696108,0.99135747346086,0.836599884247935,0.776416838349852,0.815099487833106,0.829222956365992,0.815132776301902,0.81510906239568,0.98970303338371,0.822053215471711,0.836808373973093,0.835295968312631,0.869622005866903,0.787966331285993,0.788966036300831,0.789057746204422,0.847194120193686,0.84933029762175,0.841257039504999,0.808590544609016,0.808421197790652,0.807539135599646,0.808068163375984,0.811392706502681,0.812051168197403,0.812074088009371,0.802085878832773,0.800812843859772,0.800214596800095,0.970231546321867,0.784809517119443,0.88493908297979,0.981668393624422,0.795962434348718,0.798330862035205,0.797179177850248,0.797329229750618,0.79734834722686,0.795204857302892,0.814228769061661,0.759883660233003,0.758838149317738,0.755922983253071,0.754332505131819,0.754697347513552,0.754351169963389,0.754004036864425,0.754052063860705,0.754244781742229,0.75479100912251,0.760049621050566,0.75853429847038,0.758886993071782,0.758962200040431,0.757501715539786,0.757562835021973,0.755183909322784,0.753837406386776,0.753126917527379,0.753191512454095,0.753504923272207,0.753478703378694,0.752579109095441,0.75148462048649,0.75117867639212,0.750833995397731,0.750279972436754,0.750731791539137,0.751599417073132,0.751568788503712,0.751555134100234,0.750932983028931,0.750517235102427,0.750893007907906,0.751613000651296,0.752587809976246,0.753731476059867,0.754009691181154,0.754657071016964,0.755277891063632,0.755755699595253,0.755013006699973,0.755203452656402,0.755196457857055,0.754122561152753,0.749792484628669,0.749845368869888,0.748433976279506,0.748315178694844,0.770080470122383,0.770307361518668,0.770819899823031,0.833070824876055,0.773158379329138,0.77271129717933,0.773167961116439,0.767879889882265,0.768179541170436,0.768592958259958
0.693350470487964,0.693364410812022,0.693012549792186,0.703094907828608,0.704668977552803,0.704619935002571,0.704950055929586,0.705025493497657,0.704595093373224,0.703325135390201,0.891238992776225,0.695048326606902,0.694491306398722,0.695160008903651,0.697427417548877,0.698715179074382,0.70022190035015,0.700519433678362,0.700741647326204,0.711429372063572,0.711556061847885,0.711168233436109,0.708837616705925,0.708462312817323,0.707866383193569,0.706025343550171,0.706066723417123,0.705441936897655,0.705814545986441,0.706166164243716,0.70637627435037,0.706095326590601,0.707235268090966,0.708456583298701,0.70955481052257,0.710230199688089,0.710360546680427,0.710667955525417,0.710920499769823,0.719380439063626,0.718655900316015,0.718405443895028,0.708838057047281,0.70828108602697,0.708545583153416,0.715978131771455,0.721452519504074,0.721470671207088,0.721685041210592,0.722593776264182,0.725247913833674,0.725434773868542,0.72623010169724,0.727425778164856,0.728720158100998,0.730601606377085,0.73174388600248,0.73214962085252,0.774143938488935,0.742106986453855,0.740486771941856,0.741016712419313,0.744608802406304,0.744899465174851,0.745040235194035,0.746549426331148,0.748652438818219,0.748965154784271,0.750058812117251,0.75064641257322,0.750279814044528,0.937281888563306,0.908499692992471,0.772814386684213,0.837256973596725,0.776325719302645,0.801029074443907,0.776242379086795,0.938890512244983,0.771348237152095,0.770326882670983,0.772568700985217,0.774748526884098,0.870112226083066,0.870497503835856,0.7874281740534,0.788810425711111,0.789044506615394,0.793844694478592,0.799721443993932,0.801029617374114,0.803825578747675,0.806975544812582,0.80758803496705,0.807902285775402,0.810184847491529,0.811055693714814,0.811481205765282,0.811268231687277,0.802268275144223,0.975483333028307,0.791484122292232,0.986945633255127,0.780066035833475,0.779948806239212,1.0027349306068,0.848505258435053,0.797754807360414,0.798130393225045,0.80900591188422,0.792639127103215,0.832408317721864,0.761379006519578,0.760128265675823,0.75549071861431,0.75522386932262,0.754890197469434,0.755115162437462,0.743721044375259,0.744185991438946,0.752322839496644,0.752892521322329,0.75858782595293,0.758640938942222,0.758944860761055,0.760222288730621,0.757633018061818,0.755689887226753,0.754837820111039,0.752977193217269,0.752867337803413,0.753571718298818,0.754621135395748,0.754046003837128,0.753530096725451,0.752394546636914,0.751600032392038,0.751269928283905,0.750178044867039,0.75043541876017,0.752067479055885,0.752780733044446,0.752896234119586,0.751398975255642,0.751069018985519,0.750836958896641,0.751096186604832,0.751798956500835,0.752650769560927,0.753596653708758,0.755344771387822,0.756610310215557,0.75596313801623,0.755642250766148,0.755291607262043,0.755017322865254,0.75353265480987,0.750642800842956,0.750882060169155,0.75008176431826,0.749968883285361,0.825419673702624,0.929489898883535,0.771507322690488,0.944905886679339,0.806324835589466,0.770621494278058,0.76813758459511,0.767530657616736,0.768142229069379,0.768750615374005
0.693305483540351,0.693312126997416,0.694282978148096,0.695085470823386,0.704141068083924,0.70445108967218,0.704888029232419,0.705228003096469,0.704991720855678,0.703842476826012,0.897354979785039,0.714185707667361,0.694815398607457,0.695802706283709,0.69808324176457,0.69922562433513,0.699724211392094,0.700148960563905,0.700693912854424,0.755809336129529,0.711324754330725,0.711337544711348,0.709446588716874,0.708334978248392,0.705729239013653,0.705756790873419,0.705912075436508,0.705945243355918,0.705923617542275,0.705722605572695,0.705387143404426,0.705609619460563,0.707219675082179,0.708502490008244,0.710398464780149,0.710555381443014,0.710351400690129,0.710851942673436,0.710634258412462,0.718475675509135,0.718001859170237,0.717819995330967,0.709394756339419,0.708612189944588,0.708573680632075,0.720094052336464,0.720820159656987,0.721706558318018,0.721404920038208,0.721701740558545,0.722330011604995,0.723489602806046,0.724595499010487,0.727278241187262,0.728664304437393,0.730224106869341,0.730848234863117,0.731372064654104,0.73272535175948,0.737967101141935,0.740696319107965,0.741601048036374,0.744602431962865,0.744944210009437,0.745388472545861,0.745636635077027,0.747504080462486,0.749468680968649,0.749947973217342,0.750669170161774,0.821476730846213,0.8227349932989,0.94045163733233,0.804409925715155,0.846188490589249,0.776150770097872,0.819060196661459,0.84127849763597,0.878431328020278,0.798673409559514,0.768273215421514,0.803375715593576,0.774482140119408,0.869016381294183,0.871685618338376,0.873475704420812,0.874164928864533,0.878870713642128,0.809986573331251,0.798872800518653,0.800542759592684,0.802789770856544,0.805860929727179,0.807745166398842,0.807267275088108,0.808141957629471,0.809990358911074,0.81105617498777,0.811267316598822,0.985045148243426,0.796745485286447,0.970910290968903,0.882834672783361,0.780305712799445,0.780281622147178,0.912597637912547,0.87386324900224,0.988269185316846,0.864985111596699,0.785982075509204,0.783656785249323,1.08111296872327,0.761607489788881,0.76153345752319,0.755582321652037,0.755485735699171,0.754995921052812,0.755162699915495,0.754207733826138,0.754775441590166,0.752663225839022,0.752815738466513,0.753224552312086,0.759485822809555,0.760090806650723,0.760289869491239,0.756959996536853,0.755164596520953,0.754568052093061,0.752800849643954,0.753133094022143,0.754866743180553,0.758095004135065,0.753623128392974,0.75205024987616,0.751937648171901,0.75155359759107,0.751810938739707,0.751693248095941,0.751856115360235,0.752762941799128,0.753636059820132,0.754755665990227,0.751804278054893,0.750868787784217,0.75029097975713,0.75015441158821,0.751291741293746,0.752987807051444,0.753637998908472,0.755493991254196,0.756532544019599,0.756360274140008,0.755252826445494,0.75410999341612,0.755251340697473,0.754473638808129,0.754602347902263,0.751966763822274,0.750834420805819,0.750579704930847,0.768902208068783,0.770900026212998,0.753591837878073,0.769139350486459,0.965022181155866,0.76897087542213,0.766355019227337,0.766815688775769,0.767687050746794,0.768504644648724
0.693535094882224,0.693497287699016,0.694918177652608,0.694960132331462,0.704475384183341,0.704649001600459,0.704775146172832,0.705265651264294,0.704596636145528,0.703959708463471,0.702911938773207,0.697583413963348,0.696893315150266,0.697887901404906,0.698979097980716,0.699356520640486,0.699064398306399,0.698420845497301,0.698190708391189,0.703689071928069,0.703934237067273,0.711030328109952,0.709846093129153,0.708282271804716,0.705976035298648,0.705658644518101,0.705923571356969,0.705771534326591,0.706165211502278,0.70590002275976,0.705625703826467,0.705462044085045,0.706857255400761,0.706614544243129,0.711169353056134,0.710647110548951,0.709911367409031,0.709560096190224,0.708337592308075,0.71738621323107,0.717815508256306,0.717645506405442,0.708625315520649,0.708244382988397,0.707891153864677,0.720325311049678,0.720218592729754,0.720637947985683,0.721693564878876,0.721532112425108,0.721562812161526,0.721216503376762,0.722828234405591,0.721180006043541,0.721307443187865,0.73057710543562,0.730348954769717,0.731823072695619,0.73348682335953,0.735041372116346,0.739615019516517,0.74037709854582,0.746252572194127,0.746176115170451,0.745057791996762,0.745323381668,0.746067874415321,0.74681566996899,0.748176875203518,0.748534237159168,0.841432633274457,0.750607269758437,0.823183944962836,0.775170554631302,0.842851758852263,0.839089596563721,0.838812601837921,0.839395585720911,0.788575613516855,0.811541488985844,0.765110872144492,0.765361609895415,0.811641165023665,0.966252400520438,1.02847632134564,0.875593087590237,0.876409731364491,0.793713962383168,0.988769759494036,0.857316207294978,0.858074631119113,0.903604276834016,0.806637413526569,0.807629518969705,0.807191494209519,0.807690032404787,0.809297414895147,0.81087772311834,0.811667828645347,0.799553581703355,0.797129399042142,0.790851859478836,0.969177073271917,0.998043114868541,0.772924916644706,0.772604488664309,0.772663762152092,0.772487799644699,0.865228324964847,0.782359536527274,0.783042748178242,0.766242835898887,0.765956635334736,0.766930621174099,1.22250396300894,0.755310543576272,0.762366598053171,0.776030133011959,0.759746092969923,0.758036688248537,0.752299026844223,0.753179834868661,0.752591372674547,0.752260217864494,0.752588599300914,0.754302611085779,0.754853583103548,0.754624741201695,0.753127828742036,0.750917657853159,0.75222673563227,0.759957332417598,0.760201413867382,0.760760475554212,0.747242703936229,0.750150877652246,0.750950560504757,0.751489547211644,0.751853921274677,0.75271860614483,0.753844151281053,0.754330404949123,0.753884650473752,0.753684971314474,0.749885880209642,0.748191669281235,0.748055352503662,0.747078735394239,0.752569861187381,0.748377152098372,0.748255901876264,0.752020468262711,0.752720879223991,0.753675126673042,0.754925502478088,0.755380080100235,0.754889635729712,0.755081646896793,0.754751857758881,0.75154882566908,0.764980132231155,0.826239265863902,0.756010579390066,0.767056025648676,0.769682452199146,0.91850271460146,0.768182270157828,0.765884140927582,0.766462195211978,0.766625378424369,0.768568322820788
0.69347758558139,0.69309650003162,0.694431768678423,0.729920583002719,0.704149343285782,0.70430610973973,0.704222948154936,0.70470268133113,0.703516981875566,0.702835248987837,0.702314040312751,0.700555039452851,0.700019332628473,0.698998406727535,0.698864058761966,0.698584384387287,0.698671040407504,0.697706276416271,0.697927281022092,0.905326589449056,0.703448521466179,0.837280741722087,0.715618610893951,0.706817774710534,0.706352389385181,0.706093999390648,0.706298091708783,0.706643272290456,0.706709756407647,0.706772575604469,0.705541035799909,0.705656473435768,0.705573163891786,0.70540339908675,0.711487242104848,0.710946462247621,0.709271511085115,0.709128709019634,0.708862037488976,0.715718259532356,0.716445343205496,0.71700555667195,0.708400539837539,0.705352168110496,0.705322360969595,0.716098730533169,0.718859750894094,0.720380800922065,0.720932643652015,0.721194236194957,0.720491294059712,0.720133468631167,0.719984405765754,0.720814612823929,0.720676769035947,0.720946378795346,0.725516347474437,0.732872186059288,0.734548079581846,0.736558527758868,0.738250127682785,0.739357396225732,0.736166483671106,0.745083526048529,0.743211379523774,0.743381324030813,0.744619009531489,0.745886465795054,0.746472313943453,0.746529048122691,0.748900478231672,0.749796114833451,0.830880599794221,0.83228988348485,0.832535952786075,1.02828118225961,0.838597188918744,0.839438462123023,0.839908328242804,0.764598543525307,0.763957249101152,0.766599340070451,0.768320623164836,0.773838333670937,0.774582630542176,0.877433344614808,0.879391389010332,0.793939339795518,0.794663779734347,0.859180949284405,0.814336473593614,0.8065282986743,0.807019258437549,0.80785796501904,0.808143305840696,0.806959173003219,0.808351746639078,0.808537429500191,0.809066752398344,0.797264715011393,0.791072092526833,0.78975849650955,0.97714865900985,0.775558598010508,0.773855893697473,0.772745151572564,0.772698121688992,0.773075258757286,0.911316512389327,0.782210112318009,1.02302939555317,0.767631405921432,0.767642478757585,0.768827284569433,0.77131647455481,0.771715418422275,0.771698555599948,0.768240215985961,1.07035735599944,0.763008253945356,0.762473058687903,0.753813574258428,0.752501225494149,0.751883235177387,0.75181692181225,0.753175440958339,0.753665107604825,0.753930785147523,0.752705818969431,0.751864031349622,0.751816190035917,0.760615307759762,0.761472219496793,0.746360280183406,0.74761135683916,0.750469519510223,0.750601293812822,0.750817887500007,0.752433063388647,0.753184863634961,0.753475992008607,0.75409156322784,0.75381378376318,0.753724721651614,0.745177064121493,0.746280206355584,0.746283766524658,0.745879842106339,0.743871585646458,0.746834998880396,0.747201789225179,0.748910013427936,0.750701699078813,0.752753634496337,0.75363475276116,0.754204568635185,0.754589824194884,0.755578444218636,0.757323452077435,0.758927274409187,0.758308130512525,0.757601150454928,0.756305517214168,0.756042728133416,0.766433202585717,0.760601316904393,0.76300148306888,0.76459626749443,0.765493152702369,0.766327701118568,0.766785898847155
0.693270519696805,0.693519146601987,0.694262298723071,0.728770213555163,0.756552091461277,0.702813562505288,0.702959897542015,0.703149984119905,0.70356977331256,0.703176242281368,0.701293595289127,0.700949568156336,0.700953229652806,0.701687261235645,0.699974160948196,0.699647631420887,0.699181304069421,0.698536529243922,0.698570059395769,0.839463748884936,0.709964780786747,0.71158677466635,0.715299184759026,0.706501973715161,0.706246332981585,0.706766987283653,0.706554501323954,0.706945235722944,0.706594458822653,0.705734004784425,0.705545080807058,0.705447851318053,0.70550687224819,0.704582021544179,0.705628650209602,0.705750477849405,0.707456054643892,0.70864066112852,0.711381456026943,0.71353199788334,0.716203226131737,0.714759829508444,0.713833956059098,0.70509965851413,0.705428401889459,0.716396410731444,0.717801652241072,0.718639029627241,0.720026735120599,0.720044656316457,0.719069363778767,0.718479711912063,0.719891475368123,0.71997060954284,0.720584975285409,0.721105928232066,0.722062249354436,0.721952073931396,0.740294311500882,0.737696345645015,0.737601215088321,0.737853816253303,0.73816796312466,0.740217368111642,0.741295834334114,0.742598383297676,0.743034223641874,0.743879136443495,0.744400163494336,0.744578123591876,0.745113036491469,0.745365600637002,0.84373375549196,0.837474351958906,0.838886928809003,0.850930877701147,0.838632199771563,0.8400416872962,0.788192244200295,0.764253217507856,0.763102429582726,0.764074777089191,0.765529525342004,0.772546899643046,0.838801293817521,0.841591251823208,0.882152421789878,0.992901617532867,0.793052825489104,0.80296184911053,0.843451210855805,0.806609044121417,0.807499854722368,0.808601630444248,0.809010368671861,0.808370856836812,0.808397726192416,0.807849660259277,0.807829815240142,0.797519794715938,0.792036089479676,0.790654044955799,0.873484975886803,0.776709052616316,0.774787409808279,0.77228312210107,0.772131292397433,0.77265427369209,0.772624724098105,0.928081509099585,0.887098054903866,0.768266745207514,0.768694923133404,0.770820684708097,0.771552977754205,0.772279708703471,0.774633390532991,1.07032435375267,1.07002763907548,1.20364476264302,1.24077068146655,0.763707842158341,0.763986229189506,0.750501366491216,0.750673726339422,0.751836869283755,0.753214599121945,0.753898677402313,0.752694516300863,0.751724259604195,0.751576901260917,0.760604235102961,0.747222129612573,0.747433160845978,0.748727918219355,0.749959377509363,0.750235183905116,0.750438277811696,0.751961394405699,0.75239963394036,0.752934469159109,0.753361432822225,0.752952309227467,0.870803939839192,0.808305975862751,0.743923907095702,0.744812581489535,0.744620064473033,0.744331057168368,0.745702124229533,0.746967266412156,0.747978800106041,0.750080437686732,0.75113643982614,0.752036708442582,0.75281019764898,0.753721679707814,0.75418955775673,0.756302432336454,0.759054073176788,0.758935199369571,0.758286466624033,0.758043167309624,0.75698899515114,0.757782706790123,0.761573464291122,0.762713231171742,0.762886796776906,0.764154007025167,0.764976195476724,0.765840515324183
0.693647350257999,0.692566281175322,0.692759927349092,0.735508644236481,0.767162641036203,0.700823723135236,0.701641057648556,0.701602560310738,0.702359174362054,0.702590317777596,0.701628680704018,0.701217926009264,0.701746537373379,0.701630307880387,0.701047697821482,0.700180083937553,0.699879046343929,0.699546127161388,0.963936189720608,0.711314380557851,0.710524249438369,0.711591059993814,0.714363165319226,0.713146271864497,0.70687897072611,0.706987088978651,0.706179195038234,0.706433788562229,0.705948596111535,0.705951008174715,0.70544512108427,0.705519406446457,0.704399888353069,0.704642398579049,0.705579166749878,0.70592658446446,0.706144935493618,0.706105737940853,0.712585758667912,0.713999193297779,0.714191228432888,0.713442846355219,0.712692936064623,0.705233450806764,0.704742040884666,0.704335951936778,0.716364481747012,0.716480388806698,0.717419779046876,0.718004009839837,0.716408142976806,0.715592520093769,0.715741302592586,0.717535981965032,0.717399100225014,0.719637455892901,0.720846680483756,0.721576928636423,0.934495640655425,0.735988499976566,0.735773196163551,0.736701559117441,0.738548189532012,0.739005458015472,0.738463019608127,0.739707027379417,0.741010646093539,0.743485305011757,0.743844285794053,0.744870976781432,0.744782868957957,0.743490123025975,0.849965455056139,0.835335675439753,0.784446956521014,0.784091496249032,0.7842861645183,0.78378257572424,0.79721938237234,0.764422081309956,0.763490157525498,0.764211275097877,0.76505358047062,0.770917916071276,0.823071250562127,0.897919792602733,0.880123483892756,0.791561154748007,0.792030561008112,0.839223949752004,0.799729227405768,0.801910626511984,0.804342001495086,0.809196394390539,0.809557779926922,0.80924529919948,0.808739752529975,0.808302618587798,0.876683560035959,0.792233383948447,0.791343684098239,0.790816423242846,0.78314742527121,0.778232412776544,0.77476094935408,0.769472386912521,0.770749768255034,0.770686685584119,0.771173246542746,0.772032202301144,0.886572003755686,0.766409150961564,0.76557552663387,0.771474885108637,0.772863873654507,0.773112525994816,0.775457341731984,1.07097310776143,0.77501287446186,1.20290378105159,0.780438063826508,0.764726340024834,0.765471531209639,0.766558418675343,0.749197950719029,0.754119137765006,0.753892957022938,0.755181628230222,0.752782322473514,0.751033888859828,0.750071921070111,0.750189743579432,0.750041492612973,0.74988199506909,0.749980239969101,0.749756758048497,0.749938032637634,0.749908540096523,0.750789941840996,0.751665065111597,0.752718609368752,0.753298475413706,0.752736603292671,0.791459109105289,0.74376756307504,0.744300167274881,0.744453183070701,0.744387215795514,0.744808040038297,0.746407050953077,0.74819726945115,0.748945478249239,0.750952444011034,0.751982881381513,0.752405239093035,0.752833328770993,0.753123165797477,0.752798084175977,0.757386435226975,0.758088053592503,0.75726685631642,0.758427903547123,0.758592922391878,0.758074791744989,0.758131189510351,0.900108744939764,0.805403150046132,0.762735455256092,0.762785878103523,0.763828921495527,0.763956139385313
0.692382569698937,0.692128565228796,0.692681287341767,0.697755757591084,0.698506919815907,0.700151086866676,0.701052324958319,0.702334915009701,0.702207210712889,0.701628669391027,0.701800243566026,0.70149761989517,0.70139108951387,0.701725869416448,0.702012325201281,0.700315029064844,0.700463528801171,0.702163344793099,0.717022770624018,0.712203883816872,0.714649473114099,0.755958649609697,0.71453873807267,0.708957605988972,0.705783990260026,0.704863869110211,0.704825622836863,0.704399616618452,0.704694756287149,0.705458380570572,0.705464325725083,0.705184034008383,0.704568101609565,0.705524282917237,0.705680715311446,0.705366498155195,0.705388116550235,0.705174196924687,0.712989734136629,0.713681259416979,0.713874995593586,0.712690252787548,0.711377297727905,0.705199821470032,0.704461852311843,0.70433649613915,0.713427937998841,0.902993404724871,0.716918095023216,0.715923119595055,0.714407102464424,0.714585420865363,0.715447417762776,0.715745797959563,0.715859016817946,0.716244401219583,0.720394522317327,0.722676639447773,0.723410839501212,0.732595066643486,0.734459011578465,0.735040269712006,1.06082698808499,0.736625512498388,0.737066075439795,0.737412435677606,0.737910208342437,0.736733803857811,0.738202890202523,0.744854582847997,0.745226250550811,0.849134786449278,0.848997797752101,0.759890255834328,0.841402250896075,0.7835936622623,0.784911023932829,0.785197089315996,0.800736421720307,0.801950977439359,0.763944211114361,0.76428275516179,0.765065930078552,0.764781686394493,0.777006248136512,0.777173186893108,0.874815947391544,0.869420673119097,0.877288632142589,0.796875711992613,0.799324487583274,0.800609239444749,0.803238996971496,0.811051971182369,0.809246289471837,0.809400649805655,0.839958554680649,1.01655999687717,1.00947582183344,0.793331256896642,0.791795656653425,0.860851841143846,0.968754323107163,0.97814267741388,0.773681782964427,0.770684697452421,0.770496030872346,0.769974199948353,0.769870042266036,0.770055875953885,0.770497475227243,0.766368569202998,0.763412402399938,0.770419126518715,0.774230699056144,0.776045405570444,0.77710712050318,0.77797476654775,0.777955815856005,0.775086717905768,0.775132216107304,0.764989789885701,0.767223647893815,0.768520833709968,0.770049820964574,0.771918636711602,0.762160293605519,0.757407115084447,0.751752758685277,0.751200504569538,0.750476877600154,0.751017743177764,0.750554478621393,0.750428715193672,0.750104396760655,0.749600796723981,0.749951014174971,0.750123510708885,0.750660738089371,0.751554573672048,0.753233139693928,0.75391902276401,1.00746917451988,0.77656907783127,0.746576689601968,0.743622337477332,0.744306953679504,0.744217611854576,0.744972779675434,0.746439049559234,0.856278804392623,0.754265732617271,0.755162420761898,0.752267758415971,0.752515770394859,0.75290323929679,0.752903717228655,0.752363021885706,0.756510521306058,0.757644986069982,0.758437550116113,0.758277293304636,0.758294170517967,0.757049310128128,0.758041358602475,0.859706450577878,0.830698299671581,0.762014720085888,0.762947924415416,0.763011340539682,0.763623596700487
0.692593112809014,0.692487486644378,0.695959841445851,0.697488512454751,0.698158778535174,0.698863046899205,0.70008005103945,0.701201846461524,0.701574013258435,0.701291141744815,0.701126258807171,0.700858892685394,0.699966020587902,0.697765762256104,0.697410072117892,0.698665994230984,0.699585888624732,0.700009763980209,0.703313039128476,0.704077061768033,0.752463109643312,0.816683525140205,0.773209767534675,0.826473781779793,0.704459874175521,0.703927999274637,0.70382648522428,0.704071607621495,0.705180084156803,0.705787568595884,0.705075059486287,0.704523653137196,0.704440252268291,0.705510482806139,0.705171224502664,0.705435550680853,0.705203023882178,0.705771632429398,0.714097003163774,0.714292705586369,0.706421975341931,0.70695864061567,0.709214373473731,0.732659749491215,0.705305323945535,0.705757666414318,0.709114441609154,0.709302588490039,0.711033183986447,0.714733508210304,0.714541333492606,0.71418097142304,0.714376832548241,0.714724316962243,0.715571308915365,0.716445393767216,0.71770790728076,1.00253130190451,1.1015092453667,0.722899764894395,0.949674067824766,0.728372327901455,0.729044867160557,0.735552698282535,0.735636060850793,0.735579231581352,0.736311073577082,0.736582357092642,0.73764687750327,0.737730243869876,0.745554971536826,0.833303542683846,0.835646827135553,0.842329581133924,0.845648836168077,0.786262353935443,0.786323004394387,0.785044683528627,0.801620085247685,0.80329332785826,0.764350971398741,0.764141564463653,0.764969608381558,0.765458237715058,0.850815986811615,0.876120439139581,0.874610003145704,0.959810822776111,0.959743727715072,0.952629798138675,0.798092132762576,0.798229156682381,0.800305755954981,0.878295613618318,0.839736095682636,0.846881004351126,0.847468763877915,0.957717186583961,0.81243103053057,0.921478903339705,0.791513903229182,0.791606212380696,0.987977905878851,0.771738271978885,0.771997950833475,0.770794786641641,0.770173611095229,0.769148553239804,0.76888902277041,0.768821163711459,0.924967762672658,0.766252341301191,0.763504923452998,0.762810659231962,0.773854157273741,0.777227053188749,0.778014832671465,0.779050015507693,0.784492413589034,0.784608374556651,0.782470049130133,0.785294736100339,0.769700383487426,0.76969076743538,0.770968339183636,0.772324462143627,0.811769331479645,0.871198901856698,0.750968219307091,0.751728797063854,0.748896268702933,0.749495173810941,0.750964752281514,0.751206512708114,0.750245011699056,0.750070996421683,0.750105484357666,0.750293299367845,0.750907520147262,0.752034168032023,0.752715211592045,0.753472719388501,0.753490272383794,0.772588278371522,0.746364864096156,0.7448091327952,0.744766311156636,0.744803634741199,0.744992607333535,0.753548905746245,0.754635229925769,0.75541503222512,0.756183706882888,0.75146015924258,0.752330413173832,0.752851973161845,0.752668883050872,0.752647544567397,0.757677072575993,0.758286767457875,0.759062947283848,0.759822879949257,0.757635365491933,0.756691384795824,0.756862047313127,0.903001883764004,0.860152738613853,0.97001095431158,0.762297942486537,0.762956516954273,0.763633758556482
0.691848772441033,0.692519026620097,0.696733418775297,0.697774358303268,0.698098572125199,0.699010437949679,0.699110798932299,0.699813258818734,0.701046320963106,0.702291901570832,0.694513013900371,0.69546787545601,0.695329908470225,0.696087719185247,0.694790373759802,0.698169683885124,0.698720725517296,0.699321097992614,0.70190021753744,0.703320775888004,0.751926895968366,0.817002590224523,0.817363537270812,0.826932843175495,0.836719955782209,0.70314846692557,0.702649293775187,0.703032944021593,0.706174881253037,0.707240887279956,0.702921561210042,0.702660205587464,0.703333908123465,0.703215981843386,0.70363695106115,0.70415496102331,0.704839984169989,0.705391156522288,0.714804127143074,0.714835692730307,0.706301785856663,0.706986582902108,0.730405756613757,0.705666914098229,0.705616944112563,0.705713952544398,0.707424671013583,0.707204100032574,0.711475070434147,0.711977040862806,0.712838694735057,0.712185906150512,0.712743257183442,0.714121380475567,0.714853189497748,0.716478162151309,0.716541168148925,0.723995729879041,0.724852947159735,0.815733144471123,0.722734052854408,0.725212087932047,0.730388767624393,0.732681258952333,0.733781545080355,0.735364639418063,0.735179386316764,0.734831368420651,0.735899549227255,0.736194130501896,0.737442806132075,0.978715854409816,0.83752255492428,1.03489045826013,0.76910651283752,0.789160411112173,0.788454319475689,0.787356942797574,0.80439838042826,0.804864037625273,0.763350518543256,0.761282002064538,0.762185870196797,0.764740857586313,0.878017054314865,0.784053352368682,0.78598346192367,0.785668302515777,0.788443189377596,1.0108289605227,0.790224258943218,0.791083413429516,0.794657588877568,0.800020625409177,0.961552099147895,0.847106409802757,0.848769858422949,0.87559930232486,0.893540161716704,0.925173184184465,0.990458136803537,0.850212520422488,0.771721481748113,0.771427938691548,0.771468619708292,0.769742201050871,0.769779074686994,0.993088272310802,0.767451177714351,0.943489007228651,0.765288323479173,0.766346235222627,0.761892266855111,0.809034780045659,1.01213554396825,0.777019103048422,0.778059224131012,0.77870897050529,0.786576196844406,0.787902601896969,1.12242304634529,1.12269457050415,0.91696704422118,1.17263320006798,0.820922136687985,0.899031233028279,0.840247698066462,0.844077822250384,0.870171817997224,0.769388601022771,0.753856673245757,0.755984006079288,0.749837143624558,0.750639766119408,0.750392723945241,0.749913575954436,0.750203345556884,0.750506013993755,0.751250963622229,0.751795022477247,0.752525518404312,0.753547924434286,0.753887795493147,0.963274413689748,0.745873143447409,0.744235310767121,0.745154953472735,0.746392259256622,0.747732990872863,0.749683142967673,0.754277178836293,0.755489121034912,0.756299955994062,0.750955024070219,0.751577787455785,0.751845336634489,0.752304904616161,0.753064281956863,0.754974891238353,0.756354118397766,0.759430819590741,0.760249692140668,0.760049648850183,0.757357925828788,0.757316138547017,0.970290936478482,0.827817554865141,0.797460481156771,0.761754047992119,0.76366071409088,0.764420391670447
0.691803461886437,0.692464766175884,0.696272644493454,0.69715110303863,0.697333523319295,0.697548663263857,0.697489859456498,0.697282106671026,0.849779824397254,0.692478716946705,0.693466037295384,0.695822604963076,0.695933034183623,0.695578633630325,0.696299465316933,0.697491250568801,0.697976585790472,0.698386892691938,0.699562895240716,0.735331060818066,0.685973959400226,0.685691783542315,0.684852605043971,0.696291808844886,0.697062355523275,0.69914452532436,0.700864080275739,0.700881758075572,0.708443584595485,0.708563961827991,0.700677782420722,0.70085710742579,0.702706117352154,0.703276438043618,0.703799588257927,0.704930979223787,0.705007738499613,0.705458042474711,0.713224424982601,0.709161793503176,0.70597083958802,0.702720932340791,0.704667475150814,0.70445688219259,0.705334644332043,0.70574722663203,0.707354864384783,0.709130154878216,0.711021862350398,0.71139575749326,0.710806971134103,0.70957510718569,0.710232570210856,0.713354579249476,0.715076860606376,0.714112603701473,0.714835496535355,0.897427698619176,0.716007027523263,0.716439455654492,0.723234975148554,0.724626950105177,0.728351716667172,0.731174670171638,0.733290070460387,0.734184151522877,0.7343603727289,0.734300732163457,0.734222968176684,0.735391682390036,0.762379670968736,0.866663593744105,0.750462180475711,0.843657127312616,0.85006740192606,0.860410391693831,0.789722415046892,0.787539364583208,0.80506420373548,0.805262542345702,0.764232698266769,0.758435778505327,0.801856767705228,0.802653179238028,0.878192556157388,0.877005726918213,0.785986281066273,0.782259261363123,0.95164242199299,0.786512112504404,0.788403948278888,0.790690841613565,0.824671530580011,0.832530383426663,0.840797266702166,0.826750894465735,0.851604009568865,0.854937034543461,0.790116910968845,0.884429725940213,0.920496529073992,0.772708703879653,0.772041171136587,0.771834244508911,0.772191210639076,0.76928125073766,0.768695804677092,0.767036793937355,0.765402689097562,0.756106232991244,0.757126772278501,0.757789362384458,0.757004314098091,0.756340484917848,0.815662708789451,0.987693968284243,0.997612916803586,1.14087643489479,0.787037293742118,0.793914685302411,0.796356068384824,1.19235072941028,1.19102717734856,0.781733491021141,0.782615318460102,0.78316891807699,0.835346535233413,1.19425970138416,0.838426107600266,0.766329844913348,0.759099254214809,0.758828580354964,0.760114998603465,0.749404811423487,0.750024195171664,0.750092283800195,0.750222642616595,0.750672579874952,0.750726112032905,0.75134879187155,0.75189702442315,0.752926383152194,0.753017233784092,0.752548553676437,0.743558068978323,0.744573013600774,0.7453311150031,0.745870001792466,0.747413368488129,0.748701781660072,0.749999772165209,0.755448279723557,0.756223221687219,0.751288582790362,0.751113640984408,0.749212895644763,0.751349743518391,0.75262717384568,0.753506096241592,0.754903059371287,0.756902464228877,0.759729750055149,0.759344103172429,0.758424790850973,0.758445238345279,0.758611507287557,0.758498421012687,0.757139830472862,0.867053875664318,0.764164558167377,0.764765224706556
0.691273227859228,0.692093013202566,0.694604926376295,0.695346623741645,0.695746138107132,0.696023859492015,0.69600109272115,0.69657377823208,0.69215448628888,0.692084210260107,0.692190098481147,0.692240010312767,0.69302707125566,0.694979917967911,0.695563946067041,0.696613403809561,0.697153661457727,0.698086298094118,0.698168288450122,0.697529397723573,0.685929186411037,0.686010367191977,0.833175185038329,0.696122592956074,0.697014128928091,0.700012448091118,0.700696383434935,0.701393276965356,0.69585125900747,0.696009423866554,0.70127175881396,0.701537153965048,0.702762280651879,0.704052030689731,0.704621922135815,0.705523588447762,0.705234680625834,0.705877076403968,0.706153134048388,0.706493447747541,0.706185624900246,0.700261432447565,0.701331380114503,0.703669631860521,0.704217914005169,0.705814292285343,0.707152521597613,0.708498782249096,0.710214642949908,0.710718792862641,0.7092352896778,0.708923707680037,0.70895472211983,0.709032876604159,0.709857650839849,0.712071925605359,0.713364070528399,0.713480752992476,0.7162191540857,0.716855548774326,0.723847852062486,0.725751418732823,0.727204247938386,0.728239686841298,0.732039103551048,0.733097893119723,0.733719092328097,0.733951195977347,0.734342153363387,0.734717416066837,0.735333736542043,0.843317320058468,0.74933393461555,0.853969422120606,0.86174621051447,0.862045229756588,0.790768629990036,0.789842911041477,0.791340687173661,0.755345717243049,0.751633919133058,0.750525871347774,0.755121810771264,0.757709692363534,0.773279644893345,0.775471024253565,0.775504868707879,0.776322063065578,0.996575322934949,0.783464608303302,0.78570080969343,0.784855309360389,0.785093011258515,0.788754907824103,0.832500829083261,0.896613210425592,0.872428022155889,0.895043618077495,0.785664638598039,0.78366173093106,0.783168409647761,0.775392011280764,0.774058229877803,0.773946260454759,0.772046066896393,0.769832440319764,0.768352919214578,0.76537430971556,1.02159970481397,0.757282486904477,0.757146121626448,0.75648253260144,0.755972813724597,0.755663837630968,1.00709052239688,1.0060178402641,1.00283701240362,1.0203505307552,1.04457735355701,0.792466131114816,0.794466947993218,0.795492096574117,1.11022262446485,0.784703404281127,0.785693444993417,0.787984192919722,0.826574725513351,0.855727325080383,0.794409505537828,0.886627174423217,0.771435228137884,0.982406528428074,0.765680914072793,0.749645276325686,0.749804958183872,0.749864792515064,0.749999302745987,0.750390799594047,0.750072960168322,0.750618893474293,0.752340286872236,0.752661958681574,0.752875229226172,0.752407672947902,0.811990002656042,0.745923975327806,0.746032043404024,0.747227465715802,0.747300856803248,0.747994024437556,0.748431432568105,0.755516710828678,0.755501705063209,0.749774236192878,0.748494941257433,0.750425962302957,0.751303095475654,0.751962007418122,0.753027117487796,0.753728136376299,0.756413629805495,0.757316833843133,0.758380554581668,0.758550790804585,0.760612624036016,0.760690322739064,0.759665174874643,0.758487616432372,0.76029798232854,0.762591031607845,0.764196124860386
0.685755393608851,0.68594286960483,0.692043039421684,0.691659603380447,0.694197323555697,0.694475751552455,0.694272124497433,0.69435660011659,0.690838165803588,0.691584730591458,0.692026372360896,0.69186455804189,0.692964347292468,0.693727269114583,0.694162979047331,0.694473267460397,0.696051386531607,0.69707082424807,0.697594017601239,0.696854879232953,0.696017242155855,0.694544174254402,0.695137537435514,0.694942485249081,0.69489795354026,0.70145165346054,0.700721029784199,0.701190937396252,0.700139299673104,0.698905762339104,0.699581818030708,0.702094243354737,0.702476214885812,0.703714881589533,0.705445161612783,0.705594212454487,0.704756144368321,0.703333065047891,0.705842284979061,0.70591613375608,0.699087592264363,0.699430461641371,0.700718952556978,0.703134711306455,0.704161872340834,0.706289732336535,0.706886623581668,0.70764462454222,0.709766618242181,0.710123766512864,0.70871319558417,0.709315081290499,0.709081099399639,0.709340751800867,0.709858491560624,0.711147316405988,0.712489861871768,0.712331321850178,0.71759880962576,0.718672271974208,0.724138821385833,0.726091653771115,0.72668180942984,0.727670575242284,0.730690997875876,0.733027842146612,0.733559676827081,0.733740994949538,0.732619748253129,0.733413405871453,0.733728806747268,0.734081037906814,0.752927495526743,0.754246559711944,0.8628001005045,0.787907639967025,0.790067136170568,0.78947766584886,0.792477429990258,0.750938533604652,0.751248685867441,0.75121927630917,0.753025426425044,0.805844464229219,0.838163117278737,0.773887564123198,0.774520934233168,0.774754307700948,0.781797488848822,0.782654531580516,0.783703099106403,0.784502887237187,0.785020009384711,0.787358603079181,0.788798201383835,0.788983064154315,0.787764678837234,0.786150385851597,0.7861948522816,0.780664544086888,0.777693165202537,0.776316896029659,0.775784639637091,0.77605793996911,0.777991304335495,0.779316300329742,0.813545936977627,0.906556809274116,1.02025857956806,0.758372051641712,0.758143315546268,0.753002227997639,0.755451040026205,0.755756497006364,0.984830194875798,0.806389362293337,0.959778622284776,0.998564296281126,0.806491166438197,1.06339773700086,0.795768685017784,0.79670528669108,0.796961942385377,0.786229927089031,0.786377530675361,0.799660209059308,0.816349052068608,0.804038263758596,1.22987682673737,0.817506520323392,0.772970927677697,0.771500332305192,0.76862988278876,0.834864412012994,0.74940234522123,0.749320478392212,0.74944072646136,0.749541330433615,0.749137658216407,0.749226806657273,0.751601800005936,0.752245012844281,0.751993268553844,0.752403023723511,0.812557333185074,0.786511502891586,0.755847605690234,0.752475803949807,0.747608963460882,0.748122716785709,0.748364838567432,0.75493921469125,0.767946271816595,0.764509760117823,0.752585121189431,0.751047543665067,0.751221384974266,0.751329884547591,0.7521484466272,0.753883763452846,0.755253503907281,0.756996771075835,0.758570481253933,0.760198370992933,0.760986949287775,0.761695702746139,0.760757435569049,0.760122281326717,0.76075296958164,0.762264436061451,0.763265918427142
0.686046998289132,0.685894890974467,0.689669811014339,0.690135684472328,0.691631190506862,0.692112168663392,0.692481871209889,0.692279986345577,0.690381615650945,0.690710553692227,0.691191263212035,0.691404505977002,0.693104676018308,0.693773588857748,0.693998512380952,0.694348587450615,0.695354678673018,0.69600846175905,0.697325453391278,0.696995960147188,0.696513457896843,0.695175417007468,0.695049744813571,0.695681664283476,0.696082560430715,0.698563774169637,0.6996756574088,0.700769333203552,0.701298310317801,0.699954150004259,0.700037436425712,0.701037661239659,0.70293389309017,0.704882242451569,0.706177136953335,0.705626474690035,0.704961602010976,0.701688606243664,0.700602737578149,0.705329349327742,0.699497579746587,0.69969029152402,0.700327569419362,0.702606648673147,0.703948138101905,0.705778203379125,0.706438387680427,0.70783569118388,0.709563419091497,0.710662625614669,0.710285889421794,0.710216354043959,0.710576268397746,0.711116184155549,0.710768143048298,0.710625551383154,0.712183808157513,0.852622067606717,0.716409918644741,0.718736964417646,0.721028788050844,0.728141916880819,0.727204089493651,0.728090049828223,0.729565654581517,0.733316008947524,0.733650943551404,0.734338294779293,0.732602458621342,0.733949025036992,0.734615436277202,0.734741448405507,0.760459430629615,0.757519525768024,0.865665487834371,0.86270633612099,0.817291510857477,0.791893250442477,0.795114516213496,0.751962341373484,0.751851190006223,0.75226018561196,0.752979351790788,0.805957763549905,0.788169063290284,0.771456932386074,0.773510391360848,0.774549165501274,0.958811667635487,0.78184455824239,0.782564304255259,0.784105342650756,0.784422977130963,0.785966427754338,0.788088412522611,0.788773356954035,0.787688183555755,0.786043458424894,0.785437109623368,0.782356423600615,0.776192091657436,0.776449004628943,0.776455225278979,0.776093496388883,0.778439638487055,0.779363232166463,0.838991895594226,0.851408792086956,1.02103634675693,0.834063476170595,0.942249156225669,0.942005639067912,0.757107443397395,0.757535297128689,0.983902590980646,0.771131113306258,0.95925880519558,1.00963740660914,1.00121008900728,1.00313989339062,1.05609275211398,0.797571027590668,0.797474675730018,0.790149222689789,0.896528351345492,1.18753164507042,0.839371240171491,0.807031642766688,0.807718193907488,0.808119725183996,0.772941261725184,0.772819173980333,0.770555356418028,0.77885592859378,0.74932954574804,0.749005380018583,0.748962129408838,0.748830992819586,0.748304214703366,0.749607942280494,0.750637186963581,0.752260094033508,0.752711053595394,0.751606376668704,0.751844110938919,0.763723254080859,0.764966206670979,0.764691330960856,0.747580643602963,0.748355915455534,0.748662808954323,0.755245970483659,0.78220569718194,0.857067846505856,0.788956658678378,0.751037332963118,0.751077962296105,0.750677734896002,0.751298459163482,0.751622939103895,0.755211510715993,0.75678168276202,0.759124450428148,0.760598165535982,0.761647474494996,0.762142495966138,0.761603364767404,0.761668733642721,0.761362066161448,0.761927388682314,0.762394343061043
0.687475312474274,0.687587452020458,0.688515920668457,0.689871422065832,0.690486567008297,0.69129430908772,0.691036772005651,0.69126609372194,0.690901496217499,0.690808373425867,0.690293054606659,0.690875199097706,0.691491723582366,0.693003802951864,0.693760509946137,0.694506139695158,0.695132377890551,0.695792778053586,0.697011930803152,0.697401091603954,0.697164429325476,0.696104096491144,0.695520410256647,0.695398996675957,0.696821191936412,0.697477995057098,0.698625703877387,0.699254722749383,0.699807035536356,0.699810398201849,0.698633437735875,0.698183151505635,0.707504634543532,0.707305621464823,0.707475581734619,0.706614499003603,0.706865225138755,0.699419699833169,0.699708957957798,0.70114048449941,0.700425068086771,0.700364733077887,0.702087291436521,0.703243896287809,0.703327334446859,0.704023250718767,0.705191687688378,0.706956232761413,0.707977125307959,0.711339739025869,0.71174100784822,0.712064913644179,0.71271112794138,0.712926313679404,0.711477998265454,0.711793153358149,0.712651768819392,0.712995858865655,0.715561015301741,0.717518755567477,0.720455848667934,0.721335477413695,0.728334557455588,0.727316219548153,0.729259927928663,0.732150439946296,0.733754031906282,0.735260214931397,0.734201884681558,0.733685074858234,0.734656673836103,0.734917104157762,0.738530433112706,0.739391179775565,0.762017277654508,0.863334641597003,0.8294580725367,0.850233090926333,0.792023946898588,0.749081828522533,0.750139641180365,0.752099358920568,0.757517272473357,0.758014031360315,0.812193303487144,0.769970106545639,0.77304000196176,0.773796116021871,0.776234542150134,1.07112693810376,0.782356217280104,0.782878255927872,0.784859836919846,0.787113534161653,0.788142960003883,0.789299058064869,0.787701221625815,0.785690619812603,0.783896425711518,0.782644675993045,0.775696979673968,0.775671583334742,0.774492114098134,0.773760720711695,0.779165580960153,0.876587831689344,0.88047824092772,0.885010989919896,0.78754316118538,0.991612006343173,0.943573574884116,0.994699546159692,0.757808098413949,0.757867560685905,1.03493288311703,0.998559692335889,0.95894053138609,0.777147482528372,1.06773462095765,1.06780815162775,0.79530630184068,0.863162373329864,0.856995867973805,0.846439533285822,0.964509642732491,0.957988522213566,0.860990264429317,0.863914290927366,0.808614692107012,0.808421328031423,0.774136344015849,0.775124785694886,0.778796484516329,0.776771517508397,0.889867321896497,0.748039026690791,0.748462942978578,0.748576646446559,0.748690794400221,0.750175778068976,0.750320838509645,0.751968751206199,0.752031676581448,0.751920782085076,0.752135246156181,0.763703818918013,0.764861016903657,0.764567292332369,0.747910610425181,0.749272828939335,0.748943012117808,0.74847144575764,0.814743026176409,0.782023263318352,0.84739658348541,0.844929341203129,0.767798151696468,0.750633034351624,0.750517828597313,0.751525578885492,0.753733510227691,0.756810949123941,0.758614566560334,0.760024663304705,0.760866086440816,0.76209236258797,0.761649989582454,0.761776599747444,0.76144014071135,0.761541267997258,0.76224812548779
0.687961042801392,0.687960092418624,0.688417898281006,0.687484935828098,0.688584599464432,0.685532857122556,0.68923334837721,0.690694534087607,0.691007448937439,0.691423211659756,0.691032572018881,0.690723186004165,0.690787813117007,0.691715052890922,0.692565717841299,0.694075797530216,0.694750857628791,0.695348907326165,0.695634483563386,0.700588511046729,0.699531287378054,0.695364619383619,0.694294808385357,0.694813573287595,0.695475249892823,0.697457654040101,0.698360617510791,0.699975981695573,0.700380794639748,0.692854698090803,0.779858279173469,0.780269676464669,0.709720556757325,0.709116050113311,0.709069693202879,0.716373155769002,0.709565365374615,0.699271137101787,0.700120020128074,0.700646004050732,0.700025390599478,0.700042519249407,0.702102003519215,0.70279198900434,0.702469350768018,0.702197259856141,0.703390360510908,0.704153764411435,0.706301980617266,0.711970686991862,0.713176267682435,0.714008366988323,0.714394682319831,0.714511431003101,0.713953404105342,0.712609563217191,0.71318056513709,0.713716763576526,0.71554142903007,0.7165315028143,0.721800665201395,0.722014590252054,0.723024110549746,0.727381240105091,0.729339438364506,0.731267234095969,0.73389459044795,0.736237568387979,0.735851760865377,0.734522414634972,0.735839976653222,0.735755896324483,0.740544788001948,0.74070370647937,0.870076163708214,0.883690286550194,0.819886939365654,0.788890929384982,0.783705316579245,0.745024492556826,0.744677231485682,0.744534961202768,0.758222836927879,0.758139504018097,0.786120283473774,0.817101375258624,0.800769453722678,0.790519239113213,1.07200082183682,0.78217304197641,0.782383107241471,0.782894693115179,0.784361199663171,0.785561504074059,0.790026407129621,0.790238776290296,0.802824917081454,0.976029154194542,0.975870780443567,0.903787004149923,0.774948723139735,0.775576229741036,0.773916912059636,0.771957632596954,0.772133335806152,0.946691989838878,0.942696788731137,0.945119391848801,0.961023624848563,0.791186149177501,0.791465521715003,0.974542315722511,0.755957495393064,0.755776060038393,0.789989200584927,0.987328351860925,0.959268542308724,0.777100536029527,1.14551734611071,1.25951251488858,0.847404157576107,0.868635483577813,0.87043759366999,0.766987066489259,0.976180677243499,0.965134467143614,0.857093827637728,0.851469684528946,0.836094740391868,1.19938422346928,0.775220682251609,0.77736784951643,0.778791373926138,0.779087557608149,0.87881397958235,0.74833671632097,0.748319891676003,0.748118687384163,0.748562949563634,0.750281833870177,0.751213941407435,0.750668782510575,0.75010461283541,0.75032193571114,0.884175209385799,0.763977872281948,0.76458124031609,0.764435686431495,0.748421106196059,0.748399334781502,0.747964509806871,0.747359060000183,0.89450253215469,0.89874083593059,0.77869367883625,0.774698259650954,0.77789643911172,0.808976334610503,0.750890137064699,0.752040254958876,0.753609875338768,0.756124739895587,0.759024805552713,0.759280624360577,0.760774967688184,0.76104961197931,0.76124573382623,0.761665913476924,0.762002357594691,0.761888379269887,0.762694993820188
0.687960992068742,0.68872180578589,0.688007459171498,0.687770433010498,0.688059542564772,0.687243513244767,0.688854271309328,0.689684587269871,0.689891865236584,0.691831318246316,0.690095131067827,0.690332612938141,0.691045772569622,0.692097789902966,0.693008369484774,0.693378984001925,0.69453266517212,0.695398847919917,0.695654206908195,0.703341872962174,0.705074431175893,0.699292039549549,0.693989473742254,0.693760015458683,0.692618413435005,0.691769490711959,0.691798429269769,0.691349794531107,0.799346551830058,0.691702085879673,0.69151505351016,0.781054940143054,0.710528872845506,0.711609459696118,0.711968762982669,0.71364515778777,0.712536524183781,0.712072527620345,0.700228027280815,0.700340989992913,0.700164808367388,0.700321725107351,0.701051105428142,0.70196928817262,0.701788420791008,0.701422002120488,0.702104018283739,0.702166123228655,0.703568443142251,0.712087306239458,0.713212540920899,0.714521698258597,0.715487142915975,0.715480805645469,0.715282354581009,0.713087260236254,0.713590077424703,0.713484335142267,0.714411323180411,0.715721224120783,0.720331442008623,0.721702347832154,0.72429205575679,0.726568775940036,0.730417610062493,0.731989507904043,0.73446215945584,0.73625877824275,0.738217689925212,0.739443304333141,0.738036543852816,0.737883043658028,0.73993009501227,0.872424437375809,1.20781338090057,0.885186939497315,0.80875837551117,0.786405878262654,0.744988562831963,0.744852701599132,0.74605188593261,0.746401883915263,0.751127859627258,0.815981834693367,0.78681482813891,1.00775764099487,0.863570957148672,0.905704126287084,0.905076308592466,0.784656640508421,0.782723230250921,0.782774596311679,0.784080013450592,0.785606300600454,0.790092012331175,0.837144486774366,0.815283589562735,0.837995962087416,0.904934082603414,0.90523091072809,0.786584677490958,0.88152108003163,0.771393088045607,0.771292030687111,0.770708660298421,0.940591510055402,0.936935152951424,0.921231768228557,0.952481104340375,0.790923921829187,0.790788167168018,0.786626915623486,0.959142550342737,0.756928816057329,0.758160805272887,1.0165304302666,0.959794488167899,1.03944653170336,0.00403789095140877,0.864494110228651,0.856953479206648,0.875996978334888,0.864000116608908,0.753735433249284,0.755257852939096,0.755071655445294,0.755954807453621,0.755955645818982,0.757525573403319,0.793934305705358,0.809355629122856,0.778196946494638,0.779883457360684,0.780981361845942,0.749651527494657,0.749139730774284,0.748232107221832,0.747585280434875,0.748034504254214,0.749456131587775,0.751176007397564,0.750500780752334,0.74968902675248,0.750010228278337,0.759092340572722,0.761706058744695,0.763673971988536,0.88532059850958,0.856872697332459,0.746786970861378,0.747553506282207,0.747956873394121,0.748265155900916,0.999595736614259,0.775725603354859,0.776453401558718,0.778350974902817,0.856567271439858,0.751098058008369,0.752617070562884,0.753826593868028,0.756530314150669,0.758706810706362,0.760316872652807,0.759103978145204,0.759760313222319,0.760523929373516,0.761007406393223,0.762445631315501,0.763063099587927,0.763871150920409
0.687896324226359,0.687577921886235,0.687484652455112,0.687676525958997,0.689642972241981,0.689729911792371,0.689693239678643,0.689583852521181,0.689504730921566,0.690221144501562,0.690514382405147,0.69050796605926,0.691389043127132,0.692920112192889,0.693705821237532,0.694037953080956,0.694549399142547,0.694986939619558,0.695336061025268,0.695587629836084,0.699242202320259,0.69320785451565,0.69359310974295,0.693591840041135,0.691865372543159,0.691536769414807,0.691220737583561,0.690683404662787,0.687587891933342,0.687993389334421,0.690683949259481,0.795728833808854,0.870328813278086,0.713118221887323,0.71558320110291,0.716314535064315,0.718994163079084,0.72003461642987,0.740544569438222,0.813339716800572,0.75943937972702,0.706582421490915,0.697702934050414,0.699060315887975,0.700453448140377,0.700613917784248,0.701513062563473,0.702123748671837,0.703735406166153,0.705251980308022,0.713976280674852,0.714222450344598,0.714839191568573,0.715039839841875,0.715235508872359,0.714881931219938,0.714393206732874,0.713887170195399,0.714671602743891,0.716206931125177,0.719092034479445,0.72120131914884,0.725653190566172,0.727552281661192,0.732573235016398,0.734139564342654,0.735617405326233,0.737471580688616,0.73958242801952,0.741163836901444,0.743247775391116,0.742322975783154,0.741816935275507,0.742416924012656,1.2068801070109,0.885631828362666,0.799892344091671,0.791047399540427,0.744720786228209,0.743484868035267,0.744913948801726,0.747238432233098,0.796407603062493,0.751041775188387,0.751816925404472,0.825155573298295,0.826394356089797,0.826492734334355,0.843256248518181,1.06374559006724,0.784047506198768,0.782479257715709,0.783770910825567,0.905759289161542,0.791030706740553,0.793029985470854,0.79446863518377,0.794866425647888,0.795553904108711,0.795780144712669,0.873858280675981,0.893996571679607,0.771234870620163,0.772108867178554,0.771007856899454,0.770764761790547,0.825726284205662,0.938010643647655,0.93874083802315,0.791745240839616,0.79187431991956,0.973214644953393,1.02031441768974,0.75516106145722,0.755178202443563,0.747609383020739,0.747239253488195,0.00352047729519304,0.70259132320165,0.871837908911672,0.855786042651505,0.856191205030727,0.8622858019619,0.754583527881185,0.755305487473696,0.755690796112626,0.756388124044276,0.756796820175893,0.757702793834457,0.757788591247678,0.737937186850538,0.785745642570235,0.814249731149639,0.831310993916557,0.749631912365415,0.748163931394527,0.747819773407654,0.747513250460891,0.747727288014315,0.747759215726875,0.748469933020172,0.749357970360625,0.749249148575076,0.883021343485838,0.757252240476787,0.759077861434696,0.76272519543816,0.859757361196241,0.741376199822248,0.744311015879342,0.747036970006455,0.747820234437356,0.889598493557836,0.889774607914863,0.775620375053127,0.777121356647626,0.778295383791165,0.776975815576038,0.75077902402761,0.751993887666698,0.753535224994065,0.755851268430153,0.758506821988898,0.760074359554836,0.759009352710645,0.759318329491565,0.760218198842582,0.760928363404041,0.761903862084972,0.762997530881784,0.763417201371869
0.687916101687713,0.68779549449384,0.686914742331659,0.687112505206033,0.690841580775575,0.69069658882352,0.690458317188817,0.690825034827477,0.688691300083697,0.688744348220915,0.689440676200284,0.690005404441217,0.690090517999559,0.693135654212396,0.694393600630562,0.694666085113105,0.694748640583773,0.694944761730284,0.695087170986138,0.693998128562117,0.693046338878172,0.692741067419796,0.692870283396359,0.693189572784214,0.692472791934349,0.691172960112785,0.690550227484277,0.689589672401229,0.688430221802562,0.688400251969061,0.689191415681235,0.893338256812603,0.937813005117814,0.717681842391426,0.717094382253581,0.716919162410735,0.727272498132502,0.739921642393099,0.761732941749131,0.814174578524167,0.758608763272612,0.703759136948564,0.696511843677101,0.697481085134119,0.699127709020451,0.700467330827258,0.70122201892786,0.701795054002092,0.703607635658746,0.705124163592949,0.706886089755202,0.711758353907493,0.711972263745053,0.712400080279655,0.715616851078692,0.715823353758581,0.715185174905178,0.714819386430596,0.715584449514243,0.716805666953234,0.719247933911741,0.722300605811382,0.724780045969625,0.729666622376643,0.732072616292546,0.733925703291123,0.73639217681521,0.738396805407486,0.740831645812449,0.743881589201256,0.745003503200482,0.743962804255721,0.741971839155045,0.742800299164224,0.749635871592399,0.750518741537675,0.751484388382236,0.751187924775974,0.797306933794222,0.740200274238206,0.746401818731811,0.748986400738655,0.748730901955788,0.749228681823024,0.749199666677183,0.828141367193726,0.827653168685112,0.828384258425367,0.84370113584331,0.788042861620586,0.98223242133272,0.973546278131324,0.973682966687117,0.787901205187156,0.876318740096359,0.79426839618704,0.794955758065236,0.795614766660369,0.796089201380406,0.796137308215997,0.813925967762472,0.882248539906354,0.771642819240343,0.771842187645778,0.771699189805646,0.771224275993715,0.770734974384025,0.770444503182821,0.954035163746557,0.943120143463515,0.886991981849577,0.971268786721844,0.949615878712898,0.754643728539408,0.755028783539494,0.747835510703707,0.747349128551273,0.700767569856486,0.702859167930904,1.12521440216443,0.693920397718173,0.856758796371486,1.11945684255625,0.861214611588919,0.755075843418671,0.7557157090604,0.756521698066926,1.19699410905452,1.19775030476796,0.737599154319415,0.738109916655734,0.736498424667324,0.847558654794019,0.846730790966504,0.829395194385342,0.746017184790138,0.746904565267798,0.74647245961725,0.746654066799418,0.747105195720289,0.748869562328014,0.748888251504596,0.747300171486815,0.746960197663252,0.748112298245003,0.749116113100642,0.747777523118305,0.741800476868121,0.741250073459211,0.743967262144655,0.746196199793713,0.748162269023693,0.752897016832852,0.889001198268445,0.775933068183207,0.777199551013379,0.779120080443194,0.865114374273402,0.866553296178948,0.866498979861016,0.753832084044702,0.755185291123883,0.755865267667149,0.758036889708906,0.758684797556747,0.759205324628149,0.760093160663164,0.760832273033603,0.763047146236872,0.764135301094309,0.764108710436012
0.687461415994117,0.686972544385703,0.68770103095831,0.688339226244881,0.690297947462315,0.691416499550059,0.690737935600538,0.691207483145398,0.688908963212966,0.688357234090449,0.688614506940895,0.688800960072652,0.690005264641415,0.691360025740654,0.69415302518597,0.69454607357255,0.69479145942334,0.694207418848854,0.693014319933832,0.692543366310307,0.692513380005142,0.692508357157481,0.69247983009089,0.692856595523495,0.69233058365734,0.69140877020959,0.690067837201134,0.688462926670898,0.688061293794139,0.688518259793218,0.688615809864053,0.688531534193439,0.823406213834389,0.823714450728208,0.717796916172153,0.722291622637479,0.750675428526154,0.773594145023584,0.690161121382709,0.77927412249029,0.765262031285987,0.76575918171868,0.828289921848191,0.695630672492119,0.696025129477918,0.700857010547599,0.701218345839458,0.701535650117943,0.703214825960853,0.703777499433255,0.711154508104874,0.711352642342845,0.711652729117882,0.711153274269319,0.715316694293876,0.71510734388297,0.715622895124942,0.715656504589415,0.717354732580474,0.718801529224641,0.720617977242477,0.721562349334259,0.725940110530664,0.762570643240027,0.73634521393984,0.736386878039914,0.73759865516451,0.740291401830355,0.744760750499039,0.746249887665317,0.747006041833924,0.746762044681774,0.741613468946387,0.748380278242502,0.749165449610256,0.749919635298975,0.741475904391603,0.736779092474558,0.739167843127964,0.739197463309284,0.738445200787739,0.796288271945275,0.796584598507942,0.746964697708482,0.773917339409825,0.828805413130268,0.828318099439688,0.856016047917789,0.819878529212655,0.819923549926203,0.955023280672407,0.973383840634248,0.80020004561024,0.78597402439441,0.787731523237073,0.817206973198429,0.794719890681568,0.795369911855539,0.796181249096049,0.796423084231278,0.85456497261524,0.876270554289586,0.90371555727308,0.77137821380042,0.771958448967377,0.770803004559633,0.770324443609809,0.769152011933052,0.888940538662147,0.887945072813205,0.964021032801488,0.783535190949218,0.753852267937175,0.754545058774602,0.754605802781286,0.748271424783404,0.77134925004337,0.827074113784104,0.685158740680731,0.685139257939977,0.685116435346976,0.685347526339693,1.12889330098289,0.863577348226426,0.753784391234895,0.729482234172145,0.729317722475727,0.729145587274624,1.19655292503395,0.735509318971,0.734635221199864,0.730217902857804,0.823466583454737,0.72090506244109,0.850498096835423,0.745772983413652,0.746648185454667,0.74650352726181,0.746529321674217,0.745885721229415,0.743199837627128,0.744443582988126,0.746113206977104,0.747380578810961,0.748936910659945,0.749323345429072,0.74665132446318,0.741954596078184,0.740567401643663,0.741598040204467,0.747256706837588,0.749765743321932,0.752935670063521,0.755101800641466,0.762729422634768,0.778517771574288,0.7800166570626,0.942360594252954,0.770802665106604,0.756913440306238,0.756461843349147,0.756025921195372,0.757030776697857,0.758883141721069,0.758890473067146,0.759536488896518,0.760221081312962,0.760731455175081,0.763253181341465,0.76596776862148,0.764630367068165
