1.06472, 1.11516, 1.10173, 1.1046, 1.14888, 1.21305, 1.1173, 1.11953, 1.04056, 1.08317, 1.12257, 1.12599, 1.13301, 1.208, 1.14815, 1.19781, 1.09628, 1.22322, 1.33782, 1.13647, 1.24001, 1.21568, 1.28397, 1.31933, 1.20581, 1.20478, 1.20376, 1.20527, 1.20777, 1.26248, 1.22436, 1.22198, 1.22358, 1.22699, 1.45134, 1.53649, 1.40383, 1.49294, 1.47272, 1.47423, 1.31372, 1.47355, 1.54259, 1.31564, 1.3162, 1.31728, 1.37925, 1.41946, 1.3983, 1.56366, 1.36229, 1.36497, 1.36419, 1.50915, 1.43481, 1.50162, 1.35785, 1.35776, 1.33359, 1.3331, 1.44178, 1.42644, 1.45182, 1.431, 1.32083, 1.34039, 1.19478, 1.27561, 1.27797, 1.28851, 1.05262, 1.05046, 1.06545, 1.07684, 1.04846, 1.09735, 1.05727, 1.05022, 1.07711, 1.10584, 1.16992, 1.21684, 1.19941, 1.13295, 1.11108, 1.12284, 1.11435, 1.14508, 1.14845, 1.17124, 1.2503, 1.20895, 1.27012, 1.35626, 1.36778, 1.37789, 1.33908, 1.34088, 1.32394, 1.32292, 1.39903, 1.37857, 1.36335, 1.36156, 1.4086, 1.40789, 1.4268, 1.42504, 1.4218, 1.43306, 1.42568, 1.40923, 1.40738, 1.41816, 1.42573, 1.42551, 1.44042, 1.45098, 1.44969, 1.42707, 1.4277, 1.4686, 1.4029, 1.39207, 1.39159, 1.52918, 1.44043, 1.3799, 1.34126, 1.37131, 1.36463, 1.37887, 1.46547, 1.465, 1.40836, 1.38109, 1.38184, 1.36019, 1.35836, 1.31401, 1.32986, 1.31612, 1.32507, 1.37786, 1.33378, 1.28751, 1.27968, 1.23266, 1.23265, 1.20917, 1.21053, 1.20591, 1.18355, 1.17252, 1.16557, 1.16694, 1.21374, 1.12335, 1.12258, 1.13571, 1.13771, 1.13883, 1.13886, 1.15701, 1.13177, 1.13021, 1.13177, 1.14124, 1.14988, 1.13821, 1.13842, 1.14017, 1.14361, 1.13399, 1.16234, 1.18485, 1.1853, 1.20813, 1.20651, 1.21585, 1.13082, 1.13248, 1.13892, 1.14366, 1.14686, 1.15468, 1.15408, 1.15691, 1.15994, 1.16765, 1.16801, 1.17246, 1.17667, 1.18044, 1.37844, 1.28172, 1.25335, 1.30834, 1.31032, 1.21382, 1.21441, 1.30487, 1.23695, 1.23576, 1.24287, 1.24099, 1.24408, 1.24668, 1.30637, 1.39198, 1.38151, 1.34974, 1.34911, 1.29932, 1.29901, 1.4221, 1.39978, 1.30619, 1.30873, 1.36405, 1.28948, 1.42741, 1.3023, 1.30213, 1.33508, 1.28076, 1.28079, 1.28013, 1.26697, 1.26679, 1.26352, 1.26408, 1.27124, 1.27126, 1.2706, 1.276, 1.27405, 1.27251, 1.27285, 1.27544
1.19639, 1.06352, 1.06639, 1.09187, 1.04217, 1.04417, 1.04299, 1.1346, 1.03664, 1.0224, 1.02186, 1.13404, 1.16168, 1.1307, 1.20011, 1.20277, 1.22104, 1.22246, 1.13531, 1.13264, 1.1415, 1.20692, 1.20846, 1.29962, 1.20121, 1.20276, 1.20385, 1.20396, 1.2061, 1.39754, 1.22078, 1.22056, 1.22256, 1.49841, 1.50584, 1.53728, 1.53586, 1.48252, 1.46094, 1.49148, 1.5369, 1.4772, 1.48875, 1.31971, 1.31889, 1.31873, 1.32024, 1.34986, 1.39938, 1.57486, 1.62418, 1.3776, 1.36243, 1.4471, 1.45107, 1.36061, 1.48964, 1.3607, 1.33798, 1.33612, 1.39546, 1.4437, 1.44708, 1.29872, 1.31665, 1.2291, 1.45522, 1.28981, 1.24518, 1.0752, 1.12556, 1.12562, 1.0125, 1.01246, 1.07118, 1.02611, 1.04709, 1.05738, 1.06921, 1.09753, 1.1544, 1.215, 1.2167, 1.16529, 1.18973, 1.19658, 1.15511, 1.15829, 1.16604, 1.23294, 1.24448, 1.26149, 1.35251, 1.39591, 1.33481, 1.33485, 1.38125, 1.34929, 1.34724, 1.35208, 1.36261, 1.37396, 1.38757, 1.40185, 1.39253, 1.42069, 1.48066, 1.41236, 1.41276, 1.42645, 1.42692, 1.43326, 1.41976, 1.43354, 1.43602, 1.43355, 1.49318, 1.49957, 1.44997, 1.45752, 1.44076, 1.41489, 1.39572, 1.39425, 1.40218, 1.43253, 1.46191, 1.41265, 1.39546, 1.38272, 1.35846, 1.36174, 1.43699, 1.43791, 1.41791, 1.3886, 1.36386, 1.3645, 1.34358, 1.3276, 1.3167, 1.30899, 1.32959, 1.32889, 1.31139, 1.30613, 1.28479, 1.25465, 1.26077, 1.24897, 1.21885, 1.20663, 1.21345, 1.21167, 1.16986, 1.17043, 1.12629, 1.12146, 1.13057, 1.13105, 1.14029, 1.14084, 1.13221, 1.12578, 1.12906, 1.12927, 1.14738, 1.14513, 1.13354, 1.13339, 1.13557, 1.13481, 1.14578, 1.15044, 1.17681, 1.10957, 1.25816, 1.21184, 1.21364, 1.2034, 1.13042, 1.1354, 1.13955, 1.14099, 1.14636, 1.1484, 1.1544, 1.15586, 1.15993, 1.16901, 1.16855, 1.17254, 1.17716, 1.17733, 1.24006, 1.46715, 1.23601, 1.23775, 1.3055, 1.26016, 1.31393, 1.30899, 1.23798, 1.23809, 1.2412, 1.24272, 1.24409, 1.25607, 1.36455, 1.30572, 1.40186, 1.33097, 1.35887, 1.3637, 1.30344, 1.32593, 1.37599, 1.3435, 1.30704, 1.30637, 1.29258, 1.29306, 1.3026, 1.30268, 1.34228, 1.37653, 1.28306, 1.28089, 1.27098, 1.26152, 1.2604, 1.26429, 1.67714, 1.67647, 1.28419, 1.27532, 1.26895, 1.26858, 1.32366, 1.2729
1.20081, 1.20537, 1.07392, 1.07404, 1.09064, 1.08646, 1.04627, 1.13034, 1.13079, 1.02391, 1.02488, 1.11914, 1.19932, 1.21267, 1.09942, 1.22361, 1.22173, 1.45781, 1.22999, 1.13688, 1.14721, 1.1665, 1.3113, 1.25328, 1.40063, 1.19993, 1.20111, 1.20378, 1.20524, 1.41248, 1.22166, 1.22054, 1.22198, 1.22394, 1.24639, 1.24643, 1.45197, 1.35072, 1.4708, 1.4613, 1.33732, 1.4784, 1.48026, 1.50677, 1.31974, 1.31882, 1.32052, 1.47437, 1.60991, 1.46812, 1.39493, 1.38565, 1.36136, 1.42022, 1.524, 1.6037, 1.51945, 1.53001, 1.34317, 1.3427, 1.40961, 1.31716, 1.37591, 1.34173, 1.38925, 1.44381, 1.26097, 1.21272, 1.23302, 1.19081, 1.07415, 1.07296, 1.03044, 1.07111, 1.01943, 1.01827, 1.01726, 1.07003, 1.0707, 1.09919, 1.15688, 1.21693, 1.17227, 1.14426, 1.17493, 1.23565, 1.18736, 1.18877, 1.19819, 1.19812, 1.22273, 1.34707, 1.34651, 1.37875, 1.3779, 1.45466, 1.37025, 1.42784, 1.35293, 1.45909, 1.42063, 1.42555, 1.40384, 1.40723, 1.40821, 1.40961, 1.47937, 1.47926, 1.42074, 1.45353, 1.44957, 1.46392, 1.4487, 1.45074, 1.44697, 1.44434, 1.45297, 1.46528, 1.49057, 1.46769, 1.46247, 1.48092, 1.39784, 1.40258, 1.40215, 1.43671, 1.436, 1.43636, 1.42047, 1.39993, 1.38062, 1.39897, 1.41955, 1.40532, 1.4021, 1.40678, 1.3995, 1.37173, 1.36785, 1.36579, 1.31001, 1.30487, 1.3446, 1.32169, 1.32239, 1.37738, 1.31961, 1.31217, 1.31196, 1.26013, 1.27481, 1.25152, 1.27113, 1.23109, 1.16799, 1.16043, 1.13243, 1.13183, 1.13179, 1.13556, 1.1366, 1.14987, 1.12969, 1.12922, 1.12673, 1.12682, 1.14989, 1.14936, 1.14648, 1.13043, 1.12717, 1.1338, 1.13933, 1.14486, 1.18185, 1.19256, 1.19313, 1.12695, 1.21341, 1.21622, 1.21669, 1.16492, 1.13654, 1.1396, 1.14458, 1.15161, 1.15162, 1.15456, 1.15953, 1.16936, 1.16985, 1.17087, 1.17681, 1.18195, 1.22713, 1.2406, 1.2483, 1.5188, 1.24816, 1.25177, 1.30903, 1.41262, 1.24418, 1.23981, 1.24157, 1.24339, 1.24436, 1.25075, 1.2612, 1.2738, 1.27366, 1.35989, 1.29969, 1.3713, 1.44375, 1.44118, 1.38611, 1.51927, 1.48684, 1.3415, 1.35663, 1.2945, 1.29452, 1.29952, 1.34662, 1.33331, 1.62668, 1.47755, 1.27123, 1.25981, 1.25848, 1.26013, 1.72022, 1.67464, 1.26141, 1.25978, 1.27897, 1.29161, 1.28494, 1.31182
1.06172, 1.02583, 1.02609, 1.04191, 1.08959, 1.0337, 1.06114, 1.0738, 1.10695, 1.02386, 1.02383, 1.15663, 1.14802, 1.05834, 1.06378, 1.2433, 1.22489, 1.501, 1.5181, 1.18682, 1.37825, 1.37991, 1.40377, 1.26093, 1.26021, 1.19954, 1.19842, 1.31961, 1.2064, 1.21026, 1.33081, 1.21869, 1.22855, 1.2251, 1.49867, 1.51011, 1.44834, 1.50805, 1.50609, 1.47234, 1.3292, 1.48104, 1.33464, 1.33242, 1.31933, 1.31993, 1.32095, 1.4429, 1.56105, 1.45735, 1.48145, 1.40505, 1.40566, 1.51905, 1.46408, 1.4823, 1.55195, 1.41417, 1.37926, 1.43657, 1.41507, 1.27244, 1.34244, 1.34878, 1.34781, 1.25365, 1.21555, 1.18685, 1.03487, 1.02949, 1.06669, 0.994893, 0.999617, 0.996433, 0.975396, 1.006, 1.01702, 1.03512, 1.05229, 1.1348, 1.13783, 1.17789, 1.18858, 1.19221, 1.21617, 1.20323, 1.19774, 1.19984, 1.21179, 1.2546, 1.2547, 1.34816, 1.34649, 1.37127, 1.38523, 1.37481, 1.37495, 1.34782, 1.40384, 1.45397, 1.45386, 1.49606, 1.55234, 1.45501, 1.40962, 1.40956, 1.40857, 1.4538, 1.43126, 1.43076, 1.47068, 1.47763, 1.55385, 1.47459, 1.45619, 1.43881, 1.46008, 1.47057, 1.61272, 1.60359, 1.60266, 1.59896, 1.46732, 1.47119, 1.40276, 1.44002, 1.46744, 1.42109, 1.41996, 1.42559, 1.43362, 1.41623, 1.41775, 1.40557, 1.40428, 1.39689, 1.39464, 1.39978, 1.35111, 1.32287, 1.32607, 1.32979, 1.37047, 1.37563, 1.46768, 1.36676, 1.34988, 1.38925, 1.31972, 1.34084, 1.3024, 1.29422, 1.2919, 1.30248, 1.18514, 1.1326, 1.13318, 1.13257, 1.13056, 1.13353, 1.19211, 1.1547, 1.1567, 1.12594, 1.27747, 1.11236, 1.11547, 1.14955, 1.12916, 1.1258, 1.1256, 1.15046, 1.14005, 1.15629, 1.17668, 1.09873, 1.09108, 1.21209, 1.21396, 1.21563, 1.19482, 1.21702, 1.15053, 1.14017, 1.14255, 1.14918, 1.15259, 1.15504, 1.15701, 1.16202, 1.17422, 1.17482, 1.18077, 1.18134, 1.24714, 1.20146, 1.51916, 1.51769, 1.23235, 1.30585, 1.31167, 1.23457, 1.24237, 1.24108, 1.24283, 1.24167, 1.24643, 1.2488, 1.32336, 1.2734, 1.27329, 1.27653, 1.34312, 1.36933, 1.29996, 1.44926, 1.41382, 1.43688, 1.40375, 1.62361, 1.51403, 1.34712, 1.29548, 1.29499, 1.46119, 1.56784, 1.33349, 1.34012, 1.32822, 1.25832, 1.25763, 1.25776, 1.61295, 1.61171, 1.26407, 1.25757, 1.26106, 1.27817, 1.27288, 1.26382
1.02089, 1.02086, 1.02361, 1.02377, 1.03227, 1.01698, 1.1725, 1.16216, 1.16174, 1.16503, 1.13196, 1.53716, 1.21589, 1.17107, 1.17321, 1.2565, 1.40891, 1.08227, 1.17181, 1.17134, 1.13332, 1.2254, 1.34152, 1.34043, 1.36196, 1.20349, 1.19786, 1.37233, 1.29744, 1.30069, 1.26837, 1.21676, 1.21725, 1.22713, 1.60415, 1.37238, 1.31695, 1.45695, 1.45642, 1.47487, 1.47483, 1.47825, 1.48062, 1.33398, 1.33646, 1.32254, 1.32128, 1.32018, 1.45179, 1.36884, 1.46483, 1.50237, 1.53264, 1.53293, 1.42392, 1.50677, 1.50946, 1.41979, 1.43029, 1.38229, 1.41042, 1.21975, 1.24335, 1.22051, 1.24176, 1.23032, 1.20898, 1.01472, 1.01254, 1.0178, 1.03854, 0.998916, 0.980928, 0.975567, 1.00008, 1.00569, 1.01996, 1.0363, 1.04579, 1.14691, 1.14689, 1.15836, 1.18156, 1.20052, 1.33012, 1.32968, 1.2717, 1.23977, 1.2497, 1.23327, 1.29662, 1.29611, 1.35369, 1.35144, 1.38044, 1.37411, 1.34659, 1.34791, 1.41019, 1.40631, 1.48488, 1.51086, 1.4996, 1.51716, 1.4237, 1.40931, 1.43334, 1.43716, 1.45726, 1.5056, 1.57833, 1.55651, 1.49288, 1.47886, 1.47794, 1.46099, 1.45752, 1.47078, 1.48626, 1.6003, 1.60298, 1.60291, 1.4708, 1.51167, 1.49125, 1.47891, 1.47862, 1.42603, 1.42031, 1.42318, 1.462, 1.43116, 1.39574, 1.42692, 1.42397, 1.39225, 1.38995, 1.37212, 1.34942, 1.33743, 1.31781, 1.32489, 1.33618, 1.32612, 1.37119, 1.35019, 1.35363, 1.3526, 1.32476, 1.32586, 1.47457, 1.4234, 1.40474, 1.29594, 1.18452, 1.18252, 1.13798, 1.13943, 1.13333, 1.13284, 1.19054, 1.14826, 1.12002, 1.12004, 1.13031, 1.11373, 1.11473, 1.11081, 1.12604, 1.12425, 1.12338, 1.12546, 1.12561, 1.17844, 1.10158, 1.09888, 1.09096, 1.21352, 1.20503, 1.21233, 1.44044, 1.21204, 1.22377, 1.20668, 1.14178, 1.1444, 1.15003, 1.15807, 1.15913, 1.16213, 1.16762, 1.18047, 1.18229, 1.18727, 1.26443, 1.24018, 1.24037, 1.2333, 1.23312, 1.23079, 1.23303, 1.23449, 1.23794, 1.24168, 1.24085, 1.2413, 1.24699, 1.251, 1.37393, 1.37688, 1.27393, 1.27787, 1.31026, 1.2909, 1.29166, 1.29869, 1.41451, 1.43892, 1.38793, 1.3287, 1.48862, 1.39185, 1.33983, 1.2941, 1.2927, 1.33765, 1.33822, 1.33524, 1.34313, 1.25878, 1.25661, 1.25811, 1.60971, 1.26476, 1.26335, 1.25555, 1.25984, 1.25357, 1.2535, 1.26357
1.0183, 1.01893, 1.0755, 1.15597, 1.14637, 1.00232, 1.00209, 1.0024, 1.00589, 1.06067, 1.12871, 1.11164, 1.19849, 1.17157, 1.04434, 1.28417, 1.30181, 1.26695, 1.23016, 1.30322, 1.16899, 1.18731, 1.19651, 1.1619, 1.18834, 1.21579, 1.33594, 1.35403, 1.20832, 1.30072, 1.21776, 1.21783, 1.21808, 1.28831, 1.50987, 1.64178, 1.32314, 1.32666, 1.41562, 1.49889, 1.47627, 1.48014, 1.48134, 1.48225, 1.46768, 1.32668, 1.32416, 1.32364, 1.32467, 1.38697, 1.38953, 1.597, 1.55618, 1.43591, 1.43529, 1.53345, 1.41039, 1.42329, 1.43374, 1.38139, 1.23655, 1.2059, 1.39589, 1.19842, 1.22657, 1.22711, 1.20819, 1.00743, 1.00169, 1.00927, 1.00229, 1.00242, 0.995431, 0.991957, 1.00449, 1.03024, 1.04425, 1.07456, 1.0643, 1.0893, 1.10425, 1.13128, 1.15436, 1.23101, 1.33342, 1.33131, 1.33241, 1.278, 1.29895, 1.30159, 1.28778, 1.34811, 1.32449, 1.36548, 1.35674, 1.35739, 1.35187, 1.37809, 1.40897, 1.43732, 1.46774, 1.49226, 1.50944, 1.44577, 1.43059, 1.44368, 1.4441, 1.42624, 1.47885, 1.55902, 1.5613, 1.5582, 1.50218, 1.48705, 1.49784, 1.47593, 1.48863, 1.49913, 1.58279, 1.57969, 1.59078, 1.65117, 1.55057, 1.50467, 1.49371, 1.42998, 1.42944, 1.42831, 1.42681, 1.47167, 1.46534, 1.45872, 1.46897, 1.48206, 1.44516, 1.43491, 1.45161, 1.36852, 1.3669, 1.37663, 1.37759, 1.34831, 1.33647, 1.36783, 1.36154, 1.3784, 1.35663, 1.34824, 1.37803, 1.37164, 1.40188, 1.40332, 1.39562, 1.24308, 1.20158, 1.17776, 1.16243, 1.15761, 1.14384, 1.1335, 1.18857, 1.17684, 1.1902, 1.11732, 1.12183, 1.11265, 1.11517, 1.12873, 1.12649, 1.12256, 1.12187, 1.12196, 1.12166, 1.14926, 1.16377, 1.10046, 1.55759, 1.18135, 1.20955, 1.20674, 1.21013, 1.16988, 1.20052, 1.13304, 1.14212, 1.14276, 1.25747, 1.23743, 1.16001, 1.15986, 1.16582, 1.26287, 1.23472, 1.21997, 1.48498, 1.24092, 1.25316, 1.2292, 1.23563, 1.23432, 1.23277, 1.23351, 1.23399, 1.23589, 1.24077, 1.24153, 1.24624, 1.24779, 1.3167, 1.31239, 1.2691, 1.27615, 1.38286, 1.2906, 1.28788, 1.41677, 1.42256, 1.46486, 1.45693, 1.35036, 1.49195, 1.60549, 1.42934, 1.66453, 1.29094, 1.29041, 1.37113, 1.37973, 1.35493, 1.34768, 1.25806, 1.2551, 1.26064, 1.25993, 1.26025, 1.25689, 1.25282, 1.25164, 1.25133, 1.25568
1.01924, 1.0185, 1.01163, 1.247, 1.00007, 1.00096, 1.00088, 1.00084, 1.00414, 1.17811, 1.08456, 1.14205, 1.17041, 1.27927, 1.067, 1.09824, 1.22009, 1.30499, 1.29969, 1.19497, 1.19292, 1.19218, 1.3507, 1.31853, 1.22294, 1.23685, 1.3153, 1.22077, 1.36833, 1.21605, 1.21052, 1.21062, 1.21223, 1.31977, 1.32145, 1.39848, 1.3243, 1.32793, 1.49282, 1.51659, 1.47896, 1.48106, 1.48153, 1.48276, 1.48911, 1.33634, 1.32474, 1.32465, 1.32637, 1.34054, 1.38464, 1.52995, 1.44491, 1.4199, 1.43458, 1.29842, 1.36165, 1.2846, 1.29599, 1.23968, 1.21544, 1.22594, 1.24374, 1.23271, 1.25523, 1.34612, 1.34681, 1.08912, 0.993995, 0.994522, 0.996186, 1.01554, 1.00251, 1.07173, 1.06018, 1.03638, 1.106, 1.0704, 1.15964, 1.08942, 1.07899, 1.1127, 1.16535, 1.21364, 1.33868, 1.34909, 1.37777, 1.31176, 1.30926, 1.30333, 1.31268, 1.41239, 1.32314, 1.34408, 1.35693, 1.35592, 1.37857, 1.3851, 1.4534, 1.46224, 1.50641, 1.51747, 1.4814, 1.48251, 1.46829, 1.44566, 1.46853, 1.48188, 1.48088, 1.5612, 1.55773, 1.56551, 1.5557, 1.48803, 1.48824, 1.49225, 1.47511, 1.56056, 1.55799, 1.60658, 1.5608, 1.56149, 1.52171, 1.50545, 1.50538, 1.43981, 1.44264, 1.44204, 1.44453, 1.44951, 1.46753, 1.46502, 1.47344, 1.54115, 1.55392, 1.44422, 1.4429, 1.37992, 1.37476, 1.36854, 1.32477, 1.34442, 1.35055, 1.38346, 1.38467, 1.3676, 1.36072, 1.36799, 1.34648, 1.41983, 1.40293, 1.3786, 1.37759, 1.25439, 1.20773, 1.18486, 1.17588, 1.16068, 1.15661, 1.12476, 1.12153, 1.12154, 1.12129, 1.1161, 1.20252, 1.1201, 1.11651, 1.11855, 1.12718, 1.12632, 1.11749, 1.11962, 1.11999, 1.17737, 1.182, 1.16125, 1.1203, 1.1205, 1.11959, 1.19985, 1.14814, 1.16038, 1.12615, 1.13056, 1.13995, 1.14107, 1.14759, 1.15576, 1.16083, 1.16211, 1.17042, 1.25771, 1.22271, 1.23018, 1.23631, 1.23991, 1.22219, 1.43432, 1.22504, 1.22625, 1.23349, 1.23224, 1.23335, 1.23403, 1.23657, 1.24059, 1.24589, 1.24623, 1.33038, 1.31136, 1.36683, 1.38494, 1.38514, 1.28491, 1.28553, 1.46857, 1.41667, 1.31411, 1.37696, 1.42709, 1.33063, 1.33077, 1.40246, 1.40683, 1.3297, 1.29949, 1.32002, 1.25242, 1.25011, 1.25126, 1.25295, 1.25317, 1.25313, 1.25438, 1.25384, 1.2543, 1.2518, 1.24891, 1.25021, 1.25294
1.19892, 1.17236, 1.00303, 1.00337, 1, 1.00072, 0.99992, 1.00033, 1.00019, 1.05998, 1.14308, 1.21096, 1.19629, 1.13296, 1.10786, 1.21915, 1.28299, 1.34489, 1.16486, 1.32764, 1.39974, 1.17738, 1.35338, 1.31757, 1.13451, 1.18611, 1.18831, 1.24738, 1.19811, 1.32246, 1.21148, 1.21185, 1.21163, 1.32089, 1.31991, 1.32019, 1.25741, 1.57149, 1.51479, 1.47889, 1.48081, 1.4802, 1.48232, 1.48475, 1.47456, 1.33912, 1.3357, 1.32723, 1.32756, 1.33794, 1.33769, 1.49993, 1.4106, 1.44045, 1.44988, 1.28724, 1.20675, 1.26955, 1.18865, 1.34068, 1.33993, 1.48459, 1.21616, 1.31461, 1.3315, 1.11104, 1.09288, 1.00276, 1.00227, 1.01695, 1.01134, 0.992728, 0.993414, 1.06351, 1.06316, 1.07694, 1.1489, 1.13911, 1.14783, 1.07856, 1.11185, 1.12031, 1.18647, 1.28226, 1.30221, 1.32266, 1.31409, 1.31148, 1.31259, 1.31854, 1.35991, 1.32137, 1.33635, 1.35029, 1.4189, 1.35712, 1.39558, 1.39706, 1.48195, 1.48352, 1.49426, 1.52142, 1.50876, 1.55068, 1.46054, 1.46147, 1.5018, 1.46953, 1.4888, 1.5481, 1.59648, 1.583, 1.54772, 1.4881, 1.48662, 1.48184, 1.51474, 1.56349, 1.58851, 1.60104, 1.56075, 1.57405, 1.55024, 1.52335, 1.46583, 1.45415, 1.43454, 1.43302, 1.43545, 1.45992, 1.49113, 1.49107, 1.50092, 1.52387, 1.53017, 1.56943, 1.43262, 1.45099, 1.38987, 1.36414, 1.35482, 1.36657, 1.36936, 1.36976, 1.37238, 1.3712, 1.37797, 1.37492, 1.34808, 1.3854, 1.39776, 1.39795, 1.49365, 1.23588, 1.20623, 1.16902, 1.17019, 1.16843, 1.17113, 1.12485, 1.12229, 1.12135, 1.17203, 1.1472, 1.17581, 1.17908, 1.13036, 1.13005, 1.12614, 1.12664, 1.11272, 1.11864, 1.11668, 1.11603, 1.11633, 1.28347, 1.15696, 1.17039, 1.11072, 1.19249, 1.3465, 1.22213, 1.12723, 1.12988, 1.13597, 1.14345, 1.14734, 1.23306, 1.16044, 1.16225, 1.17025, 1.18049, 1.27698, 1.29703, 1.25063, 1.2483, 1.2436, 1.22573, 1.23953, 1.22658, 1.2288, 1.23058, 1.23187, 1.23149, 1.23376, 1.23744, 1.24164, 1.24545, 1.24978, 1.26039, 1.2606, 1.26971, 1.42892, 1.28797, 1.45682, 1.41576, 1.41524, 1.42131, 1.42749, 1.4276, 1.42143, 1.33288, 1.43189, 1.40619, 1.48928, 1.33319, 1.37774, 1.24968, 1.24939, 1.24403, 1.24824, 1.25089, 1.25282, 1.25304, 1.24949, 1.24872, 1.24886, 1.25049, 1.24954, 1.25323
1.22893, 1.00782, 1.00288, 1.00124, 1.00015, 1.00063, 1.00044, 0.998508, 0.999453, 1.00061, 1.001, 1.13247, 1.01438, 1.13317, 1.10556, 1.04761, 1.28527, 1.13912, 1.19756, 1.14624, 1.18206, 1.20292, 1.12375, 1.17907, 1.28804, 1.23203, 1.23287, 1.19436, 1.19412, 1.19385, 1.21069, 1.2116, 1.21217, 1.23983, 1.32077, 1.32037, 1.265, 1.32685, 1.48242, 1.32582, 1.50045, 1.48154, 1.48092, 1.483, 1.45424, 1.47737, 1.63667, 1.52629, 1.52473, 1.33248, 1.33284, 1.37534, 1.25963, 1.47234, 1.46629, 1.47758, 1.15715, 1.16012, 1.17031, 1.17833, 1.28056, 1.31612, 1.24753, 1.18569, 1.09927, 1.11446, 1.03457, 1.00649, 1.0055, 0.987809, 1.00125, 0.992318, 1.04711, 1.10214, 1.10477, 1.12862, 1.1095, 1.13724, 1.13666, 1.12134, 1.12191, 1.1368, 1.15102, 1.22403, 1.30313, 1.30211, 1.35364, 1.3116, 1.32571, 1.33458, 1.33039, 1.34703, 1.35734, 1.42348, 1.35216, 1.35308, 1.40541, 1.41394, 1.44343, 1.49678, 1.49554, 1.51126, 1.513, 1.55202, 1.55244, 1.53008, 1.46682, 1.46714, 1.46788, 1.51012, 1.57429, 1.57559, 1.54512, 1.51602, 1.49986, 1.50255, 1.51079, 1.55481, 1.58864, 1.58757, 1.82117, 1.57606, 1.55473, 1.53387, 1.48275, 1.5293, 1.47182, 1.47119, 1.46957, 1.56855, 1.4903, 1.50678, 1.48184, 1.54411, 1.53038, 1.5784, 1.55825, 1.4454, 1.44959, 1.42522, 1.41875, 1.40689, 1.37739, 1.38631, 1.38935, 1.37948, 1.41079, 1.37174, 1.34708, 1.38851, 1.41956, 1.41871, 1.45178, 1.23689, 1.19045, 1.21954, 1.17734, 1.18239, 1.17314, 1.24692, 1.21314, 1.21712, 1.13973, 1.18189, 1.22081, 1.10777, 1.10523, 1.12013, 1.15394, 1.13736, 1.11747, 1.1174, 1.1159, 1.11165, 1.11636, 1.14253, 1.11939, 1.11996, 1.11133, 1.10845, 1.26397, 1.12132, 1.12529, 1.13154, 1.1342, 1.14863, 1.14884, 1.24687, 1.16667, 1.16684, 1.2535, 1.18191, 1.23766, 1.23471, 1.41219, 1.51907, 1.2368, 1.24374, 1.21956, 1.29196, 1.22633, 1.22843, 1.23087, 1.2424, 1.28069, 1.28886, 1.29908, 1.24156, 1.31871, 1.28824, 1.26139, 1.35517, 1.27774, 1.2774, 1.47791, 1.41585, 1.41685, 1.38287, 1.42946, 1.31615, 1.32345, 1.32605, 1.35885, 1.43403, 1.43113, 1.35214, 1.36682, 1.24967, 1.24666, 1.24621, 1.24508, 1.24902, 1.25541, 1.25291, 1.24866, 1.2484, 1.24806, 1.25043, 1.25118, 1.25035
1.15683, 1.23545, 1.23057, 1.01239, 1.1165, 0.997351, 0.997522, 1.00065, 0.999497, 1.00091, 1.00181, 1.11131, 1.12883, 1.14429, 1.10854, 1.10129, 1.14966, 1.30258, 1.30188, 1.29854, 1.16501, 1.10536, 1.11661, 1.4601, 1.26522, 1.23241, 1.24546, 1.21578, 1.30846, 1.28097, 1.45322, 1.2116, 1.21159, 1.57138, 1.33806, 1.24011, 1.32237, 1.32214, 1.52621, 1.33328, 1.47763, 1.47832, 1.48538, 1.48389, 1.47167, 1.44078, 1.43432, 1.52574, 1.52591, 1.33365, 1.3355, 1.41156, 0.00432924, 1.20219, 1.2014, 1.14331, 1.43891, 1.44038, 1.27552, 1.19841, 1.30052, 1.08624, 1.08706, 1.18174, 1.03908, 1.0494, 1.02351, 1.03245, 1.00036, 1.00209, 0.993497, 0.998873, 0.998806, 1.11679, 1.10433, 1.12267, 1.16061, 1.16053, 1.13592, 1.12591, 1.11944, 1.13392, 1.17104, 1.18606, 1.29246, 1.47346, 1.45459, 1.4622, 1.33638, 1.33563, 1.33721, 1.33022, 1.3572, 1.35515, 1.35613, 1.3549, 1.37833, 1.42206, 1.43736, 1.55069, 1.46486, 1.54746, 1.53157, 1.52013, 1.52964, 1.5304, 1.46614, 1.47454, 1.47358, 1.49906, 1.50044, 1.57137, 1.66486, 1.51562, 1.53766, 1.51783, 1.57296, 1.59069, 1.59019, 1.62282, 1.64874, 1.64856, 1.56105, 1.53304, 1.48036, 1.47912, 1.46797, 1.46503, 1.47761, 1.49041, 1.57206, 1.50919, 1.48436, 1.48529, 1.62309, 1.58035, 1.58299, 1.42385, 1.4227, 1.42778, 1.42289, 1.42026, 1.41831, 1.42108, 1.402, 1.40365, 1.38947, 1.38251, 1.37594, 1.35358, 1.37666, 1.43643, 1.4863, 1.25211, 1.22371, 1.21071, 1.20515, 1.1916, 1.18009, 1.19205, 1.18393, 1.21684, 1.1791, 1.1757, 1.17091, 1.16885, 1.10491, 1.14563, 1.16725, 1.13138, 1.13237, 1.11846, 1.11423, 1.11212, 1.12928, 1.13621, 1.12035, 1.12105, 1.1097, 1.10823, 1.14938, 1.12032, 1.12694, 1.13049, 1.13241, 1.15048, 1.15012, 1.15657, 1.16321, 1.16474, 1.23011, 1.25457, 1.22363, 1.2308, 1.23192, 1.23244, 1.53405, 1.5345, 1.30827, 1.30243, 1.22255, 1.33251, 1.26146, 1.26488, 1.25664, 1.2912, 1.2909, 1.27235, 1.27116, 1.32926, 1.25456, 1.32185, 1.31878, 1.27434, 1.27408, 1.4667, 1.48773, 1.37507, 1.31263, 1.31203, 1.47815, 1.34029, 1.48098, 1.46661, 1.39823, 1.47547, 1.44323, 1.24641, 1.24587, 1.24423, 1.24557, 1.24689, 1.24657, 1.25045, 1.24782, 1.24954, 1.24831, 1.24793, 1.25161, 1.25077
0.998388, 1.23577, 1.23562, 1.01796, 0.995579, 0.997531, 0.996413, 0.996389, 0.996094, 0.998467, 1.19381, 1.01413, 1.12582, 1.16189, 1.14043, 1.4656, 1.3016, 1.28097, 1.27928, 1.31436, 1.3449, 1.34025, 1.4619, 1.45942, 1.23199, 1.16813, 1.13651, 1.25366, 1.24753, 1.18876, 1.29078, 1.36918, 1.21256, 1.21841, 1.23052, 1.24056, 1.2425, 1.52274, 1.32743, 1.5304, 1.32835, 1.48112, 1.45801, 1.48679, 1.47265, 1.45495, 1.45836, 1.41772, 1.37079, 1.36228, 1.39227, 1.40735, 1.13453, 1.13951, 1.12208, 1.12181, 1.14272, 1.1458, 1.12639, 1.24081, 1.08027, 1.08549, 1.07255, 1.03421, 1.03561, 1.10679, 1.10653, 1.02673, 1.04343, 1.00375, 1.00234, 1.00466, 1.03442, 1.10441, 1.13374, 1.15151, 1.16413, 1.16463, 1.17128, 1.18373, 1.13285, 1.16708, 1.19492, 1.21363, 1.35479, 1.47475, 1.46065, 1.46, 1.45722, 1.39772, 1.36438, 1.37401, 1.4455, 1.35577, 1.35656, 1.37443, 1.42201, 1.43341, 1.41406, 1.47146, 1.5554, 1.56378, 1.54535, 1.5458, 1.49654, 1.51883, 1.46879, 1.4749, 1.47499, 1.47556, 1.53742, 1.6691, 1.62972, 1.5715, 1.53777, 1.55348, 1.64375, 1.79973, 1.83471, 1.63733, 1.63674, 1.57099, 1.49034, 1.48072, 1.47525, 1.46875, 1.48321, 1.49869, 1.48257, 1.49002, 1.53336, 1.5028, 1.48725, 1.48566, 1.57971, 1.57626, 1.56576, 1.5635, 1.46863, 1.43485, 1.43973, 1.46869, 1.43655, 1.42576, 1.49407, 1.51285, 1.50538, 1.50044, 1.39109, 1.38177, 1.35677, 1.41941, 1.41875, 1.32639, 1.25683, 1.22541, 1.21853, 1.26586, 1.21939, 1.20088, 1.21698, 1.21058, 1.26726, 1.10754, 1.10591, 1.1014, 1.10152, 1.20137, 1.20202, 1.16038, 1.16761, 1.12397, 1.11175, 1.10144, 1.10187, 1.12888, 1.12019, 1.12103, 1.10967, 1.108, 1.10949, 1.11942, 1.12972, 1.13216, 1.13227, 1.15289, 1.15273, 1.15766, 1.16258, 1.16371, 1.36608, 1.22453, 1.30251, 1.22824, 1.22541, 1.21273, 1.53647, 1.25626, 1.57011, 1.23568, 1.27442, 1.21605, 1.24126, 1.24907, 1.25667, 1.28172, 1.22667, 1.23058, 1.28883, 1.31359, 1.31191, 1.25124, 1.35429, 1.35967, 1.27404, 1.29751, 1.30111, 1.36188, 1.36043, 1.30869, 1.32001, 1.36236, 1.41579, 1.42424, 1.40775, 1.43262, 1.24694, 1.24578, 1.24358, 1.24286, 1.24105, 1.242, 1.24417, 1.24561, 1.24586, 1.24704, 1.24874, 1.24823, 1.24989, 1.24952
0.997865, 1.23508, 1.0164, 0.992687, 1.10111, 0.996255, 0.99471, 0.995227, 0.996166, 1.18569, 1.01872, 1.14182, 1.12915, 1.07713, 1.11619, 1.43646, 1.08552, 1.11938, 1.27172, 1.31208, 1.22122, 1.57431, 1.29469, 1.12908, 1.12904, 1.1356, 1.13547, 1.25444, 1.25411, 1.28566, 1.29957, 1.30126, 1.21527, 1.21811, 1.3406, 1.3303, 1.33017, 1.28869, 1.3336, 1.54879, 1.45841, 1.45556, 1.4885, 1.48795, 1.41067, 1.37765, 1.37802, 1.41758, 1.52039, 1.39894, 1.39367, 1.27767, 1.31661, 1.10686, 1.10293, 1.2091, 1.18028, 1.07873, 1.16315, 1.22026, 1.21871, 1.2212, 1.08824, 1.10121, 1.0342, 1.10708, 1.10731, 1.04381, 1.07472, 1.07594, 1.01239, 1.0396, 1.04, 1.12293, 1.12999, 1.1698, 1.1719, 1.23636, 1.15382, 1.17511, 1.16485, 1.17655, 1.18514, 1.30494, 1.34749, 1.48499, 1.40739, 1.47965, 1.43629, 1.37647, 1.34447, 1.37467, 1.35796, 1.36029, 1.38637, 1.38873, 1.43411, 1.44321, 1.44949, 1.52, 1.55741, 1.50809, 1.50497, 1.50395, 1.54394, 1.50128, 1.52297, 1.50649, 1.47603, 1.49918, 1.67743, 1.69184, 1.69145, 1.69359, 1.97179, 1.78598, 1.84407, 0.00421677, 1.82481, 1.61215, 1.5648, 1.62406, 1.50181, 1.51047, 1.50375, 1.50285, 1.47307, 1.48154, 1.49685, 1.49753, 1.50742, 1.51392, 1.50002, 1.49671, 1.58154, 1.58004, 1.56948, 1.56771, 1.43968, 1.43734, 1.47282, 1.4882, 1.42394, 1.4173, 1.49511, 1.49446, 1.47493, 1.47415, 1.47465, 1.41654, 1.3398, 1.34371, 1.40351, 1.30924, 1.31696, 1.25736, 1.25228, 1.26481, 1.22947, 1.20404, 1.22138, 1.20477, 1.15814, 1.15831, 1.1005, 1.17074, 1.10065, 1.10159, 1.22917, 1.13992, 1.11862, 1.11293, 1.11528, 1.10825, 1.10256, 1.13338, 1.12026, 1.12015, 1.10992, 1.10914, 1.11137, 1.16905, 1.12536, 1.13167, 1.13955, 1.14903, 1.15981, 1.15871, 1.16346, 1.16334, 1.2042, 1.22112, 1.21972, 1.22252, 1.5054, 1.52367, 1.36468, 1.233, 1.29491, 1.21367, 1.21226, 1.21359, 1.2332, 1.24685, 1.30547, 1.28425, 1.22531, 1.27143, 1.22582, 1.23392, 1.24703, 1.3282, 1.3368, 1.3385, 1.33957, 1.30102, 1.29326, 1.35811, 1.45196, 1.37403, 1.31114, 1.31051, 1.34086, 1.43052, 1.42963, 1.39902, 1.24377, 1.24407, 1.24268, 1.24137, 1.24291, 1.2434, 1.24373, 1.24627, 1.24432, 1.24958, 1.24837, 1.24638, 1.2483, 1.24981
0.989551, 0.991105, 0.991116, 0.990526, 0.991142, 0.994166, 0.994492, 0.994315, 1.1959, 1.20949, 1.10096, 1.09838, 1.04974, 1.08132, 1.10622, 1.43529, 1.1064, 1.11405, 1.12998, 1.13422, 1.14678, 1.13492, 1.28411, 1.12999, 1.12889, 1.18399, 1.1385, 1.25408, 1.15851, 1.26756, 1.18405, 1.4039, 1.21837, 1.21925, 1.39885, 1.37062, 1.33675, 1.33511, 1.33323, 1.32811, 1.44407, 1.45443, 1.48973, 1.48813, 1.3787, 1.3786, 1.37931, 1.40999, 1.63405, 1.37577, 1.40604, 1.20921, 1.26448, 1.3328, 1.0812, 1.29512, 1.08131, 1.09624, 1.1863, 1.18717, 1.06099, 1.06176, 1.0356, 1.01833, 1.01542, 1.02303, 1.02458, 1.03366, 1.04281, 1.01237, 1.01262, 1.05155, 1.07237, 1.10377, 1.2037, 1.18135, 1.22661, 1.15859, 1.16036, 1.17468, 1.17461, 1.21596, 1.23046, 1.34608, 1.31073, 1.31087, 1.33588, 1.43849, 1.3583, 1.39903, 1.34657, 1.36302, 1.35769, 1.35885, 1.39258, 1.41345, 1.4482, 1.48473, 1.47968, 1.46698, 1.51927, 1.51874, 1.50679, 1.50759, 1.5084, 1.50186, 1.52297, 1.49752, 1.48594, 1.49808, 1.67529, 1.69673, 1.69416, 1.71001, 1.78956, 1.7688, 1.83401, 1.80806, 1.82637, 1.58683, 1.62237, 1.52645, 1.50571, 1.50221, 1.5162, 1.51011, 1.49733, 1.49599, 1.51036, 1.57865, 1.53758, 1.51663, 1.5514, 1.54397, 1.46893, 1.48763, 1.48282, 1.46363, 1.44163, 1.44145, 1.45378, 1.45469, 1.41873, 1.41732, 1.50096, 1.50183, 1.51581, 1.5071, 1.50752, 1.35107, 1.35349, 1.36104, 1.30216, 1.29255, 1.29195, 1.31047, 1.27365, 1.29491, 1.2571, 1.27077, 1.22963, 1.19655, 1.14812, 1.09666, 1.09758, 1.09158, 1.12259, 1.10342, 1.11484, 1.11444, 1.11158, 1.1088, 1.10821, 1.10453, 1.10446, 1.29298, 1.1181, 1.12188, 1.12208, 1.1167, 1.11263, 1.1504, 1.12453, 1.23893, 1.23603, 1.23673, 1.2402, 1.24073, 1.16304, 1.16309, 1.22592, 1.21621, 1.21834, 1.21734, 1.52687, 1.21828, 1.29918, 1.29907, 1.22764, 1.21557, 1.20886, 1.20821, 1.21461, 1.21559, 1.3147, 1.27195, 1.28148, 1.27177, 1.22084, 1.22457, 1.29623, 1.32925, 1.33048, 1.34115, 1.32994, 1.33264, 1.333, 1.3415, 1.53707, 1.31877, 1.3194, 1.43778, 1.37401, 1.38902, 1.35398, 1.4084, 1.2428, 1.23962, 1.24099, 1.24667, 1.24167, 1.24168, 1.24231, 1.24352, 1.24396, 1.24404, 1.24799, 1.24622, 1.24634, 1.24477
0.991833, 0.992146, 0.989371, 0.990353, 0.993453, 0.993621, 0.995326, 1.01955, 1.07789, 1.15984, 1.10008, 1.10026, 1.18156, 1.18423, 1.1819, 1.08824, 1.10061, 1.10184, 1.24302, 1.44078, 1.2511, 1.15361, 1.33087, 1.30604, 1.28753, 1.38481, 1.27386, 1.24624, 1.16505, 1.16548, 1.30309, 1.407, 1.3844, 1.40464, 1.40329, 1.30199, 1.54984, 1.26652, 1.55381, 0.00461796, 1.33608, 1.45103, 1.44513, 1.50192, 1.48839, 1.38396, 1.38099, 1.38183, 1.63183, 1.52571, 1.18005, 1.24023, 1.19885, 1.24301, 1.2607, 1.19308, 1.17243, 1.11933, 1.19844, 1.19926, 1.05721, 1.05648, 1.02562, 1.02733, 1.0194, 1.01946, 1.03967, 1.04, 1.03682, 1.05429, 1.04696, 1.07882, 1.07868, 1.12174, 1.18109, 1.2296, 1.22186, 1.21178, 1.21147, 1.17877, 1.1811, 1.2122, 1.233, 1.35367, 1.53569, 1.32732, 1.56962, 1.41985, 1.41734, 1.39274, 1.35632, 1.3603, 1.36014, 1.43707, 1.42313, 1.42418, 1.44531, 1.46282, 1.4786, 1.44992, 1.44911, 1.49053, 1.50645, 1.51435, 1.51387, 1.51286, 1.52091, 1.50355, 1.50249, 1.52602, 1.55466, 1.71169, 1.70941, 1.70913, 1.70842, 1.80136, 1.84155, 1.80045, 1.8006, 1.79981, 1.62348, 1.62362, 1.50627, 1.52152, 1.53806, 1.53484, 1.5242, 1.53106, 1.53371, 1.53394, 1.53657, 1.54082, 1.51161, 1.4869, 1.48492, 1.49231, 1.52616, 1.44014, 1.45824, 1.46171, 1.45449, 1.45448, 1.4173, 1.41655, 1.50247, 1.50199, 1.50279, 1.51305, 1.40885, 1.35048, 1.32704, 1.29573, 1.29532, 1.29351, 1.32164, 1.28007, 1.28075, 1.29105, 1.28337, 1.26823, 1.21169, 1.1527, 1.14049, 1.0964, 1.09621, 1.09533, 1.12309, 1.12261, 1.21505, 1.10784, 1.10852, 1.10898, 1.10101, 1.1021, 1.10499, 1.11105, 1.11455, 1.12192, 1.12216, 1.11548, 1.11599, 1.11792, 1.19824, 1.13353, 1.24277, 1.14585, 1.20814, 1.2082, 1.16188, 1.16311, 1.22588, 1.22608, 1.21631, 1.21205, 1.21348, 1.52598, 1.20426, 1.2046, 1.20813, 1.30669, 1.2306, 1.3171, 1.23238, 1.23417, 1.20981, 1.27307, 1.274, 1.21077, 1.29886, 1.21878, 1.2229, 1.23098, 1.22947, 1.33239, 1.32285, 1.30536, 1.33543, 1.29295, 1.40518, 1.42252, 1.3097, 1.3157, 1.38286, 1.46365, 1.38933, 1.42615, 1.3202, 1.23835, 1.23484, 1.23643, 1.23728, 1.2376, 1.23927, 1.24262, 1.24379, 1.24427, 1.24714, 1.2463, 1.24369, 1.24577
0.99197, 0.990551, 0.990721, 0.990535, 0.991439, 0.995919, 0.997932, 0.99927, 1.20992, 1.2102, 1.45385, 1.04294, 1.14655, 1.20542, 1.23905, 1.18524, 1.18748, 1.09704, 1.15542, 1.19004, 1.21831, 1.26478, 1.1531, 1.14605, 1.14613, 1.41299, 1.27279, 1.23593, 1.17521, 1.17113, 1.28146, 1.2851, 1.38354, 1.40545, 1.22897, 1.35362, 1.35311, 1.2644, 1.3443, 1.34665, 1.50918, 1.33776, 1.54298, 1.49645, 1.48401, 1.48764, 1.38546, 1.58979, 1.63745, 1.17684, 1.20929, 1.20605, 1.1785, 1.17835, 1.15876, 1.16807, 1.16707, 1.10557, 1.18153, 1.17773, 1.07435, 1.07729, 1.03368, 1.01166, 1.01126, 1.04939, 1.09143, 1.05705, 1.11208, 1.11769, 1.08698, 1.11366, 1.09497, 1.22054, 1.22118, 1.24157, 1.24672, 1.27235, 1.26394, 1.24463, 1.23911, 1.23412, 1.35587, 1.3535, 1.50677, 1.31543, 1.33696, 1.40983, 1.42242, 1.35661, 1.35205, 1.35212, 1.39259, 1.42631, 1.4589, 1.44757, 1.54328, 1.47137, 1.47111, 1.46517, 1.45223, 1.45335, 1.48419, 1.51548, 1.51472, 1.57244, 1.55136, 1.53844, 1.54707, 1.53721, 1.63695, 1.59166, 1.72395, 1.77202, 1.72704, 1.85325, 1.85063, 1.80251, 1.80137, 1.80048, 1.56416, 1.56196, 1.55445, 1.55152, 1.55053, 1.57194, 1.56769, 1.59232, 1.64774, 1.6521, 1.77919, 1.53954, 1.51272, 1.58649, 1.57762, 1.50592, 1.45881, 1.43951, 1.43935, 1.51666, 1.44964, 1.44849, 1.47048, 1.47711, 1.47633, 1.50923, 1.50843, 1.43437, 1.40246, 1.35601, 1.4068, 1.35357, 1.32019, 1.28541, 1.28054, 1.28098, 1.28109, 1.28265, 1.27254, 1.26034, 1.2084, 1.16456, 1.15289, 1.16003, 1.13101, 1.09109, 1.09135, 1.09131, 1.2236, 1.11106, 1.09057, 1.09109, 1.08978, 1.09083, 1.09994, 1.2566, 1.19215, 1.12185, 1.1222, 1.12364, 1.11769, 1.11914, 1.12223, 1.13243, 1.18324, 1.14653, 1.14624, 1.15659, 1.15378, 1.21019, 1.22541, 1.20457, 1.1816, 1.19801, 1.27049, 1.20459, 1.2061, 1.46894, 1.30625, 1.40623, 1.21349, 1.31983, 1.23352, 1.20593, 1.206, 1.20302, 1.20573, 1.20749, 1.2097, 1.21383, 1.21409, 1.2544, 1.25293, 1.33759, 1.27248, 1.31016, 1.36093, 1.35444, 1.31026, 1.3112, 1.31141, 1.31585, 1.38368, 1.38088, 1.3833, 1.28319, 1.42243, 1.43975, 1.23165, 1.2311, 1.23581, 1.2345, 1.23636, 1.24207, 1.24627, 1.24412, 1.24706, 1.24416, 1.24426, 1.24354
0.991719, 0.991496, 0.990615, 0.992225, 0.992297, 0.996583, 0.997404, 0.99764, 1.22206, 1.21148, 1.42531, 1.14956, 1.06117, 1.16035, 1.16189, 1.07524, 1.10568, 1.17662, 1.53797, 1.27625, 1.27435, 1.22936, 1.21204, 1.15004, 1.29899, 1.58661, 1.16039, 1.15982, 1.40117, 1.18193, 1.33139, 1.36932, 1.38221, 1.23241, 1.40313, 1.36102, 1.55548, 1.35086, 1.34961, 1.34882, 1.55546, 1.53637, 1.51335, 1.51292, 1.50305, 1.49907, 1.3895, 1.3886, 1.39133, 1.25389, 1.11026, 1.12694, 1.14794, 1.15665, 1.16114, 1.12446, 1.1234, 1.1158, 1.18199, 1.0459, 1.04566, 1.0443, 1.03399, 1.00869, 1.03687, 1.05637, 1.06542, 1.10133, 1.144, 1.11597, 1.1247, 1.11617, 1.18345, 1.1921, 1.21906, 1.26737, 1.26784, 1.26698, 1.25685, 1.2586, 1.26882, 1.3394, 1.3832, 1.38213, 1.38117, 1.34757, 1.34711, 1.46378, 1.36165, 1.36373, 1.35242, 1.35352, 1.38413, 1.63858, 1.59961, 1.48077, 1.45952, 1.45752, 1.51953, 1.46664, 1.48535, 1.50246, 1.49718, 1.65451, 1.59359, 1.54547, 1.64408, 1.54964, 1.54726, 1.60164, 1.56537, 1.59681, 1.72511, 1.72553, 1.72771, 1.9596, 1.82889, 1.84999, 1.80332, 1.79813, 1.59565, 1.56632, 1.56415, 1.57071, 1.60287, 1.57165, 1.56942, 1.6682, 1.65368, 1.73904, 1.77944, 1.56822, 1.56807, 1.51601, 1.50323, 1.48127, 1.48117, 1.45509, 1.44023, 1.43969, 1.44736, 1.44782, 1.44108, 1.42844, 1.42671, 1.42913, 1.43726, 1.47103, 1.38415, 1.3565, 1.36026, 1.32973, 1.3302, 1.32268, 1.28282, 1.29942, 1.28069, 1.32713, 1.26066, 1.21141, 1.21289, 1.16791, 1.16596, 1.15403, 1.11177, 1.09332, 1.09169, 1.1242, 1.15702, 1.09704, 1.08535, 1.10177, 1.10194, 1.10155, 1.09867, 1.10629, 1.10815, 1.19439, 1.12307, 1.12269, 1.1206, 1.12074, 1.123, 1.16342, 1.16397, 1.21242, 1.21356, 1.15554, 1.15791, 1.31554, 1.30685, 1.42255, 1.18151, 1.19122, 1.20142, 1.21625, 1.20096, 1.20163, 1.20181, 1.19593, 1.19485, 1.19813, 1.22894, 1.20239, 1.20192, 1.20182, 1.20298, 1.20516, 1.20858, 1.21044, 1.20697, 1.3133, 1.32484, 1.20377, 1.19518, 1.20144, 1.34961, 1.35612, 1.31507, 1.31221, 1.38882, 1.39409, 1.3099, 1.28083, 1.28105, 1.28387, 1.29284, 1.29557, 1.23136, 1.23062, 1.23387, 1.23431, 1.23405, 1.23572, 1.2404, 1.24089, 1.2436, 1.24487, 1.2435, 1.24357
0.992001, 0.992476, 0.990844, 0.99221, 0.992128, 0.9971, 0.997819, 1.01875, 1.21146, 1.21227, 1.45215, 1.10815, 1.15449, 1.18732, 1.07281, 1.07356, 1.07694, 1.09915, 0.00461362, 1.22264, 1.2334, 1.19847, 1.29922, 1.15774, 1.16373, 1.16406, 1.15973, 1.16031, 1.30018, 1.32472, 1.35155, 1.22254, 1.36491, 1.40827, 1.24437, 1.62782, 1.63181, 1.3237, 1.63287, 1.36397, 1.36746, 1.37935, 1.34423, 1.57958, 1.4009, 1.52017, 1.39469, 1.38767, 1.38825, 1.20165, 1.11256, 1.15221, 1.0884, 1.14726, 1.08812, 1.20041, 1.09729, 1.07296, 1.15654, 1.00122, 1.04756, 1.01933, 1.03227, 1.00951, 1.07144, 1.08487, 1.12338, 1.16656, 1.16117, 1.16781, 1.18937, 1.12798, 1.15959, 1.21359, 1.2437, 1.30507, 1.31043, 1.31446, 1.34871, 1.33021, 1.3152, 1.3221, 1.32557, 1.37916, 1.33596, 1.33606, 1.34049, 1.39603, 1.36834, 1.36529, 1.38497, 1.37306, 1.39593, 1.42605, 1.64358, 1.46966, 1.46062, 1.45722, 1.46278, 1.47423, 1.47263, 1.47161, 1.49813, 1.65398, 1.64331, 1.59904, 1.63809, 1.57125, 1.56241, 1.55916, 1.57133, 1.60084, 1.738, 1.73932, 1.73935, 1.97635, 1.93374, 1.83467, 1.79458, 1.82486, 1.82513, 1.63206, 1.60237, 1.6379, 1.7, 1.70651, 1.64388, 1.75555, 1.86559, 0.00444994, 1.5853, 1.56932, 1.56829, 1.51618, 1.51277, 1.50676, 1.44865, 1.44852, 1.52337, 1.44795, 1.44671, 1.4469, 1.43495, 1.43427, 1.44977, 1.47502, 1.43053, 1.40079, 1.39229, 1.37744, 1.35115, 1.32416, 1.33055, 1.31244, 1.3004, 1.30642, 1.31218, 1.32935, 1.28738, 1.2876, 1.23848, 1.1632, 1.15854, 1.12072, 1.11912, 1.09146, 1.11815, 1.0771, 1.07346, 1.07805, 1.08059, 1.06815, 1.08851, 1.11127, 1.0938, 1.10445, 1.10386, 1.11047, 1.44641, 1.29647, 1.29724, 1.12399, 1.12436, 1.12797, 1.17149, 1.20921, 1.21164, 1.15445, 1.21945, 1.2019, 1.24442, 1.19589, 1.41623, 1.44056, 1.20853, 1.2086, 1.19959, 1.20183, 1.19176, 1.19308, 1.19267, 1.1961, 1.19615, 1.20011, 1.19941, 1.19791, 1.19836, 1.1998, 1.20495, 1.20506, 1.2051, 1.31292, 1.31719, 1.1883, 1.18897, 1.20831, 1.30764, 1.30819, 1.30497, 1.38824, 1.38673, 1.43709, 1.31322, 1.28016, 1.28168, 1.38165, 1.5835, 1.30288, 1.4067, 1.23514, 1.23547, 1.23189, 1.23212, 1.23539, 1.23631, 1.23981, 1.23723, 1.23937, 1.24261, 1.24365
0.995256, 0.986872, 0.986814, 0.993925, 0.993221, 1.07345, 1.26648, 1.01838, 1.21442, 1.21187, 1.38553, 1.19883, 1.20604, 1.0747, 1.2409, 1.21859, 1.07867, 1.07977, 1.14944, 1.14484, 1.18582, 1.22092, 0.00449974, 1.1543, 1.24122, 1.27201, 1.2343, 1.14893, 1.15051, 1.15296, 1.21315, 1.35143, 1.39914, 1.23805, 1.26147, 1.24645, 0.00464357, 1.64379, 1.32346, 1.27649, 1.29706, 1.27402, 1.34763, 1.58902, 1.5813, 1.51497, 1.39484, 1.39322, 1.28309, 1.16746, 1.18259, 1.13454, 1.06713, 1.3267, 1.24315, 1.17306, 1.10842, 1.0989, 0.976904, 0.980868, 1.04581, 1.03562, 1.03636, 1.10013, 1.09431, 1.09218, 1.13204, 1.14836, 1.13478, 1.16406, 1.17514, 1.15084, 1.17419, 1.22636, 1.26855, 1.29259, 1.30483, 1.30781, 1.32135, 1.34594, 1.32718, 1.38108, 1.34009, 1.37847, 1.33832, 1.33683, 1.3399, 1.39799, 1.37569, 1.38252, 1.38007, 1.37812, 1.40051, 1.40114, 1.48579, 1.47548, 1.45591, 1.45405, 1.46186, 1.46904, 1.47622, 1.49266, 1.52277, 1.65621, 1.73115, 1.60643, 1.61693, 1.55413, 1.54787, 1.54705, 1.57689, 1.66021, 1.67478, 1.73742, 1.732, 1.83571, 1.82756, 1.79418, 1.79411, 1.70213, 1.71975, 1.72778, 1.67584, 1.6492, 1.68563, 1.74826, 1.74807, 1.71883, 1.76891, 1.76548, 1.59852, 1.53425, 1.53398, 1.52554, 1.5247, 1.45173, 1.44878, 1.44929, 1.45791, 1.44634, 1.44544, 1.45073, 1.43084, 1.44661, 1.44788, 1.438, 1.47145, 1.38629, 1.39267, 1.36988, 1.36766, 1.34811, 1.37188, 1.36277, 1.31954, 1.31525, 1.31202, 1.33678, 1.34759, 1.28943, 1.23612, 1.30212, 1.16097, 1.11904, 1.11966, 1.10051, 1.09707, 1.0855, 1.12677, 1.08121, 1.11404, 1.07723, 1.07051, 1.10366, 1.10078, 1.09765, 1.11134, 1.10828, 1.13464, 1.14259, 1.12541, 1.127, 1.12735, 1.12675, 1.13116, 1.13275, 1.20973, 1.21289, 1.41653, 1.44727, 1.21659, 1.24625, 1.18253, 1.36029, 1.4648, 1.1933, 1.19457, 1.19432, 1.18908, 1.19177, 1.19163, 1.19321, 1.19466, 1.19563, 1.19759, 1.19768, 1.19812, 1.19834, 1.20163, 1.24648, 1.23966, 1.23116, 1.23263, 1.18595, 1.31009, 1.30946, 1.26813, 1.30689, 1.33004, 1.34981, 1.34755, 1.38691, 1.37971, 1.37361, 1.37435, 1.29015, 1.29078, 1.46053, 1.29831, 1.41575, 1.23349, 1.23195, 1.23251, 1.23228, 1.23071, 1.22975, 1.23619, 1.23715, 1.23917, 1.2409
0.994283, 0.987018, 0.987015, 0.989091, 1.06042, 1.03549, 1.02985, 1.20378, 1.1942, 1.03947, 1.04664, 1.04362, 1.42037, 1.33494, 1.28936, 1.08827, 1.0865, 1.08504, 1.0855, 1.08715, 1.15531, 1.21242, 1.17127, 1.1434, 1.23705, 1.15425, 1.21341, 1.13664, 1.24954, 1.11141, 1.11045, 1.20198, 1.20287, 1.2231, 1.33005, 1.28076, 1.32199, 1.29892, 1.37165, 1.37269, 1.29135, 1.26355, 1.27714, 1.53033, 1.74238, 1.37272, 1.23227, 1.16498, 1.36799, 1.14272, 1.3501, 1.14302, 1.13106, 1.12793, 1.18892, 1.13267, 1.17681, 1.06682, 0.976444, 0.99891, 0.960814, 1.0128, 0.9732, 1.14064, 1.12592, 1.11874, 1.12696, 1.12598, 1.13938, 1.13889, 1.17953, 1.18099, 1.19728, 1.22469, 1.37219, 1.29623, 1.31006, 1.43119, 1.45406, 1.33429, 1.3367, 1.3814, 1.34542, 1.36447, 1.33841, 1.35741, 1.38955, 1.40156, 1.4718, 1.38443, 1.38477, 1.38101, 1.38041, 1.41352, 1.44363, 1.55173, 1.51292, 1.45108, 1.53755, 1.48489, 1.50943, 1.50936, 1.52706, 1.66143, 1.66057, 1.59589, 1.66111, 1.56437, 1.54734, 1.54697, 1.59344, 1.66537, 1.68984, 1.73697, 1.73164, 1.73218, 1.71592, 1.70287, 1.67972, 1.67013, 1.717, 1.72077, 1.72836, 1.84612, 1.8692, 1.84563, 1.8449, 1.82432, 1.77492, 1.82333, 1.5925, 1.5899, 1.58465, 1.58862, 1.58448, 1.49374, 1.50546, 1.49948, 1.54147, 1.44791, 1.45718, 1.43948, 1.44273, 1.41642, 1.41968, 1.40292, 1.40183, 1.38905, 1.38639, 1.40041, 1.42235, 1.37536, 1.36393, 1.34688, 1.34838, 1.32997, 1.36109, 1.36253, 1.34337, 1.26508, 1.24975, 1.30447, 1.16644, 1.16026, 1.15764, 1.12963, 1.15174, 1.09085, 1.12016, 1.07953, 1.08016, 1.08119, 1.07657, 1.07557, 1.09881, 1.09866, 1.10146, 1.10529, 1.13626, 1.42607, 1.44124, 1.12708, 1.12746, 1.12345, 1.12412, 1.19199, 1.21038, 1.21168, 1.41936, 1.19066, 1.2471, 1.24893, 1.24674, 1.18805, 1.29996, 1.18989, 1.19166, 1.19314, 1.18958, 1.19045, 1.19173, 1.20176, 1.19305, 1.19328, 1.19815, 1.19756, 1.1976, 1.19786, 1.20124, 1.19818, 1.19852, 1.23458, 1.18432, 1.18345, 1.18402, 1.31101, 1.34678, 1.33722, 1.33706, 1.31108, 1.38652, 1.46803, 1.28811, 1.28247, 1.29013, 1.29191, 1.29096, 1.29005, 1.37133, 1.26539, 1.23542, 1.23281, 1.23336, 1.23275, 1.22538, 1.22618, 1.23524, 1.23453, 1.23842, 1.30214
1.00558, 0.998729, 1.065, 1.06264, 1.05376, 1.24251, 1.39154, 1.44425, 1.21583, 1.20867, 1.044, 1.04356, 1.20945, 1.08029, 1.29826, 1.08826, 1.08935, 1.08938, 1.08922, 1.08777, 1.08731, 1.08908, 1.09181, 1.15846, 1.23051, 1.24775, 1.16145, 1.16604, 1.39703, 1.11145, 1.11036, 1.11296, 1.18824, 1.17843, 0.00456838, 1.23097, 1.32371, 1.50751, 1.14661, 1.2185, 1.30849, 1.29281, 1.29184, 1.12736, 0.0045613, 1.16728, 1.16696, 1.10077, 1.31303, 1.34329, 1.14769, 1.17756, 1.17155, 1.17788, 1.18509, 1.04124, 0.955661, 0.992477, 0.965508, 0.966549, 1.00135, 0.983059, 0.995982, 1.13987, 1.1057, 1.13597, 1.13704, 1.12218, 1.12249, 1.16962, 1.18058, 1.17184, 1.27255, 1.27429, 1.26186, 1.29901, 1.36056, 1.37167, 1.37482, 1.39228, 1.42627, 1.43755, 1.36183, 1.38281, 1.4165, 1.35789, 1.37866, 1.403, 1.4134, 1.42406, 1.40238, 1.41698, 1.38139, 1.42695, 1.435, 1.51008, 1.55746, 1.51888, 1.54833, 1.48184, 1.48191, 1.51703, 1.51598, 1.66121, 1.66111, 1.67171, 1.58826, 1.59155, 1.56177, 1.56189, 1.58189, 1.60306, 1.63432, 1.66581, 1.65051, 1.73829, 1.69526, 1.69483, 1.69495, 1.70268, 1.72441, 1.7244, 1.86335, 0.00417361, 1.88318, 1.86652, 0.0045176, 1.90452, 1.85879, 1.90043, 1.63745, 1.59051, 1.54131, 1.62282, 1.55047, 1.56356, 1.55761, 1.49962, 1.54411, 1.45641, 1.46018, 1.44023, 1.41278, 1.40427, 1.40225, 1.39801, 1.39185, 1.39032, 1.40056, 1.38181, 1.38243, 1.38134, 1.38581, 1.37919, 1.42719, 1.39027, 1.39002, 1.34883, 1.29519, 1.24741, 1.23824, 1.22277, 1.18049, 1.21177, 1.15402, 1.12239, 1.13626, 1.13195, 1.15014, 1.11312, 1.08994, 1.09181, 1.08527, 1.07466, 1.09784, 1.09756, 1.09958, 1.10547, 1.20013, 1.43117, 1.14612, 1.12592, 1.12535, 1.12304, 1.12206, 1.13012, 1.13121, 1.19797, 1.16339, 1.18222, 1.51997, 1.2424, 1.24325, 1.24889, 1.18671, 1.18741, 1.19114, 1.19222, 1.18946, 1.19079, 1.18595, 1.20126, 1.19143, 1.19836, 1.19926, 1.19907, 1.19562, 1.19472, 1.19922, 1.20003, 1.19918, 1.23626, 1.18066, 1.18041, 1.17849, 1.35722, 1.34602, 1.34592, 1.32591, 1.32262, 1.3221, 1.26384, 1.26424, 1.27285, 1.46474, 1.45936, 1.28987, 1.28879, 1.4436, 1.44359, 1.23497, 1.23322, 1.23381, 1.24856, 1.24979, 1.23216, 1.2323, 1.23273, 1.23644, 1.23597
1.04931, 1.04376, 1.02701, 1.099, 1.25156, 1.20887, 1.03908, 1.19979, 1.21512, 1.14008, 1.04565, 1.26392, 1.39373, 1.0839, 1.08411, 1.08485, 1.08875, 1.08952, 1.08953, 1.08896, 1.08788, 1.09091, 1.09201, 1.23322, 1.12196, 1.1746, 1.17708, 1.17484, 1.17495, 1.11345, 1.11416, 1.11483, 1.17465, 1.23115, 1.21182, 1.16516, 1.18589, 1.14444, 1.25333, 1.39466, 1.21607, 1.16556, 1.16671, 1.17132, 1.17121, 1.11077, 1.07605, 1.07692, 1.2345, 1.15772, 1.33793, 1.08241, 1.16171, 1.06554, 1.03027, 0.926218, 0.945527, 0.945407, 0.961932, 0.978076, 0.978117, 1.01482, 1.01427, 1.0975, 1.08933, 1.13382, 1.15041, 1.16767, 1.17442, 1.17467, 1.20028, 1.22269, 1.2742, 1.27145, 1.26593, 1.30612, 1.32148, 1.34708, 1.42942, 1.42807, 1.42629, 1.42722, 1.42614, 1.39229, 1.39892, 1.38568, 1.39526, 1.4134, 1.41688, 1.47174, 1.42066, 1.42545, 1.43325, 1.44159, 1.48866, 1.51075, 1.56222, 1.51868, 1.5751, 1.57452, 1.52605, 1.60507, 1.63168, 1.6605, 1.68901, 1.74359, 1.69759, 1.58067, 1.5794, 1.56286, 1.60217, 1.60455, 1.62666, 1.65132, 1.65166, 1.65063, 1.7532, 1.69214, 1.69987, 1.72093, 1.72053, 1.92383, 1.97639, 1.89918, 1.93577, 1.90043, 1.88673, 1.92506, 0.00425791, 0.00438288, 1.85693, 1.59965, 1.59985, 1.54043, 1.52328, 1.51141, 1.50104, 1.52377, 1.49954, 1.48184, 1.50901, 1.43958, 1.42991, 1.40146, 1.40002, 1.39583, 1.39404, 1.40003, 1.3892, 1.37564, 1.37425, 1.38128, 1.39167, 1.39216, 1.36077, 1.34632, 1.34584, 1.3484, 1.333, 1.28711, 1.25719, 1.23703, 1.26452, 1.17314, 1.15686, 1.14762, 1.13827, 1.13967, 1.10801, 1.1113, 1.09049, 1.08879, 1.08094, 1.08811, 1.09919, 1.09639, 1.09787, 1.0998, 1.20319, 1.20352, 1.19933, 1.19967, 1.1249, 1.12748, 1.1216, 1.12214, 1.28901, 1.19489, 1.21207, 1.2379, 1.17798, 1.24713, 1.28799, 1.22832, 1.18338, 1.1839, 1.19456, 1.19098, 1.18991, 1.18617, 1.18485, 1.18633, 1.18881, 1.19522, 1.19971, 1.19947, 1.19619, 1.19584, 1.22738, 1.2196, 1.19453, 1.28215, 1.18021, 1.18035, 1.17711, 1.34709, 1.18988, 1.19145, 1.33321, 1.32102, 1.47433, 1.26287, 1.2628, 1.27184, 1.27942, 1.34768, 1.29204, 1.28829, 1.29174, 1.33055, 1.30432, 1.23264, 1.23433, 1.23747, 1.23681, 1.23266, 1.23246, 1.2322, 1.23277, 1.23586
1.12912, 1.01527, 1.11843, 1.11865, 1.0645, 1.0705, 1.20151, 1.13141, 1.04792, 1.04957, 1.05133, 1.21853, 1.42317, 1.0836, 1.08094, 1.08576, 1.08386, 1.08511, 1.08723, 1.0887, 1.08174, 1.08228, 1.08888, 1.08615, 1.2483, 1.36794, 1.15472, 1.14839, 1.38572, 1.2664, 1.11448, 1.11393, 1.11449, 1.13126, 1.26406, 1.17329, 1.15799, 1.65516, 1.66818, 1.19161, 1.16653, 1.1332, 1.19439, 1.19516, 1.18569, 1.08418, 1.08803, 1.09139, 1.00923, 1.19175, 1.14113, 1.13686, 1.13673, 1.01793, 1.13152, 0.931843, 0.978085, 0.977739, 0.98573, 0.997295, 0.959668, 0.959891, 1.03314, 1.0982, 1.0861, 1.16779, 1.15004, 1.15045, 1.19757, 1.20016, 1.24988, 1.25648, 1.26077, 1.282, 1.37783, 1.31385, 1.30123, 1.33438, 1.42996, 1.43153, 1.42911, 1.4223, 1.44739, 1.40267, 1.39734, 1.40157, 1.43015, 1.4364, 1.45409, 1.43241, 1.44254, 1.42755, 1.44376, 1.456, 1.51541, 1.51542, 1.60294, 1.58589, 1.52879, 1.5268, 1.51629, 1.5366, 1.58328, 1.67653, 1.67549, 1.62056, 1.61848, 1.59994, 1.59867, 1.58909, 1.5891, 1.6169, 1.70077, 1.65133, 1.65208, 1.65077, 1.65417, 1.65405, 1.70543, 1.70637, 1.72542, 1.85595, 1.94271, 1.90675, 1.92596, 1.89379, 1.89532, 0.00474809, 1.92958, 1.96085, 1.63934, 1.68899, 1.65267, 1.55028, 1.53746, 1.52682, 1.50157, 1.52366, 1.53087, 1.61429, 1.46019, 1.46089, 1.42973, 1.42734, 1.39953, 1.44282, 1.41667, 1.40286, 1.39304, 1.40882, 1.38189, 1.43387, 1.39506, 1.49505, 1.36566, 1.39689, 1.37487, 1.35749, 1.3179, 1.25771, 1.25719, 1.24083, 1.2825, 1.18112, 1.17543, 1.15358, 1.13694, 1.12799, 1.12812, 1.08118, 1.08122, 1.07254, 1.0747, 1.07389, 1.07943, 1.07932, 1.09805, 1.09866, 1.10242, 1.32604, 1.32406, 1.11588, 1.12372, 1.1669, 1.1364, 1.13549, 1.19643, 1.18887, 1.30874, 1.21571, 1.1792, 1.3227, 1.31542, 1.17768, 1.17968, 1.1823, 1.18543, 1.18722, 1.18785, 1.18392, 1.18511, 1.18571, 1.18887, 1.19245, 1.21896, 1.22989, 1.23215, 1.19227, 1.22153, 1.22086, 1.2651, 1.23646, 1.18399, 1.18314, 1.18241, 1.34807, 1.1905, 1.19166, 1.22701, 1.32505, 1.36144, 1.40601, 1.31357, 1.2705, 1.27974, 1.2774, 1.27859, 1.29088, 1.41536, 1.36549, 1.30962, 1.23302, 1.23233, 1.23801, 1.23813, 1.23297, 1.23204, 1.23253, 1.23253, 1.23146
1.16553, 1.01982, 1.17985, 1.03547, 1.16112, 1.14733, 1.05111, 1.05272, 1.21171, 1.05125, 1.21756, 1.05715, 1.05768, 1.07995, 1.07923, 1.15551, 1.34075, 1.07681, 1.07704, 1.31617, 1.31072, 1.07174, 1.08342, 1.08614, 1.29108, 1.15366, 1.41591, 1.15315, 1.15133, 1.37214, 1.12219, 1.11504, 1.11676, 1.14655, 1.14022, 1.21656, 1.21841, 1.21964, 1.13972, 1.10237, 1.1315, 1.13481, 1.1225, 1.15773, 1.22499, 1.2122, 1.17492, 1.28005, 1.20247, 1.27792, 1.10288, 1.12747, 1.13313, 1.03049, 0.909332, 0.932086, 0.9287, 0.935542, 0.976389, 0.966413, 1.00311, 1.01943, 1.04437, 1.06768, 1.07717, 1.15922, 1.17019, 1.17089, 1.26799, 1.27408, 1.2167, 1.22372, 1.27649, 1.32352, 1.28528, 1.30029, 1.30122, 1.34926, 1.3294, 1.43114, 1.42596, 1.43096, 1.55389, 1.45342, 1.40422, 1.4107, 1.42943, 1.49616, 1.45265, 1.45304, 1.46954, 1.45837, 1.47444, 1.47535, 1.47085, 1.52077, 1.5592, 1.57997, 1.53654, 1.53096, 1.53781, 1.53799, 1.58323, 1.59091, 1.5917, 1.64075, 1.66065, 1.6448, 1.73356, 1.68708, 1.66447, 1.75272, 1.74549, 1.71855, 1.68286, 1.65433, 1.65433, 1.72358, 1.68135, 1.70056, 1.69971, 1.98277, 1.93119, 2.0547, 1.88265, 1.88651, 1.88542, 1.9417, 1.8847, 2.00743, 1.64005, 1.61541, 1.57894, 1.54697, 1.54057, 1.54208, 1.53175, 1.53439, 1.55364, 1.66475, 1.48216, 1.482, 1.43732, 1.43647, 1.42245, 1.42248, 1.47714, 1.40886, 1.39531, 1.39269, 1.392, 1.39248, 1.41566, 1.51079, 1.40372, 1.36753, 1.36469, 1.36231, 1.27399, 1.27097, 1.24291, 1.23403, 1.25028, 1.25642, 1.25701, 1.16806, 1.13703, 1.18227, 1.10622, 1.08623, 1.0918, 1.06637, 1.09559, 1.0713, 1.07235, 1.08937, 1.09073, 1.09171, 1.09804, 1.1022, 1.10299, 1.32946, 1.33326, 1.33088, 1.13491, 1.1353, 1.18424, 1.22552, 1.27749, 1.20852, 1.3613, 1.36035, 1.23661, 1.17672, 1.24356, 1.18105, 1.18774, 1.1857, 1.1862, 1.18678, 1.18509, 1.18703, 1.18931, 1.19112, 1.19847, 1.18898, 1.18933, 1.19095, 1.21819, 1.21801, 1.24037, 1.28577, 1.1829, 1.18039, 1.18356, 1.18841, 1.19056, 1.33075, 1.33091, 1.32919, 1.24931, 1.25085, 1.25769, 1.31545, 1.32051, 1.27658, 1.27729, 1.41785, 1.41432, 1.36093, 1.28478, 1.23422, 1.23151, 1.23282, 1.23076, 1.23119, 1.23468, 1.23138, 1.23224, 1.23114
1.02955, 1.09421, 1.03379, 1.51243, 1.13611, 1.13567, 1.05258, 1.05279, 1.05336, 1.05482, 1.05655, 1.23983, 1.43082, 0.0045961, 1.22932, 1.25143, 1.4282, 1.52122, 1.26887, 1.08969, 1.11151, 1.09112, 1.15332, 1.17421, 1.21061, 1.13556, 1.13719, 1.13603, 1.11588, 1.18548, 1.05215, 1.17049, 1.38581, 1.18238, 1.12466, 1.12554, 1.2157, 1.20063, 1.14908, 1.12246, 1.12996, 1.18125, 1.15681, 1.11369, 1.24057, 1.20156, 1.18394, 1.19882, 0.988654, 1.11574, 1.01995, 0.995906, 0.988207, 1.11842, 1.02618, 0.931893, 0.930438, 0.949217, 0.951244, 0.952924, 1.02601, 1.02504, 1.07171, 1.08042, 1.10391, 1.14126, 1.18382, 1.22607, 1.22547, 1.22548, 1.25583, 1.26926, 1.28105, 1.31602, 1.29231, 1.29223, 1.30159, 1.32484, 1.33333, 1.44102, 1.44381, 1.41652, 1.40577, 1.40277, 1.40313, 1.41591, 1.47574, 1.47459, 1.48571, 1.46615, 1.46284, 1.48387, 1.47085, 1.48852, 1.49275, 1.49371, 1.56153, 1.54437, 1.56493, 1.55385, 1.55182, 1.5211, 1.54352, 1.57576, 1.5919, 1.61742, 1.62235, 1.62122, 1.61311, 1.68739, 1.64834, 1.70479, 1.74427, 1.67319, 1.69882, 1.72349, 1.65561, 1.65747, 1.65582, 1.67914, 1.69448, 1.72429, 1.91065, 2.05913, 1.88428, 1.88848, 1.88786, 1.94216, 1.9026, 1.89989, 1.64298, 1.62377, 1.66887, 1.5863, 1.57582, 1.54396, 1.55625, 1.55757, 1.58957, 1.64547, 1.80268, 1.47243, 1.41843, 1.41785, 1.45003, 1.42488, 1.42484, 1.41953, 1.40309, 1.39916, 1.41533, 1.40701, 1.41632, 1.38082, 1.38056, 1.37559, 1.39902, 1.28143, 1.28298, 1.28228, 1.25411, 1.23126, 1.26304, 1.23401, 1.18994, 1.19075, 1.16121, 1.11867, 1.1431, 1.09242, 1.06928, 1.05733, 1.04811, 1.04927, 1.08891, 1.09245, 1.08176, 1.08932, 1.09824, 1.09885, 1.10533, 1.1102, 1.1571, 1.34127, 1.12822, 1.13695, 1.13742, 1.17875, 1.18167, 1.17436, 1.20505, 1.18001, 1.18128, 1.24009, 1.40195, 1.1786, 1.17889, 1.18369, 1.1847, 1.18431, 1.18804, 1.18829, 1.19148, 1.19263, 1.18803, 1.21667, 1.2294, 1.2327, 1.21972, 1.22025, 1.23619, 1.18826, 1.17792, 1.17932, 1.18261, 1.18834, 1.1896, 1.33738, 1.24811, 1.333, 1.24694, 1.2485, 1.37773, 1.38403, 1.31579, 1.30348, 1.28146, 1.28336, 1.28475, 1.59925, 1.32427, 1.23368, 1.22936, 1.22972, 1.23281, 1.22343, 1.22346, 1.22877, 1.23047, 1.22869
1.03269, 1.03544, 1.03627, 1.13353, 1.04808, 1.1354, 1.24727, 1.13718, 1.20728, 1.08203, 1.21088, 1.23334, 1.24294, 1.13903, 1.11855, 1.36813, 1.25411, 1.17441, 1.1166, 1.02963, 1.18471, 1.06805, 1.22041, 1.10335, 1.15943, 1.13348, 1.13616, 1.11941, 1.11812, 1.13547, 1.05727, 1.1436, 1.16068, 1.17682, 1.19867, 1.28571, 1.03564, 1.1089, 1.09938, 1.14203, 1.10916, 1.11125, 1.17447, 1.14398, 1.14646, 1.13703, 1.15102, 1.1391, 1.11625, 0.98508, 1.01117, 0.993149, 0.990282, 1.19938, 0.939085, 0.92948, 0.96088, 0.956943, 0.98801, 0.9611, 1.02982, 1.00008, 1.14158, 1.07656, 1.16931, 1.14838, 1.16486, 1.18535, 1.27375, 1.24558, 1.27165, 1.26718, 1.29895, 1.28406, 1.28442, 1.29351, 1.29716, 1.29632, 1.3194, 1.3361, 1.36398, 1.42045, 1.46521, 1.39636, 1.4208, 1.42735, 1.48206, 1.52454, 1.4619, 1.46704, 1.46064, 1.48544, 1.49195, 1.48368, 1.50279, 1.53975, 1.54999, 1.58904, 1.5658, 1.54498, 1.52953, 1.54838, 1.55496, 1.58895, 1.63526, 1.62383, 1.62349, 1.62119, 1.61344, 1.61282, 1.75111, 1.6645, 1.66482, 1.67467, 1.67423, 1.65662, 1.65708, 1.65825, 1.65632, 1.68178, 1.69552, 1.68974, 1.87306, 0.00407374, 1.88873, 1.88879, 1.8885, 1.92166, 1.88285, 1.91818, 0.00446039, 1.61982, 1.59888, 1.56958, 1.5919, 1.60779, 1.58254, 1.59012, 1.58989, 1.63968, 1.63757, 1.47395, 1.46879, 1.41979, 1.43197, 1.4322, 1.45229, 1.41838, 1.41525, 1.41605, 1.45813, 1.42122, 1.3942, 1.39864, 1.40971, 1.3292, 1.33941, 1.29922, 1.28746, 1.28417, 1.25293, 1.25224, 1.22723, 1.2268, 1.22246, 1.17321, 1.1535, 1.13927, 1.13368, 1.074, 1.06336, 1.06406, 1.07719, 1.13959, 1.07316, 1.07237, 1.07931, 1.08438, 1.09514, 1.09321, 1.09306, 1.10572, 1.22258, 1.11912, 1.12841, 1.31895, 1.34092, 1.13993, 1.23331, 1.33717, 1.43597, 1.25015, 1.18087, 1.20501, 1.18445, 1.40185, 1.17789, 1.18053, 1.18266, 1.18704, 1.18748, 1.18727, 1.18097, 1.18066, 1.17696, 1.17698, 1.1779, 1.18278, 1.23189, 1.18635, 1.26031, 1.23727, 1.1778, 1.17727, 1.18238, 1.18648, 1.34118, 1.34094, 1.37138, 1.23571, 1.24891, 1.24991, 1.25083, 1.36521, 1.37493, 1.32086, 1.28182, 1.285, 1.28505, 1.28723, 1.3265, 1.35531, 1.23165, 1.23043, 1.23229, 1.23243, 1.22623, 1.22958, 1.22879, 1.22704
1.03601, 1.03983, 1.50646, 1.13616, 1.12989, 1.12965, 1.16312, 1.35371, 1.12905, 1.21005, 1.2101, 1.65189, 0.00507446, 1.27528, 1.20691, 1.16128, 1.18122, 0.995885, 1.23595, 1.23447, 1.25087, 1.06419, 1.07331, 1.08734, 1.09825, 1.08361, 1.10678, 1.13403, 1.12514, 1.0537, 1.03903, 1.05335, 1.12114, 1.11108, 1.18162, 1.06406, 1.4361, 1.02659, 1.09106, 1.0231, 1.11151, 1.10732, 1.10607, 1.09357, 1.0288, 1.1404, 1.1474, 1.12948, 1.09081, 0.963809, 1.08196, 0.99554, 1.1427, 0.974907, 1.11639, 0.905379, 0.905704, 0.92504, 0.924879, 0.96303, 0.980616, 1.03365, 1.07448, 1.11526, 1.1196, 1.16177, 1.20276, 1.24598, 1.27495, 1.26888, 1.28971, 1.27388, 1.29365, 1.30465, 1.28465, 1.29352, 1.30538, 1.32257, 1.32583, 1.33964, 1.3949, 1.3757, 1.38911, 1.41004, 1.42944, 1.39478, 1.43119, 1.49752, 1.45126, 1.47971, 1.48875, 1.49036, 1.48921, 1.49067, 1.5031, 1.50274, 1.57556, 1.5677, 1.56604, 1.56797, 1.5451, 1.53708, 1.64746, 1.55887, 1.64507, 1.6138, 1.6253, 1.62724, 1.62626, 1.63509, 1.64016, 1.76459, 1.66471, 1.67466, 1.66325, 1.66255, 1.68747, 1.6607, 1.66902, 1.66982, 1.69131, 1.69485, 1.74424, 1.74895, 1.75525, 1.88864, 1.88895, 1.94847, 1.93793, 1.98149, 1.68939, 1.69931, 1.6102, 1.57548, 1.59075, 1.61699, 1.57641, 1.54846, 1.60352, 1.64024, 1.50985, 1.51643, 1.45942, 1.43325, 1.43169, 1.43208, 1.51356, 1.42088, 1.41893, 1.50709, 1.41275, 1.47912, 1.38888, 1.45221, 1.33288, 1.32262, 1.29262, 1.27481, 1.25908, 1.25676, 1.23821, 1.23702, 1.22697, 1.20081, 1.19963, 1.16929, 1.14978, 1.11846, 1.11531, 1.08882, 1.09209, 1.05857, 1.10436, 1.07703, 1.08088, 1.08105, 1.08732, 1.12776, 1.1308, 1.09478, 1.09753, 1.21543, 1.10795, 1.20148, 1.16373, 1.2923, 1.26432, 1.13456, 1.13628, 1.18263, 1.18564, 1.20831, 1.18198, 1.24429, 1.24286, 1.17183, 1.17387, 1.17631, 1.18558, 1.18338, 1.18565, 1.19282, 1.17981, 1.179, 1.17735, 1.17722, 1.17605, 1.18065, 1.22873, 1.18616, 1.187, 1.24694, 1.17613, 1.17637, 1.18274, 1.19283, 1.19458, 1.21811, 1.21839, 1.32112, 1.24387, 1.24438, 1.24818, 1.25069, 1.33345, 1.36679, 1.28315, 1.28413, 1.28464, 1.42642, 1.31449, 1.32876, 1.48861, 1.2317, 1.23052, 1.23285, 1.23234, 1.2284, 1.22685, 1.22684
1.03802, 1.0423, 1.16342, 1.1356, 1.13552, 1.03688, 1.13018, 1.15764, 1.16091, 1.13351, 1.20704, 1.11794, 1.11581, 1.27144, 0.998881, 0.995599, 1.26486, 1.28054, 1.05671, 1.05621, 1.0426, 1.08874, 1.08823, 1.04727, 1.08764, 1.03579, 1.05003, 1.12409, 1.12405, 1.06226, 1.06335, 1.01693, 1.00331, 1.10876, 1.05764, 1.14631, 1.05682, 1.15691, 1.38645, 1.08728, 1.09587, 1.10535, 1.09185, 1.0998, 1.02858, 0.921312, 1.10451, 1.08747, 1.08825, 1.14004, 1.06728, 0.974157, 0.999659, 0.974195, 0.90196, 0.901699, 0.95169, 0.989124, 0.925987, 0.974433, 0.983586, 1.00135, 1.06359, 1.11509, 1.14595, 1.14654, 1.25304, 1.25336, 1.28409, 1.30824, 1.27517, 1.27532, 1.30984, 1.30936, 1.28399, 1.28436, 1.33243, 1.30475, 1.30558, 1.30886, 1.34042, 1.36156, 1.37802, 1.40181, 1.39491, 1.39592, 1.39566, 1.41982, 1.49637, 1.45752, 1.46515, 1.48985, 1.48854, 1.49487, 1.49453, 1.52283, 1.60912, 1.56561, 1.56444, 1.69683, 1.55403, 1.55396, 1.56076, 1.54685, 1.59883, 1.64524, 1.61714, 1.61722, 1.61395, 1.64471, 1.64408, 1.76513, 1.76512, 1.72452, 1.66166, 1.66324, 1.66214, 1.73097, 1.73906, 1.67974, 1.69484, 1.69273, 1.73394, 1.71047, 1.71434, 1.71782, 1.71716, 1.93279, 1.93852, 1.68256, 1.6849, 1.65449, 1.58424, 1.58304, 1.57664, 1.57596, 1.62435, 1.62947, 1.57218, 1.56616, 1.53096, 1.53053, 1.4645, 1.46255, 1.49389, 1.46253, 1.43946, 1.42039, 1.41746, 1.5088, 1.41102, 1.45412, 1.38345, 1.39625, 1.31972, 1.2784, 1.27887, 1.26724, 1.26714, 1.27735, 1.24812, 1.23319, 1.22987, 1.21041, 1.18793, 1.158, 1.15636, 1.11713, 1.13017, 1.07917, 1.0651, 1.10458, 1.06923, 1.11055, 1.06401, 1.06259, 1.05715, 1.07108, 1.08764, 1.09205, 1.09304, 1.09655, 1.34462, 1.21222, 1.34684, 1.36278, 1.26132, 1.35851, 1.4262, 1.18147, 1.18387, 1.18367, 1.16237, 1.26337, 1.24494, 1.17053, 1.1724, 1.17939, 1.18013, 1.18175, 1.18292, 1.18162, 1.19925, 1.17743, 1.17693, 1.17815, 1.18036, 1.18059, 1.18161, 1.18507, 1.18587, 1.21314, 1.17765, 1.17742, 1.1837, 1.19304, 1.19806, 1.20934, 1.33107, 1.23334, 1.40038, 1.24276, 1.24353, 1.27645, 1.33344, 1.36466, 1.36805, 1.28578, 1.28599, 1.42436, 1.42428, 1.2436, 1.24276, 1.41513, 1.23326, 1.23249, 1.23325, 1.2341, 1.22383, 1.2272
1.04053, 1.04131, 1.13496, 1.13626, 1.14824, 1.02084, 1.02195, 1.25805, 1.15828, 1.08107, 1.2115, 1.04362, 1.04275, 1.03514, 1.03388, 1.03285, 1.22912, 1.2337, 1.25738, 0.897398, 1.24693, 1.07802, 1.04288, 1.03989, 1.0397, 1.11221, 1.09629, 1.12573, 1.06157, 1.06203, 1.11243, 1.01511, 1.01536, 1.05747, 1.11791, 1.12637, 1.03231, 1.37275, 1.13226, 1.08702, 1.097, 1.07865, 1.05309, 1.06436, 1.09426, 1.02528, 1.12696, 1.11875, 0.978249, 0.984902, 0.968782, 0.872862, 0.872929, 0.868359, 0.864566, 0.861372, 0.905374, 0.92604, 0.965686, 0.967048, 0.980956, 1.0231, 1.02415, 1.08396, 1.11953, 1.14997, 1.19432, 1.274, 1.27799, 1.27756, 1.31366, 1.31374, 1.36886, 1.31878, 1.30364, 1.30958, 1.38903, 1.32678, 1.33656, 1.33626, 1.35347, 1.36455, 1.39526, 1.3697, 1.38661, 1.38556, 1.38309, 1.40666, 1.42685, 1.42648, 1.45024, 1.47576, 1.48997, 1.49342, 1.51305, 1.58481, 1.59602, 1.56486, 1.56377, 1.61708, 1.61729, 1.56766, 1.56072, 1.56084, 1.67784, 1.60439, 1.60427, 1.63686, 1.60437, 1.6248, 1.62827, 1.65795, 1.7307, 1.66575, 1.66199, 1.6624, 1.67731, 1.69961, 1.69931, 1.68706, 1.693, 1.69175, 1.73084, 1.69054, 1.69046, 1.70067, 1.74125, 1.75078, 1.7337, 1.72129, 1.66865, 1.63579, 1.59336, 1.66633, 1.58119, 1.59271, 1.58669, 1.62386, 1.5629, 1.56844, 1.53805, 1.50272, 1.46089, 1.46146, 1.44745, 1.52731, 1.52909, 1.43358, 1.41331, 1.48234, 1.45021, 1.44842, 1.39173, 1.34409, 1.31603, 1.27755, 1.27813, 1.27586, 1.2557, 1.2567, 1.23217, 1.22966, 1.2264, 1.1995, 1.19779, 1.16873, 1.14542, 1.14104, 1.14264, 1.11515, 1.06784, 1.06674, 1.09261, 1.06177, 1.08289, 1.08326, 1.06316, 1.12599, 1.15748, 1.0861, 1.09316, 1.09461, 1.09472, 1.10679, 1.18899, 1.19809, 1.12727, 1.334, 1.36122, 1.18426, 1.30831, 1.15972, 1.15942, 1.1671, 1.24658, 1.16968, 1.17142, 1.28088, 1.21428, 1.17811, 1.23904, 1.19131, 1.20011, 1.2013, 1.17475, 1.17475, 1.17917, 1.18058, 1.18142, 1.18555, 1.18602, 1.18559, 1.18392, 1.17963, 1.18411, 1.1975, 1.20038, 1.4326, 1.28857, 1.23039, 1.23256, 1.2395, 1.24056, 1.27583, 1.26814, 1.36103, 1.35491, 1.28883, 1.288, 1.3734, 1.48142, 1.24301, 1.24092, 1.23928, 1.23891, 1.2367, 1.23053, 1.23035, 1.229, 1.22737
1.03909, 1.03935, 1.13775, 1.15326, 1.15294, 1.01675, 1.00832, 1.1645, 1.00917, 1.01499, 1.10868, 1.2067, 1.05633, 1.03651, 0.926029, 0.923541, 1.00196, 1.05434, 1.00872, 1.01543, 1.08733, 1.08742, 1.0872, 1.10561, 1.06426, 1.10162, 1.06191, 1.08454, 1.0656, 1.0676, 1.06755, 1.00947, 1.12538, 1.17251, 1.1186, 1.18779, 1.01989, 1.00655, 1.00697, 1.06675, 1.07572, 1.10568, 0.889975, 1.09002, 1.0151, 0.964767, 1.08433, 1.13673, 1.08429, 1.00133, 0.868753, 0.866982, 0.866786, 0.871963, 0.872046, 0.900149, 0.89394, 0.945354, 0.929354, 0.957945, 0.997553, 1.00733, 1.03412, 1.10931, 1.12273, 1.14685, 1.19417, 1.27098, 1.29993, 1.31043, 1.31407, 1.36462, 1.39467, 1.31983, 1.30221, 1.31007, 1.31577, 1.3467, 1.33262, 1.34387, 1.44819, 1.35951, 1.40656, 1.36955, 1.39181, 1.39057, 1.41663, 1.39623, 1.41341, 1.45063, 1.46479, 1.4702, 1.49536, 1.50061, 1.50798, 1.67783, 1.56065, 1.55844, 1.55435, 1.68181, 1.68061, 1.62969, 1.55638, 1.6245, 1.62323, 1.60543, 1.60526, 1.60293, 1.60553, 1.61287, 1.64458, 1.66182, 1.73316, 1.66666, 1.67415, 1.71091, 1.69257, 1.69103, 1.69553, 1.73348, 1.68424, 1.68415, 1.68329, 1.76453, 1.74074, 1.74089, 1.71822, 1.75075, 1.75033, 1.75343, 1.75107, 1.70003, 1.61193, 1.62784, 1.60287, 1.60207, 1.61049, 1.6903, 1.56814, 1.57073, 1.56229, 1.55388, 1.51006, 1.53551, 1.4675, 1.50652, 1.46129, 1.4536, 1.41367, 1.40879, 1.45045, 1.4585, 1.35622, 1.31991, 1.32073, 1.30847, 1.27745, 1.27564, 1.26352, 1.2571, 1.23257, 1.23368, 1.2228, 1.2125, 1.20115, 1.16914, 1.17431, 1.13615, 1.10264, 1.1017, 1.07394, 1.09467, 1.07413, 1.06318, 1.04205, 1.09089, 1.09871, 1.07661, 1.07699, 1.14599, 1.14774, 1.09234, 1.09294, 1.17738, 1.10813, 1.19133, 1.1295, 1.36373, 1.1246, 1.18263, 1.1817, 1.16073, 1.16117, 1.2986, 1.24898, 1.24892, 1.16787, 1.22668, 1.28551, 1.24976, 1.25045, 1.36715, 1.27443, 1.20296, 1.17112, 1.17484, 1.17845, 1.18031, 1.18041, 1.18297, 1.18633, 1.18557, 1.18602, 1.22736, 1.22715, 1.2219, 1.20514, 1.27821, 1.44096, 1.22781, 1.23225, 1.23371, 1.23669, 1.51279, 1.27902, 1.27313, 1.28245, 1.28551, 1.28877, 1.4755, 1.36698, 1.24209, 1.2387, 1.24021, 1.23767, 1.23589, 1.23403, 1.23288, 1.2282, 1.2262
1.03989, 1.04025, 1.03284, 1.14686, 1.14791, 1.1495, 1.15133, 1.17765, 1.00172, 0.996045, 0.996313, 1.00592, 1.00553, 0.925995, 0.925964, 0.92342, 0.919384, 1.00698, 0.988826, 0.885688, 0.877068, 0.876371, 1.01555, 1.09789, 1.01962, 1.06754, 1.06231, 1.08373, 1.07067, 1.32976, 1.05039, 1.0618, 1.2409, 1.16076, 1.15474, 1.12806, 1.03023, 1.24457, 1.02281, 1.06354, 1.06333, 1.09497, 1.05988, 0.879173, 1.07068, 1.07187, 0.954622, 0.894966, 1.12515, 1.11851, 1.14345, 0.9594, 0.865398, 0.935365, 0.872233, 0.900797, 0.918388, 0.931704, 0.948533, 0.94875, 0.99561, 1.01823, 1.08362, 1.08403, 1.13873, 1.17179, 1.20935, 1.22642, 1.31645, 1.49615, 1.34618, 1.33903, 1.33903, 1.33404, 1.3404, 1.34037, 1.39927, 1.35387, 1.34821, 1.3637, 1.3575, 1.37558, 1.39071, 1.49535, 1.39596, 1.39854, 1.41015, 1.42041, 1.43964, 1.46134, 1.48882, 1.49432, 1.49062, 1.48544, 1.51445, 1.58864, 1.58997, 1.55443, 1.56133, 1.56317, 1.56206, 1.56042, 1.56805, 1.56917, 1.6232, 1.60599, 1.6049, 1.6036, 1.6078, 1.60768, 1.61617, 1.64219, 1.67063, 1.7102, 1.69949, 1.72462, 1.71297, 1.71087, 1.72788, 1.80729, 1.68491, 1.68503, 1.68373, 1.71609, 1.74134, 1.74088, 1.74451, 1.74914, 1.74888, 1.82332, 1.74441, 1.74224, 1.65507, 1.63448, 1.62917, 1.62598, 1.60594, 1.64192, 1.6614, 1.62329, 1.55132, 1.54702, 1.54737, 1.57059, 1.48474, 1.4839, 1.46251, 1.45218, 1.41201, 1.45663, 1.45072, 1.42092, 1.34061, 1.36423, 1.32595, 1.32339, 1.28253, 1.28929, 1.36801, 1.28062, 1.26866, 1.2367, 1.25848, 1.23812, 1.23944, 1.19334, 1.19364, 1.16111, 1.11081, 1.09995, 1.08715, 1.06655, 1.07105, 1.04843, 1.05329, 1.05914, 1.07932, 1.06735, 1.08202, 1.07283, 1.07313, 1.09253, 1.09235, 1.09325, 1.18531, 1.28841, 1.24422, 1.18147, 1.12562, 1.12338, 1.18602, 1.28105, 1.27039, 1.16718, 1.16783, 1.27167, 1.16372, 1.16161, 1.16455, 1.16487, 1.32072, 1.37694, 1.20006, 1.28994, 1.17015, 1.16727, 1.22948, 1.17956, 1.1795, 1.18041, 1.20689, 1.18845, 1.189, 1.23095, 1.23267, 1.2157, 1.2049, 1.21747, 1.21749, 1.29782, 1.22879, 1.23294, 1.43341, 1.26162, 1.2675, 1.27542, 1.2836, 1.2841, 1.28372, 1.36126, 1.36425, 1.24422, 1.23844, 1.23513, 1.23986, 1.23392, 1.23256, 1.22922, 1.22928, 1.22316
1.23373, 1.12653, 1.21318, 1.14899, 1.1485, 1.15097, 1.10249, 1.09645, 1.09668, 0.991732, 1.05061, 0.92864, 0.923246, 0.922887, 0.923036, 0.92299, 0.979701, 1.03261, 1.00101, 0.885819, 0.871758, 0.872998, 1.06383, 1.09916, 1.09959, 1.04431, 1.05772, 1.05924, 0.994633, 1.02583, 1.07003, 1.04375, 1.0432, 1.04591, 1.14602, 0.975193, 1.0466, 0.944057, 0.944037, 1.07598, 1.0732, 1.09843, 1.09478, 0.870387, 0.871381, 0.874024, 1.13797, 0.959156, 0.977905, 0.957322, 1.14712, 0.855956, 0.85555, 0.900697, 0.896302, 0.916138, 0.913182, 0.98526, 0.950728, 0.973315, 1.00144, 1.01891, 1.05338, 1.14624, 1.11923, 1.15653, 1.21165, 1.23497, 1.54158, 1.45087, 1.33446, 1.33382, 1.33727, 1.3805, 1.39399, 1.3948, 1.40598, 1.37489, 1.36843, 1.37602, 1.3963, 1.38887, 1.48372, 1.40262, 1.4157, 1.41702, 1.43135, 1.4324, 1.50539, 1.48842, 1.49676, 1.48951, 1.52829, 1.53651, 1.52734, 1.57181, 1.62711, 1.55337, 1.55306, 1.5639, 1.56399, 1.55758, 1.61837, 1.56962, 1.64448, 1.60586, 1.60572, 1.60159, 1.63436, 1.69347, 1.64216, 1.65084, 1.68125, 1.72267, 1.72517, 1.72408, 1.72344, 1.72306, 1.72246, 1.79508, 1.68473, 1.68501, 1.68338, 1.70961, 1.74165, 1.74186, 1.85603, 1.81547, 1.81487, 1.82422, 1.74081, 1.73173, 1.6727, 1.61388, 1.61375, 1.61399, 1.6223, 1.62434, 1.63929, 1.63811, 1.63871, 1.53143, 1.5211, 1.56538, 1.5294, 1.54481, 1.53811, 1.43294, 1.44529, 1.39644, 1.45001, 1.40884, 1.35918, 1.34751, 1.33673, 1.35213, 1.283, 1.28573, 1.28037, 1.29135, 1.28234, 1.29525, 1.26355, 1.27522, 1.27792, 1.2205, 1.19496, 1.19696, 1.14973, 1.12531, 1.08405, 1.0693, 1.08206, 1.05153, 1.0518, 1.05694, 1.08466, 1.06811, 1.08232, 1.08104, 1.07212, 1.0753, 1.09261, 1.09393, 1.19504, 1.10297, 1.24795, 1.24938, 1.12096, 1.12137, 1.26804, 1.44793, 1.17884, 1.18126, 1.1888, 1.20014, 1.1594, 1.15977, 1.16225, 1.1728, 1.20699, 1.18761, 1.18832, 1.19601, 1.20313, 1.19498, 1.22331, 1.23228, 1.17466, 1.17411, 1.22362, 1.19236, 1.19144, 1.22733, 1.22734, 1.22671, 1.4271, 1.21563, 1.21665, 1.22252, 1.2286, 1.2757, 1.43647, 1.43398, 1.30744, 1.27723, 1.28157, 1.28427, 1.28344, 1.40214, 1.41044, 1.44353, 1.23345, 1.23595, 1.23596, 1.23585, 1.23573, 1.22773, 1.22902, 1.22267
1.1441, 1.11696, 1.08547, 1.10159, 1.18082, 1.15219, 1.10246, 1.10215, 1.11257, 1.26881, 0.988798, 0.927834, 0.924178, 0.922113, 0.922492, 0.922665, 0.912327, 0.911921, 0.992201, 1.03691, 1.03706, 1.04649, 0.859072, 1.06208, 1.06408, 1.08424, 0.857842, 0.856634, 1.06183, 0.999164, 1.03952, 1.20391, 1.02921, 1.02382, 1.04283, 0.990557, 0.942671, 0.941876, 0.940587, 0.911624, 1.01095, 1.01078, 1.03964, 0.869943, 1.16354, 0.870901, 0.868496, 1.01177, 1.07492, 0.957862, 0.878386, 0.854795, 0.883424, 0.92617, 0.926425, 0.925256, 0.912965, 1.01375, 0.994748, 0.999725, 1.02476, 1.07038, 1.06878, 1.11572, 1.14412, 1.15369, 1.21153, 1.23447, 1.45445, 1.45073, 1.47557, 1.3286, 1.36077, 1.36718, 1.38414, 1.38365, 1.38454, 1.42243, 1.43272, 1.45522, 1.45433, 1.46419, 1.46134, 1.46035, 1.47842, 1.45245, 1.46074, 1.53808, 1.5277, 1.48921, 1.55578, 1.55501, 1.5512, 1.58703, 1.58888, 1.57148, 1.57174, 1.56379, 1.56408, 1.56396, 1.56475, 1.58547, 1.59319, 1.69656, 1.60413, 1.60344, 1.63398, 1.65596, 1.72115, 1.64067, 1.64142, 1.67918, 1.69292, 1.71904, 1.72676, 1.72672, 1.7234, 1.72334, 1.72375, 1.72366, 1.74491, 1.7474, 1.70611, 1.70545, 1.71452, 1.80994, 1.85145, 1.82447, 1.95181, 1.83025, 1.84196, 1.72999, 1.68259, 1.63751, 1.62029, 1.62465, 1.62254, 1.62351, 1.64469, 1.64747, 1.59161, 1.56221, 1.59022, 1.53949, 1.56912, 1.48664, 1.51029, 1.44439, 1.45985, 1.42379, 1.40286, 1.38218, 1.37582, 1.34852, 1.35066, 1.33722, 1.31555, 1.27932, 1.2891, 1.4459, 1.34706, 1.33274, 1.33597, 1.31097, 1.27497, 1.26789, 1.20451, 1.21644, 1.18183, 1.1258, 1.08053, 1.08941, 1.05856, 1.07169, 1.0546, 1.09099, 1.05967, 1.06143, 1.06308, 1.08053, 1.07659, 1.07334, 1.07386, 1.08722, 1.18447, 1.25152, 1.25187, 1.11379, 1.20895, 1.12113, 1.38448, 1.14343, 1.34781, 1.19333, 1.32128, 1.1646, 1.16763, 1.18457, 1.15783, 1.18045, 1.19066, 1.32066, 1.32066, 1.15771, 1.24393, 1.19652, 1.22885, 1.21422, 1.17401, 1.17504, 1.17668, 1.19293, 1.19211, 1.19355, 1.22496, 1.22212, 1.21324, 1.22463, 1.22592, 1.22395, 1.30658, 1.23409, 1.30049, 1.30334, 1.27421, 1.28324, 1.28445, 1.33961, 1.33407, 1.37611, 1.32262, 1.28599, 1.23738, 1.23716, 1.23516, 1.2326, 1.23546, 1.26095, 1.45994, 1.22448
1.14665, 1.42035, 1.10972, 1.16681, 1.1512, 1.09923, 1.10488, 1.11817, 1.11986, 0.963918, 1.1677, 0.924791, 0.924724, 0.923987, 0.918878, 0.913792, 0.913202, 0.913162, 1.00897, 1.00551, 0.998378, 0.977928, 1.03094, 1.05964, 0.850033, 0.852734, 0.855896, 0.854976, 0.856719, 1.02921, 1.05643, 1.14334, 1.14303, 1.03341, 1.01238, 1.03271, 1.03332, 0.976511, 0.977596, 0.953931, 1.00968, 1.01644, 1.05474, 0.866688, 0.863928, 0.866185, 0.86403, 0.938824, 1.06734, 0.919127, 0.919871, 0.895034, 0.83006, 0.829593, 0.856175, 0.908043, 0.906348, 0.950387, 0.997544, 1.06561, 1.04233, 1.05001, 1.09211, 1.14999, 1.14493, 1.17761, 1.21813, 1.2164, 1.45364, 1.45196, 1.32142, 1.40507, 1.3706, 1.3916, 1.42331, 1.42044, 1.37781, 1.37797, 1.52029, 1.52017, 1.45511, 1.46729, 1.46113, 1.47994, 1.51202, 1.46731, 1.53026, 1.52254, 1.49341, 1.49353, 1.55151, 1.57372, 1.64788, 1.58579, 1.57223, 1.56994, 1.56931, 1.56332, 1.59232, 1.5863, 1.57847, 1.64848, 1.64738, 1.65073, 1.7216, 1.64578, 1.63617, 1.72403, 1.71028, 1.65755, 1.65614, 1.68155, 1.72036, 1.72066, 1.72712, 1.72679, 1.72398, 1.7105, 1.7251, 1.72442, 1.80481, 1.73857, 1.70703, 1.70628, 1.70573, 1.8239, 0.00427214, 1.82825, 1.83104, 1.83185, 1.83144, 1.95167, 1.76309, 1.68481, 1.62023, 1.62027, 1.64549, 1.66207, 1.65932, 1.57388, 1.5491, 1.58171, 1.58074, 1.53172, 1.53079, 1.53053, 1.52598, 1.46532, 1.42674, 1.4197, 1.38981, 1.38805, 1.39975, 1.49232, 1.35698, 1.35171, 1.34692, 1.31376, 1.34522, 1.3505, 1.34694, 1.32714, 1.32921, 1.31128, 1.31087, 1.24611, 1.27849, 1.22302, 1.22241, 1.1344, 1.1034, 1.07226, 1.05664, 1.05689, 1.0516, 1.0529, 1.06318, 1.06274, 1.0807, 1.07998, 1.0714, 1.07043, 1.07142, 1.09596, 1.09933, 1.39024, 1.10039, 1.22992, 1.11233, 1.11697, 1.37746, 1.1255, 1.1258, 1.15472, 1.15498, 1.14689, 1.27468, 1.15085, 1.15105, 1.18088, 1.39127, 1.39085, 1.32292, 1.20864, 1.33717, 1.21932, 1.22162, 1.23639, 1.22946, 1.24023, 1.17596, 1.19105, 1.20226, 1.21946, 1.23222, 1.27414, 1.22431, 1.22757, 1.3027, 1.23039, 1.2409, 1.26118, 1.25877, 1.26717, 1.30036, 1.28576, 1.30621, 1.29097, 1.30266, 1.38544, 1.41898, 1.38958, 1.23497, 1.23421, 1.23037, 1.23011, 1.23427, 1.38333, 1.33385, 1.2293
1.35061, 1.06362, 1.06621, 1.3637, 1.07022, 1.16635, 1.11008, 1.10216, 1.27487, 1.0347, 0.927312, 0.925486, 0.924284, 0.924493, 1.182, 0.914727, 1.03102, 0.913268, 0.910077, 1.06838, 1.071, 1.06452, 0.935256, 1.02596, 0.852934, 0.852438, 0.852455, 0.855287, 0.856544, 0.864096, 1.01547, 1.1437, 1.13343, 1.04115, 1.04643, 1.00828, 1.03224, 1.01168, 0.916823, 0.900922, 1.02193, 1.03661, 0.864886, 0.863882, 0.862742, 0.862598, 0.862848, 0.931808, 0.931821, 0.96468, 0.880778, 0.831939, 0.828416, 0.919421, 0.851717, 0.888069, 0.900547, 0.967354, 0.995382, 1.0537, 1.05669, 1.10976, 1.11543, 1.14914, 1.14671, 1.17355, 1.28829, 1.21766, 1.36865, 1.3339, 1.33427, 1.32631, 1.34425, 1.35132, 1.37221, 1.37377, 1.37275, 1.3732, 1.59607, 1.45705, 1.45669, 1.46165, 1.49723, 1.48228, 1.46877, 1.54812, 1.58353, 1.54043, 1.50681, 1.58855, 1.64666, 1.64832, 1.60287, 1.59849, 1.59773, 1.62832, 1.6282, 1.63643, 1.59625, 1.5952, 1.58014, 1.58033, 1.61337, 1.60673, 1.68286, 1.68639, 1.63738, 1.67298, 1.64182, 1.64107, 1.65753, 1.65622, 1.76332, 1.75467, 1.75711, 1.71922, 1.70597, 1.7047, 1.72453, 1.79285, 1.81221, 1.7282, 1.69821, 1.69773, 1.7026, 1.75439, 1.76153, 1.92473, 1.8332, 1.83265, 1.83005, 1.95244, 1.69276, 1.68313, 1.61444, 1.61405, 1.61587, 1.60454, 1.61646, 1.58846, 1.54859, 1.54851, 1.5464, 1.52018, 1.53131, 1.5583, 1.5516, 1.46421, 1.41631, 1.39915, 1.38901, 1.40842, 1.39231, 1.38632, 1.48223, 1.48141, 1.39252, 1.3839, 1.39336, 1.36418, 1.36374, 1.33363, 1.27435, 1.27468, 1.24414, 1.30284, 1.27735, 1.20505, 1.13666, 1.12027, 1.07571, 1.07508, 1.07153, 1.06115, 1.06957, 1.0561, 1.05602, 1.06047, 1.07354, 1.0739, 1.06961, 1.06703, 1.06666, 1.1102, 1.11459, 1.08708, 1.09442, 1.23304, 1.23407, 1.11497, 1.12954, 1.13701, 1.12008, 1.11958, 1.16201, 1.20964, 1.18905, 1.15017, 1.15107, 1.14951, 1.62577, 1.40973, 1.21072, 1.21461, 1.21457, 1.20253, 1.22607, 1.23773, 1.2396, 1.22713, 1.23329, 1.22434, 1.21436, 1.1797, 1.21503, 1.23988, 1.20899, 1.23452, 1.23675, 1.24073, 1.2576, 1.25808, 1.26531, 1.29142, 1.32052, 1.31366, 1.29258, 1.30072, 1.31175, 1.31241, 1.37949, 1.36388, 1.23375, 1.23272, 1.23152, 1.23117, 1.23611, 1.44363, 1.38278, 1.31997
1.0636, 1.06409, 1.06548, 1.06601, 1.06769, 1.05301, 1.03662, 1.39829, 1.03187, 1.01662, 0.927666, 0.925809, 0.92451, 0.926437, 1.2532, 1.0432, 1.02974, 1.02233, 1.19979, 1.02882, 1.06146, 0.890635, 1.07305, 0.884602, 0.853129, 0.85297, 0.849217, 1.03676, 0.852859, 0.991014, 1.13655, 1.14454, 1.13259, 1.05845, 1.04866, 1.04974, 1.04957, 1.02891, 1.03589, 0.900608, 0.900977, 1.05083, 1.03319, 0.860702, 0.862722, 0.862624, 0.863441, 0.935889, 0.843233, 0.842318, 0.858857, 0.829873, 0.828716, 0.827501, 0.850866, 0.881268, 0.944933, 0.94275, 1.03195, 1.06457, 1.10925, 1.1113, 1.10625, 1.13914, 1.17062, 1.23636, 1.23644, 1.25766, 1.26514, 1.30858, 1.30624, 1.38398, 1.31517, 1.3386, 1.34741, 1.33957, 1.37505, 1.41825, 1.41828, 1.49508, 1.45659, 1.46242, 1.45218, 1.50343, 1.50746, 1.48735, 1.49616, 1.50542, 1.50862, 1.50889, 1.64711, 1.64674, 1.60087, 1.59973, 1.59751, 1.5979, 1.59517, 1.60374, 1.61307, 1.60364, 1.57981, 1.57906, 1.5913, 1.6402, 1.64017, 1.67807, 1.63242, 1.63003, 1.6422, 1.64133, 1.65665, 1.65569, 1.66651, 1.76437, 1.75924, 1.7592, 1.70611, 1.70571, 1.70532, 1.7921, 1.71745, 1.76928, 1.69872, 1.69855, 1.71322, 1.77038, 1.75557, 1.96973, 1.8248, 1.82961, 1.83076, 1.75193, 1.65641, 1.66165, 1.61667, 1.6024, 1.60055, 1.58571, 1.56754, 1.56752, 1.55425, 1.55859, 1.52468, 1.52332, 1.53708, 1.55241, 1.55297, 1.42227, 1.42421, 1.40334, 1.43854, 1.43708, 1.48642, 1.43417, 1.44964, 1.47541, 1.40621, 1.37901, 1.37821, 1.36837, 1.2984, 1.29805, 1.22163, 1.20438, 1.19251, 1.27081, 1.2705, 1.19734, 1.13901, 1.14095, 1.14851, 1.06858, 1.07696, 1.11646, 1.07358, 1.07295, 1.0749, 1.07572, 1.07541, 1.07382, 1.18991, 1.06273, 1.06352, 1.26189, 1.15729, 1.08764, 1.11939, 1.10494, 1.11227, 1.11595, 1.12756, 1.12698, 1.13397, 1.12004, 1.15384, 1.14673, 1.19248, 1.17118, 1.17313, 1.16816, 1.62464, 1.36801, 1.20924, 1.26087, 1.22508, 1.21833, 1.23003, 1.24468, 1.23359, 1.23573, 1.16137, 1.234, 1.17359, 1.17378, 1.17549, 1.17571, 1.18405, 1.18405, 1.18414, 1.18475, 1.1885, 1.18947, 1.27265, 1.28972, 1.32266, 1.2743, 1.29366, 1.29979, 1.31534, 1.31549, 1.34652, 1.35458, 1.23195, 1.23244, 1.23214, 1.23035, 1.42832, 1.33372, 1.39048, 1.39138
1.15348, 1.07286, 1.09171, 1.09838, 1.1083, 1.10975, 1.15388, 1.08512, 1.07656, 0.928577, 0.92786, 0.925023, 0.924837, 0.931415, 0.931255, 0.927117, 0.923528, 1.03924, 0.911334, 0.911032, 1.05947, 1.06255, 0.887958, 0.885412, 0.854872, 0.846447, 0.842816, 0.839507, 0.963243, 0.849825, 0.844283, 0.843999, 1.06021, 1.13662, 1.01892, 0.831026, 0.831653, 0.920934, 0.899025, 0.900627, 0.900348, 1.05748, 1.02891, 0.853022, 0.852393, 0.959217, 1.10147, 1.06053, 0.836112, 0.835506, 0.857101, 0.856497, 0.858411, 0.848184, 0.850146, 0.879179, 0.948371, 0.976694, 1.03967, 1.06346, 1.05787, 1.10599, 1.15726, 1.16318, 1.18656, 1.18759, 1.28245, 1.28195, 1.2638, 1.28897, 1.29203, 1.31969, 1.30623, 1.31307, 1.33859, 1.34541, 1.35024, 1.35775, 1.39218, 1.44834, 1.41965, 1.45785, 1.4615, 1.49739, 1.48707, 1.48738, 1.49681, 1.49736, 1.52283, 1.51152, 1.54747, 0.00438597, 1.59943, 1.60238, 1.6019, 1.5989, 1.61634, 1.60414, 1.63499, 1.60747, 1.60916, 1.59631, 1.58434, 1.58665, 1.63367, 1.67004, 1.70672, 1.63325, 1.65966, 1.65797, 1.66644, 1.6664, 1.70023, 1.70709, 1.71265, 1.70641, 1.70716, 1.70622, 1.70514, 1.79652, 1.71732, 1.77943, 1.69757, 1.69816, 1.78895, 1.75741, 1.78304, 1.77697, 1.82036, 1.83412, 1.81494, 1.70265, 1.65825, 1.63278, 1.61763, 1.61705, 1.61985, 1.59282, 1.56943, 1.56879, 1.5382, 1.53681, 1.54784, 1.52071, 1.5712, 1.4792, 1.47852, 1.46737, 1.4255, 1.44143, 1.44379, 1.4352, 1.43972, 1.43692, 1.43408, 1.44654, 1.36879, 1.36787, 1.39465, 1.27896, 1.27854, 1.23495, 1.22521, 1.19367, 1.16373, 1.16179, 1.18957, 1.13065, 1.12997, 1.12346, 1.08772, 1.08894, 1.06696, 1.04863, 1.09855, 1.03661, 1.07361, 1.06336, 1.10925, 1.12846, 1.06509, 1.06127, 1.06373, 1.06903, 1.2066, 1.08231, 1.07985, 1.12221, 1.12351, 1.10581, 1.11332, 1.11517, 1.13659, 1.1341, 1.14013, 1.17188, 1.18775, 1.18698, 1.13723, 1.22298, 1.19476, 1.19596, 1.3918, 1.25569, 1.24144, 1.21891, 1.23084, 1.17373, 1.22915, 1.23217, 1.23233, 1.20618, 1.16409, 1.17255, 1.16918, 1.17473, 1.1766, 1.18275, 1.18341, 1.1839, 1.1856, 1.18847, 1.18988, 1.19585, 1.28719, 1.32071, 1.29531, 1.29478, 1.30186, 1.24539, 1.24499, 1.31649, 1.23043, 1.23038, 1.2289, 1.22789, 1.32254, 1.46684, 1.39431, 1.3918
1.12533, 1.12532, 1.12563, 1.09754, 1.09813, 1.10691, 1.11326, 0.997043, 0.964091, 0.926281, 0.92518, 0.925185, 0.92542, 0.931888, 0.931623, 0.930784, 1.23005, 1.23554, 0.912904, 1.08506, 0.967586, 0.901793, 1.04778, 1.34171, 1.03197, 0.891583, 0.841522, 0.838494, 0.838005, 0.845189, 0.844407, 0.843904, 0.843268, 0.832353, 0.831627, 0.82682, 0.824743, 0.826031, 0.826388, 0.900025, 0.90078, 1.0847, 0.871119, 0.839724, 0.839622, 0.850283, 0.843227, 0.841908, 0.837597, 0.836243, 0.814897, 0.814555, 0.813192, 0.857124, 0.881043, 0.881673, 0.940346, 0.974933, 1.00362, 1.04709, 1.07965, 1.11996, 1.14373, 1.19748, 1.20721, 1.26376, 1.28449, 1.27955, 1.30109, 1.3604, 1.29596, 1.28854, 1.29749, 1.29861, 1.33089, 1.32475, 1.36051, 1.32589, 1.3522, 1.36588, 1.41986, 1.44092, 1.44784, 1.47111, 1.49542, 1.48184, 1.49212, 1.49479, 1.49966, 1.4996, 1.52816, 1.55539, 1.6002, 1.60241, 1.64217, 1.63108, 1.629, 1.62928, 1.62295, 1.62295, 1.66456, 1.63818, 1.58892, 1.61775, 1.62316, 1.6236, 1.73345, 1.63839, 1.7058, 1.69047, 1.79166, 1.6883, 1.6995, 1.67952, 1.67952, 1.68368, 1.70525, 1.71386, 1.79964, 1.79751, 1.78658, 1.70786, 1.69034, 1.69007, 1.69281, 1.84104, 1.69959, 1.77531, 1.71044, 1.70947, 1.83554, 1.78825, 1.65209, 1.65553, 1.61817, 1.6179, 1.59163, 1.5935, 1.59418, 1.58599, 1.53901, 1.53695, 1.53608, 1.52122, 1.53443, 1.47965, 1.54058, 1.48796, 1.445, 1.42341, 1.40471, 1.40615, 1.44128, 1.43259, 1.43605, 1.37545, 1.3216, 1.32139, 1.26209, 1.26339, 1.22573, 1.20911, 1.20632, 1.17605, 1.16165, 1.17112, 1.13718, 1.12778, 1.12392, 1.12722, 1.07679, 1.07778, 1.05484, 1.08509, 1.08111, 1.03275, 1.08154, 1.06111, 1.0509, 1.06766, 1.06822, 1.06014, 1.06029, 1.06296, 1.0645, 1.08002, 1.08405, 1.08599, 1.08768, 1.1202, 1.10778, 1.12682, 1.12883, 1.13437, 1.13839, 1.15524, 1.16687, 1.17776, 1.17686, 1.19285, 1.189, 1.19304, 1.13766, 1.13951, 1.15675, 1.15706, 1.23228, 1.21626, 1.23377, 1.23767, 1.23176, 1.24478, 1.16038, 1.17062, 1.17028, 1.1741, 1.17639, 1.18065, 1.18541, 1.18683, 1.18915, 1.19284, 1.1927, 1.19916, 1.20368, 1.20886, 1.21489, 1.28443, 1.30398, 1.30397, 1.25682, 1.34411, 1.2305, 1.23529, 1.23582, 1.22966, 1.23168, 1.34839, 1.34389, 1.34815
1.12531, 1.12496, 1.10192, 1.09869, 1.09705, 1.11609, 1.10608, 0.959333, 0.970983, 0.922968, 0.923372, 0.925903, 0.9286, 0.928434, 0.930269, 1.06685, 1.06413, 1.01933, 0.932608, 1.08432, 1.20162, 0.966488, 1.00584, 0.97249, 1.01895, 1.02389, 0.949742, 0.838029, 0.840071, 0.840198, 0.844086, 0.844041, 1.05673, 0.83228, 1.05574, 1.07156, 0.820044, 0.826074, 0.826478, 1.04407, 1.01747, 1.01678, 0.957251, 0.84908, 0.847856, 0.847057, 0.840311, 0.838725, 0.835898, 0.958071, 0.814122, 0.856143, 0.856466, 0.847372, 0.828638, 0.916319, 0.93172, 0.944163, 1.02701, 1.03257, 1.06597, 1.14404, 1.1713, 1.23758, 1.25079, 1.25036, 1.25638, 1.27465, 1.29863, 1.31533, 1.28563, 1.29437, 1.29791, 1.2975, 1.30382, 1.29827, 1.30864, 1.3356, 1.34637, 1.35778, 1.39802, 1.39598, 1.41351, 1.46745, 1.47572, 1.47547, 1.52801, 1.54745, 1.50029, 1.49992, 1.49648, 1.49525, 1.63584, 1.59651, 1.63781, 1.63689, 1.65717, 1.67143, 1.62315, 1.62406, 1.63962, 1.61108, 1.60943, 1.68687, 1.62052, 1.61015, 1.64469, 1.65066, 1.67492, 1.70732, 1.69045, 1.69647, 1.70061, 1.68944, 1.69961, 1.68367, 1.70254, 1.70224, 1.80607, 1.72471, 1.72382, 1.70261, 1.70201, 1.69136, 1.69109, 1.68938, 1.68761, 1.68704, 1.71054, 1.87926, 1.87935, 1.74119, 1.66207, 1.64595, 1.6695, 1.63668, 1.64886, 1.58735, 1.64808, 1.60344, 1.53931, 1.54828, 1.54725, 1.51909, 1.51243, 1.52434, 1.48579, 1.47594, 1.42786, 1.41445, 1.40466, 1.40302, 1.43678, 1.43043, 1.39538, 1.36834, 1.31056, 1.30794, 1.27012, 1.24143, 1.21912, 1.19969, 1.22384, 1.17926, 1.16991, 1.18394, 1.13759, 1.1263, 1.1269, 1.12218, 1.1465, 1.07493, 1.05026, 1.05475, 1.07505, 1.04795, 1.01643, 1.05217, 1.03811, 1.03905, 1.06002, 1.05835, 1.05972, 1.06152, 1.06436, 1.15007, 1.08061, 1.08832, 1.08983, 1.08993, 1.11695, 1.11573, 1.12694, 1.13811, 1.11014, 1.11061, 1.14383, 1.27657, 1.17155, 1.1914, 1.19541, 1.12883, 1.13207, 1.13653, 1.13589, 1.22075, 1.22979, 1.21202, 1.23654, 1.23516, 1.22594, 1.24256, 1.19941, 1.16029, 1.17201, 1.17242, 1.17478, 1.20863, 1.18496, 1.18756, 1.18824, 1.19515, 1.1978, 1.20122, 1.20137, 1.20815, 1.33503, 1.29979, 1.30356, 1.29641, 1.309, 1.27138, 1.22633, 1.2267, 1.235, 1.23076, 1.23441, 1.24589, 1.24775, 1.26449
0.956873, 0.957556, 1.10515, 1.08912, 1.08856, 0.945153, 1.13606, 0.960167, 1.11544, 0.921952, 0.918647, 0.922727, 0.928496, 0.929441, 0.935655, 1.20851, 1.09812, 0.935386, 0.929932, 0.944062, 0.949896, 1.26801, 0.983762, 0.97259, 0.972783, 0.00447607, 1.04673, 0.954659, 0.840007, 0.84154, 0.84123, 0.83999, 1.05026, 1.07142, 0.816537, 0.816383, 0.824187, 0.824452, 0.824246, 0.824793, 1.05127, 1.03567, 1.02895, 1.07864, 0.885641, 0.836092, 1.29208, 0.830415, 0.831549, 0.83112, 0.911633, 0.913263, 0.802457, 0.814, 0.886272, 0.906645, 0.927914, 0.95442, 0.985184, 1.04645, 1.07209, 1.12789, 1.22198, 1.25709, 1.28064, 1.25036, 1.26105, 1.31086, 1.31182, 1.31235, 1.31511, 1.29792, 1.29838, 1.29818, 1.3009, 1.29817, 1.29507, 1.30933, 1.35312, 1.36015, 1.35161, 1.3851, 1.45082, 1.46849, 1.47039, 1.47047, 1.47251, 1.49326, 1.52024, 1.50251, 1.49696, 1.497, 1.49524, 1.62335, 1.59639, 1.60229, 1.60515, 1.66496, 1.69903, 1.71666, 1.64422, 1.61102, 1.68895, 1.62819, 1.61117, 1.61008, 1.65163, 1.65127, 1.77575, 1.68137, 1.70023, 1.69303, 1.69236, 1.68859, 1.68848, 1.68838, 1.71062, 1.70674, 1.7065, 1.72443, 1.72617, 1.70502, 1.70316, 1.69221, 1.69152, 1.68764, 1.68649, 1.84306, 1.74303, 1.87959, 1.86849, 1.79725, 1.64533, 1.64471, 1.66889, 1.63698, 1.62802, 1.60144, 1.64611, 1.60253, 1.57595, 1.5782, 1.54451, 1.51729, 1.478, 1.47135, 1.47156, 1.44716, 1.42624, 1.42099, 1.42365, 1.44665, 1.38887, 1.41362, 1.3754, 1.3756, 1.29725, 1.24692, 1.21884, 1.21979, 1.24026, 1.20543, 1.18353, 1.1837, 1.17008, 1.14536, 1.14615, 1.1351, 1.13263, 1.12055, 1.12401, 1.05649, 1.05648, 1.03541, 1.07427, 1.01613, 1.01292, 1.01222, 1.01482, 1.04999, 1.05416, 1.04742, 1.1788, 1.06166, 1.06354, 1.07076, 1.15655, 1.09053, 1.08472, 1.08561, 1.13306, 1.16677, 1.18957, 1.16128, 1.11119, 1.10827, 1.11352, 1.11508, 1.11498, 1.11682, 1.12251, 1.12713, 1.12969, 1.13255, 1.1323, 1.22313, 1.2302, 1.20105, 1.23642, 1.23646, 1.2339, 1.24365, 1.23534, 1.19973, 1.23278, 1.16863, 1.17535, 1.17798, 1.17826, 1.18526, 1.24927, 1.19466, 1.19439, 1.19751, 1.20174, 1.20613, 1.3031, 1.29913, 1.29938, 1.23502, 1.23845, 1.28941, 1.22786, 1.22734, 1.23596, 1.23613, 1.23288, 1.24622, 1.24639, 1.2644
0.957067, 0.954668, 0.950035, 0.942516, 0.940647, 0.943998, 0.942054, 0.939901, 0.939992, 1.00163, 0.92837, 1.31683, 1.31099, 0.934881, 0.948381, 0.939058, 0.937697, 0.936112, 0.930943, 0.931797, 0.932091, 0.935526, 0.961978, 1.14666, 1.27421, 1.73111, 0.998404, 1.00252, 0.845647, 0.840898, 0.84071, 0.837745, 0.837378, 0.836474, 1.04463, 0.825194, 0.824514, 0.824002, 0.824494, 0.823547, 0.826682, 0.832744, 0.942924, 0.952506, 0.835411, 0.832845, 0.832695, 0.829896, 0.831566, 0.831075, 0.830537, 0.894422, 0.894177, 0.814985, 0.91169, 0.895313, 0.926991, 0.936554, 0.972075, 1.07788, 1.1401, 1.14628, 1.24119, 1.21886, 1.26141, 1.26846, 1.33353, 1.30559, 1.33978, 1.39096, 1.47037, 1.30148, 1.29989, 1.3732, 1.30347, 1.2958, 1.29597, 1.31712, 1.32611, 1.37628, 1.355, 1.4113, 1.41418, 1.46762, 1.46739, 1.4855, 1.5067, 1.50075, 1.50173, 1.50241, 1.49609, 1.53098, 1.5339, 1.62323, 1.62331, 1.60206, 1.60944, 1.67175, 1.64746, 1.66204, 1.639, 1.63588, 1.64521, 1.64211, 1.61548, 1.62, 1.62027, 1.83814, 1.70563, 1.68202, 1.70766, 1.71752, 1.69259, 1.68975, 1.68677, 1.70092, 1.7034, 1.70807, 1.82296, 1.8189, 1.70507, 1.70555, 1.70573, 1.69997, 1.69319, 1.71603, 1.76451, 1.8106, 1.74206, 1.74184, 1.74096, 1.73927, 1.77379, 1.66938, 1.67083, 1.6586, 1.64824, 1.63328, 1.64153, 1.60371, 1.60255, 1.54828, 1.50472, 1.46258, 1.46473, 1.43644, 1.64105, 1.4715, 1.44141, 1.41958, 1.41942, 1.45009, 1.38258, 1.37814, 1.34426, 1.33723, 1.37092, 1.2853, 1.28387, 1.24208, 1.23662, 1.21481, 1.19792, 1.18108, 1.17052, 1.18073, 1.20886, 1.13536, 1.11652, 1.10117, 1.10443, 1.08693, 1.0783, 1.07718, 1.05104, 1.05618, 1.01871, 1.0262, 1.02278, 1.05364, 1.05632, 1.04914, 1.04667, 1.04831, 1.06009, 1.06821, 1.06982, 1.08865, 1.08356, 1.08503, 1.08434, 1.08692, 1.17501, 1.13822, 1.18301, 1.14283, 1.11302, 1.11339, 1.11251, 1.11452, 1.11725, 1.12537, 1.12548, 1.132, 1.13032, 1.22584, 1.22957, 1.23652, 1.23728, 1.24781, 1.24045, 1.2227, 1.24076, 1.23991, 1.23634, 1.16634, 1.16728, 1.17363, 1.17683, 1.17441, 1.18156, 1.24861, 1.24622, 1.19921, 1.20197, 1.26405, 1.26093, 1.26007, 1.28812, 1.28925, 1.27942, 1.32831, 1.22971, 1.23279, 1.23462, 1.23548, 1.24122, 1.33469, 1.42482, 1.26464
1.10844, 0.95165, 0.946083, 0.943219, 0.942443, 0.942055, 0.94207, 0.94078, 0.940418, 0.940219, 0.933439, 0.953197, 0.939593, 0.942065, 0.941123, 0.940632, 0.939098, 1.10908, 0.932635, 0.931847, 0.932301, 0.939126, 0.939305, 1.24563, 1.59885, 0.965352, 0.971151, 0.987881, 1.00011, 0.846246, 0.839927, 0.837036, 0.836241, 0.835957, 0.828768, 0.824344, 0.824381, 0.823596, 0.82442, 0.823241, 0.821838, 0.845802, 0.844706, 0.946985, 0.823005, 0.83273, 0.828644, 0.827091, 0.829232, 0.831218, 0.828618, 0.898142, 0.909789, 0.907211, 0.845054, 0.897369, 0.897833, 0.939311, 0.977375, 1.00967, 1.13268, 1.14655, 1.24934, 1.20745, 1.30554, 1.26223, 1.29559, 1.31208, 1.34397, 1.32222, 1.33071, 1.32247, 1.31788, 1.3272, 1.32424, 1.3288, 1.3394, 1.32967, 1.33137, 1.38481, 1.35779, 1.39145, 1.43075, 1.43568, 1.46397, 1.49498, 1.49629, 1.50702, 1.50453, 1.51088, 1.51531, 1.51923, 1.55037, 1.62101, 1.61136, 1.61103, 1.6203, 1.66737, 1.64376, 1.66058, 1.65159, 1.65198, 1.64792, 1.62587, 1.62542, 1.62145, 1.62085, 1.6544, 1.70661, 1.76915, 1.71598, 1.72748, 1.68266, 1.71923, 1.7068, 1.69321, 1.7586, 1.76182, 1.70297, 1.85819, 1.70572, 1.7059, 1.70564, 1.70322, 1.70269, 1.71278, 1.71782, 1.78781, 1.80259, 1.74259, 1.74272, 1.73955, 1.73908, 1.69602, 1.69425, 1.68807, 1.66873, 1.73626, 1.73122, 1.69875, 1.67831, 1.60618, 1.51274, 1.4637, 1.47038, 1.43679, 1.50667, 1.50852, 1.44062, 1.41793, 1.40948, 1.41004, 1.39537, 1.36728, 1.36133, 1.32228, 1.30931, 1.32624, 1.36855, 1.25683, 1.24185, 1.22152, 1.1886, 1.18737, 1.19277, 1.17462, 1.15806, 1.14705, 1.12288, 1.11514, 1.13513, 1.13576, 1.05771, 1.03796, 1.04716, 1.04692, 1.07103, 1.01881, 1.01921, 1.02072, 1.05317, 1.04007, 1.04353, 1.04567, 1.05601, 1.06703, 1.06816, 1.08641, 1.0861, 1.09608, 1.08217, 1.13572, 1.13946, 1.14617, 1.19989, 1.20016, 1.1135, 1.11357, 1.11398, 1.11143, 1.11244, 1.20222, 1.12186, 1.12549, 1.21566, 1.21646, 1.22631, 1.16367, 1.23778, 1.19515, 1.19828, 1.24565, 1.2379, 1.24338, 1.15729, 1.15763, 1.1606, 1.1684, 1.16897, 1.17194, 1.17344, 1.2471, 1.24314, 1.24549, 1.19736, 1.25083, 1.25348, 1.29791, 1.26906, 1.28196, 1.28265, 1.23182, 1.23019, 1.2307, 1.28535, 1.34521, 1.26497, 1.37123, 1.3188, 1.34455
0.948203, 0.946666, 0.944715, 0.942985, 0.943919, 0.942624, 0.942005, 0.941429, 0.941228, 0.933972, 0.933504, 0.935666, 1.13024, 0.941738, 0.942637, 0.953486, 0.94673, 0.942146, 0.942807, 0.933222, 0.934158, 0.93892, 0.941951, 0.942982, 0.961126, 1.27531, 1.11237, 1.31486, 0.00397884, 1.02292, 1.02652, 0.835435, 0.836697, 0.837367, 1.03331, 0.825367, 0.825352, 0.826517, 0.825367, 0.821987, 0.981957, 0.845685, 0.845542, 0.846172, 1.02967, 1.01906, 1.07456, 0.828096, 0.827149, 0.847111, 0.829374, 0.829586, 0.825359, 0.811728, 0.897746, 0.998149, 0.921957, 0.964896, 0.965163, 1.10837, 1.13066, 1.15136, 1.20851, 1.20812, 1.24848, 1.26358, 1.28072, 1.28858, 1.36159, 1.36002, 1.39164, 1.39011, 1.39033, 1.35777, 1.37214, 1.34353, 1.33733, 1.36401, 1.34818, 1.3756, 1.40319, 1.40257, 1.43657, 1.4583, 1.48229, 1.51878, 1.51712, 1.51142, 1.51922, 1.56378, 1.53853, 1.53798, 1.59425, 1.76151, 1.61172, 1.61169, 1.62485, 1.64643, 1.64703, 1.65295, 1.65276, 1.65421, 1.72459, 1.6367, 1.62596, 1.61983, 1.65369, 1.65446, 1.69736, 1.69614, 1.78119, 1.70279, 1.65775, 1.65761, 1.69218, 1.69263, 1.69193, 1.78637, 1.70228, 1.70582, 1.70676, 1.70624, 1.70644, 1.70332, 1.70232, 1.71956, 1.78611, 1.79996, 1.90599, 1.90707, 1.74086, 1.74007, 1.87247, 1.69272, 1.69433, 1.69619, 1.69584, 1.72123, 1.70984, 1.65299, 1.64792, 1.56176, 1.51329, 1.46072, 1.46771, 1.43324, 1.46751, 1.51474, 1.43838, 1.4239, 1.43253, 1.45555, 1.37683, 1.35907, 1.31765, 1.31516, 1.31479, 1.31967, 1.30979, 1.27841, 1.24346, 1.22277, 1.22198, 1.20534, 1.20235, 1.19959, 1.15446, 1.14134, 1.14244, 1.10891, 1.10211, 1.12766, 1.06009, 1.07621, 1.03757, 1.08913, 1.07151, 1.01487, 1.02836, 1.04752, 1.06116, 1.04002, 1.04033, 1.03904, 1.05032, 1.27256, 1.21121, 1.21315, 1.13713, 1.07438, 1.06309, 1.06174, 1.2227, 1.1487, 1.16116, 1.22769, 1.17743, 1.17871, 1.10698, 1.1052, 1.11144, 1.11219, 1.20196, 1.20612, 1.21338, 1.21381, 1.221, 1.23558, 1.24393, 1.17826, 1.23351, 1.24769, 1.23024, 1.19871, 1.156, 1.15594, 1.16326, 1.16321, 1.16659, 1.24389, 1.24815, 1.24744, 1.24767, 1.2498, 1.25372, 1.25589, 1.2035, 1.209, 1.28653, 1.2783, 1.27689, 1.32542, 1.22875, 1.22889, 1.31952, 1.26718, 1.27046, 1.26162, 1.37789, 1.37245
1.04299, 0.946004, 0.942821, 0.942258, 0.943681, 0.943577, 0.941932, 0.942069, 0.941333, 0.940025, 1.1061, 0.937177, 0.942364, 0.943531, 0.950237, 0.953201, 0.954821, 0.941307, 0.940898, 0.93519, 0.935657, 0.941394, 0.943007, 0.94232, 0.941352, 0.953732, 0.954997, 0.963989, 0.966858, 0.995406, 1.09851, 0.0042864, 1.02282, 1.18584, 1.02421, 0.825411, 0.825889, 0.83154, 0.833735, 0.829177, 0.828385, 0.842933, 0.846954, 0.84702, 1.01628, 0.805283, 0.805257, 0.806833, 0.858407, 0.776389, 0.770928, 0.823227, 0.823711, 0.873563, 0.936817, 0.935152, 0.934761, 0.924684, 1.11032, 1.11401, 1.1164, 1.15739, 1.18021, 1.23045, 1.25081, 1.2584, 1.28257, 1.28153, 1.36037, 1.38158, 1.37816, 1.39082, 1.39083, 1.36012, 1.36017, 1.37884, 1.36578, 1.36793, 1.35076, 1.34527, 1.41952, 1.42314, 1.47747, 1.47258, 1.48561, 1.49951, 1.51649, 1.51643, 1.51958, 1.51808, 1.55026, 1.55495, 1.5574, 1.59023, 1.63851, 1.61342, 1.66435, 1.63789, 1.64349, 1.64072, 1.6419, 1.65255, 1.65723, 1.65548, 1.66229, 1.62559, 1.65943, 1.66846, 1.67702, 1.67631, 1.671, 1.67112, 1.66372, 1.67327, 1.68639, 1.68567, 1.68846, 1.68838, 1.70345, 1.70615, 1.70037, 1.70119, 1.69952, 1.6992, 1.71068, 1.85122, 1.79635, 0.00392257, 1.85471, 0.00438416, 1.91672, 1.90179, 1.87225, 1.68984, 1.6966, 1.69615, 1.69557, 1.70688, 1.69715, 1.65301, 1.67676, 1.58717, 1.50638, 1.46297, 1.46412, 1.42622, 1.4364, 1.43153, 1.4432, 1.46197, 1.42038, 1.42618, 1.38378, 1.34821, 1.32806, 1.31327, 1.31459, 1.31682, 1.32373, 1.27149, 1.27045, 1.24669, 1.21228, 1.19437, 1.19472, 1.17949, 1.19118, 1.14294, 1.14432, 1.10636, 1.10806, 1.08484, 1.081, 1.07474, 1.07562, 1.08887, 1.04384, 1.00818, 1.05128, 1.02176, 1.04922, 1.04882, 1.04953, 1.08958, 1.20932, 1.27948, 1.13237, 1.13553, 1.19423, 1.21937, 1.06079, 1.06136, 1.1134, 1.14414, 1.0771, 1.15772, 1.17064, 1.17385, 1.10545, 1.17733, 1.19129, 1.1078, 1.19891, 1.14815, 1.20797, 1.32255, 1.16382, 1.23266, 1.17991, 1.24665, 1.16832, 1.24417, 1.25393, 1.25748, 1.15211, 1.15283, 1.15677, 1.15892, 1.24493, 1.15959, 1.16319, 1.15835, 1.25309, 1.16761, 1.25086, 1.27579, 1.24389, 1.27573, 1.28513, 1.28844, 1.28286, 1.30409, 1.22455, 1.22549, 1.21618, 1.21935, 1.35154, 1.34916, 1.33046, 1.24356
