0.947066, 0.895363, 0.895612, 0.89087, 0.890344, 0.889946, 0.882819, 0.911248, 0.860653, 0.861155, 0.868064, 0.881098, 0.880684, 0.890676, 0.890471, 0.875412, 0.873857, 1.28778, 1.2733, 0.894644, 0.897593, 0.896987, 0.896898, 1.04382, 0.893349, 0.893607, 0.899866, 0.898234, 0.905129, 0.903876, 1.3679, 1.07074, 0.954392, 0.948687, 0.95577, 0.955602, 1.08333, 1.09093, 0.899673, 0.892128, 0.893453, 0.891198, 0.887819, 0.887064, 0.888032, 0.885964, 0.884836, 0.886942, 0.886723, 1.05275, 0.903313, 0.906744, 0.922859, 0.915784, 0.91486, 0.913708, 0.893692, 0.893583, 0.935816, 0.933579, 0.939207, 0.922618, 0.902001, 0.98469, 0.929951, 0.928482, 0.926347, 0.976734, 0.969496, 0.98391, 0.959804, 1.0169, 0.983967, 1.03867, 1.03925, 1.00016, 1.05387, 1.05729, 1.06099, 1.04433, 1.0574, 1.0602, 1.05955, 1.11656, 1.09391, 1.10839, 1.1643, 1.20122, 1.21086, 1.15737, 1.17599, 1.18686, 1.19167, 1.20167, 1.2669, 1.26872, 1.24001, 1.23739, 1.2506, 1.24704, 1.27445, 1.28228, 1.28774, 1.33367, 1.32523, 1.29226, 1.29849, 1.28761, 1.28928, 1.28863, 1.31604, 1.38767, 1.36382, 1.35975, 1.34162, 1.33582, 1.34633, 1.33618, 1.27454, 1.28459, 1.27521, 1.29123, 1.28928, 1.30288, 1.34408, 1.45656, 1.44681, 1.44185, 1.43986, 1.42903, 1.34701, 1.40174, 1.40287, 1.24539, 1.25123, 1.25694, 1.21545, 1.21282, 1.20053, 1.19173, 1.17607, 1.1644, 1.14266, 1.15016, 1.10711, 1.10558, 1.09758, 1.09676, 1.15238, 1.13622, 1.05094, 1.03314, 0.995262, 1.032, 1.04069, 0.946259, 0.934979, 0.932031, 0.934762, 0.966327, 0.966474, 0.987729, 0.967143, 0.934451, 0.923405, 0.969941, 0.930764, 0.929134, 0.940532, 0.942317, 0.941124, 0.936775, 0.944386, 0.933015, 0.933907, 0.933955, 0.935227, 0.936848, 0.939634, 0.941426, 0.944724, 0.953482, 0.957047, 0.95851, 0.969546, 0.969741, 0.973525, 0.974123, 0.96152, 0.962096, 0.966701, 0.967837, 0.969065, 0.973147, 0.975056, 0.97456, 0.972994, 0.978836, 0.979418, 0.979928, 0.983859, 0.985062, 0.985613, 0.985769, 0.993745, 1.14777, 1.14705, 0.976534, 0.975405, 1.01034, 1.0105, 1.32381, 1.01886, 1.01888, 1.03572, 1.03536, 1.03292, 1.00864, 1.01033, 1.01907, 1.0251, 1.0278, 1.03134, 1.03565, 1.03651, 1.04134, 1.13839, 1.04979, 1.05561, 1.05381, 1.05405, 1.05765, 1.06418, 1.07352, 1.0785, 1.08113, 1.13282, 1.08737, 1.08848, 1.091
0.900753, 0.893949, 0.897413, 0.89785, 1.09809, 0.911937, 0.879688, 0.921331, 0.916047, 0.874004, 0.945375, 0.901075, 0.921166, 0.893047, 0.905859, 0.873285, 0.872796, 1.28458, 1.26951, 0.893352, 0.894148, 0.897734, 0.893888, 0.89046, 0.890289, 0.891395, 1.01012, 0.894926, 0.899243, 0.897345, 1.04261, 1.04895, 0.949197, 0.954419, 0.955111, 0.954593, 1.01089, 0.901222, 0.898715, 0.893417, 0.89332, 0.88838, 0.887001, 0.886029, 0.886617, 0.886714, 0.886995, 0.88696, 0.888773, 1.06367, 0.903416, 0.903989, 0.902252, 0.915035, 0.919473, 0.919485, 0.902692, 0.892315, 0.887335, 0.96166, 0.918943, 0.917152, 0.98202, 0.926187, 0.925112, 0.924408, 1.04443, 0.948502, 0.949468, 0.960551, 0.96228, 0.957219, 0.98601, 1.03252, 0.994399, 1.02533, 1.02954, 1.02947, 1.0344, 1.03821, 1.01454, 1.07689, 1.11715, 1.12643, 1.12725, 1.11637, 1.16102, 1.12551, 1.20552, 1.12767, 1.14034, 1.15338, 1.1756, 1.18759, 1.22468, 1.23411, 1.27024, 1.23628, 1.22203, 1.24196, 1.23986, 1.26621, 1.26457, 1.33011, 1.26034, 1.29104, 1.28384, 1.26394, 1.27058, 1.2846, 1.26542, 1.30478, 1.31755, 1.33993, 1.33338, 1.32941, 1.32363, 1.29539, 1.2754, 1.25391, 1.24853, 1.24435, 1.2444, 1.29179, 1.33771, 1.45004, 1.45684, 1.46521, 1.38859, 1.41249, 1.42949, 1.40374, 1.25525, 1.24743, 1.23203, 1.22004, 1.36728, 1.21515, 1.19206, 1.17066, 1.14643, 1.13187, 1.10146, 1.09417, 1.08245, 1.09052, 1.08169, 1.09784, 1.07143, 1.05432, 1.03523, 1.02237, 1.01462, 0.964131, 0.969484, 0.949835, 0.935494, 0.930943, 0.935179, 0.928368, 0.934453, 0.960119, 0.959769, 1.02027, 0.948785, 0.949468, 0.935615, 0.934979, 0.93916, 1.02683, 0.936609, 0.936683, 0.945575, 0.945854, 0.934464, 0.934594, 0.934047, 0.937029, 0.937796, 0.941661, 0.94313, 0.953968, 1.14305, 1.04635, 0.934082, 0.967297, 1.17421, 0.982466, 0.961074, 0.962431, 0.963133, 0.964842, 0.967378, 0.970257, 0.973606, 0.974316, 0.971675, 1.1428, 0.978373, 0.979402, 0.981809, 0.983911, 0.985169, 1.18055, 1.1041, 0.977465, 0.976607, 0.975654, 0.975443, 1.01138, 0.978146, 0.980246, 1.02131, 1.02077, 1.02664, 1.02578, 1.03193, 1.00455, 1.01147, 1.01886, 1.02042, 1.02606, 1.02822, 1.03172, 1.03465, 1.0332, 1.12898, 1.0493, 1.05515, 1.05625, 1.05487, 1.05897, 1.06496, 1.07188, 1.07686, 1.08054, 1.08327, 1.08659, 1.08729, 1.08881
0.901403, 0.901331, 0.901473, 0.9703, 0.923075, 0.879764, 0.917556, 0.912884, 0.918026, 0.904546, 0.909079, 0.904879, 0.90739, 0.89587, 0.887845, 0.874723, 0.877922, 1.27991, 1.23575, 0.893808, 0.893015, 0.894415, 0.892275, 0.890272, 0.889613, 0.890491, 0.893891, 0.888193, 0.887595, 0.886779, 0.888389, 1.04083, 1.05054, 0.958998, 1.59529, 1.13857, 0.957127, 0.901467, 1.20046, 0.891125, 0.890861, 0.889536, 0.885966, 0.88643, 0.886805, 0.88708, 0.886971, 0.887751, 0.888524, 0.901289, 0.900555, 0.899977, 0.903089, 1.0097, 1.01166, 1.00603, 0.896144, 0.895649, 0.887045, 0.876729, 0.876339, 0.919905, 0.919848, 0.932392, 0.99348, 0.924955, 0.930465, 0.930519, 0.989035, 0.924993, 0.95279, 0.960489, 0.976053, 0.976153, 0.991115, 1.01198, 1.01507, 1.0401, 1.01636, 1.01279, 1.01227, 1.07919, 1.03682, 1.04221, 1.04256, 1.23288, 1.18844, 1.18606, 1.15472, 1.18893, 1.15637, 1.15045, 1.16143, 1.19602, 1.18758, 1.2028, 1.19201, 1.20096, 1.19914, 1.20937, 1.20794, 1.21842, 1.24385, 1.23976, 1.23897, 1.26708, 1.31617, 1.24696, 1.25383, 1.24373, 1.24381, 1.25682, 1.31143, 1.29468, 1.34131, 1.34299, 1.31627, 1.31644, 1.24685, 1.24678, 1.24417, 1.24495, 1.29264, 1.29172, 1.29615, 1.33757, 1.38848, 1.39966, 1.38239, 1.38145, 1.34652, 1.28593, 1.25483, 1.29889, 1.3029, 1.22407, 1.20856, 1.19732, 1.17462, 1.16729, 1.1478, 1.1323, 1.10457, 1.07273, 1.0699, 1.05336, 1.0635, 1.04731, 1.01327, 1.02301, 1.02185, 0.998668, 0.990522, 0.966133, 0.960426, 0.946928, 0.946552, 0.930845, 0.9283, 0.926536, 1.02331, 0.953636, 0.956732, 0.956459, 0.943147, 0.948418, 0.984892, 0.930941, 0.927011, 0.928309, 0.92749, 0.927977, 1.13535, 0.929293, 0.930629, 0.933669, 0.935126, 0.935974, 0.935582, 0.936113, 0.946306, 0.948548, 1.11184, 1.00341, 0.934528, 0.969653, 1.17411, 0.990078, 0.96232, 0.959363, 0.96122, 0.963486, 0.967547, 0.968712, 0.970945, 0.974223, 0.973029, 0.974149, 0.976488, 0.978211, 1.08908, 0.982592, 0.984048, 0.985129, 0.986979, 0.976132, 0.976507, 0.975666, 0.974697, 1.01554, 1.0147, 0.980875, 1.0446, 1.02457, 1.01762, 0.995581, 1.00066, 1.00286, 1.00884, 1.01551, 1.01889, 1.02444, 1.02532, 1.02812, 1.03494, 1.03571, 1.13066, 1.04784, 1.05339, 1.05307, 1.05292, 1.06041, 1.06656, 1.07145, 1.07283, 1.07672, 1.08067, 1.08392, 1.08704, 1.08944
0.898389, 0.894474, 0.909799, 0.881744, 0.882023, 0.874945, 0.880037, 0.910359, 0.933022, 0.951619, 0.901874, 0.901885, 0.90198, 0.891752, 0.890923, 0.880501, 0.880978, 0.883698, 0.88707, 0.888515, 0.893475, 0.892367, 0.890423, 0.889611, 0.888597, 0.887067, 0.884034, 0.88345, 0.890856, 0.888281, 0.889134, 1.37645, 0.949957, 0.984363, 0.942335, 0.948622, 0.950559, 1.10146, 1.08455, 0.891136, 0.893351, 0.893766, 0.888076, 0.885712, 0.887713, 0.887729, 0.888139, 0.88737, 0.896831, 0.89735, 0.898332, 0.896479, 0.895254, 0.908702, 0.897537, 0.897105, 0.894132, 0.891378, 0.89027, 0.890464, 1.01845, 0.925575, 0.919793, 0.971897, 0.970546, 0.952895, 0.956781, 0.926956, 0.926579, 0.925496, 0.922121, 0.916899, 1.09548, 0.976154, 0.98153, 1.0158, 1.03936, 0.976065, 0.974297, 1.03711, 1.01095, 1.01029, 1.01927, 1.0851, 1.06099, 1.16902, 1.14764, 1.15216, 1.15132, 1.14303, 1.12286, 1.12223, 1.14254, 1.16407, 1.19811, 1.18164, 1.17651, 1.18704, 1.18157, 1.18648, 1.18763, 1.1771, 1.21649, 1.24217, 1.23916, 1.3325, 1.24431, 1.23613, 1.2333, 1.23196, 1.22665, 1.23684, 1.24145, 1.25461, 1.28857, 1.34327, 1.31688, 1.32004, 1.30169, 1.21174, 1.2121, 1.21733, 1.22858, 1.25206, 1.29901, 1.28617, 1.36445, 1.37148, 1.37171, 1.38943, 1.32838, 1.32896, 1.25635, 1.23235, 1.23329, 1.30867, 1.19238, 1.17482, 1.15831, 1.16482, 1.16694, 1.10015, 1.08971, 1.06413, 1.05416, 1.06314, 1.06294, 1.02305, 1.02328, 1.0477, 0.980646, 1.01139, 0.965861, 1.00274, 1.00323, 0.987519, 0.994004, 0.938889, 1.02548, 1.01901, 0.929948, 0.955733, 0.956792, 0.956361, 0.94941, 0.943996, 0.943476, 0.930292, 0.931125, 0.925459, 0.926133, 0.926646, 0.932676, 0.929825, 0.929946, 0.930099, 0.935417, 0.935155, 0.934445, 0.939067, 0.942417, 0.951719, 0.928491, 0.928186, 0.928821, 1.07032, 1.39903, 0.959669, 0.960362, 0.95926, 0.960808, 0.962034, 0.963808, 0.966917, 0.967914, 0.969692, 0.972049, 0.971632, 0.970359, 0.970624, 0.983069, 0.983313, 0.98388, 0.98387, 0.974573, 0.975506, 0.975287, 0.973771, 0.976058, 1.15983, 0.979042, 0.981242, 0.982775, 0.985997, 1.02368, 0.99762, 0.997971, 1.00739, 1.00773, 1.01133, 1.00947, 1.01915, 1.01709, 1.02178, 1.02655, 1.034, 1.03539, 1.04712, 1.04679, 1.04814, 1.05486, 1.06081, 1.06659, 1.06944, 1.07324, 1.07359, 1.07876, 1.08363, 1.08539, 1.08706
0.970329, 0.891051, 0.889442, 0.886871, 0.905299, 0.89018, 0.886259, 0.894755, 0.895418, 0.922849, 0.904452, 0.903401, 0.904067, 0.897794, 0.890346, 0.885407, 0.885115, 0.886377, 0.887535, 0.890848, 0.890585, 0.889081, 0.889203, 0.889324, 0.888333, 0.885464, 0.881383, 0.88081, 0.880854, 0.887947, 0.890384, 0.891925, 0.928152, 0.93171, 0.926333, 0.926912, 0.932965, 1.10833, 0.995257, 0.903953, 0.892653, 0.893734, 0.888198, 0.886303, 0.886489, 0.886089, 0.888341, 0.887017, 0.889249, 0.900361, 0.897622, 0.891887, 0.890764, 0.894892, 0.894346, 0.894111, 0.892034, 0.890674, 0.890367, 0.890367, 0.956585, 0.987699, 1.11342, 0.999081, 0.95183, 0.95255, 0.952435, 0.952006, 0.937881, 0.960632, 0.912432, 0.912944, 0.960223, 1.00094, 0.977488, 1.00263, 1.00274, 0.981897, 0.967125, 1.00677, 1.01343, 1.01114, 1.01595, 1.0226, 1.03962, 1.1736, 1.17385, 1.15867, 1.13755, 1.14377, 1.12661, 1.1208, 1.16478, 1.16517, 1.1995, 1.15659, 1.16295, 1.16432, 1.17005, 1.21231, 1.17307, 1.16055, 1.16568, 1.21544, 1.19442, 1.27078, 1.26556, 1.27388, 1.2237, 1.19975, 1.20508, 1.20442, 1.22481, 1.21665, 1.23352, 1.27305, 1.25964, 1.24669, 1.23215, 1.20706, 1.22342, 1.21358, 1.21531, 1.25121, 1.29153, 1.2548, 1.33823, 1.37115, 1.37969, 1.37802, 1.35209, 1.34782, 1.26318, 1.23993, 1.23087, 1.17818, 1.16048, 1.15063, 1.11316, 1.1123, 1.11653, 1.08761, 1.05187, 1.06858, 1.03367, 1.02627, 1.01287, 1.03217, 1.05759, 0.990433, 0.964781, 0.983973, 0.991509, 0.988758, 0.97408, 0.973693, 0.945514, 0.946356, 0.949053, 0.931251, 0.931105, 0.939482, 1.02169, 0.949711, 0.950264, 0.945174, 0.977774, 0.928227, 0.927493, 0.921942, 0.923396, 0.927313, 0.933928, 0.929785, 0.928638, 0.931715, 0.932603, 0.934021, 0.932183, 0.930968, 0.933693, 0.950615, 0.926521, 0.926053, 0.961261, 0.930054, 1.39872, 1.07772, 1.29505, 0.960313, 0.961293, 0.962931, 0.963111, 0.962821, 0.964945, 0.968047, 0.96888, 0.972257, 0.969708, 1.17103, 1.08435, 1.0777, 0.982543, 0.972793, 0.974076, 0.973521, 0.974486, 1.16415, 1.15118, 1.20975, 0.97723, 1.32862, 1.32656, 1.01245, 1.01546, 0.997879, 1.00149, 1.00612, 1.00856, 1.00988, 1.01018, 1.01225, 1.01784, 1.01888, 1.01929, 1.0268, 1.03585, 1.04074, 1.04824, 1.05168, 1.19689, 1.10315, 1.10359, 1.06777, 1.06985, 1.08471, 1.12775, 1.07872, 1.08035, 1.08447
0.968216, 1.01426, 1.00885, 1.03364, 0.918799, 0.928301, 0.953022, 0.894393, 0.894454, 1.10892, 0.902517, 0.903587, 0.905736, 0.900573, 0.890428, 0.887569, 0.88463, 0.884183, 0.890641, 0.890107, 0.886928, 0.885939, 0.887896, 0.888246, 0.886575, 0.881519, 0.881557, 0.88221, 0.87983, 0.880171, 0.884147, 0.888242, 1.10474, 0.926103, 0.926693, 0.927279, 0.932404, 0.923279, 0.925676, 0.917345, 0.892301, 0.891777, 0.887763, 0.886872, 0.886402, 0.882578, 0.888505, 0.887108, 0.889538, 0.891583, 0.890412, 0.890504, 0.891285, 0.890485, 0.892109, 0.889849, 0.88924, 0.890172, 0.890301, 0.890592, 0.88463, 0.884703, 0.984686, 1.00784, 0.966466, 0.947961, 0.944376, 0.953398, 0.913073, 0.915603, 0.914553, 0.912805, 1.00342, 0.954262, 0.968414, 0.969304, 0.965209, 0.966008, 0.96655, 0.994148, 0.973762, 0.996966, 1.00338, 1.00322, 1.05702, 1.10342, 1.07888, 1.10763, 1.08948, 1.08216, 1.09128, 1.08589, 1.09249, 1.17063, 1.18446, 1.18489, 1.13119, 1.13544, 1.14045, 1.15186, 1.15478, 1.15595, 1.16093, 1.1634, 1.17333, 1.24737, 1.1978, 1.19866, 1.19675, 1.17869, 1.21257, 1.18983, 1.18537, 1.2112, 1.22326, 1.28419, 1.30703, 1.31354, 1.19899, 1.18474, 1.267, 1.20629, 1.19897, 1.22577, 1.24, 1.24845, 1.28017, 1.3633, 1.35712, 1.36879, 1.36928, 1.32109, 1.26492, 1.28491, 1.17043, 1.1471, 1.14583, 1.1382, 1.12645, 1.09864, 1.09261, 1.04925, 1.04719, 1.05205, 1.03339, 1.04318, 1.01033, 1.00215, 0.968218, 0.965377, 0.953279, 0.940419, 0.937121, 0.935941, 0.938278, 0.935461, 0.950273, 0.950238, 0.948731, 0.927552, 0.921955, 0.922242, 1.06948, 0.978782, 0.971719, 0.942872, 0.931498, 0.934641, 0.919201, 0.91982, 0.923562, 0.929367, 0.935431, 0.935221, 0.929454, 0.930638, 0.931935, 0.933337, 0.930897, 0.932088, 0.933029, 0.945744, 0.925985, 0.925889, 0.926263, 0.927892, 0.960811, 1.19653, 0.958154, 1.20506, 0.959367, 0.959317, 0.960221, 0.960945, 0.962072, 0.964489, 0.967376, 0.968757, 1.08584, 1.08413, 1.17668, 0.978511, 0.980798, 1.18458, 0.982516, 1.05001, 1.05428, 0.99418, 1.21643, 1.20729, 0.979289, 0.98037, 0.983368, 1.36882, 1.01173, 0.998991, 1.00096, 1.00326, 1.00678, 1.01173, 1.01245, 1.01124, 1.0146, 1.01702, 1.02161, 1.02555, 1.09411, 1.04885, 1.0442, 1.09419, 1.05013, 1.0528, 1.06127, 1.06784, 1.06769, 1.06814, 1.12295, 1.07467, 1.0742, 1.07792
0.929599, 0.928902, 0.926592, 0.959445, 0.98728, 0.966569, 0.989105, 0.890646, 0.911311, 0.880996, 0.947038, 0.936216, 0.908247, 0.912884, 0.905574, 0.88552, 0.883977, 0.884249, 0.882733, 0.884313, 0.884126, 0.883071, 0.883335, 0.886703, 0.885423, 0.883736, 0.882237, 0.879934, 0.876758, 0.874338, 0.87211, 1.07078, 0.923914, 1.09784, 0.925311, 0.924944, 0.924046, 0.959758, 1.11917, 0.897841, 0.896854, 0.891659, 0.889249, 0.884503, 0.883978, 0.879736, 0.880185, 0.882882, 0.883408, 0.884991, 0.885986, 0.884965, 0.888007, 0.8857, 0.885993, 0.886944, 0.887746, 0.886887, 0.884354, 0.882499, 0.884048, 0.884196, 0.919446, 1.04817, 0.966742, 0.945604, 0.946406, 1.00254, 0.925019, 0.924911, 0.913232, 0.930299, 0.966213, 0.961569, 1.01652, 0.951498, 0.958286, 0.957765, 0.958164, 0.994103, 0.995339, 1.00908, 1.01078, 1.00778, 1.00902, 1.08605, 1.08588, 1.06003, 1.07135, 1.07097, 1.08419, 1.08322, 1.08204, 1.09126, 1.10111, 1.14122, 1.14201, 1.12851, 1.13353, 1.12086, 1.1202, 1.1575, 1.14368, 1.21606, 1.2232, 1.22259, 1.19169, 1.19382, 1.19547, 1.16769, 1.15746, 1.1682, 1.17163, 1.18291, 1.17441, 1.18833, 1.23382, 1.24979, 1.17921, 1.27349, 1.18862, 1.20648, 1.2538, 1.22739, 1.21655, 1.3079, 1.24458, 1.32817, 1.44624, 1.39832, 1.31049, 1.30858, 1.31109, 1.31159, 1.13768, 1.13611, 1.13609, 1.12673, 1.0818, 1.07761, 1.11456, 1.0563, 1.07795, 1.07895, 1.03587, 1.01291, 1.01027, 1.00897, 0.966212, 0.964256, 0.948096, 0.919927, 0.912758, 0.937285, 0.928927, 0.928378, 0.926887, 0.926383, 0.939061, 0.91873, 0.91223, 0.978137, 0.975974, 0.976396, 0.981324, 0.942137, 0.930825, 0.922825, 0.920398, 0.919063, 0.928509, 0.929277, 0.930865, 0.932825, 0.930783, 0.931377, 0.932026, 0.932582, 0.931861, 0.932301, 0.934045, 0.93519, 0.924845, 0.924818, 0.925037, 0.927276, 1.03438, 1.08333, 1.20146, 0.957576, 0.956966, 0.959472, 0.958223, 0.959496, 0.96202, 0.963635, 0.966522, 0.967929, 0.967517, 0.968537, 1.17761, 0.976049, 0.977052, 0.976782, 0.977793, 1.11361, 0.98607, 0.985034, 0.986937, 0.991635, 0.982934, 0.982138, 0.983481, 1.01537, 0.986687, 0.996436, 0.997429, 1.00397, 1.00522, 1.01112, 1.01126, 1.01293, 1.01624, 1.02061, 1.02238, 1.02587, 1.09239, 1.03859, 1.03963, 1.04517, 1.10136, 1.05571, 1.05708, 1.07384, 1.06677, 1.06674, 1.07011, 1.08351, 1.0746, 1.07644
0.931464, 0.930852, 0.929167, 1.05131, 1.06748, 0.916869, 0.89253, 0.951559, 0.880743, 0.882724, 0.942916, 0.959051, 1.18101, 1.17868, 0.911833, 0.911004, 0.884378, 0.88405, 0.883507, 0.884166, 0.884602, 0.883693, 0.883577, 0.881634, 0.883676, 0.883458, 0.882801, 0.880483, 0.877103, 0.876452, 0.869722, 0.870292, 0.913125, 0.945522, 0.923274, 0.925064, 0.924282, 0.925029, 1.10209, 0.897845, 0.891921, 0.892056, 0.885697, 0.885178, 0.881689, 0.880387, 0.879793, 0.879909, 0.884807, 0.879192, 0.883361, 0.884823, 0.885641, 0.887008, 0.884703, 0.885054, 0.886789, 0.886876, 0.88572, 0.885775, 0.884876, 0.88518, 1.0469, 0.92119, 1.00177, 0.947695, 0.926144, 0.935005, 0.935476, 0.935755, 0.910773, 0.884646, 0.932824, 0.99024, 0.921378, 0.935652, 0.960527, 0.980799, 0.981308, 0.987431, 1.01081, 1.08571, 1.09563, 1.08714, 1.01367, 1.09112, 1.03007, 1.031, 1.08955, 1.05041, 1.05085, 1.07085, 1.06232, 1.07719, 1.08665, 1.1022, 1.13786, 1.10281, 1.10093, 1.10557, 1.1076, 1.11962, 1.12277, 1.16283, 1.2266, 1.2168, 1.2087, 1.19846, 1.22961, 1.15063, 1.20904, 1.12896, 1.13314, 1.14595, 1.16914, 1.17582, 1.22535, 1.18273, 1.20195, 1.27417, 1.18871, 1.18395, 1.19042, 1.17844, 1.20865, 1.20231, 1.23448, 1.31035, 1.35801, 1.36221, 1.30556, 1.3057, 1.30579, 1.15406, 1.13001, 1.15007, 1.11889, 1.11939, 1.10648, 1.06071, 1.11767, 1.06416, 1.07839, 1.08033, 1.01464, 1.00647, 0.994729, 1.00633, 0.987771, 0.970265, 0.927239, 0.917778, 0.93973, 0.93301, 0.934151, 0.924529, 0.927652, 0.92176, 0.949331, 0.949685, 0.925364, 0.916277, 1.06127, 0.969842, 0.970743, 0.939782, 0.92592, 0.922397, 0.917929, 0.920043, 0.923598, 0.936307, 0.936921, 0.929541, 0.929119, 0.930298, 0.932395, 0.930655, 0.931676, 0.932799, 0.933808, 0.935174, 0.945016, 0.946216, 1.10534, 0.928384, 1.07479, 0.954733, 0.954793, 0.960599, 0.957813, 0.959265, 0.959397, 0.959365, 0.960105, 0.962554, 0.965426, 0.966371, 0.966591, 0.964845, 1.17934, 0.974471, 0.970793, 0.975518, 0.976377, 0.980641, 0.983501, 0.985531, 0.986683, 0.989665, 0.990907, 0.981421, 0.98167, 1.0192, 0.987329, 0.987642, 0.998052, 0.99961, 1.00279, 1.01077, 1.01233, 1.01463, 1.01749, 1.02472, 1.02422, 1.02512, 1.02604, 1.07932, 1.09102, 1.03482, 1.08663, 1.08274, 1.05416, 1.07383, 1.06093, 1.06524, 1.06707, 1.06641, 1.06925, 1.06931
0.970134, 0.936862, 0.936735, 0.934328, 0.979361, 1.04057, 0.890548, 0.880152, 0.880767, 0.908473, 0.979052, 0.952343, 0.916472, 0.916438, 1.1885, 0.922268, 1.23779, 0.883411, 0.883124, 0.882488, 0.88296, 0.883702, 0.88371, 0.882291, 0.881608, 0.881577, 0.880515, 0.880552, 0.876669, 0.876453, 0.866921, 0.868041, 0.870612, 0.943904, 0.966785, 0.930564, 0.922913, 0.946728, 0.9543, 0.898063, 0.892252, 0.889641, 0.889385, 0.884404, 0.876576, 0.878392, 0.880001, 0.88004, 0.879115, 0.879359, 0.881445, 0.883812, 0.888085, 0.887628, 0.884787, 0.883812, 0.8841, 0.889144, 0.885169, 0.886543, 0.883334, 0.883753, 0.886591, 1.06389, 0.918058, 0.990394, 0.932688, 0.935947, 0.935787, 0.889728, 0.90817, 0.877126, 0.882388, 0.939278, 0.883228, 0.921927, 0.931247, 0.980741, 0.956945, 0.974217, 1.01343, 1.0668, 0.985278, 1.01589, 1.0166, 1.01941, 1.01631, 1.01304, 1.02106, 1.0212, 1.04156, 1.01882, 1.04696, 1.06183, 1.08053, 1.09278, 1.07915, 1.09858, 1.09348, 1.09451, 1.09424, 1.09841, 1.12317, 1.11865, 1.16032, 1.19258, 1.18956, 1.2393, 1.20194, 1.12232, 1.13083, 1.13305, 1.13947, 1.11626, 1.15142, 1.17695, 1.1418, 1.15122, 1.13349, 1.1467, 1.13377, 1.1482, 1.16253, 1.19551, 1.17921, 1.18184, 1.18799, 1.28986, 1.31593, 1.2891, 1.28934, 1.2396, 1.15374, 1.14278, 1.13893, 1.12225, 1.11208, 1.10603, 1.07461, 1.08012, 1.02714, 1.03645, 1.02283, 1.03062, 0.994069, 1.00923, 0.967638, 0.964695, 0.953875, 0.945124, 0.970131, 0.919709, 0.942466, 0.97342, 0.964075, 0.913812, 0.931902, 0.916603, 0.917876, 0.918878, 0.92188, 0.92173, 1.04865, 0.970999, 0.971577, 0.927894, 0.928144, 0.917282, 0.917944, 0.935416, 0.936986, 0.937324, 0.938436, 0.928943, 0.929026, 0.929219, 0.930493, 0.932345, 0.932448, 0.932642, 0.933014, 0.935031, 0.935292, 0.944706, 1.1851, 1.04214, 1.04364, 1.10086, 0.954772, 0.953124, 0.951808, 0.952786, 0.960464, 0.959347, 0.959508, 0.960638, 0.962942, 0.96523, 0.966765, 1.1774, 0.965569, 0.966729, 1.09106, 0.973728, 0.975391, 0.980982, 0.98225, 0.983606, 0.985933, 0.989002, 0.988403, 0.998194, 1.00091, 0.995796, 0.985718, 0.987826, 0.991992, 0.999992, 1.00364, 1.00534, 1.03525, 1.01641, 1.01822, 1.02333, 1.02103, 1.02309, 1.06373, 1.01908, 1.08486, 1.12108, 1.03229, 1.11627, 1.04361, 1.04671, 1.04784, 1.05794, 1.05757, 1.0626, 1.0631, 1.06368
1.06655, 0.936246, 1.02139, 0.935553, 1.01363, 1.01991, 0.886641, 0.878638, 0.883567, 0.8821, 0.881116, 0.956333, 1.09181, 0.965774, 1.18294, 0.935202, 0.919546, 0.901475, 0.884026, 0.883837, 0.884377, 0.884045, 0.883956, 0.883582, 0.88105, 0.87867, 0.879024, 0.878873, 0.876089, 0.866586, 0.866809, 0.866967, 0.870833, 0.883561, 0.903912, 0.919239, 0.932245, 0.901501, 0.901001, 0.968326, 0.889494, 0.889361, 0.888729, 0.884807, 0.880997, 0.878933, 0.88, 0.87976, 0.878546, 0.880352, 0.882335, 0.883559, 0.886931, 0.884363, 0.884711, 0.883693, 0.884127, 0.888749, 0.887402, 0.884671, 0.88456, 0.882876, 0.883267, 0.883067, 0.885635, 0.907338, 0.929303, 0.927963, 0.909697, 0.905221, 0.897891, 0.878219, 0.879393, 0.880125, 0.862941, 0.884246, 0.882401, 0.880075, 0.950181, 0.92527, 0.969426, 0.971128, 0.96821, 1.01194, 1.03261, 1.05791, 1.01508, 1.0162, 1.01801, 1.00858, 1.03648, 1.02372, 1.02297, 1.04107, 1.06053, 1.08921, 1.08446, 1.13975, 1.09543, 1.08156, 1.08676, 1.07448, 1.08941, 1.09392, 1.16356, 1.20188, 1.24017, 1.18236, 1.21342, 1.10636, 1.10675, 1.10669, 1.11174, 1.11292, 1.14487, 1.17404, 1.12001, 1.12747, 1.13954, 1.13632, 1.10672, 1.18272, 1.10845, 1.18564, 1.18441, 1.15639, 1.16861, 1.16072, 1.182, 1.25574, 1.15755, 1.1479, 1.16436, 1.12465, 1.14311, 1.10213, 1.20656, 1.12617, 1.04648, 1.04635, 1.10849, 1.00372, 0.991798, 1.00757, 0.972184, 0.972723, 0.99821, 0.988965, 1.01905, 0.925446, 0.932355, 0.933255, 0.953002, 0.964047, 0.967009, 0.917812, 0.983401, 0.917617, 0.918672, 0.91783, 0.919361, 1.09177, 0.98446, 0.984626, 0.987773, 0.926127, 0.923957, 0.918246, 0.918009, 0.919863, 0.9236, 0.937293, 0.93861, 0.926977, 0.926731, 0.927683, 0.930108, 0.931642, 0.932797, 0.932835, 0.931659, 0.934548, 0.934413, 0.93512, 0.935533, 0.945787, 1.08222, 1.04329, 0.95291, 0.947269, 0.952993, 0.951731, 0.947384, 0.956724, 0.957515, 1.09744, 0.963022, 0.963403, 0.968421, 0.991179, 0.964289, 1.08901, 0.970252, 0.971554, 0.973484, 0.974716, 0.980528, 0.983405, 0.984114, 0.988014, 0.988784, 0.988913, 0.971164, 0.992676, 1.00607, 0.99068, 0.993751, 0.997423, 1.00242, 1.00501, 1.01489, 1.01556, 1.01598, 1.22999, 1.05783, 1.05995, 1.15007, 1.01563, 1.01843, 1.01951, 1.02708, 1.03308, 1.04048, 1.04078, 1.04599, 1.11655, 1.11701, 1.05325, 1.05982, 1.06394
1.02267, 1.10651, 1.08347, 1.07343, 1.00882, 0.88777, 0.887185, 0.921486, 0.922289, 0.879274, 0.88339, 0.883622, 0.941941, 0.933509, 0.926275, 0.9183, 0.911332, 1.23808, 0.887639, 0.888098, 0.888216, 0.887119, 0.884883, 0.883982, 0.883761, 0.880146, 0.880185, 0.878743, 0.873758, 0.873655, 0.86652, 0.86621, 0.8646, 0.86817, 0.902403, 0.906011, 0.954968, 0.901826, 0.901591, 1.14965, 0.895373, 0.88255, 0.881712, 0.883607, 0.88336, 0.880795, 0.882431, 0.879801, 0.878673, 0.880524, 0.882799, 0.883971, 0.887584, 0.885523, 0.884434, 0.884449, 0.885034, 0.888958, 0.889254, 0.886758, 0.886036, 0.88414, 0.883829, 0.882277, 0.881706, 0.881141, 0.963314, 0.91018, 0.914252, 0.906464, 0.874917, 0.874302, 0.89766, 0.866474, 0.880128, 0.901222, 0.880728, 0.866886, 0.912104, 0.966865, 0.920251, 0.929069, 0.955809, 0.964336, 0.992316, 1.02372, 1.00762, 0.995488, 0.986964, 1.02176, 1.01223, 1.00894, 1.01581, 1.03078, 1.04337, 1.07674, 1.07751, 1.07437, 1.08081, 1.07747, 1.06477, 1.06437, 1.06286, 1.10812, 1.09501, 1.16783, 1.18743, 1.1605, 1.13782, 1.10523, 1.15, 1.10198, 1.10313, 1.1394, 1.09321, 1.13741, 1.14341, 1.10899, 1.11505, 1.09648, 1.09744, 1.10514, 1.10734, 1.13195, 1.18057, 1.18114, 1.25122, 1.1513, 1.13594, 1.13578, 1.11203, 1.19799, 1.20996, 1.19618, 1.12547, 1.12583, 1.10602, 1.07722, 1.10751, 1.10509, 1.05602, 0.9799, 0.98024, 1.00841, 0.977352, 0.997437, 0.97554, 1.00103, 0.931488, 0.930107, 0.955146, 0.928517, 0.961217, 0.963175, 0.902589, 1.00533, 0.973743, 0.966734, 0.968479, 0.919017, 0.91904, 1.08189, 1.0574, 1.03955, 1.01169, 1.20887, 0.922106, 0.918611, 0.919123, 0.921303, 0.921885, 1.04312, 1.08076, 0.926709, 0.926977, 0.929421, 0.930212, 0.93195, 0.932887, 0.931816, 0.931037, 0.934605, 0.934626, 0.936631, 0.936726, 0.932219, 0.933968, 1.10527, 0.946481, 0.946665, 0.949101, 0.95056, 0.944769, 0.945604, 0.956076, 0.955931, 0.956644, 0.970166, 0.965419, 1.16468, 1.08893, 1.0124, 0.966404, 0.969822, 0.972339, 0.973644, 0.977634, 0.982025, 0.982772, 0.985289, 0.984781, 0.98522, 0.988274, 0.997655, 0.994576, 0.993268, 0.992032, 0.992869, 0.99886, 1.00614, 1.01028, 1.01157, 1.03659, 1.03588, 1.04252, 1.05688, 1.07349, 1.01462, 1.01813, 1.01951, 1.02449, 1.02897, 1.03623, 1.0374, 1.04227, 1.04437, 1.04842, 1.05203, 1.05425, 1.05826
1.07192, 1.01678, 1.10296, 1.03338, 1.05763, 1.06886, 0.907661, 0.940302, 0.928208, 0.987782, 0.960311, 0.985477, 0.946012, 0.925074, 0.925384, 0.925598, 0.913823, 1.00813, 0.8925, 0.890885, 0.89031, 0.887414, 0.885644, 0.886517, 0.883561, 0.879382, 0.878335, 0.877474, 0.874004, 0.872709, 0.86406, 0.862913, 0.862796, 0.868891, 0.897605, 0.899332, 0.896478, 0.897065, 0.890204, 0.889005, 0.881283, 0.881832, 0.882075, 0.884097, 0.883716, 0.881969, 0.881321, 0.879071, 0.879844, 0.881253, 0.881588, 0.886613, 0.889105, 0.885814, 0.88512, 0.882322, 0.88407, 0.885285, 0.885763, 0.886219, 0.884138, 0.883011, 0.880549, 0.879766, 0.880091, 0.879944, 1.05993, 0.891871, 0.892799, 0.89576, 0.897002, 0.873147, 0.8576, 0.89802, 0.85544, 0.854445, 0.85847, 0.903093, 0.863071, 0.878458, 0.891191, 0.927942, 0.939864, 0.941341, 0.996381, 1.07495, 1.00099, 0.971563, 1.00205, 1.00273, 0.999644, 1.00754, 1.01127, 1.01153, 1.05305, 1.05695, 1.0775, 1.08039, 1.06102, 1.06773, 1.06292, 1.05316, 1.08316, 1.08439, 1.09292, 1.12621, 1.12562, 1.12521, 1.11915, 1.12293, 1.12433, 1.08467, 1.10557, 1.07861, 1.07851, 1.07508, 1.07522, 1.0889, 1.09006, 1.09859, 1.09176, 1.07766, 1.1056, 1.13667, 1.1232, 1.12982, 1.11912, 1.11977, 1.11008, 1.26541, 1.11269, 1.23215, 1.17905, 1.19579, 1.11722, 1.10881, 1.08434, 1.05885, 1.12432, 1.00838, 0.982325, 0.977773, 0.982367, 0.966746, 0.945828, 0.946886, 0.987594, 0.937058, 0.930493, 0.954908, 0.955172, 0.951374, 0.931723, 0.894581, 0.888759, 0.891572, 0.981418, 0.915604, 0.92071, 0.918617, 0.929002, 1.10958, 1.05688, 1.10899, 1.06644, 0.929877, 0.923115, 0.918627, 0.919401, 0.919834, 0.918051, 0.918616, 0.954478, 0.926436, 0.928157, 0.929411, 0.928925, 0.929877, 0.931294, 0.932828, 0.931838, 0.935371, 0.935231, 0.936573, 0.938535, 0.934296, 0.935291, 1.16052, 0.944771, 0.947136, 0.948167, 0.949533, 0.949463, 0.945804, 0.956827, 0.956392, 0.954521, 0.954546, 0.960605, 0.963606, 1.09154, 1.00894, 0.964446, 0.967892, 0.970707, 0.972281, 0.977166, 0.980278, 0.982207, 0.982419, 0.983922, 0.985718, 0.987263, 0.989654, 0.995055, 0.994402, 0.992161, 0.997233, 0.997794, 1.00509, 1.00712, 1.40298, 1.00677, 1.03322, 1.20331, 1.20259, 0.997866, 1.00212, 1.08449, 1.08461, 1.08794, 1.08616, 1.03273, 1.03358, 1.04132, 1.04235, 1.10128, 1.05347, 1.05335, 1.05385
1.08295, 1.08399, 1.09501, 1.07078, 1.05862, 1.07863, 0.968158, 0.94075, 1.04667, 0.992001, 1.1015, 0.973848, 1.095, 0.926116, 0.925908, 1.1468, 1.13988, 0.905037, 0.904831, 0.890819, 0.891398, 0.889399, 0.888479, 0.891484, 0.884785, 0.879571, 0.875054, 0.873882, 0.874302, 0.863333, 0.864736, 0.862883, 0.863708, 0.872988, 0.874241, 0.895363, 0.896192, 0.895633, 0.889181, 0.88872, 0.884468, 0.884013, 0.883518, 0.884021, 0.884213, 0.884161, 0.877384, 0.878247, 0.879157, 0.878262, 0.881197, 0.88668, 0.886858, 0.886375, 0.881756, 0.883735, 0.882567, 0.880957, 0.884093, 0.884301, 0.884423, 0.881194, 0.879209, 0.879949, 0.880301, 0.880376, 0.880035, 0.891822, 0.892665, 0.897323, 0.89825, 0.85955, 0.866087, 0.925918, 0.853989, 0.861925, 0.863059, 0.903903, 0.843032, 0.902761, 0.902761, 0.881573, 0.900723, 0.935934, 0.937911, 0.981118, 0.977706, 0.983874, 0.992308, 1.0005, 1.06548, 1.00549, 1.00529, 1.06634, 1.03045, 1.0234, 1.03731, 1.04476, 1.02753, 1.02714, 1.02026, 1.0466, 1.04907, 1.07127, 1.10239, 1.11067, 1.17448, 1.12312, 1.06717, 1.04934, 1.06773, 1.05877, 1.06331, 1.06419, 1.06991, 1.05741, 1.08124, 1.06771, 1.04861, 1.04886, 1.07717, 1.07582, 1.07064, 1.08491, 1.17329, 1.10839, 1.12577, 1.11854, 1.26247, 1.24354, 1.10185, 1.11051, 1.10856, 1.19205, 1.14303, 1.11734, 1.07132, 1.08251, 1.11875, 0.992449, 0.989016, 0.963712, 0.962808, 0.9628, 0.970555, 1.00624, 0.928356, 0.92837, 0.924581, 0.950756, 0.94949, 0.991898, 0.895812, 0.897361, 0.897289, 0.898013, 0.912181, 0.915698, 0.92946, 0.969062, 0.92178, 1.11786, 0.945776, 0.948159, 0.935427, 0.929157, 0.928178, 0.921421, 0.920202, 0.918488, 0.918027, 0.917159, 1.02846, 0.924722, 0.925758, 0.925916, 0.931438, 0.930631, 0.931367, 0.93186, 0.931952, 0.934, 0.934163, 0.936689, 0.937306, 0.93504, 0.935338, 0.981277, 1.13949, 0.943774, 0.948102, 0.949719, 0.951159, 0.94998, 0.951627, 0.952625, 0.954732, 0.954778, 0.955561, 0.965127, 1.20413, 1.00605, 0.963646, 0.965336, 0.967973, 0.971378, 0.973443, 0.977492, 0.979563, 0.980457, 0.983716, 0.983741, 0.98526, 0.990504, 0.990397, 0.991669, 0.993557, 0.993978, 0.996208, 0.998807, 1.02414, 1.00158, 1.00219, 1.00215, 1.00076, 1.00119, 0.997095, 0.999159, 1.0032, 1.00909, 1.09549, 1.09536, 1.14449, 1.03242, 1.03641, 1.04102, 1.04342, 1.04464, 1.04598, 1.05341
1.00787, 1.06957, 1.09846, 1.06493, 1.07186, 1.09212, 1.10822, 1.02282, 1.01988, 1.10831, 0.94628, 0.987139, 1.06853, 0.946716, 0.988254, 0.918819, 1.18992, 0.904979, 0.904489, 0.904225, 0.895119, 0.89324, 0.892553, 0.890879, 0.890923, 0.925717, 0.875655, 0.874538, 0.877659, 0.866345, 0.865094, 0.863797, 0.863317, 0.871933, 1.04191, 0.894805, 0.899383, 0.89856, 0.892462, 0.886876, 0.885205, 0.8846, 0.884611, 0.883507, 0.884934, 0.885718, 0.876951, 0.877406, 0.875802, 0.875471, 0.880754, 0.881446, 0.886963, 0.886061, 0.88269, 0.880836, 0.881773, 0.880156, 0.88035, 0.880341, 0.879965, 0.88173, 0.882341, 0.880828, 0.879849, 0.880549, 0.880327, 0.875062, 1.01242, 0.948063, 0.900407, 0.883596, 0.837, 0.839316, 0.854704, 0.857697, 0.860529, 0.860349, 0.844539, 0.834996, 0.835144, 0.861107, 0.887068, 0.891527, 0.906691, 0.998526, 0.947306, 0.98635, 0.960214, 1.02225, 0.978459, 0.982637, 0.986996, 0.991274, 0.997483, 0.991201, 0.988706, 1.02334, 1.02955, 1.00489, 1.01027, 1.01945, 1.02557, 1.02975, 1.07167, 1.07231, 1.04252, 1.07436, 1.05549, 1.04754, 1.04608, 1.03275, 1.0547, 1.05483, 1.05456, 1.04066, 1.0527, 1.05253, 1.03144, 1.03797, 1.03659, 1.04745, 1.1511, 1.1514, 1.16028, 1.11663, 1.13363, 1.31716, 1.13227, 1.16737, 1.09794, 1.09235, 1.1085, 1.11134, 1.09874, 1.07299, 1.07227, 1.08213, 1.08353, 1.08416, 0.987405, 0.967134, 0.956564, 0.959315, 0.980687, 0.942544, 0.922417, 0.92364, 0.925085, 0.910904, 0.944083, 0.897446, 0.904799, 0.923105, 0.912056, 0.898072, 0.907754, 0.925795, 0.930212, 0.925704, 0.924994, 1.11979, 0.945836, 0.945777, 0.932373, 0.929782, 0.929122, 0.919391, 0.92132, 0.918061, 0.918013, 0.91856, 0.923756, 0.924936, 0.924973, 0.932549, 0.926522, 0.929325, 0.931633, 0.931905, 0.931866, 0.932225, 0.933493, 0.934775, 0.935973, 0.934298, 0.935134, 1.16707, 1.14511, 0.94311, 0.94396, 0.945662, 0.94829, 0.950691, 0.950137, 0.952541, 0.954253, 0.955051, 0.95526, 0.955194, 0.954119, 1.01148, 0.970901, 0.963736, 0.965355, 0.968424, 0.969977, 0.973456, 0.975818, 0.979688, 0.980246, 0.981902, 0.982739, 0.987798, 0.991649, 0.990491, 0.990621, 0.991541, 0.99663, 0.998353, 1.00105, 0.997565, 1.00252, 1.03637, 1.03775, 0.99238, 0.994818, 0.996793, 1.0029, 1.09187, 1.08714, 1.10237, 1.09015, 1.02687, 1.11529, 1.04143, 1.04053, 1.04119, 1.04573, 1.04783
1.01491, 1.10083, 1.10172, 1.10854, 1.06257, 1.06736, 1.02594, 1.0645, 1.04628, 1.04127, 1.08191, 0.954362, 0.953526, 1.07004, 0.928736, 0.927522, 0.89857, 0.899119, 0.902104, 0.902011, 0.900095, 0.893129, 0.892189, 0.891835, 0.887261, 0.885068, 0.880844, 0.873443, 0.879999, 0.865841, 0.866144, 0.867295, 0.866575, 0.87362, 0.977455, 0.904371, 0.904421, 0.893441, 0.892724, 0.886472, 0.884403, 0.884296, 0.884315, 0.883735, 0.881839, 0.883464, 0.883689, 0.874461, 0.873144, 0.875433, 0.880382, 0.881741, 0.884815, 1.03773, 0.883383, 0.883277, 0.879347, 0.878419, 0.877019, 0.876514, 0.875502, 0.879908, 0.879225, 0.878853, 0.879087, 0.877938, 0.876194, 0.872103, 0.873045, 0.874547, 0.878848, 0.884428, 0.873927, 0.832798, 0.928162, 0.844651, 0.84538, 0.848403, 0.850172, 0.838745, 0.843377, 0.850477, 0.847938, 0.857769, 0.874468, 0.894053, 0.988871, 1.00573, 0.9307, 0.929567, 0.931925, 0.941613, 0.953892, 0.93789, 0.938635, 0.995216, 0.960623, 0.96674, 0.975508, 0.983161, 0.978204, 0.986464, 1.01122, 1.01079, 1.03694, 1.04634, 1.03716, 1.01818, 1.03259, 1.02969, 1.03375, 1.07523, 1.02528, 1.0392, 1.03986, 1.03694, 1.03055, 1.01329, 1.04978, 1.0458, 1.0737, 1.12213, 1.15162, 1.06852, 1.0693, 1.0569, 1.102, 1.07298, 1.06886, 1.0698, 1.08422, 1.1944, 1.20554, 1.13252, 1.14511, 1.16198, 1.0678, 1.07777, 1.07873, 1.09527, 0.982092, 0.966589, 0.958059, 0.957845, 0.946334, 0.950734, 0.933209, 0.931432, 0.922335, 0.909418, 0.90945, 0.925073, 0.916899, 0.919382, 0.917717, 0.930608, 0.931421, 0.922882, 0.922481, 0.916907, 0.918206, 0.926156, 0.945691, 0.946307, 0.946507, 0.922786, 0.922403, 0.918645, 0.918954, 0.914684, 0.914636, 0.917742, 0.921455, 0.922455, 0.923972, 0.927057, 0.927503, 0.929814, 0.930486, 0.932499, 0.932321, 0.930775, 0.93221, 0.931628, 0.933584, 0.935796, 0.935257, 0.935397, 1.15392, 0.941348, 0.94281, 0.944062, 0.944889, 0.945662, 0.951064, 0.952924, 0.954037, 0.955573, 0.95618, 0.952619, 0.967247, 1.19486, 1.19478, 1.03205, 0.964135, 0.966888, 0.966588, 0.970998, 0.973533, 0.976152, 0.976944, 0.978809, 0.981185, 0.983994, 0.98657, 0.991103, 0.989726, 0.990332, 0.993731, 0.995705, 0.997461, 0.997634, 0.994972, 1.12312, 0.992419, 0.991717, 0.993699, 0.99619, 1.00269, 1.00436, 1.08686, 1.17843, 1.01883, 1.1085, 1.12109, 1.03882, 1.0381, 1.03813, 1.04296, 1.04923
1.00198, 1.05708, 1.05713, 1.0254, 1.02591, 1.0567, 1.02008, 1.08437, 1.09986, 1.07786, 1.03255, 0.99259, 0.961278, 0.958288, 1.00501, 0.922918, 0.901391, 0.900736, 0.904159, 0.904535, 0.90115, 0.895003, 0.892424, 0.889107, 0.887153, 0.881104, 0.879967, 0.874476, 0.866951, 0.86626, 0.867853, 0.868079, 0.867561, 0.868558, 0.948733, 0.90604, 0.905028, 0.893411, 0.890793, 0.888633, 0.883346, 0.88321, 0.883995, 0.883773, 0.881587, 0.883651, 0.882798, 0.875102, 0.874999, 0.874842, 0.875763, 0.876621, 1.11201, 0.88069, 0.883625, 0.88305, 0.879054, 0.87779, 0.876975, 0.875239, 0.873548, 0.873222, 0.873745, 0.87693, 0.878688, 0.874923, 0.876299, 0.874603, 0.873349, 0.8736, 0.875775, 0.857246, 0.875, 0.873368, 0.871879, 0.844413, 0.849116, 0.843578, 0.849237, 0.825198, 0.814398, 0.8297, 0.832991, 0.871973, 0.872445, 0.901374, 0.967257, 0.968328, 0.915231, 0.892136, 0.9109, 0.911311, 0.909434, 0.922997, 0.922846, 0.968989, 0.966394, 0.90615, 0.930515, 0.944365, 0.981313, 0.971464, 0.98059, 1.0243, 1.04246, 1.02516, 0.995284, 0.996271, 1.00292, 0.998261, 0.997807, 1.00927, 1.0567, 1.00158, 1.01794, 1.02507, 1.05496, 1.01203, 1.04198, 1.03733, 1.04627, 1.03522, 1.03902, 1.04956, 1.03897, 1.11018, 1.17061, 1.17088, 1.07015, 1.07117, 1.1745, 1.09031, 1.22873, 1.13911, 1.14164, 1.16442, 1.08184, 1.09919, 0.981769, 0.982271, 0.983747, 0.968408, 0.929744, 0.931932, 1.00124, 1.0026, 0.933196, 0.938958, 0.933168, 0.978971, 0.923018, 0.924166, 0.918019, 0.918091, 0.933586, 0.929492, 0.940127, 0.92482, 0.925154, 0.921889, 0.925711, 0.926866, 1.13359, 0.944093, 0.945947, 1.14201, 0.922655, 0.91891, 0.919619, 0.914295, 0.914643, 0.920204, 0.921159, 0.919324, 0.918888, 0.925727, 0.928887, 0.92998, 0.929615, 0.930238, 0.929373, 0.928707, 0.930264, 0.93099, 0.933072, 0.934739, 0.93589, 0.936216, 0.937994, 0.939255, 0.944342, 0.945689, 0.94567, 0.945784, 0.949997, 0.950224, 0.952675, 0.953155, 0.952974, 0.967742, 0.967645, 1.21889, 1.2201, 1.23144, 1.23258, 0.965687, 0.967269, 0.968524, 0.973109, 0.973574, 0.974774, 0.976523, 0.981075, 0.983531, 0.985496, 0.988553, 0.989319, 0.992625, 0.994381, 0.994919, 0.99472, 0.996237, 0.994885, 0.989195, 0.989401, 0.990329, 0.991507, 0.993909, 0.99696, 1.00449, 1.00613, 1.01536, 1.01619, 1.02454, 1.0253, 1.02659, 1.03139, 1.03445, 1.03678, 1.11919
1.00094, 1.00183, 1.09121, 1.02828, 1.02797, 1.02745, 1.02263, 1.04578, 1.06103, 1.09124, 1.04735, 1.08217, 1.0041, 1.04738, 0.954194, 1.07922, 0.904775, 0.904386, 0.90464, 0.904591, 0.902337, 0.901851, 0.896794, 0.895474, 0.897147, 0.8828, 0.881291, 0.877638, 0.866525, 0.866427, 0.867586, 0.868713, 0.869968, 0.877014, 0.876615, 0.907754, 0.897541, 0.896814, 0.894901, 1.04197, 0.883941, 0.883015, 0.881254, 0.880094, 0.879884, 0.878854, 0.879312, 0.876356, 0.876411, 0.876947, 0.876389, 0.876701, 0.876369, 0.876417, 0.878928, 0.878705, 0.876812, 0.876183, 0.875953, 0.872373, 0.872112, 0.871526, 0.873952, 0.876102, 0.875635, 0.876365, 0.87501, 0.877484, 0.873797, 0.874653, 0.873266, 0.873611, 0.85862, 0.835631, 0.879157, 0.844799, 0.839721, 0.839348, 0.893789, 0.84265, 0.8256, 0.826256, 0.854965, 0.867204, 0.864457, 0.863386, 0.960203, 0.90595, 0.909843, 0.914655, 0.906759, 0.892919, 0.908557, 0.892382, 0.870513, 0.901516, 0.929541, 0.93156, 0.933221, 0.923068, 0.928572, 0.953256, 0.949214, 0.970282, 0.981684, 0.966534, 0.974261, 0.972359, 0.986733, 0.989784, 0.982142, 0.994761, 0.994549, 0.995929, 1.05521, 1.06752, 0.985095, 1.02223, 0.977718, 0.977221, 0.978402, 1.00391, 1.00527, 1.06654, 1.02688, 1.02979, 1.03607, 1.05921, 1.06873, 1.19203, 1.22256, 1.22222, 1.1024, 1.10225, 1.17129, 1.13993, 1.0741, 1.07686, 0.983509, 0.981724, 0.971764, 0.938597, 0.938589, 0.938697, 0.93182, 0.933624, 0.935054, 0.937353, 0.935443, 0.980778, 0.981518, 0.920519, 0.927494, 0.927932, 0.929775, 0.931606, 0.944395, 0.928521, 0.930591, 0.924893, 0.925348, 0.925235, 0.942743, 0.943173, 0.944292, 0.991295, 1.13592, 0.922184, 0.912154, 0.912689, 0.913285, 0.920926, 0.921449, 0.918592, 0.918714, 0.994007, 0.929335, 0.928929, 0.930479, 0.930436, 0.926446, 0.927871, 0.928375, 0.930007, 0.931769, 0.934502, 0.935534, 0.93605, 0.935859, 0.939655, 0.940661, 0.943108, 0.944349, 1.12196, 0.946076, 0.949419, 0.951806, 0.951335, 0.967055, 0.970423, 0.971647, 1.17445, 1.24464, 1.24938, 1.24734, 0.987966, 0.963373, 0.966626, 0.96858, 0.971172, 0.973197, 0.978595, 0.979043, 0.981801, 0.983495, 0.98462, 0.989392, 0.994083, 0.995198, 0.99377, 0.995233, 0.995995, 0.998976, 0.988579, 0.98551, 0.983934, 0.991347, 0.992958, 0.995157, 0.998236, 1.01285, 1.01496, 1.01365, 1.01957, 1.0224, 1.02584, 1.02747, 1.03013, 1.03205, 1.12074
0.997376, 0.998094, 1.04116, 1.02748, 1.029, 1.02226, 1.02185, 1.06657, 1.05828, 1.09404, 1.09843, 1.03954, 1.02427, 1.03233, 0.966913, 1.08272, 0.918905, 0.90566, 0.904499, 0.904286, 0.904323, 0.901725, 0.90066, 0.897766, 0.896819, 0.877783, 0.877268, 0.873229, 0.871494, 0.87166, 0.871649, 0.870574, 0.871346, 0.876755, 1.08826, 0.893668, 0.893532, 0.893833, 0.893224, 0.892767, 0.883831, 0.883376, 0.882042, 0.879938, 0.87856, 0.877444, 0.87685, 0.877506, 0.877369, 0.876374, 0.871886, 0.870799, 0.870411, 0.87841, 0.879618, 0.88002, 0.880062, 0.877307, 0.869341, 0.869351, 0.86549, 0.871043, 1.14513, 1.14026, 0.873608, 0.875608, 0.876444, 0.875983, 0.883577, 0.873435, 0.873576, 0.868526, 0.868842, 0.836751, 0.839712, 0.832536, 0.845673, 0.867308, 0.836811, 0.834884, 0.822319, 0.822862, 0.880335, 0.829942, 0.863869, 0.840095, 0.869445, 0.890894, 0.864789, 0.865339, 0.866111, 0.917552, 0.915033, 0.877483, 0.874391, 0.874593, 0.89306, 0.890732, 0.90079, 0.900433, 0.899431, 0.934783, 0.938484, 0.945649, 0.953934, 0.93155, 0.950196, 0.975047, 0.970238, 0.933596, 0.983782, 0.983723, 0.974693, 0.975991, 1.04335, 1.02287, 1.02111, 0.974016, 0.980494, 1.067, 0.976797, 0.99483, 1.01541, 1.01605, 1.02483, 1.02564, 1.02649, 1.05657, 1.0578, 1.13629, 1.15835, 1.12986, 1.10839, 1.10926, 1.10976, 1.15736, 1.03791, 1.09435, 1.0907, 1.18968, 0.963351, 1.0414, 0.944862, 0.945628, 0.944395, 0.937594, 0.928237, 0.942166, 0.942755, 0.944349, 1.0504, 0.932784, 0.926005, 0.928241, 0.929954, 0.955059, 0.946527, 0.931379, 0.931628, 0.922398, 0.923423, 0.998369, 1.00018, 0.942879, 0.94583, 0.992369, 1.18405, 0.915753, 0.913169, 0.912292, 0.912, 0.912129, 0.921238, 0.918989, 0.918754, 0.923382, 0.926455, 0.928179, 0.929378, 0.928483, 0.925978, 0.926646, 0.928613, 0.928502, 0.928747, 0.932897, 0.936934, 0.937162, 0.938181, 0.937532, 0.938137, 0.938545, 0.942358, 0.943976, 0.945456, 0.945758, 0.946091, 0.94979, 0.949061, 0.948965, 0.949947, 0.949878, 1.24502, 1.24627, 1.24685, 0.958414, 0.9579, 0.962816, 0.967975, 0.970816, 0.973232, 0.974903, 0.977824, 0.97993, 0.980659, 0.983237, 0.985038, 0.986184, 0.994488, 0.993604, 0.993781, 1.26486, 0.987401, 0.985156, 0.985722, 0.987315, 0.988153, 0.990318, 0.99507, 1.00556, 1.00778, 1.01444, 1.01492, 1.02116, 1.02163, 1.02151, 1.02412, 1.02917, 1.03385, 1.11996
0.99886, 0.999204, 1.07308, 1.08427, 1.02313, 1.02026, 1.02014, 1.03286, 1.03266, 1.03852, 1.08114, 1.05401, 1.11673, 1.00302, 1.03106, 0.942514, 0.947236, 0.904796, 0.905286, 0.904019, 0.902171, 0.901645, 0.901809, 0.891873, 0.890562, 0.890622, 0.877583, 0.873214, 0.871649, 0.873424, 0.873439, 0.872903, 0.874131, 0.876133, 0.875218, 0.894548, 0.894575, 0.894239, 0.893735, 0.891911, 0.885722, 0.882846, 0.878472, 0.878329, 0.878121, 0.877373, 0.878929, 0.877307, 0.876867, 0.875712, 0.873482, 0.869882, 0.871752, 0.871856, 0.874453, 0.880393, 0.880574, 1.0914, 0.86553, 0.864806, 0.863943, 0.861937, 0.862065, 0.870453, 0.876796, 0.877507, 0.875534, 0.877245, 0.877274, 0.876812, 0.873181, 0.871697, 0.86975, 0.864354, 0.863848, 0.863681, 0.864389, 0.867532, 0.890082, 0.822829, 0.880593, 0.842957, 0.860886, 0.884011, 0.846097, 0.841982, 0.836238, 0.899092, 0.899462, 0.902137, 0.863672, 0.863955, 0.853425, 0.852451, 0.894753, 0.919466, 0.91916, 0.888687, 0.945654, 0.904842, 0.899576, 0.903304, 0.904513, 0.940073, 0.92346, 0.909055, 0.922428, 0.916272, 0.969474, 0.934458, 0.957821, 0.981439, 0.949443, 0.949282, 0.963283, 0.937317, 1.02089, 1.0214, 0.956552, 0.95405, 1.0776, 0.957703, 0.994851, 0.994127, 1.05532, 1.15428, 1.02874, 1.03148, 1.05202, 1.04891, 1.13398, 1.10557, 1.10502, 1.10124, 1.1399, 1.12564, 1.13217, 0.992021, 1.07531, 0.998231, 0.965841, 0.96502, 0.938732, 1.0228, 0.925349, 0.93738, 0.927201, 0.928485, 0.93852, 0.968512, 0.968389, 0.937111, 0.937872, 0.919648, 0.914778, 0.914859, 0.909982, 0.908471, 0.917692, 0.918018, 0.92446, 0.997441, 1.00591, 0.94536, 0.945638, 1.0326, 0.918178, 0.918187, 0.912928, 0.912063, 0.91267, 0.914122, 0.915754, 0.91588, 0.916321, 0.917724, 1.25692, 0.928928, 0.929679, 0.929721, 0.92836, 0.926843, 0.926515, 0.924853, 0.931732, 0.931695, 0.938875, 0.93872, 0.937962, 0.937134, 0.936654, 0.936264, 0.936239, 0.937223, 0.941202, 0.942148, 0.943883, 0.946581, 0.948067, 0.94944, 0.948989, 0.949106, 1.23908, 0.995768, 0.994143, 1.25253, 0.95801, 0.961308, 0.964724, 0.969797, 0.972916, 0.973862, 0.976779, 0.977651, 0.980669, 0.98158, 0.984166, 0.985789, 0.990931, 0.992035, 0.989673, 1.01226, 0.985578, 0.983975, 0.987082, 0.985217, 0.986247, 0.988625, 1.06474, 1.19584, 1.00765, 1.00596, 1.00634, 1.01156, 1.01841, 1.02072, 1.02505, 1.02627, 1.03377, 1.03637
1.00159, 0.998782, 1.03298, 1.04646, 1.02528, 1.06355, 1.06114, 1.03339, 1.03412, 1.03447, 1.02272, 1.02062, 1.09254, 1.133, 1.01192, 0.932777, 0.947237, 0.902889, 0.904162, 0.903932, 0.90084, 0.902008, 0.894055, 0.890182, 0.890279, 0.892369, 0.892205, 0.885269, 0.867789, 0.872891, 0.873245, 0.872928, 0.873169, 0.875433, 0.874733, 1.35966, 0.90082, 0.90155, 0.891912, 0.890611, 0.880758, 0.879226, 0.87651, 0.876911, 0.875776, 0.874167, 0.880026, 0.879926, 0.881984, 0.882164, 0.881705, 0.881105, 0.87104, 0.873096, 0.873148, 0.871491, 0.875328, 0.876358, 0.864454, 0.861955, 0.864068, 0.862482, 0.862995, 0.871804, 0.873991, 0.877149, 0.877155, 0.875556, 0.876436, 0.878299, 0.879993, 0.872354, 0.869577, 0.864544, 0.864172, 0.863956, 0.864147, 0.854204, 0.854365, 0.832241, 0.87966, 0.879647, 0.846608, 0.877492, 0.843906, 0.838265, 0.870458, 0.801564, 0.801531, 0.850128, 0.811515, 0.857648, 0.866767, 0.894115, 0.847944, 0.855878, 0.908599, 0.869797, 0.863798, 0.863193, 0.883669, 0.899029, 0.917703, 0.870235, 0.870208, 0.877958, 0.890603, 0.890692, 0.909037, 0.909238, 0.924479, 0.92595, 0.981773, 0.932241, 0.969147, 0.938111, 0.966589, 0.951256, 0.952696, 0.952039, 0.945279, 0.945691, 1.00637, 1.0647, 1.07112, 1.02141, 1.02123, 1.01661, 1.05749, 1.09166, 1.11399, 1.17801, 1.17847, 1.12837, 1.14968, 1.07422, 0.99384, 0.993981, 0.985508, 0.986596, 0.973536, 0.945004, 0.939319, 0.921034, 0.939537, 0.921161, 0.929347, 0.930335, 0.940335, 0.940607, 0.963715, 1.02938, 0.927366, 0.924737, 0.912618, 0.911098, 0.911274, 0.909969, 0.914741, 0.916766, 0.922665, 0.925175, 1.08254, 0.945954, 0.946137, 1.00927, 0.917091, 0.917445, 0.913229, 0.912352, 0.913289, 0.9138, 0.954921, 0.914622, 0.916109, 0.917812, 1.07709, 0.932848, 0.926559, 0.929889, 0.929533, 0.927861, 0.927415, 0.926491, 0.92872, 0.930764, 0.931688, 0.933801, 0.934794, 0.933882, 0.928635, 0.932531, 0.93252, 0.939136, 0.93822, 0.939308, 0.939833, 0.942967, 0.947033, 0.948178, 0.946892, 0.946303, 1.20979, 0.999672, 1.25649, 0.983732, 0.958853, 0.961378, 0.966246, 0.967905, 0.970465, 0.974599, 0.976742, 0.978157, 0.980215, 0.980242, 0.983478, 0.9855, 0.987045, 0.990446, 0.990077, 0.988749, 0.983381, 0.983715, 0.985682, 0.985972, 0.987011, 1.00828, 0.99809, 0.999716, 1.00537, 1.0055, 1.00691, 1.01145, 1.01286, 1.02142, 1.02229, 1.0878, 1.03066, 1.03212
1.00612, 1.00613, 1.00571, 1.06167, 1.05485, 1.03324, 1.06331, 1.04499, 1.06136, 1.04334, 1.02199, 1.07288, 1.09229, 1.09171, 1.02838, 1.20593, 1.05846, 0.90513, 0.905205, 0.904398, 0.898045, 0.897546, 0.891828, 0.890343, 0.890684, 0.892947, 0.892304, 0.892441, 0.883398, 0.872477, 0.872049, 0.87106, 0.871017, 0.872541, 0.872124, 0.900854, 0.901961, 0.90122, 1.00522, 1.0314, 0.879453, 0.876122, 0.873634, 0.87347, 0.872899, 0.872971, 0.873327, 0.874377, 0.882721, 0.881883, 0.88153, 0.880035, 0.886978, 0.888011, 0.872898, 0.873306, 0.875364, 0.87572, 0.861712, 0.862585, 0.859973, 0.860928, 0.86272, 0.863067, 0.870287, 0.871293, 0.877019, 0.876353, 0.87502, 0.877819, 0.8832, 0.869901, 0.86537, 0.866021, 0.86567, 0.859383, 0.852988, 0.850984, 0.855097, 0.855476, 0.850283, 0.890652, 0.862247, 0.898807, 0.856636, 0.884507, 0.876022, 0.808168, 0.79857, 0.792319, 0.81498, 0.799709, 0.791442, 0.84423, 0.801065, 0.809344, 0.820921, 0.838912, 0.873237, 0.88749, 0.887831, 0.924778, 0.92064, 0.89582, 0.887284, 0.92547, 0.90521, 0.90315, 0.904501, 0.939587, 0.940016, 0.926309, 0.927387, 0.908724, 0.912826, 0.940025, 0.959787, 0.941338, 0.94487, 0.978515, 0.943559, 0.945674, 1.1161, 1.01276, 1.01232, 1.01494, 1.01484, 1.0131, 1.12352, 1.12253, 1.1733, 1.16597, 1.16515, 1.10248, 1.12364, 1.12649, 1.0631, 0.991155, 0.988559, 0.980869, 0.989035, 0.925955, 0.926333, 0.926995, 1.01477, 0.935758, 0.936184, 0.935555, 0.937391, 0.938647, 0.960531, 1.02748, 1.03343, 0.956142, 0.9117, 0.911241, 0.911027, 0.912865, 0.912671, 0.917288, 0.92162, 0.92249, 1.01982, 0.944607, 1.00771, 1.01811, 0.916862, 0.915789, 0.9141, 0.911065, 0.911274, 0.91171, 0.911502, 0.913099, 0.914634, 0.915769, 0.915752, 0.92136, 0.921802, 0.926158, 0.927095, 0.926811, 0.926077, 0.925215, 0.926439, 0.92766, 0.928588, 0.984299, 0.931303, 0.928779, 0.928928, 0.929583, 0.931837, 0.933468, 0.934053, 0.935491, 0.938814, 0.942854, 0.942819, 0.942918, 0.944557, 0.945173, 0.997493, 1.25745, 1.31998, 0.99127, 0.958199, 0.959447, 0.962458, 0.966911, 0.967543, 0.973079, 0.97384, 0.97777, 0.978088, 0.979724, 0.981939, 0.983446, 0.986698, 0.989967, 0.990383, 1.04355, 1.00775, 1.02277, 1.00078, 1.1709, 1.02299, 1.03895, 0.996452, 1.00254, 1.00431, 1.00571, 1.00415, 1.00469, 1.01125, 1.01463, 1.01383, 1.11033, 1.02908, 1.03069
1.00764, 1.0084, 1.00723, 1.00389, 1.035, 1.03614, 1.05964, 1.02209, 1.02232, 1.03224, 1.01811, 1.08116, 1.09249, 1.10274, 1.05249, 1.05325, 1.06675, 0.904396, 0.905062, 0.905249, 0.899716, 0.895605, 0.892577, 0.888389, 0.887816, 0.889507, 0.912127, 0.911094, 1.04699, 0.880593, 0.875166, 0.871031, 0.870044, 0.868086, 0.868166, 1.37778, 0.902069, 0.901851, 0.915757, 0.996806, 0.873147, 0.870785, 0.870838, 0.871821, 0.872071, 0.873256, 0.874238, 0.88009, 0.883914, 0.88074, 0.8807, 0.880194, 0.882369, 0.889911, 0.882439, 0.874551, 0.874452, 0.875022, 0.874614, 0.860158, 0.859469, 0.859887, 0.860807, 0.862579, 0.869738, 0.870841, 0.873444, 0.873985, 0.873488, 0.966979, 0.920922, 0.868186, 0.8665, 0.865029, 0.865321, 0.855585, 0.853677, 0.85302, 0.852868, 0.857221, 0.858144, 0.863835, 0.863724, 0.85963, 0.906417, 0.82217, 0.89323, 0.899578, 0.808416, 0.830514, 0.826959, 0.829405, 0.830777, 0.829665, 0.791201, 0.793519, 0.864191, 0.809004, 0.818828, 0.849721, 0.881273, 0.882409, 0.879268, 0.838242, 0.859968, 0.877707, 0.857646, 0.872562, 0.873931, 0.944471, 0.943484, 0.973557, 0.921967, 0.918923, 0.916182, 0.933258, 0.938884, 0.949579, 0.950413, 0.939922, 0.940758, 0.946834, 1.1327, 1.01005, 1.01103, 1.00492, 1.00333, 1.00307, 1.01502, 1.14846, 1.27749, 1.15696, 1.17161, 1.10477, 1.09573, 1.04024, 1.06376, 1.03937, 1.05243, 1.0312, 1.10851, 1.08888, 1.02782, 0.933988, 0.933469, 0.9388, 0.941943, 0.936608, 0.935572, 0.939753, 0.944007, 0.943591, 0.940566, 0.918266, 0.911897, 0.912639, 0.914375, 0.912241, 0.911648, 0.913033, 0.914698, 0.921886, 1.02572, 0.958896, 0.96336, 1.0321, 1.15616, 0.916414, 0.913003, 0.91138, 0.911579, 0.910807, 0.910717, 0.911526, 0.913723, 0.91436, 0.917369, 0.921153, 0.921487, 0.922882, 0.922965, 0.926135, 0.925291, 0.924655, 0.922576, 0.923248, 0.923171, 0.929857, 0.928649, 0.925959, 0.926704, 0.926389, 0.928131, 0.928067, 0.93187, 0.934945, 0.935143, 0.939534, 0.94245, 0.943835, 0.944997, 0.945673, 0.946943, 1.27134, 1.02011, 1.14414, 0.958716, 0.959277, 0.960958, 0.964888, 0.967904, 0.972037, 0.972104, 1.28865, 1.1944, 1.1952, 0.980051, 0.984371, 0.985963, 0.989073, 0.987968, 1.44849, 1.44748, 1.02225, 1.02055, 1.02258, 1.01256, 1.03705, 1.04078, 0.998776, 1.00589, 1.00507, 1.0042, 1.00381, 1.01266, 1.01271, 1.01331, 1.01874, 1.02301, 1.02909
1.00432, 1.00794, 1.00249, 1.00101, 0.999995, 1.0309, 1.07043, 1.04385, 1.03826, 1.01383, 1.01549, 1.07354, 1.09465, 1.02978, 1.19794, 1.00459, 1.06776, 1.05937, 0.907919, 0.907745, 0.895426, 0.894602, 0.893442, 0.891381, 0.889361, 0.894528, 0.894837, 0.89515, 1.29525, 1.39677, 0.881365, 0.867421, 0.866712, 0.868068, 0.868351, 1.00579, 1.00353, 0.901526, 1.00422, 0.875934, 0.868038, 0.868477, 0.867177, 1.15394, 0.864153, 0.863424, 0.887354, 0.939308, 0.970141, 0.961335, 1.00555, 0.889185, 0.887219, 0.889753, 0.889282, 0.876976, 0.87592, 0.876202, 0.875005, 0.859549, 0.859022, 0.859133, 0.861356, 0.861119, 0.860795, 0.861443, 0.862672, 0.863455, 0.873573, 0.873381, 0.871974, 0.867817, 0.864969, 0.866237, 0.859395, 0.857934, 0.855882, 0.852213, 0.850864, 0.86336, 0.863106, 0.860188, 0.857877, 0.856459, 0.84604, 0.82534, 0.823232, 0.814853, 0.80923, 0.80852, 0.79751, 0.831241, 0.832195, 0.815948, 0.780636, 0.79715, 0.832966, 0.808809, 0.810272, 0.808698, 0.830093, 0.809873, 0.811315, 0.8825, 0.810726, 0.821095, 0.822083, 0.874875, 0.877872, 0.855072, 0.889562, 0.889512, 0.878033, 0.886946, 0.888126, 0.955533, 0.926269, 0.949448, 0.950828, 0.952088, 0.946173, 0.952168, 0.957764, 0.961918, 0.96281, 1.0342, 0.996546, 1.04336, 1.12866, 1.1746, 1.17425, 1.17605, 1.10837, 1.09886, 1.10202, 1.03873, 1.03021, 1.0257, 1.02177, 1.02623, 1.07038, 1.04364, 1.03251, 1.03917, 0.92856, 1.04452, 0.94159, 0.937243, 0.937086, 0.939833, 0.942658, 0.936969, 0.939101, 0.917883, 0.916462, 0.915351, 0.915777, 0.911012, 0.91185, 0.912183, 0.911364, 0.912722, 0.986606, 0.929107, 0.92846, 0.988607, 1.02866, 0.915551, 0.914735, 0.913069, 0.911077, 0.909543, 0.907806, 0.910771, 0.911182, 0.912216, 0.91197, 0.920266, 0.998011, 1.12928, 0.925645, 0.926854, 0.925463, 0.925164, 0.921476, 0.922915, 0.923856, 0.927802, 0.92823, 0.92793, 0.927275, 0.928037, 0.929116, 0.928424, 0.933183, 0.934159, 0.936272, 0.937578, 0.940561, 0.942443, 0.944562, 0.946512, 0.947028, 1.01203, 1.01849, 1.02432, 0.95658, 0.959268, 0.962121, 0.963016, 0.967073, 0.968727, 0.968965, 0.970226, 0.966638, 1.20559, 0.978773, 0.980175, 0.983816, 0.983993, 0.984704, 0.985706, 0.979938, 0.978132, 1.00935, 1.01453, 1.01916, 0.989225, 0.994156, 0.996063, 1.00202, 1.00634, 1.00276, 1.01091, 1.01149, 1.01184, 1.01883, 1.02065, 1.02195, 1.02318
1.00456, 1.00732, 1.00466, 1.02049, 1.01912, 1.02973, 1.03054, 1.03539, 1.03945, 1.04101, 1.02015, 1.00571, 1.07726, 1.03027, 1.09342, 0.932061, 1.15373, 1.16094, 0.90771, 0.90429, 0.903421, 0.895032, 1.12281, 0.89516, 0.894659, 0.896139, 0.895693, 0.894708, 0.94898, 0.940859, 0.877574, 0.866019, 0.864759, 0.867456, 0.873098, 0.870696, 0.900898, 0.891384, 0.891317, 0.873704, 0.873628, 0.865588, 0.864854, 0.864778, 0.864429, 0.862642, 0.861109, 0.860227, 0.864092, 0.970187, 0.967556, 0.890933, 0.887771, 0.887497, 1.12674, 0.881217, 0.87931, 0.952078, 1.08542, 0.85826, 0.858699, 0.857433, 0.859726, 0.860126, 0.859875, 0.861467, 0.863512, 0.863145, 0.872173, 0.86913, 0.866726, 0.865541, 0.866329, 0.865005, 0.864797, 0.858363, 0.857286, 0.855322, 0.851596, 0.851087, 0.866808, 0.869273, 0.849045, 0.848628, 0.849745, 0.825709, 0.885374, 0.814384, 0.814889, 0.798022, 0.797308, 0.810123, 0.822001, 0.81835, 0.791053, 0.779816, 0.810715, 0.793917, 0.835851, 0.805962, 0.81915, 0.836728, 0.837227, 0.79852, 0.810974, 0.819518, 0.82509, 0.853077, 0.853305, 0.853077, 0.887084, 0.922157, 0.859903, 0.860795, 0.926508, 0.891671, 0.898566, 0.904577, 0.905043, 0.946035, 0.945465, 0.956137, 0.957045, 0.960135, 0.960496, 0.981, 1.0427, 1.13254, 1.13202, 1.17047, 1.18044, 1.10928, 1.18214, 1.0928, 1.09135, 1.09443, 1.02839, 1.02871, 1.02263, 1.024, 1.02703, 1.03973, 0.99238, 0.940376, 0.932461, 0.93181, 0.931117, 0.929936, 0.932805, 0.94623, 0.945777, 0.940281, 0.939402, 0.916509, 0.916761, 0.915238, 0.912023, 0.911163, 0.91107, 0.911953, 0.911467, 0.910624, 1.09265, 0.928343, 0.926312, 0.924774, 0.92185, 0.915789, 0.914575, 0.912728, 0.912457, 0.903351, 0.906655, 0.910377, 0.911169, 0.909909, 0.908344, 0.915578, 1.00751, 1.01638, 0.922278, 0.923216, 0.99621, 0.924611, 0.924595, 0.92228, 0.922428, 0.924314, 0.925056, 0.928307, 0.927132, 0.930683, 0.929502, 0.928338, 0.931956, 0.933626, 0.935334, 0.936388, 0.939096, 0.940259, 0.94183, 0.945756, 0.946201, 1.00799, 1.02228, 0.953485, 0.955793, 0.958475, 0.960622, 0.962261, 0.96523, 0.966595, 0.967228, 0.967906, 0.968811, 0.967565, 0.978073, 0.978944, 0.980886, 0.98397, 0.983572, 0.983589, 1.04948, 0.976861, 1.00963, 1.01503, 1.01652, 0.985048, 0.992443, 0.999654, 1.0016, 1.00528, 1.22271, 1.00951, 1.01567, 1.01902, 1.01956, 1.02293, 1.02268, 1.0236
1.0047, 1.00626, 1.05394, 1.0178, 1.01765, 1.02581, 1.02603, 1.03367, 1.00535, 1.00521, 1.00284, 1.0019, 1.07772, 1.09023, 1.12984, 0.98729, 1.14443, 0.92378, 0.905756, 0.905018, 0.903256, 0.903457, 0.902906, 0.89712, 0.894073, 0.895143, 1.2044, 0.923023, 0.88051, 0.884503, 1.31374, 0.962608, 0.983419, 0.906572, 0.856709, 0.865966, 0.891231, 0.892938, 0.891521, 0.873282, 0.869422, 0.869758, 0.864822, 0.865264, 0.863849, 0.861502, 0.857799, 0.856743, 0.859584, 0.864267, 0.873614, 0.966693, 0.885787, 0.923553, 1.13324, 1.05534, 1.13567, 0.875868, 0.873377, 0.858328, 0.858361, 0.858185, 0.859984, 0.862201, 0.861855, 0.859833, 0.862595, 0.863071, 0.867188, 0.864942, 0.866108, 0.867213, 0.866305, 0.8662, 0.864705, 0.860382, 0.859071, 0.858527, 0.859002, 0.858362, 0.870004, 0.87006, 0.847422, 0.847189, 0.85481, 0.825311, 0.883563, 0.883894, 0.81464, 0.799603, 0.797704, 0.800009, 0.799247, 0.808545, 0.784205, 0.77752, 0.838766, 0.813756, 0.809685, 0.808586, 0.810317, 0.808474, 0.831328, 0.832294, 0.84182, 0.824593, 0.840732, 0.897694, 0.853836, 0.857435, 0.858308, 0.866515, 0.859121, 0.85846, 0.93251, 0.881741, 0.88183, 0.898324, 0.898894, 0.936496, 0.93702, 1.0503, 0.959804, 0.958136, 0.997728, 1.08123, 1.07027, 1.0429, 1.09524, 1.18506, 1.09863, 1.09517, 1.08684, 1.07421, 1.07096, 1.02175, 1.02252, 1.05668, 1.03972, 1.01895, 1.03279, 1.03173, 1.04598, 1.06103, 0.930179, 0.929508, 0.928698, 0.928572, 0.928606, 0.930153, 1.02069, 0.928452, 0.928776, 0.917229, 0.916779, 0.913807, 0.911777, 0.911466, 0.911662, 0.911829, 0.908385, 0.91002, 1.11324, 0.92819, 0.927079, 0.925122, 0.924939, 0.918517, 0.914319, 0.91225, 0.911216, 0.910835, 0.906187, 0.907538, 0.910228, 0.910004, 0.908068, 0.909709, 1.14111, 1.00926, 0.921459, 0.921216, 1.00679, 0.922805, 0.922491, 0.923579, 0.922589, 0.922136, 0.921556, 0.921846, 0.925097, 0.927194, 0.928745, 0.929592, 0.930345, 0.935002, 0.934582, 0.935916, 0.937461, 0.94146, 0.943701, 0.942886, 0.945782, 0.947402, 1.02611, 1.01911, 0.955648, 0.957216, 0.95981, 0.962069, 0.963663, 0.963299, 0.966514, 0.966393, 0.969769, 0.970862, 0.975794, 0.977825, 0.979157, 0.980886, 0.981565, 0.982849, 1.00489, 1.00946, 1.01176, 1.01183, 0.980111, 0.984122, 0.987027, 1.00139, 1.04224, 1.00347, 1.00451, 1.03959, 1.01223, 1.05153, 1.05242, 1.02245, 1.02456, 1.02641
1.00198, 1.00191, 1.0294, 0.99967, 1.02865, 1.01588, 1.0328, 1.01301, 1.0195, 1.04606, 1.03694, 1.07819, 1.016, 1.08806, 1.11283, 1.12367, 1.02195, 0.922295, 1.02224, 0.946785, 0.907971, 0.901847, 0.901137, 0.901899, 0.905644, 0.891276, 0.883589, 0.880532, 0.878947, 0.879804, 0.894298, 0.864297, 1.01673, 1.01504, 0.849458, 1.02376, 0.907018, 0.893861, 0.893937, 0.927299, 0.871164, 0.868233, 0.864265, 0.86285, 0.861638, 0.860477, 0.859973, 0.857858, 0.856308, 0.856372, 0.866209, 0.977631, 0.904856, 1.00975, 0.936027, 0.940336, 0.898217, 0.874792, 0.873933, 0.863512, 0.859088, 0.858391, 0.85956, 0.859551, 0.862068, 0.861545, 0.861266, 0.862925, 0.863643, 0.862998, 0.863799, 0.866845, 0.867622, 0.865334, 0.863722, 0.860173, 0.859654, 0.859012, 0.859569, 0.859323, 0.86361, 0.864429, 0.863135, 0.855043, 0.855456, 0.854397, 1.05797, 0.956063, 0.945994, 0.78676, 0.808224, 0.797746, 0.800083, 0.803429, 0.808132, 0.811675, 0.805553, 0.816513, 0.842166, 0.827703, 0.835399, 0.829268, 0.823196, 0.849795, 0.848668, 0.820696, 0.891541, 0.84511, 0.856665, 0.866149, 0.862627, 0.859712, 0.866476, 0.867742, 0.874203, 0.877174, 0.9406, 0.907185, 0.973606, 0.973535, 0.927301, 0.926891, 1.02336, 1.0475, 0.985049, 1.04927, 0.999246, 1.06868, 1.07788, 1.10269, 1.10474, 1.04751, 1.04446, 1.04337, 1.05309, 1.15751, 1.01967, 1.05695, 1.04328, 1.01544, 1.08741, 1.03336, 1.11828, 0.977974, 0.930899, 0.928935, 0.927847, 0.927937, 0.928069, 0.929119, 0.931706, 1.25387, 0.929795, 0.918436, 0.916188, 0.914551, 0.911407, 0.910563, 0.911188, 0.912756, 0.916816, 0.915698, 0.918848, 1.12186, 0.923605, 0.924497, 0.924938, 0.918271, 0.915005, 0.91272, 0.910896, 0.911208, 0.908958, 0.905395, 0.90458, 0.903967, 0.906918, 0.907538, 0.994984, 0.920232, 0.919543, 0.919772, 0.985239, 0.997692, 0.919568, 0.921231, 1.37837, 0.94355, 0.920596, 0.919625, 0.920364, 0.921456, 0.923954, 0.924894, 0.932576, 0.933052, 0.933608, 0.935044, 0.935951, 0.94314, 0.942797, 0.943953, 0.945586, 0.946641, 0.947104, 1.03187, 0.95518, 0.956769, 0.956836, 0.960355, 0.962395, 0.964038, 0.963734, 0.966602, 0.968254, 0.970101, 0.971977, 0.974162, 0.975316, 0.979297, 0.981549, 0.98285, 1.17409, 0.976071, 0.97126, 0.977634, 0.97922, 0.980855, 1.03659, 0.995412, 0.997578, 1.00347, 1.00465, 1.01, 1.00973, 1.01149, 1.05653, 1.04588, 1.02512, 1.02954
1.00961, 0.9955, 0.997138, 1.02977, 1.02608, 1.02637, 1.0289, 1.01935, 1.0235, 1.03296, 1.03574, 1.04071, 1.02873, 1.09487, 1.09442, 0.961447, 1.11357, 1.11368, 1.03276, 0.905396, 0.905387, 0.905177, 0.899019, 1.22422, 0.90016, 0.886475, 0.881107, 0.880389, 0.879364, 0.875105, 0.884457, 0.858036, 0.841981, 0.841931, 0.846203, 0.846112, 0.917798, 0.89437, 0.894474, 1.02175, 0.87045, 0.866529, 0.865239, 0.861443, 0.857918, 0.860971, 0.859685, 0.859781, 0.856189, 0.851285, 0.851265, 0.857669, 1.15158, 1.15347, 0.864585, 0.946859, 0.913711, 0.873345, 0.933279, 0.859805, 0.858605, 0.858375, 0.858645, 0.861692, 0.864684, 0.863695, 0.860584, 0.860485, 0.864488, 0.861344, 0.864762, 0.866148, 0.866008, 0.864921, 0.862685, 0.861001, 0.859385, 0.859138, 0.85924, 0.859635, 0.860632, 0.865982, 0.86641, 0.854502, 0.854192, 0.853802, 0.852069, 0.849894, 0.934891, 0.839696, 0.814988, 0.816001, 0.802936, 0.813091, 0.814659, 0.806583, 0.806881, 0.85672, 0.779784, 0.782921, 0.783071, 0.793454, 0.867493, 0.806175, 0.882899, 0.882414, 0.852501, 0.85643, 0.859688, 0.842935, 0.852371, 0.853274, 0.881588, 0.88819, 0.870498, 0.914899, 0.898562, 0.966776, 0.909897, 0.914558, 0.925757, 0.927442, 1.07034, 0.95644, 1.04767, 1.044, 0.988196, 1.04652, 1.03968, 1.0549, 1.05128, 1.1179, 1.06401, 1.06348, 1.03914, 0.99862, 1.01899, 1.18807, 1.00918, 1.02049, 1.05268, 1.01944, 1.09613, 1.05355, 1.13772, 1.06156, 0.924686, 0.921516, 1.00095, 0.925431, 0.932257, 0.926986, 0.927356, 0.927544, 0.920017, 0.912064, 0.911143, 0.910638, 0.910462, 0.913667, 0.917517, 0.917617, 0.918058, 0.913539, 0.913763, 0.91846, 0.920352, 0.914997, 0.914632, 0.91273, 0.91122, 0.910839, 0.910699, 0.906706, 0.906086, 0.904535, 0.903783, 0.905424, 1.00801, 1.01223, 0.918989, 0.918473, 0.917222, 0.923397, 0.916489, 0.916335, 0.915842, 0.936757, 1.11917, 0.921221, 0.919763, 0.920866, 0.921569, 0.92528, 0.926522, 0.927943, 0.930306, 0.933726, 0.935467, 0.938779, 0.941691, 0.94324, 0.944755, 0.946972, 0.949097, 1.02928, 0.952802, 0.954148, 0.955829, 0.957087, 0.961192, 0.963861, 0.963814, 0.962884, 0.966985, 0.96892, 0.970223, 0.972304, 0.974741, 0.980148, 0.980775, 0.982509, 0.981822, 0.971586, 0.971048, 0.973634, 0.978765, 0.980149, 0.988387, 0.994634, 0.996607, 1.00112, 0.998841, 1.00271, 1.00889, 1.01166, 1.01063, 1.01901, 1.02312, 1.02598
1.00555, 0.988278, 0.998984, 1.01541, 1.01858, 1.02546, 1.01887, 1.01704, 1.0147, 1.00692, 1.04244, 1.07132, 1.08057, 1.02524, 1.09201, 1.10944, 0.964827, 1.12433, 1.01557, 0.905088, 0.906231, 0.905329, 0.896236, 0.896258, 0.889106, 0.888704, 0.879784, 0.879104, 0.87956, 0.879482, 0.993455, 0.918165, 0.841883, 0.841664, 0.84598, 0.932346, 1.03519, 0.922265, 0.895106, 0.879134, 0.86697, 0.863367, 0.862542, 0.861577, 0.859168, 0.858143, 0.858643, 0.857223, 0.853155, 0.852967, 0.852531, 0.853995, 0.854745, 0.855471, 0.854306, 0.854637, 0.863918, 0.870323, 0.940063, 0.859297, 0.859087, 0.858333, 0.85759, 0.862571, 0.864184, 0.862609, 0.859186, 0.86018, 0.858587, 0.861164, 0.863921, 0.864987, 0.865139, 0.863171, 0.862131, 0.860743, 0.859261, 0.85901, 0.859926, 0.86089, 0.86239, 0.866338, 0.865948, 0.86632, 0.851512, 0.850238, 0.850239, 0.846497, 0.842325, 0.841163, 0.823406, 0.822688, 0.803938, 0.793495, 0.790095, 0.808321, 0.85759, 0.859056, 0.782298, 0.891472, 0.806437, 0.81312, 0.812503, 0.840137, 0.882496, 0.857309, 0.861052, 0.860057, 0.862052, 0.847161, 0.812225, 0.845335, 0.868871, 0.905642, 0.898728, 0.898877, 0.89754, 0.942011, 0.911933, 0.957156, 0.957713, 0.936244, 0.983203, 0.958007, 0.9686, 0.982271, 0.994544, 1.01314, 1.01532, 1.10561, 1.04886, 1.07152, 1.0896, 1.05319, 0.998779, 1.03098, 1.15304, 1.16394, 1.01339, 1.14734, 1.01578, 1.16184, 1.12224, 1.14752, 0.93273, 1.06346, 0.920537, 0.922286, 0.922398, 0.92177, 0.921875, 0.923261, 0.928962, 0.928952, 0.922728, 0.979288, 0.90989, 0.909951, 0.910722, 0.912642, 0.915118, 0.916424, 0.914987, 0.912971, 0.913555, 0.91522, 0.916268, 0.915822, 0.916277, 0.909807, 0.909188, 0.90914, 0.90961, 0.906896, 0.90408, 0.902927, 0.902195, 0.897384, 0.900999, 0.902442, 0.919646, 0.917563, 0.916753, 0.914722, 0.914657, 0.959788, 0.957635, 0.921374, 0.921304, 0.919439, 0.924965, 0.920238, 0.929127, 0.921581, 0.923966, 0.926984, 0.929581, 0.933199, 0.933139, 0.934003, 0.937481, 0.939974, 0.944848, 0.945839, 0.946365, 1.05376, 0.950777, 0.952597, 0.954688, 0.957132, 0.959925, 0.961164, 0.961184, 0.962, 0.962503, 0.967568, 0.970697, 0.971657, 0.973295, 0.973932, 0.977859, 0.982133, 0.979974, 0.97683, 0.97721, 0.978483, 0.980448, 0.982572, 0.984615, 0.989369, 1.02566, 1.02685, 0.999594, 1.00449, 1.0054, 1.00824, 1.01035, 1.01243, 1.01844, 1.07389
0.990751, 1.00534, 1.0224, 1.02533, 1.03412, 1.01455, 1.01942, 1.02258, 1.02257, 1.00107, 1.00183, 1.04005, 1.04329, 1.02551, 1.06709, 1.06651, 1.0645, 0.953854, 1.03032, 1.02948, 0.903152, 0.902018, 0.895991, 0.896708, 0.895556, 0.890867, 0.878482, 0.879762, 0.879941, 1.35963, 0.949864, 0.8487, 0.846201, 0.842378, 0.842057, 1.37178, 1.3709, 0.883255, 0.883356, 0.873901, 0.873745, 0.869696, 0.861228, 0.860883, 0.860006, 0.857837, 0.85787, 0.853397, 0.850886, 0.848129, 0.850993, 0.852618, 0.850257, 0.850597, 0.851356, 0.850975, 0.946808, 0.86101, 0.866218, 0.858921, 0.859164, 0.859739, 0.852271, 0.85336, 0.858199, 0.863209, 0.862531, 0.856796, 0.856016, 0.857771, 0.86162, 0.865062, 0.863414, 0.862968, 0.860295, 0.860832, 0.85986, 0.85868, 0.857858, 0.856502, 0.856669, 0.856147, 0.866321, 0.866321, 0.850567, 0.851254, 0.844371, 0.844465, 0.842043, 0.839908, 0.835884, 0.83335, 0.825258, 0.825194, 0.829143, 0.839175, 0.840388, 0.865843, 0.78741, 0.786011, 0.828553, 0.836632, 0.824073, 0.824723, 0.866439, 0.859147, 0.864205, 0.891637, 0.826663, 0.825294, 0.848518, 0.845148, 0.851895, 0.85289, 0.983749, 0.893983, 0.89848, 0.900731, 0.918138, 0.922657, 0.923219, 0.923535, 0.949117, 1.0162, 0.983424, 0.975961, 0.991665, 1.01327, 1.08115, 1.03399, 1.05905, 1.03537, 1.09567, 1.08817, 1.09962, 1.02479, 1.15966, 1.15851, 1.14425, 1.0983, 1.14386, 1.02695, 1.14966, 1.12031, 0.930127, 0.92888, 0.925461, 0.924101, 0.921328, 0.920881, 0.921278, 0.921407, 0.926502, 0.925574, 0.925587, 0.917021, 0.916083, 0.9079, 0.908137, 0.911679, 0.911205, 0.914173, 0.915183, 0.913203, 0.911697, 0.911917, 0.918043, 0.914622, 0.91243, 0.910951, 0.908726, 0.907527, 0.908068, 0.90719, 0.905618, 0.901037, 0.901215, 0.904316, 0.904432, 0.940361, 0.918625, 0.884001, 0.996664, 0.91675, 0.914735, 0.919305, 0.92995, 0.92519, 0.924973, 0.917737, 0.91622, 1.06348, 0.923343, 0.923357, 0.925778, 0.927569, 0.928175, 0.928564, 0.93206, 0.935008, 0.936061, 0.938971, 0.938926, 0.942005, 0.944848, 0.94782, 0.950727, 0.951284, 0.955092, 0.957153, 0.957953, 0.959425, 0.962265, 0.961497, 0.963373, 0.966474, 0.967801, 0.970205, 0.971992, 0.973858, 0.976185, 0.977988, 0.976623, 0.97621, 0.975888, 0.977097, 1.19094, 0.980657, 0.981313, 1.02253, 0.987437, 1.01969, 1.02212, 1.03072, 1.00215, 1.00491, 1.00914, 1.06536, 1.01359, 1.01755
0.977108, 1.0045, 1.00418, 1.0267, 1.02216, 1.03277, 1.02706, 1.02567, 0.991858, 1.0249, 1.03049, 1.05284, 1.05509, 1.06832, 1.08355, 1.08239, 1.10603, 1.13177, 1.10794, 0.908761, 0.90523, 0.904142, 0.897069, 0.894733, 0.897029, 0.897153, 0.970619, 0.970289, 0.875223, 0.873726, 0.9915, 0.8464, 0.846183, 0.843889, 0.84362, 0.868203, 0.869537, 0.883228, 0.883591, 0.882471, 0.872135, 0.869567, 0.860487, 0.859752, 0.858271, 0.856497, 0.854185, 0.849554, 0.849441, 0.848809, 0.848908, 0.850203, 0.843828, 0.848554, 0.847438, 0.849213, 0.848575, 0.967527, 0.968128, 0.852372, 0.85343, 0.854233, 0.853425, 0.854111, 0.854095, 0.860277, 0.862686, 0.862476, 0.856886, 0.855089, 0.86324, 0.862625, 0.862654, 0.858157, 0.857979, 0.857728, 0.859163, 0.856016, 0.855712, 0.854637, 0.854209, 0.853606, 0.866255, 0.866673, 0.860468, 0.856406, 0.843389, 0.842181, 0.838976, 0.838229, 0.83699, 0.83341, 0.829467, 0.827136, 0.827638, 0.844917, 0.844946, 0.836418, 0.836116, 0.826497, 0.828347, 0.828896, 0.825711, 0.834841, 0.835141, 1.11047, 0.864529, 0.8318, 0.824921, 0.81876, 0.820949, 0.851516, 0.850719, 0.87356, 0.880673, 0.925192, 0.925796, 0.901752, 0.911742, 0.921729, 0.93246, 0.93208, 0.996316, 1.00832, 0.979191, 0.979881, 0.970412, 0.971715, 1.01233, 1.01241, 1.02906, 1.03202, 1.1385, 1.06402, 1.10215, 0.988814, 1.16096, 1.14401, 1.14985, 1.00951, 1.12513, 1.12511, 1.12704, 1.1484, 0.931196, 0.929536, 0.926023, 0.92372, 0.921705, 0.921853, 0.921481, 0.921259, 0.920573, 0.925552, 0.926391, 0.918383, 0.907427, 0.90743, 0.907477, 0.908143, 0.908496, 0.908487, 0.914823, 0.914733, 0.91185, 0.911172, 1.10496, 0.914762, 0.913487, 0.908743, 0.907545, 0.90655, 0.90671, 0.906929, 0.907249, 0.906536, 0.906211, 0.911399, 0.90269, 0.903497, 0.925519, 0.878075, 0.877863, 0.915996, 0.909301, 0.911892, 0.913256, 0.936632, 0.933222, 0.919885, 0.918135, 0.92552, 0.923023, 0.92637, 1.01826, 0.925986, 0.925111, 0.925172, 0.929456, 0.931585, 0.934216, 0.937471, 0.93951, 0.939976, 0.94134, 0.947924, 0.950569, 0.951233, 0.954938, 0.956162, 0.957128, 0.959231, 0.958631, 0.961716, 0.963666, 0.96649, 0.967428, 0.968171, 0.970514, 0.973427, 0.974221, 1.07515, 0.973586, 0.976039, 0.97649, 0.973942, 1.01872, 1.21555, 0.981593, 0.983216, 0.984044, 0.990484, 1.05088, 1.34962, 1.02948, 1.00178, 1.00706, 1.01054, 1.0152, 1.01645
0.98597, 1.01599, 0.94916, 0.998242, 1.03677, 1.03691, 1.03995, 1.03022, 1.02011, 0.965482, 1.04292, 1.05491, 0.985247, 1.06783, 1.08305, 1.06749, 1.08779, 1.10525, 0.918987, 0.907549, 0.905357, 0.901417, 0.901714, 0.897148, 0.897738, 0.899061, 1.30465, 0.876221, 0.875751, 0.871608, 0.999691, 0.845861, 0.845513, 0.849933, 1.02945, 0.85819, 0.859057, 0.881392, 0.881279, 0.880762, 0.874366, 0.871026, 0.857156, 0.854968, 0.855867, 0.855985, 0.850052, 0.849737, 0.84928, 0.848944, 0.84871, 0.847924, 0.845625, 0.846232, 0.845631, 0.847096, 0.848945, 0.984582, 0.851446, 0.852428, 0.852257, 0.850567, 0.852652, 0.851009, 0.851836, 0.863165, 0.863103, 0.863559, 0.863316, 0.853698, 0.856624, 0.860622, 0.858058, 0.858226, 0.857979, 0.85818, 0.856903, 0.85609, 0.856007, 0.85455, 0.854562, 0.853846, 0.866721, 0.866182, 0.864399, 0.850684, 0.842581, 0.841535, 0.840365, 0.838577, 0.837125, 0.835788, 0.833338, 0.831853, 0.831992, 0.833856, 0.838651, 0.828507, 0.836976, 0.822642, 0.826966, 0.832861, 0.832088, 0.848003, 0.855793, 0.856057, 0.869014, 0.901894, 0.828978, 0.821581, 0.821213, 0.936492, 0.925917, 0.923004, 0.914557, 0.914692, 0.92689, 0.9259, 0.923841, 0.935387, 0.93506, 0.929801, 1.11602, 0.97273, 0.978613, 0.980878, 0.970024, 0.967844, 1.00944, 1.04468, 1.0549, 1.06178, 1.12984, 0.984282, 0.985345, 0.960184, 1.00469, 1.01689, 1.18228, 1.1224, 1.12443, 1.14708, 1.14588, 0.939461, 0.934175, 0.931972, 0.932351, 0.922058, 0.923971, 0.924585, 0.921541, 0.921849, 0.924486, 0.924857, 0.923027, 0.918254, 0.91152, 0.91135, 0.908418, 0.909209, 0.908062, 0.908682, 0.912334, 0.914509, 0.914471, 0.914188, 0.907637, 0.914454, 0.914636, 0.914221, 1.06579, 0.904953, 0.905446, 0.906324, 0.906995, 0.904858, 0.907761, 0.910141, 1.0409, 1.03704, 1.0274, 0.966608, 1.01311, 0.911449, 0.909714, 0.910823, 0.914854, 0.938128, 1.11561, 0.916462, 0.917932, 0.939707, 0.924963, 1.03377, 0.923209, 0.933253, 0.925452, 0.928287, 0.930511, 0.931738, 0.932213, 0.936713, 0.938784, 0.940497, 0.944539, 0.94642, 0.950504, 0.953589, 0.954819, 0.956067, 0.956539, 1.13489, 0.957612, 0.957923, 0.96239, 0.965822, 0.966411, 0.967274, 0.968081, 0.970186, 0.973415, 1.16821, 0.967499, 0.970366, 0.974677, 0.972399, 0.973277, 1.01907, 1.00935, 1.01776, 0.987751, 0.989853, 0.990741, 1.05302, 0.998064, 1.00093, 1.00224, 1.05359, 1.06306, 1.01561
0.958443, 0.957863, 0.968448, 0.988939, 0.992917, 0.995452, 1.04734, 1.0453, 0.967612, 1.02545, 1.04696, 0.904049, 1.07083, 1.0078, 1.04431, 1.07515, 1.07823, 1.11743, 1.00864, 0.906592, 0.896772, 0.902613, 0.902467, 0.897127, 0.895842, 0.893834, 0.894313, 0.878612, 0.878548, 0.880772, 0.973553, 0.973703, 0.852481, 0.848551, 0.853804, 0.860188, 0.860169, 0.859688, 0.881683, 0.881502, 0.870229, 0.869606, 1.01848, 0.852814, 0.855622, 0.856895, 0.856437, 0.849527, 0.847905, 0.849506, 0.84901, 0.845976, 0.846177, 0.84623, 0.845534, 0.85229, 0.840874, 0.842087, 0.841191, 0.85252, 0.85215, 0.846984, 0.850917, 0.849394, 0.848957, 0.849158, 0.86481, 0.86442, 0.863101, 0.855155, 0.856136, 0.854152, 0.858136, 0.856858, 0.8585, 0.858586, 0.855829, 0.855262, 0.854684, 0.854665, 0.853943, 0.854705, 0.854332, 0.864983, 0.861154, 0.848926, 0.849424, 0.843823, 0.842143, 0.838584, 0.839176, 0.837471, 0.835538, 0.834816, 0.83399, 0.833685, 0.833788, 0.844982, 0.839885, 0.832236, 0.839122, 0.84861, 0.848929, 0.854861, 0.856206, 0.859331, 0.86307, 0.981745, 0.890704, 0.856159, 0.855754, 0.864927, 0.944993, 0.942772, 0.906603, 0.907089, 1.02026, 0.923235, 0.923536, 0.923592, 0.927283, 1.09398, 1.11735, 0.945925, 0.952714, 0.953654, 0.976688, 1.02766, 0.942872, 1.04004, 1.04991, 1.04845, 1.06336, 0.959372, 0.948204, 0.941152, 0.956081, 0.963192, 0.963155, 1.11937, 1.11558, 0.950159, 0.949665, 0.942421, 0.939143, 0.935852, 1.17443, 1.13613, 0.922765, 0.921962, 0.922191, 0.922325, 0.924301, 0.923702, 0.925126, 0.915592, 0.912455, 0.911284, 0.908804, 0.906255, 0.907075, 0.907979, 0.910174, 0.914339, 0.914458, 0.913058, 0.906132, 0.906532, 0.912327, 0.898228, 0.898006, 0.903815, 0.904146, 0.904352, 0.902186, 0.909782, 0.935464, 0.919186, 0.921312, 0.939866, 1.0542, 0.898671, 0.977423, 0.943098, 0.909589, 0.913133, 0.914069, 0.949463, 0.91107, 0.914511, 0.915138, 0.957192, 0.926085, 0.988037, 0.92404, 0.934493, 0.935874, 0.927159, 0.930508, 0.931044, 0.93091, 0.929706, 0.93627, 0.936845, 0.939248, 1.03577, 0.952616, 0.953635, 0.954493, 0.955416, 0.953358, 0.954138, 0.95728, 0.959747, 0.960461, 0.96742, 1.31205, 1.31245, 0.966242, 0.970425, 0.971944, 0.965462, 0.965914, 0.967091, 0.973158, 0.972187, 0.971565, 1.01585, 0.99373, 0.987352, 0.987853, 0.989647, 0.988503, 0.994065, 0.996045, 0.998183, 1.00089, 1.00604, 1.06095, 1.06039
0.981671, 1.00989, 0.992278, 0.927618, 0.926007, 1.04267, 1.04296, 0.970067, 0.967986, 0.992354, 0.968322, 0.890359, 0.970306, 1.04027, 1.03588, 1.08582, 1.05952, 1.1081, 0.983558, 0.908867, 0.903706, 0.904545, 0.904233, 0.902728, 0.895488, 0.894296, 0.886255, 0.882703, 0.880265, 0.918291, 0.9668, 0.975079, 0.862341, 0.860575, 0.858659, 0.858508, 0.858158, 0.855824, 0.880354, 0.881327, 0.875749, 0.868109, 0.861467, 0.851469, 0.851144, 0.850302, 0.857471, 0.8612, 0.857937, 0.850328, 0.849423, 0.845717, 0.845208, 0.8432, 0.841767, 0.840095, 0.839915, 0.841898, 0.841072, 0.840843, 0.845405, 0.843912, 0.846118, 0.846056, 0.849107, 0.848754, 0.863938, 0.86355, 0.86273, 0.862828, 0.855647, 0.854623, 0.856049, 0.857274, 0.85666, 0.85454, 0.854871, 0.854201, 0.854602, 0.853579, 0.854265, 0.855331, 0.853768, 0.851522, 0.853641, 0.853124, 0.852275, 0.852537, 0.847653, 0.840387, 0.840235, 0.839688, 0.840061, 0.839984, 0.83652, 0.891144, 0.847392, 0.848819, 0.841725, 0.838356, 0.830211, 0.852442, 0.852363, 0.852744, 0.856652, 0.90599, 0.870706, 0.870815, 0.893648, 0.894622, 0.887465, 0.93674, 0.943458, 0.894797, 0.90689, 0.906731, 0.910905, 0.920921, 0.92185, 0.921977, 0.924919, 0.93536, 1.12195, 0.946685, 0.985081, 0.966458, 0.975058, 0.943253, 0.9431, 0.931894, 0.93418, 1.10435, 1.05685, 0.956043, 0.954301, 0.958339, 1.00492, 0.960098, 0.966217, 0.957545, 0.951603, 0.951816, 0.951513, 0.942512, 0.939121, 0.938492, 0.933427, 1.16697, 0.923428, 0.923098, 0.922739, 0.923481, 0.923907, 0.921916, 0.919876, 0.917006, 0.912703, 0.90996, 0.909364, 0.905462, 0.906342, 0.907163, 0.909464, 0.912978, 0.913589, 0.912469, 0.984606, 0.903254, 0.902729, 0.898302, 0.897795, 0.899951, 0.899549, 0.900596, 0.900626, 0.941984, 0.940571, 0.921716, 0.928905, 1.06521, 0.952781, 0.898426, 0.897315, 1.08986, 0.936459, 0.866252, 0.932325, 0.925793, 0.909754, 0.911906, 1.42029, 0.918682, 0.922826, 0.986904, 0.924614, 1.03788, 0.922563, 1.09691, 0.928861, 0.928543, 0.929546, 0.931843, 0.931621, 0.935678, 0.940252, 0.940228, 0.948106, 0.950773, 0.952403, 0.953989, 0.954922, 0.955706, 0.957277, 0.957752, 0.964003, 1.35327, 0.96959, 1.40144, 0.966845, 0.967295, 0.969833, 0.969563, 0.967513, 0.970145, 0.973017, 0.97374, 0.970731, 1.21216, 0.983308, 0.984025, 0.987226, 0.98852, 0.990377, 1.02233, 0.994259, 0.995725, 0.99816, 1.00506, 1.00612, 1.00662
0.994663, 1.01509, 0.928384, 0.926446, 0.926155, 1.00553, 1.03469, 0.966431, 0.971024, 0.941483, 0.967179, 0.971208, 0.969254, 1.07453, 1.04688, 1.07841, 1.09189, 1.07593, 0.993818, 0.910657, 0.901032, 0.901689, 0.901846, 0.90106, 0.901213, 1.24, 0.884463, 0.884502, 0.8838, 1.323, 1.29094, 0.86329, 0.862819, 0.860335, 0.860313, 0.859327, 1.02525, 0.857374, 1.41389, 0.904114, 0.867686, 0.867649, 0.857889, 0.856392, 0.849912, 0.848527, 0.84867, 0.859834, 0.864939, 0.866939, 0.859874, 0.846287, 0.846449, 0.844118, 0.843056, 0.83955, 0.841401, 0.840058, 0.840657, 0.838608, 0.839063, 0.840199, 0.845375, 0.846349, 0.847012, 0.846484, 0.846156, 0.990311, 0.862248, 0.864299, 0.853616, 0.853256, 0.853361, 0.853856, 0.853265, 0.853103, 0.85385, 0.849888, 0.852467, 0.852555, 0.852762, 0.848555, 0.848162, 0.852168, 0.853798, 0.853608, 0.852781, 0.85057, 0.848545, 0.845479, 0.845187, 0.84212, 0.841586, 0.840334, 0.844629, 0.845711, 0.850419, 0.851013, 0.839405, 0.831816, 0.878262, 0.853573, 0.858602, 0.860305, 0.863705, 1.13566, 0.873141, 0.882503, 0.897188, 0.896086, 0.893689, 1.03076, 1.03286, 0.894563, 0.904417, 0.904452, 0.904785, 0.912174, 0.913388, 0.920443, 0.929827, 0.932139, 0.980761, 0.981376, 0.966781, 0.967326, 1.11159, 1.113, 1.00808, 0.935318, 1.01181, 1.01601, 0.956863, 0.955946, 0.956255, 0.961624, 0.962671, 0.963661, 1.13228, 0.957677, 0.951421, 0.952355, 0.949587, 0.94664, 0.938824, 0.938699, 0.934132, 0.929129, 0.926804, 0.923427, 0.922314, 0.923647, 0.919619, 0.920994, 0.919766, 0.915304, 0.915344, 0.91471, 0.905931, 0.905005, 0.905145, 0.904254, 0.904463, 0.912181, 0.913301, 0.912822, 0.912348, 0.902676, 0.90295, 0.902259, 0.897063, 0.897928, 0.900018, 0.899789, 0.898694, 0.899057, 0.927176, 0.925424, 0.926277, 1.28545, 0.950539, 0.867585, 0.897398, 0.897317, 0.863151, 0.980497, 0.939116, 0.905019, 0.908014, 0.9119, 1.00155, 0.920022, 0.923471, 0.925107, 0.925108, 0.925845, 0.922905, 0.922798, 0.92583, 0.925131, 0.92581, 0.929023, 0.931786, 0.933274, 0.938595, 0.942447, 0.945763, 0.947239, 0.951042, 0.952982, 0.954128, 0.955203, 0.955547, 0.955929, 1.32611, 0.965878, 0.967071, 1.19541, 1.39921, 0.966035, 0.968328, 0.968672, 0.968936, 0.969848, 0.971697, 0.973259, 0.974302, 0.998589, 1.21176, 0.983855, 0.985632, 0.987523, 0.987851, 0.989903, 1.02146, 1.1193, 1.01195, 1.11828, 1.00481, 1.00679
0.947951, 0.977609, 0.987807, 0.930031, 0.930145, 0.93057, 0.966676, 0.967558, 1.04011, 1.01242, 0.919613, 0.928944, 1.06846, 1.01568, 0.943113, 0.942977, 0.942879, 0.938552, 1.11646, 1.12784, 0.90157, 0.903245, 0.900908, 0.901339, 0.900854, 0.880558, 0.880366, 0.882664, 0.884879, 0.92948, 1.35672, 0.864175, 0.862959, 0.860595, 0.860022, 0.85352, 0.849651, 0.846623, 0.847229, 0.873481, 0.870346, 0.867393, 0.859367, 0.856583, 0.849315, 0.848613, 0.848504, 0.933314, 0.864517, 0.86624, 1.19256, 0.854058, 0.84594, 0.844836, 0.843203, 0.84319, 0.84002, 0.839187, 0.839471, 0.838539, 0.836822, 0.837476, 0.840538, 0.839465, 1.00405, 0.841991, 0.845879, 0.990806, 0.863668, 0.863581, 0.852724, 0.850613, 0.849263, 0.849484, 0.84922, 0.850081, 0.84972, 0.850377, 0.849755, 0.849297, 0.852969, 0.853081, 0.849161, 0.851138, 0.851582, 0.852436, 1.02991, 0.848698, 0.848705, 0.845191, 0.843129, 0.843214, 0.843643, 0.844613, 0.844969, 0.846326, 0.852613, 0.852662, 0.852024, 0.878271, 0.878154, 0.855308, 0.860087, 0.862672, 0.866878, 0.87164, 1.15002, 0.88353, 0.88475, 0.890693, 0.894168, 0.894506, 0.894739, 0.900716, 0.89847, 0.902738, 0.904555, 0.911321, 0.919388, 0.992435, 1.06042, 1.09851, 0.986102, 0.983813, 0.957857, 0.966587, 1.10994, 0.982404, 0.933594, 0.928493, 0.950161, 0.953311, 0.955572, 0.956567, 0.957924, 0.960898, 1.01458, 1.01312, 1.17154, 1.11611, 0.95058, 0.951297, 1.10692, 0.945499, 0.944422, 0.937222, 0.936544, 0.928735, 0.927906, 0.924919, 1.17426, 0.918806, 0.918315, 0.92081, 0.919839, 0.916451, 0.914562, 0.91657, 0.915645, 0.904164, 0.904462, 0.904327, 0.904254, 0.910637, 0.911695, 0.912274, 0.912084, 0.906764, 0.90419, 0.900345, 0.897392, 0.897781, 0.899378, 0.899053, 0.897488, 0.89856, 0.898248, 0.90411, 0.915412, 0.946399, 0.949954, 0.894993, 0.896371, 0.861111, 0.904982, 0.971867, 0.904793, 0.906248, 0.90758, 0.989935, 1.00496, 0.920172, 0.920278, 0.922895, 0.924916, 0.926443, 0.924414, 0.924114, 0.925439, 0.91467, 0.922563, 0.926462, 0.929633, 0.933689, 0.936114, 0.939355, 0.942234, 0.943147, 0.949502, 0.952241, 0.955069, 0.950422, 0.950583, 0.952803, 0.975171, 0.966484, 1.34777, 1.34553, 1.1087, 0.962003, 0.966213, 0.967731, 0.969244, 0.969717, 0.972577, 0.973081, 0.974148, 0.976451, 0.981307, 0.983162, 0.98606, 0.987105, 0.98702, 0.988585, 0.989447, 0.991335, 0.995245, 0.997813, 1.00029, 1.00351
0.956603, 0.960309, 0.948205, 0.962956, 0.931229, 0.931595, 0.964022, 1.0442, 0.921225, 0.92131, 0.92072, 1.05354, 0.996002, 1.05532, 1.06508, 1.06493, 1.07823, 1.01002, 0.995731, 1.11175, 1.13172, 1.13077, 0.897407, 0.896035, 0.910921, 0.880517, 0.880567, 0.880867, 0.876275, 0.875803, 0.87311, 0.873206, 0.863369, 0.861993, 0.926246, 0.851954, 0.847781, 0.846948, 0.847467, 0.869847, 0.868847, 0.868626, 0.859294, 0.859308, 0.850391, 0.84819, 0.848439, 1.21613, 0.866328, 0.866078, 0.865175, 0.85313, 0.848422, 0.844956, 0.842983, 0.842984, 0.840296, 0.839329, 1.04296, 1.04659, 0.836957, 0.836035, 0.838702, 0.838856, 0.834181, 0.831046, 0.838115, 0.994332, 1.01977, 0.860345, 0.888819, 0.851611, 0.849896, 0.84921, 0.849596, 0.850399, 0.849118, 0.848512, 0.847785, 0.847355, 0.847196, 0.852506, 0.85079, 0.851209, 0.850967, 0.848757, 1.03068, 0.843662, 0.845884, 0.845985, 0.842236, 0.841754, 0.840169, 0.844971, 0.847403, 0.848237, 0.855039, 0.854265, 0.853245, 0.848481, 0.869059, 0.86376, 0.866154, 0.865603, 0.866762, 1.15177, 1.15365, 1.14067, 0.887718, 0.887858, 0.894334, 0.897105, 0.898914, 0.8992, 0.89889, 0.901879, 0.903421, 1.05397, 0.93811, 1.35438, 0.936212, 1.03893, 1.05338, 0.955324, 0.960174, 0.962142, 0.938586, 0.9386, 0.94889, 0.954815, 0.944321, 1.03642, 0.956368, 0.956937, 1.00039, 1.13591, 0.984994, 0.980169, 0.97703, 1.05318, 1.04503, 1.04377, 1.16939, 0.946378, 0.944795, 0.938806, 0.938264, 0.930773, 0.930104, 0.926685, 0.92511, 0.92088, 0.915444, 0.915978, 0.917549, 0.914292, 0.914423, 0.898018, 0.898036, 0.899066, 0.903817, 0.903174, 0.902238, 1.44125, 0.91096, 0.911004, 0.907732, 0.904767, 0.903856, 0.903829, 0.898101, 0.897803, 0.897151, 0.897671, 0.898199, 0.890547, 0.898568, 0.904538, 0.904916, 0.953153, 0.964099, 0.894778, 0.895143, 0.857497, 0.858575, 0.859196, 0.904125, 0.906988, 0.908883, 0.976771, 1.14767, 1.01262, 0.91961, 0.921333, 0.921953, 1.29566, 1.31645, 0.94045, 0.93917, 0.971836, 0.925825, 0.927306, 0.928875, 0.932527, 0.933015, 0.938248, 0.940745, 0.94212, 0.947098, 0.951008, 0.950865, 0.949544, 0.949029, 0.949344, 1.26352, 1.25722, 1.3468, 1.29069, 1.34471, 0.961565, 0.962789, 0.965277, 0.967563, 0.973563, 0.973226, 0.973637, 0.974402, 0.977014, 0.980707, 0.982537, 0.984342, 0.986221, 0.987085, 0.987753, 0.988175, 0.991851, 0.991983, 0.996249, 0.997409, 1.00376
0.960383, 0.959765, 0.963921, 0.946953, 0.931241, 1.03486, 0.998929, 1.01244, 0.919476, 0.921231, 1.02941, 1.05382, 1.05292, 1.00322, 1.05409, 0.944165, 1.10274, 1.103, 0.988773, 1.14545, 1.01836, 0.890659, 0.893968, 0.893844, 0.893156, 0.883714, 0.878604, 0.875203, 0.875406, 0.875437, 0.871865, 0.870907, 0.866751, 0.865344, 0.863385, 0.852913, 0.848745, 0.846015, 0.845997, 0.870435, 0.871419, 0.869276, 0.860994, 1.0635, 0.847078, 0.848602, 0.847653, 0.932239, 0.866299, 0.867354, 1.00302, 0.852709, 0.848701, 0.844402, 0.842753, 0.842611, 0.843012, 0.847776, 0.852837, 0.928956, 0.833458, 0.837233, 0.839449, 0.838347, 0.838424, 0.83381, 0.83356, 0.845697, 0.847814, 0.919217, 0.851256, 0.85029, 0.851505, 0.849434, 0.849421, 0.845203, 0.844408, 0.845011, 0.843863, 0.843774, 0.845441, 0.85538, 0.851316, 0.852425, 0.847398, 0.848282, 0.842815, 0.842139, 0.844949, 0.843388, 0.844343, 0.845096, 0.843056, 0.844478, 0.848844, 0.846914, 0.854587, 0.842482, 0.839959, 0.918042, 0.863435, 0.863754, 0.864817, 0.867561, 0.868306, 0.87074, 0.873784, 0.944129, 0.884773, 0.889846, 0.891832, 0.896564, 0.897701, 0.897491, 0.899439, 0.903633, 0.903428, 0.930428, 1.24342, 1.24742, 1.08818, 0.936901, 0.946698, 0.956586, 0.955695, 0.942794, 0.941965, 0.955919, 0.956192, 0.952609, 1.10882, 0.955824, 1.00993, 1.2194, 0.969773, 0.983406, 0.984043, 0.987162, 0.981478, 0.980599, 1.01514, 1.01998, 1.04377, 1.07666, 0.943151, 0.940938, 0.936929, 0.933699, 0.93205, 0.927132, 0.925173, 0.922247, 0.915005, 0.915933, 0.915183, 0.912188, 0.911897, 0.89715, 0.896886, 0.90202, 0.903838, 0.901154, 0.900841, 0.907939, 0.908695, 0.905952, 0.90103, 0.901899, 0.902226, 0.902231, 0.898351, 0.897828, 0.895345, 0.895215, 0.892531, 0.891759, 1.4785, 0.896836, 0.95655, 0.966947, 0.899483, 0.898371, 0.894758, 0.859006, 0.857655, 0.856971, 0.855934, 0.907656, 0.97469, 0.97393, 1.11602, 1.14695, 0.919386, 0.918898, 0.923332, 0.92458, 1.07428, 0.935848, 0.93644, 0.957447, 0.926678, 0.926476, 0.929206, 0.933909, 0.934943, 0.935472, 0.939499, 0.941341, 0.945419, 0.950022, 0.949675, 0.94996, 0.948379, 0.945959, 0.941236, 0.939947, 0.940004, 1.27564, 1.34357, 0.960928, 0.961638, 0.961619, 0.965204, 0.967005, 0.974042, 0.97138, 0.972964, 0.974912, 0.996012, 0.999356, 0.980064, 0.993609, 0.986848, 0.987285, 0.989802, 0.990953, 0.991684, 0.995102, 0.994967, 0.997812
0.961127, 0.971875, 0.980583, 0.9608, 0.972219, 0.964329, 0.988225, 0.906238, 1.01354, 0.974208, 1.00833, 0.942367, 0.998622, 0.963439, 0.948265, 0.942166, 0.942375, 1.07095, 0.956272, 1.13647, 0.890747, 0.890116, 0.893871, 0.893262, 0.88804, 0.880935, 0.878448, 0.877576, 0.875357, 0.875178, 0.880798, 0.909013, 0.868362, 0.866776, 0.865706, 0.940369, 0.846886, 0.846306, 0.845309, 0.974283, 0.873995, 0.873283, 1.02626, 0.860856, 0.850103, 0.848938, 0.843382, 0.963756, 0.86669, 0.909453, 0.84893, 0.849213, 0.846131, 0.845558, 0.84303, 0.843124, 0.846226, 0.978404, 0.828072, 0.828292, 0.828108, 0.835536, 0.834178, 0.838798, 0.838078, 0.837171, 0.836959, 0.838759, 0.840886, 0.852559, 0.851644, 0.843499, 0.845766, 0.846315, 0.84585, 0.845756, 0.846599, 0.846201, 0.844118, 0.844171, 0.844724, 0.849272, 0.84941, 0.847612, 0.848725, 0.847469, 0.84655, 0.845747, 0.843574, 0.84411, 0.845354, 0.845484, 0.844262, 0.843912, 0.846205, 0.846671, 0.848086, 0.843927, 0.842264, 0.841718, 0.862637, 0.864388, 0.863552, 0.867039, 0.869541, 0.871288, 0.87312, 0.886054, 0.885066, 0.903412, 0.919623, 0.896336, 0.89727, 0.897299, 0.898463, 0.90136, 0.903435, 0.903653, 0.919536, 0.928577, 1.01266, 1.05877, 0.997604, 0.947071, 1.01198, 1.0001, 1.00481, 0.956316, 0.956043, 0.956227, 1.14661, 1.00228, 0.966429, 0.967375, 0.979356, 0.985496, 0.986732, 0.986574, 0.985451, 0.982805, 0.957198, 0.956999, 1.03322, 1.15625, 0.942508, 0.942206, 0.937899, 0.93535, 0.932778, 0.932692, 0.925204, 0.919617, 0.918702, 0.915683, 0.914242, 0.912079, 0.910337, 0.90807, 0.905725, 0.900995, 0.903566, 0.901527, 0.900866, 0.905961, 0.904657, 0.904455, 0.903859, 0.901322, 0.901652, 0.902382, 0.895724, 0.895406, 0.893366, 0.89293, 0.891891, 0.894508, 0.893582, 0.894582, 0.89901, 0.866824, 0.898275, 0.898176, 0.89692, 0.858842, 0.857835, 0.85675, 0.855959, 0.855792, 1.25696, 0.975382, 0.907849, 0.909082, 0.913589, 0.918312, 1.12603, 0.925457, 0.926872, 0.930491, 1.05231, 0.958544, 0.970839, 0.922176, 0.929092, 0.929785, 0.935163, 0.935587, 0.938783, 0.940651, 0.945997, 0.949386, 0.950337, 0.949234, 0.942896, 0.943202, 0.942405, 0.939651, 1.24852, 0.965799, 1.20814, 0.958775, 0.960868, 0.96289, 0.96412, 0.967814, 0.968911, 0.970044, 0.972282, 1.0223, 1.0022, 0.998455, 0.996333, 0.980728, 0.984144, 0.987397, 0.988828, 0.988129, 0.990897, 0.99162, 0.994095, 1.04252
0.965091, 0.965385, 0.981475, 0.972717, 0.933921, 0.999959, 0.982976, 0.907321, 0.906475, 1.01221, 1.0016, 0.940586, 1.02301, 1.03931, 0.949126, 0.949404, 1.02817, 1.06384, 1.10856, 0.901673, 0.888553, 0.888777, 0.889215, 0.890482, 1.15617, 0.879788, 0.878599, 0.877412, 0.876255, 0.878651, 0.884097, 0.876763, 0.875321, 0.873202, 0.869348, 0.861203, 0.845556, 0.845826, 0.844094, 0.929436, 0.876124, 0.87797, 0.877871, 0.960686, 0.852544, 0.847886, 0.835492, 1.23005, 0.984072, 0.846972, 0.849245, 0.849148, 0.845603, 0.843023, 0.842027, 0.848482, 0.848943, 1.00011, 0.826569, 0.827266, 0.828231, 0.831276, 0.832855, 0.839083, 0.837057, 0.834008, 0.833986, 0.835504, 0.837243, 0.85207, 0.851475, 0.848956, 0.846894, 0.846018, 0.84642, 0.848883, 0.848435, 0.845589, 0.845464, 0.844076, 0.847229, 0.847545, 0.847336, 0.847195, 0.847566, 0.846667, 0.846435, 0.846601, 0.84513, 0.843915, 0.843275, 0.843942, 0.843806, 0.840799, 0.840465, 0.846669, 0.848571, 0.850344, 0.840843, 0.841991, 0.843091, 1.35388, 0.871621, 0.869091, 0.869896, 0.870349, 0.867915, 1.05009, 1.04451, 1.11909, 0.903428, 0.895609, 0.897232, 0.898211, 0.898884, 0.901663, 0.901139, 0.901249, 0.9296, 1.092, 1.22893, 0.943738, 0.946724, 1.00334, 0.936509, 1.09855, 0.987575, 0.95623, 0.971691, 1.09908, 1.09932, 0.994634, 0.973069, 1.22213, 1.01648, 0.984092, 0.983765, 0.983605, 0.983598, 1.02832, 1.0298, 1.03229, 1.06798, 0.946803, 0.945918, 0.943019, 0.94255, 0.936515, 0.932647, 0.930004, 0.929672, 0.923098, 0.924022, 0.914478, 0.912277, 0.909428, 0.909515, 0.908063, 0.905062, 0.901704, 0.900977, 0.900598, 0.898937, 0.905382, 0.906187, 0.902043, 0.901544, 0.900443, 0.899485, 0.8986, 0.89827, 0.895464, 0.893938, 0.893453, 0.891154, 0.89141, 0.894305, 0.895796, 0.8745, 0.903765, 0.898979, 0.897319, 0.894625, 0.857813, 0.856217, 0.855739, 0.854613, 0.853703, 0.986242, 0.860694, 0.916121, 0.99512, 0.910904, 1.56425, 0.920238, 0.921496, 0.916397, 0.92642, 1.11564, 0.95783, 0.962202, 1.01158, 0.928913, 0.930316, 0.932283, 0.934186, 0.938322, 0.939374, 0.944969, 0.948765, 0.949945, 0.948585, 0.945309, 0.946541, 0.94774, 1.19773, 1.10239, 1.06084, 0.955862, 0.956765, 0.960021, 0.962503, 0.962968, 0.966517, 0.969089, 0.97011, 0.970213, 0.987369, 0.990928, 0.997873, 1.26448, 0.979937, 0.982398, 0.982205, 0.986627, 0.98895, 0.98978, 0.991973, 0.991131, 0.993076
0.966801, 0.98171, 0.968992, 0.97065, 0.9708, 1.04315, 1.01495, 0.962811, 0.995, 1.01537, 1.03596, 1.01863, 0.954869, 0.954743, 0.954767, 1.03669, 1.03711, 1.01501, 0.954714, 0.894863, 0.891975, 0.890352, 0.890338, 0.888392, 0.879151, 0.879434, 0.877594, 0.876784, 0.876254, 0.877583, 0.884298, 0.875472, 0.874363, 0.877857, 1.13971, 0.866227, 0.845796, 0.847344, 0.846233, 0.999089, 0.879516, 0.880042, 0.881861, 0.856167, 1.02202, 0.835966, 0.835035, 0.832826, 0.837081, 0.837667, 0.837464, 0.845348, 0.84171, 0.841193, 0.842649, 0.848041, 0.848161, 0.849491, 0.834605, 0.832862, 0.829833, 0.831032, 0.844335, 0.843653, 0.832601, 0.83513, 0.835325, 0.838594, 0.83845, 0.851171, 0.849815, 0.849599, 0.847378, 0.84745, 0.845597, 0.851156, 0.848841, 0.847469, 0.84775, 0.84972, 0.849106, 0.848632, 0.847723, 0.845426, 0.840538, 0.84594, 0.845551, 0.844041, 0.846135, 0.843208, 0.842925, 0.842008, 0.842081, 0.839583, 0.840388, 0.846782, 0.849385, 0.850824, 0.854951, 0.849459, 0.850501, 0.873336, 0.972117, 0.868916, 0.87054, 0.868165, 0.867047, 0.86757, 1.03315, 0.890576, 0.943243, 0.894359, 0.897339, 0.89711, 0.897974, 0.899127, 0.902823, 0.935902, 0.927504, 1.09912, 1.11507, 0.933685, 0.935154, 1.01851, 0.994381, 0.993617, 0.956801, 0.966137, 1.16109, 0.96897, 0.968486, 0.970419, 0.976938, 0.974626, 0.975168, 1.03193, 0.983973, 0.98445, 1.06596, 1.08517, 1.0267, 1.02604, 1.07833, 0.948909, 0.946668, 0.944023, 0.93373, 0.932565, 0.931904, 0.926102, 0.927525, 0.928411, 0.929672, 0.911702, 0.911921, 0.910094, 0.907987, 0.905255, 0.904544, 0.904476, 0.901031, 0.89893, 0.899387, 0.899523, 0.907109, 0.907097, 0.902194, 0.897811, 0.899512, 0.898951, 0.898413, 0.894115, 0.893282, 0.892936, 0.890181, 0.889904, 0.896455, 0.898618, 0.900791, 0.901118, 0.899143, 0.895229, 0.892922, 0.897576, 0.856363, 0.854404, 0.853844, 1.10419, 0.995252, 0.99588, 0.98952, 0.976733, 0.911238, 0.913843, 0.922269, 0.922925, 0.928196, 0.931173, 1.09779, 0.971428, 0.9653, 0.99921, 0.926069, 0.932943, 0.933286, 0.935037, 0.937508, 0.937872, 0.944466, 0.949546, 0.948526, 0.947283, 0.94679, 0.948103, 0.948037, 0.949027, 0.950241, 0.951845, 0.954424, 0.957317, 0.959399, 0.961058, 0.963552, 0.965315, 0.966516, 0.969529, 0.969644, 0.984748, 0.963404, 1.04219, 0.988149, 0.996327, 0.979658, 0.981424, 0.984045, 0.98813, 0.988373, 0.989484, 0.992426, 0.992114
0.959508, 0.978382, 0.96416, 0.984944, 0.907552, 1.04327, 0.894277, 0.890879, 0.990966, 0.993134, 0.993858, 0.954532, 0.955725, 0.954859, 0.956157, 1.00854, 1.07813, 1.01489, 1.099, 1.04466, 0.891239, 0.8907, 0.890415, 0.888376, 0.879256, 0.877308, 0.870632, 0.870732, 0.87267, 0.870521, 0.915182, 0.873459, 0.875582, 0.876887, 0.867862, 0.870981, 0.846764, 0.846841, 0.84716, 0.962838, 0.881396, 0.880755, 0.877796, 0.959274, 0.899492, 1.01232, 0.835065, 0.835629, 0.836704, 0.837248, 0.838687, 0.83931, 0.840257, 0.839249, 0.956798, 0.849471, 0.8493, 0.850142, 0.834203, 0.832342, 0.83138, 0.829886, 0.828365, 0.838869, 0.831914, 0.831744, 0.831544, 0.835335, 0.842564, 0.848882, 0.848931, 0.848594, 0.848009, 0.847489, 0.845027, 0.848521, 0.848919, 0.848034, 0.849111, 0.850974, 0.851984, 0.849129, 0.847055, 0.846014, 0.841592, 0.845357, 0.844711, 0.84511, 0.844122, 0.843216, 0.842788, 0.842186, 0.843225, 0.840908, 0.845335, 0.847065, 0.85004, 0.850189, 0.854452, 0.85492, 0.852577, 1.03244, 0.863171, 0.869206, 0.866388, 0.866924, 0.868031, 0.872329, 0.926807, 0.922532, 0.888757, 0.924946, 0.894548, 0.896407, 0.898959, 0.899356, 0.902998, 1.06236, 1.06439, 1.10468, 1.05122, 0.9335, 0.937042, 0.920133, 0.920382, 1.09524, 0.945421, 0.957019, 0.98825, 1.10181, 1.14535, 0.989188, 1.03761, 1.03888, 1.12614, 0.979791, 1.04034, 0.993966, 1.04899, 1.06504, 0.961255, 0.961171, 0.953025, 0.949328, 0.947753, 0.945492, 0.93179, 0.932432, 0.929448, 0.928462, 0.928549, 0.929596, 0.932188, 0.932736, 0.909801, 0.910313, 0.907962, 0.904417, 0.903731, 0.903212, 0.902342, 0.898866, 0.89768, 0.89723, 0.898337, 0.907931, 0.899147, 0.899019, 0.896584, 0.897261, 0.895781, 0.893737, 0.892767, 0.892327, 0.891271, 0.890325, 0.890624, 0.878888, 0.902658, 0.904745, 0.895757, 0.896835, 0.892906, 0.893417, 0.891522, 0.894953, 0.980561, 0.901313, 0.946939, 0.955826, 0.994978, 1.03295, 0.911842, 0.918559, 0.925134, 1.32848, 1.61299, 0.920817, 0.921162, 0.942698, 0.967864, 0.995034, 0.923623, 0.925626, 0.9298, 0.931646, 0.931543, 0.941812, 0.943888, 0.946946, 0.945821, 0.945398, 0.945343, 0.945504, 0.947241, 0.949131, 0.952196, 0.952585, 0.953692, 0.954929, 0.954814, 0.958167, 0.96122, 0.962201, 0.964673, 0.966912, 0.96814, 0.963135, 0.962898, 0.962836, 0.994669, 0.99258, 0.979097, 0.980223, 0.984572, 0.985257, 1.01487, 0.989403, 0.991298, 0.992695
