0.917691206552207,0.91487882018065,0.857587173062438,0.852587798780253,0.853116908758631,0.929596657741361,0.951068989350372,0.931928555051472,0.968366595562416,0.951575218897252,0.994774426915681,0.884135147058625,0.993477869130828,0.863149024618934,0.852056782099251,0.853787114731243,0.855649009844345,0.825510714805689,0.821237794223547,0.821486618916081,0.810332408561092,0.807683998615266,0.805487477191515,0.809343783250141,0.79798936911955,0.800161103409179,0.799797876559158,0.809903400470515,0.807985257629982,0.804998407968257,0.800808428950294,0.797160906829081,0.796150354437945,0.795907249853285,0.790187141978932,0.791628609163269,0.795062580590505,0.795704186023746,0.791379784470734,0.792839365330007,0.791697250457761,0.790470287318712,0.789863955884031,0.787101143780718,0.799736862075165,0.804587513552616,0.80073120749399,0.80460086047099,0.803882986932759,0.814074312462231,1.08345516599441,0.886186759082893,0.80933138968308,0.808361831398377,0.806126222570817,0.804599907119677,0.80338152414244,0.79971493499498,0.807313144954746,0.804105117788546,0.805149990826928,0.811884464497667,0.811355354519289,0.806245391484867,0.807824141258188,0.822415183094351,0.823104456093211,0.823398088297428,0.827820685035615,0.836061453779934,0.839309521701254,0.854749046205446,0.90855047416899,0.85529626985876,0.85317220313475,0.859656898761642,0.866174961684467,0.927670888090329,0.927166565246073,0.987014147232808,0.948527354751534,0.91662059302839,0.886479437935797,0.966345490780145,1.07477013553851,1.07807826459251,1.01033312033392,0.916788382859371,0.917727433902078,0.921947920162038,0.918984904283123,0.911785195171937,0.900256317751178,0.894396067233902,1.19253762315833,0.870226704762134,0.868829091738167,0.870115162658585,0.87108186088935,0.85827358600736,0.859200243483006,0.856768244285093,0.857278287237223,0.856510839430747,0.856114245284792,0.85896667241147,0.853133115730942,0.853398147395787,0.858147743634125,0.853856709377047,0.852301793386535,0.848883075580297,0.849323523886622,0.844270761930943,0.850566693997982,0.852869037417409,0.855398278449185,0.852474349974078,0.85354687020052,1.0671528585525,0.854586023131027,0.868825278332918,0.866730765499592,0.881744141967145,0.843797899679997,0.904904858750402,1.05804835351915,0.95418072803402,0.877105134481044,0.882151222977537,0.883651797943242,0.888067721222243,1.10574451967814,1.01045705600453,1.02489079487415,1.03816144514265,0.898981687046509,0.901894175305867,0.905736181094808,0.906875435913117,0.909919486653585,0.911103548983576,0.914491759547818,0.918504415221677,0.921529398935898,0.924803207342653,0.930510921649945,0.931316503508917,0.933407202936993,0.939293193939702
0.94599144026057,0.909533379372066,0.856081831340171,0.854711865504263,0.853155996162439,0.879704923509938,0.880086264034895,0.932601621078021,0.888435714828826,0.898344848369831,0.884786286004989,0.885195273718005,0.989407059026913,1.02062931450776,0.854381052598863,0.855812986270076,0.855948362156436,0.906214763453629,0.819279610627893,0.818801028269072,0.809926280902013,0.806662006008382,0.80778505385438,0.792951860784869,0.795217023503113,0.799053309184179,0.799195358529726,0.810300947967783,0.805031775264191,0.804083190708361,0.800465222477832,0.796160841302381,0.796324817728113,0.791831672992808,0.789749553726544,0.789241417477038,0.794398094725768,0.794338033593087,0.793703101619034,0.788620785772671,0.79307579645548,0.790389252457159,0.788523543938807,0.794174057167356,0.798222940191086,0.804742909816536,0.800282179025853,0.801812307882242,0.810568839686565,0.812948404562296,0.944103804662034,1.13156127321772,0.807772660287319,0.806165309974626,0.803892520445882,0.804365382696829,0.804483598259566,0.800300292700788,0.800933317972217,0.805694354426304,0.805931738903089,0.808644976738158,0.809639322156983,0.810010175817503,0.806778314868494,0.81959707661492,0.821151992605431,0.822650660868512,0.829258338814703,0.834580899191789,0.836277864527847,0.85259828564469,0.859180223105446,0.851871831944647,0.853573564037267,0.853577377442516,0.855443085960868,0.858919958197162,1.04480630379003,1.06256723873989,0.950474098131439,0.917675952931208,0.886457510855612,0.888303198996404,0.889535882243327,1.07873607699807,0.911987305650164,0.913928328922195,0.918159302046591,0.914355430310146,0.921173798896376,0.911337120055112,0.905699953744937,0.894868929484849,0.89412817551512,0.982962404155141,0.8686470016375,0.869505971169966,0.873224041288296,0.85734502182909,0.858047641746324,0.857594799872937,0.85604179058505,0.857963746830833,0.858177297524809,0.859679779193139,0.853359059991978,0.853737540462998,0.857891292131091,0.856654795478919,0.851950960103575,0.848770580125435,0.850116712178532,0.849018451466657,0.849110926543959,0.849138573732018,0.852947212225025,0.959300224581566,0.852464816460955,0.856431711271819,0.86380874372711,0.866186401900216,0.915775923765611,1.09920452967513,0.879582894541952,1.05396800990212,1.11866242996105,0.871336405689759,0.877110854588919,0.881607812729473,0.882472502369813,0.872334564513834,0.876679939795717,0.901957096492485,0.90291140115619,0.90662184446402,0.897448698136182,0.897459185000619,0.904502544496572,0.905772408444679,0.909344615812213,0.910608759652445,0.915945620299216,0.918367132632693,0.919949695811264,0.922764942236758,0.927719509007261,0.928155190557024,0.931497640258271,0.93905294940898
0.891672342534398,0.917483375966105,0.853659365655382,0.85283376341885,0.853842409107361,0.924798440586091,0.942824407200803,0.929004626576366,0.885836879151245,0.883365792549524,0.878999443538768,0.880073870467834,0.869088403295138,1.00763513611985,0.854080746935459,0.85573099805721,0.971970263523259,1.02474779217729,0.819236709818835,0.813263963846698,0.812076088111457,0.809098771962857,0.80946295216419,0.79612842735776,0.796975003323164,0.796976910025789,0.798748236764214,0.807282637712749,0.804511245447625,0.799874144664149,0.800961918511589,0.796547901935213,0.793877564909202,0.793517198113118,0.790076553226694,0.78964849848743,0.793603953082545,0.794824242762407,0.794458155858449,0.787768489699393,0.790124220792314,0.790217649220928,0.788953505380696,0.787780883266453,1.04982093169321,0.800142989734244,0.800591064851068,0.802866714433748,0.811444969542654,0.812842582566621,0.809546847079681,0.823696487258206,0.80522244552667,0.805035588669441,0.801870462312299,0.803533107001111,0.805425509356209,0.801041046670517,0.801212649906748,0.801747479993,0.807304564792934,0.806562857471893,0.812306799129056,0.81287022975468,0.805849750690224,0.819739125960466,0.821554306859261,0.823972005787488,0.827187659764187,0.82941278172731,0.835830742762335,0.862513139293569,0.840566992082299,0.847007833548821,0.849924135213429,0.853809041811428,0.855283876291698,0.856093271555919,0.929128562246976,0.872716858390103,0.958432674887289,1.02065791504713,0.885706270021447,0.888334659589713,0.943264855507129,0.978891594051226,0.959386026199681,0.910990100177402,0.917674046228584,0.916540511518149,0.921712442387877,0.911647912582952,0.907138560875337,0.895979583763786,0.894028073627319,0.986318200774762,0.868502092238017,0.878920315379839,0.867315169854088,0.857983767208393,0.85650797937681,0.857734942515859,0.856927453954263,0.856874066280769,0.858446142594903,0.860018218909038,0.852131143501617,0.851946193347013,0.856209580416031,0.852777515691419,0.848861148500112,0.84916717427139,0.851140611488042,0.850769757827521,0.849924135213429,0.849562815066032,0.849849773811063,0.852811836338665,0.850764991070959,0.853851942620485,0.859064867596646,1.09571526387177,0.867751804755164,1.10145443877237,0.872927549030142,0.921278667540739,0.869916865585607,0.871266811043954,0.874299421568674,0.879325489687606,0.883326705145716,0.884269569593672,1.10921471845525,0.901333604734181,0.902783652080329,0.901550015482094,0.896268449211441,0.895811793932805,0.900215323644745,0.902490019876112,0.911359047135297,0.91160310507127,0.913093193172539,0.91658055227327,0.919642716688674,0.922531371165222,0.925466739856078,0.92796642699717,0.932466245191662,0.939698368247469
0.908825039346959,0.91881234769558,0.85528864304826,0.85223601214598,0.855394465043936,0.934535017539553,0.943930294723178,0.944929406898566,0.945378435366702,0.875859104315748,0.87791643644789,0.879965188418221,0.87729866479746,1.04609332806176,1.0496588619701,0.914893120450335,1.06467414514028,0.927596526687962,0.832424418523157,0.812250551401625,0.811279086414297,0.810009222466191,0.809343783250141,0.786859945898683,0.797229548123573,0.797574661298659,0.797842553017441,0.809606908212362,0.802770425951197,0.798696755793345,0.794569697961999,0.794663126390613,0.793970039986504,0.793861357936891,0.788393888160322,0.787462463928115,0.788545471018992,0.794987265836827,0.790682884661376,0.788698960580287,0.788404375024758,0.79130637641968,0.789420647523768,0.786003836420154,0.799100976749799,0.800024774171507,0.79955572532581,0.798361176131383,0.811669960452378,0.788749488199844,1.08982355276119,0.8036246287271,0.806375047263352,0.806121455814255,0.802725618439514,0.804746723221786,0.80150437540834,0.80090662413547,0.801620684268452,0.80261216963334,0.803160346637965,0.809605954861049,0.812048440923398,0.812626171818708,0.80090662413547,0.817629359506142,0.822647800814575,0.820951788829829,0.824241804208895,0.830186902992973,0.830208830073158,0.831788533197792,0.842770186965238,0.846118356774359,0.849141433785955,0.855499333688299,0.85463083064271,0.853481088959965,0.926966361470471,0.872998097027259,0.991323295164821,0.96563047729585,0.910277946747045,0.944408877081999,1.12309551356368,0.980760162623515,0.958299205703554,0.911301846056554,0.916829376965804,0.917358486944182,0.920798178479293,0.91058301916701,0.90687257585918,0.893436995813636,1.0038693984359,0.901768332932632,0.904067816298122,0.894835562188915,0.931948575429033,0.858261192440299,0.857231573022916,0.855621362656285,0.856357349869452,0.856425037812632,0.859921930426487,0.860817127308823,0.851956680211449,0.852370434681028,0.854355312113428,0.853760420894496,0.852079662530748,0.850265434983266,0.850361723465817,0.850668702588408,0.849939388834428,0.849109019841334,0.851910919348455,0.854051193044775,0.852434309218958,0.853613604792387,0.854162735148325,1.105887522375,0.84809942080151,1.09986234208068,0.871654825028098,1.14287755329582,0.872027585391243,0.86962704678664,0.872512841209251,0.878663863876806,0.880386569698298,0.886334528536314,1.00916049821968,0.899831123065851,0.901792166715441,0.90034497942323,1.15573826249999,0.89588138857861,0.899347773950468,0.899689073720304,0.90368838247579,0.908676316542226,0.91036756177041,0.915820731277293,0.920665662646871,0.92018708028805,0.922086156102335,0.927708068791512,0.92717705211051,0.933563552552225
0.912749033348765,0.84797167172565,0.847826762326166,0.851101524084234,0.932532026432217,0.879086198508195,0.88043519061523,0.879480885951526,0.879198693963058,0.873259315286854,0.875112630238145,0.881216938691392,0.878047045577688,1.02954314927863,0.848854475040925,1.0589826378053,0.827567093586519,1.0273790417995,0.831354758350653,0.811586065536888,0.81055072601163,1.10908124927151,0.785920894855976,0.786102984956643,0.797219061259137,0.796955936296917,0.809789951664341,0.810031149546376,0.802514927799476,0.797257195311632,0.79537527982097,0.794296086135342,0.793157784668346,0.793504804546057,0.790439780076715,0.787113537347779,0.790511281425145,0.791252988746186,0.791801165750812,0.789093648023618,0.790964123298531,0.787891472018691,0.787091610267594,0.786302235380933,0.799713981643667,0.799852217583964,0.799397469007953,0.798707242657781,0.787997294014367,0.787705568512775,0.797040784563719,0.797647115998401,0.809322809521269,0.804339642211394,0.803304302686137,0.803246148256081,0.800962871862901,0.801176422556877,0.80032889324016,0.803660856076971,0.804521732312061,0.807842254933123,0.815527219862317,0.813593823400786,0.800837982840978,0.806471335745903,0.819409266406378,0.820961322342953,0.822583926276645,0.823829003090629,0.829629192475223,0.832254721989552,0.842998991280212,0.843984756537226,0.845319448374575,0.850785964799832,0.851414223314698,0.85350301604015,1.05637045520934,0.925307530186908,0.944087597689723,1.14229600899526,0.91688753139586,0.929072314519545,0.94446893821468,0.89112321217846,0.893293993116777,0.953761253456567,0.914208614208038,0.913090333118602,0.913301023758641,0.919221335408596,0.90684492867112,1.08978541870869,0.889490121380332,1.02960988387049,0.903300368491646,0.904081163216495,0.922308286958122,0.861673236787351,0.858223058387804,0.854349592005554,0.853683199438192,0.85495783014286,0.858776002148991,0.859164969484447,0.859389007042859,0.853708939923626,0.852637373048498,0.853223684105619,0.852093962800434,0.851329375047895,0.849358797885181,0.850964241495249,0.850188213526962,0.849681983980082,0.850641055400348,0.853567843929392,0.854725212422637,0.855435459150369,0.85498547733092,0.848796320610869,0.848742932937375,0.846585498917432,0.871671985351721,0.941811948107043,0.873330816635284,0.86873852336349,0.868608867585005,0.879515206598772,0.878510374315511,0.88382626123341,1.01027591925518,1.12847241496557,0.900509909200274,0.898999800721444,0.899036028071315,0.894157729405804,0.898881585158708,0.902464279390678,0.90370840285335,0.907078499742656,0.90929980830053,0.915134318332371,0.91790761730012,0.921217653056746,0.922141450478454,0.927773850032067,0.925008177874817,0.930325971495341
0.850646775508223,0.846658906968486,0.8505142596758,0.850608641455727,0.922834536882563,0.878507514261573,0.878714391496362,0.879867946584357,0.878967982945459,0.874013416174956,0.870519383615039,0.880667808335454,1.00763513611985,1.0456738534843,0.842582376756697,0.827666242123008,0.828304987502311,0.82335518748837,0.830976277879634,0.827168592737939,0.809507759675873,0.807520022189535,0.78604197047265,0.785358417581665,0.795148382208621,0.794456249155824,0.790406412780782,0.800306012808663,0.799832197206404,0.795690839105372,0.79496057200008,0.79356581903005,0.791400758199607,0.79214341887196,0.791443659008665,0.791010837512838,0.791108079346702,0.791454145873101,0.791483699763785,0.78998312479808,0.77927889626254,0.778958570221576,0.786560593586592,0.786267914733687,0.796852974355178,0.799124810532609,0.799685381104295,0.797068431751779,0.787063963079535,0.787370942202125,0.792566706854663,0.794393327969206,0.806990912211157,0.806641985630822,0.803338623333383,0.800318406375724,0.799684427752983,0.801915269823981,0.801866648907049,0.803412984735749,0.80548557048889,0.806053767871076,0.815162086309671,0.814865594051517,0.803071684965913,0.803930654498378,0.818647538707777,0.823006260908034,0.822715488757755,0.824180789724902,0.825924469275267,0.830531062816746,0.838783271776814,0.838551607407902,0.843676824063323,0.844303175875565,0.847618931740065,0.849379771614053,0.925203614893857,0.870679546635521,0.945673974273544,0.877237650313467,0.872126733927732,0.874532039288898,0.87880495987104,0.889185048960366,0.892796343731708,0.904892465183341,0.908750677944592,0.912898709504811,0.913587029152358,0.918387153010253,0.907994670353865,0.897527826295111,0.883374372711336,0.884172327759808,0.903897166413204,0.904416742878457,0.895928102792917,0.865288344963943,0.856210533767344,0.855330590506006,0.842966577335591,0.852520110837073,0.858999086356091,0.86056067580579,0.85473474593576,0.853998758722594,0.852827089959664,0.855694770707339,0.853552590308394,0.851137751434105,0.848612323807578,0.85214830382524,0.850861279553511,0.850278781901639,0.850150079474466,0.852211225011858,0.856735830340472,0.855651869898282,0.85564710314172,0.852470536568829,0.850016610290731,0.847091728464312,0.87271590503879,0.874237453733369,0.868476351752582,0.869800556725495,0.870052241471967,0.877590390299052,0.877022192916866,0.876552190719857,0.922774475749882,1.01749278868999,0.899362074220154,0.900506095795024,0.899658566478308,0.893031821505869,0.894839375594165,0.898918765859891,0.90509552901288,0.906840161914558,0.90864199589498,0.914997035743386,0.915810244412857,0.920029777321505,0.921389256292976,0.922653400133208,0.923656325713845,0.925351384347278
0.847054547763129,0.845456730963559,0.852314186953597,0.849844053703188,0.928076062398095,0.920409211143837,0.929072314519545,0.879559060759142,0.950471238077502,0.871910323179819,0.868751870281864,0.879573361028828,0.877793454128592,1.01370798397979,0.977604569779497,0.829688300256592,0.829183977412336,0.822929992803043,0.829769335118145,0.825587936261993,0.80948297254175,0.809181713527035,1.01418465963599,1.01213495431434,0.796093153359201,0.7934542769265,0.791634329271143,0.792507599073294,0.799226819123035,0.793405656009568,0.795026353240635,0.792791697764387,0.79130256301443,0.790315844406105,0.791200554424004,0.790568482503888,0.790682884661376,0.79143793890079,0.789850608965657,0.788575978260989,0.778638244180612,0.779424759013336,0.786270774787624,0.786712176445262,0.788023034499801,0.798651948281662,0.799382215386955,0.798786370816709,0.787223172748704,0.787636927218282,0.793014781971487,0.79563840478319,0.805990846684458,0.807372252736114,0.804237633620968,0.800283132377165,0.801342305685233,0.800148709842118,0.799810270126219,0.803663716130908,0.805982266522646,0.806313079428046,0.814215408456466,0.81360335691391,0.804340595562707,0.80425002718803,0.818076481271654,0.817468243134348,0.819858294874515,0.825928282680517,0.826457392658894,0.828570019167156,0.83951925898998,0.839618407526469,0.844062931344842,0.844578694404846,0.849417905666549,0.850857466148261,0.928126590017652,0.909776483956726,0.944934173655127,0.876239491489392,0.869476417279282,0.868557386614136,0.880333182024805,0.986156131051655,0.892456950664497,0.902960022073122,0.909088164309179,0.914351616904897,0.913023598526734,0.918264170690955,0.918743706401088,0.899438342325145,0.997796550575965,0.885090405073642,1.03426223827497,1.04996393439007,0.88765206005004,0.863801116916611,0.856691976180102,0.856137125716289,0.852531551052822,0.852286539765537,0.853360013343291,0.861201327887717,0.854898722361492,0.854676591505705,0.854648944317645,0.859747467136319,0.852274146198476,0.851922359564203,0.8510681567883,0.852234105443356,0.855330590506006,0.850233974389957,0.850495192649552,0.852784189150606,0.856405017435072,0.856171446363536,0.853170296432125,0.855257182454951,0.850200607094023,0.868218946898236,1.04869597714459,0.85400924558703,0.866147314496408,0.868609820936317,0.870532730533412,0.872181074952538,0.877462641223192,0.87880114646579,0.883534535731818,1.01918975402605,0.901471840674478,0.901602449804275,1.21460770604021,0.891785791340572,0.893627666076114,0.898630853763549,0.903188826388096,0.908315949746141,0.908840292967957,0.914656689324862,0.917298425811501,0.919152694114104,0.920440671737146,0.922377881603927,0.924633510809047,0.926246581229615
0.850814565339204,0.848249096957556,0.851859438377585,0.851099617381609,0.915554746261136,0.924497181571375,0.87614701641209,0.910312267394291,0.951184344859171,0.868470631644708,0.972284869456348,0.879306422661358,0.878967029594146,1.02703583532703,0.978281449211295,0.830260311044027,0.828387929066489,0.824862435913262,0.80780888763719,0.813924636306186,0.807453287597667,0.806872696648421,1.02080091774399,0.795825261640419,0.796235202704748,0.792945187325682,0.791602868677834,0.792236847300575,0.794172150464731,0.792487578695734,0.792265447839947,0.793771742913526,0.792113864981276,0.790306310892981,0.789766714050167,0.788691333769788,0.802985883347798,0.802790446328757,0.789622758001995,0.787982993744681,0.782847290224824,0.786425217700232,0.786561546937904,0.786712176445262,0.788573118207052,0.799503291003628,0.799754022398788,0.799219192312536,0.789844888857783,0.792328369026565,0.793327481201952,0.792160579195584,0.798617627634416,0.806580017795516,0.804943113592139,0.799746395588289,0.800103902330436,0.79980264331572,0.800527190313138,0.802108800140397,0.806291152347861,0.80448550496219,0.814106726406853,0.814168694242158,0.803475905922367,0.816599740088759,0.817236578765437,0.818386320448182,0.817052581962145,0.818367253421934,0.827903626599793,0.829291706110637,0.832121252805817,0.839019702902287,0.845415736857126,0.843964736159665,0.846069735857427,0.847185156892926,0.940721314205666,0.911782335118,0.951057549134623,0.949114619159967,0.917473842452981,0.866033865690233,1.08897507009316,0.987786361795846,1.02755064503573,0.970664172225281,1.01924695510479,0.913158974413094,0.912479234927358,0.917645445689212,0.911085435308641,0.89877099640647,1.12103627472891,0.875638880162585,0.875595026002215,0.886832177921382,0.886694895332398,0.868119798361748,1.37271148768734,0.864862196927303,0.858814136201487,0.853461068582404,0.852154023933115,0.852039621775628,0.854441113731544,0.851518138607749,0.851960493616699,0.861047838326422,0.846380528385267,0.851544832444496,0.851721202437289,0.854365798977865,0.85334761977623,0.850913713875692,0.845483424800306,0.852364714573153,0.852464816460955,0.85256682505138,0.854370565734427,0.855280062886449,0.851054809869926,0.866706931716782,0.866803220199334,0.868788097631734,0.865408467229304,0.868412477214652,0.870913117707057,0.8728474675199,0.875327134283433,0.882541143664305,0.906775334025316,1.07098533082832,1.08132919256777,1.07758252191007,0.896415265313549,0.893485616730568,0.894272131563291,0.898819617323402,0.901863668063871,0.905339586948853,0.910067256107006,0.914292509123528,0.916314567257112,0.916893251503734,0.921576113150205,0.919047825469741,0.924361805685015,0.924435213736069
0.850741157288149,0.849863120729436,0.847187063595551,0.912243757153197,0.9090128495555,0.912386759850056,0.911955845056855,0.864939418383607,0.867098759106175,0.86751918703494,0.860608343371409,0.879010883754516,0.87766951845798,1.00893169390471,0.988682512029495,0.832369124147039,0.831061126146436,0.826261955639854,0.81634519528835,0.814752145245342,0.807782193800443,0.806723973843687,0.80276375249201,0.796082666494765,0.795916783366409,0.793010968566237,0.791967048879168,0.792707802848897,0.795804287911547,0.790952683082783,0.79274879695533,0.793147297803909,0.791551387706965,0.790482680885773,0.789729533348983,0.789698072755674,0.803588401377229,0.802843834002251,0.787537778681794,0.786941934111548,0.786334649325555,0.786719803255761,0.787331854798317,0.786022903446402,0.789214723640292,0.799187731719227,0.799104790155049,0.796843440842054,0.795581203704447,0.792693502579211,0.793235959475962,0.791176720641195,0.794724140874606,0.945807443457279,0.801956263930414,0.801287011309115,0.802315677375186,0.802692251143581,0.800363213887406,0.800507169935578,0.80707957388321,0.804001202495495,0.812722460301259,0.814449932879314,0.800030494279381,0.799490897436568,0.817612199182519,0.818042160624408,0.816866678456228,0.817534024374903,0.817069742285768,0.830740800105473,0.834882158206505,0.838587834757773,0.832722817483936,0.841659532686301,0.84422976782451,0.845384276263818,0.938678282343209,0.938197793281764,0.949300522665884,0.94730229831511,0.863873571616352,0.862975514680079,0.870386867782616,0.877348239065704,0.898618460196488,1.04605519400926,0.916019981701583,0.913760539091214,0.9132209422484,0.913710964822969,0.915583346800507,0.896370457801867,1.08952801385435,0.876646572499784,0.876527403585735,1.04414849138448,1.15368855717834,0.870715773985392,0.873848486397912,0.871503242169428,0.864988039300539,0.855024564734728,0.852091102746497,0.851225459754845,0.854261883684814,0.851982420696884,0.851699275357104,0.862699996150798,0.846283286551403,0.850853652743012,0.853476322203403,0.853228450862181,0.85345534847453,0.844220234311386,0.845244133620896,0.841182857030105,0.845407156695315,0.849962269265925,0.853342853019668,0.854419186651359,0.85980371486375,0.857739709272421,0.854422046705296,0.867162633644106,0.863449330282338,0.866836587495267,0.867670769893611,0.872782639630658,0.872760712550473,1.12965457059294,0.927937826457799,1.07654336897956,0.90067579232863,0.900870275996358,1.06358732464415,1.01946622590664,0.894886089808472,0.89857937279268,0.901348858355179,0.903594000695863,0.905417761756469,0.913288630191579,0.918072547077164,0.915801664251045,0.918975370769999,0.921651427903884,0.922632426404336,0.924134908072666
0.849144293839892,0.847342459859471,0.846207018446412,0.909672568663676,0.904484430821637,0.905472102781275,0.913904495139385,0.865098628052776,0.868159839116868,0.867968215503077,0.862149912443547,0.876892537138381,0.877227163449031,1.02373723978616,1.049496792247,0.842671038428749,0.829393714701062,0.829495723291488,0.820490366794631,0.819854481469266,0.805851657392848,0.806184377000873,0.799637713538676,0.79690159527211,0.796621309986267,0.793854684477704,0.793353221687386,0.793394215793819,0.794707933902296,0.7905770626657,0.790794426764926,0.793598232974671,0.792177739519207,0.790192862086806,0.786591100828588,0.784536628750383,0.802792353031382,0.788284252759397,0.789681865783364,0.786395663809548,0.786180206412947,0.788144110116475,0.787124977563528,0.786457631644853,0.789004986351565,0.797266728824756,0.798319228673637,0.797825392693818,0.794826149465032,0.794574464718561,0.793735515563656,0.792473278426048,0.948507334373973,0.806232997917805,0.809346643304078,0.802013465009157,0.802711318169828,0.800106762384373,0.800542443934136,0.801032466508706,0.800740741007114,0.805288226767225,0.812959844778045,0.811553651592266,0.799779762884222,0.800428995127961,0.81650059155227,0.81636902907116,0.815133485770299,0.816910532616598,0.818008793328474,1.1162885851932,0.835640072499856,0.835803095574275,0.837958622891594,0.840958819471693,0.841773934843788,0.842704405724683,0.843430859424726,0.94157170357632,1.07914601806239,0.949811518969326,0.865005199624162,0.862339629354713,0.872740692172913,0.952043314391636,0.897587887427792,0.948827660414937,0.911783288469312,0.915113344603498,0.915828358087792,0.914019850648184,0.914459345603197,0.898281927183213,0.994068946944511,1.11301859019169,0.876291925811574,1.17261258072933,1.0019150282455,0.872171541439415,0.874585426962392,1.20523626263939,1.20527439669189,0.864930838221796,0.865455181443611,0.850043304127478,0.854003525479156,0.851894712376144,0.851977653940322,0.845884785702823,0.848012665832083,0.84976492554426,0.852080615882061,0.852444796083394,0.85263832639981,0.842442234113775,0.84252803573189,0.843159154300694,0.845612127227479,0.849301596806437,0.850859372850886,0.85307686800351,0.859618764709146,0.859057240786147,0.856369743436513,0.85695033438576,0.863049876082446,0.865091001242277,0.866869954791201,0.869088403295138,0.875157437749827,0.891196620229514,1.03206953025647,0.852145443771303,0.899134223256492,0.899056048448876,0.895378019085666,0.891752424044639,0.892881191998511,0.898319107884396,0.90098277145122,0.902148720106276,0.90521088452168,0.915000849148636,0.917434755049173,0.917458588831983,0.921001242308833,0.920067911374001,0.922871717583746,0.922403622089362
0.868773797362049,0.847712360168679,0.845769430194024,0.845881925648886,0.862121311904176,0.902972415640183,0.86882623168423,0.865502849009231,0.867217928020224,0.867127359645547,0.86241017735183,0.877539862679495,0.878564715340317,1.01177268081563,1.05019273870504,0.832807665750739,0.832386284470662,0.829040021364165,0.821514266104141,0.81941784656819,0.807482841488352,0.805911718525529,0.799827430449842,0.798205779867463,0.796667070849262,0.793451416872563,0.792774537440764,0.791500860087408,0.796165608058943,0.789908763395713,0.789634198217744,0.792957580892743,0.791585708354211,0.783788247970155,0.786711223093949,0.783644291921984,0.784011332177255,0.931581535173762,0.786452864888291,0.78511721969963,0.788211798059655,0.786768424172693,0.787362362040313,0.78520111461512,0.786478605373726,0.794206471111977,0.79557453024526,0.796734758792441,0.795708952780308,0.796222809137687,0.794817569303221,0.796291450432179,0.807495235055413,0.806640078928197,0.810215146349668,0.802653163739772,0.801751293398249,0.801068693858577,0.800397534534653,0.798567100014859,0.800626338849627,0.807845114987061,0.809491552703562,0.808922401970064,0.799172478098229,0.799499477598379,0.812773941272128,0.813990417546741,0.811357261221914,0.815428071325829,0.81589902687415,0.818122242134649,0.833511239019284,0.83470102145715,0.83837523741511,0.83677742061554,0.841855923056654,0.843529054609902,0.842096167587377,0.942280043601427,0.885967488281043,0.88932995835985,0.864730634446193,0.864089029012953,0.865394166959618,0.929948444375634,0.895439033569659,0.902451885823617,0.90532242662523,0.915816917872044,0.916689234322882,0.915663428310748,0.946105842418057,0.897099771555847,0.889339491872974,0.878600942690188,0.871170522561403,0.875472043682916,1.0014764866418,0.866868048088577,0.874594960475516,1.20649468637175,0.876563630935606,0.865678265650711,0.86611204049785,0.868863412385414,0.855700490815214,0.850441804976058,0.84872481926244,0.849944155590989,0.849185287946325,0.848906909363107,0.850598154591291,0.85259065883419,0.894930897320154,0.842174342394993,0.842738726371929,0.844032424102845,0.847556963904759,0.850569554051919,0.851935706482577,0.851553412606308,0.856610941318549,0.856854999254521,0.858669226802003,0.858002834234641,0.862295775194343,0.863313001044666,0.864577144884898,0.867130219699484,0.87108186088935,0.873177327073988,0.85296913930521,0.852039621775628,0.89976724852792,0.89669459724808,0.894170122972865,0.890167954163443,0.891670435831773,0.895163515040378,0.89826476685959,0.900312565478609,0.903573980318303,0.914785391752035,0.919067845847301,0.917507209748915,0.920785784912232,0.921997494430282,0.924133954721354,0.918201249504337
0.842114281262312,0.848634250887763,0.845487238205556,0.846106916558611,0.902416611825058,0.904495871037386,0.863190018725367,0.865592464032596,0.915330708702723,0.862025976772936,0.863279633748732,0.865596277437845,0.977108827097053,0.859681685895764,0.912494488548357,0.832628435704009,0.832525473762271,0.827041797013391,0.820159553889231,0.817708487665071,0.808687877547215,0.804302461510211,0.801878089122798,0.798909353136008,0.795986378012214,0.795734693265742,0.801609244052703,0.790837327573983,0.79730009612069,0.797322023200875,0.788415815240507,0.788441555725941,0.789180402993045,0.783770134295219,0.786074384417272,0.783997031907569,0.78149067130729,0.781848178049437,0.786566313694466,0.786119191928954,0.78630509543487,0.786537713155094,0.786200226790507,0.784686304906428,0.790743899145369,0.792181552924456,0.797332510065311,0.795803334560234,0.796006398389774,0.796281916919055,0.794917671191022,0.797546060759287,0.808017671574604,0.856696742936664,0.803562660891795,0.801208836501498,0.798763490385212,0.800083881952875,0.800566277716946,0.803027830805543,0.799525218083814,0.808499113987362,0.809813785447151,0.807841301581811,0.798465091424433,0.79926495317553,0.812916943968987,0.811084602746569,0.810377216072774,0.811511704134521,0.811449736299216,0.819680018179098,0.830538689627246,0.833089857739207,0.834468403736926,0.834588526002288,0.83407943640147,0.842742539777179,0.959004685674724,0.948454900051792,0.886830271218758,0.888027680467122,0.865124368538211,0.863730568919494,0.865129135294773,0.879253988339177,0.891858246040314,0.899784408851543,0.90499161371983,0.911105455686201,0.915954200461028,1.13582275358411,1.00420307139524,0.89537134562648,1.09341768720891,0.87794408363595,0.872488054075129,0.872348864783519,0.873174467020051,0.863041295920634,0.878444593074955,0.880117724628204,0.876445415372869,0.877088927508734,0.869240939505121,0.87150419552074,0.85628870857496,0.851006188952994,0.850100505206222,0.850086204936536,0.849404558748175,0.849194821459449,0.850357910060568,0.853892936726918,0.877348239065704,0.846811443178469,0.841339206645337,0.843451833153598,0.852524877593635,0.855601342278725,0.851901385835331,0.852055828747938,0.857148631458738,0.857720642246173,0.856180979876659,0.857093337082619,0.861803845917149,0.863287260559231,0.863336834827476,0.868258987653357,0.871073280727539,0.91934622443052,0.851370369154328,0.850891786795507,0.896560174713033,1.08763084474269,0.892349221966196,0.888223117486163,0.890222295188249,0.895714552098941,0.897381010193003,0.90096275107366,0.902412798419809,0.904846704320346,0.917848509518751,0.916795056318558,0.917455728778046,0.921667634876195,0.928088455965156,0.920755277670235
0.840553645163926,0.847712360168679,0.84638148173658,0.847823902272229,0.854743326097572,0.856351629761578,0.862090804662179,0.861868673806392,0.921843051517675,0.8626771157193,0.862804864795161,0.865150109023646,0.977337631412027,0.857944679804585,0.98040742263793,0.933660794386089,0.830910496639078,0.829119149523094,0.821114811904248,0.820222475075849,0.81037530937015,0.806262551808489,0.802523507961287,0.812793008298376,0.795531629436203,0.795999724930587,0.794293226081405,0.792125305197025,0.79055704228814,0.79756703448816,0.789819148372348,0.788870563816518,0.789609411083622,0.786774144280567,0.7865920541799,0.783615691382612,0.780672695881257,0.782907351357504,0.783464108523942,0.781997854205482,0.783824475320026,0.783609017923425,0.786418544241045,0.785059065269574,0.791243455233062,0.792232080544013,0.795858628936353,0.795193189720303,0.795716579590806,0.791411245064043,0.792053803848596,0.793783183129275,0.799938972553392,0.871676752108283,0.978338650290039,0.798736796548465,0.799761649209287,0.800570091122195,0.79953570494825,0.800049561305629,0.800019054063633,0.801299404876176,0.809957741495322,0.801705532535255,0.803184180420775,0.799686334455608,0.805857377500723,0.812125662379702,0.809441025084005,0.810324781750593,0.811920691847537,1.23699239485518,0.81926245030427,0.825417286377074,0.833942153812486,0.833014542985528,0.834219579044392,0.843370798292045,0.941837688592477,0.946539617265196,0.893964199089389,0.886240146756387,0.908049964729984,0.864950858599356,0.866547722047613,0.961321329363837,1.08178680119772,0.899402114975274,0.900953217560536,0.903805644687214,0.955496352845121,0.985898726197309,1.10725081475172,0.897354316356256,0.874591147070266,0.874836158357551,0.871756833618524,0.871649104920224,0.868978767894213,0.864541870886339,0.876362473808691,0.882241791352214,0.888411881046016,0.884297216781731,0.871737766592276,0.873109639130808,0.874467211399655,0.852712687802177,0.846978279658137,0.851309354670335,0.850420831247186,0.849592368956717,0.850759270963085,0.852595425590752,0.852647859912934,0.845461497720121,0.84299422452365,0.844020983887096,0.854353405410804,0.856122825446604,0.852291306522099,0.85199672096657,0.85852431740252,0.859937184047485,0.855485986769926,0.856120918743979,0.970997845184619,0.862591314101185,0.864354060677798,0.865681125704648,0.870251491896257,0.919782859331595,0.851141564839354,0.850105271962784,0.895527695241712,1.01404165693913,1.15536645548815,0.887603439133108,0.890789539219123,0.892985107291562,0.897449651487495,0.899502216863075,0.904004895111504,0.906443567768603,0.914003643675874,0.915090464172001,0.91538504972753,0.917167816681703,0.92091258063678,0.923617238310037
0.974048569384274,0.845752269870401,0.845994421103748,0.848498875001403,0.852033901667753,0.853200803674121,0.856126638851853,0.85710191724443,0.852231245389418,0.947454834525092,0.861567414791676,0.862224273845914,0.979778210771751,0.859136368945075,1.03076343895849,1.04127890393417,1.04222272173344,0.823581131749407,0.8203263903689,0.819524621915178,0.810261860563975,0.806559997417956,0.799732095318603,0.789421600875081,0.789741926916045,0.794588764988247,0.793488597573746,0.792659181931965,0.7895846239495,0.795952057364967,0.789332939203028,0.787776116509892,0.787403356146746,0.787380475715249,0.786995321785042,0.781907285830805,0.782377288027814,0.781649880976459,0.78310088167392,0.782442115917057,0.783545143385495,0.784079973471747,0.783568977168305,0.78639280375561,0.792284514866195,0.792429424265678,0.794000547228501,0.798287768080328,0.788557864586053,0.788370054377512,0.787137371130589,0.793097723535665,0.796355324970109,0.92332360610582,0.984630768951828,0.798040850090419,0.79785017982794,0.802447239856296,0.796690904632071,0.797249568501133,0.797734824319141,0.800077208493689,0.801141148558319,0.802757079032823,0.800636825714063,0.799704448130543,0.806587644606015,0.806752574383059,0.807703065641514,0.809501086216686,0.810300947967783,0.821908000196159,0.922160517504702,0.821490432321331,0.829707367282839,0.834411202658183,0.832829592830924,0.8339278535428,1.10281773114909,0.948545468426469,0.892359708830633,0.887742628424717,0.862371089948022,0.860466294025863,0.863881198426852,1.11328552855916,0.889617870456192,0.892109930786786,0.892950786644316,0.903056310555673,0.945009488408806,0.98487864029305,0.893863143850275,1.12818640957185,0.874389036592039,0.874122098224569,0.870382101026054,1.05104122137307,0.868110264848624,0.862428291026766,0.920903047123656,0.880062430252085,0.891889706633623,1.2624278078698,1.00485135028767,0.873285055772289,0.878513234369448,0.89751543272805,0.856474612080876,0.849067072383589,0.849862167378124,0.849528494418787,0.851394202937138,0.85281374304129,0.853979691696346,0.842135254991185,0.842139068396434,0.847761934436924,0.855042678409663,0.855636616277283,0.85011957223247,0.852464816460955,0.854255210225627,0.861158427078659,0.86020602911758,0.856321122519581,0.899969359006147,0.862692369340298,0.865500942306606,0.863463630552024,0.868755683687113,0.977776173015728,0.885244847986249,0.8907723788955,0.894363653289281,1.03685535384467,1.07339730964867,0.888473848881322,0.889627403969316,0.893407441922952,0.896615469089152,0.89932870692422,0.901838880929749,0.905981192382093,0.910318940853478,0.912952097178305,0.914939834664643,0.917558690719784,0.918789467264083,0.927241879999752
0.869630860191889,0.843415605803728,0.841908357378835,0.845595920255168,0.850778337989333,0.850721136910589,0.85642408446132,0.85352303641771,0.85396157802141,0.931672103548439,0.859920023723862,0.872706371525667,0.872396532349139,0.866073906445354,0.865832708563319,1.04344301141331,0.835705853740411,0.823694580555582,0.820168134051043,0.818340559585187,0.810921579672151,0.801012446131146,0.80245677336942,0.789527422870756,0.791592381813398,0.795065440644443,0.7927926511157,0.790821120601672,0.792730683280394,0.79851561904399,0.789511215898446,0.786888546438054,0.78798680714993,0.78108454364821,0.784721578904987,0.781705175352578,0.783213377128782,0.782924511681128,0.780444844917595,0.780992068570909,0.7800758979597,0.784946569814711,0.784601456639625,0.785581501788765,0.79150944024922,0.791270149069809,0.790609476610321,0.78517728083231,0.790220509274865,0.789587484003437,0.791426498685042,0.79283269187082,0.792889892949564,0.778574369642682,0.790455033697714,0.79115098015576,0.804405423451949,0.794367587483772,0.79402819441656,0.797796792154446,0.79967108083461,0.800365120590031,0.801135428450444,0.796536461719464,0.799152457720668,0.800547210690698,0.806000380197582,0.807144401772452,0.803697083426842,0.806479915907715,0.811637546507757,0.811485010297774,0.817902971332799,0.819970790329378,0.829110569361282,0.832431091982344,0.8307198263766,0.832409164902159,0.97921573349744,0.850577180862418,0.966507560503251,0.889274663983731,0.865581977168159,0.856344002951079,0.906602777437773,0.991256560572954,1.14689116232099,0.888348959859398,0.893069955558365,0.939020535464358,0.94997263534112,0.968671667982382,0.89459436430688,1.13079859216781,0.874239360435993,0.872637730231174,0.871981824528248,0.856266781494775,0.859117301918828,0.857833137701035,1.10949119033584,1.15023742542748,0.898398236043325,1.32433844209655,1.31684510078115,0.884843487083732,1.38659228279577,0.941981644640649,0.859511036010846,0.849006057899595,0.849692470844518,0.85022730093077,0.850112898773283,0.85221599176842,0.852396175166462,0.841230524595724,0.842769233613926,0.849451272962483,0.85358691095564,0.855538421092107,0.847983111941399,0.852260799280103,0.852805162879479,0.857210599294043,0.859705519678574,0.858315533465106,0.856333516086642,0.978891594051226,0.865437067768676,0.864457975970849,0.865820314996258,0.885669089320264,1.3009622679167,0.901284030465936,0.89198408841355,0.89238258926213,1.07441739555293,0.888613038172931,0.890175580973942,0.892931719618068,0.894665865655309,0.897554520131858,0.901387945758987,0.906481701821099,0.906140402051262,0.911748967822066,0.914720563862792,0.917487189371355,0.918100194265223,0.92334743988863
0.882501102909184,0.841750101060978,0.841250544973285,0.840727155102781,0.848198569337999,0.849548514796347,0.855315336885007,0.854097907259083,0.854443973785481,0.857760683001293,0.858592005345699,0.871877909235198,0.872417506078012,0.872250669598343,0.865876562723689,1.04180324715599,0.836745960022231,0.991542565966671,0.821715423231055,0.820002250922686,0.811031215073076,0.800957151755027,0.80088660375791,0.797264822122132,0.795074974157567,0.79593299033872,0.793369428659697,0.796126520655135,0.791440798954727,0.800459502369958,0.785928521666476,0.786012416581966,0.786143979063076,0.782163737333839,0.783684332677104,0.783152362644789,0.782011201123856,0.780780424579557,0.782492643536614,0.779833746726352,0.780401944108538,0.781755702972135,0.781007322191907,0.784263970275039,0.78834145383814,0.789577950490313,0.790631403690506,0.785206834722995,0.784672957988055,0.789228070558665,0.790273896948359,0.791823092830997,0.790574202611763,0.778744066176288,0.789463548332826,0.791205321180567,0.796103640223638,0.791670556621014,0.79564603159369,0.799926578986331,0.799874144664149,0.801664538428822,0.801616870863202,0.795114061561375,0.798192432949089,0.799937065850767,0.80481631786759,0.805974639712147,0.803397731114751,0.803563614243107,0.806756387788309,0.811736695044246,0.812772034569504,0.822580112871395,0.824181743076214,0.82957199139648,0.831218429112981,0.83231764317617,0.952404634539033,0.967308375605661,0.970349566292192,0.893988032872199,0.84989267462012,0.849767785598197,0.855733858111148,0.874084917523386,1.12269510601247,0.886353595562561,0.886644367712841,0.891341529628998,0.947715099433375,0.974067636410522,0.889204115986614,1.05698060004927,0.877089880860046,0.874188832816436,0.871729186430464,0.857482304418075,0.858397521677971,0.856233414198841,1.13534607792792,1.1359371557416,1.28766301710882,0.898698541706729,1.31879947097156,0.889219369607612,0.924503855030562,0.992467316739692,0.866822287225582,0.869145604373882,0.849317803778748,0.849947015644927,0.849567581822595,0.852854737147723,0.852388548355963,0.852004347777069,0.848618997266764,0.846364321412957,0.848120394530383,0.855676657032404,0.846560711783309,0.850372210330254,0.852348507600843,0.856249621171152,0.85724110653604,0.859306065478681,0.857218226104542,0.86292403370921,0.864938465032295,0.864681060177949,0.865813641537071,0.88145908992474,0.925275116242287,1.02033377560092,0.888997238751825,1.08937547764436,0.883553602758065,1.03432897286684,0.891536966648038,0.892424536719875,0.895105360610322,0.897820505148015,0.901617703425274,0.907122353903026,0.908463719199562,0.912385806498744,0.911561157613525,0.913949302651067,0.915124784819247,0.929585217525612
0.839627941039593,0.838720350590196,0.837207382057429,0.843799806382622,0.845931499917131,0.847668506008309,0.853730867003812,0.851036696194991,0.856851185849271,0.857906545752089,0.857890338779779,0.931726444573245,0.872489007426441,0.872377465322891,0.861182260861469,1.04379575139889,1.06391146409037,0.825181808602913,0.822357982015608,0.818609404655281,0.810744256328045,0.803632255537599,0.799672987537234,0.796728085333255,0.795283758094981,0.796601289608707,0.794914811137085,0.793983386904877,0.792520945991668,0.800082928601563,0.789261437854599,0.787375708958687,0.786374690080675,0.786225013924629,0.783245791073404,0.780628841720887,0.77818730900985,0.780104498499071,0.780414337675599,0.780201740332935,0.780180766604063,0.780715596690315,0.780743243878374,0.777460855309808,0.784105713957182,0.788537844208493,0.788717074255223,0.784946569814711,0.785167747319186,0.78672743006626,0.786705502986075,0.791372157660235,0.790809680385924,0.7927926511157,0.788330013622392,0.787820924021574,0.795955870770217,0.792705896146272,0.797025530942721,0.797482186221357,0.80066351955081,0.798910306487321,0.801243157148744,0.792974741216366,0.797443098817549,0.802161234462578,0.802829533732565,0.804605627227552,0.803641789050723,0.803655135969097,0.804773417058533,0.807367485979552,0.820652436517738,0.822615386869954,0.823195024467888,0.828182958534324,0.829941891705688,0.829596778530602,0.830601610813863,0.851467610988192,0.888174496569231,0.889439593760775,0.849959409211988,0.849157640758266,0.851960493616699,0.874822811439177,0.87597159977061,0.884526974448018,0.885920774066735,0.889268943875857,0.892002202088485,0.889954403469467,0.889543509053826,0.879809792154301,0.878583782366565,0.882156943085411,0.883020679374438,0.861431085554003,0.852176904364612,0.855853980376509,1.11013946922827,1.14148566037972,0.897502085809676,0.901245896413441,0.901811233741689,0.890247082322371,0.00399403672272791,1.38253100620498,0.87524228601663,0.868445844510586,0.848594210132642,0.848745792991312,0.847812462056481,0.851171118730038,0.85060578140179,0.918315651661824,0.850800265069518,0.846322373955211,0.854157015040451,0.870052241471967,0.850636288643786,0.849759205436385,0.852671693695744,0.855343937424379,0.85922598396844,0.861747598189718,0.859894283238427,0.861690397110974,0.865218750318138,0.865380820041245,0.866115853903099,0.867366650824958,0.892759163030525,1.00908423011469,1.01565282065707,0.88041898364292,0.882748020899094,0.886136231463336,0.890027811520521,0.89196406803599,0.894266411455417,0.89808553681286,0.90153666856372,0.907798279983512,0.909297901597905,0.91136000048661,0.911594524909458,0.915410790212964,0.913309603920452,0.915366936052594
0.839430597317928,0.836022366376126,0.837409492535656,0.839138871816336,0.839876765732128,0.841999879104825,0.888830402272156,0.851825117730339,0.851308401319023,0.856053230800799,0.856385950408824,0.932350889682862,0.872377465322891,1.0045462778677,0.868351462730659,1.02377537383865,1.04416755841072,0.823938638491554,0.820917468182583,0.815581560887124,0.802569268824282,0.803208967554897,0.800896137271034,0.797927401284244,0.794941504973832,0.791149073453135,0.787809483805825,0.794211237868539,0.793178758397219,0.792651555121466,0.865772647430638,0.786044830526587,0.785222088343993,0.786576800558902,0.783373540149264,0.781264727046253,0.77838655943414,0.776572331886658,0.778489521375879,0.779619242681064,0.779425712364648,0.781150324888766,0.780375250271791,0.777241584507957,0.782047428473727,0.78485028133216,0.785047625053825,0.784190562223984,0.783922670505202,0.786899986653803,0.787182178642271,0.790128034197563,0.790602803151135,0.788300459731707,0.7892538110441,0.791212947991066,0.796345791456985,0.793915698961698,0.794087302197928,0.799156271125918,0.801370906224605,0.795315218688289,0.793473343952748,0.793190198612967,0.796556482097024,0.800266925404855,0.802958236159738,0.806027074034329,0.804716215979789,0.806124315868193,0.806294012401798,0.810756649895106,0.815710263314297,0.824061620810853,0.823684093691145,0.830603517516488,0.832168920371436,0.832069771834947,0.832319549878794,0.978662789736253,0.89198408841355,0.892973667075813,0.851764103246346,0.850779291340645,0.851196859215473,0.890677997115573,0.875753282320072,0.882555443933991,0.885242941283625,0.887546238054364,0.894045233950942,0.894700186302556,0.890200368108064,0.878698184524052,0.878951775973148,0.882645058957356,0.884324863969791,0.8923187147242,1.06156621986188,0.858423262163406,1.10872850928593,1.13362051205249,1.13035051705098,0.902347970530566,0.902191620915334,1.36116640329427,0.91809924091391,0.913999830270624,0.874193599572999,0.871908416477194,0.847636092063688,0.847963091563838,0.847506436285203,0.851850858215774,0.852443842732082,0.850580994267668,0.86409570247214,0.846671300535547,0.85204438853219,1.15305934531216,0.950095617660419,0.849316850427435,0.850287362063451,0.855375398017688,0.859470995255725,0.862491212213384,0.862409224000518,0.861140313403724,0.861827679699959,0.865021406596473,0.866099646930788,0.86823229381661,0.884418292398405,1.13220955211015,0.881865217583819,0.883205629529042,0.883976890740768,0.885716756885883,0.890359577777234,0.893677240344359,0.89360192559068,0.899055095097563,0.901606263209525,0.906529369386718,0.907085173201843,0.911486796211158,0.91218083596658,0.911654586042139,0.914310622798464,0.916354608012233
0.836772653858978,0.83606812723912,0.836700199159236,0.838902440690863,0.841443121938388,0.841952211539205,0.843863680920552,0.847632278658438,0.847462582124832,0.852931005252714,0.84994034218574,0.944768290526771,0.933715135410896,0.861330983666202,1.01903721781606,1.01836033838426,0.828573832572405,0.821708749771869,0.821273068222105,0.813100940772279,0.809008203588179,0.803614141862664,0.802630283308275,0.797056038184718,0.794277019109094,0.78955697676144,0.787768489699393,0.788276625948898,0.792835551924757,0.803305256037449,0.803490206192053,0.786563453640529,0.785807446049802,0.785346024014604,0.784697745122177,0.783399280634699,0.780157886172565,0.777432254770436,0.778737392717101,0.780007256665207,0.779358024421468,0.779814679700104,0.780793771497931,0.780116892066132,0.782220938412582,0.783974151476071,0.784061859796812,0.783263904748339,0.783466015226566,0.785962842313722,0.78790291223444,0.790656190824629,0.790725785470433,0.789804848102662,0.788692287121101,0.791223434855502,0.793039569105609,0.793202592180028,0.791091872374392,0.802906755188869,0.802501580881102,0.79270494279496,0.795103574696938,0.795369559713096,0.797450725628048,0.797405918116366,0.802483467206167,0.80688032345892,0.807316958359995,0.807921383092052,0.806067114789449,0.809186480283597,0.814088612731917,0.816623573871568,0.82317595744164,0.82625623553198,0.832595068408076,0.829805562468016,0.831530174992133,0.835424615103256,0.898879678456083,0.892973667075813,0.84666844048161,0.852336114033782,0.856843559038772,0.869211385614437,0.876646572499784,1.20552226803311,0.882967291700944,0.887929485281946,0.892822084217143,1.09745036326033,0.887680660589412,0.878477007019577,0.87698787226962,1.05291932345848,0.997920486246576,1.11224637562865,1.06329178573731,0.859283185047184,1.16572938425386,0.885255334850686,1.05700920058865,0.974658714224205,0.968051989629327,1.24419973077686,0.975240258524764,0.914849266289965,0.876205170842146,0.881779415965704,0.85066965593972,0.847534083473262,0.849437926044109,0.850041397424853,0.852058688801875,0.862848718955531,0.864405541648667,0.849124273462332,0.847827715677479,0.921872605408359,0.949017377326103,0.850032817263042,0.849113786597896,0.856139032418914,0.858889450955166,0.860896255467752,0.861962102235006,0.861028771300174,0.862587500695935,0.86286015917128,0.866174008333155,0.869283840314178,0.870603278530529,0.875429142873859,0.881237912420265,0.887167757583344,0.888058187709119,0.884296263430419,0.889532068838077,0.893866003904212,0.893392188301953,0.894514282796639,0.902303163018884,0.906894502939365,0.906636144733706,0.908803112266774,0.911536370479402,0.909402770242269,0.913791999684523,0.917718853740266
0.834435989792305,0.83562958563542,0.831863847951471,0.835314979702331,0.840665187267476,0.840166584531095,0.839290454675006,0.846179371258353,0.908086192079855,0.908875566966516,0.920473085681767,0.947841895157924,0.863453143687588,0.862935473924959,0.886817877651697,0.832234701611991,0.830779887509281,0.822245486560745,0.820466533011821,0.812868323052055,0.811437342732155,0.804075563897862,0.802844787353563,0.797726244157329,0.793492410978995,0.789810568210537,0.788375774485386,0.788772368631341,0.791800212399499,0.803841992826326,0.80389156709457,0.784060906445499,0.786836112115873,0.783795874780654,0.783305852206084,0.782892097736506,0.781101703971834,0.778804127308968,0.77782026875458,0.781730915838012,0.779755571918736,0.779536301116885,0.78047058540303,0.780238921034119,0.780672695881257,0.777539983468736,0.784064719850749,0.784865534953158,0.783628084949673,0.784247763302728,0.785654909839819,0.788700867282912,0.795106434750876,0.787203152371144,0.787711288620649,0.790633310393131,0.796089339953952,0.7865920541799,0.882465828910626,0.803582681269355,0.803713290399153,0.793719308591345,0.795214163449176,0.793300787365205,0.797305816228564,0.796051205901456,0.799860797745776,0.808030065141665,0.809784231556467,0.810246606942977,0.807632517644397,0.809997782250442,0.817300453303367,0.817669400261263,0.825160834874041,0.825995017272384,0.834074669644908,0.831203175491983,0.832383424416725,0.971426853275195,0.995870780924932,0.892201452512775,0.843525241204653,0.841320139619089,0.854933996360051,0.888109668679988,1.20597034314993,0.883209442934292,0.885001743401589,0.886377429345371,0.890873434134613,1.09602033629174,1.00919863227218,0.878199581787671,0.875725635132013,0.874107797954883,1.08229207739329,0.89554294886271,0.895842301174801,0.856163819553036,0.894227324051609,0.880418030291607,0.902140139944465,0.980826897215383,0.987948431518953,1.24464780589369,0.971817727313276,0.00394456732312788,0.8798174189648,0.881434302790618,0.852429542462396,0.847303372455663,0.849566628471282,0.850858419499574,0.848738166180813,1.16557684804387,0.865377006635995,0.84671229464198,0.846248965904157,1.00007506021258,0.879256848393114,0.955229414477651,0.850141499312655,0.852863317309535,0.858834156579047,0.861213721454778,0.862168979469795,0.862233807359038,0.864212964683564,0.864732541148818,0.868169372629992,0.868697529257057,0.873103919022934,0.874247940597805,0.88127985987801,0.888271738403095,0.888237417755849,0.886528058852729,0.888119202193112,0.892316808021575,0.892103257327599,0.895517208377276,0.901699691638139,0.903869519225144,0.905663726395066,0.909695449095173,0.912934936854682,0.913496460777681,0.913465953535684,0.919161274275916
0.83315468562845,0.845512025339678,0.832795272183678,0.833067930659022,0.834318727580881,0.837741258792369,0.83649046187051,0.83958694693316,0.909731676445044,0.908832666157458,0.84246797459921,0.94238872565104,0.942726212015627,0.89180485836682,1.00621464266439,0.835970885405256,0.830011486351493,0.822977660368663,0.822244533209433,0.813012279100227,0.810588860064126,0.803139372909093,0.803929701147066,0.803013530535857,0.794584951582997,0.791072805348144,0.788606485502985,0.787628347056471,0.789359633039775,0.803481626030241,0.804703822412728,0.804191872757974,0.783228630749781,0.783460295118692,0.78226002581639,0.779675490408495,0.780120705471382,0.77949816706439,0.777338826341821,0.778175868794102,0.779633542950749,0.779856627157849,0.780788051390056,0.780441031512346,0.77983279337504,0.780263708168241,0.78224381884408,0.786121098631579,0.783135202321166,0.784944663112087,0.78634894959524,0.789260484503286,0.798629067850165,0.794215051273789,0.787353781878502,0.784482287725576,0.784061859796812,0.783757740728158,0.884135147058625,0.807445660787168,0.808017671574604,0.793869938098703,0.794982499080265,0.795094041183815,0.796718551820131,0.795145522154684,0.796442079939537,0.807412293491235,0.809676502858166,0.811159917500249,0.807456147651605,0.80829509680651,0.811206631714556,0.817903924684111,0.821523799617264,0.826613742274127,0.833795337710377,0.836694479051362,0.835355973808763,0.837550588529891,0.996528593330483,0.842733959615367,0.842951323714592,0.849151920650391,0.850263528280641,0.8882259775401,1.0222786122782,0.885685296292575,0.883743319669231,0.886630067443155,0.892414049855439,0.901340278193367,1.01206821972248,0.99443122044322,0.874430030698472,0.872909435355206,0.875042082241028,0.895235016388808,0.896257962347004,0.859312738937868,0.858886590901229,1.14341143003075,0.972180000811985,0.975469062839738,0.852071082368937,0.854551702483781,0.855904507996066,0.857789283540665,0.880026202902214,0.882166476598535,0.849186241297638,0.846237525688408,0.848643784400887,0.84894409006429,0.848756279855749,0.856100898366419,0.998282759745285,0.849019404817969,0.846262312822531,0.846835276961278,0.877330125390769,0.878643843499246,0.850536186755985,0.854014012343592,0.859775114324378,0.861502586902433,0.861351957395075,0.86334255493535,0.865523822738103,0.865419907445053,0.865630598085091,0.867546834223,0.871161942399591,0.876163223384401,0.882353333455764,0.883090274020243,0.889273710632419,0.886012295792725,0.888415694451266,0.895109174015572,0.894692559492056,0.894929943968842,0.909649688232178,0.903962947653759,0.906528416035406,0.908630555679231,0.911550670749088,0.914375450687707,0.916172517911566,0.919061172388114
0.84965338344071,0.849774459057384,0.833210933355881,0.831092586739745,0.831539708505257,0.834473170493488,0.836553383057128,0.892847824702578,0.876169896843588,0.910620199868194,0.846284239902716,0.942546028617585,0.944720622961151,0.945884664913582,0.944937987060377,0.832909674341165,0.830589217246802,0.827125691928881,0.819936469682131,0.810737582868859,0.811408742192783,0.802863854379811,0.803439678572496,0.800612991931253,1.25168353857914,0.794589718339559,0.78911843515774,0.787373802256062,0.787901005531815,0.805450296490331,0.804083190708361,0.803323369712384,0.783915043694703,0.781839597887625,0.781099797269209,0.778799360552406,0.779138753619618,0.780248454547243,0.779226461940358,0.777729700379902,0.779195001347049,0.779524860901137,0.780665069070758,0.779525814252449,0.779807052889605,0.783278205018025,0.782582258559979,0.782947392112625,0.783485082252814,0.786431891159419,0.786883779681492,0.788475876373188,0.788985919325317,0.786393757106923,0.787215545938205,0.784213442655482,0.783741533755848,0.782003574313357,0.899919784737903,0.810528798931445,0.811729068233747,0.904541631900381,0.920770531291234,0.800866583380349,0.791410291712731,0.794248418569723,0.797182833909266,0.799788343046034,0.80990912057839,0.81087772551178,0.810320014994031,0.807989071035232,0.810193219269483,0.816913392670536,0.822820357402118,0.832518800303084,0.834794449885764,0.838254161798436,0.84032007409239,0.839643194660591,1.35682865482288,0.842418400330965,0.840740502021155,0.843774065897187,0.848805854123993,0.849902208133244,0.931657803278753,0.887664453617101,0.883602223674998,0.885752984235754,0.893148130365981,0.900470821796466,0.901645350613333,1.01070492734576,0.874146885358691,0.873769358238984,0.873890433855658,0.8958575547958,0.896838553296251,0.854556469240343,0.855387791584749,0.00440413985677968,0.975707400667836,0.965125201100283,1.27524084950835,0.85529245645351,0.856200046902907,0.858877057388105,0.836102447886366,0.919911561758768,0.849839286946626,0.84677235577466,0.846371948223456,0.847870616486536,0.848868775310611,0.857245873292602,0.841609005066744,0.842398379953405,0.84580375084127,0.845900992675134,0.879493279518587,0.878856440841909,0.852081569233373,0.852420962300585,0.85993527734486,0.859047707273023,0.860521588401981,0.86309945035069,0.864439862295914,0.864623859099205,0.866189261954153,0.868117891659123,0.871841681885327,0.874431937401097,0.876689473308841,0.884873040974416,0.885582334350836,0.887406095411442,0.887577698647673,0.89638380472024,0.89587376176811,0.895403759571101,1.12677544962951,0.905424435215656,0.907104240228091,0.907318744273379,0.911222717897625,0.914394517713954,0.913875894600013,0.917866623193687
0.849757298733761,1.03902899483693,0.827644315042823,0.828427016470297,0.831008691824255,0.832300482852546,0.833419717293295,0.827636688232323,0.827392630296351,0.839427737263991,0.846058295641679,0.853042547356264,0.854546935727219,0.947368079555665,0.975430928787243,0.832690403539315,0.826245748667543,0.82702940344633,0.819875455198138,0.812764407759005,0.80963836880567,0.801849488583426,0.800423275020087,0.797672856483835,0.794255092028909,0.793429489792378,0.793427583089753,0.78761595348941,0.785909454640228,0.784796893658666,0.802724665088202,0.803298582578262,0.893379794734892,0.781142698078266,0.780712736636378,0.778716418988228,0.777334059585259,0.777896536859571,0.77782026875458,0.774479725755957,0.780047297420328,0.77865731120686,0.780768031012496,0.780273241681365,0.778804127308968,0.783753927322909,0.781205619264884,0.781157951699265,0.782693800663529,0.787059196322973,0.788800969170713,0.788561677991303,0.787650274136656,0.786187833223446,0.786076291119896,0.784673911339367,0.781573612871468,0.780573547344768,1.00780673935608,0.813905569279938,0.814296443318019,0.839341935645875,0.920851566152787,0.79780632566757,0.791105219292765,0.794462922615011,0.795912969961159,0.799748302290913,0.805808756583791,0.806354073534479,0.812480309067912,0.809815692149775,0.811230465497366,0.819300584356766,0.82638398460784,0.830511995790499,0.836317905282967,0.841034134225372,0.840347721280449,0.839749970007579,0.847599864713817,0.849511334095163,0.836612490838496,0.84538522961513,0.848412120031975,1.17177363157442,0.936258676712358,0.92223964566363,1.09653514600043,0.888457641909011,0.987414554784013,0.901713038556513,0.901874154928307,0.989340324435045,0.874603540637327,0.873878993639909,0.873852299803162,1.00274444388728,0.892286300779578,0.855219048402456,0.855872094051444,0.796663257444012,0.796194208598315,0.787202199019832,1.27162764803439,0.852788002555856,1.34774321681578,1.34777181735516,0.837209288760054,0.957746261942367,1.42905455024972,0.844803685314571,0.84556064625661,0.849017498115344,0.845581619985483,0.84724235797167,0.838223654556439,0.840295286958268,0.844596808079782,0.850887973390258,0.877901182826892,0.878967029594146,0.978100312461941,0.853341899668355,0.854648944317645,0.858624419290321,0.860765646337954,0.864933698275733,0.865177756211705,0.868659395204561,0.868931100328593,0.876171803546212,0.872694931309918,0.8749553272716,0.877036493186552,0.884417339047093,0.886399356425556,0.888184030082355,0.887061935587669,0.894107201786248,0.894827935378416,0.894944244238528,1.01316457373173,0.904331894611654,0.907195761954081,0.906811561375186,0.909143458685298,0.912889175991687,0.914074191672991,0.918339485444634
0.854453507298605,0.825811973820405,0.825545988804247,0.825869174899148,0.830756053726471,0.831781859738605,0.83250926678996,0.826649969623998,0.827367843162229,0.909227353600788,0.842816901179545,0.85401305899228,0.854619390426961,0.942270510088303,0.837204522003492,0.823143543497019,0.823688860447707,0.828235392856506,0.829019047635292,0.812233391078002,0.809364756979014,0.803763818018709,0.798324948781512,0.79521988355705,0.794029147767872,0.79559836402807,0.793161598073595,0.786851365736871,0.78566730340688,0.78347554873969,0.802423406073486,0.802880061352122,0.786900940005116,0.782723354554213,0.781090263756085,0.777821222105892,0.777846009240014,0.777463715363745,0.777523776496426,0.774140332688745,0.773830493512218,0.780180766604063,0.781606980167401,0.7792989166401,0.780657442260259,0.784138127901803,0.783598531058989,0.781656554435646,0.781647020922522,0.78292546503244,0.788280439354147,0.78724128642364,0.785143913536377,0.785410851903846,0.785904687883666,0.785853206912796,0.780284681897113,0.782022641339605,0.781359108826179,0.931391818262596,0.829971445596372,0.783748207215034,0.88253923696168,0.866779386416524,0.788542610965055,0.794253185326284,0.794971058864516,0.802964909618925,0.806294012401798,0.806878416756295,0.810255187104788,0.810394376396398,0.813249663577012,0.817133616823698,0.832092652266445,0.834038442295037,0.842331645361537,0.845509165285741,0.845684581927221,0.847631325307126,0.848490294839591,0.832510220141273,0.835854576545145,0.899425948758084,0.843306923754115,0.935754353868102,0.924814647558402,0.924904262581767,1.0961633389886,0.903205986711719,0.889815214177858,0.901232549495067,0.901973303464796,0.961921940690645,0.87282744714234,0.87475226344206,0.871434600874935,0.87037638091818,1.09905199346514,0.854003525479156,0.854893002253618,0.00419410702914655,0.777017546949545,0.778091020527299,1.26700389416928,0.852818509797852,1.34642759200468,0.834013655160915,0.83299547595928,1.43154279717506,0.816506311660144,0.845309914861451,0.8452059995684,0.840506930949619,0.845662654847036,0.848816340988429,0.83983386492307,0.837193081787743,0.848199522689312,0.851450450664569,0.942394445758915,0.881655480295092,0.856191466741096,0.856114245284792,0.855976962695808,0.85960065103421,0.85969598616545,0.868635561421752,0.865324572313813,0.866918575708133,0.868760450443675,0.874914333165167,0.877778200507593,0.875853384207873,0.877579903434616,0.879337883254667,0.884383971751159,0.885621421754644,0.886105724221339,0.889119267719811,0.893449389380697,0.892914559294445,1.01963782914287,1.03029629681542,0.905864883521981,0.906529369386718,0.908911794316387,0.911434361888976,0.912004465973787,0.917955284865739
0.856348769707641,0.825953069814639,0.825958789922513,0.824235130749708,0.823912898006119,0.828301174097061,0.831086866631871,0.829908524409754,0.829053368282538,0.830607330921738,0.833413997185421,0.850632475238537,0.853775674515494,0.947212683291745,0.836493321924447,0.823936731788929,0.820485600038069,0.829415641781247,0.829076248714036,0.812350653289426,0.808973882940933,0.802870527838998,0.797864480097626,0.791868853693992,0.790782986549177,0.792314068756879,0.789621804650683,0.784996144082956,0.784198189034484,0.783891209911893,0.80378383839627,0.805515124379574,0.786692156067702,0.781365782285366,0.780839532360926,0.779973889369273,0.780079711364949,0.779784172458107,0.776596165669468,0.775447377338035,0.77407455144819,0.775095590703763,0.779772732242359,0.779292243180913,0.780236060980181,0.781963533558236,0.781952093342487,0.780074944608387,0.782050288527664,0.782291486409699,0.78771986878246,0.787429096632181,0.7858226996708,0.78604197047265,0.786072477714647,0.784069486607311,0.779837560131601,0.780597381127578,0.780276101735302,0.952265445247424,0.89545524054197,0.93203914380371,0.775642814357076,0.868892012924785,0.788043054877361,0.795950150662343,0.796534555016839,0.796820560410557,0.806712533627939,0.806036607547453,0.811453549704465,0.812829235648247,0.815656875640803,0.827568046937831,0.827628108070512,0.834003168296479,0.842767326911301,0.846187951420164,0.846473003462569,0.827980848056097,0.845285127727329,0.827670055528257,0.832071678537572,0.835678206552352,0.838564954326276,0.925742258385359,0.936796366852547,0.889356652196597,0.99071315032489,0.905308126355544,1.01405119045225,0.888974358320328,1.13205701590016,0.898574606036118,0.896372364504492,0.875610279623213,0.870670966473709,0.869673761000947,0.868453471321085,0.854531682106221,0.856160959499099,0.850458965299681,0.776746795176826,0.777365520178568,0.824649838570599,0.821154852659369,0.825711871932604,0.832440625495468,0.828259226639316,0.818412060933616,0.816331848369976,0.829877063816445,0.844134432693271,0.842072333804567,0.843164874408568,0.845816144408331,0.852824229905726,0.978338650290039,0.849462713178232,0.853027293735266,0.852688854019367,0.883195142664606,1.06827781310112,0.857049482922249,0.856877879686018,0.857921799373088,0.861992609477003,0.870415468321988,0.865659198624463,0.865484735334295,0.865313132098065,0.875997340256045,0.878482727127451,0.902453792526242,0.878553275124568,0.879583847893264,0.882605971553548,0.885790164936938,0.885999902225664,0.888641638712303,0.892586606442982,0.893453202785946,0.885419311276417,0.906814421429124,0.904522564874133,0.904949666262085,0.909231167006038,0.909582000288998,0.913114166901412,0.91518198589799
0.823301799814876,0.825537408642436,0.8259654633817,0.825293350706463,0.824245617614144,0.823465776240608,0.824154095888155,0.827106624902633,0.83003055337774,0.832859146721608,0.83622352350304,0.924745052912597,0.849944155590989,0.846544504810999,0.838814732370122,0.820863127157777,0.819089893716727,0.829844649871824,0.829479516319178,0.81342412686718,0.809970135062383,0.80139283330479,0.793523871572304,0.791163373722821,0.790135661008063,1.23147249075643,0.788780948793153,0.783814941806902,0.781825297617939,0.780590707668391,0.805618086321312,0.806181516946936,0.80661338509145,0.781746169459011,0.778203515982161,0.775001208923836,0.781411543148361,0.778477127808818,0.776315880383625,0.774523579916327,0.772736999556904,0.774469238891521,0.781627000544962,0.778813660822092,0.778607736938616,0.781786210214131,0.781528805359785,0.779580155277255,0.777302598991951,0.781384849311614,0.794415255049391,0.791311143176242,0.790506514668583,0.786738870282009,0.786314628947994,0.785114359645693,0.781046409595715,0.780923427276416,0.779927175154966,0.951804976563538,0.919849593923463,0.776108049797523,0.774874413199287,0.869459256955659,0.799881771474648,0.788119322982353,0.797145653208083,0.796175141572067,0.79807707744029,0.806533303581209,0.807722132667762,0.81541281770483,0.822842284482303,0.828196305452698,0.829384181187939,0.834164284668273,0.83545035558869,0.85984375561887,0.817990679653539,0.825729985607539,0.823487703320792,0.827206726790435,0.829591058422728,0.829318399947383,0.915535679234888,0.839533559259666,0.970892976540256,1.2467642458072,1.24359911945006,0.908004203866989,1.01353638074356,0.889864788446102,0.895950029873102,0.898204705726909,0.959824567803382,0.878021305092253,0.875463463521105,0.868978767894213,0.87037638091818,0.861149846916848,0.864856476819429,1.11602164682573,0.77620243157745,0.776740121717639,0.776954625762927,0.821169152929055,0.826899747667844,0.835553317530429,0.82658323503213,0.826406865039337,0.818062181001968,0.830283191475524,0.837669757443939,0.841560384149812,0.843682544171197,0.852644046507684,0.853896750132168,0.853217010646432,0.858837969984297,0.863701968380122,0.87095411181349,0.885487952570909,0.875027781971342,0.855883534267193,0.856589967589676,0.86223476071035,0.862106058283177,0.86352178498208,0.868420104025151,0.868104544740749,0.865273091342944,0.875116443643394,0.87667707974178,0.877552256246556,0.94382733278144,0.880955720431797,0.882426741506818,0.883617477295996,0.88762441286198,0.888733160438293,0.890149840488507,0.891359643303933,0.884917848486099,0.909284554679532,0.904112623809804,0.902544360900919,0.906863042346056,0.908983295664816,0.911054928066644,0.91604667553833
0.822836564374429,0.825220896006722,0.824421034255625,0.822656380976386,0.819276750573956,0.823398088297428,0.823126383173396,0.825739519120663,0.827849285574987,0.825805300361218,0.865202543345827,0.847375827155405,0.848846848230426,0.849215795188322,0.838887187069864,0.820010831084498,0.819430240135251,0.819847808010079,0.818805795025634,0.810996894425829,0.808054852275787,0.801168795746378,0.791788772183751,0.791953701960794,0.791146213399198,1.28778695277944,0.788745674794594,0.785784565618304,0.781197992454385,0.782513617265486,0.780873853008172,0.806206304081058,0.805045122182565,0.782562238182418,0.775416870096039,0.772565396320673,0.779066298919876,0.776876450955311,0.776585678805032,0.772621644048105,0.771979085263552,0.773960149290703,0.779968169261399,0.778442807161572,0.776221498603698,0.781424890066735,0.781748076161635,0.779473379930268,0.777337872990509,0.777574304115982,0.793712635132158,0.79235029610675,0.791456052575726,0.792070010820906,0.786981021515357,0.785605335571575,0.780858599387174,0.779517234090638,0.780187440063249,0.783002686488744,0.773017284842747,0.77374373854279,0.775450237391972,1.00388846546215,0.788684660310601,0.789778154265915,0.796276196811181,0.79663847030989,0.806559044066643,0.809056824505111,0.809599281401862,0.821968061328839,0.823802309253882,0.829550064316295,0.829981932460808,0.834566598922103,0.835857436599082,0.81709834282514,0.81676752991974,0.825858688034712,0.825888241925396,0.823433362295986,0.826678570163369,0.823784195578947,0.925815666436413,0.839966380755492,1.02674982993332,0.86327868039742,0.86712449959161,0.906577036952338,0.882840495976396,0.882060654602859,0.894805054946919,0.896877640700059,0.890172720920005,0.882697493279537,0.877195702855722,0.870403074754927,0.869924492396106,0.860584509588599,0.865374146582058,0.852268426090602,0.861093599189417,0.821070004392566,0.821830778739855,0.838916740960548,0.834294893798071,0.838229374664314,0.841162836652545,0.841144722977609,0.838596414919585,0.836623931054245,0.838379050820359,0.848686685209944,0.852342787492968,0.852334207331157,0.855618502602348,0.855913088157877,0.859561563630402,0.864772581903938,0.864841223198431,0.884311517051417,0.878445546426268,0.855538421092107,0.857027555842064,0.861354817449012,0.85938138023236,0.865461854902798,0.86849923218408,0.8681007313355,0.865751673701765,0.874804697764242,0.87807183271181,0.878301590378097,0.889785660287174,0.889809494069983,0.882111182222416,0.883258063851224,0.88614195157121,0.887942832200319,0.89028616972618,0.891393010599867,0.884789146058926,1.03539672633671,0.902484299768238,0.905606525316323,0.907027018771787,0.910659287272002,0.906927870235298,0.911871950141364
0.822552465683336,0.823125429822083,0.822535305359713,0.818896363400311,0.819045086205045,0.818926870642308,0.819546548995363,0.827855005682861,0.826303903097599,0.82433141923226,0.824164582752591,0.845037256386107,0.8496295496579,0.849817359866441,0.83640656695502,0.820177667564167,0.819251963439834,0.819398779541942,0.818952611127743,0.811353447816664,0.810477317960576,0.800788408572733,0.793643993837666,0.792429424265678,0.791148120101823,1.28361127403116,0.785032371432827,0.785086712457633,0.782698567420091,0.781008275543219,0.779839466834226,0.805950805929337,0.820603815600806,0.783040820541239,0.777966131505376,0.775393989664541,0.776997526571985,0.776888844522372,0.776763002149137,0.771587257874159,0.770151510797696,0.770418449165166,0.779150193835367,0.778563882778246,0.779657376733559,0.781295234288249,0.779796566025169,0.77892424957433,0.777839335780827,0.776910771602557,0.795987331363526,0.792862245761504,0.789837262047284,0.78687901292493,0.786681669203265,0.784780686686355,0.783571837222242,0.779776545647608,0.779559181548383,0.779818493105354,0.774952588006904,0.773871487618651,0.780211273846059,0.786291748516497,0.789038353647499,0.789346286121402,0.788889630842766,0.791487513169035,0.790328237973166,0.810655594655993,0.810501151743385,0.813891269010252,0.826853033453537,0.829243085193704,0.83022980380203,0.834484610709237,0.834685767836152,0.813669138154465,0.813733966043707,0.820279676154593,0.819305351113328,0.820314950153151,0.824182696427527,0.821989035057712,0.834886924963066,0.836676365376427,1.02983868818547,0.859410934123044,0.869269540044493,0.908987109070066,0.872823633737091,0.879703016807313,0.885419311276417,0.896018671167594,1.12224703089565,0.878246296001978,0.877619944189736,0.875878171341996,0.86657060247911,0.861874393914266,0.866306524165577,0.852139723663429,0.852849017039849,1.02031470857467,1.01997150210221,0.839998794700114,0.840067435994606,0.836654438296242,0.842330692010225,0.841366853833397,0.840220925555901,0.836552429705816,0.839012076091788,0.849118553354458,0.853316159182921,0.854795760419754,0.854036892775089,0.855560348172292,0.857825510890536,0.868597427369256,0.856243901063277,0.884939775566284,0.883951150255333,0.87216963473679,0.85710954405493,0.861514027118182,0.860872421684942,0.862739083554606,0.867649796164738,0.86698912370525,0.865940437261619,0.871399326876377,0.876316712945696,0.879085245156883,0.890686577277384,0.891587494267595,0.883331471902278,0.884367764778848,0.888359446723835,0.888235511053224,0.889783753584549,0.889756106396489,0.903162132551349,1.09582013251613,0.89757549386073,0.899200957848359,0.904649360598681,0.90560557196501,0.907261543194636,0.913045525606919
0.822636360598826,0.823121616416834,0.821026150232196,0.817554044752463,0.816428136852528,0.816009615626388,0.817091669365953,0.82630008969235,0.887641573185603,0.822656380976386,0.826237168505732,0.842740633074554,0.851191139107599,0.850137685907405,0.962818090924293,0.819732452501279,0.819071780041792,0.819575149534735,0.818511209470105,0.812828282296935,0.913406845754316,0.797143746505458,0.794152130087171,0.791886967368927,1.0344338415112,0.773963962695953,0.784658657718369,0.785631076057009,0.782914024816691,0.779059625460689,0.779106339674997,0.799289740309653,0.79811711819541,0.782308646733322,0.778603923533366,0.778067186744489,0.778013799070995,0.761819220327388,0.761417859424871,0.771063868003656,0.76950323190527,0.77005712901777,0.778060513285302,0.777764974378461,0.777158642943779,0.781250426776567,0.779452406201395,0.777159596295092,0.778489521375879,0.777230144292209,0.796271430054619,0.786785584496316,0.785146773590314,0.78659586758515,0.786047690580524,0.786192599980008,0.782962645733623,0.779894761210345,0.778897555737583,0.780458191835969,0.776749655230763,0.775327255072674,0.775072710272265,0.788403421673446,0.789351052877964,0.789798174643475,0.789492148872198,0.791253942097499,0.792875592679878,0.809344736601454,0.809485832595688,0.814095286191104,0.823188351008701,0.826393518120964,0.829367974215628,0.833957407433484,0.83483258393826,0.814847480376582,0.813435567082929,0.815441418244202,0.819237663170148,0.819221456197837,0.822986240530474,0.822417089796976,0.835714433902223,0.836843201856095,0.910247439505048,0.857688228301552,0.865484735334295,0.872718765092728,0.873938101421277,0.876267138677452,0.985622254316716,1.01784552867557,0.89631611677706,0.878866927706345,0.878516094423385,0.87803179195669,0.867007237380186,0.85975986070338,0.857870318402219,0.852328487223282,0.85206440890975,1.02130619393956,0.84167097290205,0.841696713387484,0.841397361075393,0.836509528896758,0.841827322517282,0.842172435692368,0.840119870316787,0.839066417116594,0.965439807033372,0.849705817762891,0.850465638758868,0.855940735345937,0.833700002579138,0.853611698089762,1.03416690314373,0.873386111011402,0.857851251375971,0.885960814821856,0.885488905922222,0.87623472473283,0.855891161077692,0.860367145489374,0.861741878081844,0.863132817646624,0.865400840418805,0.866474313996558,0.867478192928507,0.866532468426614,0.875290906933562,0.879790725128053,0.889962030279966,0.883563136271189,0.88320086277248,0.883479241355699,0.885787304883001,0.888389953965831,0.889007725616262,0.890153653893757,1.03442430799807,0.896209341430072,0.898413489664323,0.899435482271208,0.901892268603243,0.904382422231211,0.90466080081443,0.914049404538868
0.850513306324488,0.854323851520119,0.851956680211449,0.817853397064554,0.814612002602421,0.815511012890007,0.816247953454486,0.818333886126,0.885556593865402,0.82008328578424,0.904733255514171,0.902454745877554,0.850622941725413,0.852760355367796,0.961492932600068,0.819943143141318,0.819118494256099,0.816504404957519,0.816940086507283,0.827673868933507,0.905519770346895,0.797203807638138,0.797155186721207,0.789383466822585,0.773291850020716,0.773224162077537,0.785688277135753,0.783807314996403,0.783182869886786,0.779602082357441,0.778036679502493,0.797721477400767,0.798343062456447,0.783274391612775,0.78064600204451,0.78279008914608,0.765777534976441,0.761280576835886,0.761058445980099,0.767631803279044,0.76918862597218,0.768830165878721,0.777510429578052,0.776042268556968,0.777499942713616,0.779162587402428,0.778534328887561,0.775544619171899,0.775363482422545,0.776321600491499,0.774923987467532,0.784135267847866,0.785406085147285,0.785561481411204,0.785979049286032,0.786489092238162,0.78379015467278,0.781340995151244,0.779791799268607,0.779491493605203,0.780312329085173,0.776906004845995,0.775066036813078,0.785223041695305,0.789335799256965,0.789395860389646,0.785382251364475,0.789498822331384,0.788310946596144,0.808750798733833,0.814162020782972,0.815163039660983,0.820122373188048,0.825624163611864,0.827670055528257,0.832149853345188,0.83233766355373,0.811461176514964,0.808970069535684,0.840693787806848,0.85975604729813,0.814166787539534,0.818339606233874,0.819588496453108,0.888850422649717,0.838829985991121,0.854068353368398,0.857644374141182,0.925916721675527,0.858804602688363,0.907700084798336,0.876705680281152,0.925057752143062,0.900803541404491,0.901443240135106,0.878527534639134,0.879513299896147,0.876566490989543,0.865812688185758,0.859615904655209,0.856585200833114,0.853246564537116,0.849183381243701,0.847197550459987,0.840832023747144,0.842090447479502,0.842104747749188,0.834118523805278,0.839955893891056,0.840467843545811,0.840196138421779,0.840235225825587,0.848197615986687,0.850472312218055,0.851284567536213,0.830536782924621,0.834452196764616,0.847813415407793,0.991533032453548,0.874685528850193,0.859150669214761,0.860253696683199,0.887642526536916,1.10671693801678,1.02130619393956,0.86553430960254,0.860283250573883,0.863854504590105,0.86590897666831,0.867379997743331,0.866653544043288,0.867604988653056,0.873529113708261,0.872987610162822,0.875237519260068,0.886107630923964,0.882689866469038,0.884876854379666,0.886874125379128,0.887363194602385,0.889380485979407,0.890597915605332,0.894731646895864,0.896332323749371,0.897145532418842,0.898965480074198,0.903261281087838,0.902213547995519,0.906268151127123,0.910756529105866
0.853298998859298,0.849449366259858,0.850661075777909,0.812982725209543,0.81304945980141,0.814591982224861,0.813618610534908,0.819080360203603,0.818921150534434,0.819446447107562,0.818985978423676,0.848966970495788,0.843219215433375,0.931755045112617,0.958957018109105,0.819992717409562,0.816386189394783,0.817187957848505,0.816909579265286,0.831620743366811,0.835950865027696,0.802820000219441,0.791663883161827,0.788592185233299,0.788123136387602,0.772043913152795,0.783089441458171,0.781080730242961,0.779888087751158,0.779467659822393,0.777478968984743,0.799345988037084,0.799686334455608,0.782935951896876,0.780361903353417,0.783758694079471,0.761769646059144,0.751606921069042,0.754423120845849,0.76914477181181,0.770065709179581,0.769107591110627,0.769630027629818,0.778730719257914,0.780697483015379,0.780228434169682,0.793616346649606,0.775220479725686,0.77378759270316,0.774518813159765,0.775435937122286,0.776260586007506,0.783193356751222,0.78626505467975,0.784622430368498,0.786367063270176,0.783753927322909,0.781710895460452,0.779759385323985,0.78036285670473,0.780672695881257,0.774658955802687,0.776420749027988,0.785305029908171,0.788680846905352,0.790089900145068,0.787130697671402,0.787542545438355,0.787880031802942,0.79064475060888,0.81424496234715,0.815710263314297,0.819721965636843,0.82368600039377,0.8269579020979,0.827598554179828,0.823464822889295,0.809146439528476,0.80833895096688,0.806580017795516,0.807326491873119,0.813736826097645,0.816805663972235,0.820283489559842,0.832418698415283,0.839651774822403,0.850189166878274,0.855853027025197,0.854883468740494,0.854795760419754,0.905257598735987,1.03473891393116,1.06327271871106,0.918547316030735,0.902384197880437,0.968385662588664,0.879485652708088,1.0612134798763,0.863922192533285,0.864622905747893,0.85542783233987,0.854818640851251,0.85009573844966,0.849148107245142,0.852383781599401,0.844343216630685,0.837700264685936,0.836806974506225,0.830324185581957,0.841238151406224,0.842704405724683,0.843111486735074,0.846160304232105,0.852036761721691,0.851003328899057,0.825991203867135,0.831509201263261,0.847773374652672,1.00098074395935,0.854000665425218,0.858970485816719,0.905076461986633,0.8904339391796,0.894797428136419,0.884976002916155,0.871066607268352,0.860730372339395,0.865178709563017,0.865726886567643,0.868774750713361,0.867416225093202,0.867117826132423,0.869995040393223,0.873545320680572,0.877759133481345,0.885607121484958,0.883576483189563,0.885316349334679,0.885953188011357,0.887551958162238,0.88875222746454,0.889932476389282,0.89443515463771,0.894496169121704,0.896955815507676,0.898337221559332,0.900759687244121,0.901931356007051,0.903259374385213,0.90463696703162
0.856130452257103,0.853725146895937,0.849258695997379,0.811803429636113,0.811482150243837,0.812085621624581,0.815521499754443,0.817128850067136,0.820368337826645,0.819254823493771,0.817767595446439,0.836551476354503,0.838209354286753,0.90615946907751,0.837839453977545,0.817838143443556,0.816955340128281,0.816573046252012,0.962398616346841,0.832637015865821,0.831606443097125,0.852713641153489,0.789944037394272,0.787914352450188,0.787443396901867,0.779174027618177,0.780035857204579,0.779971029315336,0.781729009135388,0.776628579614089,0.776443629459485,0.915495638479767,0.799853170935277,0.781851991454686,0.780816651929428,0.782334387218757,0.76164475703722,0.752031162403057,0.753348693916783,0.763687788899677,0.769726316112369,0.768601361563746,0.768254341686036,0.779226461940358,0.783308712260022,0.782532684291734,0.786232640735129,0.774436824946899,0.775033622868457,0.771876123321814,0.775387316205355,0.77691172495387,0.780653628855009,0.782418282134247,0.783507009332999,0.783255324586528,0.787801856995326,0.785482353252276,0.78272621460815,0.780053017528202,0.781508784982225,0.774765731149675,0.776736308312389,0.786922867085301,0.789725719943734,0.788513057074371,0.785384158067099,0.786470025211914,0.788260418976587,0.791545667599091,0.81123237219999,0.816033449409198,0.81886776286094,0.82054566117075,0.827921740274729,0.824928217153817,0.818973584856615,0.807652538021957,0.806047094411889,0.803555987432608,0.803856293096011,0.804825851380714,0.811158010797624,0.812192396971569,0.934729501207281,0.839035909874597,0.849815453163817,0.854775740042193,0.848263397227242,1.23103394915273,1.00336412224034,0.902446165715742,0.910798476563611,0.903942927276198,0.905142243227188,0.989168721198815,1.12875842035929,0.879110032291005,0.870943624949053,0.872609129691802,0.85606181096261,0.853357153289354,0.853286605292237,0.850015656939419,0.850455151894432,0.846982093063387,0.83943155066924,0.838889093772489,0.829178257304462,0.847964998266463,0.843302156997553,0.849572348579157,0.845881925648886,0.848614230510202,0.849403605396863,0.830824695020963,0.832153666750438,0.834052742564723,0.931601555551322,0.84361580957933,0.908967088692505,1.00086634180187,0.892725795734591,0.894539069930761,0.892356848776695,0.862008816449313,0.86168086359785,0.860410999649744,0.864495156672032,0.866811800361145,0.869501204413404,0.867046324783994,0.870506990047978,0.873149679885929,0.878643843499246,0.885012230266026,0.885245801337562,0.883425853682205,0.885836879151245,0.887864657392703,0.888328939481838,0.889980143954902,0.893220585065723,0.895403759571101,0.897512572674113,0.899312499951909,0.901031392368152,0.902328903504318,0.903196453198595,0.904715141839236
0.856088504799357,0.853956811264848,0.849907928241119,0.811113203285941,0.813274450711134,0.811517424242395,0.812943637805734,0.817371954651796,0.817494936971095,0.820374057934519,0.8824715490185,0.835421755049318,0.839483984991422,0.841363040428147,0.839313335106504,0.817732321447881,0.813112380988028,0.815803691742911,1.06031732964265,0.832027824377202,1.02393744356176,1.07230095563942,0.788927764895262,0.787226986153954,0.784853141386097,0.779834700077664,0.77933895739522,0.778778386823534,0.781221826237195,0.779464799768456,0.778703072069855,0.781882498696683,0.793886145071014,0.791272055772434,0.78037906367704,0.762025144210865,0.762763991477969,0.761832567245762,0.752966400040514,0.763649654847181,0.767217095458153,0.766977804278743,0.768557507403376,0.777791668215208,0.778838447956214,0.783356379825641,0.787630253759096,0.790782033197864,0.774089805069189,0.771624438575342,0.775646627762325,0.77750566282149,0.77717484991609,0.779775592296296,0.781363875582741,0.783244837722091,0.788232771788527,0.787607373327598,0.783015080055805,0.781151278240078,0.783234350857655,0.775234779995372,0.776190991361701,0.78687901292493,0.787627393705158,0.789239510774414,0.783390700472887,0.783195263453847,0.788406281727383,0.788219424870154,0.785970469124221,0.812125662379702,0.819384479272256,0.819356832084197,0.825796720199406,0.828986633690671,0.813479421243299,0.805769669179983,0.805433136166708,0.804077470600487,0.800766481492548,0.805976546414772,0.806338819913481,0.813349765464813,0.883823401179472,0.839393416616745,0.841054154602932,0.944237273845769,0.985898726197309,0.848532242297337,1.00412680329025,0.937923228103795,0.903100164716043,0.904557838872691,0.905490216456211,0.938783150987573,0.887957132470005,0.878571388799504,0.872727345254539,0.872336471216458,0.859596837628961,0.851700228708416,0.853754700786621,0.852614492617,0.854810060689439,0.854509755026036,0.853153136108502,0.83837142400986,0.829915197868941,0.942201868793811,0.841302979295466,0.851082457057986,0.850220627471583,0.851786983677844,0.851922359564203,0.831268956732538,0.831477740669952,0.835657232823479,0.839146498626835,0.84936642469568,0.912686112162147,0.881874751096943,0.893874584066024,0.898112230649607,0.895153981527254,0.862519812752755,0.865479015226421,0.8624540315122,0.865306458638878,0.865751673701765,0.868769030605486,0.869379175445418,0.871836915128765,0.872634870177237,0.878556135178505,0.883877742204279,0.884894968054601,0.884939775566284,0.886256353728697,0.886099050762153,0.889056346533193,0.891088891531214,0.892782043462022,0.89377352882691,0.896943421940614,0.898982640397821,0.901542388671595,0.903053450501736,0.904738975622046,0.908029944352424
0.814413705529443,0.815326062735403,0.812045580869461,0.811832030175485,0.813323071628066,0.810186545810296,0.811007381290266,0.816961060236155,0.81815846948452,0.820176714212854,0.827324942353171,0.832917301151664,0.83047290838669,0.840980746551878,0.839461104559924,0.987538490454624,0.809484879244375,0.807948076928799,0.97792870922571,0.976851422242707,1.04029695208241,0.847996458859772,0.830033413431678,0.785460426172091,0.782129416686592,0.777763067675836,0.777389353961378,0.779891901156408,0.775448330689348,0.779624962788938,0.778134874687669,0.781187505589949,0.795128361831061,0.784933222896338,0.780942494302664,0.765998712480916,0.762631475645546,0.760603697404088,0.760419700600796,0.763268314322224,0.766430580625429,0.766673685210089,0.770945652440919,0.777627691789476,0.780923427276416,0.784426993349458,0.790139474413312,0.793762209400402,0.77029260679193,0.769511812067081,0.77140421442218,0.773417692393952,0.776659086856086,0.780286588599738,0.782005481015981,0.782894957790443,0.787136417779276,0.793378962172821,1.13933108641372,0.780960607977599,0.78237538132519,0.78126758710019,0.774443498406086,0.785588175247951,0.788360520864388,0.787326134690442,0.783420254363571,0.783883583101394,0.786894266545929,0.787913399098876,0.785956168854535,0.809616441725485,0.813150515040523,0.815033383882498,0.810481131365825,0.832296669447297,0.804087957464923,0.802692251143581,0.803280468903327,0.796944496081168,0.800468082531769,0.801972470902724,0.806934664483726,0.810482084717138,0.821591487560444,0.885980835199416,0.842190549367303,0.929793048111714,0.955620288515732,0.838043471158397,0.935720033220856,0.938978588006613,0.901449913594293,0.904316640990656,0.906433080904167,0.895444753677534,0.883634637619619,0.884208555109679,0.873791285319169,0.872894181734208,0.858728334583371,0.858795069175239,0.85878744236474,0.862291961789094,0.860760879581392,0.852542037917258,0.853974924939784,0.835303539486582,0.835171977005472,0.838161686721134,0.839958753944993,0.845232693405147,0.853671759222443,0.855369677909814,0.85582633318845,0.830174509425912,0.853741353868248,0.847253798187419,0.839388649860183,1.08269248494449,0.873037184431067,0.882091161844856,0.903768463986031,0.900176236240937,0.903006736287429,0.874667415175257,0.864033734636834,0.862818211713534,0.864738261256692,0.86535126615056,0.867893854100711,0.870589931612156,0.872399392403076,0.873833232776914,0.880288374513122,0.880122491384766,0.883448734113702,0.884209508460991,0.885916007310174,0.886778790247889,0.888546303581064,0.891440678165487,0.89213567127222,0.8928726118367,0.894979518237087,0.898300994209461,0.899186657578673,0.9035968607498,0.906084154323831,0.905979285679468
0.815210707226603,0.815225007496289,0.81225245810425,0.810534519039319,0.81308950055653,0.810301901319095,0.811526004404207,0.812196210376819,0.819730545798655,0.820102352810488,0.82828878053,0.833006916175029,0.8337047693357,0.841230524595724,0.839528792503104,0.968519131772399,0.810485898122387,0.809161693149474,0.808235989025141,1.05060267976937,0.902211641292894,1.12695658637886,0.817943012087919,0.788481596481062,0.781849131400749,0.779881414291972,0.776876450955311,0.775048876489455,0.773927735346082,0.777651525572286,0.776619046100965,0.783474595388378,0.795226557016237,0.795612664297756,0.787327088041755,0.765632625576957,0.763192046217233,0.760834408421687,0.761245302837328,0.76410345007188,0.761796339895891,0.766871982283067,0.769927473239284,0.949127012727028,0.782613719153288,0.783943644234075,0.792802184628823,0.794199797652791,0.770724474936444,0.767529794688618,0.769933193347158,0.773617896169554,0.776360687895307,0.780882433169983,0.781119817646769,0.785046671702513,0.787508224791109,0.793125370723724,0.79392046571826,0.781128397808581,0.780511579509463,0.781482091145478,0.775382549448792,0.782109396309032,0.775175672214003,0.786802744819939,0.78279390255133,0.784852188034785,0.793082469914667,0.793783183129275,0.786490998940787,0.786640675096832,0.809333296385705,0.812856882836307,0.838187427206568,0.832851519911109,0.887870377500578,0.798946533837191,0.797743404480952,0.798614767580479,0.799747348939601,0.800985752294399,0.875785696264693,0.813147654986586,0.879745917616371,0.885542293595716,0.842861708691228,0.838606901784021,0.83368093555289,0.837166387950996,0.991580700019167,0.890344324156235,0.904021102083814,0.902919981318001,0.905780035255178,0.894759294083924,0.885529900028655,0.885413591168543,0.873147773183304,0.873115359238683,0.861888694183952,0.861447292526314,1.11008226814952,0.862026930124249,0.86172853116347,0.857509951606134,0.854954970088923,0.844600621485031,0.839334308835376,0.836950930554396,0.839055930252158,0.838191240611818,0.844722650453017,0.857406989664396,0.822467617416533,0.886442257234614,0.846934425497767,0.847621791794002,0.840366788306697,1.08506632971235,0.872712091633541,0.880997667889542,0.893342614033709,0.903105884823918,0.902855153428759,0.897561193591045,0.893694400667982,0.862979328085329,0.865368426474184,0.866499101130681,0.867109245970612,0.869853944398989,0.875486343952602,0.874703642525128,0.878657190417619,0.879559060759142,0.882952991431258,0.88278234154634,0.885466025490724,0.886345968752062,0.888558697148125,0.88946152084096,0.8919802750083,0.892385449316067,0.894867022782224,0.899731974529362,0.901155328038763,0.90003800030064,0.905109829282566,0.905108875931254
