1.66083644825848,1.24433165342766,1.19292613732558,1.1952490753555,1.2316642349012,1.23312590829154,1.29316465069288,1.29799069342668,1.32907953165309,1.32795604952558,1.32875128446328,1.29405923962483,1.28992875567027,1.29598231011547,1.37266683794323,1.33078010140009,1.3216338534321,1.39305858196624,1.50546559379771,1.50488996694008,1.46128765909021,1.46119087206223,1.45832567202103,1.39072369871234,1.33752986831367,1.40747479142379,1.58537173521967,1.58767733917899,1.58183830873085,1.52935630818892,1.26717473700622,1.26359901989058,1.25905307805858,1.30415893278549,1.35081522051882,1.35764488186721,1.4096689070353,1.24265612906979,1.18832254278194,1.1459001989913,1.12342205133065,1.1632999521821,1.19172755394126,1.23533517100811,1.24512217319737,1.22530324723419,1.09583197938492,1.08687416057321,1.07121157288871,1.09900546003117,1.10136774945708,1.19611632015027,1.22965000050109,1.31774343759479,1.38148120918213,1.39401544691792,1.40153753386218,1.37164256956538,1.34834884386167,1.38249465331508,1.42971115599487,1.46185026111772,1.4803665950198,1.54580254988198,1.61950123423295,1.61188596469055,1.60620836079907,1.56191182241716,1.52325999969108,1.56349489588181,1.70007145118373,1.69974993195359,1.74910268159997,1.75053262323678,1.79991635888448,1.79067025376462,1.76179694896738,1.69363331038138,1.62174037243532,1.59758235216887,1.58419409399718,1.58715647873618,1.57289032505033,1.59703545538223,1.67813000100088,1.62640017654263,1.58281697793028,1.54207927930498,1.54291164009066,1.55737590092848,1.73042860753356,1.72577634489259,1.74041161320609,1.7095023725887,1.72271875700347,1.49205635444062,1.3623916965861,1.36372965935653,1.35957135070938,1.48031101506218,1.49186959585043,1.61658072384018,1.77103219972179,1.77521199598376,1.77534511484224,1.59359940114509,1.47053732752673,1.45445995426598,1.45483976143352,1.47348850502632,1.53275000007088,1.62880634121823,1.80048867167329,1.45467753529657,1.43226266094575,1.42998908143418,1.41453862224912,1.47498067477858,1.60584000069307,1.47647326481683,1.40910300611064,1.38694400402102,1.3592291896557,1.36060390555215,1.37649878594635,1.41149827099548,1.40712767122845,1.7390659446551,1.73717052562011,1.49047531347911,1.39419022409484,1.42258025353394,1.42582806270343,1.48903512904179,1.52283735908526,1.55184171519431,1.60701336762002,1.62009838590703,1.62805469964243,1.50692853562898,1.42029464461642,1.4232138797295,1.41373053855487,1.48424697677917,1.53617869095403,1.55131801000709,1.69546497495131,1.50798713454361,1.4717685598093,1.46308804775154,1.43897003640206,1.47492925323412,1.59640536635006,1.60499988790363,1.67526960011131,1.69347008320445,1.74558999937805,1.57741300454866,1.50913928506957,1.52827226891589,1.57663252648424,1.57593883089897,1.57208260251347,1.58079243217586,1.5541387987399,1.59132243020696,1.62097000028972,1.65441714175621,1.78151228429421,1.78239213602481,1.78610495714403,1.78573028077256,1.79823170862169,1.78481488217597,1.77146417395659,1.6010418019577
1.63886148774177,1.24202923201207,1.18200534897369,1.19027244408207,1.19865514218736,1.22050286770574,1.22631111250441,1.25793200719725,1.26197071560457,1.30486821594701,1.26582870511905,1.28108177795906,1.26141942804068,1.29806486009592,1.30080531970425,1.3005407251993,1.27856146184399,1.40209285602194,1.50053154499528,1.50435088995401,1.48841455849254,1.46439246114758,1.44787350824235,1.38377709513649,1.30802152126341,1.39620617146689,1.59919965437339,1.60006424572232,1.64736000101311,1.52936495458173,1.25377353359039,1.25017377346247,1.24080113208215,1.27755936262833,1.29525024646994,1.33751410187133,1.4221905054401,1.24020589660643,1.13431426857743,1.13479773055607,1.12450121600871,1.16786716165861,1.21994675037505,1.23945618949788,1.27754794988302,1.29299103216499,1.33477674327789,1.13208875304328,1.05323951764621,1.09512765597609,1.09079463739484,1.19804367576679,1.33633262870209,1.34571789305678,1.36029860911454,1.38858078853475,1.39117737004502,1.36865102215561,1.34021995026876,1.36999500091882,1.37563675346121,1.45834715312272,1.47903326162759,1.54040442024082,1.70244000049465,1.61742002709547,1.59560070065733,1.58132802966564,1.56459982846491,1.56575309712839,1.70034147939957,1.69986341800041,1.72893834977514,1.74094887625398,1.79605031437068,1.7940860640909,1.83823000014386,1.69458487284897,1.65183763920252,1.59671507205103,1.6015943444239,1.5891603871945,1.58944075595157,1.59728066027127,1.59816464956379,1.63518234128751,1.64056188719497,1.54090538211972,1.50866999940244,1.55133977454572,1.70968210541588,1.6943416967193,1.67472208459646,1.68335734514895,1.69497656224049,1.48911816112987,1.36889499300844,1.36620943957468,1.32977999880465,1.4737553833641,1.52055190496702,1.61723328310023,1.77152057489755,1.77141331628272,1.76891938630772,1.7056838900465,1.76078999985823,1.45554950243243,1.45514299244477,1.47149959266807,1.60244999950749,1.6315042112632,1.65774185618152,1.45694274904207,1.4305929740496,1.43360309460998,1.45574462318988,1.46516724309386,1.54407999992906,1.45908136485192,1.39784814322583,1.38747253864197,1.3614841878077,1.36152645777688,1.39867330490803,1.41549876107561,1.42084933144719,1.73904825096997,1.73717713537023,1.49876554304013,1.38830292455011,1.41036498455117,1.43983160031483,1.48919756615417,1.54678955497219,1.54819568146592,1.59996832010973,1.61252970083669,1.51725000007087,1.50783309641445,1.44954464893458,1.45659151849528,1.48849790672021,1.49363704302048,1.53170065982733,1.56525211269505,1.69984213784552,1.51740918845066,1.43988763644021,1.46852647840829,1.48307150785866,1.48505631342207,1.48534601836522,1.59266287009878,1.68984942857241,1.66588659567319,1.61274000054658,1.57545270466369,1.51464403191599,1.5210579938915,1.50696855163184,1.57648715825404,1.5990631658713,1.59726356403681,1.59625923540544,1.59967202982208,1.71358989682079,1.71780542361655,1.78176943289918,1.78236188674549,1.78709934911421,1.78544768943791,1.80161153144339,1.78449621010493,1.71645999920312,1.60042693901571
1.63510709090508,1.23926124901574,1.14700999821518,1.18184150872169,1.18423642337164,1.21285238443206,1.23065182863443,1.25533843310214,1.51961999985823,1.44464902426077,1.45813193177996,1.33291086148282,1.31326154584457,1.31723410077059,1.31871443099419,1.30034594840064,1.27441907127678,1.41028922960264,1.58042499989367,1.50803323125292,1.48012365544784,1.46732916578598,1.45656347233576,1.37468339853543,1.32058996103109,1.38348310179632,1.59772165783212,1.5995086852272,1.62067999975978,1.5293676747073,1.28216364677328,1.2473589244056,1.23944227953883,1.24205264869165,1.25020739557369,1.32457480176365,1.41931058864283,1.23533970275957,1.13526577408098,1.1351382248839,1.12694795208772,1.17535855901118,1.21353324922583,1.24925821392112,1.27814128203991,1.30423777293925,1.32611337007084,1.15988451169391,1.10152856459378,1.11293622064959,1.1287523887256,1.19933089536031,1.19993901421958,1.35135830446097,1.48466999985822,1.38669181568848,1.3473401703603,1.35145552728833,1.31264999810737,1.36613968485516,1.41369760073623,1.45386742214826,1.50751014321566,1.5336170420099,1.6651113671526,1.63625712135858,1.60331035175251,1.59123943723998,1.56565879854871,1.56772095614643,1.6652939857683,1.67995609330514,1.70671998007553,1.73155902546113,1.86876231318084,1.79536573056952,1.7952717341478,1.69575477732388,1.63600252077846,1.59163046805084,1.55479006240555,1.56220710910039,1.55929004084402,1.63684188092048,1.68149453255918,1.64227785152288,1.47451012339063,1.47290996074601,1.47091295112213,1.54208080397288,1.67620995207616,1.6760392321879,1.67530323660891,1.67461904820171,1.67218492357028,1.48424600134939,1.41665188959573,1.40322351976486,1.38831828737396,1.46584527913744,1.49818253389401,1.61720182414447,1.7572448010937,1.77068698609723,1.76792620374026,1.70532550105877,1.47399115204792,1.45838477262227,1.46009650484652,1.47014398399964,1.66248029122476,1.63755750921229,1.64199649702911,1.45990361527669,1.43942571057108,1.43666072390746,1.47012459438874,1.45754382636995,1.45296402488987,1.44722600078295,1.39883299871953,1.38684299890114,1.32014999871254,1.36228572574158,1.36274419589734,1.45310731655878,1.7472712054221,1.73973288314918,1.72528532699281,1.5059194161517,1.39042558173307,1.40017559806804,1.39191348965943,1.48952167553376,1.53339416463737,1.54058055531286,1.64352446306366,1.65586450958214,1.73230163794249,1.50772655225272,1.44653028482111,1.45740003919046,1.48856638211426,1.49268314661787,1.55328173061178,1.58209559842078,1.70663288625483,1.52365719044827,1.45938011272722,1.47383232524869,1.48346727018876,1.4963758440357,1.51206152926567,1.58548634402348,1.63990764409849,1.65785760887533,1.5783499998472,1.57242202698535,1.53614245348986,1.53581552044909,1.53645644095291,1.57636435539242,1.5736100792075,1.59656023758381,1.59617904929783,1.60340324682793,1.61111471452467,1.72094992945826,1.76729095683977,1.77150773308231,1.77663781656661,1.78526717741783,1.78559150242778,1.78562581657707,1.81124173377448,1.59933210551355
1.65287152278402,1.2367343670894,1.18644125962111,1.17951602598811,1.17719496927916,1.20471284456409,1.25715148618036,1.25498383192977,1.42850083138752,1.42844501453567,1.42871694536217,1.34410720923457,1.32948315125585,1.31951535323688,1.321446684854,1.30015066902007,1.259809267648,1.41672394010839,1.57868499989367,1.5098613149715,1.47044603283621,1.47021777978563,1.46263921187969,1.36731023302215,1.32659931548447,1.37074124173867,1.42690000046839,1.47032839117525,1.57993041391013,1.52936287526722,1.284056980706,1.24525064162941,1.22604784485479,1.23511536675563,1.28764128983153,1.30983093522526,1.39336103982287,1.22651912668711,1.17424693243839,1.14466823644252,1.12692871503834,1.18347561400339,1.23418999999882,1.25676526539855,1.32041999945615,1.33949452654831,1.3755000004434,1.18788122187553,1.12936999919684,1.15990352974745,1.18234000019065,1.22321731878658,1.28784988303344,1.35452935869214,1.40671088990607,1.38435570878586,1.37469707607308,1.35433223374071,1.34687975738692,1.36348210428849,1.4159603790375,1.44854836850539,1.44799100286264,1.53261449338149,1.64859483237709,1.66073089755767,1.67454025317959,1.6216993749859,1.57230905089979,1.57238753109995,1.65998690258283,1.65754995878641,1.65425311888103,1.72327075360136,1.8619876866065,1.78447296612625,1.72383152345108,1.69702730108367,1.69466375701655,1.58792629535859,1.567061668249,1.56752180989231,1.77851999985823,1.67544168116005,1.6787329422696,1.64314824088493,1.47107573559565,1.47237243713801,1.52808650489633,1.52920718804216,1.53038161920913,1.60270378538904,1.7332100004099,1.67529932601325,1.40646999982222,1.4778214515125,1.46967904722116,1.42495567325633,1.42155350874125,1.45838674732678,1.50485235547904,1.61661417039118,1.76868048198224,1.77066350997671,1.77043618241989,1.70480130170393,1.47215375069911,1.46005044400865,1.46114025646385,1.46940991869991,1.56088069709862,1.60223729020938,1.65465592808285,1.46286384849106,1.42046763872119,1.43551819169316,1.43146060983978,1.45246656679116,1.44503617128943,1.44372804211921,1.38186362490692,1.38453410824775,1.35375981602238,1.40145891169083,1.45021999959076,1.48056640163829,1.76002200166363,1.7376125304476,1.72529205010876,1.51314878663421,1.42637329437247,1.43317657789194,1.44029615726858,1.49026790212861,1.53331251465266,1.53074679745465,1.5203032168569,1.66252292665449,1.740088361452,1.50679617365996,1.4369385072816,1.46040566888901,1.49121768898618,1.494532295253,1.55496839728612,1.59745913049169,1.73658000108016,1.53782863437698,1.54213918646285,1.50331016760152,1.49553861492075,1.5015247388744,1.53404170016214,1.57817023682183,1.55822580451196,1.66281945383977,1.75823000011254,1.56886658424263,1.53027195229803,1.53323669333708,1.51031417482416,1.57842641450975,1.62238464417668,1.62675207193302,1.65087220884039,1.63264011508273,1.6226240071528,1.72242397768609,1.76722455339121,1.76608755043817,1.76507839630201,1.78456652337575,1.81269287410935,1.78779089784667,1.7785573592123,1.59649315278519
1.22950563281017,1.23500006513919,1.22616160747316,1.16701859609031,1.1615794194726,1.19700441203836,1.20958959065542,1.24806597344939,1.33228000007089,1.42875402839614,1.46745946782508,1.3534169564009,1.29653875362491,1.29879785039283,1.29926372350288,1.2998634079904,1.47297233908041,1.47544208501602,1.50727241185716,1.50947902149027,1.48462110716986,1.47719027029747,1.40404999946782,1.3620324786611,1.32782777956706,1.35595719680263,1.40900999944708,1.43796197077417,1.5638504281243,1.53735705363248,1.53427587144187,1.24313490728907,1.20458999893726,1.23058727241384,1.28596795728179,1.29849840153673,1.40650895928799,1.21703163929411,1.16171317125303,1.1566703950099,1.12497352048784,1.18972185088367,1.25848827044887,1.2651582488761,1.38096113548478,1.39146391067358,1.61768000061777,1.21711339193662,1.15115999972102,1.18805486184219,1.20887000030567,1.24534030274597,1.30566016103805,1.3556091034119,1.37516634206699,1.38046894647944,1.36249126654261,1.35748160667591,1.3457619700191,1.36120442679883,1.43701471989928,1.44841987858495,1.45078070974163,1.53425507957383,1.58707000007091,1.66818576247664,1.69713000053795,1.64695128811689,1.59306500422694,1.5797701688546,1.55882666629935,1.64852746942399,1.65206737041024,1.71636566415586,1.77084368295271,1.77045766290008,1.71402847615597,1.70031204520456,1.70257042556522,1.58601931488628,1.58175286524604,1.57989374792508,1.66208858977948,1.67061024015328,1.68577807076047,1.64396976431206,1.44670814262256,1.44864402658467,1.4576287492095,1.49518048281651,1.54669623471184,1.58608672907253,1.67273152253878,1.67572555240799,1.65100666075988,1.6513287450471,1.65822898866869,1.43276306513291,1.43040843595616,1.45104024317368,1.49618348473443,1.61607480382997,1.77209549248689,1.77180903792722,1.77397593068586,1.70441823116871,1.77769999985823,1.4609914758237,1.44610931260879,1.46930578651701,1.54711930290118,1.58295951109604,1.63427951468894,1.46517955706309,1.43880213933792,1.43657051032281,1.45165107591439,1.46958887279012,1.48923089202371,1.43566498361609,1.361196609758,1.38387888557232,1.38259322443288,1.42588064260523,1.47876618068056,1.50738976136538,1.73550855811596,1.73528066021622,1.74689784230756,1.5345236753372,1.45557753176594,1.4546242136606,1.45401095980002,1.49169782379245,1.50950723445859,1.52793073973948,1.55438112314939,1.66677417796348,1.76995124808838,1.50543302909014,1.46951611008735,1.47158778141072,1.47158824752456,1.49862525415193,1.62791173134107,1.61165352763731,1.70606999944287,1.53593044733528,1.48535750241712,1.50920762253671,1.51603409854099,1.51633853370036,1.52202853901582,1.58542221147488,1.75923999985823,1.68218443545035,1.70406864269191,1.56572958835025,1.50736741757716,1.53298635113501,1.52990710126872,1.57997044717254,1.64447069968086,1.62989732576593,1.69504131454918,1.63880198645365,1.60667101728798,1.72205406668536,1.73502682682765,1.75733320720069,1.75982442519795,1.7831282062604,1.81389287337036,1.7903683157847,1.79097276186464,1.5948896960709
1.64644999985823,1.24384573453781,1.21217831218582,1.15963562824949,1.14411719538447,1.18569968114572,1.23427209937105,1.24685316503073,1.43322503291381,1.43037432143826,1.47328116122646,1.36488148901324,1.36314906255532,1.28936375054875,1.28135070986489,1.26819954961835,1.25731510067794,1.47670812913297,1.50859903792503,1.534307624572,1.64647999985823,1.48511709086462,1.44883787995136,1.35567868769727,1.35392326045183,1.3495729121116,1.34571081290748,1.39004974434969,1.55397915846916,1.54127860145505,1.54640602970559,1.24044623335682,1.16039636426413,1.19065402595173,1.1900011394073,1.20761460058901,1.19089858557552,1.20629765636436,1.17528198103897,1.1641029810388,1.12313484746167,1.19451650413356,1.27419349114776,1.2763205067719,1.29906028411917,1.39804303285165,1.59193999916957,1.24752586440977,1.18174999933105,1.20926534345739,1.2272206395425,1.26757565949089,1.31577024204159,1.35997987740074,1.38239205877082,1.387685702279,1.40675240525977,1.38280578102396,1.34237560163878,1.35922525576778,1.35755778822955,1.44701720942095,1.46914169962783,1.53681833431576,1.65016970513366,1.67509871418694,1.75776887806896,1.6760081594648,1.61940185177588,1.60610499433612,1.55837333311546,1.64528949788745,1.67899815264309,1.71486498963354,1.76942156578038,1.77044997904155,1.77133804627618,1.68919363867625,1.68249083138799,1.58584075645608,1.56632887850227,1.57703154878031,1.63452950940561,1.65339221208142,1.68084953431001,1.64554600326394,1.64832477470033,1.44744130453068,1.43129736694083,1.43658971965333,1.43560991432041,1.5875426803214,1.69833548211444,1.67887997107362,1.65334769449699,1.65184506484687,1.49303000007091,1.43436585221846,1.39525999864031,1.44533761474018,1.74155999985823,1.61588100146279,1.76759739620802,1.76946255872936,1.7671042443616,1.58924561887437,1.47091042895035,1.46149072268707,1.46127305642139,1.46967114559837,1.49305836644365,1.56773935310954,1.63634781560971,1.46645251323922,1.43140030493893,1.4341837206557,1.48265043488385,1.49336515363974,1.50521080051931,1.42880286661667,1.39643238783366,1.39902548947965,1.40170426819999,1.44925214749008,1.47274381974726,1.53536939530279,1.73480195456412,1.73413841807924,1.74637641574301,1.60317094905354,1.59242023144909,1.48796082275191,1.45089541722543,1.49365698827901,1.52933408572943,1.52536393798333,1.71593158463602,1.71545800366761,1.76835791583164,1.50406907376482,1.49984870941169,1.49511791207363,1.50607351759453,1.50348726312523,1.67907000006451,1.60267991070761,1.4715700000702,1.53209156877258,1.52727663114984,1.51114642674657,1.49638038234575,1.51634191901799,1.5211116609734,1.59282300007543,1.65544961525542,1.66865973340401,1.6964324064347,1.56387255365792,1.54541101587171,1.53413006223144,1.53291309442173,1.58108132629872,1.61599999969071,1.6223228751115,1.67481963263799,1.64578391878687,1.64009648298069,1.72015275810554,1.75850295028417,1.75629598369953,1.75787738180625,1.78093000968197,1.79327689105773,1.79271238026661,1.79321012912229,1.59563668288404
1.45787999958424,1.2518760068238,1.23666700412391,1.15640823752698,1.15377158583992,1.17433277316524,1.24632939761971,1.24621535012499,1.30794999911429,1.3948599131748,1.46468937153796,1.36857398745553,1.35478917415931,1.28598139263929,1.21536720858563,1.24879788847745,1.2476973551234,1.47559614027809,1.58605000117562,1.55199770609471,1.58527000026453,1.49090505305409,1.43705212009406,1.34681143759507,1.323202965698,1.32539462454643,1.29932927100703,1.34589349934757,1.29712999944809,1.35669617521745,1.27427000034891,1.23734210168217,1.1683836969892,1.19120216136848,1.21590741872685,1.21489462271731,1.34556999992911,1.24809980809266,1.18550671410675,1.16605688749026,1.16219287310223,1.19755779095513,1.21701450814157,1.2825414950299,1.307941521666,1.40661495056292,1.50264538633361,1.27924824115169,1.20287000008713,1.24492662752619,1.27065259408663,1.29013608790361,1.3100093289904,1.36672446818544,1.41621147988672,1.43727276396106,1.75167999985823,1.42907646602369,1.39907055177316,1.39092772572752,1.38255657263436,1.44473215698529,1.47456041590875,1.53920299114365,1.64023692806664,1.68666340931063,1.77147661470798,1.75058194495295,1.73772149925934,1.64061105696108,1.60837499913118,1.64247371258537,1.69928321789121,1.71002666928631,1.76609626283908,1.76221390187537,1.75941902316165,1.67533718859,1.64353000049628,1.58674707541817,1.55593960008714,1.5747614775058,1.59915876114491,1.65321796888237,1.64464425853534,1.64417183854699,1.63188087084888,1.44515719085157,1.40371999819474,1.43729003573602,1.43808634511363,1.58967626569517,1.68890068001334,1.68175288094433,1.65416063363512,1.65201224873701,1.6622485530066,1.43468525858346,1.4349370852753,1.4421103233521,1.43895345913973,1.51815516017379,1.45188000013401,1.77054951417625,1.76906714969685,1.58846865241452,1.454272997679,1.45126729522284,1.41116999833723,1.47006703069048,1.50980051041584,1.55031780432005,1.62886147111154,1.46648317057324,1.40002123476188,1.42289007739405,1.50516140156362,1.50014483159191,1.55058000026285,1.42378572587858,1.41308320119545,1.40475537845347,1.46411000016151,1.475504789853,1.54524125667168,1.56505987159949,1.72282990772227,1.73184049638515,1.73670318858613,1.62094011147314,1.56173929025665,1.5060504001082,1.44568090644366,1.49560281296969,1.49991382419552,1.5186325256045,1.71748555421603,1.71597587481406,1.79271083708979,1.50292004918826,1.47566838777547,1.49126618186718,1.50543368078772,1.50525734124869,1.58362971491193,1.59392322136604,1.72311999985823,1.60566985654479,1.79029223349106,1.51506402885276,1.50429155470812,1.51671780038065,1.61896147637807,1.60185067078544,1.63010999970668,1.65005573845446,1.82111999985823,1.56351127483796,1.51146981173068,1.51837835822872,1.51268315271548,1.58169940475949,1.58812035720147,1.61673605997574,1.6122975958448,1.651826713943,1.65887783757676,1.71738404176787,1.73691683962298,1.75231722040556,1.74971091656919,1.7785362552922,1.79533674340246,1.79352481296643,1.79265899357269,1.59929109445064
1.64357999999328,1.26236222258545,1.24293307613826,1.15562590476347,1.12897999946107,1.16353836443025,1.22652912502667,1.2371244552829,1.33904039451484,1.37068002118222,1.54134999985823,1.37465007736282,1.35736651728341,1.28149531878001,1.21531376147282,1.25012345862521,1.28206000077015,1.47154174487839,1.50724083250057,1.53516474808532,1.58667000018421,1.49367301203123,1.31678288044176,1.32220641508237,1.32022276385278,1.32752571279779,1.32930755902041,1.3555095873108,1.56056830321909,1.38790080936137,1.23153547125249,1.23484915921889,1.16829794193298,1.19176651382258,1.21529824764741,1.21339281713139,1.42304959570644,1.28044354677954,1.18210460373177,1.1738451712172,1.15813063499366,1.20059951080447,1.20508371430855,1.28501336636921,1.30642819504535,1.42140280791824,1.50220253333071,1.33622751878541,1.29757203612152,1.28310809516626,1.26646592975512,1.3104468885587,1.32861038556591,1.37443998405926,1.42512852095788,1.46590682221162,1.64675166646214,1.45662601554414,1.41554225053824,1.40704383153078,1.40339385129465,1.44216907882334,1.4500842537154,1.54051024884077,1.63136336641912,1.70068659844695,1.76075478556675,1.75677643352441,1.67886999962632,1.66312841136746,1.60583499895157,1.63955446777554,1.63086529116637,1.65682769943201,1.62967999894189,1.68421166204896,1.62015999895226,1.66014687308595,1.61704999923022,1.58782848447801,1.55597957380302,1.57478603994781,1.59372634729676,1.66001148606988,1.66187229453345,1.64131699203692,1.6372111279154,1.44252320959264,1.44298847952449,1.44454163309905,1.47417877498099,1.59101469013446,1.68898214238735,1.6843068536064,1.68643186737805,1.53462742883739,1.40699131415697,1.43476438993904,1.44014422665764,1.44403099776882,1.74171701653657,1.76385797450436,1.77147484952428,1.77169773796516,1.77047932083321,1.58770670523902,1.4872004521383,1.44905846752972,1.44742526573597,1.46836206295965,1.51930147335188,1.5316319877895,1.64469011009627,1.46513857386421,1.40108130881927,1.4067326961355,1.4080632537175,1.43143454515547,1.43230897245247,1.42008343222653,1.3955261284631,1.40066063308143,1.3956262776884,1.49565519108184,1.55767114383321,1.58997534914137,1.73127079965881,1.72663760401986,1.69127981816282,1.6482870509247,1.59787000022779,1.52389923617247,1.46287077509133,1.49734205667635,1.5120083243022,1.51456093958834,1.60307000001054,1.64796130211378,1.75998999860168,1.5019519511713,1.43525999839306,1.48678896973871,1.48333746537385,1.50707691268444,1.57671338329516,1.55518260778072,1.49910000065259,1.59614148288595,1.77070974976102,1.5201079197587,1.50302923404749,1.51762270788115,1.56598657018031,1.59881008164237,1.59875032836058,1.60823916792439,1.60691307050588,1.56408193896628,1.49194828800283,1.53961372247415,1.56212634992831,1.58182773206666,1.66420188415095,1.66108944697679,1.65826114182013,1.65715506020767,1.65500182843446,1.71442932115128,1.77479967784042,1.7722743161877,1.77021442556043,1.77619336524727,1.77509359539759,1.77424305632047,1.70801999956013,1.59670915061201
1.59541000029861,1.27481391512592,1.15837107008914,1.14396833223619,1.09960188998392,1.15120999949594,1.15226412505189,1.2209339486495,1.33253960587613,1.34713827158703,1.43631077121277,1.38146117799912,1.27528278021063,1.2754041924459,1.2019786943003,1.25215007377867,1.45676587335268,1.46494227327545,1.48894862990249,1.53144390032186,1.52612233299622,1.49482433247622,1.33137439088988,1.32563550595126,1.27046830570547,1.32713348220375,1.37010087919662,1.36626608081866,1.56153595925731,1.56130874379504,1.57122726776792,1.24690386626097,1.18947035242403,1.19235419490409,1.17595529789704,1.2098889434415,1.44630040417808,1.39143296241241,1.49348999985823,1.19900597106153,1.18774824610529,1.21731687285974,1.23054096944765,1.28820988810675,1.46053885086967,1.46164439608118,1.49889671179128,1.49871602866419,1.49756772682227,1.3369531373352,1.35162519426535,1.35096516217195,1.3739764331567,1.38295103310621,1.3897809122375,1.49629515101764,1.64515833297452,1.49482507966685,1.51151240007124,1.41075402543925,1.37405466925938,1.43927689348845,1.46235628818285,1.54038950692224,1.67144000004772,1.71912200643582,1.81756000096366,1.76769917440464,1.75099891674386,1.69003575762038,1.6270789644449,1.6429100824752,1.64608198925453,1.66748557806852,1.73140660276977,1.72782883885732,1.73648099863515,1.68702330627372,1.67863595764841,1.5884608047465,1.56764832019522,1.57720392032249,1.58068838616808,1.66459100725021,1.69106807451843,1.54729503511075,1.44670729695861,1.4401034300981,1.4226561043881,1.4479179486913,1.48903953597891,1.59140574420948,1.68153116924989,1.68353643669805,1.67230980405402,1.50837821274342,1.40619798191211,1.43461129802089,1.44806807682167,1.44721553330358,1.76247489556429,1.76357712074583,1.83953999990216,1.77489092064098,1.7744646180193,1.58787549874512,1.42049093678437,1.42171094487514,1.42313341441165,1.4645974518421,1.47514425031045,1.51878556591139,1.52544585817487,1.4623470154591,1.39404396202229,1.40720974452199,1.42812977961545,1.43054065973074,1.41273931775425,1.41554106198864,1.38764804727096,1.43673453282196,1.47629999983258,1.51646200987618,1.53631759921935,1.61869917874035,1.7077756672946,1.72442040122248,1.75537000146261,1.72270335347397,1.74677000083972,1.54806605379299,1.54962456653919,1.49922534864319,1.50143879559052,1.51263135378873,1.5663300005252,1.62168759312898,1.7948922982219,1.50113979426679,1.46191999919925,1.48762259111532,1.51356757059214,1.50980773042686,1.57576667092482,1.55236634889609,1.47929948598906,1.58726995060316,1.77922966985034,1.52578140019252,1.49384036119799,1.51876392544102,1.55745848551809,1.59915638987451,1.6105573076608,1.60902334169768,1.60899894229974,1.56474788640735,1.56510407546924,1.54724267037331,1.54814942854775,1.58178621104304,1.6640201798726,1.6665482696719,1.66887937994551,1.68726493964599,1.7098391806574,1.71159500116521,1.77351000519221,1.77265514159971,1.7775585096754,1.77461532317543,1.78832382981521,1.7752682021583,1.77546197615016,1.57436908081981
1.57747999942457,1.28667272424561,1.12951223241876,1.12852852757791,1.09194828449626,1.1504301905466,1.1512519830165,1.1973539516357,1.19064096579729,1.2720043679931,1.42643922896757,1.38770235452523,1.39714160408545,1.27598161312625,1.20085372704766,1.2552600840811,1.25927530576994,1.43410510402225,1.50266019318139,1.53479676486566,1.56487058164446,1.50032764430789,1.35902000065163,1.32701703121816,1.29677169380277,1.32672518808157,1.33057049147977,1.36365648440689,1.56318547832107,1.56244684839154,1.602201240184,1.25208515309662,1.19600958274099,1.19613382292171,1.14696884271319,1.20711527253049,1.39777333341244,1.39071498358625,1.22174737195399,1.20520489569221,1.20265322859175,1.23170413458265,1.25046453812668,1.29281174691754,1.2998288893568,1.46266612848223,1.50137171970419,1.50018532705467,1.30631900568877,1.32594476726701,1.26429999921124,1.35014524741276,1.37656309891842,1.39080288019715,1.60709129688695,1.60725302579316,1.67924742863799,1.48492316062502,1.41598977174027,1.41415779745865,1.3748346681051,1.43588373241429,1.44729477121618,1.53906339163695,1.79003778162665,1.78501180343758,1.77609251829316,1.77544262469965,1.82753000053512,1.72696213175241,1.70997867086193,1.66195462025906,1.65853924952998,1.67907893955052,1.71269228627027,1.72437633757869,1.77231000107624,1.69167456139015,1.57002357282619,1.57736690968698,1.57776162118885,1.57740404306401,1.60269426725294,1.66809148517186,1.70101207687902,1.52846749773619,1.40457974935535,1.43921425299433,1.43746485535078,1.45364166451648,1.47285216616115,1.59121955321326,1.68461114288449,1.68350194608146,1.68470093921236,1.49402113421478,1.43879998812819,1.43442332497707,1.39452999870442,1.44972560394318,1.76829554678378,1.76468089815784,1.77408732431863,1.77522539779465,1.77513978079242,1.58910288605618,1.41948182629817,1.4215434838827,1.38533055096198,1.46295473228667,1.47568425260293,1.51040833731386,1.53906041732972,1.45844492757519,1.39513070409244,1.40919355375717,1.53723499989365,1.43228868119088,1.38795719393448,1.4172784238176,1.42891273083826,1.45144419634925,1.50419000016751,1.54070733268674,1.69991397042287,1.70037121376661,1.71905159533133,1.72311204842104,1.68014601362832,1.7048811070842,1.67874849003498,1.54722715893018,1.47262450463226,1.47917256030924,1.47528649282656,1.51243262846989,1.53839111214876,1.61084391957356,1.79295187456077,1.50069322630419,1.4880896022669,1.48769210243815,1.48673941090743,1.50262318656444,1.56023898855735,1.5505128464393,1.46701051338871,1.57451869913234,1.76497834654316,1.53396875774585,1.49603717374559,1.52009172000151,1.55644692604243,1.59154311706227,1.59226590119058,1.60543037032407,1.8417899998836,1.55215630358797,1.49402294360908,1.54672865618853,1.5844169194878,1.58203109012845,1.73362113989261,1.72089160666933,1.72137322089228,1.69434008204364,1.68720682521849,1.71049292971267,1.76828247900811,1.75927000742325,1.74790818187542,1.77033465614571,1.79007940916214,1.77970296712273,1.54821325590423,1.54292573828427
1.53428651388354,1.29593761596038,1.12666721737606,1.12732153386694,1.09162251648818,1.14918436907525,1.15313667158892,1.19981839408739,1.20742161916418,1.21630622173102,1.2071572473088,1.29332312811926,1.52375999985823,1.27682468089965,1.1972266083541,1.26897097144354,1.41130290389713,1.42326966162634,1.45700366849295,1.53576071899679,1.538337791156,1.53384459235991,1.53720356461853,1.32776447441782,1.2605399996798,1.32644684782178,1.33807669521023,1.36247600653737,1.56315643962547,1.56308231954398,1.58721876126189,1.2568368840334,1.20441673176116,1.19979663639289,1.14604431332668,1.2062001080845,1.40106666697302,1.38938936169684,1.21391888420595,1.21504574902212,1.25310309529845,1.25442851663032,1.25629615995815,1.32847333993783,1.36020000005557,1.46338892025501,1.49264771045858,1.50135157472624,1.58670999985823,1.33143286375016,1.30251197191358,1.34920764153437,1.35277733833573,1.39887004135182,1.58855861646193,1.60704754850327,1.67931401772386,1.48121126860595,1.44383231332558,1.41673089190834,1.41860525297212,1.43217201179796,1.45163467176017,1.53721802471266,1.79393613166778,1.78876726843978,1.77412610721301,1.77509128817832,1.76187750965115,1.75412054287406,1.74806077048386,1.66434088511331,1.66237186148024,1.69149188259462,1.71644174273303,1.72044726288893,1.72214168495042,1.69394078472561,1.70800061352779,1.57663827733769,1.55797171278838,1.57804208326397,1.58063405441388,1.67085527625386,1.67565126960042,1.51698186905066,1.45135915924979,1.44036919934808,1.44036931389163,1.46119552326248,1.49603968834445,1.5900622579817,1.68456384862477,1.68095491657339,1.67263285825773,1.47857065310997,1.42778492197054,1.43146426438722,1.45803072550014,1.45316960901862,1.75912328617367,1.76268831937373,1.77465719460273,1.77693717820945,1.78001964143818,1.5903168715904,1.48893000064747,1.42357613402331,1.3851437198599,1.46091192794697,1.49640638456634,1.50021855863342,1.75837999985823,1.45440541183866,1.4127429801584,1.41142758731526,1.53725499989365,1.43419354684667,1.41554435893368,1.41712406202151,1.39609751526638,1.4680472607678,1.55877406964876,1.56641720627531,1.70587480948706,1.70269909606151,1.70263911970919,1.72454583928475,1.75304000186371,1.72029491932558,1.66677150928063,1.54693064517055,1.47861323750525,1.48205783544644,1.48998026244179,1.51261518043742,1.51575495679576,1.59789473121428,1.79287756349812,1.50092801939715,1.48876053583459,1.48820758462709,1.51311432743148,1.4998325668356,1.46172851973338,1.53818578147707,1.53881044242794,1.56130661924273,1.54724533244198,1.54162980611566,1.49774491404475,1.52175665699311,1.5430372354586,1.58930322141284,1.59658188016023,1.60195113282769,1.79280999990374,1.54356726456121,1.50748525632182,1.54629760471669,1.56850839579416,1.58034270624316,1.68063999895851,1.71997926972455,1.80673999985823,1.70289500142343,1.69843985952276,1.7089067788708,1.74083981115669,1.7507127000921,1.7509152499476,1.76804874755381,1.768357111252,1.77769509616375,1.55823193567548,1.53800071993519
1.52264164193679,1.30474787933602,1.14021968685678,1.13579226114595,1.09217730672587,1.1484539218793,1.18857666698325,1.20148607022006,1.26171254347576,1.22320935471698,1.20855041534458,1.25098994244713,1.2515070723347,1.2769540061474,1.27882289027488,1.28014229278644,1.40990094418901,1.41521577620449,1.46669718246261,1.53481340713499,1.54069649486461,1.53050221813215,1.34475030842648,1.32817965547653,1.25945999987375,1.3266948092554,1.34442895039683,1.36235385388466,1.58737194154517,1.45272338959406,1.33981590590094,1.2611747602249,1.20143535995372,1.20097801265564,1.14533684210233,1.20787541841147,1.38240622992978,1.38755008894579,1.21336120045747,1.21458344557928,1.20214927900293,1.26412386971047,1.3367494746914,1.34664234525404,1.44002212663794,1.46348613854929,1.49201763477663,1.50371598646285,1.5064867624465,1.33855871474093,1.27733802836493,1.34794145664478,1.34717485105061,1.40207008086153,1.58358929856923,1.606397718904,1.66404722798173,1.47457369729086,1.42327919206237,1.40152983203489,1.37399888622618,1.42858748559864,1.42539194890545,1.53567434368767,1.80454299508885,1.79485212948269,1.82349002782067,1.80149053666582,1.80698266119816,1.75476903236222,1.66884283792753,1.66700273312895,1.65859324088352,1.70376845204013,1.71860468453967,1.71829715482267,1.70401581166107,1.67592795852534,1.65858999983317,1.57563924622759,1.55041948975308,1.57656622184293,1.61635000047478,1.67246674282381,1.67419808601001,1.50583237495442,1.42199931443061,1.43084020260677,1.43902702255906,1.46910616749807,1.51651681779635,1.58802083823562,1.67548363077429,1.67725346830529,1.67653634428328,1.46440676729467,1.4309551470193,1.43083299678503,1.44140344266561,1.4418857124108,1.76268690002653,1.76267785166566,1.80026222929376,1.78257602103187,1.77969785447964,1.58927773805965,1.44406999957909,1.42595166748222,1.38017752042396,1.45726042861316,1.49266681442071,1.49357764305905,1.49429802361123,1.45070569330764,1.40223182583779,1.41147865847243,1.47891000102554,1.44661369601356,1.44321354277491,1.43607237465168,1.43038448854338,1.48308659996051,1.57117845283656,1.57005970280899,1.56897038336557,1.71275572267897,1.72377475238425,1.72459915865189,1.67424999912701,1.73687186486376,1.81006916805781,1.54679647732748,1.48936884815779,1.48530477559178,1.47927488385857,1.51094655294001,1.53194118675982,1.58988363028525,1.78785826393349,1.50192587892764,1.44693369460128,1.47283526767122,1.49151366763991,1.4908359655735,1.49225746193358,1.53903679481073,1.55041134601975,1.59377225792661,1.73795999992911,1.54485329666638,1.5058647612032,1.52393954243854,1.53248550829201,1.58520973280023,1.57990544977979,1.58628377532082,1.52634708469677,1.52730924831798,1.50933984675921,1.54534896091882,1.55866736739053,1.57933347379696,1.78994999985823,1.71853144773521,1.71676692065859,1.7070972840977,1.71555406090577,1.70713976652655,1.70698233535502,1.75040458072784,1.79224954153658,1.78522614509424,1.79281181669377,1.78006973688353,1.54745993121956,1.53382262711661
1.54633184434903,1.32431468588241,1.17758000071327,1.15979455454143,1.11936315749247,1.14766696514621,1.18836333378828,1.20367570911188,1.24089563291744,1.2293441103783,1.22198985618739,1.25011929313821,1.26048931451096,1.27534895200408,1.2820771456528,1.28143026619227,1.28815256035467,1.41141510478287,1.44068914825749,1.532405894476,1.54809504211485,1.52810001885343,1.52861015615879,1.32827498856433,1.32724062345519,1.32739736062599,1.35016922273279,1.36288398080286,1.4067997867078,1.42446535257485,1.34789409416995,1.26724530142328,1.20740459444773,1.20666397404929,1.18562943155383,1.21152437918643,1.21432195437729,1.39044481518075,1.41992999985823,1.27214332103461,1.23369999975299,1.27306458921723,1.36261622424913,1.35938658982142,1.43343003590441,1.46268804211332,1.49512345754991,1.50639060709241,1.58537999985823,1.34714652477378,1.3437857631122,1.34673231502562,1.41429628752632,1.41555374753822,1.53715811113932,1.60537842437551,1.66120064047624,1.4657966160717,1.357941665968,1.38893231974014,1.39505912776665,1.44199800076033,1.44548140386161,1.5348907844332,1.69028000007038,1.79167320823575,1.79088453725611,1.79173773498248,1.75904737823803,1.75649319415042,1.66360486902426,1.676099148392,1.72844109181996,1.71100643303271,1.71489241590319,1.7156706922756,1.64636121777316,1.66006393012566,1.63647499921544,1.57512907616164,1.55779962310399,1.57567476249586,1.67288335620301,1.67175928266963,1.67161921283474,1.49187829752707,1.42431400213723,1.42267192528578,1.39401781380679,1.47649216368562,1.50597231332549,1.58659980485765,1.67480376689569,1.67636513842207,1.67665979567538,1.45729498551629,1.37608756059074,1.37853896007616,1.37876900785665,1.43975483860181,1.76006811458739,1.76401309861666,1.7883348354072,1.78473427048047,1.81564195546666,1.58561797748196,1.55755999953345,1.42869712974093,1.37740056021621,1.45199505225399,1.48925317749893,1.48563264351163,1.48057508237796,1.44574229273076,1.42358289279462,1.41101184596981,1.41077663931927,1.44897238219509,1.45091475941995,1.4478803277497,1.44521082364552,1.49623148552152,1.55098904321848,1.57366158554793,1.71739625026242,1.71632155884121,1.73945904798418,1.73961539689723,1.76678553044274,1.76926330221582,1.83158083175618,1.54739398669923,1.52245099876142,1.50665468294562,1.5061975491462,1.50871014851634,1.56554933886301,1.57712304727097,1.57686318915761,1.50343483769153,1.44146768645746,1.44488997610578,1.45055950255864,1.46365445295886,1.46928531744491,1.5405728975878,1.69962517893034,1.71143129237957,1.80708999985823,1.54676372810958,1.50605031440505,1.52683179193256,1.53022154382964,1.58581676517893,1.60157885023998,1.59837811858183,1.68282833322701,1.52738215484006,1.49977037085491,1.5438097202328,1.56237378006192,1.57908723986972,1.59863135841936,1.66238010003181,1.66393044584032,1.6947367248872,1.69397437489094,1.70323000380419,1.70914828920236,1.74955702954129,1.75788962689218,1.77467504610805,1.77532117739701,1.77451718698592,1.80788999985823,1.52966040674858
1.50625000035381,1.46404450575173,1.51620000033453,1.19492194219779,1.10490684275506,1.14625095438748,1.14418491066959,1.20652572092885,1.30944000065404,1.24195787068108,1.23959225640927,1.24855538705278,1.24693261454385,1.27175583841977,1.26616800314739,1.27282390240618,1.28983940818414,1.4104315816716,1.46601000061984,1.52869570214002,1.52410632017529,1.52575977056623,1.51973024056795,1.32785244946324,1.27348999912671,1.32819362011211,1.37366734457238,1.36314226619198,1.35282304650175,1.44397058859794,1.61374115123989,1.27891442714073,1.27235935965672,1.21003869346161,1.21691077684828,1.21664362051342,1.3985200002363,1.39255351155805,1.30004041580393,1.29115626578815,1.27205650851522,1.28175212154642,1.35253128134079,1.35599274230894,1.41432744469918,1.46096958560551,1.48662257831335,1.50836318729739,1.51933174949008,1.35939215867655,1.29262055083317,1.33562027694307,1.32627958402895,1.41633060349676,1.52836188887927,1.60401767923216,1.67639704222056,1.45671775280562,1.35866833263518,1.38386998629553,1.37835896321503,1.44868233420119,1.46453000080599,1.53489804650414,1.77578998627052,1.7912511086295,1.79245129695801,1.79243841815994,1.7851172960371,1.78095024588954,1.78557297070188,1.68306493754913,1.69806067858362,1.70770727368035,1.72859349629415,1.71360875788613,1.71354395715846,1.6629013239701,1.63549499949148,1.57568053513783,1.56560867983254,1.57567105057893,1.67042420859194,1.67039479061976,1.66894229870576,1.47754520423594,1.47143000079456,1.42137226401365,1.41509821485301,1.48333357144566,1.50724118164052,1.59830842430836,1.67733337634041,1.67681479329062,1.43449098967318,1.45224188735013,1.38274032364032,1.38162975119397,1.38226495025438,1.43873253999228,1.76843450826724,1.76629702129912,1.78252219573223,1.7825975752063,1.79309281297088,1.60894904739911,1.77810999985823,1.43168031907988,1.38466098382017,1.44477405858096,1.43253852948517,1.47707018839631,1.46479549545686,1.43957572433351,1.43256271330489,1.41134875878923,1.41176330244639,1.46191525233848,1.46837016324685,1.46697514212027,1.46602598120793,1.50723499309262,1.53761894500301,1.57713154124532,1.62156000007002,1.71585909364483,1.73745478100567,1.73908058194181,1.77670121116633,1.77339908041238,1.77506741472962,1.54949697564844,1.5527846817158,1.50646879350863,1.47311738520688,1.49377794207837,1.47016920408303,1.5783259165202,1.79616999985823,1.5051470614787,1.43288781533225,1.44061345805802,1.50664157952599,1.45921429882585,1.45674852531677,1.5412565213729,1.70590215530964,1.71695520264934,1.73656000060635,1.54890720351294,1.50466183015884,1.54024347427205,1.58878771747738,1.58599659866035,1.5836840802589,1.59700857431656,1.68214166656034,1.52678849209644,1.52610643858242,1.54223737259322,1.54776732990559,1.57952443836439,1.82333999985823,1.66123717167613,1.66081506163509,1.6950658025785,1.69467722959011,1.7008301203777,1.72167651706679,1.74786244098742,1.74709938975738,1.77534587011729,1.7767576412779,1.77458566165255,1.5179401903202,1.52463432983945
1.48579999982025,1.45401750458161,1.37424000007089,1.22817728365114,1.18715609118275,1.1810521932296,1.17491963326243,1.20982538411894,1.25019170796969,1.24516890063879,1.46396999985823,1.33155404887715,1.52722999985823,1.27688924069929,1.28144208129477,1.26926092660116,1.26440276413477,1.40753548678816,1.54173476672862,1.54900142181156,1.55840642077842,1.53588861981183,1.52160806150173,1.32744666820376,1.32957926001767,1.32822219553738,1.32695830442981,1.35937572900181,1.41788,1.46775572410267,1.59352884854745,1.28518711797255,1.1962732206001,1.1963346957322,1.1662480852582,1.22035762661848,1.25150000020707,1.3929954719518,1.41381999992911,1.30311743113352,1.25652332001201,1.28464533513305,1.303310162268,1.35230658827037,1.44446039188075,1.45865631105298,1.51606701573257,1.50970871078871,1.3752892175555,1.37017431677909,1.29506289770415,1.33832312157869,1.41652929744631,1.41724816127851,1.60157530290133,1.60225191518168,1.66854364295589,1.44864866170226,1.4113928182153,1.4128621659968,1.41482493007598,1.45579568607984,1.51949999927643,1.54322374723453,1.75178923493471,1.78900541016889,1.91864999985823,1.80474996586434,1.78145099877299,1.77807856679798,1.65967882913041,1.67932397975787,1.66023866265409,1.70485138317867,1.73044697974275,1.71117424144401,1.66592311263158,1.66816666216387,1.6952615318455,1.5772753697554,1.55526341906062,1.57659476538901,1.66870040392064,1.68263278590915,1.69931227424141,1.46538052298034,1.41253550356455,1.42050496916639,1.42025217760547,1.48966304807039,1.65400563009657,1.65972157658815,1.67875490670641,1.67743177708384,1.67656998067311,1.46195283389501,1.38481053915571,1.38066459093183,1.37918421714445,1.43454103881682,1.42550736340113,1.59858889954095,1.78164594220034,1.78139212642271,1.73799465979687,1.56997001921022,1.44334047421857,1.4348597233627,1.38900666281415,1.44992333280478,1.46979558173245,1.48341484965307,1.68906999985823,1.4338021244604,1.41016553793626,1.41101173651484,1.40393924323186,1.47115320333331,1.52182479624571,1.5041991127274,1.49407316181278,1.51524712263622,1.55071921603962,1.58158304009905,1.72253809478389,1.71703961001684,1.71444384837706,1.73000942282344,1.72679065189812,1.76330724731493,1.76345393761602,1.5392080897099,1.53839285071755,1.50580476110625,1.50624960566926,1.51220327446813,1.5329100212419,1.58018409547423,1.58211267826632,1.50697059229927,1.42854669959148,1.43720179341126,1.43463507355541,1.45703685309752,1.49348028066052,1.54006467852522,1.74475331030974,1.74735562189116,1.81062000017932,1.55223711661705,1.55668586182325,1.5471513855397,1.56604541718875,1.5858816280053,1.59723012577508,1.5963000364884,1.49574243166719,1.49786441903251,1.49265783347302,1.54119426958042,1.54824059836679,1.5804656504993,1.58724171140401,1.65373769647361,1.79472926404563,1.69499692678023,1.67512648919942,1.69894705249248,1.72098196569496,1.74608857602692,1.74695703039249,1.77369647947729,1.78378060263345,1.78883903453679,1.80678172049356,1.56531492026328
1.40134838684704,1.44473889384197,1.46174832104985,1.26121043723832,1.21733429553029,1.21339347659849,1.20928587859467,1.21292676516765,1.2155395073135,1.23741818814488,1.33947000022661,1.29648018002568,1.24860974593342,1.24942848634755,1.24841039917836,1.26101684374364,1.24890325476537,1.40171950760888,1.42946000007089,1.55285396501239,1.55706607793087,1.54161962604295,1.53104052757961,1.32534813983509,1.31595640153054,1.3269779338419,1.3496132479642,1.35573720927191,1.60957817021771,1.49333898396167,1.4540199996518,1.29239019472985,1.17482019833342,1.19537877060141,1.19511873876854,1.22464848771135,1.30155000001408,1.39127678183792,1.48129017568232,1.30672904574679,1.29481400382697,1.29734564573812,1.33289112144162,1.34829651248273,1.36973028520319,1.45640431736892,1.51354054297394,1.51135249958633,1.38955089190915,1.37898068073089,1.2965565505376,1.34251529919611,1.37762999874222,1.41945489956612,1.60125455246743,1.60089089947231,1.4322275051618,1.44174521868082,1.42027549470484,1.42161004141177,1.4337459092582,1.46725137023747,1.54791233550933,1.55356866366073,1.69895833336163,1.78705539338463,1.81203503549896,1.810795750015,1.80834709874098,1.77405525350274,1.72127000027132,1.68847007311617,1.70018697745295,1.70268580783609,1.74812204059876,1.70795107606002,1.70225570511732,1.66987596385489,1.65799815490605,1.57953827686973,1.55595744695013,1.57804307702511,1.73858131917728,1.72196953851294,1.74568000106754,1.45395223184084,1.45254048411611,1.42188535216617,1.40506349939477,1.49499074314863,1.6545105379328,1.66528651753629,1.67730555767352,1.67736749890427,1.67766656515691,1.46650944894048,1.3760655968605,1.37833639793271,1.37882293790347,1.43857797458899,1.47604559717132,1.59777330106133,1.77946857906007,1.78040145124168,1.74037327489014,1.55486789992538,1.50305000022818,1.43827164337108,1.41760132424909,1.45400563071587,1.47528441864772,1.49578933470354,1.61043,1.42948375855558,1.41237745404993,1.42034845496201,1.45570582606684,1.48402662265487,1.5180996965377,1.50836709189398,1.50352785910482,1.52460533078706,1.56426119342768,1.58682338395132,1.59610418866294,1.71648050110471,1.72384508248065,1.7332926870561,1.77081844165725,1.76575814764709,1.76363634355838,1.53250520078268,1.5118258619696,1.50464484532244,1.4604799985171,1.51907544824678,1.54121001114353,1.59182756706011,1.77006951237933,1.50892641933031,1.46511035747271,1.44655265648045,1.45800687696841,1.45742304731783,1.53196709422549,1.53675873397347,1.71199100199604,1.74715130669639,1.76340665395501,1.55128404283524,1.51353995320679,1.54003407599453,1.58726901386527,1.58571405544644,1.63711133481662,1.59752530724151,1.52002631288729,1.50035918726463,1.50024300231632,1.54054105907658,1.56686069390583,1.58188906162155,1.62298098945773,1.6523953365963,1.79805214520713,1.69344351657561,1.69052038790255,1.69697321407109,1.70102566817723,1.74355639189738,1.73822089355073,1.77155985409948,1.76964874807339,1.79421441850771,1.79748611501254,1.57723186610945
1.39165083674752,1.44292355163463,1.47981168042672,1.40665433129794,1.4048883207309,1.24110480762752,1.23909375895273,1.23607379645404,1.23177796868302,1.23439167153529,1.23184534844333,1.25442627257694,1.25381000658513,1.2498443489931,1.23563557441516,1.28199146165883,1.29718000051566,1.39322196587707,1.57802013641384,1.55793001029544,1.55780572973427,1.54864990129971,1.53811501545472,1.32417767628773,1.27882778626248,1.32444726620551,1.32180390891106,1.35343946227856,1.62703182956963,1.50882991784908,1.54257008837743,1.29781200180787,1.18907598719684,1.19316394113952,1.17851110735341,1.22861374385082,1.40649202709787,1.3890711352351,1.46766167956785,1.31987037834959,1.32247576847773,1.29823609020525,1.29811620393877,1.34422166412357,1.45005999982664,1.454959588579,1.6467112528746,1.61668760738595,1.62112977915954,1.38612630151061,1.32758999960668,1.34878217006129,1.42575187782564,1.42237558690935,1.40810930142929,1.59916692380884,1.64976521343711,1.48417277004736,1.42567731149263,1.42350969147331,1.40281715188732,1.48172408242565,1.53043881510705,1.56873317282283,1.69619166669466,1.78524291836846,1.84429248289525,1.81900591579866,1.81677153860833,1.76735488588418,1.76476880875705,1.67930995089316,1.67729022604176,1.67998591351973,1.68175387508772,1.68300936526582,1.68283945741675,1.67219735881986,1.67611947221286,1.58199354045467,1.53717765034467,1.57979978543831,1.72414935910737,1.71441052096879,1.69756934425849,1.44306176412991,1.37662966433281,1.42387665805452,1.4264825055536,1.50026316733546,1.65464471731229,1.66968788337729,1.68630039235181,1.69697834519857,1.71408645018608,1.47173517167246,1.38948488210147,1.38938524809702,1.38939408367722,1.44092846397636,1.46523608057411,1.59651842940403,1.80825814082682,1.79383673775067,1.74156505729312,1.54906777384411,1.44300556812468,1.44175815330079,1.39247335778487,1.45713036547965,1.53427318952489,1.51024761812034,1.68118999985823,1.42654235543852,1.41987464769875,1.42711060312822,1.46064417469491,1.49984590692413,1.53503166911225,1.52283825711028,1.49221136766844,1.53484682396034,1.60678377024833,1.59344993915678,1.7170108669749,1.71661278352156,1.72236868146131,1.73559341062493,1.77073145087661,1.76769657801724,1.76729391268272,1.5299922984419,1.52087816727788,1.50380019450733,1.5034910289467,1.52476547518867,1.57140129629737,1.60375828863043,1.77225340952827,1.51083429589691,1.42353771852232,1.44208809393661,1.4600170917853,1.45874088117708,1.48533698762951,1.51687549000648,1.50733543417635,1.74692665725656,1.76660976717111,1.55074461166278,1.52717100486464,1.53435291365875,1.57627701749529,1.58374092384944,1.61276087926965,1.59997782738727,1.50458734306306,1.50283315760755,1.53771661532107,1.53950279468922,1.55297593716879,1.58380209818391,1.59672675265285,1.65117402976579,1.7828785904637,1.6759062848234,1.66124820991602,1.69521932976317,1.69343373727107,1.74585602536105,1.76812554026676,1.77037669160284,1.79588010826932,1.79794815370684,1.79890291375959,1.58860072140286
1.39441208228737,1.43231889639401,1.43505037414299,1.40675131602541,1.38439568897147,1.24353154994694,1.21909774288813,1.24026729171597,1.24310694658834,1.25367321666822,1.2948223039223,1.25503329796241,1.24394684209168,1.24765967831656,1.22717170361348,1.29269990347832,1.37848229442608,1.38343003538115,1.4470000000709,1.55827901142527,1.55981711336833,1.55405047780465,1.56841821564441,1.32373137687608,1.30128211422967,1.32401231630073,1.33150391738309,1.35277263602816,1.46839165048463,1.50333389119477,1.50348142016473,1.30042522840109,1.17426250492977,1.19349148279929,1.22758000118538,1.23220434657505,1.26568578347388,1.38213053821494,1.46395907769073,1.31754198164357,1.27423953724154,1.28711100655621,1.2888219362551,1.34065863827889,1.38772999929559,1.45472369628258,1.64196874795157,1.61257470540971,1.61024617485547,1.39222893737828,1.360764541158,1.36173626936018,1.36123459173525,1.42920509384193,1.59707820048158,1.59787253604338,1.63466478642112,1.51505539496064,1.44680062998153,1.4343243847616,1.42762824466272,1.49576036767526,1.5164288494511,1.57710589775933,1.77231150968093,1.78265048222105,1.82059289889136,1.82234549234801,1.8732399993389,1.76147055750136,1.72056999866756,1.67316931344969,1.64858503947436,1.67365260462419,1.69210308935351,1.68472446003179,1.68634757013002,1.67204628805722,1.62732999863967,1.58423802745114,1.58409977792432,1.58248588483986,1.69641999971211,1.52166399194221,1.42271996384884,1.41236228158439,1.3909482185874,1.43197626913583,1.4448408401135,1.50409059445939,1.6557837591451,1.67370327486179,1.81505999985823,1.71080150575811,1.70086616523052,1.47982574284479,1.35385955276276,1.38878591193866,1.40006579004437,1.44384388032719,1.4481026585144,1.59554926230339,1.81462879130627,1.79645511210677,1.74257700553342,1.543575406241,1.44549670933644,1.44380730511371,1.40005531739323,1.45941203249782,1.5165597385978,1.48822451989143,1.4430187315149,1.42216216019675,1.41258955663531,1.43621082284426,1.50435478688691,1.5153590571941,1.54802277470335,1.52868915794851,1.49117878078261,1.54295156809486,1.58136057378827,1.58210031294819,1.69032971867424,1.69146003422669,1.69192567001899,1.73618992119912,1.76460104325927,1.74979453049962,1.72883840504965,1.52848382225261,1.47368230956899,1.49711013288697,1.52056172361669,1.53092546413979,1.55214870480325,1.61855011541239,1.75987707399887,1.51225164895831,1.44395263480356,1.44108504414604,1.42689038602631,1.4518665815033,1.49336092445142,1.52190034202989,1.65622999973557,1.74667933437284,1.7750335781188,1.55052075808546,1.50750400410468,1.53000980434507,1.54440405336193,1.58105647381364,1.62352918393095,1.60200539040663,1.52493273942846,1.5037718500653,1.46531963437237,1.52749503938642,1.55367163786986,1.58632704338342,1.60316233270988,1.63874736601814,1.63214429883833,1.65509991863875,1.66969334965939,1.69578484799503,1.7169930914802,1.7473886251859,1.76858115232147,1.77005826924032,1.78590653080401,1.80487628727977,1.80628511777392,1.59072716649445
1.42492058838626,1.43215905690765,1.47843000069002,1.40486294115116,1.25890375158557,1.24874770051603,1.23271968129651,1.25206084412164,1.29268441794566,1.25572819244227,1.25661953589003,1.25566999486396,1.24116044564534,1.26207008580326,1.28856200424503,1.30410524091773,1.31224012679283,1.37399938187116,1.52232999963553,1.55743280865939,1.58189057892432,1.47035400633938,1.37051057806597,1.3239197983615,1.2853682328986,1.3235354699556,1.33245622670666,1.35372746674605,1.47095831714237,1.50276040760979,1.51474028774841,1.30499124604694,1.20246608554536,1.19396681063742,1.16695895038872,1.23568685257148,1.26706717700549,1.3820373230277,1.44842906704464,1.31584273139458,1.2715356449475,1.28552430069718,1.28627427913165,1.33827590300728,1.41679000015361,1.45549511710333,1.5089300001486,1.60992453363875,1.61274480569096,1.39981875375331,1.33945205685732,1.3618166478001,1.36074137230042,1.43393423934805,1.48033000007091,1.57336136709614,1.71696000029873,1.67637166558967,1.67803099670536,1.48661942873708,1.46553938570584,1.5029014624158,1.58345956101143,1.58450585014733,1.77538424444593,1.77878266626746,1.84124653144544,1.82920660612332,1.90434000044845,1.75593492205638,1.75431207662558,1.67018632862568,1.63816403254015,1.6689517105361,1.69250891160585,1.68102768759566,1.67688886914805,1.67363726969554,1.6743059727579,1.58613851046268,1.58819606272884,1.58472326809257,1.59872955352565,1.49651720986057,1.4074494456753,1.40603957185613,1.38894846666042,1.43520073444986,1.48301000129929,1.51045219963667,1.67960473070737,1.6815338858666,1.71043343509553,1.71266666614763,1.7168577339322,1.49991313434736,1.37780028457948,1.38831763737499,1.3888058320041,1.44632105758778,1.44795838564218,1.5953290057586,1.81406594346567,1.79862993983856,1.7715086463,1.54078557310889,1.46529058755775,1.46570478853358,1.46679939078395,1.47045437869223,1.53005994045465,1.4728167785838,1.46242096547977,1.41474782886414,1.37904227397474,1.44601068472143,1.50525478627713,1.5325854113809,1.57514143332295,1.56345738546242,1.56320362278213,1.54953425809595,1.56597662337637,1.5766079714276,1.6293477513996,1.67854520516165,1.69237812121974,1.73572923031949,1.75063925537792,1.74620494872133,1.65821999995558,1.52501868640166,1.47296560352458,1.4835446460332,1.4926038882478,1.53753049148597,1.65882239617468,1.63128880810712,1.77252041764714,1.51280118796852,1.40888782177077,1.43785393705879,1.44630911551995,1.44963391907322,1.51274210538654,1.52522038875035,1.59784000034289,1.74567702486471,1.81341500008556,1.55040538743449,1.50596183097205,1.52497555396394,1.54877747756197,1.57774317174821,1.60056618810287,1.60235112439165,1.5044495772981,1.50513762784131,1.48320185826467,1.52263061452033,1.54368214910661,1.58949344545039,1.77435999985823,1.6440958996226,1.65116385680263,1.6503987583985,1.59814999943922,1.69661046422676,1.69723703287419,1.7476756262241,1.76772752443465,1.76979686131902,1.77139906993473,1.80758725373663,1.84138375484497,1.59425379830131
1.3991016759374,1.38263978819452,1.30195999991961,1.40142218487679,1.41297191177108,1.26755671274819,1.2749217705227,1.25577175241783,1.25716144370671,1.2576709727298,1.37658674497734,1.38716268910716,1.50624874739711,1.31325872328191,1.2658593083637,1.31849057064391,1.34781609764542,1.3659272857206,1.41039000007089,1.55447596549696,1.58849541638605,1.441905415446,1.34765983970316,1.3245296609518,1.28800136890263,1.32343302391402,1.3231153490781,1.35605122132081,1.359238197473,1.50114302580425,1.49656830371302,1.31345265078698,1.19922273100526,1.19598159029879,1.19564463728649,1.23922114468742,1.2747970408893,1.38187953411076,1.4061699994404,1.31531410649125,1.28436190304372,1.28369919513951,1.3065038395271,1.33729360948256,1.43572000047625,1.4567120418994,1.45796107701837,1.60743931508477,1.64624000105863,1.40823632732264,1.33862537554678,1.37749235767049,1.39857003654879,1.43940446168962,1.5480300002166,1.56124706549596,1.67293876962855,1.67556457256057,1.67797535800418,1.4883895814884,1.47509061287362,1.50224550028183,1.56097953772389,1.58481437348372,1.75625332062364,1.77723995144271,1.77804228839604,1.7787521451045,1.74931612817737,1.75251842590141,1.74757260925448,1.6688663845498,1.65164081540294,1.65897685960172,1.66811688736111,1.68064950545772,1.54147088642593,1.52899004094296,1.51641029930065,1.54446293028259,1.55551832832682,1.584685040919,1.63857000146804,1.48406482909547,1.37786891125201,1.40522820898361,1.40494969553577,1.43898435306971,1.44474557128274,1.51674183925311,1.67979406680798,1.68312798778192,1.685155226123,1.72146735398545,1.72758661156182,1.72550195443167,1.7237459309984,1.45119552059493,1.41893499977069,1.45657257577829,1.52592166670501,1.5950324676487,1.81694617687286,1.80021515729606,1.80676121020086,1.53583378196124,1.47414904802408,1.47460270277638,1.47424746316825,1.47281665962886,1.43530541056272,1.43445211943928,1.37516427499239,1.37787759524398,1.37740723781919,1.45190095590905,1.45416424785732,1.54904370536651,1.77142999992911,1.56369177769049,1.51598766799094,1.54438415718439,1.56153408921642,1.57292301690885,1.65464073792684,1.66192227694814,1.6688890382781,1.73519223351622,1.73905570673819,1.73755577196498,1.72926290704836,1.51047208136344,1.47097296944576,1.48020532408901,1.47679922321132,1.5438933652172,1.58268141567341,1.61882426027561,1.77980492136903,1.51252638746249,1.44522876766286,1.43431236949051,1.39300507119309,1.44643034611401,1.46925999900451,1.52813161132795,1.55890999972756,1.74292224820128,1.81459499999401,1.55047534384508,1.50735194132737,1.51940159805991,1.50755567230073,1.57443117478733,1.62440983316657,1.60282979062483,1.53705888546394,1.5069146013757,1.46576994071134,1.5141317190235,1.56074914287037,1.59306873934218,1.6076965529477,1.63668570002859,1.64085107592583,1.64991867771798,1.66811325586973,1.69716677004008,1.70724142235202,1.74656389084817,1.75167169308707,1.75134985868261,1.75159939275053,1.8090931084364,1.83502640274568,1.59769141137474
1.38027180344985,1.36898544910992,1.35719921351668,1.39761644544278,1.39575793477658,1.2640761240332,1.2566175064618,1.2559669135356,1.31927000140296,1.26076288195065,1.26099908693627,1.39233825583012,1.49004125246112,1.32755485019857,1.32104943890728,1.32634783511184,1.34995767783636,1.35965417488487,1.54408561819059,1.54992780038194,1.58809442111024,1.41736757512352,1.40534999990703,1.32541252741597,1.32639809635306,1.32420719052013,1.43543842311386,1.42428722164923,1.478393581708,1.50333026595963,1.50514087280731,1.33757634321966,1.21155633528444,1.20829006652721,1.2066548158646,1.24246545044816,1.24626002135174,1.38137515317331,1.4601000007795,1.31654547414528,1.24996836925404,1.28004963931148,1.30711240894786,1.33761572403115,1.49536364937798,1.49729881602605,1.51966000023461,1.60207041633241,1.59991888956618,1.41627934432664,1.3953358901565,1.38757687219985,1.44958445556674,1.45067227797163,1.50925845419171,1.54079428803819,1.54654671608157,1.62320252402181,1.67653197250268,1.5013091639507,1.49684720917947,1.50145437619406,1.572956522376,1.5867720322509,1.76662890379969,1.77439086999326,1.77862189607215,1.7780491195999,1.85590042339859,1.75641377972865,1.7584395189444,1.66277007452068,1.63864896964994,1.6472571937015,1.69030071271823,1.68748164204361,1.69196562819234,1.52389517265409,1.50074011340839,1.53345783799209,1.57968927287684,1.58485724777283,1.60239000027652,1.46900391652147,1.40358321237458,1.41425218186597,1.42625049963003,1.45140418124525,1.49480999960379,1.5234191804409,1.67211518419851,1.69098504100294,1.79220000047777,1.73678356021992,1.73396710126878,1.73690314086447,1.73453771350004,1.4735881419404,1.41579499981123,1.46661013496051,1.52664833363444,1.59322736324106,1.82417014150924,1.78990732615316,1.77580268465672,1.53023750252184,1.46605226248735,1.49869477068436,1.52976000086541,1.49694963449005,1.43468738950244,1.43422300675608,1.3840034946048,1.38078708420086,1.41251242317513,1.46198079717839,1.46555252498588,1.56704629932651,1.85574999985823,1.56387116831892,1.51342100396993,1.53418408585973,1.52029443894381,1.56670784272527,1.57259222028255,1.64819855740455,1.78635000000952,1.7348815319855,1.73553150508524,1.62783200434197,1.51618030908947,1.49765795353846,1.48406989070237,1.48300509531044,1.51422000060854,1.54927944966505,1.59571858450224,1.602099543303,1.78284466458116,1.51187826431037,1.46186220407899,1.43088210534001,1.39386548892363,1.4382044106765,1.5085700007494,1.53189046623822,1.73025730684042,1.73764720299563,1.75798570701484,1.55115551680937,1.55188340461993,1.52314813238294,1.52068364462795,1.57168702129289,1.62565028391159,1.60184747334968,1.53371223958877,1.50774615575921,1.45140125894088,1.50577869428311,1.55830253593786,1.59661657905532,1.61386216874436,1.63521550805967,1.6271345882492,1.64978994260811,1.65021773614543,1.69705932864139,1.74499408168192,1.74450966058913,1.74427576883859,1.75111364929925,1.81504650972443,1.81122641528284,1.81018026177368,1.60072716122465
1.35275996395382,1.36283745749682,1.46437999985823,1.39630768504353,1.39608649731284,1.2626310276146,1.22575999818443,1.25604533259626,1.31943000136364,1.26374268810555,1.26209768518707,1.39588677937466,1.5556519893212,1.33669659140396,1.33937347025928,1.32953594555697,1.34760794911893,1.35549605403785,1.4277599993742,1.52087739140061,1.612444012486,1.39049379035006,1.33428127832378,1.32099254332095,1.30563546163443,1.32268060248912,1.3786381149994,1.41571060123605,1.47797358100832,1.51384398867435,1.52979095100888,1.42818200803985,1.41301852996554,1.20975379756087,1.17404798026972,1.24492231298438,1.25981055683885,1.37969892141662,1.42477166617049,1.31973479954008,1.27643402840246,1.27850589582908,1.29932098324921,1.33378287654541,1.50280921273595,1.49935338653887,1.66343999985823,1.60432136630928,1.60601710906788,1.4195009584268,1.36932597544319,1.38139405539628,1.37909243625223,1.45131004531701,1.51193178755591,1.53663499702092,1.66366655357399,1.59764603447162,1.54813607740376,1.50429015679923,1.50457552744736,1.50180852059638,1.58922416200615,1.59280543127819,1.76863657897626,1.77104700166559,1.77318806912696,1.77422155844932,1.86331957638875,1.74958071144486,1.74056724612288,1.65129000385085,1.61825050156366,1.63957773822551,1.69159422614321,1.54846124319721,1.49190388399427,1.49069664705054,1.48940793567576,1.51346303989436,1.53623856974201,1.53563274765128,1.43339927667304,1.44594463492181,1.41215378823107,1.42933366973596,1.45219230852449,1.45886611864384,1.5265612941471,1.53112024863648,1.69234819694112,1.6990881371003,1.73041049260685,1.73692962707814,1.74725730325917,1.73819992737543,1.74073166167599,1.47825803431761,1.45130999951398,1.47315541345194,1.48260027998859,1.59075095526463,1.82440936628046,1.78592740978281,1.77766294176156,1.5238072980012,1.46497047043894,1.51764643540244,1.54863387127671,1.55248141555211,1.66174999992911,1.45400627667534,1.35966808332914,1.37882520433407,1.37540468714413,1.47232668608512,1.66962999985823,1.57939607562832,1.54665168226786,1.56417090664648,1.56464163202937,1.53896536385971,1.51879726838227,1.55941466445475,1.58108322871379,1.63724953214564,1.63735139692329,1.73412407933494,1.74779909502659,1.62725445685999,1.4663892290622,1.46416276174562,1.46209146078536,1.48373248462237,1.56017437736763,1.55897558367319,1.55941262094987,1.58213285379734,1.5632797088938,1.51136379293148,1.42425742424991,1.42742083837698,1.39402781083073,1.42797114785329,1.40232836923878,1.53637253972674,1.70091431036525,1.71273756720541,1.76052563481715,1.55269345657066,1.52988091098335,1.52772324221466,1.54693392156779,1.56959554453197,1.61566205657773,1.60006508470312,1.50810740671718,1.5079416797016,1.4616116089273,1.50472996244708,1.53748999953908,1.59952299971273,1.61484106654181,1.64681242551477,1.64939362430703,1.64955130520928,1.59616999842822,1.69606671710592,1.71654097359482,1.74198514208147,1.75405025792429,1.75179229518135,1.75089840367835,1.81115629997619,1.81205773603535,1.60395351801687
1.32282500259072,1.32423475058358,1.28517010068595,1.29060396054895,1.31137038083839,1.26146116622609,1.26079877870758,1.2565648088399,1.25397721919689,1.26855732475174,1.27360287631595,1.39931189886689,1.53884801046614,1.33299219755654,1.27181999963278,1.32482159350998,1.31885506370391,1.35296208205746,1.47209000062545,1.51916211851289,1.60933997466274,1.36519959013609,1.31413794585446,1.3164413520685,1.31921616526166,1.32079358720345,1.39041634425213,1.40840656150812,1.54732000029946,1.51509758703154,1.51578835330427,1.43745901024709,1.46008082998183,1.21085878012159,1.17384003879068,1.24687580889127,1.29349000021156,1.37578437178408,1.42477833305698,1.32435069703761,1.26624839882586,1.26751191766735,1.2848761179511,1.32954244125341,1.42352000000001,1.49758423013571,1.49076900639426,1.6025225276002,1.60621219633032,1.42023372029477,1.37055901848434,1.38449084791529,1.41422292209669,1.45223177570121,1.48522975706468,1.53360768385003,1.67406344640771,1.57509113659072,1.54470392360034,1.50433740435206,1.50307599646241,1.50138188385123,1.59159749813471,1.60102028707266,1.76700442909918,1.76948355093064,1.77161836922631,1.77233319611398,1.7716442536125,1.74880792500651,1.73568087799675,1.63706018079548,1.60369949632806,1.62787992401269,1.67935692580322,1.51676491656021,1.48578093070554,1.47093551672836,1.44983909508357,1.49007952260713,1.54936379271451,1.53671078730413,1.53925476608695,1.45085894305104,1.41425180005083,1.44216277484617,1.45107893405165,1.46731830919633,1.50662937657126,1.5408381231628,1.710097485562,1.71391070056759,1.7218641800288,1.7396304970776,1.73089010076613,1.74395637039943,1.73923980051734,1.48445183254593,1.48457881774059,1.48515500823739,1.55851999999969,1.60998732471676,1.8103308202526,1.6125285598887,1.48461944554427,1.51574464313269,1.51100991128231,1.53877277422876,1.57153527625215,1.56579457226313,1.81730999985823,1.46235423335341,1.38637662830344,1.39457116253666,1.43818223854426,1.47893933097382,1.57861999987656,1.59610658052859,1.80939080213219,1.79090171100654,1.80308243473654,1.54091705950328,1.52491710650218,1.54094829337226,1.53837245689522,1.63720595976685,1.63869887586082,1.7272057836229,1.72752544926762,1.62680060078625,1.43616955932559,1.46469536915573,1.48110886274258,1.4828170356944,1.45381781631236,1.55774481261341,1.59256229933819,1.59968920784605,1.77726999985823,1.51122699700019,1.43991770767334,1.42695466642788,1.39266156186101,1.44282066791007,1.52589285909016,1.54133141604276,1.608799999441,1.68588792695066,1.74756108072674,1.55531914564818,1.49870852428753,1.52647776206622,1.54926842056318,1.56781011260304,1.59474845994784,1.59763940193952,1.53253021557872,1.51986427290758,1.46252502022943,1.49708716951665,1.49869894133763,1.60137857210643,1.85963999985823,1.68571529237656,1.65038468263502,1.64989080092967,1.62411390036539,1.69422422277778,1.71438170009126,1.73924323865047,1.75296213658204,1.75781381621239,1.78522005313913,1.82602194491359,1.82792874005449,1.61063904310768
1.42371999985823,1.32539927051512,1.27136854117979,1.28194493699501,1.2546558247253,1.25956927473175,1.26057819265538,1.25547136667404,1.27351280426112,1.31069929682044,1.4237100002345,1.4015630187399,1.2925316271505,1.33003133537722,1.34843437616706,1.33767567790252,1.34554991884635,1.34846688403055,1.30169999962132,1.51683572506506,1.60687601332532,1.34046723949745,1.28372191103999,1.29603558001877,1.30399864666142,1.31943657645291,1.39240011306223,1.40413559918971,1.43023999948946,1.46100532538362,1.49561000008241,1.3183325773495,1.21313678957104,1.21189894010683,1.1728719796377,1.24881185812984,1.36284968881367,1.36910887405705,1.50875999985823,1.32934605647446,1.23629865088649,1.26635870549989,1.28789396052212,1.32510594006056,1.35526999989672,1.50154342431845,1.5620306342059,1.59745501723805,1.59597434290657,1.42193003012367,1.37851299890134,1.38609452805103,1.38566714838283,1.45396873662146,1.52193231172808,1.53151597388791,1.63314111225524,1.55537566325909,1.48468845822763,1.48564697020071,1.48772927288049,1.50204329642009,1.55485166657365,1.61044247162406,1.76590144023552,1.76769316809823,1.78320745171637,1.77146777202649,1.74253890970105,1.74670572907192,1.57734823742929,1.57390886330852,1.57501840200154,1.61650061832059,1.67347227994488,1.48230142246685,1.42968167477325,1.42128823066749,1.41409376233442,1.46327090005372,1.47081629431238,1.50261543142758,1.52650894840894,1.45510190763117,1.44167478108489,1.45029380736867,1.48291060168164,1.48433935149349,1.48262531623274,1.55221401962448,1.68951499630168,1.7164597344935,1.72386120241433,1.73942173049106,1.7506464514249,1.74170622116493,1.74656642955733,1.48456391864242,1.48086656428901,1.48584649528416,1.71200000032427,1.65986373890069,1.83858062109124,1.58791899979168,1.51439555472292,1.51717881242478,1.55534771735875,1.5546279156276,1.55360825051442,1.56054080392414,1.5433896102074,1.47429602175161,1.37771325443869,1.40441838344586,1.41289719424101,1.49174840670598,1.54471797125683,1.61750944582747,1.7786838241676,1.77911153287538,1.78023643688911,1.5444304473614,1.54713923697247,1.54658307348896,1.57182140139695,1.63582451937763,1.6536559521153,1.72520639708095,1.72718492963702,1.62712438826678,1.46873337202516,1.46627094159726,1.4510089721398,1.48266111356579,1.51963901454545,1.55715231411216,1.61846962292231,1.60445342149723,1.62753103063144,1.51142027761304,1.42501354953694,1.42631097172964,1.4142121744273,1.44717984876441,1.53744714108023,1.54561904541556,1.65706000024144,1.66747782972612,1.74170867534758,1.5587998561892,1.52834182428394,1.52670260965271,1.54020356257647,1.56597824142177,1.6096324817064,1.61046325851701,1.68709499989367,1.52466126696146,1.49236471160114,1.49617686468332,1.46168855459491,1.60228310216331,1.74332678144903,1.76308383948201,1.8410099995224,1.66059181008887,1.62889546925906,1.69184373336514,1.71646870696653,1.73643408308147,1.73854070106342,1.76257317752281,1.83133793383123,1.82844863010727,1.84199842330031,1.61619304549057
1.2819774056639,1.32617384889845,1.32524411274731,1.33652996987694,1.42722000021019,1.24269870029417,1.24079699163893,1.2498163660976,1.29644000066028,1.32248525002917,1.55044999985823,1.40729928542103,1.28429837176125,1.32810560743313,1.33223997573575,1.3282356318675,1.32193312060081,1.37629883821223,1.50348275423184,1.51318483694116,1.28871334303013,1.28673984973302,1.28666605444414,1.29035411660314,1.30604781825073,1.3186055187037,1.39494613006858,1.40014990904842,1.51264499989367,1.3921794876075,1.28818872899172,1.27974965724191,1.23372069822814,1.22631788137346,1.24993991685892,1.25094700332498,1.31944999936136,1.36675668369813,1.3638528904521,1.33373926478438,1.25011084982245,1.25730827628735,1.29913900900503,1.32093656282913,1.39954000017417,1.5045129550097,1.53141936466598,1.59809289296045,1.62784631412669,1.42477648219575,1.39353833774343,1.40165179760313,1.42048344867509,1.45608371886358,1.5098832974754,1.52937860450039,1.62106888740863,1.53646200057417,1.47734559306347,1.48430721233627,1.50871364521405,1.5060119575681,1.55661833315525,1.62011761920149,1.76306810394127,1.76746309506996,1.77368876587212,1.77193866295237,1.7446571841963,1.74773659798379,1.66138000050455,1.56966433452447,1.56068936463439,1.5937742885973,1.67517019921238,1.44997692409174,1.39999858155855,1.41594459214188,1.44134321134105,1.45082727079353,1.48007451932905,1.4770575794674,1.47687821023039,1.46232398556835,1.46101074350172,1.45782964954319,1.45559845861363,1.48659069766115,1.51025364715194,1.56304623026244,1.69704272459564,1.71865413938639,1.72282442456405,1.74249990569799,1.73980500300987,1.74564652335239,1.50306648539123,1.48568973743158,1.49029420292477,1.48695285597854,1.62478966371077,1.6428034724502,1.7780699989109,1.56831913226724,1.52080162372252,1.51911436176932,1.55787724532728,1.55896485483941,1.67950644314549,1.67953411251299,1.78873626432735,1.48771391785595,1.45793378838823,1.43421772612383,1.42321960370692,1.51056475933062,1.56348570593633,1.63327439395471,1.77739071378895,1.77878846709822,1.77994913714463,1.54500659284481,1.5475947996081,1.54790872441162,1.6178090012028,1.63465443376224,1.6403709889353,1.72113293207302,1.71847257997481,1.6281474580532,1.49669230094551,1.46591533194521,1.41388499945417,1.48196355760298,1.52946958064539,1.55731443764451,1.58187883493261,1.59501693106948,1.51219517472791,1.51178237408414,1.41615311754009,1.42773570633864,1.44458113018044,1.44933663003992,1.50614999823994,1.5478515969391,1.60677333321924,1.64828901718025,1.74253410362064,1.5627402544356,1.48235957067685,1.52183819232646,1.53833777220981,1.56407815955993,1.61182778522278,1.61115713276099,1.68823499989367,1.52960420796313,1.46488589826395,1.50026650707227,1.53096222104413,1.60254941871304,1.60194230406573,1.77451316490428,1.8649599996467,1.67436171862512,1.64883793192532,1.6894892497753,1.69719773115044,1.73381905848218,1.77685589050596,1.77592892801814,1.82589145825768,1.82692392926628,1.79266995097125,1.61943652648965
1.27469887507164,1.32730253335203,1.32835414145502,1.34717589152627,1.37818615210991,1.23818244660072,1.23303765960212,1.24598453476357,1.33896215762009,1.34447995041072,1.39435802705956,1.43289928177991,1.5179713138592,1.32469461375651,1.31053147873717,1.32720860563343,1.4052576660493,1.39544791211812,1.45775398376109,1.51699716473444,1.60287999992911,1.28521680704735,1.26074795389714,1.28743517966147,1.30628902001071,1.31853828328551,1.34423723393699,1.38451960124934,1.51266499989367,1.3636020263338,1.30224246848929,1.27141167721018,1.21286062968591,1.22048125362314,1.17984610295043,1.25408150152094,1.27687999901181,1.36577970670555,1.36634223529563,1.33700213995594,1.22662772880796,1.25240069286245,1.24652089191597,1.31455481001864,1.50744233805362,1.50636509519747,1.5643270242944,1.59647924349569,1.62939317677684,1.42898264560788,1.41692153779697,1.40791180756036,1.38882510745987,1.45799420933469,1.50813877767011,1.52638433542697,1.53856112557571,1.52292272689524,1.48208603463745,1.48300052858352,1.49048632179078,1.50953001096066,1.5972600003878,1.62841919866069,1.75540264076774,1.76695663118363,1.77202877607488,1.77216226742504,1.76020715341675,1.75114894249458,1.61327999949203,1.56631263188158,1.52313871549911,1.52086635167163,1.44347000029624,1.41765558853291,1.37660777977349,1.38352059909437,1.39200447166859,1.44207421384893,1.46355737347793,1.46814608007468,1.56531999986649,1.46284803427527,1.41754999827108,1.46417782240805,1.47064895304767,1.48777731662317,1.51230698148155,1.57175001093303,1.72133461402884,1.72161150903126,1.74408139181077,1.74374578803938,1.7455258886365,1.75805590973352,1.76525060177533,1.4838179398188,1.48694555308152,1.48532950513324,1.55918000039117,1.59679476147811,1.81164000094733,1.55068758442459,1.52136203123714,1.51886350271305,1.53528749357479,1.56100432550917,1.68253643663936,1.68054408495287,1.79922373546,1.50342138286045,1.43309012682466,1.43974748606101,1.44791780845524,1.53777376804976,1.56841632246296,1.64683640795045,1.86309999985823,1.79636945580797,1.79270137148668,1.54354903671732,1.50329958888597,1.55015417399291,1.55632662515898,1.63328037275797,1.63829313898217,1.71991752150593,1.76649067278556,1.62906211314914,1.47145546568405,1.4656303525877,1.4135049994216,1.48126972213512,1.55031081294385,1.55776975680144,1.64682384112575,1.6547325902077,1.80512217883838,1.82415881743375,1.83425679046298,1.47991258304487,1.46435521205688,1.46530781866131,1.53968000059704,1.55005084016452,1.60866666657363,1.63070775881501,1.75543479804774,1.56666321565581,1.49991052947836,1.51101777495801,1.52840229607567,1.5623503613955,1.60356913713451,1.60016448142439,1.55887217349156,1.53751881320909,1.46771256240159,1.50204659965869,1.50415636704898,1.60433396167095,1.61746159735481,1.78034340681239,1.88834850365599,1.67761579106649,1.649024524442,1.68778199431896,1.7266537182101,1.73138175350887,1.73863316100722,1.77401274395861,1.82865681635238,1.84480434263426,1.85113182910089,1.62215556613222
1.43703000080619,1.40181696840515,1.47121578868944,1.35770637246939,1.38160614839061,1.2360599165738,1.22607485975025,1.24410477806557,1.30515250526,1.34830317539811,1.4108219727483,1.45471256784257,1.49175850153306,1.32158974837118,1.32387878159667,1.32628946596471,1.37804942239307,1.38776196974115,1.45719922469282,1.52083741743771,1.69936999985823,1.28442353767422,1.25186102936235,1.2821010710091,1.28583233945726,1.31896342293166,1.34934038390692,1.36931590872343,1.29071999938066,1.33896229233043,1.23492792545437,1.25131398193466,1.24296063865249,1.22215737280775,1.1903838953853,1.25677119095562,1.31274000113316,1.36305880260714,1.39590000121956,1.339039116342,1.22393990224731,1.25423189903877,1.26432959794276,1.30919060367929,1.40227999999847,1.43553829304209,1.5850527041086,1.59221488994012,1.64427050951858,1.43425861046327,1.432390336417,1.41846790889504,1.40535009821718,1.45961073308604,1.51944072690499,1.52346103383704,1.58024000117307,1.50537701597556,1.45299205371278,1.47306840283302,1.52099609620375,1.51508542925085,1.55310000050498,1.63372631366927,1.74566961138886,1.76624682474336,1.76854548160805,1.77016796678352,1.7556738175394,1.7543626450662,1.71074699789964,1.56428031021356,1.55486252988763,1.52006231601851,1.3789371710628,1.38221678863866,1.34168812163592,1.37830393811233,1.39257988070209,1.42958401591247,1.46163070450174,1.4634481360042,1.49273968429982,1.46683383600373,1.4565174318385,1.46719209990538,1.48985099187793,1.48867360900167,1.45749995484181,1.57656243959225,1.72263825557424,1.72385739183339,1.74242523149713,1.74615118992483,1.76841968550819,1.7676327584801,1.76599103568516,1.48036798124431,1.4733755731549,1.48251381870905,1.53778123214826,1.53233907135117,1.52635567989866,1.52148342286341,1.48430980048932,1.5162331835944,1.58024652833673,1.58331311949871,1.62459113949268,1.63123866231847,1.58166999994099,1.51694876475547,1.46544000009007,1.51342442475327,1.54427000003622,1.57741120169909,1.76963806170264,1.77246480013756,1.79671413005518,1.7969490538499,1.79501954540422,1.54353786443337,1.51660041015477,1.55039028832652,1.58566000060089,1.63116841806779,1.7183403315058,1.71898167490794,1.74137742959199,1.73918506384809,1.73890962330729,1.46508123765353,1.44432893773025,1.48111273318807,1.48899528831376,1.55813283375465,1.62861943521983,1.66074346725856,1.80230183677298,1.82743664603004,1.84250012653487,1.49684149616398,1.43853786106879,1.46415880018684,1.46135747041422,1.55273012498536,1.55579869976013,1.60902250000834,1.57441999947963,1.57009367752737,1.48287974623631,1.50397442511547,1.51531061677809,1.56097837463332,1.59326505666871,1.59804708255676,1.56290782575326,1.54586936066594,1.50261474205823,1.51680741100764,1.53470144930659,1.60507137731083,1.87489999985823,1.85961473817997,1.87239400736468,1.68011359978177,1.63085817252713,1.68696085365236,1.72414809685563,1.72884971745542,1.74940423586722,1.77253189736594,1.90662999985823,1.86446468024357,1.86922951232089,1.62363538663045
1.31998999966802,1.38943599054064,1.47327578614319,1.34293570194771,1.20892101689495,1.21896717027442,1.21741604803417,1.24341736296185,1.3209674942113,1.35046793851203,1.53911000023503,1.4964902592834,1.50498014598647,1.31652475616111,1.31625457361688,1.31533284574246,1.31274454963458,1.38320624656195,1.4484867905811,1.523529838149,1.61347000001209,1.28449313641433,1.27048212600695,1.27627749369515,1.290348945468,1.31910318445164,1.36748275499557,1.37702632273575,1.50370071941755,1.36898736591927,1.26755948361617,1.26732822315271,1.26799132580771,1.22546576396101,1.2232887176608,1.25847598816575,1.27606973046117,1.3585522153115,1.35352217394845,1.34000805129923,1.22657166688993,1.25734207476694,1.26108566201855,1.29808253914456,1.29152330879368,1.37866833506346,1.38712091932055,1.46274223876755,1.40471999936427,1.44018791376965,1.44651948619267,1.44623452842777,1.44591488696365,1.46120210200289,1.46307441321103,1.50653554652305,1.53851000039078,1.49027492693751,1.45207881942141,1.45502367426484,1.45034606513059,1.51562581487769,1.51650682264179,1.63596787532289,1.74955887225932,1.76515737079483,1.77036496116646,1.77095643271528,1.7685057046056,1.75607178789068,1.72506057862932,1.56356105401886,1.52339373489875,1.52106083794537,1.39039617318321,1.38570431582815,1.34255195512273,1.3710118073931,1.37534622523707,1.42010263681391,1.42880927649712,1.46111644973547,1.51640384622727,1.47408804603133,1.47305002409457,1.47616194971927,1.52136801881899,1.52112039712992,1.58429259223179,1.58615605209548,1.72458031290236,1.72645468695368,1.73804448490106,1.75160180025457,1.76704877146706,1.76963531981784,1.77347999850695,1.47982966985845,1.47352477364036,1.48157394650345,1.50567099404845,1.51058893297276,1.50224789117715,1.51646096268934,1.51621692980982,1.5151216405055,1.58183214944819,1.58394065092209,1.64145081665069,1.63627348762256,1.81050999985823,1.52524530908213,1.51106925430691,1.54683390593279,1.62062200052138,1.63565663376861,1.77575560355725,1.77503007852888,1.77478989718866,1.78347949388098,1.79313536150699,1.54563824001735,1.55047871786926,1.55112321093188,1.61128001296361,1.62812435367329,1.63815004049064,1.71796236949536,1.7350544063014,1.7373569693172,1.46369489899757,1.46437296740453,1.45180610163549,1.48183195387274,1.51061438722798,1.55842586202219,1.58187146170779,1.66436498625953,1.83719887480674,1.83120894444562,1.84218248650841,1.51264555443938,1.47090069359496,1.48095194823893,1.4931704049128,1.56884044554905,1.75043324991442,1.75039880489021,1.86261999985823,1.5726530435081,1.48736833636412,1.49040433241577,1.49162525118407,1.55986282068735,1.58293402189382,1.60157100365954,1.65073000038053,1.55357614283624,1.50419474086616,1.53661511822593,1.60017858487784,1.61268997655488,1.63650000007015,1.85669961340512,1.88834890662253,1.68461125609428,1.68256287888447,1.68662354697914,1.72564455809668,1.72612137004578,1.75160421454543,1.77227870222183,1.81694012069315,1.85646689227434,1.89682999995067,1.62586980994378
1.37387054068647,1.38282423968159,1.45875842488383,1.32196093136968,1.25455276532616,1.22060805587984,1.19961651327324,1.24318520841745,1.26999025606098,1.35565341414331,1.47547992867398,1.48830929546234,1.53289000128448,1.30989948398882,1.26876169605601,1.30455256695605,1.33346205308261,1.38032625467517,1.55573010182164,1.52689477604882,1.57651054769453,1.28534688580201,1.24388976707871,1.26032724769039,1.26794881982133,1.31842651078187,1.34343956734399,1.39342295002847,1.48785625700603,1.49262313882445,1.49463889659914,1.30254248747764,1.23650889704092,1.23797808852791,1.23721319006453,1.25892466997548,1.26775690966777,1.3576901400299,1.35517208085324,1.34024228715979,1.28866342117418,1.2725461349905,1.2704550018774,1.30189234651184,1.30735859606301,1.37556580653889,1.42123000091667,1.49318480212967,1.64226237503741,1.47143346005801,1.44737365413089,1.44657566412419,1.41775722324823,1.46121269782809,1.48239147139355,1.48899634106972,1.45255737708132,1.47791038088459,1.43646552402104,1.45576195623207,1.47893078627425,1.51559259911673,1.54715000072528,1.64041414893305,1.7489203592208,1.76366152155971,1.77044485019379,1.77224999175359,1.75502902840535,1.75660117555595,1.59282999971835,1.56377656611464,1.55380623061767,1.5582678061457,1.67133999992911,1.39803892842355,1.33789893125559,1.36537751441473,1.3686240580361,1.4097945739893,1.45943534933499,1.46065590148834,1.49607955486496,1.48025700422035,1.4501585349437,1.47783936457711,1.52419933315447,1.52099731178786,1.54583999907922,1.58723376377888,1.72372116139397,1.72888965754558,1.46981333343963,1.75970932690131,1.77560255851901,1.77168562149396,1.51802170795501,1.48223016162934,1.4736956440542,1.48349632219392,1.534744683255,1.52492824256301,1.53048624355098,1.51649994505606,1.51585361577615,1.51436156954379,1.53494916191298,1.56503522365316,1.61495000063056,1.58303219840738,1.53970391619505,1.53709914410265,1.53363379215391,1.56965140101683,1.62416685768083,1.66043808152951,1.77876230876951,1.77581877028525,1.77379228887572,1.6372082758555,1.54993287912989,1.54410659234603,1.5400225477931,1.55290903358349,1.62389535392153,1.62443532965013,1.70693031880043,1.71335333121785,1.73811028362518,1.73775215587947,1.73024444861966,1.47744255591846,1.44608495909889,1.4837401218792,1.51900787407121,1.55901878675843,1.56437647073059,1.66607816280893,1.76711945631531,1.78306454254532,1.78862871163753,1.52852060289683,1.48023931640837,1.49587808077104,1.50930188440465,1.57624511873158,1.74933063463335,1.7501794483495,1.77840200336044,1.5741456345196,1.47773807727893,1.48145527851134,1.51068037483119,1.55866415849917,1.60722479783856,1.60353166989518,1.57891974022139,1.56165217766445,1.53448146456228,1.54015548879153,1.59311141437983,1.62741114049498,1.69588999999634,1.85206344065588,1.86839001967869,1.6931071903845,1.68543565261218,1.68617585716196,1.70316175157295,1.72327233249173,1.72357440281079,1.77243029669818,1.80697951549981,1.8530625594572,1.92566999960597,1.64042440772243
1.283165813421,1.3211252884657,1.26875999867731,1.3061746763516,1.22475219012485,1.22254271375528,1.21669483211966,1.24297372104052,1.32910999979303,1.36424901043402,1.38117967565163,1.43295221954105,1.50036999955256,1.30471595329494,1.26976860560526,1.30246934685976,1.37305407507918,1.37700698057383,1.42889999953072,1.493668522586,1.58314945208073,1.28664776427016,1.2140899988867,1.25513158686443,1.29215254897838,1.31715903108655,1.34083956609043,1.40799384416838,1.47942748139232,1.49932425718516,1.5198800007358,1.3284342988435,1.2961894732605,1.25542844111909,1.22030170590212,1.25890937044719,1.25988518023523,1.36387805938839,1.52377999985823,1.3402357727284,1.27601091497302,1.27398180519735,1.26104362211643,1.31581652178274,1.34432000014861,1.37363925685908,1.61487370377545,1.6157384247108,1.63716027638785,1.4812283481337,1.48081999910039,1.46191815720404,1.46337931642042,1.46178470032414,1.46108792131093,1.50124402291535,1.59489999964439,1.48986258377753,1.42512260316316,1.45735327393664,1.5016293459756,1.5156416155304,1.75732999985823,1.6463450650072,1.75846251807536,1.76206800367363,1.77791325334845,1.77515336069959,1.76056492578942,1.75760895530441,1.62502000059718,1.56455780155769,1.51042999891424,1.56150977935253,1.72594550449973,1.40299096957665,1.38538094679169,1.36083518993188,1.35281888006538,1.39917119012032,1.40514990558547,1.45426019121628,1.70057999985823,1.48643685859317,1.45027675746363,1.48297317223449,1.49222987354774,1.51768964195368,1.58657024069811,1.58747474622,1.73965436197523,1.73781224916789,1.47102666677296,1.76693973972303,1.77727944773005,1.77394940323769,1.48721884379691,1.486341487086,1.49441438114636,1.4881051072846,1.48956917695941,1.50838468540315,1.53818576772569,1.50330946255167,1.48734536764703,1.50773318113764,1.56431018799195,1.55644741767975,1.54970921672666,1.5481826291741,1.5447584165103,1.54279400459412,1.55211096438681,1.5804276332984,1.63854114111303,1.68940182179399,1.76131196465952,1.77516103383836,1.77462287165965,1.6185472777683,1.5406050564406,1.54245131757062,1.51550792462758,1.55552086319009,1.61040399231733,1.62126941863561,1.63425869524548,1.69368697792905,1.75562178224536,1.75545359459018,1.78645182885405,1.48724465201232,1.48772424730082,1.48740221853825,1.48967368074315,1.56020100217266,1.58528676811069,1.66680991936399,1.75981569064775,1.77992416834286,1.79110484306229,1.54458048762756,1.48055880292277,1.51382664450771,1.53697934729638,1.58226425134075,1.72395938639399,1.74086686292665,1.76866196873173,1.57458021571499,1.39675999943018,1.46146070033191,1.42380999891953,1.55706689085127,1.57020100697101,1.60413394718252,1.68626967974313,1.57066840526471,1.5169416687165,1.54541604954991,1.63108954145127,1.63733208283125,1.83551091636494,1.84532525298377,1.86734998977758,1.70356770143081,1.68315470402306,1.68616975455091,1.72015811172941,1.72060255927687,1.72049562313916,1.77195080354375,1.80061460886621,1.85124504298304,1.95408000112501,1.66464306894512
1.31664047294888,1.32933280226358,1.45055999985823,1.32415562350058,1.28964035978363,1.22867091371881,1.21276390505047,1.24273527343172,1.38195359010625,1.37241173820382,1.39908202565674,1.40454105555475,1.30152434229055,1.30145414569398,1.26996969682257,1.2971685648522,1.30657907427945,1.34435125906879,1.48586953924779,1.4784540993728,1.47127512169662,1.28782737342286,1.27966279121274,1.24897051799298,1.24534142342835,1.31534889394633,1.42699737528243,1.42696969787002,1.42586566294705,1.50386414570495,1.59862999992911,1.35650721499473,1.31894052783848,1.27386222554228,1.27086362624094,1.26809885737368,1.22726971578569,1.36569011688227,1.3926,1.34051885256209,1.29676328427398,1.2815390074139,1.24745964204172,1.32748451591184,1.37474525350269,1.37340013046043,1.36697059882273,1.6165272227917,1.62991624129727,1.4823369238265,1.46132746395118,1.46097114696066,1.48237452006347,1.4716062094526,1.47333074024278,1.51493698111869,1.61968000009932,1.50218055299041,1.46143769714307,1.46098080254395,1.49966681011182,1.5156359954976,1.52042355636374,1.61487082403088,1.74871802138384,1.76073120850112,1.77699502178508,1.77671077713406,1.79332270506573,1.75638051932621,1.74098573811471,1.56540222662656,1.56568859596908,1.56312540623366,1.72384788093388,1.41140153049241,1.323368261723,1.34963780154847,1.35119297673245,1.38849920633889,1.43509100323732,1.44710731701673,1.49346932518619,1.4896444381194,1.44694240514791,1.48576633068641,1.51136324982638,1.51444980879852,1.58890753409933,1.58819470203057,1.74746552426906,1.74597318861831,1.59109000006855,1.77121976871783,1.77933413753479,1.77655085010914,1.77867214718672,1.48190794714672,1.47768238733864,1.48631116574427,1.51199777841484,1.50770302304013,1.48249693634206,1.48347658294767,1.48497946016408,1.50591275509724,1.53778181788504,1.54380964036018,1.54809530465065,1.5507453887826,1.54190181646472,1.5473351032127,1.58736196956733,1.58747312361224,1.72677744431089,1.74576876480783,1.75982668442159,1.77346551156728,1.77478943909677,1.60199003296717,1.54408577134712,1.54308671122066,1.55307097637739,1.55848501296367,1.61361101106062,1.61866518280195,1.65433155757471,1.6829354428242,1.75699327366283,1.7558485663368,1.77037861439677,1.48730231089385,1.4911502439699,1.48903406414156,1.49903774978989,1.56162239508556,1.56980387768578,1.66727465698385,1.7585605968956,1.77717215238972,1.77824454929866,1.55942313024018,1.50384990246803,1.52364478480047,1.53737267707674,1.58813249811949,1.59275920869896,1.73638877496675,1.77944602806703,1.57423212454811,1.42586000042151,1.47701637880833,1.54136976947971,1.55502941776648,1.55358392660701,1.60408755746593,1.68049032004422,1.58019514709667,1.51923490012134,1.55357819093141,1.65736938165257,1.65705703710294,1.7602383325778,1.81745723705794,1.85491857309345,1.71385890420824,1.66947730052087,1.68590582588119,1.7011481448489,1.71844320886295,1.76426950473739,1.77048905326805,1.8000226372489,1.84717149010696,1.92451999996854,1.69256376118132
1.34589321384291,1.34436126289176,1.3703400008447,1.34781644371011,1.27215923561644,1.23031125206472,1.21832656515732,1.242661902298,1.24348272560476,1.3526249200259,1.37937441193366,1.41448864188762,1.58144199434581,1.33523258666016,1.32654000105522,1.28547130052884,1.26793927062479,1.30881805950624,1.29232862185932,1.42262522241799,1.591591271668,1.28825548179819,1.25627397988015,1.24539985637852,1.2289163988039,1.31060513232179,1.42947633964059,1.42836584003328,1.4320789659271,1.5074961098183,1.66129999985823,1.38681546907146,1.27887061421042,1.27720690998565,1.22664770952337,1.2792035040537,1.37044999720591,1.36679143411527,1.53302999985823,1.34125652574267,1.28433247735159,1.28713552958956,1.28827343481542,1.33959106504627,1.43419283024875,1.44126486767677,1.59735614345407,1.61676863896399,1.6509679386195,1.48374513086457,1.45945590799673,1.45998670660515,1.52424000196007,1.47054560908343,1.47106918679847,1.52427767268102,1.66733999997276,1.51474192703488,1.44501991278114,1.46564649494259,1.50017335146441,1.51523081702613,1.52840224873676,1.60387438511828,1.75179014031056,1.75924613742174,1.76521372928799,1.76191462543907,1.75097998280089,1.75400289017786,1.7830600010648,1.55335098838577,1.52735999933267,1.54700875092921,1.72154559603012,1.42150292271942,1.34969775476327,1.34807751053242,1.34554027346438,1.38129972085139,1.4254691836727,1.43755703946066,1.49451837713746,1.49167746274752,1.46733774228824,1.48749144215978,1.49162722796638,1.51360167257868,1.5875732297791,1.58797189573403,1.75552972193616,1.75448805336876,1.7752605837203,1.77694717115452,1.77814321790316,1.7775913092677,1.77984994284063,1.4792029240542,1.47548910986804,1.48393627304798,1.50479114135472,1.50346495436461,1.49941862343129,1.48313133430515,1.48300674671148,1.50531877711054,1.53065307274174,1.54091124000096,1.54912139329565,1.54724174092674,1.55131165107912,1.54529166993833,1.57867350889974,1.58988617455491,1.76525479103464,1.76320030141397,1.76235801082328,1.77078913949596,1.77587318641029,1.58645694531778,1.52375354898617,1.53656431124924,1.53786913691479,1.56130995037101,1.61379889592884,1.61698634772643,1.64934111321763,1.67292898308378,1.75176028715149,1.73509965965127,1.66435999979148,1.47606457880116,1.47084909157155,1.47902482621334,1.56278277954362,1.56254546284015,1.58636142265465,1.66760599905322,1.75605005342432,1.77490698502016,1.77514249662721,1.57232161892269,1.52005009674382,1.55504269002948,1.59691393815616,1.59930840523788,1.72332952378518,1.72865346709072,1.81778833342228,1.57366257989349,1.4569299996026,1.49175416675342,1.51112580629414,1.55450031352335,1.55214916796986,1.60369682179728,1.61914006962643,1.58372316911733,1.53352090604866,1.56311065754183,1.57142951922573,1.65652979125706,1.75867166590913,1.80566414293807,1.78798906992281,1.72264091870316,1.63536000002996,1.68588652409402,1.70352452992186,1.71658385590015,1.75162089433135,1.76836642816979,1.79773372571557,1.84059040767063,1.90696999976781,1.74662504083944
