1.33011639016396,1.2433668730028,1.25567553463919,1.26498995463159,1.29027468419801,1.35450387807279,1.4043124598622,1.57222192289338,1.61011085494608,1.61569177956105,1.59916652409057,1.58516150462966,1.51542201253174,1.51275891065652,1.50480805032366,1.50015256802266,1.42387018759633,1.39430062652322,1.32459729574502,1.322035069704,1.319209713331,1.31757608480915,1.31055146631202,1.30530013599541,1.30497693423665,1.33139877631477,1.33459747509534,1.39253899974815,1.39584873291102,1.41102451150776,1.38150404640436,1.37598483378754,1.24636107591011,1.24567775941997,1.24607427647392,1.32898894085919,1.35675754063028,1.37728604776232,1.39527985203564,1.60811088419223,1.60432791943876,1.45796066238205,1.40610053336999,1.39754347785954,1.31129163344446,1.27093560194618,1.27673461370805,1.29296024519873,1.29020060258802,1.27850388991774,1.31254151539472,1.31178385725839,1.31008658032701,1.30822182128754,1.30763228112284,1.32953364452107,1.34505565625885,1.36164271374034,1.3388349000983,1.29990666071268,1.26719374100771,1.25942163830764,1.27114731388377,1.28087873980548,1.32221888135542,1.36899959959884,1.47598522772434,1.47990130678483,1.28566858416061,1.24875811799793,1.27109918349876,1.2834692323638,1.30842950310718,1.32852226199103,1.50895654719679,1.5657213283257,1.62211108081307,1.62187476342577,1.62222099273791,1.6061802861632,1.4746372309248,1.44575198322676,1.4434748015984,1.45665956503173,1.46528184594183,1.49896212018891,1.49980016456274,1.45600447717247,1.33654781806366,1.28515385747343,1.2857702188882,1.35230841255642,1.37825450729375,1.39995314233197,1.33987349620917,1.27538281604455,1.27405370797304,1.27407679931728,1.29223119260056,1.29746405031776,1.3811995191261,1.40734411356314,1.43115066407161,1.46372885520385,1.483311723846,1.52293842755456,1.55843926225435,1.59703998107039,1.62570992936685,1.65850834152338,1.67591642995578,1.6894812444072,1.5734740284114,1.51267919422691,1.52539923280065,1.53353956714563,1.55411789400264,1.58316096407485,1.59068150192834,1.64521198077301,1.52094144122532,1.5197290694167,1.49071201311598,1.4929438468558,1.50867445372298,1.51757923317155,1.58108589594314,1.66112210455468,1.68792491842624,1.74899585326487,1.72947857357596,1.7067596519739,1.63789129175098,1.63722699084914,1.67322870322614,1.71156892980688,1.71473068176722,1.77539844903127,1.77379370609177,1.76821639075244,1.66997555257818,1.63526717551986,1.63325285942544,1.63102556433917,1.66498224793118,1.69696458676556,1.74796054844122,1.89348507484176,1.89944281755493,1.90227853509813,1.77478699660192,1.70016006560875,1.68829029737767,1.68192613021562,1.68646114968038,1.75575530958899,1.78666717780006,1.90586144244274,1.91550759430652,1.92302753221723,1.90678379488459,1.9047703477175,1.64873645814794,1.59356982375185,1.58618152203262,1.57337768744481,1.61313753335515,1.6772701929009,1.67814432431927,1.62687984932853,1.61055346992489,1.57948439273647,1.56374995198516,1.55321142858713,1.56389376891855,1.56888122365553
1.32180197824709,1.23054514728157,1.25040616050134,1.25514174579712,1.28493667100655,1.36550337332982,1.40283208600676,1.66061999769348,1.62031902701943,1.64831999042742,1.59795477912963,1.56921290982296,1.51298148578517,1.50965732444858,1.50747446227481,1.51904165175923,1.41251256399085,1.3097276346484,1.32275399293027,1.33671466405285,1.32389507713271,1.61800000000008,1.30889870677008,1.30514458584803,1.30536227363922,1.34421103900903,1.34605636852384,1.39557171699809,1.40215272090152,1.44040924638741,1.40879497701224,1.4035950987346,1.24616273424169,1.24007000813737,1.24570001028674,1.34242301903086,1.35254011596046,1.35078200559386,1.39276145290964,1.63343000000008,1.60917140362529,1.4060300144008,1.40291545637022,1.39972455100437,1.30292975033932,1.25270836893431,1.27398033364361,1.29500290425964,1.28742876318571,1.25314000627724,1.31226861739628,1.31208725258653,1.30976732833143,1.30679769681632,1.30715259576809,1.36426835816802,1.37331454047955,1.38844504815726,1.34721505581971,1.2932716938524,1.2748849388663,1.23762857967642,1.27753597672291,1.29376538570232,1.32551334229902,1.45724677633677,1.46826408369998,1.61974000000008,1.26029769100853,1.1588992031176,1.17405350713944,1.17494314359412,1.30935973310182,1.46390000433312,1.5153659931356,1.56019597768863,1.62241297084531,1.62105325477774,1.62218307095378,1.59715266188584,1.46468337876086,1.39116000668469,1.43305442616131,1.49211561694939,1.47866857481772,1.49621778375562,1.49836329389287,1.42458000665534,1.33341404575298,1.27548001046612,1.28286400308244,1.39320207858781,1.39627461998612,1.54800000000008,1.34073072600096,1.27725154908946,1.27494989151813,1.27463241397705,1.29633160772231,1.31461396730085,1.38352018374725,1.38325930888407,1.43291714781699,1.45495293885782,1.47353452027042,1.47504273084976,1.55778209175267,1.59570417218862,1.62707787724172,1.69268134715083,1.67615027395475,1.77481000000008,1.55792184498926,1.48603995992352,1.52163362280289,1.53145070270593,1.55730712261617,1.57862771538581,1.59052939989579,1.70961000000008,1.51391819172813,1.48600886583017,1.49082035121094,1.49676375549992,1.50951192208387,1.5365012372675,1.58465045124228,1.6686690913203,1.68842734134694,1.88918000000008,1.84878313487797,1.84730618222347,1.63832530420708,1.6282900042481,1.67110036830947,1.70785950336382,1.71199389617143,1.83115000000008,1.80223425370871,1.84125000000008,1.66531929538,1.63709751620123,1.63524057049109,1.61705449362388,1.66527665847682,1.74922724096488,1.74826700158041,1.90931554218618,1.90516750054386,1.90946608082064,1.76824231735458,1.70763997927062,1.68934622900744,1.66260517726383,1.68833455427422,1.71860998587443,1.78634978629246,1.88415403547771,1.91386273869464,1.9308891488959,1.90460938906213,1.87304293460773,1.64590219181081,1.54321986240157,1.56617093054868,1.56498865719062,1.60888355801267,1.67418733455878,1.67713391555821,1.73722999952332,1.62654880090783,1.58324745827494,1.56490568334295,1.54400838874205,1.56509687544418,1.62502999127119
1.31296663901896,1.23913622698953,1.24678384145383,1.25056553647849,1.27863227350904,1.31722401937624,1.40108935373119,1.61214794343855,1.61139429922395,1.60537508909086,1.59663882845648,1.58333405613752,1.5026163891002,1.47612814123204,1.45428683764707,1.43490005773305,1.4006735660164,1.31564109444943,1.32015753554215,1.32390682222039,1.31989064058276,1.31464673538649,1.30789276317861,1.30738998524173,1.30674884615291,1.34562215072235,1.3475048577485,1.40460402367712,1.40972726363872,1.42406518807848,1.41347167149856,1.38107649571337,1.24750238865705,1.24856889124823,1.24728862418245,1.34608206257165,1.34982652698093,1.35049268632632,1.39065336303282,1.61334415095117,1.61227763522202,1.45795044716779,1.3868424860383,1.33981850088501,1.28794161258715,1.26269980431645,1.27193773016351,1.27438058881227,1.28480717767955,1.29028206968474,1.31151383057902,1.3108485172623,1.3096535019063,1.30778595937709,1.30684257188031,1.36189100141008,1.37982078249025,1.38246626277395,1.35529233160564,1.33317425843591,1.28393083228144,1.28388736898632,1.28427165383295,1.29222623945892,1.32843834845457,1.36846759287108,1.36932651946853,1.26809106699742,1.23624345425625,1.16640734113095,1.17203063767371,1.17410983634651,1.31056694944022,1.48062107079402,1.52078583799763,1.58617019214509,1.62386585738361,1.6227216090974,1.62279240471407,1.60809840302294,1.45538370946157,1.42289205108376,1.42986896372954,1.45065937693919,1.4630714420566,1.49588306290246,1.49725858849709,1.4505014653712,1.32509322509503,1.27928361197886,1.28090858898087,1.39631565430212,1.39793252563301,1.41842615162327,1.34109296360908,1.29625719937383,1.27431010823203,1.2742256341258,1.30081227351509,1.32067911039815,1.38617681379836,1.39889678512638,1.4352960765217,1.44651312160006,1.47218887088793,1.49845071958288,1.55815935127462,1.59088260381052,1.62748363602809,1.68128834421881,1.67151659610427,1.66286586532037,1.54010187817255,1.50866347359285,1.51700913788616,1.55340011914092,1.56181950126146,1.58875342219498,1.59241139560265,1.64075317741949,1.5095004221645,1.48604188347873,1.4874248474355,1.50378860435739,1.51106446336176,1.53667216135856,1.58829039221535,1.65575436513337,1.68884946371949,1.85539173151972,1.8521167488548,1.84852197003602,1.64005494553828,1.64181876752511,1.66927400247969,1.70073982757011,1.70935248544244,1.72871548981722,1.7230220248703,1.69303718771972,1.6604348474739,1.64062336037624,1.64418732728724,1.64599622560604,1.66487692994494,1.69698505763186,1.74751542646681,1.7529126455029,1.75393189605524,1.75576863213789,1.75987664842578,1.7253232540361,1.69081624203465,1.68663161774818,1.68913835792819,1.74902320494871,1.78660658303802,1.89295838228167,1.89223085090542,1.89337425325228,1.89421619155456,1.8728809575324,1.64575887021356,1.55322426466049,1.56704254697252,1.56732198235123,1.60457879109572,1.62932995331365,1.67678402501121,1.67604527905191,1.64735788346555,1.61896486877316,1.56636450268573,1.55817789628223,1.56652736937022,1.57504358724855
1.30277393181511,1.17255000597747,1.19502741097945,1.19300155697709,1.27109964408051,1.24370996801569,1.39924169279412,1.61345499333833,1.52621614931333,1.31349999999991,1.58653703970576,1.58548635849781,1.47901577826987,1.36884772348643,1.41319371274419,1.42273661091628,1.38890582127451,1.2920899849111,1.31676000170002,1.34502757142512,1.31509927976583,1.30670004745758,1.30765591611639,1.30792704152329,1.30862109280738,1.35386236365704,1.35080636115084,1.43078175677615,1.41797177432807,1.48755999982437,1.41707226703137,1.35779999402763,1.24951669338223,1.25267994167052,1.24958871814615,1.35959194679638,1.3241702411605,1.30302534087393,1.38767933123942,1.62967999614567,1.61281262354385,1.56431386080032,1.37513841483923,1.27236853857868,1.27241628169161,1.25501787568919,1.268989330691,1.26781494818585,1.28315500862324,1.53697000000008,1.31076474355186,1.31028887621212,1.30923835706912,1.24614000435998,1.30526375752766,1.35991357976446,1.38230943084619,1.38473001550208,1.40046879880371,1.46553999495542,1.28342590130719,1.28315264845842,1.28453647853008,1.29085166619273,1.33071952793973,1.36647649728478,1.36879020840761,1.1942764568986,1.21179351771754,1.12430000571557,1.1518904066576,1.1296200067931,1.31182165962542,1.52422491828912,1.52705778306707,1.60484012572827,1.62622162542606,1.71590000000008,1.63350020220615,1.65725003612144,1.4451461928467,1.41379955574485,1.41122766312679,1.40051599661359,1.45143118141665,1.49317757874007,1.49585938429946,1.57748000000008,1.31684102919699,1.25718000780778,1.28156418679013,1.40251688737259,1.40156737875305,1.46616999500886,1.34076968459912,1.31266225515597,1.27452113098114,1.25625999702319,1.30593175084429,1.32818032294279,1.3883545045978,1.41168994003654,1.43793780520352,1.43623754318808,1.47103051511385,1.52723999713601,1.55922601050327,1.58574263324765,1.62697676502016,1.70304999468332,1.66287633320107,1.64612023200981,1.52790020514236,1.47507997747923,1.5121024864798,1.5724891177038,1.56701690602949,1.59961652955975,1.59559517782944,1.73847000000008,1.50754722722256,1.46724257803213,1.4813683438658,1.51114550908552,1.51328431204321,1.53793808265811,1.59211581102595,1.63746994671529,1.6895799920661,1.86003386703314,1.85759784268099,1.8620290739399,1.6414352983072,1.64485545580011,1.66787472835566,1.6929493173,1.70678124677552,1.73431390896243,1.71493552979372,1.64805486394966,1.65600080004445,1.59546000808413,1.64600958809239,1.64777854434491,1.66450514502714,1.66756455894355,1.74556458543178,1.75399598489403,1.75360175797075,1.75317587464928,1.75508281304052,1.75421541275426,1.6926366818607,1.68295090104531,1.69092728969478,1.78931981046505,1.78722716329011,2.05894000000008,1.89372119099509,1.86991186486568,1.8688200534585,1.87010729086939,1.64512837700616,1.51789000729017,1.56720735527481,1.56973897934766,1.59519783529201,1.59318240784634,1.67717343816291,1.71695999201287,1.66699094318608,1.72290999786996,1.5677286264478,1.52993000608312,1.5681048446001,1.59498385764887
1.29110363532944,1.19706956082122,1.19722433307553,1.19853854678247,1.2937098931607,1.3250541476005,1.39741025962943,1.39707713443257,1.52334376104025,1.52621665898902,1.58620487503368,1.58579033843882,1.4592821855327,1.38243131196046,1.41157599572952,1.41683730586664,1.37848344659503,1.31253712016324,1.3114211705784,1.31007189310688,1.30837362746045,1.30736735036267,1.30760805897953,1.31063197870965,1.31233738322347,1.35175838873538,1.35080145605925,1.39198556819426,1.40963361575429,1.42511441325125,1.41904737567886,1.32590029887082,1.24961806249329,1.25061933402369,1.25000740332792,1.29702433331212,1.31489180429148,1.3139021823068,1.38416700927504,1.61133352337997,1.61197547200389,1.5834399786725,1.36320066178541,1.27244223360372,1.27197429614888,1.27039920263759,1.26866221717198,1.26734477793662,1.2808489664542,1.28407734554417,1.30685484700145,1.30711929294071,1.30754703286162,1.3061792615636,1.30473739029952,1.3616670746091,1.38324510952501,1.39427752740714,1.41713486773403,1.44203944799268,1.28285505749494,1.28389615001643,1.2855886823386,1.28824111671311,1.33353692390657,1.36847498593787,1.36933398324155,1.25577779207763,1.22237102544768,1.17455242607209,1.18288796930346,1.18729818098268,1.31323227853725,1.47495701921846,1.52995952511875,1.61429965836908,1.62848044683953,1.65048336288251,1.61599275811668,1.49017998815455,1.4347041231085,1.41157682134701,1.40828955279354,1.40455594490494,1.44801889631099,1.46464578441951,1.46389295896008,1.34406378872893,1.30446464983198,1.28291614596673,1.28245570707657,1.40341402867053,1.40402521316964,1.40811206541843,1.33959171430257,1.31402032905893,1.27556701620105,1.27485322086936,1.31169224583676,1.33783781177592,1.39024451642093,1.40949557979422,1.44207853236882,1.45818176352938,1.46996529018989,1.49613679616512,1.56038617181645,1.57486627029443,1.62618462109,1.65542073767858,1.65357559610617,1.55336238053517,1.51374185800394,1.50014766119032,1.50701202189833,1.5581310432804,1.56026787345326,1.57758060232862,1.55728120062324,1.53252983540098,1.50193181398607,1.4781677997926,1.47896314144367,1.51582558074592,1.51630689931586,1.54540836860039,1.59607980648993,1.66269609416522,1.69066611797365,1.71269527147719,1.73482975677529,1.75425401316398,1.64048197827008,1.64240484295978,1.66704697882015,1.68614655423814,1.70476030391382,1.70691302838171,1.7087590354185,1.69757300776934,1.68533893997241,1.6758481258499,1.66128571419817,1.65593961445928,1.66502844400454,1.69900601213216,1.74296068861531,1.75358027489794,1.75320147975514,1.75291676256762,1.75352062018129,1.73841026320653,1.69510748162866,1.69235471775124,1.69301253610699,1.78644402593319,1.78626641232653,1.91911220250991,1.8976704557483,1.90030088034291,1.86819887108299,1.86934831073725,1.64368742527281,1.56266676617096,1.56682591841475,1.56907247329555,1.59718720257915,1.60569207591992,1.67513849801055,1.67400880539116,1.62970541534928,1.60867273428705,1.56857156858584,1.57061734815168,1.56973455977719,1.58091274454518
1.27892418209021,1.19671168696628,1.19786475947729,1.19938463054686,1.31950321440981,1.39392926105304,1.39565111308536,1.27806999999992,1.51549242032566,1.58527070988559,1.58556778360195,1.64178000000008,1.44503903455078,1.36635995714866,1.40412816052663,1.42395897978381,1.36627965280198,1.31266646944579,1.31145475680975,1.30102684647054,1.30848066866031,1.30690914661102,1.30714850751931,1.32587981672371,1.31895818827823,1.35035137306531,1.34940095984117,1.36846583488603,1.40026099112939,1.45158001894721,1.41959351161108,1.25233223386605,1.25079766477364,1.24397882535663,1.25092279279823,1.2909200450295,1.31478868445986,1.3128007164498,1.38055074105919,1.61692001242686,1.6167276876306,1.61851854294486,1.35416497055945,1.23470001114218,1.27216549247596,1.28301858176673,1.26756618285652,1.26559045855111,1.2788865469449,1.27757234511523,1.30530978182383,1.30525679321,1.30556424219306,1.30547749235136,1.30386243250493,1.36322526385462,1.38718743821038,1.48163999510024,1.44532401053559,1.45886767529529,1.28102700769135,1.21438000797027,1.24884426611537,1.21268000507578,1.33809659599871,1.46637212752235,1.45722676192405,1.54451000000008,1.22966082602569,1.16485569022166,1.1872894518264,1.19532634183956,1.31433910510985,1.43100000337805,1.5323455264279,1.63275598990554,1.63051198888333,1.72589000000008,1.60590867108774,1.42703957481371,1.42237903830748,1.41135934358775,1.40696508822469,1.39629900803588,1.44836043516148,1.49191999319623,1.46192421094422,1.25856054995271,1.2578555952625,1.22935998339145,1.28270360493566,1.40366022009415,1.40377052752868,1.4123867045049,1.33759701030398,1.31625366396461,1.27817153791428,1.25481000148285,1.31778530692888,1.35472521281346,1.39293320242146,1.40744305042108,1.4452876076804,1.49594001996616,1.46855981683473,1.42961000931252,1.56100714463786,1.5607020008043,1.62590638939112,1.66144999106622,1.64977431875959,1.45785634402303,1.46840078134134,1.47095688566557,1.50166543871706,1.54749114639975,1.55664474542292,1.60202003281029,1.54606605082286,1.44088999391299,1.46338235037484,1.46323671821949,1.47810152198154,1.52165325437247,1.51982695882117,1.5499968752849,1.59988597467233,1.71247114838662,1.69187682396007,1.69302755522763,1.71314515701604,1.87997000000008,1.63890560415858,1.63916632342641,1.66676846645931,1.67981882523784,1.69978131614708,1.69794186383706,1.72226006395697,1.7831699936237,1.73736777568006,1.73700230249183,1.66206737238498,1.62595998516367,1.66662931682177,1.73728610262387,1.74048611239225,1.94430000000008,1.7972065978765,1.86742000000008,1.76585046377334,1.71088882460559,1.69824806838191,1.65845001989903,1.69582837503679,1.78470722145531,1.78539305640203,1.92819087354299,1.90075309058324,1.90421842809935,1.86900051516854,1.87397084728977,1.64112279339868,1.55813636891289,1.56809458440326,1.56931570257198,1.59891112176151,1.61887072396536,1.67185513545595,1.67089093918829,1.62006628626302,1.55304477818725,1.56661574379563,1.57343234783009,1.57075951945231,1.61959998236532
1.26527978740986,1.2601891552315,1.28591806984027,1.31491340405688,1.34674386496109,1.40861471974394,1.41980655545587,1.4436526052648,1.50666541056416,1.49907687729125,1.49071198710127,1.45300063392369,1.42813218235476,1.38909102173068,1.38955212530821,1.38955726784379,1.35317177015685,1.31131840331817,1.30956818668582,1.31020306380282,1.31029026169386,1.30777631113538,1.30719358213753,1.31100546232635,1.31353716756502,1.34487859837272,1.34652359965386,1.37221226232982,1.38928552288454,1.41882024150141,1.41950302383381,1.25094609177183,1.24964526930517,1.24727394068241,1.25178286954784,1.27447269530609,1.31933035802204,1.32611305447631,1.37393953032583,1.6161514980054,1.61539819510893,1.60487264610478,1.34466733669687,1.27729848410122,1.27166727415147,1.27024399753961,1.26836247445134,1.26710684213144,1.28465038618732,1.28787816135663,1.30436289004231,1.30436558069988,1.30512312442121,1.30511206572087,1.30309549082932,1.38043452068551,1.39454430577962,1.42603035399636,1.43590814386181,1.44590702289089,1.27913552001616,1.2435592075597,1.25405626438493,1.29452253173772,1.34318102986834,1.43701210001938,1.4366902880013,1.43682956475402,1.23749179415458,1.2105101230343,1.21141230657814,1.21128078274079,1.31440095118314,1.47125621480309,1.53455232625183,1.5739390500562,1.57222141588321,1.57112107284155,1.57118532459807,1.49043251579457,1.41985974980705,1.40734880758786,1.40499626148669,1.40088213279721,1.44889559377815,1.45642602307113,1.45850959917095,1.25798271008762,1.25616538937555,1.23847444881573,1.28276840685035,1.33285893290275,1.39084333103821,1.39548459227449,1.33518562971074,1.29578128031821,1.28172093870103,1.27579784360061,1.3238097126473,1.36210289594291,1.39515698194356,1.43098598281979,1.44748842962912,1.45581967240249,1.46644516459486,1.47147984548181,1.5607805570037,1.58603496100698,1.62639736729255,1.64584757521174,1.64423689570661,1.46435759974126,1.46633505483193,1.46844338619987,1.49720475851384,1.53338292022211,1.5362184272284,1.54445236885822,1.54072017654046,1.47295786228034,1.46345971113873,1.46340599638623,1.47101851557433,1.49735561091153,1.52181233146099,1.55431886554463,1.60422735759493,1.63075118192756,1.62972264946721,1.62955798544325,1.63136765310344,1.63332535379139,1.6344881368077,1.63700370156568,1.66686834969898,1.67389951061923,1.69873413837063,1.71879339129435,1.73780032844354,1.75588656671762,1.73720920437999,1.72422984896417,1.66297030976101,1.65778107738226,1.66925263072106,1.67110957975456,1.6059403549671,1.60594035496714,1.6059403549671,1.77715164570267,1.7681698920074,1.73779631168918,1.70145696123831,1.69836080063086,1.69865600575749,1.78605034250372,1.78583108244813,1.81869604186761,1.79687851951995,1.76941653971868,1.75853812763495,1.74973385147976,1.63762235013483,1.56615936855972,1.56733400542065,1.57338110994002,1.59994450960063,1.63275096009637,1.66793681316861,1.66605831764291,1.60916040684737,1.56044722026016,1.56413522004768,1.56948792505503,1.56956200206217,1.57915221686443
1.25257287791189,1.23899994605571,1.309877642571,1.35055000367542,1.37377236719462,1.44086000654013,1.45989392732208,1.58841999569524,1.50757383007662,1.47575353972516,1.48358490660941,1.28314999999992,1.41257464994126,1.38890503334555,1.38935879081242,1.38981005870294,1.34015373592058,1.28060001541159,1.3051913840624,1.32982888714948,1.31638155147085,1.30209255425565,1.29999997941248,1.29626665748252,1.31131673741349,1.34256488766176,1.34478038291151,1.37621149043714,1.37822098414459,1.50283000000008,1.42024115507948,1.23878228040139,1.23048251688385,1.2049900101168,1.23213421472947,1.23884559899969,1.3240688516485,1.35035725007819,1.36552587669793,1.6193466451782,1.61379684240884,1.59186990631332,1.33601868642362,1.29644005669831,1.25495232745863,1.2132600009319,1.23968752043794,1.20331000528444,1.3206149549041,1.52145000000008,1.30211392805429,1.30442662229519,1.30328708637183,1.28954214669728,1.30250953406002,1.45180999536735,1.40484361329997,1.41411057453488,1.42614943498584,1.46798999954164,1.27763266294126,1.21739000667003,1.26284252900924,1.31890324685728,1.34823460136393,1.43809953540557,1.43713865991201,1.43772260154505,1.24508688988327,1.20837816194903,1.21163584010937,1.21031895875767,1.3129498365292,1.51636996909284,1.53619643021522,1.57643606729887,1.57259449384581,1.57009818668598,1.57222010641024,1.64921000000008,1.41946808586476,1.33714087078524,1.35213933090123,1.35551205433527,1.44929903009683,1.4533532642684,1.45593553438161,1.24663284712278,1.25167092293483,1.23350953003561,1.27559250655075,1.27940155322871,1.3859093652447,1.49102000000008,1.33301108390922,1.28857039026584,1.28600837498054,1.2587199742418,1.32901175905049,1.36758504740184,1.39800809253003,1.45071287755482,1.4490646054494,1.4486890432932,1.46358170055465,1.47488486114555,1.55954293342158,1.62812925623429,1.62721900709948,1.65503998787793,1.63711445773553,1.46246101586276,1.46441159323467,1.39910000028088,1.49425651135957,1.52794414780082,1.53240289776506,1.55422157013231,1.53637796402161,1.47913578401419,1.46085455918098,1.44088436947014,1.46455670643566,1.46617634146189,1.52394629611968,1.55856443185472,1.60788162649857,1.63320915199546,1.63069096443263,1.62644387260422,1.63216462727335,1.63457555819137,1.63357742688604,1.60535998162597,1.6669486559896,1.66665499487425,1.69674222650193,1.76828433686117,1.75756011291746,1.79796999563856,1.73676334879906,1.71523598898031,1.66483173980128,1.64815230246608,1.67082893876168,1.67322706313292,1.60594035496714,0.00457161999879674,1.60594035496714,1.90919000000008,1.77075683914876,1.73893995139271,1.70440984711251,1.68611225159125,1.7014545252507,1.78850778297982,1.78635785774461,1.92444000000008,1.79767371189702,1.72066769900947,1.72234834906681,1.72704043398732,1.63362442960598,1.56427379543558,1.56590225758612,1.57985830227662,1.60024083286365,1.66299648767967,1.66494050305227,1.66347922207855,1.59670234242489,1.48906000358185,1.5412744576833,1.54669639095187,1.56785475469966,1.59096090778173
1.32382395587919,1.30855935655934,1.33461877815762,1.36831985285319,1.39043186926702,1.45749668504769,1.47314930382614,1.54880755551271,1.52888411249394,1.51155368373951,1.49915717394181,1.47189394526625,1.44847609719287,1.42731794303268,1.41881090995645,1.35861155277678,1.3281169836231,1.30016820266729,1.30162857281087,1.3233944489782,1.32215828845369,1.30097328839169,1.29936336798463,1.2979088780141,1.30435251460141,1.32081648460969,1.33251097482112,1.35267200759515,1.36930855269957,1.42114025059553,1.42096828291821,1.30185267956046,1.22422190151181,1.22297409278806,1.22598358908356,1.2911646615201,1.32840511565634,1.35100071718682,1.35689980285975,1.61313940701722,1.61227033810854,1.60358409853443,1.32836107849098,1.27127384211184,1.24299706980603,1.23567157657034,1.24620461320844,1.305071218117,1.34560934933798,1.37788559125781,1.29813680118584,1.30108315274379,1.30203924047621,1.30336305754885,1.30235500150401,1.39734803157213,1.40121856752114,1.40399536776359,1.40550214487957,1.40585853172541,1.27698824613503,1.2644567904343,1.26460886339236,1.3140958913272,1.35283451609845,1.43704649198579,1.4367314200891,1.43686425198138,1.25255753885322,1.2122671592956,1.21553779832565,1.21789202858197,1.31006606140466,1.35087160418681,1.5372915704847,1.56904224156483,1.57194434824016,1.57216323838376,1.57370931280258,1.56447040503367,1.41884375992174,1.34288806593455,1.34808953346289,1.3543498420265,1.44905378194342,1.45412519311569,1.45506132621518,1.33645882037298,1.26362819158783,1.26380417567894,1.27194508328108,1.30186151886965,1.378545352722,1.38136728793113,1.33160123016886,1.28833901880219,1.28794280812072,1.28876027220703,1.33319174849428,1.35651085271251,1.40557772359704,1.42547406203095,1.43360346862088,1.44028718414098,1.46038933903238,1.48483424921399,1.55755762043482,1.61138193904751,1.61891716466658,1.62317736064043,1.62940506262826,1.5204032173884,1.47358857820391,1.4661544615151,1.49102396363015,1.52587433047623,1.53095366030892,1.54266826563579,1.53601648371591,1.46358439308321,1.45370716578659,1.44698941646892,1.46309590210796,1.46600866745304,1.52578012497407,1.55702034057727,1.61201366204155,1.63135255406649,1.63041190105788,1.63028402450752,1.63114678390825,1.63219526164737,1.63302014235547,1.63384569477364,1.66719991024754,1.66642341128629,1.69408756030723,1.74543159431217,1.73872424012532,1.73620402236565,1.73596784267298,1.70573572959583,1.66860420341966,1.67019618035551,1.67054009894702,1.67148072517196,1.6059403549671,1.60594035496714,1.6059403549671,1.7961585307162,1.77341340378378,1.76777832117595,1.70666831610313,1.70505818247177,1.70301937739485,1.78488587063357,1.78537818634404,1.81355122960755,1.79894297599782,1.71925475420723,1.72032227910765,1.72244496004506,1.6297058497411,1.56543191474082,1.56622283175367,1.57167658370857,1.60022959339781,1.64851785328,1.64159544415513,1.59720625203137,1.58562935471523,1.53459203466236,1.53752471888106,1.54118928771921,1.56606837537698,1.58383574937086
1.34656683324608,1.28126995943652,1.35590252705581,1.38870996619595,1.39893472686366,1.50096293830076,1.49818282375482,1.59033000124754,1.56830262021177,1.59051002141257,1.57687810359074,1.58926003224535,1.52436858907409,1.52184953366622,1.42904523498635,1.28975000070765,1.31540952484999,1.30019259144873,1.3003559413345,1.35420002649938,1.32767964819922,1.25451997506343,1.27719241253778,1.27802363517347,1.29860982804408,1.30458179396483,1.32528698274623,1.3302597680907,1.36893974409203,1.43075002380645,1.42134231605967,1.46132000000008,1.22125737613954,1.21697781679216,1.22098263253884,1.33764569546198,1.33275893076879,1.35200821477497,1.35508664689415,1.62724001892026,1.61110701059408,1.60965329652239,1.31935562223389,1.21711941721007,1.22626004352285,1.22268343150117,1.24873356057749,1.35568995487485,1.36476868914088,1.53303000000008,1.29127208199089,1.28205645433297,1.29529091975725,1.30460238017786,1.30275477603522,1.3927838980194,1.37882102834226,1.25258999999992,1.36554997183534,1.40546721150484,1.27745543436687,1.22429000901174,1.2652944664012,1.30930037942317,1.35684813726067,1.4856828215575,1.47888736028113,1.56138000000008,1.2601231350517,1.18785906100602,1.21940319540627,1.21937149447473,1.30623282665997,1.30141290853404,1.53809487457036,1.54075999371994,1.59845445791393,1.70396000000008,1.57905792068794,1.54729997734317,1.41804554870631,1.33989797528821,1.34479735370465,1.35320255232055,1.44778466367954,1.45358694746973,1.45453774650211,1.55210000000008,1.26422869834254,1.26468538772368,1.26889652550874,1.31665152308373,1.37347914097182,1.40815998823338,1.3311044105715,1.28838975371334,1.28861540424122,1.28941332834,1.33728662973766,1.34587096673164,1.41359153654028,1.41393191862753,1.41640911447992,1.39630996838781,1.45728679217876,1.50203184778957,1.55523195290819,1.6014771097925,1.6146086588892,1.61226329225783,1.63212599826329,1.66094119244823,1.48086088360485,1.42709001228532,1.48586884624703,1.51283790681395,1.53122461314606,1.56374001041463,1.53556309891307,1.42392597571176,1.44067861750208,1.39348000695784,1.46114073725402,1.46516715524844,1.52715638033794,1.55592532862459,1.61613163642926,1.65427440776142,1.66994168055677,1.88284832962361,1.87294168947013,1.87876666304361,1.65223683542247,1.58328000899822,1.66780905534629,1.66497924362647,1.69085517040445,1.75582346798841,1.73519543639127,1.73314185527097,1.73529772444431,1.68619677038085,1.67232433079552,1.67280285930761,1.69462705088805,1.73062324333897,1.75996066234041,1.89873933000026,1.87848146333802,1.8810043421493,1.77514773499011,1.77301639504823,1.70866522115006,1.65612002079528,1.70104048725785,1.76823014696457,1.78553984581207,1.91186000000008,1.8002478198414,1.6316500023906,1.76597212690996,1.92484000000008,1.62649073837055,1.54063994650266,1.55592972873481,1.5451458120536,1.60044457895043,1.6552350361348,1.63428449497986,1.54575993091946,1.5705090687434,1.53182561662765,1.53456252994525,1.52036993754877,1.56381339015243,1.6086000388532
1.38544270542762,1.37643157850981,1.37860283199302,1.3991538627726,1.40522512225019,1.48116444923025,1.49554895796304,1.5394049503152,1.54400537693466,1.55115849798588,1.55991704081617,1.56054400233028,1.52692930682616,1.52167357032684,1.44695731183901,1.38104021097473,1.34868820730173,1.30022734101463,1.30014971834726,1.3348482455095,1.33183581722678,1.29492488272287,1.2769729372818,1.27729756099912,1.29200443658439,1.30392823671145,1.3146501060515,1.34665360595802,1.36644178476617,1.36750895018938,1.34087294391924,1.29296663641846,1.2195272615262,1.21803311815315,1.21756744391143,1.28976288074182,1.31097223480121,1.34122105782233,1.34186551496815,1.44224429395224,1.44364961204731,1.44512429393444,1.30969749292317,1.22907574195741,1.22927447778036,1.23106799034241,1.24948477090816,1.36905198999259,1.37498347809785,1.42102856709435,1.28527966311323,1.28415804428866,1.29005854006821,1.29672190208116,1.30217572455864,1.35457992857331,1.35428507548115,1.35153734868773,1.34503550267305,1.32705759391185,1.27890355714252,1.26688484590935,1.26711525783843,1.30734489964581,1.36048795505773,1.4618999578467,1.47227800459792,1.4869158893236,1.26283073191742,1.19862126173615,1.22262559445281,1.22278317262075,1.30681551819862,1.35086237082028,1.53881707192996,1.57480684482914,1.61269183635183,1.63196353908632,1.58430674947469,1.50272294320492,1.41719177832552,1.34081452187191,1.34218091346507,1.37783507553369,1.44562718920887,1.44488416361267,1.43654951635615,1.35108576723407,1.26489455751267,1.26533852411661,1.26695898947517,1.32727423179892,1.36910524611022,1.37179622317862,1.33134482221467,1.3157848166221,1.29807068238119,1.29470927025074,1.34141389309737,1.35340337286326,1.41541111636955,1.41646328966052,1.41861582215197,1.42296040408103,1.45468043116944,1.47185031165148,1.55299129424128,1.59955811380541,1.61360773043308,1.62246876018368,1.6325889240393,1.64519698596683,1.48846613330874,1.45296578028537,1.48066395985636,1.49317383651124,1.53138511799668,1.53582301918177,1.53518210727156,1.45505976478161,1.45264724260145,1.44762950864119,1.45842895320731,1.46043322189349,1.52811062191537,1.56363911735608,1.62020319646988,1.67989609907115,1.68497769383386,1.83468326148736,1.83041100875638,1.8270337537565,1.65945718802891,1.62744407063922,1.67025791015812,1.67172160180548,1.68760020867221,1.72846726935334,1.73000492242155,1.73322570155685,1.73691938804789,1.68064795338031,1.67530058148116,1.6743694282896,1.70498436930115,1.74710034481427,1.76980030592126,1.89056933020074,1.87615114139929,1.87495629328646,1.7787395535248,1.76660863539471,1.71058013417101,1.69917933367335,1.69863381158702,1.77745318069157,1.78592267638337,1.79414913032689,1.80059283951866,1.80119374842938,1.80084899346328,1.80031999278344,1.62452193202376,1.56164186750793,1.57261747620934,1.58180725465267,1.60107890627811,1.62055213212716,1.6258032648994,1.59874489701919,1.58290784624046,1.56478828690959,1.53909951917031,1.53948928613069,1.56120559978811,1.57974421060404
1.38910151049645,1.36387322138296,1.38114500503607,1.41608282562684,1.41056254612143,1.45567758164178,1.49288638830091,1.53040864618971,1.53579980802912,1.52243411972665,1.55999348795821,1.56198464440801,1.52966557973264,1.52123672818396,1.47393555132451,1.47498524111119,1.36597771187645,1.29935968826375,1.30010457851732,1.33692720927539,1.33392977807191,1.66722000000008,1.26720808057428,1.18414000539086,1.26713056846675,1.30344700895679,1.30860762285861,1.35961119100934,1.36313516654742,1.36852847314734,1.32299103420869,1.19481744233228,1.19729078201741,1.19929636324939,1.21558816684576,1.25494997137049,1.300337132285,1.32973148927434,1.33677616495536,1.44100644485432,1.44346054061248,1.44707326278903,1.30010591912929,1.22833048648729,1.2301143835136,1.23238670105995,1.25091723275723,1.41520006353423,1.38841976269172,1.52802000000008,1.28028132748878,1.22268000453448,1.27969027988643,1.27915802127318,1.3019904581028,1.35528196784445,1.35454519367839,1.45704000000008,1.33495036125613,1.30096847846041,1.28056361696872,1.20196000014029,1.26970983017449,1.30485192139125,1.36403411570509,1.444033246084,1.46450398582955,1.52406999204768,1.26101217659923,1.17860000821293,1.22486940531853,1.22564608689209,1.30709328646824,1.54341680940233,1.53960637468568,1.65576999668057,1.62474766660579,1.69582999918993,1.58875024562545,1.45297000000992,1.41620891078016,1.29871000494683,1.33358698620566,1.39599747519921,1.44367374881443,1.48323999751838,1.4349943563058,1.2949751787288,1.26610416060802,1.26666163906076,1.26625724315428,1.34712349225897,1.36444817504941,1.40868998886873,1.33200828167447,1.33278965762167,1.30260028653468,1.28967632498528,1.34571574154484,1.35978576177709,1.42962305512494,1.64720000000008,1.4661874426452,1.43019976603132,1.45273614151231,1.45130811656098,1.55117553370556,1.59760747436844,1.61333161183614,1.71248002111152,1.7024681089577,1.71248003803821,1.49525205280765,1.42982999289238,1.47258398709619,1.47113362377054,1.5311827945324,1.54901003210456,1.53352591677985,1.45758699307128,1.45486263624206,1.44141920929839,1.45423489697334,1.44885204816083,1.5287364918527,1.57192269553432,1.62437265695774,1.68931993026062,1.69872174811041,1.84066709686522,1.83221616872567,1.82771675983841,1.66737945817346,1.58812001245434,1.67079092494866,1.67961991252167,1.68509941467951,1.72766361977368,1.7286403367174,1.75793007934054,1.74239097456716,1.67390024774413,1.6748000969289,1.67471294861782,1.71780901258617,1.75013288064737,1.77768311325107,1.90520911012507,1.87559234212663,1.87103569901082,1.78279507075246,1.74116334329273,1.71200560620814,1.66769994448173,1.69689239000911,1.80443000000008,1.74633314594875,1.64252001189337,1.80523128293613,1.96247000000008,1.88075843214097,1.85526502256767,1.62413920092303,1.55045118981498,1.58281913546433,1.5941395978252,1.60204123667904,1.61345050449959,1.63102019162926,1.67325001902194,1.59556255546594,1.57620969252889,1.53995437588645,1.54079669770518,1.55883332807761,1.64287999795728
1.39449366350998,1.38003279072661,1.38520963253835,1.4049607339451,1.4061554478643,1.47174988908296,1.4899340302663,1.50942036895535,1.54401285977795,1.55104603521228,1.55892791498299,1.55820726072956,1.53263591719187,1.50552190629986,1.47292977328891,1.46400518347174,1.38393937631893,1.28936101955696,1.28238218082354,1.27844793426646,1.27017301759985,1.25861217521273,1.2522289955966,1.22978107191026,1.24744493243626,1.27016656266305,1.29554399061563,1.3369435195822,1.34378995738838,1.35278773707055,1.30375905508794,1.22820578669599,1.19642941440505,1.1975698901278,1.21494694504818,1.26303408749236,1.26425450044583,1.26595420347808,1.2675498388421,1.26886669437467,1.27015248106181,1.27176027535509,1.2736188425297,1.27535489795899,1.25460491603668,1.24537693483999,1.25296908236928,1.34441143778386,1.37280718779315,1.40533816946255,1.27628117456752,1.25950223281141,1.27987511484566,1.28912193051514,1.30215444593366,1.33197917114116,1.35464101998142,1.38700359708534,1.32457598940102,1.29465660794728,1.28146297367301,1.27281717837587,1.27273759844243,1.34217996237135,1.36791480975019,1.4471536890975,1.45722062183315,1.48292318773837,1.25797002675903,1.2297642930444,1.22925158633985,1.22767487036518,1.30671562784036,1.53090062018053,1.53669813943463,1.57863333887578,1.61099423223093,1.63419580966958,1.59241326860885,1.50388845202304,1.41503154748559,1.3281317363506,1.32976778448137,1.41074247164121,1.44064163160495,1.44021194424305,1.43228201544539,1.28332595651301,1.26776361996244,1.26674723136231,1.26640239653344,1.34725184660673,1.35927794556482,1.37023320612506,1.32214959100595,1.3189047770907,1.30884221751716,1.30999190911429,1.34993579100929,1.39671517594956,1.43571775827537,1.52325353753866,1.47599201142196,1.4624068278061,1.47683319371486,1.50276819850231,1.54999241947693,1.6034392544168,1.61340353976601,1.66916727655919,1.69927302996481,1.70260479724199,1.50166438920472,1.44880021367507,1.47381372797514,1.47352678207713,1.53026380645887,1.5299325096793,1.5310318694024,1.47667335529745,1.47287293759169,1.46876785755352,1.46399820643427,1.45829593605345,1.5291063051348,1.59871852319742,1.62833576965768,1.70462491806374,1.71322625653491,1.83714604779716,1.83420117809504,1.82649221214763,1.67408153804269,1.62590499376624,1.66930496391694,1.68277040267282,1.68406492258278,1.72227220676126,1.72295478363629,1.74916432989297,1.74745681303561,1.68729459584766,1.70304880183757,1.71770016714638,1.72620668999971,1.7752886109825,1.78808456277549,1.87709533940321,1.87435974154767,1.87309388640263,1.78750336483416,1.73658120946103,1.71253602476404,1.69531236110729,1.69551264380899,1.72571939227073,1.73813978453749,1.74980059246199,1.80810790187586,1.90905413384676,1.89226535724709,1.86000001757716,1.62538969471032,1.58900273306249,1.58975198832037,1.59591767806473,1.60336801021983,1.62001128755129,1.63560788821277,1.65001209049605,1.61349712380123,1.5988944774337,1.54085353943903,1.54036198217258,1.55693389545385,1.57273456593266
1.39958904846049,1.37683280745759,1.39408810104148,1.39776458194478,1.40414771490852,1.48557324005282,1.48675744686082,1.48565379388862,1.55829706311437,1.59381771502617,1.56064007267729,1.55603291210704,1.53565934185182,1.48217005784362,1.47204225612978,1.45001294408018,1.40491884627083,1.26817926346248,1.27893504475849,1.21513000501255,1.24483182879609,1.23929383027816,1.23323917375478,1.18795053002851,1.21653216381699,1.22744755162008,1.28277234932176,1.32706269013042,1.33479750890007,1.42802000000335,1.28527556314314,1.25003009004084,1.19585789992632,1.19790825712883,1.21524358048297,1.32666999392367,1.26443946766781,1.22044000414783,1.26424919859972,1.23699000822622,1.26756292057635,1.23815000420511,1.27280869065088,1.36781000013882,1.25984359672822,1.23399468839442,1.25659270723716,1.31053002888937,1.345953974454,1.47431000000008,1.27388523290674,1.23637000368632,1.2796402791652,1.30365531310152,1.30310487373841,1.29861338292658,1.35541518159171,1.43667999299039,1.3150248420422,1.29016256623203,1.28128133470792,1.27224845408569,1.27591589995391,1.38483258242977,1.37254064483981,1.44949846510399,1.45160701529296,1.51167998983283,1.25531307664193,1.22991391362108,1.22976303122641,1.17804000325701,1.31409693281769,1.50958950073093,1.5339055654985,1.54147999614946,1.60009352322259,1.70045000000008,1.59502932466803,1.59697041443086,1.4136536820994,1.27979000476716,1.3284961426513,1.4344750867573,1.43804308033996,1.46159999591138,1.42779734392313,1.2767993757365,1.27059461873175,1.24586001251069,1.26623466203661,1.34678635391264,1.35459413528857,1.40340999190111,1.31422757883579,1.30119413596125,1.30938490251028,1.31212765514093,1.35311969632632,1.43980995558,1.44489351818478,1.65474000000008,1.49143713316229,1.43664998700574,1.48547572352481,1.52091930601204,1.5495152303717,1.60991730401137,1.61385797722527,1.64831507884205,1.69806006328365,1.71288001625592,1.50576378233821,1.43077998282132,1.47489374307923,1.47534711845293,1.52864638335956,1.52790385366841,1.52911958244223,1.48044247901042,1.48036955274275,1.48103109775401,1.46835560777552,1.45044267671073,1.52925790312855,1.6352658066122,1.63593034106322,1.71249694083448,1.72594698296011,1.84708514724693,1.83316206376817,1.82453499700817,1.68215773516045,1.5747100084737,1.66632939649379,1.68579984361847,1.68444634235359,1.70458289238798,1.7183369685117,1.76873998985399,1.74995496629796,1.66768996285647,1.71546881685529,1.72789915309229,1.73711927373704,1.78616784832892,1.79795744818685,1.8815253889758,1.87221439381085,1.87436084888536,1.79225237051716,1.71096848333852,1.71199067438866,1.69527535699495,1.69534415648731,1.69384458907971,1.7216630096278,1.90869000000008,1.80944066508666,2.06984000000008,1.89441158904661,1.86587861514447,1.62799764348841,1.58810076347992,1.5900784211109,1.59710629400356,1.60516305642973,1.6428681917281,1.63772721276934,1.6750600001201,1.63101801558872,1.65999002214089,1.54321713022246,1.51997000912136,1.55551120081885,1.5848650791134
1.40552645778582,1.38907206166158,1.39930750849187,1.40005133173431,1.40377864932796,1.48568341136059,1.48599832101644,1.53578724743506,1.56689573049696,1.57658401039835,1.56510915341273,1.56071579968766,1.53849311684112,1.50935619856176,1.47125779361922,1.4641233197269,1.42957406802646,1.34431048438375,1.29055354289471,1.28633590869168,1.248768249645,1.24509241117428,1.2295015589369,1.19968950785921,1.21044235038273,1.21653059978143,1.26851862140344,1.30770110025462,1.31553375915688,1.36134483905123,1.26764576482734,1.22585324128667,1.19477775905368,1.19553947835154,1.21547488109858,1.24214257404509,1.26356616064857,1.26421728248727,1.26468371129002,1.26593114196394,1.26769610011857,1.26980654469594,1.27191008895661,1.27286688031911,1.26439927938374,1.26395818340899,1.26330254807054,1.27343035955084,1.27182213706891,1.2696821848629,1.26822883530337,1.26420796205266,1.27911307917906,1.28775153517136,1.30536048333381,1.33687396650221,1.3574412364796,1.3868850220157,1.30629086100565,1.28723346628722,1.27927934861407,1.27647815654475,1.2791454962511,1.35064301817859,1.36744888348409,1.44371806136471,1.44610103289777,1.47441834980094,1.25376503961808,1.24908920784586,1.26061176178848,1.26773888511948,1.32327301900264,1.51134382691236,1.53111907151178,1.57008970877437,1.59753117676787,1.59701364332879,1.58088320839841,1.57312002460288,1.41206617159216,1.31427005081513,1.32735204425058,1.36388654621943,1.38758130778289,1.41463662316817,1.42158064131861,1.33781048328504,1.26767334410874,1.26514358959508,1.26587870708225,1.31454250054161,1.31092238824259,1.30796061932194,1.30530689740746,1.30280754126553,1.30769453709854,1.32978227128787,1.35626108122861,1.40533730889069,1.46273680008354,1.54377950017303,1.50012557685975,1.48506165284102,1.49289689310147,1.53144832098293,1.54974437985882,1.61405563686089,1.61469449184379,1.66562985535941,1.68939921793887,1.6884486880744,1.50546986674944,1.46560279045734,1.48078520704997,1.48407309425172,1.52654752427771,1.52685248437115,1.52698696088154,1.4902145841666,1.48822735750088,1.48391979711536,1.48743285388064,1.48879810399119,1.52918431770717,1.63125197383759,1.63658877742347,1.71332521390762,1.74231385794114,1.8386136755669,1.83322242989087,1.82814215568861,1.68918839026751,1.61963327975321,1.66254892870539,1.67651757482153,1.67768680439607,1.69998552565133,1.71250630594685,1.75301065679129,1.75193835259479,1.7210879488318,1.72202805480243,1.72460305705559,1.74576748840827,1.77951488381495,1.81171525795197,1.86732873539919,1.86771130276578,1.86696739632391,1.79631282166161,1.74607070702411,1.71694211575762,1.69963631546032,1.69711234197735,1.69511204347311,1.60600105395923,1.60600105395927,1.60600105395923,1.91916284950551,1.90472168553525,1.87823926831159,1.63141617893575,1.59024029861442,1.59187223263008,1.59484258594009,1.60730668553106,1.60800599641857,1.60761455107214,1.6069761467627,1.59889836358618,1.59181993751702,1.54637745243187,1.54630935054165,1.5540575135258,1.55366430127594
1.41167952431167,1.38121255517391,1.40330966601046,1.40896518988152,1.40655695482464,1.48583634724121,1.48573831144266,1.60422228344082,1.60157578901711,1.67928999609945,1.65136570292516,1.66418002650712,1.54101932369719,1.53840769376752,1.47058458518293,1.47048049770868,1.4697606822809,1.49470353732859,1.31056463896616,1.31930867576555,1.2599739523145,1.2753153603123,1.22182954920424,1.1742594880999,1.18211613776809,1.15986000369558,1.25361504298986,1.28813999770329,1.30216981758515,1.42621999962016,1.25213224455484,1.20127006878294,1.18909052665534,1.13273998706861,1.16958695685221,1.17027076330736,1.26113083435024,1.48087999337944,1.44493609321319,1.51454999822452,1.3914665053095,1.47889000000008,1.29506494405954,1.25702291577062,1.26517497628568,1.26648294204001,1.26821042088233,1.27591598627871,1.27320792659377,1.27005032226998,1.26849399202424,1.24089998097023,1.27850917493804,1.27769710248343,1.30849841620729,1.36387991011106,1.36023398369052,1.47157000000008,1.29784798823471,1.21765376785001,1.25145087050811,1.26290836233513,1.28207995928592,1.32845152845605,1.36291943925206,1.43871953079223,1.44333796058411,1.51299999342885,1.25372457895987,1.23579052848617,1.26690257727978,1.28160296623946,1.3320177834282,1.51286558214708,1.52837974099654,1.59837567332543,1.59749835386347,1.59634201529595,1.57301167905146,1.56105078485196,1.41023422134685,1.27273000889687,1.30980566403046,1.30050627270484,1.37866635068121,1.40522189283588,1.4238889559203,1.56983000000008,1.26541799997237,1.23412998690393,1.26636119128518,1.31866256407822,1.30750040266339,1.2818298813138,1.29874689795586,1.30178126174347,1.30718616381286,1.34982990539276,1.35902504862578,1.36818056546562,1.47943323662831,1.66117000000008,1.50971530471487,1.45015000826779,1.49615062470433,1.54761198623844,1.55061910054561,1.61775431849993,1.61599973779699,1.66963907092595,1.68962426503967,1.68770697356944,1.50499184945052,1.45243658670278,1.48244037119284,1.49836795861983,1.52380965536176,1.60225000032529,1.52426629912535,1.49352404053001,1.49024944836233,1.47881116322727,1.48892256581893,1.48993856382131,1.52883291851423,1.62691316923829,1.63688682115863,1.7142966019205,1.75753856082482,1.85826668131803,1.83232069475105,1.83119453300475,1.69491534758768,1.55213000026015,1.65848010583284,1.65647670827562,1.67415706636026,1.69576832063891,1.70692121139215,1.75963595916863,1.75221291947576,1.72056157578012,1.72099381629895,1.6815700215718,1.74715054852501,1.75091362897113,1.82274732539978,1.86705869466726,1.86696932681594,1.86603192099666,1.79924994749029,1.75992293639416,1.71987234577939,1.70345607310798,1.69993378938094,1.80627000000008,1.60600105395927,0.00435983999879205,1.60600105395927,1.92105526114048,1.90778391073725,1.87985164945092,1.63497632245835,1.57759340310686,1.57840534960083,1.57880337679408,1.60861582370525,1.60952109705155,1.60805506713896,1.60704008846853,1.59749288675883,1.55283365200378,1.54990397102649,1.53990056955857,1.55363659089374,1.553341645655
1.42063789605356,1.4160640825422,1.40985937616462,1.40934524848215,1.4079361901683,1.47147177391903,1.47621369318164,1.59706661272782,1.59865437357633,1.63483493050894,1.62954545130766,1.6275256979429,1.54333577377131,1.5042753269255,1.47057139444906,1.47065108019589,1.4703308940547,1.48373921505027,1.30335455380529,1.29944309692246,1.24654828742645,1.245230226781,1.2135815575165,1.191184221523,1.19117552782125,1.19556368964801,1.23806287520476,1.27536570829046,1.29213998985237,1.31642379809676,1.23692880950552,1.18514489159167,1.17083955502545,1.15427785478876,1.1691091676412,1.21868225876269,1.25921980862815,1.41303936264277,1.42538223252485,1.45526016865874,1.36151009222858,1.33469300106944,1.29576119009491,1.29244060559139,1.29023464254407,1.2813192571481,1.27977350021174,1.279362553257,1.2797555178265,1.28048701226235,1.28137683222449,1.2832450542665,1.2852243336154,1.28573107889827,1.31266339973276,1.35275811646575,1.35598637280614,1.36742099650862,1.28947697208826,1.23191100453501,1.24444699226465,1.25147305795487,1.28434227376894,1.33254583944781,1.35885130891656,1.43116995239555,1.43424576837645,1.46082956327035,1.25520567567248,1.25551760148326,1.2722108785747,1.28887177078837,1.3439425265463,1.51450968145367,1.52558409536354,1.52538221363243,1.52730566616439,1.52997818188126,1.53424005140996,1.54083530693184,1.40811542208847,1.296716176196,1.31819078343594,1.32232733728287,1.36365649463894,1.37924082053428,1.43362680948984,1.45149267583355,1.26345360927321,1.25274050671988,1.26667204292682,1.2869613902674,1.29032866563651,1.29274207250622,1.29579673553935,1.29886898778908,1.30742462207734,1.33713908370426,1.36196295263196,1.41468307941442,1.494087136261,1.56020521676237,1.51936275487321,1.49544480924194,1.49589567633969,1.55115763840357,1.55177787518872,1.59388770607313,1.61596412651468,1.67841720282479,1.69107028732387,1.69039740880918,1.50415481304137,1.48128253569436,1.48439121842859,1.49963264395544,1.52137966102122,1.52036719660771,1.52081404177395,1.50527144069352,1.49820088481924,1.49377568228604,1.49276149022429,1.51508767948037,1.52818693828058,1.58215401416428,1.63742313755507,1.74261340764594,1.77193017347904,1.83444160648286,1.8332206236097,1.82955730390851,1.69769754913767,1.6858696308165,1.65651170079149,1.65632473184176,1.6724640324317,1.68434295585133,1.70336324584983,1.7609962380807,1.76172969819039,1.7625898586054,1.76375238960155,1.76530942530855,1.76634303053983,1.78655689339028,1.82886121552566,1.86672579128515,1.86707737182035,1.86508896837761,1.80084491811299,1.75152989536206,1.72389956954275,1.70135598850016,1.70053438716927,1.70109840934362,1.60600105395923,1.60600105395927,1.60600105395923,1.91432271367584,1.9107594190228,1.87990582270876,1.63807943018064,1.57826559049236,1.57856715132932,1.57874997688609,1.60941079951657,1.60901783424964,1.6084091104811,1.60772052540813,1.5921633328306,1.5505629068385,1.55046493524206,1.55160198095585,1.55364380696946,1.553347797913
1.42560392799966,1.53960000000008,1.41034719437299,1.4099436596827,1.40840178257046,1.4587207450542,1.47296880117558,1.59546342003144,1.59716862559274,1.64122167473566,1.62753854453969,1.62665001090536,1.54578794672146,1.26101999999992,1.470660798124,1.47274933811695,1.47076967666903,1.50280241079449,1.29972006050445,1.29402633028971,1.23888149096615,1.22973003716981,1.20604735484215,1.18941851846235,1.18966463771303,1.20125482917808,1.21937781683193,1.25486999714783,1.27120962471401,1.37199999723005,1.22134157550671,1.14151316324159,1.1420064447306,1.13295625588631,1.16908416287313,1.24966587265046,1.25618567610391,1.395239988521,1.41303936290055,1.60310000000008,1.30562481137282,1.2054800045033,1.29839588934929,1.33678724799518,1.30804212529728,1.28375023385051,1.30792421314955,1.35062166223285,1.35241779075909,1.47810000000008,1.28940888006797,1.29075703452475,1.28729334165085,1.28562220814579,1.3175268914962,1.34467309720135,1.35337428598817,1.37707754178789,1.27524481860848,1.18395999748902,1.20424718626346,1.18445999482171,1.28579022306259,1.3362069581828,1.35530214546631,1.41497403916731,1.42740064346236,1.63452000000008,1.25710340269884,1.24829344424205,1.2790422452939,1.29121679786521,1.3565214766622,1.51607738263597,1.52272778298774,1.52209994647213,1.52576683158526,1.52497489790322,1.53130282167917,1.54712122960892,1.40571527173614,1.2672000037279,1.3222492885559,1.33292161927386,1.34300190172163,1.3118300056059,1.44778901585792,1.55013000000008,1.26185479718067,1.23047001262325,1.25907997938954,1.26068618060012,1.28860371730197,1.32578708608346,1.29320169119747,1.29444342194682,1.3081607773482,1.32793697034239,1.36514500031843,1.44279999862743,1.50776020253797,1.67824000000008,1.52907047076006,1.47101000398185,1.49645629723407,1.55402496317543,1.55343186587848,1.57054054661717,1.61605785671714,1.69353428430799,1.69281176737037,1.69396631060695,1.50351302952016,1.4709723087883,1.48705919773008,1.50129050995179,1.51988568074468,1.51869981154761,1.5189917594841,1.59037999583606,1.50207380845378,1.49275381219454,1.49178146691189,1.52929157682816,1.52732259266746,1.52411118309073,1.63839033821735,1.85978000000008,1.83602049878183,1.83673484784912,1.8342821078989,1.79479156921724,1.7955763914862,1.78867033610036,1.65553260696146,1.65651136838618,1.66118988810317,1.66434861880814,1.69962224393187,1.76205928979475,1.76190037168037,1.76223765308248,1.76300548957793,1.76617361651756,1.76694820996452,1.83818406843859,1.85572531088062,1.87446228439223,1.86718275689868,1.83412781344441,1.80147587607218,1.73745987787672,1.72914051803013,1.68430989158744,1.70107693839413,1.70274876891167,1.70129828445717,1.66458998919716,1.69488117038671,1.91600004379768,1.91424149754405,1.88769127358339,1.64055952530888,1.55070064913183,1.56209268697589,1.56448577338078,1.62083445128104,1.63391044102093,1.63884977767107,1.65698349843632,1.58345753239872,1.54852201861758,1.55014457357799,1.55091143690638,1.55585442661635,1.60981998471341
1.37865805117677,1.3860855995664,1.39785582831759,1.4086916621661,1.40800341718532,1.46288384476209,1.47125879139068,1.58446438444069,1.57902603263925,1.57748008384097,1.57086288212082,1.5649378920157,1.54850037402296,1.51158740550329,1.46992396596853,1.46992241609827,1.46887349870876,1.4678615644563,1.28293640011842,1.26437011209354,1.23072054190414,1.21500943083642,1.19941829673239,1.18820615693083,1.18742595814672,1.18466566018876,1.18286138808904,1.18210441008271,1.18143958256577,1.18117750369204,1.18022374290577,1.14174544205029,1.14195448335795,1.14185949183126,1.16945724590737,1.21678106152184,1.23380584787663,1.32020798695349,1.29900558156087,1.28257564574498,1.26543537232157,1.25207446226375,1.30218077539801,1.33546320701927,1.33351266565995,1.32996683259939,1.32583336607631,1.3274358299887,1.35315780542285,1.39223123939129,1.28889172860902,1.28911612851842,1.28879816098803,1.31571669983992,1.32270909046916,1.34277232213381,1.34112228688172,1.29732063634632,1.25873117759625,1.24509323321422,1.20547660196479,1.2059070238263,1.28667919858762,1.32982948986828,1.35135296403599,1.41209216392467,1.39972422765388,1.34869037417585,1.26017866684776,1.26168856573268,1.2967464036594,1.30551361289466,1.36847016936222,1.47603708876522,1.52056128571141,1.52357715843694,1.52510076427897,1.52687233226836,1.53005986131246,1.52621209834251,1.40320258767379,1.40100844398949,1.39928442813071,1.39776087843867,1.39798219281792,1.41674989816464,1.46038911898376,1.48751305245221,1.26087247650815,1.25481294410095,1.25767810577682,1.26775829578097,1.28715915579962,1.31378981695643,1.29074714501352,1.29169890769969,1.30940868784539,1.35054069414157,1.36854554941915,1.47709289467879,1.53485086564634,1.57397123724655,1.53952587791432,1.49963705172644,1.49789110426147,1.54425355213763,1.55394799171022,1.56246474371546,1.616102967854,1.64583955714674,1.68728897598648,1.68978214771831,1.50293706762395,1.48876476105001,1.49076359873884,1.50755219406114,1.51927875250542,1.51818774793309,1.51690292338309,1.51443145645263,1.50590574435496,1.49203023964003,1.49102508744431,1.53314934136368,1.53834769647327,1.58398789416807,1.63962554087711,1.83193369399199,1.83558033333873,1.83518415843297,1.83419739544332,1.83305668668797,1.80249797923718,1.67239498017815,1.65471156263082,1.65617364416229,1.65903237222124,1.66103158357894,1.69595942727604,1.75134082587658,1.75538607654318,1.7592935915245,1.76264389874149,1.76549773503361,1.76832128368761,1.83783048009979,1.86813169365931,1.87032331157292,1.86782594486169,1.86643524006773,1.80148400404886,1.73679991227125,1.73644614301557,1.73575105653376,1.75197554877157,1.76098669716581,1.7672811052124,1.77051376978186,1.7724403638282,1.91263774184748,1.91323258936124,1.91477006040687,1.64258352400806,1.56000269460436,1.56044503020041,1.57493328463043,1.62726029308729,1.63900868943327,1.64258268437595,1.64941406785523,1.57530789140569,1.56523231757238,1.56411710154349,1.56333311889566,1.56212932698144,1.57707505427709
1.37992823161694,1.37884486436486,1.39429335225817,1.40834018074982,1.40777488398156,1.46694358207368,1.46930513767491,1.61216055687096,1.57674163060253,1.57399910836435,1.56814865597774,1.55390562844364,1.55116802183111,1.5898299945367,1.46947534349875,1.46970954223919,1.46837845436754,1.46694019847636,1.27162188044381,1.20893822184924,1.20865456641931,1.20269355746109,1.1942902077206,1.15357400270686,1.17316197656436,1.17833137777954,1.1803909133446,1.18254897584426,1.18171617335068,1.18273441907239,1.18047393226971,1.14138466944996,1.14163509967619,1.1411724118595,1.16983996568621,1.18351017437654,1.22364418578711,1.34697000121763,1.27210844897397,1.18999000616192,1.24519253001041,1.19177000361082,1.30593785049542,1.33604553205953,1.33481573852535,1.35135008818458,1.32199042269195,1.31370495685937,1.35246710255543,1.49838000000008,1.28964171971433,1.26029001128619,1.2899900188157,1.33209793572223,1.32907880365204,1.42111999807043,1.33958773450129,1.2160437755704,1.24785282390536,1.27291007150497,1.2059028690699,1.20713013022957,1.2874567610788,1.32393533258631,1.34703248354408,1.43319999426394,1.39419094799863,1.26397025347775,1.26247785032439,1.26360998464784,1.30986479054842,1.32581009673458,1.37887504344131,1.44364000877315,1.5183150798003,1.56579569048394,1.54753047068285,1.56237202430489,1.53349742283502,1.50225989751686,1.40201803688866,1.40064185250054,1.39814303682046,1.39518524904659,1.3971978048903,1.54530146842719,1.5449782655751,1.54369885325126,1.26062745369902,1.24376762778195,1.25591058479649,1.27881987805626,1.28555877030164,1.34731998298014,1.28784018659206,1.27848838059201,1.31096792519432,1.37725703651056,1.37272240892,1.65149681692102,1.65288023727136,1.65007792087821,1.55124216931845,1.5029157788604,1.49902007076967,1.53466233407539,1.55377244658011,1.55476438291777,1.61586733040251,1.62106992113634,1.68264633592229,1.69157506962062,1.50255915682142,1.47835293302006,1.49394361887916,1.52751309527373,1.52312819571247,1.54246672649276,1.51846521034409,1.51350319050305,1.50911922013693,1.49284330889007,1.49100877013512,1.53807831471684,1.54823401246952,1.61712172018083,1.6410235459926,1.79385631442439,1.83617811814056,1.84974636661498,1.83465157754657,1.83504731136069,1.8072351311842,1.61242358583643,1.61264838318733,1.52907999996864,1.61323898471487,1.5966399314842,1.69214953639784,1.7462184554275,1.72010463476662,1.67232178050094,1.7359880451999,1.7426651810587,1.77149892303797,1.8015254529108,1.87585260609882,1.93435000000008,1.87113326252727,1.87274461066313,1.8006077555901,1.71903639375258,1.73589503125741,1.73557056989437,1.76287838850322,1.7633532528458,1.78729844634777,2.06146000000008,2.0188808033973,2.01768000000008,1.95393772008689,1.92029476053994,1.64425324359037,1.52560000678213,1.55972741463785,1.59179121244526,1.63116139723648,1.70589999623097,1.66461658019766,1.70245999521706,1.57025901041771,1.56611187839943,1.56456072059418,1.56372038295264,1.56257574749421,1.59518211535279
1.38135477053676,1.38262703312084,1.38710001977029,1.38994398520142,1.39096329953526,1.39071025224383,1.3898536855712,1.38847007697772,1.38609838320918,1.38414458243916,1.4092345778747,1.55004301799159,1.54612811277248,1.53955142360389,1.46011013196828,1.45720052044031,1.31430171600547,1.28184361437391,1.2491607699242,1.20871261117732,1.20775837195489,1.20532683304198,1.18856854336301,1.16208599097492,1.16937921249453,1.17295124565054,1.17882374861889,1.18047824384574,1.18067746330028,1.180667362237,1.17975826701058,1.17683089372888,1.17142793462793,1.16244634310782,1.170366473144,1.17630705008366,1.18842250412175,1.18865644855542,1.19976910385051,1.20078570408053,1.26774061791351,1.28858648708048,1.30978388835369,1.31308718145781,1.31573256005678,1.31751831584083,1.31862824639638,1.31654301205693,1.35077762125301,1.35011520110625,1.29200521300176,1.29445524461113,1.29234757582087,1.31616547283162,1.32917570139683,1.36265288466333,1.33731181561905,1.22060445723605,1.22009211205765,1.21379880251834,1.20573475594358,1.20622774925458,1.28842078307215,1.32691993953423,1.34302988004175,1.35776161397878,1.39281583514171,1.38782374926728,1.3786596292719,1.36754073215684,1.38147849388603,1.38571184219569,1.38911612398196,1.4698668806803,1.51611744748851,1.52844035963351,1.54090254176133,1.53995458899027,1.53772590731027,1.52475697538638,1.40188701038166,1.40101472863561,1.3992354107945,1.39760113154809,1.39774533425653,1.54593885108881,1.54576301292295,1.5448114700859,1.26105982664723,1.25385638545453,1.25423407827817,1.27801927198979,1.28377923868272,1.30892900821757,1.28628601502465,1.28504002947922,1.31260383979129,1.35109309180583,1.37083803782102,1.51126411928442,1.65597736685609,1.65374384359002,1.56375300316992,1.49940278939566,1.49792766447,1.52922489267401,1.55216625776447,1.56203777802126,1.61513415684528,1.6426909393121,1.68080924634708,1.68058481038,1.50276619700751,1.49287790178724,1.49720001606584,1.51686511571157,1.51838916222123,1.53210429684581,1.52373515124873,1.52124672596455,1.51772316304201,1.49146488072006,1.49069278610415,1.52152196037994,1.54993974143892,1.61876153306272,1.64249676315543,1.79938784684428,1.83639261588947,1.84137815699952,1.83660841443398,1.83506008933343,1.80819810092795,1.66687123236332,1.6133889411142,1.61439166670229,1.61396876273167,1.64195159957724,1.68763834798105,1.69867125484862,1.69078989285887,1.68504541131068,1.72611422765282,1.73282691155171,1.77422280635623,1.84321584644027,1.87425696765291,1.87718187262219,1.87218089505812,1.87086140637677,1.80346789630683,1.79165495083125,1.78970613741033,1.76811722660017,1.76789941309753,1.76852212466747,1.7917311065889,2.01841735275701,2.01846960300804,2.01845403636951,1.96512779923933,1.95381128135805,1.64579360847757,1.55893829842271,1.55995200854281,1.57467829151709,1.63276443302925,1.64862586674108,1.64874774469508,1.60120962123725,1.56893702218726,1.56469556583103,1.56391029953608,1.56335698503344,1.56258952035108,1.57566474349384
1.38089152891515,1.20718000085891,1.27037567738981,1.20939000540669,1.23736757187204,1.20502000932953,1.23043526630646,1.2114900048043,1.27839253701206,1.26844064374978,1.37310046853839,1.5732400215182,1.53958302488477,1.52309452641228,1.4544798010954,1.44436447136276,1.2716430544583,1.21078633738285,1.2099702375958,1.20929476603062,1.20848341349372,1.21867259662848,1.18259236311945,1.11607619538566,1.14408159959977,1.14344674500642,1.1762998761757,1.22266021047334,1.22634614889897,1.39520000000008,1.2411999808915,1.18818872434606,1.17688719911381,1.14969279217043,1.17040479007003,1.17086750115562,1.18839789078597,1.18520597086827,1.20078065851062,1.20311442547493,1.2988925847013,1.49622000000008,1.32570696124579,1.29116462280451,1.30472521957898,1.2881489178179,1.31824625688541,1.31660711751104,1.34964897066493,1.35734771038807,1.29349374741254,1.30000869246851,1.29267591883738,1.28839450296706,1.32938637071243,1.42261999845609,1.3342311440382,1.22269090058265,1.22069545019434,1.17389001005006,1.19935887333138,1.17821997728891,1.28955073071979,1.33020738019808,1.33753905927705,1.2601400002269,1.39590549583373,1.52524000000008,1.39715362065847,1.35573750366761,1.38564842766113,1.4172606069892,1.41341248004277,1.51325710952273,1.51416991283168,1.51328666883863,1.5411692697123,1.54079487392901,1.53944063498236,1.55279885410296,1.38951898206606,1.32399506244879,1.32118318978473,1.3024899599394,1.36423290477555,1.54656698907788,1.54710140147886,1.54868444280086,1.26195473061584,1.25124054154227,1.2531686023681,1.27754338913828,1.28202519817268,1.32472385978111,1.28333496549605,1.28101251832012,1.31407621657861,1.33101555749992,1.36966827280937,1.46181000020384,1.65941483495322,1.65826556071437,1.57558209470181,1.44527000426598,1.48484781730784,1.46042998363542,1.54989970103988,1.56831983849002,1.61377950697595,1.65591925014769,1.68032824451076,1.76845000000008,1.50384283134862,1.48198483692996,1.50135600766845,1.51695951646557,1.51635363286203,1.55166097840445,1.53689057002223,1.53776618948562,1.52739711890822,1.49131252056048,1.49049451040787,1.48922340146338,1.55033771623192,1.62030919350187,1.6439353183905,1.80450870643424,1.83403253809951,1.87260659967903,1.86973463383101,1.87940950613637,1.8068105566971,1.78792709057932,1.61401456083273,1.61645397557869,1.61501265792775,1.65042358810737,1.68259476800191,1.71131385307453,1.68544594843934,1.67332799139708,1.71348951372479,1.71713474664346,1.77615157048985,1.8726837332083,1.87368280105234,1.88317258249405,1.89709283821562,1.91822073876458,1.80716804182024,1.79517339301506,1.79179750476825,1.77000283075002,1.76913260624355,1.77096128931123,1.79937422732871,2.07197000000008,2.01804394042476,2.07009000000008,1.97860984805533,2.01383000000008,1.64727462021207,1.55156968977128,1.56109378105058,1.56260314100891,1.63790496963944,1.6482416964504,1.64876620456007,1.54837905411954,1.54585284295423,1.47002000584405,1.52918710541814,1.54117566513362,1.55942459211941,1.61826999412915
1.39714405251561,1.33279428084877,1.29887158254594,1.27171366297532,1.25773110139433,1.24293880470487,1.25247124384501,1.25828670510149,1.2802287590022,1.28051296232199,1.28127576011018,1.28257237370796,1.28464946515774,1.28560550746733,1.28381665070758,1.26298219974037,1.23875249561144,1.2098643714005,1.20850618495561,1.20656448715616,1.20421326242754,1.20132244205489,1.17768900876392,1.12398188851359,1.14359844238733,1.14305432720843,1.17406915362705,1.22161068589664,1.23141361612405,1.29820359402593,1.27133259210723,1.24178636164427,1.20046534703344,1.18997593833277,1.19123361135256,1.19209017524708,1.19218646759639,1.23335257622556,1.24085473689921,1.28994629658106,1.331033510568,1.39068783844763,1.32997061723265,1.32703811241436,1.32076313954285,1.32032424441932,1.32025247426896,1.32691418918947,1.34823958197414,1.34847098776156,1.29033872721478,1.29235829435206,1.29235329665988,1.29053553382871,1.32873007030944,1.32839942931147,1.33057197223863,1.28197273920407,1.24102883983302,1.19821813544737,1.21155951220169,1.22146699456849,1.29059270417785,1.33228114099139,1.35299770005404,1.38530093919553,1.42333665254943,1.45176427939535,1.4260452769933,1.4104726776949,1.39995353285202,1.40420061603757,1.40918514894894,1.43344838694419,1.49352194794682,1.52710067624278,1.54144045033367,1.54122377830836,1.53299724570671,1.51780011557796,1.38736826799025,1.32108338574389,1.31828175693653,1.3119774300078,1.35057830740897,1.41809415979964,1.38921225832422,1.32147167058489,1.263033921469,1.25164545712754,1.25225435861978,1.26966395752072,1.2803292811307,1.28035246389841,1.28109787468452,1.28215056681052,1.31514462882084,1.32678611459321,1.36867077304845,1.51124732992349,1.66168531867964,1.66154784034177,1.58498347718552,1.4970697976875,1.49761963050778,1.49798711897039,1.54689621615911,1.55650670745623,1.61181348244279,1.62801595806452,1.67983428582524,1.67892993144627,1.50588901797105,1.50723039085034,1.50654672812993,1.51136452951105,1.51424796180997,1.53693834920232,1.53628559616223,1.53570046511603,1.53345300327316,1.53179110400343,1.53118701079403,1.53180125521533,1.55120102160711,1.62346975981017,1.64522485887788,1.80841690729861,1.83309184084741,1.86356593200786,1.86681358196721,1.87183837377622,1.81426541211923,1.65534602956429,1.6131347793948,1.61413847864087,1.61486093427783,1.65452794830866,1.67671113318927,1.67946959264274,1.68259715170047,1.68305127828598,1.70446165461625,1.70791535303407,1.77745792892137,1.85493878750074,1.87370160461353,1.88114514745697,1.90449632315977,1.91040591685141,1.80804068393735,1.80791183538425,1.79219792172681,1.78895002520621,1.78376080961894,1.78065763347637,1.80823089035888,2.01732233682119,2.01764562662644,2.01779918365462,1.82913867390973,1.68459744964702,1.64891825725264,1.64851130371136,1.6479332850015,1.6473623090236,1.64763024327103,1.6487050309316,1.64892409235151,1.59518909243374,1.54348379747513,1.49368468241903,1.52104807652144,1.5297627195593,1.55595697466008,1.55834841245634
1.46282791626114,1.46456914914127,1.30468211137288,1.28420372235306,1.2698090891378,1.22920244875323,1.25824299219036,1.27208858722174,1.28851992451708,1.72580000000008,1.28243073040583,1.26117000726589,1.28532779103469,1.22456000720861,1.26595926116409,1.17517000781726,1.20803421713093,1.15796005896971,1.16063641198122,1.12596000530461,1.18994326089245,1.19795293281381,1.17153289760631,1.10899943651135,1.14255042656936,1.14145213420303,1.17197063489353,1.22055558361687,1.2398935057388,1.34883716532348,1.35176368743989,1.47336000000008,1.21579568198307,1.18799620885341,1.19050647292187,1.19775702655322,1.19487448137664,1.27318225716648,1.27706242015979,1.57174999635277,1.54283695091477,1.541993036703,1.34511200411544,1.34599481477716,1.32084782581401,1.32003011842843,1.3213818878785,1.4242799990251,1.3467556641147,1.34834846957518,1.28616002101333,1.27502179556603,1.28581312754836,1.28186408902101,1.32761493384289,1.32534022367672,1.32874098522046,1.3301357621553,1.244901192779,1.1831599596381,1.22163539667509,1.23724661014264,1.29129248487999,1.33433648241696,1.37458482333486,1.49944122448806,1.49902442999126,1.49780109355659,1.47510210535308,1.46373953913053,1.39493940541244,1.30281000421622,1.35736519576327,1.36988362182445,1.4856876840009,1.59496999505988,1.5525534100934,1.57945001552303,1.52727839814179,1.49607369376351,1.38490718645924,1.29149394514346,1.29103662462946,1.25126997406058,1.33248621646372,1.54025000000008,1.36426515985954,1.26485324367,1.26407694989844,1.21698995127435,1.23452190440055,1.23689695152357,1.27902894576192,1.27828184251721,1.28122647615586,1.28398988724998,1.31578218082164,1.32284920493557,1.36776474478927,1.64806743379627,1.66167698307045,1.69674001049883,1.59339855214196,1.49607330002522,1.49730951769665,1.49791907336951,1.54375090884429,1.54391385626917,1.60934942517036,1.60419686059356,1.67814102080506,1.74805000000008,1.50747050482404,1.50961425195832,1.50654389112003,1.50283939909246,1.50623387889754,1.49953748284103,1.55418560558073,1.57220570082147,1.5728193007528,1.57393704001349,1.55566648834035,1.53330746587306,1.55241148479337,1.62627069343586,1.64623569901959,1.81023471837333,1.83547738281978,1.86210527996112,1.86345008905777,1.87587643470379,1.82055684970392,1.5613200056858,1.59056052361368,1.56386001203491,1.61537392159157,1.65923950414708,1.66991433839059,1.66010827294595,1.68275564206775,1.68442588924299,1.69201359620671,1.69271741152934,1.77829280750054,1.8092397481473,1.87363219936852,1.87985287814634,1.92843871440868,1.95248880846142,1.80944939640024,1.81313798720825,1.79549730876529,1.8016147842973,1.78702371736652,1.77743819154682,1.81812905955985,2.07021000000008,2.01750698031095,2.04940000000008,1.82972987535666,1.63415148890148,1.65117097311174,1.65393243266343,1.64828115580631,1.64530805684507,1.6474405701572,1.64781944774283,1.64969329891823,1.70424999680989,1.54128097596639,1.46798001078502,1.51070458835157,1.50682862610994,1.55234920671264,1.55890399512614
1.46088435442213,1.38339058284691,1.31940939998381,1.31544168906523,1.31219813313736,1.30687577347013,1.30171940078572,1.29727386564809,1.2942709720175,1.28943558636974,1.28540586138004,1.28525904607763,1.28542869111763,1.28557120845074,1.28417875122524,1.25443070686918,1.22518099484495,1.16076770031815,1.16466775146425,1.17433835513889,1.1845756135003,1.17116105860059,1.16458531308338,1.11806397557308,1.14160010565108,1.14055385686716,1.1700598068894,1.24408765631499,1.24774719808486,1.29852116228637,1.3544509253166,1.35483900175029,1.22521289236344,1.19010675683932,1.19180644032603,1.19396272817494,1.19497348723098,1.23761879730142,1.28087096118057,1.54681358852725,1.5439404130325,1.54308516620742,1.34501118137177,1.32872961102355,1.32110671032809,1.32090505779439,1.32385191210519,1.33742541612261,1.34200192131934,1.34504341880941,1.28443095748249,1.2818181159195,1.28750286547086,1.29294494899618,1.32795931642359,1.32749799280602,1.32862984242905,1.32942555069372,1.26884548187075,1.26782010232307,1.26631315407837,1.26485456053399,1.29158155419345,1.36772238547379,1.39713787259378,1.49948612744538,1.49968999374501,1.48457083644741,1.47942155649394,1.47509819983941,1.39057717075015,1.33512176989945,1.35181783100105,1.35757635759899,1.47978363799575,1.52410981013111,1.53068484913243,1.54288115654219,1.52129140861262,1.48963348228857,1.38326147993559,1.29081367487967,1.29011690388774,1.2702808943167,1.31998851953313,1.33281021711408,1.34997341971911,1.31329780262076,1.26421954086157,1.23117062601207,1.23265807739972,1.26050716517197,1.27696645116167,1.27766276292616,1.27913834949272,1.2819710459032,1.31623586594662,1.33364914012652,1.36686307657015,1.65627835490518,1.66132961350404,1.68268423816857,1.60788654211119,1.57144523241281,1.53891068271852,1.52691484760645,1.54103006210056,1.56810103011323,1.61181687741779,1.6118080676359,1.6750927922237,1.6744629811541,1.50732575177887,1.50773560873917,1.50660277314515,1.5164756109089,1.52032692611409,1.53783554569581,1.56152646905651,1.57221951652177,1.57262665200233,1.57320755244944,1.56643803568674,1.55450292875284,1.55370272243808,1.63692058179777,1.64682907739306,1.81550489736209,1.83967147984799,1.85470694530385,1.85465635186418,1.85599546541735,1.82308735557118,1.64961776948209,1.59411175421238,1.59004672343082,1.61625884943569,1.66768015411014,1.67148129415757,1.67567303328142,1.68197892199453,1.68279337769912,1.6914622822951,1.69151260796641,1.77854325077066,1.85633674803618,1.86928176243237,1.91982489520042,1.93564817937649,1.94734616706657,1.80840400045786,1.80753732375793,1.79370838217701,1.79204648264145,1.7900640606322,1.81130919596416,1.82042668786328,1.84023103650257,1.83004821293719,1.83088269431571,1.83060579383781,1.69247172389293,1.67626588516809,1.65208494935286,1.64953833698657,1.64607165496415,1.64566201386805,1.64853207255807,1.65060168140043,1.65224870334213,1.53909896898752,1.49228010381895,1.51475828322347,1.51716793595577,1.54775164216361,1.55913293589041
1.45834607282645,1.32520676287498,1.3216776363703,1.31729827665213,1.32041619279576,1.32384166189869,1.30959485401289,1.29878943511945,1.2963228836448,1.27433000580604,1.37745042788128,1.60958000000008,1.43195119862868,1.61718000000008,1.35522517467717,1.46268000000008,1.23777460969991,1.15371996948496,1.209899980461,1.25113951001522,1.19074487975502,1.15313862220914,1.15236461767986,1.10437998541809,1.14031459930085,1.13765194473212,1.16835834942479,1.26581583178788,1.25684328449326,1.27191000462888,1.356474705154,1.37724998916868,1.23010418041249,1.15680320590863,1.16969766300999,1.13969000603163,1.19523763786858,1.19493850674146,1.28439361343953,1.54968407331015,1.5434915088575,1.543699538856,1.34598106463041,1.30616570810328,1.30656693825735,1.30733024005149,1.32659761492425,1.33349718976239,1.33945934253649,1.47416000000008,1.28497155951878,1.25503001292096,1.28733796443698,1.29828399384585,1.32821432862847,1.3883499986831,1.40633807365191,1.52980000000008,1.26855993104692,1.26705819781595,1.26569410654794,1.26303107042471,1.29159201847204,1.4362560031857,1.43632007896512,1.49909584381476,1.50013184904269,1.35587999999953,1.48793247147168,1.51542000000008,1.38580924762145,1.30032000658671,1.34009367743461,1.33610328310645,1.47303831807664,1.51278958527416,1.52410277824825,1.55753587593024,1.52060455322459,1.48477210855301,1.38152321479511,1.29078902080769,1.28773155360449,1.24059000885802,1.30507516080948,1.2739299725177,1.3660642232822,1.52629000000008,1.26411736736394,1.18456000116972,1.23345128624047,1.28725151450859,1.27586490160892,1.27336681496453,1.27671860222923,1.27558374513123,1.31669407587575,1.35377224698651,1.36589550716755,1.66737105010017,1.66335975080776,1.70059001368872,1.65988931162456,1.67020664811007,1.53829596092146,1.45111000000015,1.53973916206152,1.58830546047068,1.61420120081877,1.62004173361278,1.67127992969598,1.74408000000008,1.50554359724286,1.44461000833527,1.50626072807571,1.53234452395148,1.53091500474453,1.54995165466737,1.56612935448583,1.71168999714256,1.62628229252663,1.62446774803261,1.57260556919535,1.55494930682465,1.55407078395663,1.64687261108622,1.6469016773176,1.81912892826539,1.84349794985874,1.85323591285496,1.85455608117155,1.8584431486979,1.82123535793208,1.81617128781821,1.60104639882643,1.56269000935883,1.61737720509256,1.71296467851546,1.71278393105912,1.71091567425069,1.69433603260592,1.66598133781863,1.69094157505093,1.69043605927892,1.77799165122937,1.85839992843069,1.86551011277426,1.94538000000008,1.93873173528883,1.95127896402925,1.80944321238348,1.78594364889565,1.78548536037493,1.75453706065531,1.78509927070407,1.83025975131338,1.8233626671179,2.09630000000008,1.83055113966047,1.69164001769205,1.83097145772621,2.04610000000008,1.69224598692823,1.65101092630108,1.65049700561853,1.62685143429674,1.64157106963399,1.63742070847593,1.65188557794002,1.6536566217833,1.53671410078485,1.47775921713434,1.5157119654743,1.5188559074459,1.54152306920148,1.58648334557715
1.45373076237048,1.38409344722236,1.39099745881017,1.39758234957797,1.40337465123414,1.40801222063632,1.4119008414312,1.41396903463391,1.41469484911679,1.41649316818323,1.42397582734613,1.44361697673456,1.4098474811384,1.35523061499392,1.32450475859457,1.29166642452891,1.25668373488623,1.25572797814746,1.2544196327667,1.25274263532766,1.19600353431031,1.151891200261,1.15200007918765,1.15098101815997,1.14936436899254,1.14458011129173,1.16680131659657,1.24986008180202,1.25026243425099,1.29511573511044,1.35815591826822,1.35909076072619,1.23800663351656,1.23579521546137,1.2262481689599,1.22024454815634,1.20172936631116,1.20212157130142,1.28732454281882,1.42991114557748,1.42931359319499,1.42874447895442,1.34793752138346,1.30617773774265,1.30642166101333,1.30678140235606,1.32882546681946,1.33553761748917,1.3372636555307,1.32726567133599,1.28658058902501,1.28522067178167,1.28476769334231,1.30397456528173,1.33367725090079,1.4063385689571,1.41850540568183,1.45138736233677,1.26884362740093,1.26773900026134,1.26625834092634,1.26478989109239,1.2915505265686,1.33735178894727,1.43563807121138,1.50047000181104,1.50086417555111,1.49793818693805,1.49327104988455,1.41658436693067,1.38114269066056,1.34244330673531,1.34263218491598,1.40026031931217,1.46417119339909,1.48292091982527,1.50328831084744,1.51741932754303,1.51859096249195,1.49814112043505,1.37919886186105,1.28776853807609,1.28367002223856,1.2802679570892,1.32384243085678,1.35619686552374,1.3925165651258,1.42217128200482,1.26350784393113,1.23619714905995,1.23550389671844,1.26515707551146,1.27590729535325,1.27617108576659,1.2768351780028,1.27673142460716,1.31714301792816,1.33811272833491,1.36476587634248,1.66000535451649,1.6611625205191,1.6793278973768,1.65944945861509,1.63588128051809,1.53972076983396,1.54107714821052,1.54028751942218,1.59857207949184,1.61690245900868,1.63317529419193,1.66702914025594,1.66521607664953,1.50315862996266,1.47880456428422,1.50123250718291,1.52462517607202,1.52963648654791,1.56173118657756,1.57270361199347,1.65752319935463,1.62853441551258,1.62355937353316,1.58047084307298,1.55422222253328,1.55446139465047,1.64758435177364,1.64643267866336,1.66447201892715,1.8468844457775,1.85183024103585,1.8533239054922,1.8565092643876,1.7247674211272,1.70647797920441,1.60631154248225,1.60489750481731,1.61871856320771,1.65946399813369,1.71430137476506,1.71285327844027,1.69674777371358,1.69073062264764,1.71413136639899,1.72826606218369,1.776728796071,1.86130745602748,1.86276063985266,1.90946313507401,1.93033463682888,1.93331629408092,1.8124822275355,1.81102815951612,1.78422413369931,1.76283921071811,1.77196565618516,1.78457977402913,1.79667432683879,1.80503226077878,1.83131999038823,1.83246853123112,1.83321972629948,1.83353548242722,1.71184639963273,1.68987872540317,1.65907406491688,1.65178962000415,1.65071341931877,1.65045422970132,1.65126764977109,1.65223061014044,1.5341027358646,1.51561538014301,1.51644449032218,1.51779398678052,1.53518471029064,1.57664816241671
1.44769633891752,1.37545181894123,1.39792204852661,1.46798358905144,1.47139581825141,1.49492223814758,1.47327588581297,1.46544451816472,1.46569054839736,1.46521740295462,1.45022387840141,1.59899000000008,1.41094740098593,1.27745202813477,1.29579794659974,1.15594999999992,1.25673255413074,1.47485000000008,1.25741481219566,1.2625333754621,1.20139640290483,1.15058043286592,1.15291916566814,1.15596850384288,1.15177345237848,1.12674350265266,1.16532946811246,1.23302996251099,1.24312427354463,1.30890999510719,1.35825892198044,1.43012000000008,1.25340211046721,1.25062307663895,1.23830671952767,1.23672395262571,1.202355500477,1.20332031996366,1.28943750980749,1.43057623102717,1.42935908441939,1.42824289770996,1.35102253149062,1.26056244446562,1.26049408941716,1.25715259764239,1.3307539800707,1.46445999964706,1.36112072925849,1.32635616932886,1.28780126802232,1.26632568723281,1.28181947978189,1.32224830704866,1.33455419748954,1.47144999051188,1.43810625991139,1.51190999852485,1.24548129729926,1.18052000904418,1.23658939048322,1.23728022351699,1.29168233184617,1.29262012842806,1.43389613968164,1.52251970133299,1.51767299847168,1.53046225131417,1.49635890117506,1.37293547842785,1.3756936093313,1.31202000719282,1.34490138054977,1.44717377168765,1.45379723434073,1.46210807100403,1.50293603772824,1.51479118321819,1.51744653791645,1.54253999125125,1.37599539162557,1.2513000089754,1.28026899568216,1.27556931415164,1.34574757396277,1.54664000000008,1.48233304869183,1.52309000000008,1.2619429675515,1.23783162825837,1.23782531111884,1.23727924136761,1.28661718682373,1.37612999747087,1.28925009296204,1.26860858379865,1.31722046875929,1.33030666583185,1.36329726126665,1.65891642312232,1.66082465687587,1.72530999839948,1.658775245331,1.61329075086358,1.54130374497569,1.54442445783019,1.54160284110444,1.60563835251885,1.61993348327587,1.67879406099498,1.6645266342738,1.66343986634955,1.49669789517921,1.39234000147172,1.49722117475269,1.5193535187651,1.52855532512989,1.5770799960921,1.58112401970983,1.78330000000008,1.63144766307381,1.6230245751615,1.59105272774183,1.49606000359071,1.55550869787448,1.65448919544859,1.64396776562137,1.5299299999213,1.84872095670806,1.89516265248038,1.86105622275513,1.8596528886099,1.70847480976181,1.68483999929062,1.60964989363087,1.55995000537919,1.62018810943619,1.62233493150619,1.7163472309927,1.80005000000008,1.71426439141208,1.68520577449274,1.72524821160736,1.76336892589529,1.77513544760347,1.86218025951253,1.86074601777571,1.87362918457126,1.92845250723208,1.93869289828084,1.81855280009828,1.82219762694623,1.78213942381259,1.75727554139642,1.74627403399721,1.73063046022851,1.73619431733917,1.68298001042918,1.83092295688158,2.05215661664064,2.05940965921186,2.05900000000008,1.72623522630498,1.70552000049604,1.66002053923048,1.65334851264972,1.66071210147915,1.71686411725832,1.69750825710469,1.7008966104063,1.53198180254772,1.51447196655269,1.51645283614106,1.5177339509819,1.52832470715776,1.69633999455776
1.44214294136808,1.39456787373014,1.41112365892232,1.45885202563873,1.47474957353187,1.48541694349327,1.47932045632839,1.47528760676841,1.47236961184338,1.46883863083829,1.45096864964402,1.41237950775983,1.41296556464798,1.33394575254431,1.30850091831525,1.25655119138526,1.25575520620395,1.25318515480449,1.25180151474327,1.23605286087346,1.20630748266877,1.18466028932579,1.17603145978902,1.16368099832758,1.16218836059762,1.15964398262986,1.16392603915263,1.21202895615847,1.23751421660068,1.3295944317593,1.35780486469897,1.35850049539221,1.25541326314226,1.24084387833624,1.23878905703035,1.23810314951795,1.20252119268323,1.20285565546352,1.29071295000555,1.429945545455,1.42934799428898,1.42877887883136,1.35517627211143,1.30332682335865,1.26149760031479,1.26252568420661,1.33213461426707,1.40029907231082,1.37793261761913,1.30922464393558,1.28685053188184,1.28031435824281,1.27883025475822,1.32816106953727,1.33578647883671,1.44164212323314,1.43204615844278,1.28179326386036,1.24108816465664,1.20937589851229,1.23523491987483,1.23548837466432,1.29218374133793,1.29415842293109,1.43127463289711,1.51501068380907,1.51078784797896,1.5083313804987,1.49774023449321,1.4250822080336,1.37495729675709,1.34690430950866,1.34660570843373,1.40547150302515,1.44767794994329,1.45144963841355,1.50163229837471,1.50261034267381,1.48651111016466,1.47919710450202,1.37213310464687,1.29329073269323,1.31222196627516,1.33918681241861,1.36092094991337,1.48233279660056,1.48013716118047,1.33122450987954,1.25961329250424,1.2392924341578,1.24095493575274,1.24361532027939,1.29340492217729,1.32067477255929,1.29472039825218,1.29080247599866,1.31662564351656,1.32351872209894,1.36129245690742,1.43730587845867,1.66135755771901,1.66665116459584,1.65810346848507,1.61603542685398,1.54086426437801,1.54184305829007,1.54116122228937,1.61066090074922,1.62280957212148,1.66244317481915,1.66316003466458,1.66327569973974,1.48513598413157,1.45305509759837,1.4968478937396,1.50708400423643,1.52899201472931,1.58790297924602,1.59003688349818,1.66861648417908,1.63453629862235,1.62633231832699,1.59829083916826,1.54932816080992,1.55712272801533,1.60039158248433,1.64189404048114,1.64734933888219,1.84964270909552,1.86985716220453,1.86246372507921,1.860067587723,1.70009729553188,1.65843749455689,1.61855307308257,1.6190776843716,1.61947292526211,1.6445975782236,1.71849205370042,1.75335482548923,1.73626322381252,1.73329172608073,1.73286571856915,1.7517643932566,1.77357232548291,1.85404118865045,1.85867449316362,1.86500493254135,1.92617357757331,1.92413776719171,1.8215804616367,1.81677649052275,1.77989512242378,1.74727731128042,1.74326605478298,1.7377133364311,1.73843534471409,1.77601956956543,1.83058679421912,2.05804951838888,2.05987017011901,2.05998287727964,1.74168236954659,1.72418093768299,1.66183405669076,1.66258478947299,1.66170709734578,1.69268516298338,1.69493934565095,1.69746634920627,1.52999482872161,1.51594960417293,1.51684260992482,1.51754838692101,1.52219901456803,1.65043384810545
1.4391356601891,1.3650700046466,1.41901351330983,1.44871483324234,1.47902083197486,1.51093998875498,1.52784501073146,1.57794063717728,1.58697370877023,1.60712762487809,1.45178268320196,1.30009000648876,1.41546993703018,1.53989000000008,1.31881882656382,1.25683690172883,1.25646434049673,1.24723814751779,1.24990269198067,1.21574783028942,1.20899875484797,1.19554028007441,1.18328118841446,1.1654333332837,1.16364606999062,1.15718613480796,1.16260052059226,1.16126678513893,1.23392231175619,1.35408917799296,1.35613052125191,1.4026599946624,1.25668820992163,1.19010651815125,1.21259572107205,1.24251627293489,1.19892633173455,1.16114247186487,1.29128033579535,1.5063036875399,1.50813155215486,1.5116019848881,1.36134047734596,1.3297100533973,1.26244700280315,1.26418881337363,1.3331208967848,1.47826000000008,1.39072404972243,1.24301000399182,1.26680839810552,1.25414000038515,1.27599242644682,1.33352160538743,1.33859050463127,1.46482999493464,1.42326315527458,1.21543447611142,1.2173220464178,1.14996000030391,1.23347088791556,1.23104996636093,1.29320701962992,1.29574077559968,1.42838604028491,1.51864377697391,1.50826607311541,1.50466240169991,1.49759283011192,1.48985559152449,1.3735601018122,1.33484997710305,1.34763783704016,1.36800217550145,1.43364352573319,1.4371055195874,1.4991753017283,1.52662000792476,1.47790068649708,1.46526878477929,1.36761958381665,1.26362000595997,1.32598834908399,1.37474744110122,1.37755185855959,1.56021000000008,1.47419102094263,1.27682618632126,1.25722651753417,1.20163000712471,1.24337856880707,1.24589045193128,1.30173402841004,1.34344332420777,1.30018123918493,1.27821966951611,1.31550509305577,1.31668682923017,1.35921197319345,1.38503999888141,1.65636155081821,1.66768003459234,1.65618274668153,1.61838489745633,1.5403226613879,1.54129749678757,1.5407190177621,1.62963600069094,1.6254513336596,1.66171298091021,1.66243006810572,1.72009000000008,1.47166351844303,1.39518000495452,1.49538215183726,1.49547432559628,1.53048407970627,1.61525000603081,1.60975797620984,1.72718999824548,1.63860689924367,1.64431382030093,1.60108780516045,1.46895999978283,1.55926708887403,1.56178217740012,1.64010680453712,1.84086018975515,1.8492871981307,1.87982559816454,1.87357049768886,1.88041356088843,1.69760786380833,1.62665615026263,1.61963684773456,1.61929862208202,1.6188247566249,1.66604999777716,1.72040375517383,1.77345001533717,1.73957563592494,1.73142517871032,1.7340394434456,1.73662149526031,1.77245863549854,1.81343851308789,1.85711481141214,1.856916685931,1.92499213445033,1.9197442503635,1.82466714488066,1.79024260984274,1.77802120252197,1.72929967350931,1.74183317212062,1.72700423208076,1.74110463452777,2.05643000000008,1.91771861424875,2.05272812079308,2.05932650410782,2.05582479766737,1.7595821050548,1.76788296925208,1.66337960701578,1.66467519707522,1.66288193442538,1.69166081024375,1.69282492471821,1.72437001994235,1.52561102498138,1.46060142749535,1.48378293872065,1.48151876334959,1.51760547963713,1.70854999968648
1.43643600551837,1.41901449300639,1.41862494339862,1.4482825957165,1.48375884116131,1.53058381098032,1.54242437975333,1.58664292291888,1.59026156033248,1.60049956707126,1.45216192932391,1.3435082108691,1.41748235231562,1.41829352436075,1.32726423324444,1.26437348215925,1.26034298349382,1.24851939306759,1.24875970200467,1.2338317625983,1.22175813613037,1.21760420859166,1.20413097439418,1.19287184154144,1.18203395325904,1.17470495855853,1.17692782787594,1.19714864547761,1.23257695697573,1.32673229582224,1.33195639133655,1.34020448044971,1.25952616998935,1.17993855921387,1.17298521125929,1.17005025655021,1.16823804693108,1.16716780254559,1.29205832393214,1.50648137025383,1.50757525663679,1.50907851642212,1.36939529793593,1.30164067584869,1.26235705559975,1.26300198372687,1.33407225095526,1.41722083721234,1.40351170219606,1.35253276119429,1.26912186105002,1.27128653804417,1.27424480722772,1.3411671561492,1.34322040189972,1.40558436764756,1.41537382820083,1.27586317176493,1.21669265355732,1.21329482130899,1.23328257593998,1.23330554816673,1.294802461797,1.33956959605989,1.42516145791935,1.45261655972335,1.49699387483806,1.50058696730103,1.49686942660359,1.49360605426992,1.37216481627542,1.34962879739658,1.34897865288407,1.37485239624564,1.43150274988224,1.4610343360819,1.49551042289975,1.49742642413868,1.46939946407136,1.40617168250503,1.36262136686103,1.32343652175507,1.33087470404692,1.35875627583533,1.38291800631207,1.45842916073431,1.46806818553978,1.33083753716988,1.25454519529098,1.24875085593883,1.25269084567583,1.25477291572165,1.30964711137357,1.32481653873785,1.29914937092865,1.29907711429492,1.31372577294713,1.32525596449328,1.35687911843653,1.44102202534002,1.65076391606721,1.64918232590816,1.65173178673409,1.62944829658049,1.53949109924789,1.54016782309538,1.54014288941514,1.58854211307468,1.60425732628308,1.62717590368138,1.52216902703905,1.49052665158741,1.45501242892574,1.44041613377801,1.49232199365105,1.49341572780454,1.5325971662708,1.59862989081348,1.60389753060586,1.6143040851947,1.62700261805883,1.62722462868526,1.60535301316282,1.60450231626247,1.57598892765565,1.57630762133449,1.63709729891199,1.83438790134818,1.84701927556147,1.86180403074183,1.86759376792367,1.87213273928735,1.69434120013477,1.62326139706136,1.62022302826639,1.61919448699281,1.61821799316169,1.69092579291844,1.72161110252715,1.73715904284973,1.74275671047085,1.74664092055832,1.74938669445312,1.76894917215034,1.77223033238077,1.81538299481867,1.8567027556015,1.85745500875275,1.92668542278982,1.92424516859893,1.82738667031211,1.78614553237712,1.77649545132159,1.77094371689563,1.74743069339511,1.74684207229118,1.74466228051143,1.77723165723372,1.91756954411865,2.05957750974054,2.06131314074227,2.06069850402529,1.75194869907144,1.74826840622268,1.66396725309586,1.66452071031543,1.66332105617182,1.69019242978449,1.68930853721657,1.68021321681669,1.52109936471339,1.46675793566196,1.48502318078423,1.48399898997635,1.51486761560886,1.62250566745535
1.43389451578597,1.40525689600065,1.41721235514181,1.44807261133355,1.48928641484893,1.56748472513018,1.56813484609839,1.59296595177454,1.59462841768499,1.70262000000008,1.45186630718835,1.16103999999994,1.41800851758926,1.53025000000008,1.33491740416949,1.27752953347774,1.26472265596093,1.24902587791972,1.24788890592974,1.26054711579515,1.23115073216104,1.22479194183652,1.23135767953968,1.26461046663933,1.18534563296597,1.16748681767264,1.17860244955455,1.22123695960879,1.23218571305625,1.31593053580091,1.32542614318432,1.35014896129547,1.26508277288322,1.17201512299783,1.17210978084385,1.14369998860491,1.16744223225522,1.14044000973543,1.29386300340965,1.53062195717644,1.523119584315,1.53495781444268,1.37643741256845,1.26564452049539,1.26233784398902,1.24599887877806,1.33511323780959,1.42978992770804,1.44421571554308,1.51170999459054,1.27029168160602,1.27390454512019,1.2735558617334,1.35676429324322,1.35491038456671,1.39154524737368,1.41851340672901,1.46339004382103,1.21578270416041,1.18788994466206,1.23257749424107,1.23462210443402,1.2968600928457,1.4228040516222,1.42059023138705,1.40530439515975,1.49501384366611,1.57539999662022,1.52936828349393,1.56491999392242,1.3708852106754,1.34408564023807,1.3497240601483,1.39666194300317,1.42873202009749,1.48017360264835,1.48882228176629,1.50340165221009,1.45872527674237,1.35491366654078,1.35740622142459,1.31685435616639,1.33967416545751,1.344163836649,1.39226931057903,1.44815123149907,1.4720892894674,1.48729866959226,1.25169934648255,1.24436186745787,1.25470744028026,1.25805465763831,1.31550196712257,1.37836999049031,1.29914165675889,1.28908785641765,1.31201140837479,1.33948783661338,1.35418070123794,1.64505056417743,1.64665523960893,1.64387753303795,1.64760548525826,1.64551004559678,1.53868451577748,1.5233813577803,1.53984709955888,1.57162216684417,1.58808071426418,1.70303000000008,1.49069832620988,1.40068276923565,1.41576251628803,1.41981953386231,1.48762166925527,1.48637507786852,1.53499490639886,1.59266291203889,1.60236031001891,1.46050999997814,1.62644899922414,1.62782418546321,1.61321918349028,1.61012653958543,1.57589941669218,1.57352830121697,1.63587979977382,1.81744323053148,1.84460794818592,1.86225529101574,1.86450463757555,1.90846044216695,1.68908075362079,1.55785995723299,1.57867901514366,1.53060000364918,1.61743126725579,1.70243826912376,1.72209241432743,1.72108523964655,1.74523625138276,1.75451748796068,1.75317712080247,1.77460412752925,1.77321801738212,1.82590780677201,1.85747838717313,1.85987166526581,1.9302904601987,1.93451232873634,1.8292602001204,1.76961963782959,1.77227193807989,1.77378336807958,1.74926696355888,1.74913478288939,1.74690058658537,1.73461505116424,1.91735129575832,2.05862000000008,2.06013177192134,2.05403697522075,1.74881331338134,1.74485638178416,1.66477723512458,1.66654758599981,1.66414652701393,1.72755998597256,1.68894004084016,1.67533350819252,1.51855380707933,1.45615997286768,1.48640863542904,1.48493425530104,1.51373491946737,1.70153000000008
