1.87924733304248,1.87726229054273,2.00105911636161,1.94819717957599,1.94650127661948,1.94708127444665,1.94642292139129,1.94644754099019,1.94649887795618,1.94620210446522,1.94622825549973,2.08825559829971,1.94550427149232,1.94471440894762,1.9446344604171,1.94460729820764,1.87382930581894,1.94841286289267,1.87658942655287,1.95362491226901,2.08154967180202,1.95464519824756,1.95683942091658,1.88409229023967,1.95580544584651,1.9571719805974,1.88862759390615,1.89129559719649,1.98947703517827,1.98863987577872,1.98972903075105,2.05691528802245,2.04970586200131,1.96269593180302,2.0384922859797,2.04932768065186,2.03540481997863,2.03979533373405,2.03464715361412,2.03480515881815,2.03423182619764,2.03363620234838,2.03549340839729,1.95720401139046,1.95835366804339,1.95655104619943,1.95704298279472,2.03312200762812,2.0507791928773,2.0409203206582,2.04198311614141,2.04120657740488,2.04299111473549,2.05138875130859,2.04525403733957,2.04595962548243,2.03104624311544,1.95467889693493,2.03141330000982,2.03008878743099,2.03913397993249,2.02903147971011,2.03246400540139,2.04631486323176,2.04231074607902,2.04136316820871,2.04042184200484,2.05078707361002,2.03656995560894,2.03973924987138,2.03767224575744,2.04111734355485,2.04260218225924,2.03780793611894,2.04346362784874,2.05093332765051,2.0414647562441,2.03180021770417,2.04733481558234,2.04671195103648,1.95094804707851,2.03897750813012,1.9502765893271,2.03565953946219,2.03641887425786,2.04743741051522,1.94825384910754,2.04231236368127,2.03406489297338,2.03226454747921,2.03047403706392,2.03361699625538,2.03833983289906,2.04151934357504,2.02413176532448,1.93849655598042,2.03786929694457,1.94095243175567,1.94005668705479,1.9381373240904,2.00923875452753,2.00890521351483,1.93954727350142,1.93947014925469,1.93886320378788,1.93865610719893,1.93717559657189,1.93646190049348,2.02835411616275,1.97744235881739,1.96815256688413,1.85851934251824,1.90273563587723,1.85197097408038,1.85774492981996,2.06834191222178,1.84788047018765,1.96790666203317,1.96801680768579,1.91218357225242,1.84267422387943,1.84127880992859,1.83679998925032,1.88770948826606,1.88686713842631,1.88675917960051,1.83676375201279,1.83625782749987,2.0473688841319,1.83630315784235,1.83579259361128,1.83428091241895,1.83565420530998,1.83501856714405,1.83564947196053,1.83390129758655,1.83294561374726,2.0466399790778,1.8307289683165,1.83504660276696,1.93689603413297,1.83582160147521,1.83446057581962,1.83633806058767,1.86178445879231,1.83440966064774,2.05750552375088,1.95875300166362,1.83906491261958,1.86960107844318,1.83592640201146,1.83331618124543,1.94094086846464,1.94100157546711,1.86823826763603,1.8367236523725,1.83677820784111,1.94729546998223,1.77038483216602,1.77019320187788,1.76727133151367,1.76563881469892,1.76292644119813,1.86900095802736,1.76099771879132,1.75890137185171,1.75876666682488,1.75567089481531,1.75371299902398,1.80595215843164,1.8679221785473,1.74953477442492,1.74945891134588,1.74682357075558,1.74677387128334,1.74650865532789
1.95583162154037,1.95599976537834,1.95505263743734,1.94546470038554,1.94699796261668,1.94658571553209,1.94690894881616,1.94678306450992,1.94633583527066,1.94618041259893,1.94619821784739,1.94624870320938,1.94577329109463,1.9449093782812,1.9454153935547,1.94591521714483,1.94749278363337,1.94931670655804,1.95193029706183,1.95539470062204,1.95958642523569,1.95999631354788,1.96110810939869,1.96110056193409,1.95832134795195,1.95703850947305,1.96279413601092,1.96419160768669,1.98922665566935,1.99402252995404,2.0081019013088,2.05124317222731,2.04863834762712,2.03105682295084,2.03574267190787,2.03732983151625,2.03883388665748,2.03946771429611,2.03934600823408,2.03754166917658,2.03688787562164,2.03770308516096,2.03827564598926,1.95918130740097,1.95957647872949,1.95808728725769,1.95777293042988,2.03199919645991,2.0307321046905,2.02939795822868,2.03189096352364,2.03521926822863,2.03974200011278,2.03729967577315,2.0357155621419,2.03432493474039,2.02916980884185,2.02482573632926,2.02301613963164,2.03030533845335,2.0376688789774,2.03909365177678,2.04095334073975,2.04288130961768,2.04104220587365,2.04137377837957,2.04410554425282,2.04611585505087,2.04345789690428,2.04350901856834,2.04362239496779,2.04300279710421,2.04645956184369,2.04640605949794,2.04661359072064,2.0480857413599,2.04143486316845,2.04132584278177,2.04009920675407,2.03918930530126,2.03236645978179,2.0328424235731,2.02787421480669,2.03367833381262,2.03579887101343,2.03788222300417,2.03658867946397,2.03602568067795,2.03756474324169,2.03630443390578,2.03479315604262,2.03162223268056,2.02951976206486,2.02643117869862,2.0234139429399,1.93758301448134,1.93630948915702,1.9377551999324,1.93795410619023,1.93696991128363,1.93750137024926,1.93802237521514,1.9389182389286,1.93873145074504,1.93844009949309,1.93747109493917,1.93587546273164,1.93280404991977,1.93090531780436,1.92802100565253,1.89957626590075,1.85865587576309,1.8561618515176,1.85626648530035,1.85638868897221,1.88964118608379,1.89876635803916,1.90593901459148,1.92203920637399,1.91740524808676,1.88002088850384,1.84004034135659,1.83899688827302,1.88801251034291,1.88873225048531,1.86008369614723,1.8363035290546,1.8364115061656,1.83680792467145,1.83694336446839,1.83619353764136,1.83500148185263,1.83556478054115,1.83593354034096,1.83716655617326,1.8628877186777,1.8740895129855,1.88478152647114,1.83238461783915,1.8331788638137,1.89440977297676,1.8750556764156,1.85335729892547,1.86316665682363,1.8651758401351,1.8928042194888,1.9134075575668,1.9013140767578,1.89182688038485,1.87893199148585,1.87101705075342,1.86100406784536,1.88815040464313,1.88692180015405,1.87435524164737,1.86593544752736,1.83766244545256,1.83820883714706,1.82908949026686,1.8133488330534,1.80182583333558,1.79034519180042,1.76270580724518,1.7626316015195,1.76163963878972,1.76006395949403,1.75977967959768,1.772832019274,1.78526445461064,1.8006249746863,1.79930351034619,1.77597178573032,1.74814973768752,1.74742493024239,1.74653185529839,1.74592271319139
1.95514817867346,1.95546992424647,1.95400218786277,1.87755158091127,1.94845782676672,2.00231283305466,1.94848009651708,1.94786542664053,1.87338224350098,1.94667124572302,1.94727607125185,1.94884257138054,1.9477128233868,1.87593826583462,1.94644842881638,1.94748382624966,1.9472645823719,2.08867093028037,2.09623678718405,1.95422294519869,1.87872178070427,1.87965163335394,1.88050225215015,1.95814593172079,1.9575231487784,1.95933941164153,1.96631763045109,1.96621832036017,1.99001697883294,2.00079919045625,2.08223785885664,2.06101767766671,2.05835432503514,2.03834793491727,2.03790124284236,2.03890644378844,2.0379386574301,2.03792631338273,2.03880211545831,2.03734980661382,2.03674610907055,2.03632937292521,2.03674250496405,1.95806442294871,1.95897152789668,1.95640817604595,1.95710228989085,2.03026703562836,2.02813794760496,2.0241826452026,2.02651387087405,1.95577726963721,2.04751377231131,2.03239522631411,2.03694675520219,2.02910341882798,2.03390193957049,2.02835735294508,1.95538773037674,2.03221492363501,2.03871246261415,2.03420266810635,2.03949094379573,2.04164536395257,2.03944979957743,2.05224055311833,2.04580809074248,1.95374943843256,1.95375239788408,2.04496908694576,2.04660718069644,2.0376048637504,2.04442155616456,2.04644804135479,2.04630686410297,2.04796339642514,1.95182187533438,2.04146701587018,2.03187385992449,2.03555305391034,2.0356030475883,2.03519047985447,2.05080860620718,2.03350048182921,2.03498901966815,2.04165086416775,2.04276753923598,2.03902799138144,1.94794395492201,1.95107536785809,1.94925671819998,2.02128824112349,2.03407986936619,2.0246807892276,2.02365175144664,1.94188130223862,1.94064181863112,2.04857443750887,2.02879548764111,1.93678537495817,1.93858448917485,1.93879952685807,1.93854334482567,1.93755056613951,1.93772682342587,1.93727149670491,1.93730507672425,2.02497603419998,1.93198076805261,1.93050537489255,1.86140348216712,1.85608487916091,1.85597764353137,1.90164661640082,1.85470566745691,1.8474368134082,1.96876376309809,1.84549351880995,2.04066295763421,1.91799154652354,2.0484185074098,1.84009199427821,1.83932901152042,1.8877300790408,1.89061615086406,1.83577604386233,1.83617763155687,1.83526471199088,1.83373523344205,1.83618851605819,1.92055837682895,1.83383972204252,1.83431051567895,1.83425867796343,1.83632044245715,1.96416680189025,1.90486539791673,1.90359604473809,1.83297389532996,1.83197405223265,1.93802340728331,1.896008389487,1.83440346755741,1.88220126492316,1.87192692744851,2.05449124398233,2.05182107118233,1.83516365939286,1.95772062406909,1.94283535435292,2.05186865799919,1.83664611062602,1.88620343701159,1.88777894904743,1.87864473471164,1.94920967018018,1.83696171959756,1.83578270649213,1.86345104358122,1.82923215553142,1.86137884567708,1.81337136817938,1.76088849184578,1.76002276519417,1.75844362925042,1.75708634241245,1.75711167564625,1.8543839820092,1.80022223850995,1.80038762824349,1.79941731774319,1.79872771645771,1.74928335464164,1.74571388580268,1.74618082203041,1.74516650932971
2.07633071161469,1.8799161605799,1.954302225627,2.00404276844493,1.95034033766006,1.9515290725406,1.9504352338614,1.94873505984552,1.948490517188,1.94724702547661,1.94739996360885,1.94782190793649,1.94790991249877,1.94860341117567,1.94843024842324,1.94901486802285,1.94984942193719,1.99898858696626,1.95141411240065,1.95288996926543,1.95284800104388,1.95418176011279,1.95472345682734,1.99358432060173,1.99169311348622,1.99364075360783,1.96415250529086,1.99079590126925,1.89776654410748,2.00681142131785,2.07675197829105,2.10582795868765,2.05849434699239,2.03978115726725,2.04115710734431,2.0390821251552,2.03623729442772,2.04607531247664,2.05002667255909,2.03608546634464,2.03796478766129,2.03802746923415,1.95803886184143,1.957736883445,1.9824016119977,2.03598801387483,1.95747500903937,2.03039064805623,1.95670047622047,2.01832283649048,2.04475905907254,2.02570438458601,2.03417163647711,2.03804020214043,2.0325135718994,1.95577722707115,2.0472262486618,2.02877358085168,2.0349001365729,2.03705497951507,2.03747214020678,2.04550934228213,2.0456126556569,2.04269151473427,2.03908477244737,2.0680316505678,2.0369922994454,2.03767078381992,2.046315624035,2.04644376049832,2.05091972237346,2.04187438934855,2.05709913709302,2.04772377444713,2.0441208188413,2.04627920751089,2.04796747788037,2.05900882119117,2.0445217106259,2.03614174195625,2.03818299406675,2.03922100094344,2.02583667094929,2.03577736426092,2.03426150176622,2.04318546008056,2.04118863587413,2.04504258850993,2.04023911585482,1.95273782380931,1.94770408161945,2.03296343595509,1.94641761310128,1.94570044816866,2.02468682004973,2.04112067768785,2.04117865582703,1.94142232228405,1.93851909134337,1.93764679862225,1.9385324822585,1.93954044079987,1.93770712087576,1.93657135050744,1.93683657035363,1.9361567864199,2.01749440189348,2.04181096259644,2.01072677135821,1.95285407297323,2.02770788513939,1.97139707466869,1.85400086049963,1.85254272386824,1.85781638892045,1.84735717565196,1.8472464653119,1.84637962325404,1.84457059911343,1.84453034085388,1.84344920110686,1.96674567756521,1.83879264096528,1.96634379831849,1.90243538089309,1.95785709895558,1.83502040637734,1.89697012143389,1.83455547905492,1.83349624359037,1.96543023731735,1.8329010738086,1.96417652062431,1.8313750487275,1.83445398438382,1.83248731085975,1.83145252848959,1.83109736894062,1.83166864616042,1.83189774045783,1.83226287564455,1.9612752458299,1.83349269470606,1.89604787981397,1.86541901890086,1.83352351833103,1.83273287709778,1.83342409221714,1.95747316437876,1.9379627694367,1.92742843060457,1.83347649996891,1.83327180483334,1.8845260417912,1.86516352238169,1.8326261947528,2.02427717201811,1.83449326609609,1.76727204501041,1.80987417749912,1.85561085403378,1.81395177820917,1.76065573310688,1.86855389626085,1.75561210988708,1.7579282546159,1.75420187645625,1.75325830703682,1.75370813726668,1.80048714361718,1.79919279443319,1.79804984792877,1.79582959303973,1.74564245200554,1.74573591825046,1.74486509787008
1.88276678083668,1.8803133341813,1.95470555477397,1.9531040425319,1.95193114119472,1.94884118185421,1.87663802156149,1.9490237775723,2.00455808283885,1.96763820899345,2.00091374135856,1.94893003143747,1.94803354188798,1.94850655829885,1.94847068300417,1.95017908942025,1.95000433598511,1.9504369624157,1.95108737512521,1.95234966131484,2.0787895513305,1.95485086042101,1.95542634101542,1.95917178462191,1.99070831444988,1.99218430175145,1.96390961049385,1.96792389896692,2.09259987242213,2.01145726337789,2.08475161633713,2.08836975230149,2.05073351124224,2.05814520234311,2.0500926344621,2.04458030892035,2.04435069096368,2.03419584490994,2.06449861157035,2.02380808412237,1.96375845142153,1.95976591879415,1.95868993512406,2.0350566351946,1.99905081751559,2.03493839059693,1.95779817939087,2.05096956064884,2.02927231507832,2.02502872950635,2.02686105095212,2.04207290139651,1.95643854688402,2.06400787446058,2.03019285661503,2.04171437171605,1.95726463927866,2.03852893676566,2.04081337655472,2.03984959537905,2.03884084898829,2.04832776234651,1.95511679905259,2.04893160473301,2.04007919471318,1.95469852588923,2.04592525385375,1.95359095780601,2.05406536676187,2.0452289402644,2.04145945192953,2.04472406072661,2.04393483942086,2.04028838492251,2.0378451566373,1.95376553905879,2.04378034910334,1.95057604198345,1.95090134571602,2.03360642798678,2.04373599007516,2.04538849956375,2.03258500183266,2.03614771006227,2.03595073236891,2.03275717839072,2.03491761305059,2.04509235917253,1.94851251443156,1.95135487745714,1.94717008140733,1.94769842881196,2.03370020900067,2.03226361800525,2.03153386676568,2.02628734021549,2.03693288481642,2.01924539662292,1.93891446668206,1.96160598726927,2.01663824779132,1.9393579157128,1.9383908373624,1.93674042550005,1.93753923426936,1.93709242977618,2.00989345293311,2.01672739276359,2.02475754503179,1.94444061984621,1.85723595143662,1.85703955998743,1.85263493941179,1.85236418564226,1.87513736120038,1.89877424968968,1.9065974487686,1.84635154600744,1.84328386135095,1.84554298244834,1.96756488184315,1.96699084431237,1.83777724627665,1.8376362759004,1.8814190370548,1.96694933972667,1.96660453805798,1.88307364206654,1.96319492848479,1.83185740737126,1.83284015284263,1.83238148667634,1.83229973673619,2.05152110883333,1.83554984589687,1.83352181466427,1.88735965532108,1.83202071714324,1.83211112037127,1.8322771640052,1.83159494741355,1.96059493444608,1.83175999404233,1.831991181876,1.85579018822598,1.83312282929467,1.83291300456935,1.83394139160679,1.83381378332046,1.83373411855365,1.8333074655877,1.83494800570481,1.83474323884593,1.83512876373925,1.85450197691968,1.833152058386,1.95432125893472,1.88310237578242,1.76881334381319,1.76577203856733,1.76590954991613,1.86414159100005,1.76035086232964,1.75895569204096,1.75431389687896,1.86312621326944,1.86202030796763,1.74981989955194,1.95688747008334,1.81322440338981,1.84392280576847,1.84468827873058,1.74765020608861,1.74609079688674,1.74644835942659,1.74494310964783
1.95939463685225,2.09752727058782,2.00652057988264,1.95337330540479,1.95295834603293,2.09164743648477,1.95086930775804,1.95052676356909,1.95181513267513,1.95232841311556,1.95284382950023,1.87517049155873,1.94822397295053,1.94905189215735,1.94800487656544,1.94889727835611,1.94952346018723,1.95006261159135,1.88009737429594,1.90368507935462,1.88012622385927,1.95605797522135,1.99654915840164,2.07503811998542,1.99005651831642,1.99331000238605,1.96415826460132,1.96840857104605,1.89712510718526,1.9934431493427,2.0807655655264,1.91643623911633,2.04953964950456,2.06085881807042,2.05101035694783,2.05559683338519,2.04112564173938,2.03941486260283,2.05594021858387,2.02198769521077,1.96187772037531,1.96048974250194,1.96050108656162,2.03556848852148,1.98413293228462,1.95934495102287,1.95764293069689,2.04159028512686,2.05394010102367,2.0277134202733,1.95718554991948,2.05464475573595,2.04498719940697,1.95764954912241,1.99513779124143,2.05070260907363,2.05330736726346,1.95616549629383,2.04068873269628,2.0424969502968,2.04370899485727,2.04027104215738,2.04040784212432,2.03721193657434,2.04069307995477,2.04327644530965,1.95490253103964,2.04205666902689,2.04459561459858,2.04144540288175,2.03440968750814,2.05234248481733,2.04449850104292,2.03766887034711,2.0356960416872,2.05087910327447,2.03766288283021,2.03503776776678,2.03876909018773,2.0366217683624,2.0304808985081,1.95044164324103,2.03338083730341,2.03439764466527,2.03732711780867,2.03471803007882,2.03594497149361,2.04482191007819,1.94854923189195,1.97430121034947,2.02563262505905,1.9464682678144,2.03259684561255,2.03388610898507,2.033869954686,1.94105718329504,1.9404576787301,2.01610603874253,2.01044566870808,1.97278757220814,1.94010032130373,2.01432518993368,1.93745904198197,1.93841565974387,1.93820483785091,1.93908868575383,2.01841220504118,2.01077273381978,1.93557265604986,1.93478742199004,1.85744005154061,1.85595685133109,1.85386930238527,1.90098912335331,1.89228280176852,1.89774339541423,1.84670332749032,1.89290028932251,1.84191901843546,1.84594423323553,1.96570514079981,1.83932954443678,1.83789663468282,1.83744270282919,1.83873432945683,1.83673545050651,1.90035312919625,1.83207436748521,1.83200154506163,1.83176044477632,1.8293629615267,1.82976655634074,1.83213560201295,2.05773598274988,1.83543494791162,1.83296258164253,1.83203982389558,1.83109183970317,1.83215119234218,1.83338759930285,2.04282051659434,1.83523125008596,1.8321457107771,1.95782046855258,1.87314695575936,1.83256173172153,1.8316354634552,1.83144659764597,1.82798260527592,1.83485738800581,1.83510050256682,1.83411305661632,1.83347072156047,1.83366154402045,1.86858042896935,1.93673081565405,1.832965033807,1.83100553031936,1.85841825748897,1.76311646214674,1.76505330939263,1.76081390391424,1.76102397803009,1.75802596584027,1.75519554767295,1.86341439047521,1.86291738568879,1.84279878565789,1.7990358069327,1.78955665742372,1.74891497653125,1.79606515614188,1.7962889526937,1.74426801884212,1.74708787726656,1.85878309627883
1.95804323138589,1.96161487344376,1.96281359671238,1.95354071211402,1.95380497727858,1.9526955311509,1.95085633987069,1.95106331010139,1.95130110557481,1.95151845650167,1.95062271296974,1.94792038386353,1.94715587259542,1.94744374343797,1.94713729469091,1.94757789100632,1.93626952328235,1.93031387286779,1.92149137536944,1.91107537672698,1.90366638805661,1.95610853761685,1.95808839222818,1.95806403525673,1.95901825636069,1.96021183167231,1.96172393775185,1.96382796468088,1.96421635336017,1.9909484100274,2.00499409919111,2.01041546101653,2.05560118330545,2.05824876446136,2.05406503439221,2.05277681801888,2.04015274816088,2.04137361256909,2.04761355057122,2.02087749723192,1.96293039895518,1.96286818963843,1.96160197001523,1.96230745488676,1.96262202827103,1.96156307640566,1.98430855951748,2.03046845270149,2.03024925529141,2.03000719487038,2.03014659136499,2.03023600345455,1.98696547713898,1.97688289599549,1.98752082214187,1.995558139328,2.0010991190402,1.98651728676204,2.03984681083805,2.04213869987401,2.04340803810486,2.04306025272659,2.04253455449256,2.03966817258063,2.03922198515594,2.03683717094716,2.03462542199277,2.03812585643883,2.04295504705624,2.045024662147,2.04226239637964,2.04121735877401,2.04138650774494,2.03895218473397,2.03677989110766,2.03813538230742,2.04002941375811,2.04096510513932,2.0414311158858,2.037619349121,2.03562534276957,2.03295629970103,2.0342729094035,2.03594793242436,2.03896767535197,2.03779456324778,2.03912553254704,2.04247116435937,2.03862356120336,2.03408661033086,2.02865760659283,2.02869043723307,2.03463698847729,2.03513844907004,2.03440055675793,2.02632393859263,2.02432198565617,2.02396287630116,2.01014728030972,1.98278961345256,1.9702868181773,1.96007758085152,1.93894401861582,1.93819452842612,1.93849851457953,1.93773609951043,1.93697209379178,1.93540617268069,1.93511999720604,1.9344740605389,1.90956132736361,1.90959270255361,1.9067145857301,1.90253387891375,1.88196536848432,1.87890464288759,1.87254900605175,1.86351006270795,1.84469619993414,1.84407222430519,1.84206856616616,1.83954270065669,1.83935523491193,1.83976558886633,1.84028590767829,1.83836516319413,1.86856002726734,1.85954528314259,1.833323652671,1.83332320182965,1.83180937128738,1.83159888578873,1.83211556614713,1.83318941404956,1.83400661970226,1.83298557115528,1.83242136452326,1.83180337234232,1.83276782877324,1.83433442693267,1.83683937063374,1.83744914050524,1.83676669291884,1.90687774789339,1.8938883561253,1.88295048844244,1.87210204619643,1.86141020879385,1.84406033924707,1.85032197112487,1.8580767622754,1.86484041512438,1.87001872018129,1.87509008992198,1.88174480825944,1.89170843832946,1.83278848660672,1.83230705373756,1.8448270618729,1.7606860644995,1.76167654652502,1.76142109965801,1.76058440061049,1.75824805337265,1.75405624159707,1.86386360470131,1.86385106200431,1.81066091699428,1.78994553124903,1.78225505704253,1.77127891815906,1.78162502940859,1.77142471786846,1.74669186658087,1.74782941130886,1.77705160403699
1.88311367483208,1.95946655693436,1.9594245825098,1.95179852304278,1.95390572479411,1.95182923367711,1.95058783673655,2.09437840075412,1.95043916345915,1.95085292430832,1.95052130501049,2.08894562841759,1.8780083621444,1.94793037632893,1.94782176614329,1.94858554008737,1.87721012850847,1.87759221959785,1.95218258862495,1.92952306619345,1.87983500776411,1.95681253841137,1.957542668948,1.88700790990145,1.96054128529441,1.96179186083466,1.89357812059785,1.89379701519328,1.96942434551427,1.98762595510186,1.99407477864105,2.05726485569231,2.05304654662147,1.96514486041859,2.05043101213101,2.05122142101774,2.04126868159475,2.03490883856718,2.05949727871715,2.02206751543751,1.96232780602887,1.96122680830831,1.96264186721351,1.95958944642364,1.96160412980123,1.95900541764975,2.03212339933117,2.04256457077896,1.95794336407687,2.03072750004004,2.05706874832491,2.0404286750522,1.95862067810893,1.95746290034838,1.9733403369129,1.95687830663984,2.05489247874226,1.95633070610407,2.05222548568976,2.03988804726228,2.0442766759342,2.04720710609561,2.04203193386768,2.03854571512474,2.04016612714169,2.03782758682022,2.03844732852961,2.04133152402695,1.95511599208132,1.98112220159754,1.95477575116017,2.0380217744375,1.95403761499058,2.03306846019125,2.03213855164929,1.95289995393299,2.0351410282819,2.05724411097805,1.95086864081636,2.00236825875961,2.05062859970769,2.03329028242719,1.95099560143837,2.03424815733559,2.03671987649983,2.03393077429052,2.03463840488024,1.94746776659263,2.02961871215933,2.03066852607136,2.02959820151529,2.0320049515811,2.03360410865317,2.03653062554123,2.03278790385273,2.02806728700224,2.03034620331753,2.03436651447057,2.01089996313455,1.99285012132039,2.01799901082322,1.94089828907311,1.93729909894474,1.94004825809249,1.93733278670228,1.93739618930173,1.93623176159807,1.93554408533235,1.93670728589167,1.93469409742568,1.91134676086151,1.91052437544373,1.96735755355909,1.96686513770032,1.87499833324392,1.84629568569553,1.89946021444489,1.84374637564903,1.84356801555819,1.84317004673852,1.84191146369597,1.8401190798564,1.8377705596117,1.95003576257483,1.83871898455313,1.83570311024351,1.88387631756415,1.90775967356651,1.83358885559068,1.83275841000103,1.8315291951159,2.04671772895024,1.83005393687347,1.82786669520262,1.83182497943515,1.83110061709237,1.96823895145914,1.8302016121682,1.83189850936434,1.83260915456092,1.83118740532867,1.96085271357763,1.83197280449819,2.04767016488759,1.90743127733324,1.94002808277393,1.93027172508861,1.93036688365146,1.83072058070118,1.86580309389018,1.88225255486587,1.8813652197023,1.88046073070006,1.91588479101937,1.8935046968023,1.91358146919691,1.83138348489362,1.83058399089289,1.91169535672933,1.75977693441413,1.76099277764955,1.76234585944211,1.86354874822272,1.75689197785109,1.75430582490289,1.86319566548305,1.8636172432404,1.75020462534693,1.74853786127482,1.74874155691818,1.74899134453117,1.84387803049615,1.74581683281609,1.74497888173656,1.74592299876663,1.74542949584609
1.88422802480456,1.95764350509147,2.09900451816413,1.88226516713038,1.973563798948,2.09470883771198,1.95228975726268,1.87795005065886,1.9511563391249,1.95045702392353,1.95131862309235,2.0029997368431,2.00322858966883,1.95297855033813,1.94868094468224,1.87766820595069,2.00409089602845,2.07767189691422,1.95471709314669,1.95561479694816,1.95583547570045,1.95628021399465,1.95722431914163,1.96116045285452,1.9616892136631,1.96281399100581,1.89317578363879,2.09230831040049,1.9736176316345,1.98065552589709,1.90347144742258,2.08694052769425,2.0522823307828,2.06130797619456,2.05685032513784,2.05936127386734,2.0545870407996,2.06187334789159,2.05167143028314,2.02396562730605,1.96025788142577,1.96345195601894,1.95832505698865,1.96240980225775,1.96061408522153,1.96045846494077,2.04534314793048,2.03187981727429,2.03398103074223,2.03441790979685,1.95799386315207,1.95825610055869,2.04223232137044,2.04573166571753,2.04083300334086,2.04262433786348,2.04049038592694,2.04797970847527,2.04547019443307,2.03600010031487,2.02996655917412,2.03654634295992,2.05362127228463,2.0415146787913,2.03988385926814,2.0412923854471,2.04240516535656,2.0363331810412,2.03909112467746,2.04176499706984,2.03483044378792,2.03841874034362,2.04116593897756,2.0328162213682,2.03155951913595,2.03320083016825,2.03412266659086,2.02365349545369,2.04447158026453,2.00449408118511,1.95133877877844,2.03757077847292,2.02832186878999,2.03247500869955,2.03667769049673,2.03306641358461,1.95037590930204,2.01495544275244,2.03656217753283,2.02922140853592,1.94698208969914,2.02617207735455,1.94265522948441,2.03075446258281,2.03123210558456,2.0294007816341,2.02048322435573,2.02257993602965,1.94007701598782,1.9396248539471,1.94027058646812,1.93901993177358,1.94077246139956,1.93485581602731,1.93737927702922,1.93488515289104,1.93512853685941,2.01250731971976,2.0411401005834,1.94173755745217,1.91132474087009,1.90983836061469,1.85273426909043,1.84996336537797,1.86844707540041,1.96648957932931,1.84693095433177,1.90116309349897,1.96540108111519,1.88364962845335,1.96544967478546,1.88748150172566,1.88382569967439,1.83676560521177,1.83783885895779,1.83518249640357,1.83351660818183,1.83034442562382,1.83046980892176,1.8319305019712,2.0615485171176,1.83021302358984,1.82995169899267,1.82940496036252,1.83043211005585,1.8299791534234,1.82941758656092,1.82991177795081,1.83016749627495,1.83086322713643,2.06153879838355,1.8307536118281,1.83248153910233,1.83018186874409,1.8827061095842,2.04159595610345,1.83010514376734,1.82895674627546,1.88334089019683,1.88190867532669,1.92226935940572,1.83195128237832,1.91303703250354,1.83321854715935,1.83417510822589,1.83276359869854,1.83146821986568,1.83010269035261,1.76385496795725,1.76287161436758,1.7611549015939,1.75948215687854,1.75720327143328,1.75644591116525,1.75425583985146,1.75285625083662,1.75212541648533,1.75057498348329,1.84726986868122,1.74844727494815,1.74826056261067,1.79465172179963,1.96391411480483,1.74269373002177,1.74338131721628,1.7418070468212
1.95856193030235,1.95828941022916,2.00708278352993,2.00686241766845,1.99418767179484,2.00786034845873,1.95454339435354,1.95338051621738,1.87942729680515,1.94856225990635,2.00401361153122,1.95064979475721,1.8801270470871,1.95025390188557,1.94917709443515,1.950184319059,1.95183786343545,1.95380341123355,1.95463983972305,1.9556906672362,1.99890112629874,1.95948615699103,1.99970287518811,1.99869288240498,1.96307605524523,1.96449199056422,1.89296307085771,1.97463423514583,2.0782550209575,1.99829363141275,1.99557701443831,2.0809216916909,2.06165938577402,2.04565580988645,2.04787435130713,2.03967509693921,1.96533118275628,2.04557324924999,2.03783457637502,2.03850940985506,2.0372130684296,1.96055540122182,1.96323132049674,1.95911022830293,1.96189682433442,1.96043631760137,1.96000273100493,2.04402463450918,2.05439154933473,2.03570159749992,1.95893697088779,1.95891104148462,2.0516012218648,2.03267389710799,2.03849023064784,2.03502995805152,2.03875153158534,2.03242342327684,2.03095634541445,2.0363200480554,2.03151654670432,2.03121657628827,2.04645547445197,1.95557312620037,2.03628548280766,2.03241899716262,2.0323939234779,2.0290408310857,2.04927993653335,2.04571861802136,1.95418336318193,2.02961554213638,2.03348277977617,2.03410246410615,2.02946215631619,1.95355425654761,2.03699806445535,2.04350389819103,2.03801382991594,2.00505123052034,1.95146156611693,1.95190208302727,1.9506797955334,2.03845098342746,2.03430044173197,2.04074093570409,1.94843864164715,2.04084607512597,2.03307661124973,2.03421646119347,2.05916150849706,2.027425728583,1.94361831388515,1.94230212676794,2.01900670858346,2.01582575582604,2.02459637528367,2.03815183157572,1.94049521709716,1.940300032953,1.93910248766427,1.93248824523274,1.93494210796787,1.94002483789242,1.93593198658872,1.93606522121532,1.93444239774659,1.93604914996943,2.0284163935279,1.94592314955628,1.91165121844981,1.85595631872242,1.85515792414759,1.84913446678651,1.84809027889207,1.84787906298328,1.84681900438841,1.90114215070262,1.84235075148256,1.84158786942613,1.83781979070402,1.88939138921038,1.88471364796794,1.83671393580244,1.83800966919236,1.92482490107893,1.96820886454057,2.0407504262407,1.83079134999432,1.83137400419855,1.83141751204392,1.83137495205955,1.83133351997213,1.8785551686561,1.87949714689603,1.96515811276382,1.8289186737194,1.82994408449805,1.83013085946553,1.83011702833867,1.82916156935568,1.82898503856748,1.82794863087388,1.95795653082935,1.86180369838343,1.83069812610944,1.82954610910404,1.82950197337357,1.88234204402533,1.88102739614063,1.88024046231298,1.91877080048717,1.82837478824622,1.93040391978448,1.83448600869923,1.82942338657019,1.92362949679021,1.94803323800137,1.76344870762717,1.76400827208286,1.98040680649553,1.75819448546549,1.75849833975211,1.85905869308948,1.7551593769516,1.75333260294634,1.75068442011923,1.75000596567975,1.74798788227636,1.74800988236421,1.74649657093478,1.74496445387036,1.74249774798171,1.74235865282524,1.74241274959747,1.74060648200038
1.96081617471751,1.8852002247236,1.95442402756978,1.95960052142404,1.9884059639648,2.00880572805637,2.00735662174899,2.00478939353822,2.08936353398194,1.94874309552437,1.95049504330601,1.95113954711005,1.95159103828856,1.87738636233699,1.94940619552642,2.00221564915114,1.95273109270391,2.00217690797152,1.95502332220109,1.95612341344633,2.07324015418531,1.99935788234761,1.8846073819647,1.96340878341123,1.96402392303573,1.96558751419408,1.89625245580659,1.97035957958379,1.99690371483676,1.99758693890366,1.99584117019829,2.0647299123726,2.06384895807785,2.0490508718124,2.05073833479937,2.05146190238204,2.04104167795613,2.06539983996066,2.038756689231,2.03803097535751,2.03627137507094,1.96307373242761,1.96095859271312,1.96305273634759,1.96201853084312,1.96147667436696,1.96099518177896,2.05152981359073,2.03333823283663,2.0336553389317,2.02902381995816,1.95964147784309,2.03322673722618,2.05030372892054,2.04650420255235,2.04748730856375,1.95890648468463,2.05172720437501,2.05290901975757,2.05244200719843,2.05261506051397,1.9569240133057,2.03664361718049,2.04009090631939,2.03982942181059,2.04080165293542,2.03170481750887,2.05030957005606,2.04263248236132,2.0469804002934,2.04929837209874,2.04831835580459,2.03000416299469,2.02835368813401,2.02781155589006,1.95322835540407,2.02743813302913,2.04307771217908,1.95194715919046,2.00441646847601,2.04926403727255,1.952098747435,1.94982194548152,2.02949603292023,2.02773928292397,1.95078141817085,2.02976666548158,2.03141958374317,2.04264060044844,2.04038307766138,2.04165829136922,2.04901021101617,1.94338734960904,1.94269616445858,2.02193466055211,2.01742918566506,1.93814736752623,2.02481141113029,2.01116578828731,1.94140542620613,1.93939632626059,1.9353926397284,1.9406373172743,1.93500423617012,1.93659562734481,1.93498767088668,2.03762136635075,2.01183830471757,2.01067130929027,1.95581305310594,1.96781647002165,1.85482316694746,1.85444758249304,1.8500586659902,1.84839789483583,1.84824525396612,1.84447780118307,1.90006876033375,1.84172958887937,1.8414089258024,1.84013391347352,1.9371681586865,1.83641320632745,1.8364721835596,1.83751265827557,1.83594897197019,2.0681669750088,1.96992908046824,1.83070849624384,1.83045482857823,1.83079469398231,1.83184251030255,1.91607528956515,1.91554964401993,1.87925345747457,1.8775139725421,1.94747973551846,1.83018156599913,1.8300641682357,1.83054790375905,1.82767659081065,1.93152157420077,1.82810289295485,1.83025971296573,1.83081842986069,1.83065087496097,1.8301730411373,2.04839906994169,1.95490438297799,1.87084829315352,1.82970760525903,1.829061421643,1.95393297493073,1.83010833538723,1.83367656183815,1.9241256175852,1.82836525829618,2.03752380653457,1.76367820588447,1.76393135687328,1.80977043854958,1.80766088233407,1.80678104603462,1.75382593302793,1.75506889644462,1.75331286530197,1.75172093658206,1.7486889336256,1.74742437804582,1.74760514246456,1.74661054013101,1.74533651726174,1.85728016475748,1.74203803683822,1.7423301430568,1.74096902378935
1.96077627635337,1.96150725005606,1.96160450275998,1.96087098563504,1.98080268294247,2.00804021753118,2.00682802082496,2.00274677622618,2.00082181223537,1.94807200033448,1.95053701134704,1.95128009639161,1.95162527094869,1.95205813046701,1.95084457797667,1.95095135155168,1.95204614501957,1.95460691735956,1.95593963754035,1.95680528477968,1.95663727692877,1.95592088538552,1.95522664860295,1.96362548682303,1.96402368803175,1.9654594834801,1.9786253674884,1.98314661462426,1.98853614998983,1.99675109963384,1.99683314853381,1.99850404348507,2.00390665030167,2.00908902287149,2.01165080955872,2.01274329483648,2.01298125675628,2.00384223005437,1.99739042275047,1.98669785808735,1.9779041907525,1.96345146712455,1.96324806903108,1.96275226500332,1.96305522725053,1.96216319144293,1.96151007182861,2.03348440438975,2.033640580334,2.0337767692528,2.03497217039807,2.03208585555038,2.03056425799689,2.04157326223578,2.04218254453628,2.04379000272444,1.98741326317285,2.0440946527068,2.05182577533329,2.0553748218119,2.04805467122669,2.04404998640345,2.04443820673891,2.04474852392834,2.04391255422318,2.04170256650943,2.03958910202118,2.04501994879717,2.04658824823107,2.04682362675356,2.04904800911995,2.04764969459664,2.04462507942878,2.03952639005775,2.03441195058805,2.0342692782357,2.03932363512071,2.0437873692516,2.00575819354919,2.00405164708321,1.97358279499936,1.96544083780723,1.97964741232935,2.02473148321753,2.02466682657473,2.02528440407407,2.02951510411044,2.03290428785135,2.02872079095892,2.02813204915008,2.02901744767199,2.03257908229882,2.03579550080075,2.03633295847003,2.02839130132815,2.02525057226639,1.97396040316367,1.98953283206986,1.97124988293906,1.94236182659058,1.93923123257398,1.9390573127359,1.93666316846919,1.93750689071494,1.93574754902022,1.93572656805626,1.96579498310215,2.01148952413229,2.01146532791729,1.95170037040267,1.93234333708459,1.85393229042235,1.85290582048882,1.85120025611911,1.84826114260341,1.84577600479656,1.84486864665749,1.88301981775795,1.87356972412007,1.8421751286554,1.84119336832855,1.88949190059462,1.86950989532507,1.83730249005834,1.83775782918377,1.83642953685044,1.83522026349631,1.83372708696671,1.83114757271324,1.83045995401914,1.8580701078616,1.86582338196059,1.91429677034547,1.91470898895874,1.87034508535201,1.86893702901408,1.8571420564894,1.83104313089517,1.83160841202316,1.83259190175119,1.86501144467232,1.88212714890131,1.82856770336697,1.82978254750328,1.83073926975793,1.83141819824585,1.85884695887621,1.87731990382174,1.89456656008504,1.86254729674985,1.82805824958629,1.82784608241923,1.82799514102865,1.82980224515663,1.83129501540045,1.83134566078783,1.83062007697598,1.84560034887337,1.76200403097893,1.76178325036704,1.75892708800738,1.75563360228047,1.75371808617844,1.75360036151073,1.75678969468676,1.75470427370832,1.75124810808113,1.75063665804529,1.74694400356468,1.74740047479524,1.74634673613251,1.74503192769845,1.74324043933704,1.74241655559242,1.74260629387939,1.74177059885978
1.96042925913153,1.96043478975466,1.96025524535611,1.95891858768202,1.97241380696955,2.00745855932035,2.00729505007499,1.88009788949122,2.00410878981901,1.94900349769819,1.87937870296798,1.95118194728483,1.9501816696955,1.95409434363504,1.95212284516184,1.95075132395638,1.95027371283975,1.95523576158732,1.95669862759041,1.95746374810577,1.95664110783302,1.9567495703438,1.95671417929559,1.95965134330824,1.96430190915063,1.96451874932245,1.99522639231557,1.99718616174439,1.97594047755476,1.99539593816319,1.99558391339172,1.99548706058341,1.97180636113205,1.96659860104676,1.98752686528468,1.96650382067744,2.04145518931614,1.96396850311687,1.96356646395136,1.97933812243935,1.96332337883385,1.9634037140868,1.96170424307522,1.96120058381666,1.96280091301738,1.96196321217161,1.96120302396211,2.03476168786744,2.03228517942296,2.03584269571413,2.03892049506367,2.04499857130977,1.95995600036598,2.04710059106322,2.04198152800177,2.04038513576955,1.95870974854748,2.03716978216662,1.9582157484443,2.05398990256742,2.05614150969254,2.04848078713283,2.05141576253574,2.0441307355307,2.04520012503401,2.04464961416717,2.05547718449726,2.04408598976748,2.0457124484002,2.04181528698261,1.95412479486984,1.95482042200367,2.05116206684497,2.03648510762288,2.03815351284768,2.03823151350595,2.04035815327243,2.0439278844937,2.03826432447197,2.00249951280118,1.9514263264187,1.95056876849501,2.03312129695831,2.02699185932965,2.0337039519589,2.05413333765956,2.02135953311257,2.02515066185456,2.0267295186409,2.02927847557743,2.0319122552378,2.03502699034426,2.03753279226617,2.03616855196871,2.02672866104181,2.02482792159665,1.94088790674149,2.02364937118033,1.93884983655308,1.94049727582357,1.94005275116743,1.93441609084634,1.93965006902985,1.93463285583043,1.93638971706078,1.93564978408239,1.93609629512715,2.01823032802225,2.01069046828798,1.94897016251473,1.90928319417675,1.85545272070012,1.8539081329629,2.03774733741782,1.91555956128992,2.0379028371627,1.84550647710786,2.07145190711926,1.96284458870062,1.84238108997339,1.84113919596105,2.05674716702436,2.06260768924161,1.8354926504032,1.83526034056396,1.83465257728239,1.8340249083686,1.83287579082056,1.82997287387071,1.82951300220936,1.87926656801637,1.87930617386069,1.92135989366773,1.91407496935211,1.86934747148221,1.82912147863213,1.82973325224508,1.82928329850115,1.83053103650688,1.83198324234315,1.92394963640723,1.92153082884119,1.82760134819045,1.82913052071844,1.82891685697703,1.82718094094244,2.05396790455499,1.82795688228474,1.95356366303666,1.85476224493811,1.82800801742009,1.82791730782123,1.82753420764256,1.82859246602655,1.82950556700125,1.82772077867927,1.82713755972702,1.85621171497245,1.76115055986508,1.76119080747672,1.76076709176018,1.75885658534366,1.75344613484467,1.75355053544429,1.79431817542911,1.86243109380643,1.75174263513566,1.86017634750576,1.7457249216299,1.74649093065563,1.74546014050302,1.7427605999734,1.74089598028432,1.74060738485115,1.74173473425124,1.73991026076629
1.88746407022229,1.95985721475364,1.96004334727162,1.95832093066728,1.96393979809821,1.95459461602499,1.95536898104118,2.09456305670116,1.95436359294182,1.95232643121419,1.95226617306811,1.88051276864769,1.88077197658433,1.95407902045637,1.95349730271987,2.00380471534636,2.00479231435722,2.00353703390705,2.00368574022894,1.95872361568071,1.88330507164189,1.95556270006581,2.07483402657027,1.89146880700495,1.96301385330377,1.96382192144872,1.89522024107393,1.97366151731106,1.9749105496761,1.99452322370704,1.99585565062028,1.9941148291324,2.06310908017015,2.06370483482092,2.04975455980117,2.04430602099929,2.0523547587293,2.04070783776083,2.04045093292245,2.0014494455167,2.03770597123853,2.03778825020714,1.96090547857618,1.96266521534207,1.96289524385793,1.96310322602634,1.96125572985746,2.0353090744413,2.04014814437895,2.04226285264015,2.05300101952733,2.05207284094429,2.04745281892273,1.95959638007066,2.02236519017223,2.0557949849819,1.95930820257806,2.04862674593095,2.04910983053507,2.05096001605912,2.04197662529367,2.0424216173553,2.04906861108582,2.04449846449591,2.04507406544813,2.04385145287399,2.04488442985365,2.05961592120491,2.05565311788951,2.03786372923179,2.03538824628586,1.9560111537771,1.95675504731462,2.03718649013158,2.03958121779832,2.04545031519341,2.04658456318651,2.04891108768617,1.9540371892452,2.00157135330645,2.03252814455139,2.03175064582702,1.94965487051389,2.03572962374194,2.03636654524337,2.03272356120098,2.03565968924158,2.02725318287942,1.9468575960497,2.01560082448322,2.03482569210719,1.94394997362383,2.0314938173812,2.04213381009162,2.02660372762741,2.03092673530834,2.0304303434686,2.01385251576164,2.01546266936213,1.94033775902667,1.93671485921637,1.94077958629549,1.93295559883359,1.93796633142522,1.9347538247404,1.93494082777851,1.93448488435913,2.00862445540751,1.93488488279869,1.94444341726839,1.95992822891738,1.85478250722174,2.05158681471161,1.96413671497169,1.90266783735105,1.84849084714986,1.845335338999,1.84488482955101,1.84224301659242,1.84178155818952,1.84036219448052,1.83823507072519,1.96807326762201,1.83380915849626,1.83416467055858,1.92826961369451,1.83477858565675,1.8315647705416,1.88227729330362,1.82887792231002,1.83055164886331,1.82983380724182,1.82765972300011,1.96275758570599,1.8669232959369,1.82950117293669,1.82861068839529,1.83022550620723,1.82875293083299,1.83010857886506,1.82774287924038,2.04125580041154,1.95822819002467,1.82772867241735,1.8282512181062,1.82680403901555,1.96073836474545,1.95557691401855,1.82655863000826,1.82661104030034,1.82681564103639,1.82839876989565,1.82854147470622,1.82764679248061,1.82814766419555,1.82845770578136,1.82822094449388,1.87591135832109,1.76181410237231,1.75982454476754,1.76061919156432,1.75633116050591,1.75444400871719,1.86461028942692,1.81030130091745,1.75178988049754,1.74664428781357,1.74828535978071,1.74456354597215,1.74502021162656,1.74468025085815,1.74332311302066,1.74026952645502,1.74057838061159,1.74210339226408,1.84899980334294
1.96147206749032,1.96067211202271,1.95988226229857,2.0125276717997,1.98472509540608,2.01122944753763,1.95513451517648,2.01065104151532,1.95616292535067,1.9548049811138,1.95571642215372,1.95580021171258,1.95496151784875,1.95417744457616,1.95431563303378,1.95424875052109,1.95454218904128,1.95949870987655,1.96030615020186,1.95903460027294,1.9578197036825,2.00143881890474,1.96077227343405,1.96201945172247,1.96200210138972,1.99891464358032,1.9998112944212,2.07121865750195,1.99689082978728,1.99585149336477,1.90578450839474,1.99409367278871,2.0566623301533,2.0643105028506,2.05030172144303,2.05169604752258,2.0409692727078,2.05425796995575,2.04775677298514,1.99437926805486,1.96457058689241,1.96272835662516,1.96364299588095,1.96269559070275,1.96355701168958,1.96119522414172,1.96181944252466,2.03343241941592,2.04311720865871,2.04463945608377,2.05355800106137,1.96032590881492,2.04501331950099,2.06219018953306,2.02076837973541,1.96025087105658,2.04083757791755,1.96009169373748,1.96002564746584,2.00877635741015,2.04248254207613,2.04343471370383,2.04174726769639,1.95771385353113,1.97136523426957,1.95754047465939,2.02981292124204,2.06199611952482,2.03201418071648,2.03555713023703,2.04069139300093,2.0325271854461,2.02984483805443,2.04206704249586,2.04035893741003,2.04811259824724,2.04085236946035,2.04134840324537,2.02742124486344,2.00008363869064,1.95092750637751,1.95047189857282,2.03244920194518,2.03466817092108,2.03822667316987,2.03252294865229,2.03391903969792,2.03467028971438,1.94706766914454,2.01220171059064,2.03479052921066,2.05040974506531,2.01681756443969,2.01973678772253,2.02320254773933,2.01756841059901,2.02561603284831,1.93853065260498,1.93810119887806,1.93919201940778,1.93920585656243,1.93453419355355,1.93734327234573,1.93227308816007,1.93546525920657,1.93396673946464,1.93497887499306,2.00828971741044,1.93502699724648,1.93745780733442,1.85952176694261,1.85364644216008,1.85200284507577,1.8509622801163,1.90258404958358,1.89864429964761,1.93670165945188,1.84330661420351,1.89256461995782,1.86403267257355,1.8394935876263,1.83780399855754,1.83714370204665,1.8352544378759,1.8344108249018,1.92944673772868,1.96796542839965,1.83072318076697,1.82964134318526,1.82945628583862,2.03468593619062,1.82999382112998,1.94808229702985,1.82745115450951,1.85831490618925,1.82841162588704,1.82860322117547,1.82830059421696,1.82930574204159,1.8294777052566,2.04467679479877,1.96096840766988,1.82646076443804,1.82718328725521,1.82852143145326,1.82661912608334,1.82655485986776,1.95578410805149,1.82694193317586,1.82668745712135,1.8269904343318,1.82735982731697,1.94973308004146,1.82678496400321,1.82724359296969,1.82908287842929,2.02126436446118,1.81277431780449,1.95999746498082,1.7577840275545,1.75749084786892,1.75648597470655,1.85545060763814,1.86647332165394,1.82881612864972,1.8561435949097,1.74623529221099,1.84977730206731,1.74317099618136,1.74281369686283,1.7952848486426,1.74256376942987,1.85269891815338,1.86410585326782,1.74170475199635,1.73984777484393
1.96290115290756,1.96246880440283,1.8900887471581,1.95846727003961,1.97507648424536,2.01131736192834,1.88327623888696,1.88358705851721,1.95586535167185,1.95525104742832,1.95652770298989,1.95508573684704,1.95426757393763,1.95451958325692,1.95506222736108,1.95372529765118,1.95455176835504,2.00392627374206,1.95855758665458,1.95865134453831,1.95740739071724,1.96184428202117,2.09505871213795,2.00189483635274,1.9629547737887,1.96455216534421,1.96739253535794,1.99859502965478,1.99778781374214,1.9966708438657,1.9965526139925,1.96990201767213,2.05869544912431,1.97033450489457,2.05197531599927,2.05036680651475,2.05995792301858,2.05753131676914,2.04528040704635,1.98999949322359,1.96425473183928,1.96414809885379,1.96319917798199,1.9645234793257,1.96403681261321,1.96380893337067,1.96292242365512,1.96342649896011,2.04392414117862,2.04768724234309,1.96041087415387,1.96043477537241,2.04121028476863,2.04235997767949,2.01906490947796,1.96075371190462,2.04537995443385,2.04712189772821,2.05917237833741,2.01231275036578,1.95933150697872,1.95903654789187,2.05485530849166,2.02876238367689,1.98582328671623,1.956841323713,2.03101252263116,2.02912948927326,2.04524297565905,2.03036772285433,1.95448251517014,1.95464083337995,2.0336404095675,2.03653480686796,2.03819083772152,2.03853262024862,2.04012300059494,2.04315699116267,2.02577323149258,2.03038597152037,2.03277203786364,2.04184156527165,1.95066534531696,2.0399665054198,2.03882355566433,2.04155131251078,1.94785337268402,2.03589786258026,2.03586490637947,2.00917687039437,1.94385190324883,2.03842164278702,2.03435073056475,1.94326880762024,1.96007503014343,1.94047006176274,2.0147314535546,2.01363604502747,2.01421224412478,1.98360108088939,2.01347988486492,1.93736707163112,1.93451625860248,1.93615871662165,1.93507248910529,1.93490329264732,1.93452535883278,2.01627709484442,2.02414316501573,1.93798246842284,1.85935745897772,1.86154700163955,1.85484953183471,1.90107732942671,1.90390395937735,1.84663229675419,1.84507924298862,1.89275807633387,1.89216129319087,1.87460159340221,1.88954101983745,1.83665454624752,1.95801484323368,1.88495285469612,1.83520903760042,1.83417016577631,1.96475109945757,1.94575881385631,1.83129939022945,1.83042219844162,1.8307281866404,1.87977952452345,1.8307228214298,1.9569166262855,1.8861878526363,1.95720818830714,1.82785229469635,2.04598882389614,1.82784522814872,1.82873727188684,1.82775004302555,1.82654574515102,1.95666370652098,1.95635270703123,1.82994625584538,1.82717684528032,1.82628623570375,1.87419042992479,1.82670717828482,1.8266959985374,1.82711087219508,1.82603737396048,1.95505156576648,1.82647090160538,1.82639472049229,1.82620869547879,1.82639096387163,1.83195495160632,1.75782674667438,1.75665574689073,1.84463313057512,1.84287084295612,1.75182032009779,1.86084699231828,1.82267835861247,1.74723631974542,1.74561465137586,1.74334554798551,1.84633687021197,1.74163012473163,1.74249037877694,1.74229369105303,1.86347065329427,1.74083578150857,1.74132093903763,1.74045983486704
1.96121296485471,1.96073930922826,1.9600602779616,1.95968264116012,1.95965976048579,1.95922044533552,1.95854604284714,1.957033528362,1.95573905971074,1.95428994869433,1.95500458669183,1.95551292292597,1.95550691889893,1.95584177436892,1.9562054486035,1.95613423472729,1.95649178247054,1.9576868515487,1.95846057555566,1.95905301488408,1.958535008598,1.96396172194079,1.99339193179586,1.98731497814826,1.96167071173398,1.96355118973878,1.96355735174732,2.00037293783284,1.99896566047429,1.99630140005346,1.990049337669,1.98261752724382,2.06480585524996,2.05933969898333,2.05662903875403,2.05386373484462,2.0527970111702,1.99801077706294,1.98848065167882,1.98483159486129,1.96708732886369,1.96561595025176,1.96640908620797,1.964988457324,1.96558264786912,1.96436696037601,1.96391334475057,1.96363167997874,2.04799774953319,2.04869177216012,2.03474825364811,2.03435272753129,2.03578725556729,2.03806023911918,2.01881320366205,1.97873684633327,2.04313900360243,2.0489197242851,2.05207002784232,2.01344227865686,1.9804233521663,1.98957548338139,2.03198567923691,2.03069817952804,2.0300023217492,2.02994532847113,2.02909873394193,2.0314493096706,2.0410667045753,2.03008900463138,1.9567969450117,1.95675073818935,2.03380944760131,2.03534939113177,2.03630431095672,2.0386986787983,2.03958399066563,2.04067489545462,2.03767722145645,2.03871637867711,2.04083976571577,2.04236555704363,2.03546222417378,2.03642070558936,2.03417594571394,2.03034754479464,1.95922701668515,1.96879676497332,1.9802397358479,2.00931579123509,2.01163901085524,2.03316621931571,2.03391303460025,1.95978576377508,1.97289344426136,1.98342612331461,2.01214878322431,2.01164885383257,1.98605048944277,1.97582911133155,1.96304861542963,1.95313418580836,1.93653878020421,1.93570860060667,1.93621177523591,1.93567633068425,1.96480051075834,2.01107679319347,2.00945737354113,1.9380963422965,1.86062470789524,1.86077264786526,1.85905292739714,1.90317549856124,1.90458576624585,1.87773229310269,1.85131870317989,1.85710481665073,1.86298441519215,1.86918525400557,1.8748727768686,1.87935810616194,1.88372821265143,1.8838493862792,1.83273398652442,1.83279189217316,1.86330396714219,1.85753397647118,1.83172375653369,1.83237279598611,1.83121131818557,1.83242135590832,1.83106493419115,1.85070111460111,1.86266533914159,1.8750632647086,1.88501896445755,1.895210907734,1.82855617039958,1.8286829571186,1.82770040528335,1.82654334206471,1.86404412272893,1.88524430762641,1.83081598234312,1.82776031249065,1.82649284292711,1.82194052800893,1.82511422599199,1.82575589802263,1.82543565944354,1.82319063931334,1.89118473018802,1.87642320074892,1.86473243972516,1.85363255660818,1.84408284851891,1.80509751161304,1.7572339276061,1.75666159336789,1.84338360948749,1.84248793137283,1.85217605771407,1.85178257015395,1.81874993656236,1.7463416939555,1.74526240527899,1.78245612770131,1.80223090484417,1.74148769210217,1.74165798498537,1.78734648777067,1.80563076561119,1.74136421295818,1.74320021781948,1.74175782364196
1.96303941242513,1.89027340312183,1.96089310051771,1.9609990066564,1.95937034872322,1.95750327924155,2.08497066618925,2.00858095116169,1.88308730871348,1.95318965657524,1.95345065249181,1.88114751276506,1.95588430155947,2.00840650021156,1.95666550164773,1.95652720556608,1.95685552073414,1.9569681812916,1.95791897916195,1.95865683688126,1.95874243124617,1.96324110321245,2.00215136299732,1.96316828481954,1.96217363659161,2.09573902352177,1.89923537133076,2.08062458532493,2.07178368546082,1.99490124561421,1.90956791505549,1.92164440616001,2.06032223389055,2.05145572984705,2.05702092698772,2.05714879272699,2.05696152738165,1.96626441066496,1.96834689257271,1.97858167753563,1.96371922436227,1.96675868953492,1.96285537672262,1.96723935891244,1.96498728490211,1.96492227488166,1.96256844259079,1.96342078247023,2.04259621429344,2.04565026964186,2.05946026241215,2.04767612332502,1.96144339417056,2.05748213199034,2.02031047393944,1.96076298814894,2.0345189938709,1.96039152145839,2.04726983669608,2.01351273609963,1.96070806497174,2.04939999674412,2.03380718150989,1.95744791752323,2.02979063066395,2.0416070475279,2.04302613250488,1.9553495828044,2.05380881897416,2.03027448278536,1.95519723416116,1.95509892379438,2.03062943969527,2.05496947073273,2.03981687637285,2.04282202445494,1.9520939480646,2.04353095941983,2.0430641028985,2.03894060700489,2.04304776438084,2.04221221082623,2.03411100895654,2.03726604414732,2.03258962030338,2.02880533069516,1.94819593063107,1.94570685878487,1.94492955247752,2.00841872311208,2.0445372767161,2.03310062422044,2.0347912082969,1.94373661458092,1.9821337945598,2.03804168633121,2.02267057037917,2.02171149011761,1.93877936639404,1.96357539587661,1.93765088726469,2.01343106682958,1.93572201951195,1.9355139869243,1.93578821963657,1.93536678392261,2.0147125455913,2.02113902427792,2.00875095011057,1.9384641014027,1.8587052355211,1.96343789683616,1.85470187811793,2.05418171670419,1.90886034779546,2.05500780909884,1.84659676848552,1.84403506486499,1.84270492833215,1.85584585641353,1.83797678509282,1.88819872533991,1.88567642315408,1.88425283152143,1.83454596153787,1.83307208323491,1.88059792775089,1.83239242967589,1.83192446054564,1.8312464172169,1.83353961744559,1.82503453349656,1.83371788525912,1.8272230254787,1.82822732095895,1.82837890503,2.05237835910273,2.04583931585346,1.82749822752367,1.82776053405582,1.82707094568774,1.82524059275414,1.82534926106385,1.92351333733976,1.82917055578282,1.82707597537013,1.82508946629563,1.82547557483341,1.87321433123352,1.87233551918633,1.8733866024171,1.82598192285397,2.03708646350211,1.9448357744974,1.88837695597219,1.94362637071438,1.94415974387382,1.76360876140772,1.75753446261133,1.75679334979117,1.84482679550399,1.84416755692594,1.85535393832168,1.85240449528937,1.81291704695341,1.7477096976215,1.74603981887408,1.84585536290155,1.85294396265562,1.74130307940361,1.74253244128179,1.86214901783975,1.8624600173295,1.74072794651013,1.74208175841055,1.86317943632864
1.89093427683137,1.96379007641015,1.88961253152441,1.96118099318601,1.96922512435761,2.01082148766253,2.01124791000023,1.88356740797368,1.88322982522706,1.95372554801444,1.95694292485656,1.95601121785759,1.95619186907047,1.95728597630551,1.95640237095204,1.95585188630591,1.88163345086557,2.09563211744717,1.95786216893017,1.9589957417919,2.00404305071027,1.96134067492625,1.96304509881336,1.96350683348055,1.96551141341615,1.9661447786675,1.89924296100315,1.97287515369827,1.99766348027509,1.99717678008588,1.90703738421584,2.08325146774567,1.97107496037029,2.06379830821088,2.06460246112845,2.0636224595708,2.06472469260395,2.06183855706205,2.04176778139628,1.98528135153658,1.96598931784963,1.96397678130187,1.96771252703988,1.96209876345437,1.96611384384408,1.96487704461581,1.96464066242743,2.03724144123387,2.0578105172206,2.0473087305987,2.04338339899744,2.05317162811151,1.96155066669387,2.04929956576607,2.02178055832797,1.96126260852113,2.05141236351862,1.96059668190318,1.96056522954925,2.01354551338279,2.042401996524,2.04903409561725,2.03369494830784,2.04185266815908,2.04536956778942,2.04823324998134,1.95666379918992,2.04383140845958,2.04596778857735,2.03080872111656,1.95403133872821,2.04072064297793,2.05775851043505,2.05607249615794,2.04384593021295,1.95359756616109,2.03572584073446,1.94982566296211,1.94978571059947,2.03477819605845,2.0416910573396,2.0392222639716,2.03780325044161,2.03036663278891,2.03431568097159,2.0350154062758,1.94788120014297,2.02928389644717,2.02624472194273,2.00799689112512,2.030754076491,2.03420166744843,2.03649929515122,2.01277402383067,1.98878162439214,1.94066476960554,2.02431080179624,2.02860597667703,2.00799782851125,1.97813232346541,2.00654092086186,1.93680068005916,1.93651181783523,1.93539693723254,1.93612013887126,2.00852310771686,1.93174538395448,2.01755916950876,1.93519293861496,1.9374590449139,1.85779811814408,1.90591021615965,1.90282373384825,1.85074065777773,1.85136506889744,1.85125660242428,1.84620318237467,1.89453225450469,1.84298492709718,1.87012928209353,1.89039627353783,1.88793142619626,1.83757404001192,1.83722637569086,1.83657284754369,1.83633957244439,1.9648859882103,1.8332906561584,1.83177020660599,1.83283269933283,1.82665214454708,1.83759946450739,1.82361720699581,1.83208414642226,1.82753127166351,1.82849108700233,2.05142685588401,2.05189009321638,1.82668361576192,1.82687781882764,1.82591105742297,1.82455155803195,1.82455271903961,1.82485276566698,1.82687375484801,1.82554053000985,1.82339759458139,1.87337362568217,1.82479940805561,1.87193055201741,1.87261536081312,1.87308581403102,1.8258626695047,1.82564897421726,1.87077974106767,2.04525991884205,1.82435559105737,1.80897359494211,1.75804136616699,1.75605817196412,1.75450146330113,1.75250758839881,1.85435697994186,1.85890347552896,1.80574828273882,1.74597769011087,1.74399760904999,1.85941457285429,1.73880659729901,1.74048195218031,1.82991221155629,1.7415566580108,1.73906115804771,1.73842221760379,1.74034682454201,1.7354711419202
1.96669806472152,1.96452384201151,1.96624421850612,2.01421781417527,1.9775204323527,1.88628727796672,2.08524279074278,1.88447802959827,1.8839825214356,1.95431468421205,2.09545718023419,1.95491412618263,1.95478030735252,1.95580713078371,1.95631573894198,1.95605053144307,2.00731798109279,1.88332451059107,1.9578112077785,1.95903831322142,1.95913250650886,2.00274102159569,1.96359422862719,2.00381025988063,1.96754926578178,1.96770969273432,1.96940163322852,1.9716615292849,2.08048061105601,1.99951372585153,1.9981165852388,2.07171017812533,2.07140339269228,2.05887336642774,2.06891897966972,1.97056069320489,1.97035646938155,2.06485350258772,2.04196162445671,1.99484427847133,1.96560958359779,1.96665551374783,1.96154342171693,1.96599251053288,1.96494038040045,1.96532426140882,1.96431515019123,2.05185244600343,2.05463056710474,2.05253063512128,2.05245104912309,2.0587455619738,2.05449441803449,2.05489566428607,2.05174188580035,2.05601768963923,1.96107084065102,1.96047968380465,1.96110566721422,2.01343055652246,2.05675960503759,2.04082014755737,2.03322373469582,1.95714749375897,2.047141228538,2.04558082770511,1.95713494315799,2.03566475859275,2.03798406833019,2.03749124149527,2.0505017243782,1.95690504611864,2.04830402252284,2.04129144929563,2.04302876858086,1.95329856373633,1.95244836655856,2.02442885302899,2.03245763255312,2.0285203227872,2.02827280108724,2.04084082320703,1.94880933308034,2.02718583042795,2.02830306641608,2.02816295637392,2.03137813544629,2.02034458656975,1.94461046081203,1.98867782337683,2.03857555049013,1.94290382260305,1.9414006584026,2.02577542962121,2.01870747540568,2.02640669509709,2.03748788998556,2.01943207296172,1.93638814407565,1.96885068453277,1.93815673581438,1.93684099205738,1.93678673498804,1.93566064986114,1.93682636896106,1.93503733276078,1.93423714415052,1.93424757223588,1.93442083428547,1.93664980410912,1.85775858242079,1.856632519272,1.85501040825786,1.85322117453307,1.85293958254137,1.85287032422235,1.84629074493092,1.84645137620323,1.9622912488921,1.89035575546438,1.8410299293352,1.83702900138705,1.8366787451044,1.83736753081622,1.83948067209699,1.96229108621771,1.83372981071032,1.94032674725426,1.83277285905704,1.83125998978046,1.83604051470148,1.82496649529089,1.83325072247555,1.82381438998977,1.82905106370404,1.82759697678041,1.95712488103037,1.95737756811579,1.82714509760981,1.82655324184014,1.91861463001802,1.9565156680948,1.95567256791556,1.82449471816211,1.8259199297416,1.82513652926366,1.9399963102964,1.88630985749558,1.8232423794973,1.87219466074142,1.87221263144472,2.03283937672024,1.91497908460145,1.94821863282855,1.85177868188086,1.82436157182952,1.82369464755264,1.80769291903268,1.80694227455033,1.78622509838745,1.75525431532694,1.75022663068895,1.79728111632456,1.79557686045203,1.79952244774753,1.86055346809648,1.74249831851053,1.74182149705197,1.74073476622953,1.74074081528443,1.73867004131364,1.73771666073069,1.73593298870987,1.86376209501372,1.77879628047127,1.73516099525136
1.96564035518569,1.96462847062722,1.96536355386378,2.01482087736613,1.98191799732652,1.88635866565817,1.96033625349422,1.95845749831432,1.9593413685896,1.95810938117586,1.95666219269012,1.95728032971803,1.95930742754086,1.95843925157414,1.95701115191323,1.95812798884685,1.95852496671808,1.95865692591174,1.95812912314704,1.95936431385857,1.9601723062293,1.9621620445453,1.96415355442544,1.96670393559975,1.96789793840604,1.9669819254942,2.00096977711758,1.89975888737483,1.97803330046244,2.00220754149123,2.09567099238339,1.99961332933404,2.04745759081122,2.06964463300994,2.07187322597293,1.97084834791317,2.06154891108041,2.04150008189274,2.03967975348904,2.03766818121901,2.03994611036123,2.04408852395895,1.96618496664539,1.96442659310251,1.96692081689189,1.96598952895637,1.96528962771809,1.96406055032674,2.05383386865766,2.05098130826405,2.0487782198941,2.05720846082221,1.96337706744422,2.04491530014522,2.04879416891133,2.04528812609936,2.06856293905463,2.07089056403627,1.96147452596362,2.01256710703132,2.04831660370992,2.03586143017094,2.04587150024897,2.04858876485185,2.04774125156692,2.04916946836305,1.95751704627054,1.95673256252307,2.05467859374899,2.04160369527017,2.03688665060995,2.04137549661747,1.95421256161729,2.05114762349528,2.03899819254092,2.03943383970733,2.0373176623907,1.95144690474657,1.95146728681343,2.02555768183763,2.03175299555057,2.03166273749607,2.0430070012214,2.0282635462532,2.03271971115223,2.02734569576855,2.02901198001355,2.02669490731755,2.02447279191143,1.9821352018531,1.94483725593839,2.03141999521466,2.03374742275471,2.01908435882317,2.01721650963743,1.93999417624737,2.02176243160055,2.01427356428369,2.01102681342872,2.01313487273901,2.01341216298803,2.00567739272195,1.9368812898045,2.00774561993486,1.93924724801155,1.93826433369477,2.01347852586999,2.01628903988044,1.93426440392828,1.9355602517259,1.91005759663968,1.95369000855324,1.85545570219989,1.85357634352653,1.85504277357516,1.97005635472736,1.84708752000394,1.93435866296692,1.93228930621862,1.91303384155855,1.96028902700246,1.83942921733362,1.9635350841767,1.83749979505071,1.83834629003594,1.83572819290233,2.05455102859827,1.83311504032164,1.83126397622394,1.83208254956585,1.82777830375091,1.83444083866408,1.82278793733637,1.83215285676287,1.82850448991122,1.87598960688211,1.82554460747976,1.82378327381802,1.91833325208864,1.82399708848069,1.82434036603111,1.95571792200782,1.95661933459138,1.92023765860514,1.82707646013604,1.82599876169778,1.82416274404627,1.82307269388117,1.87122105547679,1.87218943484977,1.87251670075354,1.8215152960635,1.82250219192864,1.82300883956688,1.82391533184536,1.82335074750845,1.82295880725834,1.75594319828996,1.75261537932823,1.79839841325392,1.86967155067713,1.7492189747221,1.79831111911172,1.74401573020436,1.79315711465583,1.85699930079091,1.95593503414599,1.8572116682609,1.74016246524192,1.74061259001735,1.73917450704031,1.73653072115419,1.86246950338445,1.95876318575588,1.84973485545297,1.85035082294027
1.96731942700256,1.96711884107055,1.98200720202634,1.99479841337533,1.98454389646883,1.97728933765055,1.96043198939085,1.9600000655392,1.95998467926793,1.9592962564312,1.95871750425937,1.95770037847776,1.9586789731904,1.95788198911725,1.95816902551472,1.95728625009373,1.95737079934121,1.95800706257495,1.95884715939041,1.95960487359905,1.96087573695392,1.96247626250493,1.96435343299269,1.96603452538868,1.96655964749661,1.98240900144196,1.99562037213899,1.99281426549958,1.9976652103559,2.00328759658796,2.06736176847068,2.06091185387235,2.05407420817838,2.0680930295367,2.06641621192091,2.06213598358041,2.06190104404937,2.0491539628831,2.04405785228866,2.03807105591372,2.03926923942991,2.04130477853364,1.96595032413798,1.96693054836004,1.96748548611588,1.96757111294318,1.96573126069963,1.96540622672704,1.98536968925591,2.04598436091748,2.04706083198158,2.04802261655067,2.04781791369263,2.04928834759334,2.05034022568079,2.05104444186732,2.05052832306901,2.05104252177659,2.05055270648796,2.04722274180734,2.04663355800942,2.04314910783297,2.04102790158946,2.03786991449705,2.03892123869327,2.04336190112231,2.0534583729359,2.05482669002799,2.05345456213552,2.0497211882222,2.04213464396927,2.03606026491403,2.03241619930838,2.03244941300599,2.03549299235798,2.03818092123888,2.03909889714836,1.9721139789286,1.98931312614941,2.02731030178173,2.03029120294164,2.03233633947459,2.03326372762283,2.03321228148137,2.03427820571154,2.03247281053764,2.02963581565967,2.02878724192756,1.98279099621296,1.97369892699571,1.96360943349354,1.97868779137112,2.02168994835014,2.02103452469612,2.01759123836923,2.01876237320453,2.01764357238099,2.01276038714078,2.01279705578985,2.0131682914939,2.01252588629377,2.00687496177389,1.93804976442132,1.93905313864441,1.94007802948641,1.93928898306288,1.96708124166375,1.98228667323994,1.95586735882548,1.93396808464221,1.91075497077056,1.89154235590331,1.85567916325228,1.85510977999368,1.85605758603569,1.85662835496687,1.85490183554919,1.87785771794963,1.88962033018958,1.90215211754465,1.91576985794594,1.83819160723796,1.83748169984239,1.83878899929259,1.83900872241735,1.83786526890358,1.83681621638908,1.83205426437979,1.83134228879549,1.830913308273,1.83137555030196,1.82842060510502,1.83135397694024,1.8283172702027,1.82880878987017,1.82197541728295,1.82006083431901,1.81890664844738,1.82015609893523,1.82202518985738,1.82234570110019,1.82328044624612,1.82279090200432,1.8246712663223,1.82584928013874,1.82671899656295,1.82492402477362,1.82328497746201,1.86334128176469,1.85785449757469,1.85153663531506,1.84423196261111,1.83686704433047,1.82386083151775,1.82422396592256,1.82395022607188,1.82410213432257,1.78726514888857,1.80025946792485,1.81517735043879,1.83220108438647,1.75815617440585,1.77115278686171,1.77991241055839,1.78549662412794,1.80228971232353,1.81989888257672,1.79865134283972,1.78076363000442,1.75367166214521,1.73840559178301,1.73754977752081,1.77503952583382,1.85301815092973,1.8513349782576,1.85132463699004
1.96550335564554,1.96620864786886,2.01562334877571,2.01506763308496,2.00528710809085,2.093930498941,1.95903100343087,2.01538406499993,2.09445615062656,1.96019892359246,1.95755035066113,1.95801721081752,1.95808999103479,1.96019110796425,1.96173942446721,1.88383523955211,1.88357192346724,2.00771645150145,1.95996991969179,1.95960847191149,2.00468450955152,1.96257273314347,1.96424931313008,1.96517152716091,1.96601923172489,2.00373806612555,2.00247268523855,1.97523594146224,2.00413203166208,2.00480744477744,2.10906347090285,2.07015805688925,1.97138502430202,2.06440917197923,2.06246062601936,2.05571098687394,2.05839866685924,2.05096914824981,2.04588562921512,2.03855564516817,2.04338730225393,2.03949635901001,1.96590897987645,1.96643571717171,1.96752345744676,1.96637130502054,1.96401480000722,1.96400256592624,1.96367929209385,2.04255453896268,2.05118554837586,2.05168720295691,2.0534680575054,2.05695830066277,2.05097282585175,2.05456889415502,2.05101819237183,2.05825328892046,2.05593010335908,2.04476752214252,2.03387312238656,2.03455658156401,2.036130399677,1.95956666367766,2.03657578523519,2.0336725920298,2.06127968002273,2.04742430541885,2.05277150750781,2.05518544911217,1.95629147495484,2.03874670628358,2.0378724608406,2.03733948559225,2.03672155034884,2.03647719855268,2.04098950661963,1.95330968738889,2.03279136741809,2.02918308200038,2.03117715476773,2.04516748848409,2.03071127604305,2.03025922965827,2.03648952522599,2.0335893182373,2.03506815240582,2.03277804292447,1.9440283402924,1.96073942515526,1.94343770949695,1.94304229002914,2.02088872314406,2.03762104525369,2.01912058516091,2.026106202675,2.01379825829194,2.01224013871567,2.0123554494293,2.01245382714048,2.01165541514694,2.01300639769221,1.93505419182504,1.93662696092242,1.93692060529644,1.93565671524762,1.93585772772227,2.01532668878943,2.02470618317852,1.93645284291023,1.91020756135415,1.85681859109346,1.85532360345516,1.85389598862414,1.85533758318742,1.8538738641028,1.85122481206985,1.84653760337822,1.84439142621184,1.8925168655325,1.96012619749926,1.83952449036308,1.83929829561859,1.94077380902077,1.89574551659401,2.04164454977373,1.83588430642079,1.83057580388338,1.83007588407009,1.83074735058819,1.8294200175333,1.83051623325906,1.82836132589545,1.83078774498238,1.8274990512615,1.82847652769441,2.04353947023528,2.04186784797788,1.82457379719816,1.8226251898038,1.82400892889019,1.82565685823198,1.82205618473758,1.82354084392181,1.82424853161374,1.82085350740476,1.95438003669725,1.82126441362606,1.95629462730601,1.85028898095108,1.8226304607289,1.95053118533251,1.95057006026873,1.82300735455988,1.82331310419585,1.8227159859263,1.92966529599633,1.75373455285934,1.90526155478517,1.83220714649855,1.90664161502093,1.74885231462324,1.74679561890153,1.79385866826517,1.7766287841046,1.74214976293692,1.95621687743357,1.73998183870846,1.86189309117631,1.76180281543144,1.73812804413596,1.73713343166851,1.73552159464527,1.85698888380154,1.85239805255378,1.85230400476327
1.96636468078221,2.10434982189417,1.96471885364453,1.9639987242133,1.99297072977396,2.11498249163834,1.96094618048124,1.96147083071948,1.96029130334362,1.96059029013051,2.08825559829971,1.95821409226153,1.95865869752667,1.95847375241649,1.96295865640618,1.88405151217479,1.9569479781007,1.88372297868731,1.9603963519918,1.95988682764139,1.88969027933771,2.0044128119929,1.96828419906109,1.96755486815708,1.96606836671767,1.89503742569228,1.97110392370712,1.97559448376555,1.9758270650002,2.00672393558754,2.09236411485935,2.07277840408735,2.0751946600588,2.06303367011815,2.06025224007807,2.05891697724405,2.05708167267919,1.96953145621522,1.96912033847827,1.97070500745389,1.96873262596706,2.04198651814713,1.9653603138075,1.9663774146196,1.96678603377652,1.96553881479619,2.05676757508362,2.05774334102315,2.0563469892034,2.04187561785207,2.03587329300776,1.96465692279386,1.9638894303402,2.03570662331503,2.03934410450596,2.04314348839096,2.05201172875063,2.04419322174619,1.96071421288523,2.04288241032349,2.04751020976829,2.03488625928843,1.95993729114368,2.04674245696611,2.04048354395633,2.03130381234469,2.04292622994217,2.03113568570447,1.9569237911059,2.05624090093505,2.04812355463931,2.0492135936283,2.0458680685462,2.05085146281217,2.04522026037085,2.05226787696054,2.03725530713751,2.03592091280672,1.95029601567615,2.02913620458789,2.03181678752885,2.04003354502948,2.03172749211481,2.0404181534166,2.03499346423869,2.03029709730797,2.03655192794231,1.94392081742166,2.03868834719867,2.03593494570475,2.03537419231186,2.02625951379592,2.02886766990264,1.94177293255134,2.01303310788494,2.01466079921227,1.93721489092397,2.01179619992795,2.01210231269179,2.01286246692143,2.01208305522783,2.01325836323676,2.01196843078187,2.01110832686358,1.93535782567672,1.93395972983009,2.00897651797025,2.03553297421736,2.01018428102305,1.9526819330448,1.9618255080656,1.85685180501779,1.90427903192925,1.96326468897673,1.90458341015231,2.04367576519114,1.85022579108318,1.84495400037831,1.84388142604479,1.88111307654869,1.95356080870272,1.84075727004844,1.88658172895809,1.83881252288971,1.87321558409735,1.88450678051316,1.83320464035935,1.83252144000056,2.04815610159033,1.85502238150243,1.82970963625105,1.82672580346457,1.82916842695908,1.82719362391646,1.82816939735699,1.82697136648247,1.82698798361135,1.82682252905573,1.95744143792445,1.86945489515343,1.95660562679575,1.82417941089716,1.823539449406,1.8224280647711,1.82336211232798,1.82188322787342,1.8222091693749,1.82135542433735,1.82212085268612,1.84355410608337,1.95378735198009,1.82055682816086,1.82020471917862,1.82151324039622,1.82209190065181,1.82093550782525,1.82219755723302,1.90341962200272,1.75287017837692,1.80737294856728,1.85769760496363,1.74834883954773,1.74621216102393,1.74610427514209,1.76291452549699,1.85793131993914,1.73980589388123,1.73931919712666,1.86195788273667,1.76797854255729,1.73621352991384,1.85611692356984,1.85612988188192,1.73317976351461,1.73267424658966,1.73122208563866
2.10533141403369,1.96539253610965,1.96505157084408,2.11515705416291,1.98393566453761,1.9642497153459,1.9624500677633,1.88672934261678,1.96035279101841,1.96078658374501,1.96017872838478,1.88427694028603,1.95821960000592,1.95888693107222,1.96270525530128,1.88455228733246,1.95683575008363,2.00742488716739,1.88707594036827,1.95990596909483,1.9604604875172,1.96223819921361,2.09628627952775,1.96714437973281,1.9658923866674,1.89582142259928,2.08490263505086,1.97405280032177,1.97388427880543,2.00755519746206,2.07547724989695,2.07892471826404,2.07029859016947,2.0450117350118,2.06158702432459,2.07360956760771,1.96941784211414,1.96966690723574,1.97046031343865,1.97149608125205,1.96775887851309,1.96760926598156,1.96694995465366,1.96665281491892,1.96754169452349,1.96569119964113,2.05480285890623,2.0396329433182,2.03635913866527,2.03993839145743,2.03604759913454,2.06079117992697,1.9635606495925,2.03433335348991,2.03520996069151,2.03114247166984,1.96399972197852,2.05560056679226,2.05033684399403,2.05048248524687,2.05283692624201,1.96162835086919,2.04399222075988,2.0475177326713,2.04253556841444,2.04134261211688,2.04376442837919,2.03526688758805,2.05457167888707,2.05750314076261,2.04853702629702,2.04895020380733,1.95318277097572,2.03739611432917,2.04255863629056,2.05037731982247,2.03146580836027,2.0479580216223,2.03351730297055,2.03228622652507,2.03229660343779,1.94947992383596,2.03248131115914,2.03595938914807,2.03790935917003,2.03738752420984,2.04107260367369,2.03225182021464,2.03650687840501,2.03817230043906,2.02815460113975,2.03674477902054,2.02901963931079,2.03186661526646,2.01448310086062,2.01965365315468,2.0312294937919,2.01153325890885,1.93763116449235,1.93845428059122,1.93643648757458,1.93506827524415,1.93412661497296,1.93495580986038,1.9342272703754,1.93333965103505,2.01021875324271,2.01653824153875,2.01994136517303,1.95533435903013,1.86282951125042,1.85788084869734,1.96372341322411,1.96184741001492,1.88541929100717,1.85168313528031,1.85128248559638,1.84569703067821,1.90868285835436,1.87100312411464,1.84305753511688,1.84125830334873,1.94693363394329,1.94684940491482,1.86611324940829,1.83546284852412,1.88245940867989,1.88222027118421,1.82965765924029,1.86106345986488,1.92291140340534,1.8297222080694,1.82733967356518,1.82833348566813,1.82707784411733,1.82659404727588,1.82665122706872,2.04214020521051,1.82384980718994,1.82552295262862,1.82401437107641,1.82338502564851,1.82260316170289,1.82389428047206,1.82300913544403,1.82222150449659,2.023723204177,1.91242379642523,1.82084167267808,1.83837429955077,1.91802113394209,1.95059721829601,1.95019417904988,1.8217448395813,1.82198581725778,1.82185801630853,1.82067881825495,1.90332243466217,1.75244254946008,1.78829035059123,1.75021663361287,1.90749639825953,1.97731624906616,1.74182594536842,1.74231844715567,1.74015788731066,1.74047869164262,1.738506244736,1.73598657634457,1.77245919474833,1.85478245010544,1.73306983881757,1.73356573347806,1.73155570777024,1.73281011528496,1.85922509790187
1.96653699308107,1.96642555821178,1.96521094216653,1.96402346137197,1.97633362637449,2.01602596680573,1.96098235105102,1.88666494373684,1.96140209732838,1.96138053406149,2.01380986276218,2.01392648757083,1.95832779149027,1.88448103941862,1.96227231262206,1.9577935715534,1.88533855796388,1.8855773011593,1.96038240817116,1.96009301117901,1.96091090373961,2.00679270409564,2.09750436086259,1.96713220135557,1.96592959207228,1.96980273942852,1.9717661747608,2.00715702859792,2.00207058994241,2.00595663994395,2.10121259179451,2.08850077391958,2.06322316595479,2.05447162810513,2.0547886633105,1.97410510765882,2.05686674267481,2.05286835046358,2.0516370771168,1.98360729070173,1.96796111744625,1.96702626804446,1.9674248651191,1.96860355454426,1.96971720188319,2.04411682658176,2.04401587546778,2.05353683839612,2.05516168675047,2.0073530910634,1.96411876412504,2.03768252033692,2.03515390395755,2.03293441042166,2.04139490270606,2.05533307878228,2.0601066043607,2.0513916258495,2.04861304267784,2.04873284570668,2.05463122019143,2.05178183456086,2.05306140224096,2.04903310988669,2.04380682716332,2.04328381086132,2.03422872608195,2.04928359922265,2.06781213131632,2.06031352844375,1.95536840853603,2.04793025568263,2.04320381414238,1.95413410372077,2.04200437216796,2.04037449051143,2.03177580242941,2.04671199441058,2.04978686132474,2.03348346462748,1.95013013137317,2.02951957005312,2.02782241594063,2.02555974515773,2.03055649417203,2.03088653093396,2.02337935824987,2.02360706406362,2.03944506782262,2.03832197985964,2.04174700148391,2.03370438664407,1.93841858158258,1.93750680953672,1.95046332540599,1.9387498213063,2.03401437832221,1.93705044505692,2.01222594179038,1.93914693735635,1.93732017831823,1.93627041346003,1.93463767554539,1.93465937950989,1.93375334309823,1.93302116103108,1.93215860908073,1.93135464595329,2.01410646488382,1.95664975518458,1.86221412524992,1.85683340731354,1.85602727975019,1.85339278804129,1.85319081982033,1.85147076631391,1.89734092577851,1.96629520464822,1.84410273993861,1.83827525098424,1.84278916568375,1.84010426214019,1.83834962371075,1.88638774562195,1.85989143388364,1.83378953968826,1.83410852002025,1.88252646590715,1.88126556436111,1.87748204658454,1.92345393653476,1.83031865665441,1.93285304076625,1.87707971813012,1.87747120577712,1.91485394529708,1.82625748156778,1.82797487125124,1.82421018726406,1.82761791297835,1.95634275561808,2.04547373099125,1.82355257481309,1.82270040233244,1.82328763166547,1.82281630605624,1.82240658281287,1.82216971922007,1.82175426615396,1.82347734381375,1.82192596759109,1.82104367848059,1.95199736014148,1.82031480926152,1.8473214654444,1.94674111173031,1.8201685106835,1.75360856716409,1.90295821481422,1.82440874142114,1.90487280542298,1.74899277024375,1.7450697375326,1.74102202862626,1.7440154511665,1.79022167119302,1.73942354005793,1.78517182254502,1.7858403847234,1.77693841331144,1.81485742525084,1.7331627301576,1.73233930314305,1.90626258439279,1.73325198854022,1.73145624825262
1.96570512922836,1.9657920660054,1.96507716761942,1.96495700612943,1.96514317376545,1.96513071661392,1.96080376327707,1.96085031887917,1.96089388513738,1.96108413907727,1.96072219221881,1.96005793946992,1.958868354999,1.95812466479769,1.95723131631904,1.95776063007503,1.92927689413558,1.91745327528653,1.95950635674022,1.95936742863181,1.96006394857335,1.96022795884562,1.95981751724815,1.96252257682619,1.96353639535569,1.96906357295333,1.97262027898646,1.98847880838368,1.99305958434734,2.00471920493746,2.01500565383852,2.02298202922139,2.06051699777539,2.05583813907464,2.05321060648827,2.05026339159295,2.05224792095134,2.05273543792055,2.05426686692839,1.99309083901644,1.97033956413095,1.96952010277102,1.96954235160768,1.96986435820621,1.97088592464338,1.99086038395065,2.04580655954003,2.05635465806145,2.05635085928808,1.99854074987612,1.98347257474728,2.03258329575825,2.03339984371017,2.0347355735852,2.04049819795738,2.05740319559111,2.05926577531212,2.04517058883083,2.0462054950127,2.04592311073178,2.0432260301333,2.0442715856548,2.03805142524072,2.03697719046501,2.03663966537965,2.03496060698836,2.03161735776478,2.04697326050688,2.049884085485,2.0557999756013,2.05002716905852,2.04764424515991,2.04133427212816,2.03678872424417,2.04085062966185,2.03854197116259,2.03458666607537,2.03322778217283,2.03430092381368,2.03418091550396,2.03408918561774,2.03063776617112,2.02905263832848,2.02926007947354,2.02974665118245,2.02653738590125,2.02019084010767,2.02067384545056,1.98928856679072,1.98400406665368,1.9768647192251,1.97154861985423,1.96647708437821,1.96191554553284,1.95656754045313,1.94197635535679,1.94089437258783,1.9392510267327,1.93899748551376,1.93903251040221,1.93708227284096,1.93601248456305,1.93502013133237,1.93462931156096,1.93378222235052,1.93321219586122,1.93278544222818,1.95946613709529,1.97386569359473,1.95667235790438,1.88425587981418,1.85755656331576,1.85569160484188,1.85362237800138,1.8535187278085,1.85265489222035,1.87908118958909,1.90592727376426,1.87978050982543,1.83829783787601,1.84017181597611,1.83921753136375,1.83657434852623,1.83314055761922,1.83308727466137,1.83335529037419,1.83494658702064,1.87743665993383,1.87545430090017,1.87674051483295,1.87815155862712,1.88009836271027,1.88111942947978,1.87908655821122,1.87783650535948,1.87675544151248,1.85859629295117,1.84784546011636,1.82733800665342,1.82847467602464,1.82751980525793,1.82624490791751,1.82415570268055,1.82331362460811,1.82325586564206,1.82299357364437,1.82231890208968,1.82214345028328,1.8232511413803,1.82474183622196,1.82329061425003,1.82244196753419,1.8221484034379,1.82178435895118,1.85924388470392,1.87723808511758,1.82081244984207,1.81896925842523,1.81375266891486,1.80713501188575,1.80371793231026,1.7824268847992,1.74384843776582,1.74389161240505,1.74472385852326,1.76098074651672,1.76921723950985,1.77623940578547,1.77149263725029,1.76328846137435,1.7538718857974,1.73306700887977,1.73294809607931,1.73188774786559,1.73193793268451,1.73159697272554
1.96742609672101,1.96697817973304,2.01641722571997,1.96393793260224,1.96462726723498,1.96387972801551,1.88953477977554,1.96081861145789,1.95963513537866,1.960659903667,1.9604930476493,1.96064202471956,1.9603091269542,1.95932271715118,1.9586093510428,1.95758976926707,2.01259525368445,1.88600645362004,2.00883410365651,1.96040514556294,1.96136391720069,1.96332305591403,1.89276163729494,1.89198413001838,1.96320122565409,2.09201982250101,1.97480005299459,1.9011195114761,1.97767110186171,2.00405011718072,2.00281032770222,1.92426953589471,2.06673661723307,2.05896032624383,2.05760616502361,2.05780389169459,2.06809701508764,2.0753485451953,2.05662410672166,2.00135339812065,1.96908207672882,1.96823540654252,1.96780536206887,1.96791007878759,1.96945065043606,1.96784507214372,2.04645244683348,2.05422398248798,2.05290790809763,1.98915797323202,1.96537562366025,2.0482172082858,2.07034449806608,2.0326333482823,2.03902945051993,2.05722850602648,2.05895722517819,1.96346453356596,2.05127058802694,2.04693547274009,2.03149204468265,2.04185511587728,1.96099166756487,1.96029066931139,1.98201998149437,1.95990834406475,2.03042813770888,1.95936331508524,2.04662731818393,2.05161214284016,2.05584001514264,2.05291059910267,2.05349664829193,2.03175576232039,2.03777940093448,1.95326903004773,2.04133555924358,2.03735240953264,1.95253841866315,1.98273741790266,2.0491406229002,2.0285163338734,2.02639863228697,1.94719519645109,2.03367168575024,2.04491004441608,1.9465446967281,2.03774733741782,1.94536144613425,1.94693555460059,1.94469805133029,1.9434258704691,2.02744785997609,2.0322965082113,1.97499115940936,1.94047330251731,1.93930025125733,1.9374047563582,1.93652656936742,1.93769865837783,1.93517006039278,1.93534649942129,1.93451528623443,1.93539628951655,1.93392276810154,1.93357468292432,1.93319293812954,2.02060476610451,2.00157510918412,1.95744580651834,1.90970284301115,1.85670279390511,1.85789411091102,1.85140393029854,1.85407164066959,1.85122449745397,1.84951325802625,1.95756778146716,1.89357949574637,1.83866682052826,1.84198427344351,1.96322871137488,1.96173202633047,1.83471011170733,1.83486768244716,1.83551259697873,1.83460908734635,1.93690575286703,1.83457828638779,1.83154451398061,1.83132453871729,1.95901371470124,1.8282094178496,1.82656624789294,1.85678310914181,1.87602662874119,1.87554767776846,1.87472555800335,1.82447278654062,1.82582777086296,1.82511768344589,1.82405131396083,1.82229290005397,1.82189015514036,1.82295978021355,1.82319236090093,1.82165620830816,1.82083892361774,2.04362717152087,1.82498608839257,1.82349249540343,1.822243508026,1.8204785647407,1.82238739974172,1.87289237174153,1.92268525173809,1.81877747242591,1.83013309592336,1.75135365761859,1.78854477000716,1.79884521053272,1.85026277341184,1.74296411702148,1.74314781225469,1.74317735407006,1.74250292500027,1.78881170539003,1.83878541385153,1.73571843838042,1.75460709301348,1.73395508503275,1.7334291547687,2.04121692547532,1.73090093558872,1.73028601727166,1.73012350040384
1.96759794582207,1.96817215713753,2.0178280752785,2.11065728029562,1.96454221161711,1.96394906170762,2.01466487867842,1.96118737407447,1.96079316912482,1.96080089046564,1.96114680182387,1.96057897301637,1.95989816438308,1.95944311276152,1.9588597813505,1.88465597563627,1.96008463163951,1.96026208372294,1.96050224308345,1.96141818237176,2.00932004981128,1.96425949507091,1.96549539481589,1.96684371615762,1.96541121680936,2.09173090521066,1.97412374477449,2.00413982526738,1.90679525772711,2.00361367556383,2.10165695363752,2.08658819365911,2.06120578227538,2.06213658993921,2.06161947040561,2.07853107268004,2.06466307677503,2.07435677072083,2.04483950405989,2.04849330727123,2.04468364708027,1.96750905653465,1.96728062095337,1.96809974350964,1.96870082561689,1.96761615183274,1.96566770832549,2.04592347718765,1.96510525309686,1.98036912363472,1.96457612774774,2.0551310510686,1.96379800328688,2.0497493904139,2.0419787469643,1.96405735630894,2.05147896057434,2.04925874935949,1.96463074297409,2.04405069784884,2.03495772788787,2.03408973173907,2.05040882709579,2.04851576887183,2.03573522951831,2.05403078290162,2.04067045719514,2.03547511791291,2.04308896978024,2.04646345385051,2.03165578727259,2.04189796060108,2.04817076783693,1.95551460192716,2.0405167359815,2.04496484859219,2.02642208736851,2.03810172270835,1.95102970770212,1.97295682075453,2.03322814482577,2.0337542609018,2.03573257867501,2.03001125122916,2.03381588679972,1.94784674367074,2.03050740937699,1.94949605632209,1.94555042000131,1.94691008182489,1.94438191538448,2.03436203074279,1.94206453921723,2.02285493966598,2.0272018827797,2.02580628333592,2.04119158308924,1.93720215264873,2.02553747382126,1.93777628254369,1.93586221533268,1.93483196228512,1.933945812547,1.93316255348604,1.93311926219256,1.9325074479772,1.93335407629348,2.00363914656362,2.00385750083976,1.95939655629578,1.86018277751961,1.8563861479695,1.90330762388199,1.85333592429064,1.8560631010629,1.89913610515159,1.89706156456075,1.84581538835339,1.89396357767392,1.83825995652347,1.84142341264829,1.84015409924064,1.8389101139503,1.83667789863621,1.83730807739014,1.83613522551998,1.83465362869186,1.83292243603096,1.83189614474372,1.83051364818766,1.95874159014771,1.95979675712939,1.82633899403659,1.82481803913348,1.84420824046571,1.82472046066557,1.93108423116831,1.82587591721294,1.82454950590274,1.82506825833199,1.89663131894466,1.82327572261886,1.82188886670511,1.95382606885613,1.86409540404668,1.91389179182581,1.8210862929434,2.03607571516043,1.91330773586599,1.82372729948092,1.82183108179867,2.04461848239444,1.86879178225871,1.90663062952497,1.88568899583031,1.93012360434572,1.82088362782247,1.82616003088309,1.80206787722856,1.77920930481484,1.74995398336616,1.97469219087141,1.74201919416752,1.74154652506197,1.74130779181537,1.73715213883286,1.73652956457615,1.73574790852054,1.73529122098351,1.77810706161388,1.85530737499298,1.90618483452036,1.85439277002686,1.73055687381138,1.73004184391657,1.72977186234076
2.02099223990725,1.96866359920678,2.02037954804558,1.89350973817479,1.96558217864318,1.96584100388039,2.0912781245907,1.96144694417022,1.96050518003917,1.96064961368069,1.96032760367614,1.88665502947289,1.88640882154351,1.96008482518541,1.96008585964344,1.96061244208991,1.88512247639118,2.08502897859357,1.96188200643628,1.96317194433856,1.89005959096458,1.96260004156389,1.96701576990307,1.96666501024629,1.96654661735081,2.09913085674888,1.97397292476546,2.09417430733898,2.00412697875307,2.00509198967285,2.0902705179815,2.08989981147702,2.05774074863219,2.05063743680876,2.0559214063013,2.05251708597668,2.04594979402362,1.97072508594432,2.04665082485229,2.04784167625809,2.04452106884704,1.96708626698683,1.96722227017914,1.96704884419997,1.96785238683032,1.96597953436702,1.96483602179441,2.05705609831202,2.04784557535135,1.99231028988185,1.96484438061558,1.96481563100043,1.96441066930419,2.06231507996575,2.0446541775081,2.04958243418895,2.06153297950642,1.96306672350927,2.06845807579565,2.04513596788901,2.03307842843046,2.05926408006565,2.06064733584373,1.96046128933133,2.03421761689138,2.0439759514738,2.04219098855937,1.95889738659984,2.05236097786708,2.04563617675006,2.04676219961568,1.95546667347856,2.02726574922501,2.0262887164145,2.03848561392078,2.04397162415105,2.04574281837586,2.02024230573467,1.95095006715365,1.9651578001924,1.95075642373654,2.04557229844494,2.03820304260278,2.03017083785914,2.03037204506762,2.03804233191106,2.03070255500785,2.01340445941182,1.94425550630013,1.96680133103063,2.03169008206575,2.03752092042517,2.02402375808351,2.02727981229475,2.02780576035633,2.03908993395921,2.02083495950563,2.02172483979854,2.02359511509307,1.93792879344459,1.93649942048941,1.93467946782911,1.93374438637405,1.93311479347237,1.93324082483346,1.93340219697004,1.93281105364408,2.02573407706132,2.02535085342923,1.96084663078391,1.9669953161588,1.85759310698126,1.96060974522626,1.90122806324537,1.85741975928743,1.85240271111922,1.85082007680122,1.84432362836322,1.84403829687489,1.83888614666478,1.96184505811041,1.96153824664326,1.96277028159241,1.83740936101317,1.83880134716597,1.96491472333935,1.96026035992973,1.95721691009279,1.95050081903529,1.83125925051646,1.83065360497247,1.83128424468955,1.82562443240513,1.95727621944552,1.87190112685778,1.95574065946489,1.82587299813656,1.82562602740568,1.8244892817724,1.8237044412172,1.8212994704253,1.87107101291153,1.87063418028193,1.82133553783879,1.82247551602548,1.82015027474791,1.82088680592011,1.82165931606161,1.81926702150305,1.82024555705996,1.8189988281265,1.92623112677391,1.86733471494696,1.86784120465411,1.86931427284263,1.86855561762666,1.81683524395675,1.75028317586523,1.74859040265483,1.76829360363129,1.74547124648048,1.745720314063,1.85069086306845,1.73968495135128,1.73965963510723,1.73883740965328,1.83425289997154,1.73590033977927,1.85336351493347,1.79710073852095,1.85461618766153,1.73144505435097,1.72958148717807,1.85380194451542,1.84294256939059,1.84572206601586
1.97003969067126,1.96854974836421,2.02138673958498,2.02257179457836,1.96674422387332,1.89020537361777,1.96453593570666,2.01796971361666,1.96055356167038,1.96082552811919,1.96055150040959,1.96063443864471,2.08787528056286,2.09445697237707,1.96062944632193,1.96080682603106,1.96262801646652,1.96095764641412,2.09160856154856,1.96472644882784,1.96441924916222,1.96418264314766,1.96624299791609,1.89602689340412,1.96729942527228,1.96972388290435,1.89865095033671,1.97660214611035,2.00396004827139,2.00359454001284,1.91093543251918,2.07530985992616,2.04943872884684,2.06269312808165,2.05757544932817,1.97330438527922,1.97253632472013,2.04497690915493,2.04361808511953,2.04448566373205,2.041935914325,2.04195370625592,1.96727646042347,1.96740556125184,1.96830828805806,1.96716113575685,1.96699680055792,2.04216716680555,2.05404550060471,2.05030524353626,2.06353421074235,2.06019136514437,2.04255713373294,2.05301533995696,2.05264744861114,2.055052905979,1.96449474603596,2.05893035767105,2.05656156465435,2.0445765002083,2.03525229317117,2.06046100581719,2.05895602058391,2.04458276485489,2.03268507304295,1.96024333848409,1.95979470518377,2.05463849720476,1.95732909138061,2.03574761361089,2.04395417107169,2.05966730514041,2.05164002218056,2.044350965652,2.03752656437833,1.95400462008376,1.9524554722364,1.95181404134318,2.04483882510503,1.97909428624705,1.95074691359686,2.03501232433838,2.04966589620839,1.94727311766252,2.02862735802352,2.02677363229998,1.94702096451788,2.02836218021599,2.0291299457786,1.97917411601317,1.94451284861696,2.03087843532488,2.02905103036336,2.04099633586415,2.02594438113397,2.02829700028963,2.02418770072347,2.02440937728946,1.93578653545836,1.93799606151424,1.93510423530473,1.93360571110408,1.93318113141596,1.93179472721153,1.93300354731684,1.93290283216508,2.0135913457771,2.00718243118222,2.02548258976664,1.96058411255497,1.86239171176256,1.85586651013413,1.85538745304985,1.85474076444333,1.85620975674083,1.96008493358731,1.84985115331,1.84571289931069,1.84406184631971,1.84156436173277,1.84068676727662,1.96014233590404,1.83808379716186,1.83799389887625,1.83882277070144,2.04272332925379,1.9592584207097,1.83054689103283,1.83169905690695,1.83129945135818,1.87910348417573,1.91687544198045,1.87711601836249,1.82750008562166,1.82849511772681,1.82675060209923,1.95056196132369,1.95056844047972,1.82445100023342,1.82354241205451,1.82261121194184,1.82141696462898,1.87066039330458,1.8695467111598,1.8237779508645,1.81961585493774,1.81977581250152,1.81969250967491,1.95136722914031,1.81729500587683,1.81891845944502,1.92597373911995,1.94407712954884,1.94834578450378,1.86960327015046,1.86934872110261,1.81830793564271,1.75050393808753,1.79746545822904,1.79568549526725,1.79579174290871,1.79190500074059,1.74007171364578,1.7394721725283,1.73802494532069,1.73918829498865,1.82732092546372,1.73558402617784,1.73510309203318,1.78192239861868,1.78098745723272,1.73091619400756,1.73042782685349,1.83741245757172,1.84177185422605,1.84585057586441
1.96952174760502,1.96964303740537,1.97001717421797,1.96984740703243,1.96946681901257,1.96849627966118,1.96372196419598,1.96243910108896,1.96210346515704,1.96166310488261,1.96056797275924,1.95970614828272,1.95867730046027,1.95962559329109,1.96053200966946,1.96103405452246,1.96182312180425,1.96209684337039,1.96352955287528,1.96434792980631,1.96423844145785,1.96431478896077,1.96477099004182,1.96554354719261,1.96678515114479,1.96955363420956,1.97226740701129,1.98029189268549,1.99007197859509,2.00409964789727,2.00544577561142,2.01781315119656,2.05096472124588,2.05363295802888,2.05909263537131,2.05823961950335,2.05607563355118,2.04872074769297,2.04436783794337,2.03855752312107,2.03915600012855,2.04058839924082,1.96830062351237,1.96856565043755,1.96885262320882,1.96798895240672,1.96764127058092,2.04466183270697,2.05095177102126,2.04927854292532,2.04971709410772,2.05049117541631,2.05386193330509,2.0578153020541,2.05981456817664,2.05952587198498,1.99337963644658,2.05789709020015,2.0575863493052,2.04489065712973,2.04470823806669,2.04629751901884,2.04628106580422,2.04619340216537,2.03251081398967,1.99579374931185,1.98705486391584,1.97865163967355,1.97196204805463,2.03624468675582,2.05299822296606,2.05733540966567,2.05276777164611,2.03489881482556,2.03595579390787,2.03688235230102,2.03827596975036,2.04019463688279,2.04613043831822,2.04679982246464,2.04320983778752,2.038473904672,2.0382088862034,2.03125064530143,2.02728030787168,2.02660954193026,2.0263303756842,2.02952520285658,2.03315595706922,2.03737557042476,2.03833343025813,2.03414841564863,2.0284773063802,2.02045736593503,2.02163705468846,2.02464056899315,2.02467287411729,2.02243884581781,1.93831767509147,1.93860699468857,1.93712460248082,1.93493848586653,1.93354373216494,1.93325806335536,1.93322830999948,1.93324430376637,2.00942147755677,2.010886795886,2.01181493111352,1.9604591987262,1.86119977062866,1.85601971345619,1.85418588266867,1.85415393080382,1.85529719859744,1.85384377664929,1.85357913033156,1.84695994308922,1.84560438959524,1.84384847275298,1.84180018891445,1.83901432274843,1.83814485169061,1.83740093327111,1.83771615916887,1.83480790798206,1.83103259694948,1.82792307873467,1.82650854168325,1.83043890538062,1.86501105718839,1.85881248396464,1.85152237616572,1.82888812978547,1.82892085149598,1.82777475536568,1.86702524737351,1.88824912850562,1.86855315379603,1.85057175750065,1.82265309627898,1.82288159208685,1.82389680457122,1.82422197436176,1.82351972109842,1.82257215061314,1.82079320395071,1.8192029563121,1.86986503701018,1.81508238219733,1.81579283672881,1.85645738623545,1.87430934737657,1.89152923962059,1.86869726605077,1.8532684502106,1.83918738752909,1.82269275875599,1.8084045995966,1.79570807719139,1.77527697887287,1.7648481998434,1.74041508242803,1.73850813864397,1.73610178722548,1.78283528187019,1.80342492996763,1.79201894305881,1.7820479357591,1.78231671928329,1.78212257605786,1.7814781453609,1.77877568987922,1.77769746991327,1.77839789414591,1.77888348726021
