1.88229520632085,1.93071116181148,1.93042617182698,1.95685873679745,1.87980035958631,1.8791267885577,1.88017897922074,1.99443645484179,1.87462401556889,1.96342113555346,1.87115756575664,1.87082147373738,1.8689954848569,1.96848417394943,1.96935970393385,1.90039528364084,1.86716151999343,1.91605294703929,1.91684020412668,1.86817803629267,1.86806730501361,1.86946179948046,1.86972682505296,1.86682639418872,1.86704176775909,1.86817162412368,1.91854954728199,1.87053542080563,1.97515634327736,1.87058196731948,1.87058990626354,2.01239866919411,2.00526935025849,1.93202028366501,2.00294188768579,1.99857570897411,2.00050803789873,2.00215568109675,2.00060164142237,2.0339242806208,1.99263232572927,1.9916151907595,2.03458497399878,2.11975231866123,1.98971996808835,1.99262128957045,1.98781949226005,2.12580394940594,1.98464587649493,1.90869233334931,1.97948912210293,2.1033890167132,1.97845493359447,1.97714864695379,2.09981106358375,1.99886791633658,1.9729997745267,2.11236306763301,1.97171120477021,1.97159966845654,2.02292405170713,1.97129446509734,1.9661023240924,1.96736572147431,2.01933628626509,1.96766833052545,1.96602831132621,1.96488977960497,1.96732591823218,1.8871468329828,1.96212218611171,1.96355993164208,1.96416698223143,1.96453478844131,2.01295013830869,1.98918243057492,1.96827666871749,1.96813225588392,1.89648532275426,1.89718427298629,1.90096401737699,1.97836629437193,1.97971338862756,1.98485006398602,2.09230514017087,2.03432792007409,2.09248145950524,1.9277293774457,2.06437826014529,2.06508372623815,2.04491083303617,2.05552491227787,2.06306599635124,2.05383594107719,2.04599084369531,1.97395420022975,1.97484143870231,1.96830639291276,1.9683563800893,1.96801901577597,1.96844432200365,2.06968911575165,2.04305199446965,1.9658034656385,2.06625700326831,2.04018077953177,2.04583391065324,1.96617793603692,2.06093010707424,2.04858476681328,2.05014911387581,1.9641748644599,1.96389919313748,2.04567977401218,2.04312527476773,2.05107511304421,1.96223395308769,2.04520186484791,1.96145741931006,2.04596738902813,1.96123379723947,2.03740855654766,2.04865685421371,2.04855277443175,2.04023226376115,2.03375880441819,2.035423987439,2.04251277521907,2.04043350984203,2.03596826253071,2.04525960832768,2.03446970266107,1.95294033523983,2.04701429408108,1.95110206360625,2.04269133845373,2.04099697328557,2.04100274869198,2.04236536498656,1.94851650731194,2.0342396063413,1.94708560533373,2.03452981058753,2.04053851047956,2.03175263705175,2.02717727798015,2.028105301203,2.0339541911035,2.02256426976381,1.94043518564167,1.93909285936579,2.02528100477191,1.937384017276,2.02598762024772,1.93495248844729,1.93562887367077,1.93431057944431,1.9332985514009,1.93161201361401,1.93256137354025,1.93195429434516,2.00839838127181,2.02277584855226,1.85844846409648,1.85810364591229,1.85875981480327,1.85750883496008,1.85085573922941,1.9644420189192,1.84812082356798,1.89513934108664,1.9482453137768,1.94088260899001,2.03267582891285,1.96183132812264,1.87250133806554
2.06547049169995,1.88484409935888,1.88217689833039,1.95585468844226,1.87896940557979,1.87930966911307,1.87919065122043,1.87741522915214,1.87585995564358,1.99446562293795,1.87298097902104,1.87155096226318,1.86810807851078,1.86696471671831,1.96942535653901,1.91606657875457,1.9168874708932,1.91686939318622,1.86630136692423,1.98540406772966,1.91594519769465,1.8685107422514,1.97868597405202,1.97810220911666,2.05859654370396,1.8684215037889,1.86975875709725,1.87030229997258,1.87088118597349,1.87124839218151,2.00955269255201,1.93691732773738,2.00632469749513,1.93168323010933,2.11247974001766,1.99849758592832,2.00107593564787,2.00104916403812,1.99941692652498,2.03550012867121,1.99566949431124,2.03372159289745,2.03312278429475,2.0317568004227,2.03263421411816,2.01223156901594,2.03328835893229,1.98681198315033,1.91087994056161,2.10396265593776,1.98215773645198,2.02877711635836,1.97889873272363,2.10282510018736,2.02703837945937,2.02846004349973,2.09902913091513,1.97261916755546,2.12670404824699,2.02314767379207,1.96818686743276,1.9679116323681,1.96706232449964,2.01911266415775,1.96574131396701,1.96753363524598,1.96747762708427,1.96433558872799,1.96375373331953,1.96343722442075,1.96603328377888,2.09551363074891,1.96780806562139,1.9653369976091,2.01260660294438,1.99598107855026,2.01206370762359,1.8938846631967,2.0106474744512,2.01073822683217,1.9748802517851,1.97618329644076,1.90389538546441,1.90736389140698,2.00357020958052,2.03766884030204,2.09180925071719,2.09203601623256,2.0692437860813,1.97593451770614,2.05831002473435,2.05699456040342,2.05453455389895,2.05578453621113,2.04845516526948,1.97725967399774,1.9695036148232,1.96772871494949,1.96893175907474,1.96674397765279,1.96817000957539,2.07461993615656,2.06609125814454,2.03972890081795,2.03872767118727,2.03892802463091,2.03863365092535,1.96717002029258,1.96624706720946,1.96488420060135,1.9637201112652,2.03804275860703,1.96431424356244,2.04561197931555,2.06967382899515,2.05648132561191,2.05181780589908,2.05286354102493,2.04711469133855,1.96058237643036,2.04057045593966,2.04310319416722,2.03969835208788,2.04238298372205,2.04345350174423,2.03292249232237,2.03724460769644,2.03955144575924,2.03896234506396,2.04298204182061,2.03312795643785,2.03645848701587,2.04294053280916,2.03485707335748,2.03442510021406,2.03536926408164,2.03462091065057,2.04284142932972,2.04567843871837,2.03319162505131,2.02563469194132,1.94575683650848,2.03835108293247,1.94464687322085,2.03049674226513,2.02675818387333,2.02830758426832,2.02651823555033,2.02666347384891,2.02514076202708,2.03510976211018,2.00887138717224,2.03141410906294,1.93457368335115,1.93476898317991,1.93546188486548,2.00672599084095,1.93174767581092,1.93360538898447,1.93096962960116,2.02857374814408,2.01229009947578,2.02367937493655,1.8582916962365,1.98029965090095,1.85871497203086,1.85725565278694,1.85022269004849,2.04849465973248,1.89740694618288,1.91801308389795,1.91742417336555,1.84369770238932,1.96191688787139,1.96389987434308,1.89952317684235
1.88592281659094,1.93271135024043,1.93395043036086,1.93136053463988,1.88071461131456,1.87978823317389,1.87867118433649,1.99784912209298,1.87546137489736,1.87521884029124,1.87431982848843,2.07204303603558,1.86832495683346,1.91877883683701,1.91756415424125,1.91660818655012,1.91729432068315,1.86820991864471,1.98850560862177,1.86691308798803,1.86699976770978,1.91737350303537,1.86975526050458,1.8695456405989,1.86990782259517,1.86954762617727,1.91815970038713,1.91852557214829,1.91868605214831,1.87099537703249,2.01052214502578,2.00801390386141,2.00761835052967,2.0060132511322,1.93068727686238,1.99927796657561,2.00083093892911,1.9272724106058,2.00166800908544,2.00225108713121,1.99386305179711,1.99346690490066,1.99260637789045,2.03215975224447,1.98882658574282,1.98881029138399,1.91175588201725,1.98793458518449,1.98277074783,1.98282706273837,1.98203089624315,1.90681585249609,2.10323062450658,1.97687478012911,1.97582376683009,2.02794576447415,2.1123283832418,1.97333864872604,2.02435328844014,1.9696322605269,1.96844817270112,1.96643840714869,1.96572600485889,1.96602941834789,1.96605661054045,1.96705827037076,1.96597018154763,1.88902488946942,1.96173558806934,1.96152153888495,1.96626760476573,1.96458574650771,2.10182366221907,1.96504802715884,1.96807449019981,1.98521650318434,1.96514710193879,1.96635516217104,1.9749630969957,1.90019469466685,1.97549665610014,1.97636626723889,1.97818821349979,2.0053373808987,1.98437517868073,2.04181289082924,2.09016616513001,2.05247950655962,2.05072062745511,2.06183755137743,2.04849059485549,2.04682069988689,2.06204534461858,2.04580048196217,1.97149034196605,1.97183326556198,1.96829135049811,1.97052549188372,1.96621561531927,1.96932984831296,1.96496047594518,1.95943990342404,2.06813455156033,2.04399564981807,2.03939889154263,2.04385255530434,2.04770581755304,2.0467844302901,1.96558863800513,1.96519225160823,1.96450569674267,1.96542296882589,2.06034068051704,2.04888490307799,2.07550882023219,2.06126577994582,1.9625956463015,2.04612062046546,2.04366393188473,2.03341740197363,2.04058245505764,2.04972396694731,2.04050291412858,1.95773652312469,1.95653947210016,2.03064942527899,2.05042375600008,2.04142541449361,2.02857106669087,2.04157123799317,2.0568501831668,2.04174960929626,2.05123814003436,2.03566873386026,2.03103905374551,2.02863901495824,2.03330065936324,2.03533489494844,1.94946118472132,1.94896208618695,2.03534026592762,2.03766225841103,2.0287993516047,2.04011444842535,1.9427153748338,2.02772015866025,2.02894102867325,1.94230991949147,2.03939740105272,1.94220647584179,2.03619524601073,2.03492728132605,1.93478500809273,1.93489494719667,1.93381163297054,1.93484199235706,2.00583150255858,1.93178404161693,1.92913748229485,1.93023164301767,2.00886995290014,2.01168414190677,2.03174101564394,1.85671544995011,1.85672312953547,1.85773799361324,1.8555132602199,1.94453956500384,1.84920886257211,1.89666454257027,1.89567245288708,1.84381276991665,1.84349372530234,1.84156648813462,1.88937744334095,1.88770851919141
1.88800643714908,1.88775335303118,1.93236915772762,1.88143429531754,1.88154210146171,1.88000781033406,1.87856840474159,1.87768353634952,1.87672648919473,1.87520545739128,1.87212837164406,1.86975933812783,1.86999385172866,1.91840770693091,1.86746839413391,1.90693445806832,1.9171147163115,1.86821157023496,1.86730750696991,1.86761145842468,2.06185364777561,1.86897866336417,1.91745221599893,1.86970198717442,1.87001614234059,1.87231028149864,1.95146109788872,1.91852974667431,1.91990916142937,1.92070697973659,2.03052133902399,2.03813430524133,2.00803280671724,2.00393742211193,2.00228036304047,2.00139082776928,2.00101601006672,2.00322210122739,2.0384020774807,1.92406392002776,1.99564798047617,2.03572806921907,1.99246120842798,1.99168604282477,1.99043106908052,1.9881329226194,1.98664231668269,1.98765949058459,2.03178133583756,1.90707836536156,1.98413539947252,1.979800303278,2.10953668096494,1.97852232495282,2.02646182804478,2.02729290791762,2.02828319507999,1.97119202485429,1.97088684462995,1.96989174815182,2.02160163698679,1.96724778700464,1.96641168021295,1.96622387805555,1.96669205553022,1.96628039296674,1.96556759849248,1.88996475034582,2.01656531712208,1.89096785358029,2.10544050614341,1.9653396394946,1.96503794600339,1.96493106000847,2.01429992408723,1.99735431015427,2.01396934900337,1.96932260453032,1.96867239026796,1.97470851852524,2.00689504028129,2.00776904678567,1.97977760784031,1.98488093970756,2.0055870522552,2.04306245754441,2.08017539656073,1.97693461558927,2.06053264684105,2.04982899191684,2.04785965695183,2.04795535161601,2.04978676479216,2.04525512630707,1.97107580923481,1.97169690215437,1.97218369639661,1.96739005487314,1.97186530478225,1.96651338111889,1.96800298301423,1.95989693512463,1.95939112647629,2.05204744739625,2.05382476073887,2.04580503244714,2.0380104662372,2.03774280317861,1.96601367444664,1.96572534658502,2.06248664489002,2.04834170796579,2.03968617769557,2.05498112334138,2.05289944893746,2.05516067887933,2.04120599390268,2.03599994198125,2.05033928031751,2.03578357089139,2.03289968898959,2.03487696733739,2.04677288829088,2.04991045996004,2.03051851028598,2.03433710387219,2.0265575168414,2.02790973539898,2.04112086639614,1.95533211911561,2.04057087081225,2.04562133172502,2.04789182728349,1.9513045564118,1.951059943505,2.02537907388478,2.03563195665742,1.95099250976993,2.04159360576547,2.04011798506295,2.05093821012655,2.03443606445104,1.94783591840145,2.02412627240785,2.03054979441142,2.02779577975904,1.94762159596871,1.9420451977329,2.03386418514322,2.03549878234063,2.0283431058718,2.00833702574311,2.02401929210151,1.93501719075677,1.93453356962772,1.93409927572601,1.93260817771954,1.93019689979015,1.93336234535413,1.92976053402128,1.93006896418909,2.01390524981245,2.0223814230576,1.94023107233505,1.93831864385571,1.85779238242378,1.85707048873352,1.85032796613295,1.9487592162489,1.8479459986411,1.84602123182054,1.84437979966382,1.84433209829029,1.93118057696071,1.88857950562078,1.88744203763654
2.00378165095788,1.88779197264701,2.00080109010022,1.99939058444202,1.99880988140208,1.88010851133416,1.87968257682171,1.87639754869355,1.92687340711293,1.87370726932161,1.87359701589113,1.92189336004969,1.91924077879426,1.91799913720836,1.86785762038392,1.89820341475406,1.91776512295533,1.86775461324731,1.86641535308763,1.91700385220101,1.86789750942923,1.86827084138918,1.98104829870249,1.8692905867024,1.96065007678511,1.87484565949582,1.87048308863964,1.95446687403626,1.92017546903793,1.92006166135205,1.92015619391136,1.93858114480184,2.00869242514853,2.04037450707508,2.00409954012555,2.00388948205939,2.004071455317,2.00227091842378,2.00036709912652,1.99943292546509,1.99884233883789,1.99465941998989,1.99264151319829,1.91803584682052,1.98852545303037,1.98869681184848,1.98838250136683,1.98686171771811,1.98519474501452,1.98390841992534,1.90819967179771,1.90646254962616,2.0294966856965,2.09983772514105,2.12044163158418,2.00047000743079,1.97551495516087,2.11569795329443,1.97101416927425,1.97109212594406,1.97146324612057,1.96931393115297,1.89416662146679,1.96784102238372,1.89186726075439,1.96293968840862,2.02182529713982,1.96329590156011,1.96406342529268,2.10330151242471,1.96258034374234,1.96416133914742,1.96473406787095,1.96501826735648,1.89302909760606,1.96202021518295,1.96449493024441,1.96966969345819,1.89636395137064,1.97306106050766,1.97602251147883,2.00884731940461,1.97970090755266,2.10285361869033,1.9854204970924,2.04085065491491,2.09593167695583,1.97837701735166,2.06813685225878,1.97636496573283,2.06597670150841,2.04621003275822,2.05669040331593,1.97111731101707,1.97056705688827,1.97238261068402,1.96948595566477,1.97139358790461,1.96628951243153,1.97077896921084,1.9671626898862,2.07243369615272,2.07018147685346,2.04931971503566,2.03801910103434,2.04513348383369,2.05577796841979,2.05494567648249,2.05344390261066,2.04413308781798,1.9649375961924,1.96493627256923,1.96449932305022,2.06280524200272,1.96227953273531,2.06105388153107,2.05895641194756,2.03374397767462,1.96281859713105,2.03406605116927,2.04375628525922,1.95855676938157,1.95827157021908,2.05072532429204,2.04116757814057,2.03904973973952,2.05066370472388,2.04604965766812,2.03558682905447,2.05813057821259,2.04091207943879,1.95230835981327,2.03695813424903,2.03501814536357,2.03313207090623,2.0262440729277,2.045456108313,1.95066841981255,2.04063144134268,2.02956325654055,2.03116486112864,1.94582331976613,2.02778249388445,2.02630704209963,2.03186933964703,2.02784602705523,1.94259099987914,2.0286852939538,2.03921905113024,2.03219553674429,2.0248923193004,2.00845543176808,1.93563393150616,2.02797976543044,1.93426931729945,1.93358598126439,1.93150287759098,1.93395431215394,1.92836276022277,1.93216076306013,1.9306807127165,2.00502540381624,2.02102360524727,2.02177225794701,1.85701592532115,1.85761899395753,1.85685318152979,1.90101038644358,1.85031901924171,1.84840327739536,1.8473605795913,1.89244488880436,1.84340403978506,1.84048884792803,1.83864897303418,1.87013481232489
1.88729505966804,1.88575678635282,1.88607956326669,1.9744573750877,1.88261283848292,1.88120591118931,1.87996212547008,1.87805973109699,1.87765508325563,1.87748879331368,1.99182919721379,1.99461312742222,1.87108929572404,1.91915472052912,2.06481907088562,1.88909288296613,1.86708986564177,1.91719865057947,1.91697656947775,1.86925797211597,1.91747417170433,1.86828461921712,1.86929818148883,1.87003030345348,1.87108190588799,1.8711834006392,1.87085002878022,1.97489520274189,1.87182780771369,1.92022620224198,2.0392156586508,1.93769314121761,2.00930239579951,2.0088497787248,2.03826466719085,2.00783260965333,2.00308095322473,2.00208208138121,1.92745714188151,1.99849990403848,2.0347062228891,2.03594429459906,1.91928030744047,1.99237774293755,1.91610244143311,1.98915506243793,1.9887029114336,2.03081888288649,1.98425983456146,2.12085098361674,1.98157732209622,1.97921297983486,1.97951619357915,2.09986336156802,1.97722549187166,1.97860359013442,1.9762901635747,1.97698445022072,1.89758901141308,1.97284737343317,1.97481739038457,1.96755118038854,1.96812993120356,2.01934600895152,1.89196484854273,1.96204692387232,1.96365532889273,1.96429080596925,1.96389983881164,1.96776307812593,1.89094764768183,1.96444477579719,1.89087062659475,1.96696693796228,1.96460222120283,1.96072071748642,2.01469211568371,1.96873678007905,1.96860014496677,1.90096278786584,2.00775611524945,2.09294683828648,1.90469630417483,2.07702179184236,2.07631301050665,2.03733047783412,2.00529676897232,1.97799655919783,1.97662561459449,1.97686253194349,2.05515981229457,2.0627714339628,2.05715134366926,2.05880857650083,1.97093733338487,1.97208068402819,1.97137275506636,1.96787967090693,1.97191461235644,1.96596084977841,1.96885319053905,1.96634373860982,2.05328405807303,2.0629354914476,2.0629203797381,2.04532639635464,2.0484879448112,1.96504509513823,2.05210673843025,1.96454802941092,2.04850854542537,2.06154324272863,1.96491243156041,2.05805327023026,1.96313158501508,2.05209481905071,2.05192808006765,1.9623421848937,2.04969042575216,2.0485647421084,1.96057265372641,2.04230068937084,2.05181984935361,2.0463236649919,2.04773000704398,2.04202360632276,2.04651597665385,2.0459278666914,2.04445339068984,2.04222179829976,2.04144633385468,2.04303871106706,2.05251580425731,2.03274353648001,2.03131598707584,2.02952322646568,2.03070090092997,2.03909522938235,2.03666985623624,2.03748262355929,2.02709896094007,2.03034761843425,2.03194113877854,2.0272280462477,2.03626986386485,2.02908461134022,2.02888373409644,2.02890607088026,1.94149234034518,1.93948386089832,2.02530231038734,2.00927856897254,2.00917386160415,1.93512225747674,1.9342936040242,1.93358892555324,1.93275658670446,1.92781650620156,1.93554865400932,1.9285205269602,1.93091360993981,2.00424757309942,2.02199347296046,2.02217563044236,1.97160764787684,1.92587255862425,2.03636073172824,1.85294767423612,1.84926467382077,1.84823822806381,1.94738831572919,1.8442595397068,1.8418297907284,1.84018928000582,2.03170355904071,1.88836465057156
1.88558824009184,1.88644022703196,1.8870059695661,2.00062155589741,1.88163697048373,1.88098690954766,1.88031998557952,1.87779045086233,1.92518820333127,1.92431962167794,1.87421340261224,1.87345214760682,1.87190501673319,1.97102419632079,1.86927212059109,1.8822992233849,1.8659235112502,1.91559554324724,1.91629031053746,1.91679963187661,1.91746722792789,1.98212425159805,1.98451095790847,1.97925819327722,1.87116027497744,1.8712140100471,1.8713686128568,1.97404631460395,1.87185387250318,2.07510533259912,2.04055901885117,2.04157103495179,2.0401812136089,2.00809385466148,1.9304352265034,2.01401864511268,2.035815884149,1.93199764218438,2.00105713087954,1.99860933110655,1.99624779165342,1.99617362044729,1.92091372082566,1.9913306543889,1.98943922227114,1.9891308994075,1.98910734047396,2.11976204135995,1.9859859756994,2.02586010875486,1.90739921441937,2.02797705390811,2.02722704039078,2.0257214342871,1.97822998366223,1.97846413849303,1.97655379453498,1.97411583180061,1.97238799364489,1.97204138377831,1.8962083881911,1.96855125344691,1.96660754638159,1.96712338732252,1.9668598338155,1.9627467393027,1.89132837499822,1.96402707315255,2.08952854373218,2.10334612015547,1.8909619223363,1.96492257724215,1.96620461233906,1.96752997488917,1.96124595029296,1.95889884759066,2.01322723505804,1.96872136802626,1.96865556345915,1.97468576556074,1.97531487659833,1.97625255953123,1.98113428853412,1.9809355713459,2.08597413800093,2.03486375044178,2.0928204432031,1.97737212778709,2.07000884015617,2.04846948978152,2.05758110996916,2.04787902398469,2.05910100019604,2.06656429641985,1.96900360518657,1.98591379369257,2.04540936815021,1.97027406583459,1.96696736003472,1.97115723405916,1.96658026332154,1.96748287922917,1.96742157178914,2.07197995980646,2.03672388515163,2.04669924904085,1.96721743456651,2.05565376437937,1.96598698882168,1.96569875287207,2.05766528585371,2.06260480383579,2.05866526526493,2.05175426731114,2.05163076169957,2.05012687794272,2.04983743734158,2.04862611035757,2.0650889422418,2.04699865743705,2.04657912106999,2.05262677951102,2.0510152749489,2.04581742478006,2.04671128939093,2.04096728643439,2.04055194247187,2.04595519272236,1.95520572403223,2.0292838412091,2.04799946577849,2.04427176197372,1.95315423460203,2.04069886586177,2.03709046714163,2.03360676975218,2.02840391335785,2.04039341754723,2.03218308743852,2.03331927476784,2.04043131738973,1.94542742144786,1.94532345158442,2.03622152791429,2.03508337632888,2.02871798135091,2.02734464339668,1.94166200471339,2.02578451789293,1.93773365746203,1.93798184775908,2.02622780557652,2.00855034779542,2.00962931383505,1.93294630004938,1.93377438297098,1.93195128513017,1.93403298757572,1.92789404436041,1.9313599879052,1.93048888925812,2.01209402257286,2.01547118944057,1.93197950248388,1.90520252402683,1.90438274534956,1.90396461502218,1.85148461023673,1.85058381694184,1.84834500499561,1.84835477431945,1.96291226950399,1.9631715414699,1.84026351963571,1.83911398741558,1.85877217432324
1.93748503399652,1.93507528811258,1.98888523966786,2.00078327227044,2.08618956267514,1.9196942687136,2.07251944827293,1.88102153823734,1.8746569163919,1.8746354718821,1.8739978260386,1.8726355499193,1.94881755244123,1.87124524038467,1.87012742528853,1.89959926478029,1.98697142026362,1.99337319137972,1.86778896538973,1.91687637336004,1.97449944065006,1.98136828246752,1.87083128515839,1.87005757475211,1.87006750101979,1.87085372466935,1.87174065341612,1.87108864817366,1.87347986674562,2.04817408162155,1.87244612015057,2.11472568342229,2.04062987216306,2.03659390744687,2.0087809100141,2.01404412278014,1.9310427410461,2.00242004126017,2.00096453347558,2.00161454163681,1.92376418309306,1.99579282246951,1.99516408232389,1.9917517114836,1.99051658787658,1.98675003890361,2.1242928189641,1.98460041082956,2.03070118916145,1.98466090211604,2.0274347701503,1.98011232686071,1.9804227179121,1.97922161116027,1.97903440137716,1.97724045177856,1.97730133848891,2.11821613226326,1.97244184440755,1.97239303053774,1.9710665051708,2.10154170395615,1.96499266445758,1.96602619495613,1.96536313490131,1.96424620678276,1.9642063018047,1.96424722830075,2.01666263375156,1.8903521913489,1.89055126418332,1.96489996686089,1.89031647805561,2.01297764123156,1.9646266458071,1.95641493218294,1.89396406200268,2.00897989063441,2.00831241260519,1.97080085130253,1.97547351081869,1.9767488503538,1.98131378200403,1.98118660043136,2.00471504915457,2.00266475967157,2.00288299217927,1.97807419617986,2.08229137374024,2.05363886749355,2.05005536313228,2.05443139938018,2.06891874947796,1.97183978078481,1.97235586083426,1.99375033174479,2.04508527819284,1.96999795674995,1.96943613651652,1.96697089279535,1.9686505666022,1.96731763580585,2.06572504068767,2.06335556699355,2.06528956126382,2.05580854085852,2.05086097314169,2.05275359887677,2.05625386859213,2.05737570467546,2.03927683170893,2.04748490959956,2.06642003727672,2.03554127452437,2.04691358494852,2.04657452978158,2.04788089896898,2.0315388409922,2.03256296492149,2.0456984431823,2.03040912156877,1.95888350491525,2.04134619167598,2.03870843848824,1.95749234937082,1.99742581623348,2.04968718136619,2.03681085175947,2.02627771569178,2.02814137016754,2.03545969131632,2.05314552837557,2.05238637833677,2.04070847025965,2.03450185352367,2.0344299258705,2.05229399637444,2.02299879787839,2.02245110122246,2.03504893371472,2.01827020089867,2.04759901095599,1.94522498946664,2.03860374890465,2.04172533816386,2.03088721964508,1.94107705647388,2.03112186994608,2.02987563157173,2.02746962809057,2.0362462115206,2.01838699699489,2.00842164804991,1.9334884417326,1.93333376750675,1.93363544124923,1.93334092648142,1.9307513644089,1.93209987201409,1.92913932037887,1.92898543155572,2.00515834894352,2.00372818727069,1.95452347089371,1.90565040021385,1.90407536208299,1.9034506516948,1.90239017804002,1.96500584581227,1.85023655966403,1.84318444277725,1.84275772065917,1.84138399457085,1.84102713552785,1.88747381626548,1.87234786149269
1.93582090766086,1.93512609592698,1.92646130192452,1.92244813128155,1.9165231024686,1.909182346366,1.90092775142691,1.89314276432679,1.88816448843525,1.8753581690762,1.87483409035054,1.87350124411319,1.87291306469113,1.87301672278762,1.89911846352267,1.91648760346908,1.98712083574232,1.98910795929354,1.91507874098624,1.90948438470771,1.90255362247917,1.8931185578665,1.88412769266917,1.87011689442462,1.87014477843496,1.87093933960076,1.87192447635522,1.89236458308369,1.90294306295046,1.91366494354828,1.92231067034626,2.0535015134916,2.04518190108438,2.02743838853666,2.0131808958436,2.01428706824884,2.00961819786579,2.00512897389359,2.00303610314324,2.0022405737759,1.99447424419305,1.99410973561439,1.99291050148443,1.99105406123157,1.98710212661479,1.98581820575722,1.98415471059271,1.98427893657851,1.98422187239012,1.98347947498713,1.98126304209342,1.97986913682196,1.97943095187636,1.97930255533149,1.97732300024323,1.97447377787329,1.97500759549089,1.97482261293984,1.97262080082875,1.97165615619429,1.96955874833352,1.96690285190082,1.96044193211855,1.96172050020911,1.96386276534148,1.96437925119963,1.96400646525831,1.96389045539353,1.92757963642183,1.91452111827565,1.92539265080438,1.96458739199758,1.96441176781145,1.98362430973994,1.95870154530653,1.95563808928622,1.95437702404221,1.9619867602922,1.96294221179315,1.96937920888211,1.9746568446958,1.97831270616399,1.98189670697898,1.98573149353438,1.99945196270831,1.99725940095652,2.0185866679473,2.02887319529521,2.06185559550457,2.05322441980577,2.04909314560627,2.04926579566372,2.0453510684791,2.00953312015163,2.00569958309048,2.0004669279158,1.99254985590501,1.9718380332181,1.97087766463309,1.97024505328877,1.96960735726413,1.96993570300041,2.05391805823818,2.05773923978651,2.05898076472152,2.05593251111945,2.05200470317192,2.05077796559982,2.04860609747018,2.04425952579324,2.04085796155822,2.04236797661611,2.05952289313263,2.05868118371812,2.05252754422246,2.04710248756568,2.05039386883372,2.03277288313925,2.03232728410574,2.0320047278443,2.03437899396587,2.04237639347993,2.04249840529829,1.98802820191438,1.97954450435828,1.99204845486179,1.9974159125922,2.03045572779512,2.03047662664851,2.02874084677754,2.03145392886512,2.03162972731822,2.03267021549933,2.03476992347621,2.03386867583563,2.03436840489923,2.0426794915467,2.01947194657615,2.01990155793622,2.01988830904586,2.0214664551709,2.02580074673629,2.02733234658786,2.02617297629176,2.02688756530178,2.02912518347638,2.03056742665323,2.03428949679756,2.02087867611776,2.02148973623339,2.02112735441148,2.01823388367781,2.00360257803863,1.93420440737004,1.93393600086189,1.93438174804788,1.93301641836267,1.93254210911186,1.93039852268694,1.929854630935,1.92979004426739,1.94566243764952,1.96027803871797,1.93146244421984,1.90663878133686,1.9032340938513,1.90296450066581,1.90232505085717,1.91900676019406,1.88043433739018,1.84469346740459,1.84403887409547,1.84484403646296,1.84359654989705,1.84240101999323,1.84088908653897
1.93538938133705,1.98793196939721,1.88586145102514,1.88456500459039,1.88284463792813,1.88283323123799,1.88225091962026,2.08268619505227,2.08236210509489,1.8762895089332,1.87756928396592,1.87144289634017,1.87154403979358,1.86791265929396,1.990263678521,1.97017218784946,1.99262480787784,1.9925468736504,1.98236238026392,1.86857313958202,1.86887799775394,1.86829073027296,1.9170714177962,1.87092778864527,2.05160592332331,1.90287609936249,1.87310118640522,2.0490974670532,1.97142291660113,1.87396703217679,1.93839499867748,2.11226584064579,2.03988802185468,2.0097713550956,1.93153740983792,2.01293552033955,2.00928816343359,2.0000892667811,2.0022786385591,1.99851178145075,1.99721327435207,1.99504968069989,1.92003069589329,1.99134607718061,2.03147909465186,1.98463001166704,1.91536516742331,1.91505280724546,1.98658839916942,2.0286503884753,1.98432827729325,2.10378764736078,1.97992187643997,1.979329276058,1.90402802568026,1.97068882832533,1.97419311460226,1.97520231328184,1.97204513093378,1.97195682352369,1.89728771830482,1.9688779911334,1.89482246391592,1.89273339367491,1.96508251283014,1.96473820580333,1.96283211956877,2.09266488002356,1.89056670613945,1.8912156140585,1.96469210855228,1.96461220691452,1.96458510550743,2.0120429271095,1.96431223295088,1.95845219955845,1.96334220194737,1.96403975685168,1.89619541593281,1.97224779287074,1.97427928468639,1.97955769719656,1.9788442037781,1.98682457799818,1.98536330419676,1.99479794056704,2.09198322188862,2.06645654071694,2.07018049307577,2.05433987654611,2.05813381459574,2.04815454439525,2.05330477334964,2.04693268728516,2.04812699402347,2.00860957687342,1.97149730510512,1.96825422395963,1.96891825268998,1.96859483289917,1.96849358410762,1.96777060366603,2.04463137329643,2.04512658301499,2.05857171572646,2.05549278689886,2.0503276650103,1.96623428594282,2.03800910008286,2.04180223392502,1.96511417330773,2.03478238514727,2.05940050808144,2.05760217268662,2.03666173295381,2.05219131742484,2.05074467679448,2.04092407690387,2.03505343165005,1.9615822274166,2.0297706779656,2.04975855737897,2.04098161214385,1.95711706015344,1.95839469604574,1.97184493190033,1.95769860369349,2.04408382157342,2.03425658553236,2.02717237677742,2.02648795330054,2.0347212746832,2.03492544623859,2.03013872788913,1.95217413458955,2.03481648828024,2.04156605398712,2.02188099150919,2.02195675984291,2.02194971385605,2.02078158779541,1.94609912277742,2.02909814608202,1.94340132173204,2.02148212714034,2.02312241539332,2.02010809762006,2.03497240733679,1.94067774458812,1.93855253658059,1.93653319280873,2.02149001774237,2.00724377434647,1.93347631138083,1.93278963143081,1.9333275785618,1.93279833492345,1.93052665877763,1.93024878288742,1.9281110013339,1.93038751043011,1.9299734280187,2.0113917490478,1.90770212247211,1.90749134838164,1.88514986967006,1.85553479074095,1.90128287568455,1.94756341393895,2.04962249278415,1.8447640843086,1.84377560701909,1.89204684905644,1.89158015951781,1.83973549138434,1.83877822653883
1.88852923606325,1.93366004440019,1.8838771902034,2.07908226990984,1.88245673403148,1.88270022418445,1.88129505675996,1.88152992481082,2.00159254036624,2.07466816469034,1.87658018604948,1.98421789848565,1.87064304832858,1.99327737959086,1.99498491790815,1.96305488284522,1.94752125689006,1.98780257236944,1.86781987745399,1.86813136429815,1.86793732349256,1.86876017236002,1.86991118374376,1.97451624760019,1.8717851035624,1.91352674863496,1.97542183802353,1.8722386531324,1.87360243980482,1.87340219389886,2.01108119668199,2.00980398197162,2.00930277475122,2.00851862071766,2.11305337924222,2.02027572857789,2.03505140729431,2.03525872837055,2.00210027638565,1.92481256784695,1.99760355718104,1.99812805160884,2.03327871385615,2.11994677263566,1.992722603871,1.99077287299628,1.99015878532814,2.10615026315007,2.02936047827147,1.98517591329628,1.9853223028912,1.90544495197638,1.98076485152259,1.97862851893143,2.10260147811677,1.96777379115781,1.97396679235463,1.97603314080476,1.97288766782652,1.97176369617919,1.971966425673,2.09597059758881,1.89446794349133,1.9663904415537,1.96581783562643,1.96560125581643,1.96515950565876,1.965343586067,1.96494686125047,2.0146110361232,1.96350639589315,1.96437443972591,1.96424689599665,2.01223050195835,2.10273759589887,1.98628181511638,2.00885521704555,1.89506757292938,1.89543368234804,1.97222810939837,1.89791958316605,1.97684405623752,2.09967494580165,1.98383016459012,1.98605525885136,1.99744361202146,2.000477253882,2.06871751147638,2.07581043074296,2.06525987433995,1.97549699626884,2.04961031299635,2.06303299813675,2.04747078137387,2.04616406069418,2.04257876275121,2.04569846001376,2.04561686986828,2.04491721443199,1.96769796566358,1.96783848075925,2.04295449738853,2.06550145826192,2.05147808937318,2.057519015159,2.05338438715392,2.05344674363662,2.03849005607723,2.06305539364589,2.06066828757185,2.05004178134907,2.03835598070567,2.03717565963538,2.05621036551624,2.05329808174534,2.05309295627348,2.05939346023271,2.03888733043204,2.04026206341725,2.0331253403041,2.04736530246062,2.04919547450045,1.95911424891821,2.04007480263979,1.95781438975654,1.97499151437973,2.05269242904962,2.05547437392738,2.0283954825812,2.03034437740269,2.04583344080249,2.03464602683896,2.03526254616956,2.04234060773981,2.03192373031718,2.03179093357607,2.03098730801329,2.03998591799428,2.03807862984526,2.02428688511746,2.02132399994174,2.03915642378343,2.0278884986239,2.01804590448675,2.03070391304663,2.03149563297424,2.03841322238848,2.01462536642133,2.01114942135156,2.02214298418492,1.93613259442671,2.02418121630989,2.01745130516746,2.00412715920363,2.01551227214982,1.93273107713871,1.93099836357397,1.93039116678704,1.9283322181267,1.92883398250356,1.92830083908963,1.92958034252113,2.00530824000688,1.9082795417206,1.85378330710773,1.85382850775028,1.85330163863455,1.94413080798158,1.89992277314585,1.9616820641976,1.96091055411814,1.94192532594806,1.93760443523089,1.95786811724532,1.88784615896175,1.86942700479326
1.97399003597672,2.00455241101643,1.88507502438994,1.8809609063247,1.88109101215604,1.89859101732448,1.92806139079536,1.93372141324442,1.87727085204574,1.87761159111806,1.92320492827901,1.92135447563629,1.92108525766384,1.91860702824543,1.86892236365033,1.8666549161519,1.86680176246553,1.86744439980167,1.98756543422073,1.8677122135568,1.86767166134823,1.86891551722479,1.8696530390214,1.97444468455935,1.9199162018324,1.91984731456103,1.96678220743036,1.93057473627766,1.93134161225946,1.87185916630644,2.0414471858408,1.93791385953993,1.93711659824478,2.00849347131669,2.009037764372,2.01247912504216,1.93170848745385,2.00305069458431,2.00235506951452,2.00070062378528,1.99808823672527,2.03553352290742,1.92056374849108,2.02936056791441,2.10577107789993,2.01655328331336,2.03475648643654,1.98794325758347,1.98323298605997,1.98462514096997,1.98365041832881,2.10551828773318,1.9799675408973,1.97858773673642,1.90168280037423,1.96542549635868,2.02489309972444,2.0241343262121,1.89866823096885,1.97135023868945,1.96934490687694,1.96771002940564,2.01821497982911,2.01789088987173,1.89097860077961,1.92915329926055,1.89104666613522,1.96523771761491,1.96512800602769,1.96466585170617,1.96377407097588,1.9641901976901,1.96491452198531,1.96531183015719,1.89361411874566,1.91678069598601,1.89448540225867,2.01062474820246,1.89764187180417,1.89764617346261,1.97438265953597,2.0076900067178,2.00606283546857,1.98208564053791,1.98750564759528,2.00259225843971,2.00376659305165,2.06265421452377,1.97756464537537,1.975879377597,2.07383861194805,2.05909310956039,2.06825926775321,2.04698245506029,2.04624772800801,2.0417963975042,2.0460472993826,2.04640064167439,2.04575857093178,2.04777469530895,1.96819170279313,2.0613871117991,2.04267374872351,2.05149201547318,2.05061798947893,2.04778448156929,2.04246317589601,1.96561873436279,2.05978181906079,2.06090506643351,2.03943774333109,1.96516176752289,2.05027968738043,2.05770530166042,2.03466366360527,2.02969827155364,2.03459654256624,1.96384753792934,2.03195269823301,2.04209795319627,1.95870109411304,1.95959723830147,2.05886483512005,1.95764612141129,2.0550500258861,1.98065540030932,1.95566370699136,2.04637581104473,2.02966434334629,2.05410635728775,2.02914160756196,2.05328476628739,1.95213366671596,1.95147657432738,2.03223495549415,2.03224887875514,2.04279402131544,2.03131496755942,2.02160837616051,2.03932961153948,2.02970551697713,2.04139747531857,2.04012603081005,2.03733224461924,2.03709552214493,2.03350955733231,2.0382953974303,2.03292221887801,2.01482141969809,2.01089498715506,2.01231241234004,1.93458388004425,2.00820690914814,2.01779944519099,1.93196536795773,1.93207130459369,1.93063754599214,1.93066330703729,1.92924694914958,1.93180739504805,1.92892769673542,2.01824432835991,2.00004028426188,1.92724619474067,1.85618728995177,1.8548849979481,1.85373745055172,1.85231370506199,1.85115978743236,1.84793710793868,1.8464723168862,1.94105325453375,1.84303494888405,1.89089661086204,1.886791866598,1.88106077475203
2.00489370054034,2.00413632346797,1.88198132435715,1.88126494212713,1.93028434782047,1.91122129556936,1.92932368696394,1.93080552848146,1.99729492826587,1.87510378971678,1.87438278306311,1.9208342894295,1.87110438009258,2.05004056882917,1.86975610176403,1.86654706654766,1.96692130709315,1.86799872076247,1.99486882773363,1.86723005981926,1.86792285901726,1.86870793231565,1.95457529514937,1.95086770043269,1.92085696345718,1.92031753655024,1.92115362063764,1.9218815638931,1.92193502433982,1.97170948027623,2.04074830778737,2.0115751080191,2.01439150099559,2.1130436565435,2.00654261761438,2.00877833835299,2.00503023388547,2.00342974332146,2.00379224648225,1.99789765510472,1.99831568323518,1.99825203093395,1.9955443304808,1.91987343689974,1.99250793286063,1.99395453744889,1.99232258230237,1.91501208751818,2.10575266555287,1.98495544240334,1.98381638303782,2.02866044347653,1.90670129982765,1.97848685947442,1.90284939610369,1.97150804367682,1.97732637539257,2.12022873089858,1.97382357702783,1.97179150790461,2.0210604896559,1.97180732868964,1.97157891603555,1.96535587204594,1.96522447371778,1.96613206144594,1.96528572417454,1.96544269071112,2.01554439917383,1.96533725536931,1.96466951894364,1.96407220245968,1.96455130602717,1.96520931333501,2.01183034962323,1.92996809329528,1.8934997488092,1.96949784366325,1.97057121348313,1.97110218936101,1.9750659309773,1.97620844485872,2.09229541747215,1.98225458933064,1.98616694188479,2.00613673485885,2.10916429975368,2.06838060788077,2.06559996703362,2.06695952405856,2.06624577297946,2.06256352858591,2.04640953620401,2.04497115675193,2.05084003543372,2.04080205901018,2.04521773776567,2.04778969463883,2.04757974804926,2.04719939958429,2.04569751048382,2.04376849381358,2.0437372195165,2.06955534629803,2.04219372549528,2.0504653846282,1.96758193928568,2.03960924549937,2.06553507255698,1.96515204482417,2.03903933003153,2.05374069891286,1.96490897735613,2.03520349413347,2.0344991952247,2.02964818531924,2.05565636327319,1.9624798783092,2.04197466127423,1.96192202561114,1.95934763233972,2.04457363261745,2.05374796046379,2.04031283414957,2.04310719444286,1.985748391518,1.95681186139121,2.05219955647039,1.95451374715684,2.0287045675358,2.03806419330983,2.05207651711968,1.95201456365663,1.95138177801485,2.05856620573681,2.03351477345855,2.02480917916597,2.02060831553578,2.0201948981369,2.03399544844427,1.94568720200543,2.04402432371609,2.02582750970491,1.94280144064579,1.9422531292133,2.02683406377344,2.03533121603772,1.93950356559726,2.02596601685379,2.03456963949089,2.01148230166828,2.02870077605619,2.02155217783969,1.93201013773701,1.93159978198573,1.93102187322318,1.93059436293096,1.92988864338378,1.93084825897982,2.00128123429266,1.92787898524308,1.92752896628557,2.02499259288155,1.90819813611567,1.90690083417479,1.90174266249031,1.90345012748712,1.90302476201033,1.8513123978691,1.85042551151314,1.84640426912418,1.84491246015331,2.03970534008838,1.84074519022619,1.84016762063591,1.87597529980667
2.08524164436619,1.88235378990343,1.88228751179917,1.88084728295601,1.87994123018066,1.8801617553729,1.88090745963748,1.87647834442477,1.87739772143266,1.99812144728995,1.87418428601141,1.92076676461554,1.92104317616251,1.91952392457989,1.86814453480524,1.86603491140012,2.08231020588532,1.99282062521156,1.99434366920383,1.86698905637063,1.99129583455911,2.0582076357551,1.86868249780984,1.86952320607746,1.92078957785637,1.92001074745194,2.03900530578044,1.92109552404305,1.87241694441996,1.95827331215046,2.0395260270558,2.11464790183252,2.03618312971636,1.93415957633875,2.11603824774968,1.96561600254573,1.93091088337295,2.0333938337828,1.9293433454502,1.99797896670376,1.99682043873867,1.99628892076069,1.99453516236797,1.99231789265422,1.9919323627272,1.99294210100848,1.99162039914434,1.98748896064049,2.12341683266157,1.98631004385951,1.98200580283408,1.98319929709157,1.90581616382659,1.97863228549694,1.97789093911469,1.9755375207712,1.97510805706161,1.97469236633428,1.97396309844985,1.89857257961379,2.02134568881839,1.97176879803743,2.11320894242176,1.96808597956536,1.96590556919643,1.96679163297766,1.96654032152306,1.96538740202412,1.96486791847777,1.96554408697352,2.01886957948485,1.96492501745424,1.9650723260479,1.96686976402013,1.8919015737042,1.93969802451114,2.11047686408106,1.97044779579267,2.01024565259547,1.89813019682424,1.97550415202174,1.97658751464997,1.97678340163346,1.90755977064311,2.00710743658999,2.00663788403928,2.00573591709697,1.97547871202629,2.06468650900881,2.06544476258212,1.97458306258387,2.06378202531513,1.97198710203817,2.04634657764046,2.04159279305502,2.0406841966744,2.04389838374652,2.04706013974647,1.96842945557026,2.04355461158015,2.04898738636643,2.04183886343324,2.03994074291416,1.96580580036547,1.96627172247566,2.06176721697999,2.06126107056376,2.05792352979231,2.06296414059984,2.04927856253226,2.06551660228427,1.9642267980267,2.04948961350773,2.04985320925872,2.0518146871085,2.03094610912119,2.02825348635749,2.0371660163096,2.04629355570195,2.04795287350499,2.05644388733783,1.95832012003977,1.95771145105384,2.04063707346098,1.95605463036483,1.98996137912645,2.04144373327557,2.05270974650941,1.95509062728098,2.0476071514529,2.04158371484442,2.03347561403951,2.03142754102199,2.0401665650452,2.02536920724807,2.03569845239182,2.04275122052639,1.95085569170188,2.03941109364723,1.94700948901104,2.03865636926981,2.03502814846918,2.03800376848063,1.94247479116224,2.03521031797217,2.0266834174572,1.94112342686615,2.03489816673527,2.02892927744161,1.93867713620594,2.04214414696629,2.00819292856078,2.02595982714599,1.93179630248216,1.93115332056198,1.93066692586294,1.92940981445746,1.93069535471018,1.92785861050303,1.9279430833669,1.9273002313422,2.01685693845747,2.00609133841277,1.99935263966316,1.94465632702126,1.90180884745827,1.90364605948534,1.84999069674927,1.85185476638103,1.84785053007928,1.84695724797207,1.84621979792048,1.84056382828009,1.84087952781235,1.84066391054595,1.87099537603695
2.08479440022501,1.88278056447374,2.07588350203051,1.99169474343514,1.87864894270787,1.87950224808797,1.87853168205665,1.87761141769035,1.87653332961818,2.08133793601319,1.87370943769123,1.95552546003502,1.92059730376069,1.86990333781436,1.86850294028613,1.86575014166767,1.97465085257662,1.86754615391363,1.8674977419411,1.86720215955707,1.97055503244591,1.86714094122117,1.97206452508397,1.86822358643019,1.9204846956171,1.91977166710423,1.874362061206,1.96221520364343,1.92251940729893,1.92322592340601,1.87667548645991,2.0116938319907,2.03777085023717,1.93426058611266,1.93480997564068,1.95413376993568,1.93098878749246,2.00523563207612,2.00283067267022,2.03462869313333,1.92374302616808,1.92249852073175,1.99458746489437,1.99791220373752,1.99109609203603,1.99141880450031,1.9913320174242,1.91511903720412,1.98639220747956,2.11004906533733,2.02565268766247,1.98267653101442,1.90482101701629,1.90556889138834,1.97654184936339,1.97752649282456,1.97617013602436,1.97606237778797,1.97201692795968,1.89951244049018,1.97156897197652,2.11976204135995,1.96760391093356,2.10262442039708,2.11664737051902,1.96800134274549,1.96636059730471,1.96561417009727,1.96605665818318,1.96661640330336,1.96439346360997,2.09480387374225,1.8908357690996,1.96621069429974,1.9655479439266,1.96465186330241,2.01086790531363,1.96893445986072,2.09339408242766,1.89998399138044,1.97503813828402,1.97656665448351,1.90496217667828,1.90568438124813,1.9070139925235,2.00558308934459,2.00242080241719,2.06857670000517,1.97612082461525,1.97569950767066,2.07664171416026,2.0732034955086,2.07939741104716,1.96999394879558,2.04549602826152,2.00399048911323,1.96952615290486,1.96807417339649,1.96896020489535,1.96797111174699,1.96801814115524,1.96780454465834,2.06201407546049,2.05634186544741,2.05737661998464,2.06341702812552,2.06314084724403,1.96704797107483,2.05058563675026,1.96724242504926,2.0470682387285,1.96411404980467,1.96368413729571,1.96274035463742,2.05008252259456,1.99316716937314,1.96318073424498,2.05138952815063,2.05668473983393,2.04720630379733,1.95937687681114,1.95976618119241,2.04558003644149,1.95612457408387,1.95528580794446,1.99597703317053,2.0396179296649,2.04859668752782,2.03724899314959,1.95411057343786,1.95341342855916,1.95377611260185,2.03766603637741,2.04852075276485,2.04063479739305,2.03925364269888,2.04237292869566,1.950245217737,1.94914449672693,2.03816367394207,2.03754502141368,2.03451771309277,1.94563037404112,1.9444665664297,2.02509620852321,2.02664563682462,1.94028081626978,2.02791170868088,1.93840490064174,2.02739717575641,1.93493095639865,1.93505452424113,2.00824300416591,1.93195687996554,2.00748431652584,1.9303211395574,1.93011197909688,1.92854144796376,1.92918103432476,1.92521169337113,1.92582459181449,1.92751522667537,2.02627103594428,1.99964377116457,1.85980580889799,1.86173510974501,1.85361155357472,2.04927247563019,1.85214524613874,2.06999154660538,1.84651198780103,1.84392903981432,1.84237701697374,1.84048173870757,1.84089163531701,1.86486376617511
1.8823020730663,1.88197902443742,1.93017931825795,1.87889263409266,1.92735491515211,1.88934893104058,1.8760403376688,2.00094094028637,1.87471623281149,1.87378329082701,1.872716190347,1.8722930658105,1.99528241926332,2.15879867672616,1.86773742407864,1.86559349430422,1.91682982923732,1.86993399144526,1.86796442511667,1.98203187573082,1.9702207109567,1.86769464845345,1.867219888146,1.979181540548,1.87083256585901,1.91962414310094,1.92021374297595,1.87370821018319,1.87520471190177,1.87433079261458,2.01470037377806,2.01278185236132,2.01149084834341,2.01024292485403,2.0077582298929,2.00235212000212,2.00718637440944,2.00735459711028,2.00130693777657,2.00137323783834,2.03234388490408,1.99750513795296,1.995359658069,1.99397236029267,1.99281000438709,1.98831800611024,1.99167801236884,2.12455533182957,1.98639093707381,1.98441655509938,2.02770133920518,1.98235569263913,1.98122864207614,1.98052860877982,1.9789640068661,1.97896973660253,2.11310199273583,2.02239882449111,2.02189364716968,1.97134054510323,1.97079813264079,1.96906304569987,1.96863942596853,1.9676862686135,1.96817723474148,1.96904822559388,2.10256258732189,1.89188581976897,1.96574799944493,1.96507899953324,1.891848326677,1.89164089122489,1.89077145397724,1.96551045729927,1.96468794669731,1.9639950212054,1.96167268229447,1.96959311152647,1.89728760774917,2.00847542648402,1.97159097292027,1.97596591404673,1.98220419086249,1.98350637181149,1.90814030267168,2.0055955282906,2.00448590074535,2.06256984638586,2.06070808764313,2.06296143021931,2.05502041692939,2.05553257618751,2.04557834497928,2.0461570304326,2.04626527840411,1.99697063502802,1.96964262799714,1.9692128348374,1.96800200596394,1.96956890182376,1.96836850659365,2.05274552206414,2.06032912598767,2.05951462758848,2.05840293024654,2.06227637315387,2.05841243538902,2.05265724541042,1.96630904597201,2.0500902015783,2.05768050442977,2.04967588550507,2.04922983755218,1.96450777304699,1.96405165826299,1.97546876335667,1.96273543497675,1.9612332074726,2.05119562937217,2.04482875600092,1.96004623980885,2.03874010127746,2.04347003932597,1.95631553624277,2.03989120028401,2.04677131071915,2.0437224619691,2.03089294725904,2.04462835731843,2.04298889854128,2.04190766328929,2.0478361758931,1.95184648680762,1.9504269727943,2.03862265988549,2.03658332950464,2.03502935851817,2.03304366927489,2.03444954363388,2.0323057803697,2.03160082925491,2.03372369748752,1.94498245303711,2.03721005934141,2.04361717056184,2.02520150776336,2.02649260483012,2.026652359833,2.03179628835657,2.04273594827307,2.02623453223009,1.93597408930276,1.9332172382901,2.01170184236672,1.93135420232565,1.93100422024076,1.92968261446247,1.93238305088601,1.92550734646335,1.92894268878954,1.92646729014188,2.01568055154793,1.9284876583132,1.86093887175677,1.86064100355305,1.86201635817766,1.85470636939862,1.85437224889678,2.03813998559424,1.95460273744597,1.84475153324818,1.84486493645118,1.93547809942831,2.03983173517176,1.84036594544981,1.85747426625081
1.99158770411643,1.93132866019454,2.06999154660538,1.92645264896442,1.92693875493233,1.89751512742122,1.87623946972349,1.87483350802391,1.87504103276213,1.87344370239893,1.87322592335173,1.99143214093689,1.86986148468902,1.87004740753125,1.86841979752676,1.86902305426958,1.86866468470722,1.8695742012404,1.91788001474267,1.98132828497394,1.91540193199499,1.86784932279222,1.8677734610745,1.86770112054451,1.96491834152378,1.92511106840848,1.97434944891626,2.04869883640563,1.87552344365774,1.87476073197372,2.01131099590282,2.01224298610871,2.11646604649341,2.01079596061869,2.03681556269831,1.99967063797833,1.93041572284154,2.03344821148595,1.92945029511938,2.03165328075752,1.92223605266814,1.99712772293721,1.99568182865505,1.99315545442001,2.02965155994848,1.98279927958172,1.91517907727683,1.98511377776,1.98447596995108,1.90887864025841,1.90845732331382,1.98253503789401,2.10995183835011,2.02673543925964,1.97774475724415,1.97683564200906,1.97787274540284,1.90175032646227,1.97328575219597,1.97214298032006,1.8979390285635,1.97063345547225,2.02166973396028,1.96588933323404,1.8921134497653,1.91187238874942,1.89203348409419,1.89139681572725,1.96569192604446,1.96604255023558,1.89154116765511,1.96396810106604,1.96438585056064,1.96550011546202,1.96390680948729,1.96075235578016,2.01423186943845,1.97065707489864,1.9714802436269,2.00824784763713,1.97294602902435,2.00817477173231,2.07986124121604,2.00492665267403,1.98738424042759,2.00501380202506,2.09823598639089,1.97496224783401,2.06810930592651,1.97534949051669,1.97468186520449,2.07392607515717,2.04737902468724,2.0458697649971,2.04747916876949,1.99183674117971,1.97170291445971,1.96842809366348,1.97059986671991,1.96684667427048,1.96817556381266,1.96766485454228,2.06111988458585,2.06946323330091,1.9642395929719,1.98852256929579,1.96724902998609,2.04865019448163,2.05509699766073,1.96532862903455,1.96447951334622,2.06116597495371,2.0558209958591,1.96370670323032,2.04825159226444,1.98411786455632,1.96235985910754,2.04917817505002,1.96058351208758,2.0447684283123,2.04051040435011,2.03120416206635,1.95766067513578,1.95804313855144,2.03889372602604,2.04706072688209,1.95788537023219,2.04573631783735,1.95445707623069,2.03477730558502,2.03410587325657,1.95243475489665,2.05268056581036,2.0439888284472,2.035532132072,2.03707289202604,1.95145552406974,2.0419154584924,2.03772780579633,2.03284482398134,2.03462164017613,1.94505182053372,1.94481556087266,2.03854689666676,2.02729586764083,2.02896052749312,2.03770130257752,1.93923133003306,2.00527735354886,1.93732568108367,2.03975373193906,1.93532703334912,2.01215297558739,2.01038222173922,1.93016594384032,1.93054379877571,1.929950165052,1.92763267274136,1.93061184420545,1.92686954124844,1.92823149306297,1.9259154641296,2.00963635185159,2.00942145282947,1.86000875291769,1.86156637140106,1.95713045984798,1.85390589434108,1.90009402249903,1.84922830796955,1.94993343694184,1.84378628716969,1.84367375589541,1.84246938432223,1.84208160579135,1.85158496271239
1.88298745182966,1.9285257540751,1.9286454900641,1.87948354025989,1.87753592531803,1.90691132917586,1.99985199802958,1.87427445053082,1.8740465613663,1.87380439156272,1.999453367382,1.87328796648312,1.86952440511513,1.86855808231549,1.86833220514337,1.86990522733917,2.18198731317657,1.86769859065984,1.86818257997221,1.86805991160381,1.91540834711874,1.86942763752281,1.86920020080637,1.86837800418188,1.87269812424595,1.87323968918409,1.87252967559723,1.87351664093578,1.97299799379399,2.04688955158634,2.01505595058825,2.11307282463966,2.00926016440123,2.009431295657,2.00817248954424,2.003095762615,2.0051348831917,2.03440152369902,1.99994302185943,2.00155465936456,1.9974858236771,1.92127581226625,1.99654707126514,1.99462553732984,1.98879070746866,1.98479529860229,2.11488453231779,2.1132640825309,1.98748189098395,2.11038935979257,1.98210167043197,1.98171928474742,1.98186475946461,2.11317005162688,1.97500822735413,1.97507655184921,1.97038997182976,1.97501720219007,1.9726668059698,1.89768634547399,1.97098025316788,1.9688175341895,1.96868071663959,2.01868486545283,1.89194471684494,1.92757140019053,2.01572916504154,1.96539159714445,1.96613878978709,1.96434612949486,1.96332723349956,1.96427044688911,1.96517881510704,2.09462886516527,2.01292911744256,1.96242376815916,1.96696827095161,1.96945929838519,1.97096392562922,2.00922990524431,1.89931077442295,2.00712469313557,2.09597925451181,2.00717360536589,2.00376002652528,2.00176782058556,2.00485464842406,2.08927165816981,1.9754278461716,2.04854630164138,2.04722267325309,2.04568951813305,2.04658860996286,2.0464413561303,1.97129526110427,1.98859885959793,1.97042231858571,1.97037394295004,1.96879343610019,1.96916203743032,1.96728711149077,2.04880669523257,2.06251970029189,1.96507720196931,2.06494473525574,2.05445674584241,2.0397015672505,2.04869510245077,2.03889815484161,2.05900822371796,2.04402291820679,2.06139734120598,2.05245697261285,2.05464749699255,1.96366505707031,1.99439386804516,2.05131055979037,2.05221709581451,1.96062626114968,2.06578981024555,2.03248067750663,2.03218861810505,1.95781674758571,2.04101358611424,2.05276120594921,2.04458552832945,2.03181362329426,2.03512240866464,2.02683783241987,2.03342752265676,2.03312030656943,2.03690777954056,2.04488103474139,2.04857542979877,2.04463146163839,2.03881237864663,2.0316593249228,2.03509164257552,2.04316413820668,2.04170919711255,2.02895378841189,1.94476196108873,1.94469097848951,1.94379585700776,2.0323294941142,2.03342881713093,1.94077601391495,2.03619544584997,1.93741617144239,2.03184728133453,2.01248047193391,2.0052732451873,1.93194602867009,1.93113449421382,1.93035726340088,1.93100901990976,1.92866857752716,1.93079472866837,1.92640479394239,1.92868849169627,1.92624156908193,1.92667258430446,2.00894698513187,1.86066140275381,1.86056109653616,1.8612065224398,1.85754034998952,1.85498723236417,1.89914354255155,1.89796280917481,1.95137007319468,1.89396237107666,1.94755212369169,1.94522732641681,1.84105140751575,1.87294685583325
1.90249847660392,1.91519402429241,1.90702181149001,1.87874748860017,1.8778447136362,1.91554805949778,1.922619655214,1.90375399768508,1.87483647929554,1.87487533493323,1.87378640256947,1.87184894493061,1.87058293576114,1.86955453171618,1.86995779861032,1.87076242156432,1.90669908238441,1.86921914453827,1.86990933416186,1.8694781176333,1.89567905411656,1.86909192043488,1.86930177522683,1.87021382036772,1.87266066289253,1.87419328735162,1.87313400322282,1.90426878059989,1.91887616984093,1.99735832120129,2.01398572202281,2.01284856958614,2.01094080812459,2.00935566382558,2.00753158249461,2.00567327786571,2.00310628097314,2.00039359281492,1.99657109537124,1.99783653608954,1.99701676454947,1.95091742444108,1.99547519898888,1.99419762519281,1.99085917338522,1.98733672140767,2.01458344100525,2.02128257371975,2.00341544615511,2.00693015537605,1.98308563429369,1.98318764638333,1.98281298243522,2.00305795153896,1.97300812248451,1.97067410798795,1.96927057868749,1.97061393887446,1.97205310866889,1.97235999049653,1.97091161671385,1.96973589888653,1.96824778926927,1.96594604909597,1.9612662550135,1.96217944297494,1.96648608748191,1.96718720794235,1.96757760578211,1.96618343521562,1.96548315938427,1.96514578475688,1.96424209333212,1.96173376709424,1.96202277279514,1.96470178866824,1.96691757535235,1.96919016874772,1.97089172276937,1.97260839818287,1.97423928794586,1.9839120377613,2.00264587032819,2.01175387080939,2.01830253932428,2.02436244404955,2.02696280339726,2.05593750810373,2.05171400231906,2.04638008796644,2.04040432972942,2.04103209465515,2.04170754792933,2.04189982112625,2.00445199435145,1.99902654860268,1.97416879735359,1.97330239716436,1.97152028303897,1.9704170226955,1.97012410454545,1.99191987335322,2.06308258947977,2.06379268850145,2.06116238087383,2.05714968994528,2.05266195192697,2.04732147203526,2.04172765911747,2.04251295921554,2.04533065994898,2.05009994586806,2.05359494868989,2.05370065816154,1.987946409648,2.00325464995452,2.0576446014019,2.05385394513397,2.01752292197121,2.0156772601701,2.01489504178744,2.01627189118668,2.0183232341676,2.04539858697112,2.04779148435042,2.04501940728747,2.03456006471754,2.03242618353174,2.02904657497057,2.02749942661232,2.02548612291642,2.03261497271264,2.03049536846569,2.03344074070074,2.03894127858794,2.04039810550026,2.03635767804852,2.03445116131205,2.03579400002379,2.03155396454679,2.02845483541939,1.96858392518152,1.94614577341057,1.94586115181697,2.03463891480743,2.03679996776849,2.03454593863155,2.03289320867745,2.02512563104135,2.02828107175374,2.00751865449456,2.00518494068568,1.95647697526663,1.93148378137065,1.93128977570277,1.93118708400057,1.9300158759118,1.92875073574734,1.92798026566624,1.92721910293293,1.92714809090427,1.92650600283273,1.92630630876189,1.86142908828769,1.86144110095566,1.87673572768258,1.8846013921043,1.89501436384227,1.8999473966602,1.91821866785042,1.94993712926883,1.94812251439282,1.94794336599705,1.94483602461665,1.90395293533393,1.89168326974423
1.8814117236291,2.08512978851451,1.88110387486288,1.87641768855646,1.8765630935458,1.92146782040589,1.98428462188477,1.98475186272338,1.87363437905217,1.92119426349769,1.87015221927585,1.87002250221613,1.87025368828607,1.86899033745843,1.86972391825857,1.87037396324823,1.99105295568676,1.86770541342493,1.9865610688775,1.86780805727663,1.9210385976427,1.86889028877934,1.86861704330041,1.86966611439352,1.97506892862164,1.89504848891964,1.87190053176624,1.97314374464204,1.87512969100853,1.97454765653705,2.01456221083941,2.01264602556647,2.01100255841417,2.00968845238976,2.00860267426351,2.00666357394973,2.0053067592767,2.00620570278844,2.03142894844029,2.00268526215918,2.02836671201374,1.92154712980589,1.99519246964965,1.99388234304672,1.99189416709036,1.990502713975,1.99131013127309,2.02803750958313,1.91345768650202,2.11043797328618,1.98280880774565,1.90796378531301,1.98175524085157,2.02449912892096,1.97553091773289,1.97305545448713,2.02320592034913,1.90049687582679,1.97412492106678,1.9733953792891,1.97170210065215,2.01932336745241,2.01872704192889,1.96822717490765,2.10113335060985,1.96208605285053,1.96719800768355,1.96639940737817,1.89193044391783,1.9648926552598,1.96505741381613,1.96525597069251,1.9659724694182,1.96371975965569,1.9660233045122,1.96594565460824,1.96724894734568,1.96814082142515,1.96637533620153,1.89552817965079,1.9740701842952,1.9007204115711,1.98111528922835,2.0810764708195,2.09855587740967,2.03890250791901,2.09648688280019,2.05080175334261,2.05060895009356,2.04666592882167,2.06103786216658,2.04429916618406,2.04470796635723,2.04475475953048,2.04462067213684,2.00434558088354,1.97252135060319,1.96953426711813,1.96853577368514,1.96888270323605,1.96812875718297,1.96867412905867,2.05607354932035,2.05718659682997,2.06085810648396,2.05288426609,2.05560062996702,2.03824538994827,2.03944101214493,2.03769714993212,2.05622880382875,1.9653169904102,2.05408923070793,2.05418923983773,1.96341367973511,2.00900826593834,2.05205758912483,2.04812571410795,2.04607621931025,1.96047735989844,1.95858716445474,1.95842479218963,2.03892251714167,2.03967235721169,2.05049388141105,2.04508730274574,1.95572727461512,2.03233747331833,2.02946725470008,2.02377916332687,1.9521470621096,2.03662503107799,2.03584889511185,2.03523895076328,2.04394583411084,2.04370368749162,1.94879863705551,2.03354998423407,2.01944891046976,2.01690866762805,2.04748961375685,2.0334180550728,1.94357897317622,1.94330455573267,2.03257116077701,2.03361849272918,2.02372518223342,2.03470439417446,2.01853431781426,2.02687187041857,2.00980220342168,2.0416653000682,2.02833049626964,1.93096366016371,1.9298980799817,1.93018984301934,1.92947693585188,1.92700923500574,1.92643242754813,1.99917140910108,1.92653807108749,1.92639217936286,1.92528191626313,1.86141647092646,1.86080149274195,1.88671807033394,1.90543233607486,1.9034050733874,1.90080083957433,1.94171297352907,1.95126404554236,1.95475147921215,1.94959636774036,1.94313388841425,1.94343584727277,1.88855455554035
1.88138824314922,1.88112486468131,2.00555931181178,1.87700303190942,2.00043295675728,1.99051409603364,1.98566118603615,1.98469672401793,1.98527948039276,1.87129421129725,1.87185480289678,1.87042195201243,1.87080248750784,1.86818571102354,1.86728221660263,1.8695800263522,1.86835128896448,1.8678979559312,1.8680119793682,2.08219353350067,1.86759423980977,1.98521826750647,1.92043559850575,1.91899015729585,2.07367644942077,1.90293809134211,1.8727876884681,1.87252023214435,2.04835854195038,1.87698346546278,1.93829320147972,1.93765110035203,2.00979165719366,2.00889610437051,2.00858529674181,2.00799942332154,2.00458701253131,2.00304524353565,2.0025255541128,2.00034619576648,1.99852585420628,1.92221920471096,1.92187395158258,2.02742371111605,1.99228636632439,1.99236557479447,1.99327708728329,1.98923883171759,2.02523679437033,1.98407821261195,1.98312309732265,1.98055476167134,1.98104493663692,2.10999226331686,1.98090797247114,1.97664305835498,1.97580906206544,1.97612653372425,2.02288506879018,1.97171608061811,1.97042466717038,1.9685536691308,1.96980042967827,2.09971383659653,1.89188917640661,1.96256449557319,1.9671666161368,2.01590426325129,2.09455084774559,2.1007378920954,2.1124380921851,1.96500731797993,1.96514853565338,1.96625696676063,1.96610621021887,1.96701201658037,1.96684071028031,2.00827185493367,1.89709315377474,1.96930602422239,1.97466524634805,1.97917020280769,2.00538024214076,2.00501754816385,1.90720899201227,2.0385246701995,2.11252440964347,1.99265755950686,2.06008271507031,2.06769966577114,2.05118863459814,2.04895410545149,2.04500655045109,2.04529351867621,2.04540960086539,2.00670972169096,2.04600588175046,2.04336759124237,1.96864449974513,1.96769295074405,1.96603773641592,1.9665062792212,2.06537798920209,2.04655914406552,2.05115825058585,2.05227682316728,2.05453169667532,1.96495430513378,1.96548581266388,2.06039770560088,2.03753308029465,1.96668841946658,1.96437709130534,2.05513579282754,2.05870995323687,2.05387625321787,2.05254383896284,1.96101017516887,2.04894860992109,2.0460280345025,2.06189075564404,2.04759792843386,2.03734886839915,1.95603215342354,2.04409516931877,2.04257261960643,2.03957256714659,2.03549239403246,2.02537753901745,2.03393827198676,2.03238779080274,2.02393504275062,2.0418925449333,1.95158559439193,2.03960287373219,2.0410505055474,2.02765011162269,2.04444071653957,1.94706782520246,2.01610336354622,1.94465327701123,1.94419147620234,2.03195896685293,2.03148766799132,1.9411984118998,1.94427413966357,1.9428205717292,2.04507593483005,2.02219484550953,2.01568771789718,2.02293769291398,2.03125392375713,2.0076590341852,1.93058903894879,1.92951533043581,1.92974571289076,1.92798053921533,1.92951882420409,1.92739950354556,1.92919968657247,1.92694926791208,1.92447864287004,1.92444441760465,1.86120316501485,1.90718682607463,1.89823747551483,1.90541011701562,1.85486689248861,1.95387815057228,1.95396651597236,1.84810724255944,1.84684404407711,1.89336187615993,1.94470515483828,1.88802853245352,1.88761008888115
1.88250624166853,2.00532605667524,2.0761946283896,1.87723669574421,2.00086231073406,1.99252901619788,1.87500183247557,1.87437261031896,1.96774072161839,1.9679177558946,2.06980062335641,1.86975519630413,1.87032334785275,1.87078931368032,1.87228279215622,1.87028111392715,1.86909591130267,1.8698962542533,1.86992051870335,1.86839811332827,1.86818029447734,1.9850018307598,1.96954312033858,1.98237496069198,1.98267596363575,1.9106183988253,1.92226886712678,1.92368960752034,1.87543121323114,1.87709992764329,2.11250890811383,2.01159797112077,2.03637701670944,2.01052290269999,2.03205487201006,2.00773842983386,2.00612345061125,2.0060820750566,2.0014266733546,2.00101248748021,2.00507376988481,1.99705697583782,1.99588824871292,1.99458804311699,2.12314554051498,2.02046966404198,2.10976710707441,1.99056651029178,1.9858037970141,1.98625386870277,1.98158264801601,2.09907213848092,1.98089563825071,2.11027038409461,2.09616599997022,1.9761393361152,1.97502963542581,1.97443689942913,1.9716689444265,1.97118582651651,1.96963465164872,2.01875458957728,2.01879996216949,1.89345260693358,1.89226785149442,1.96434996593502,1.96632338528661,1.96570065018409,1.96577633397382,2.01620566690801,1.96399912601815,1.96483328500673,1.88984324782359,2.10202783889221,1.96540202512598,1.96699572202082,1.96585081758599,1.96557893771229,1.96692810197678,2.00836821636564,1.97283617575997,1.90107941543411,1.97972824582593,2.0890869268941,1.90737725564682,2.03377931694776,2.09842385862079,2.04868172621326,1.97451518455891,1.9738435964881,2.05527439262481,2.04766470222664,1.97086974963606,2.04536874465251,2.0454109169338,1.99127981519472,1.96910230576082,2.04285864710342,1.96797996766631,1.96679153877021,1.9669742487322,2.0572017095877,2.05639460943776,2.04792525587329,2.05471781696102,2.0513537587708,2.06219130053224,2.05633713825631,2.05597785603226,2.04282652193693,2.05581847279397,2.05522786952706,1.96210452458962,1.96124479732756,2.05805843033639,2.0552136028659,2.05314342156834,2.05623647573428,2.05641907383704,2.04366809823955,2.05582162203764,2.04847021092729,2.04345613985691,2.04501030440363,2.04406726842078,2.03882600336789,2.03785635994233,1.9544181854358,2.03525727424182,2.0254753939464,2.02300725506264,2.02276468090431,2.04708335088941,1.95110594125501,2.04468057605334,2.04180825849512,2.03836780097131,1.94915820542755,2.02404124891716,2.02503215464048,1.94477483812563,2.02494483587615,2.02461846006502,2.03008059803319,1.9418344355693,1.94423757233689,1.94193685642046,2.0282602840638,1.93748768124598,1.93654133857043,2.00618682856876,2.03006417777908,2.02582428572281,2.01511580338278,1.92828884214124,1.92884628967975,1.92892116540524,1.92581239496355,1.9313700535548,1.92432753361277,1.92689010645177,1.92307414644598,1.92539404639009,1.86142393115149,1.86030068206477,1.89102917458936,2.06119250426256,1.85542224745806,1.85438464663204,1.95326919392327,1.84905225536202,1.847398743134,1.91125516980633,1.91055979708262,1.88788157200582,1.8874862333646
2.08543925738875,2.08268141555434,1.87669809793766,1.87724080878394,2.00079853022921,1.98940208236199,1.9838265033134,1.87390696774734,1.98769715108571,1.96544676971829,2.07848434403257,2.07072348735154,2.0716626918715,1.86891115854676,1.87020194380103,1.8689515403943,1.86864681356432,1.86913701385703,1.87035246479441,1.86908802318757,1.86888355761091,1.86936901576912,1.87030515901321,1.86845836027624,1.87032688399487,1.87141410336963,1.87077094836916,1.87584573783739,1.87519586828652,1.9259410622838,2.01403131443645,1.93581866278186,2.009428789832,2.00904976171407,2.0088898281411,2.00834644331781,2.00599180665776,2.00332804601503,2.0015836664163,1.99994640903421,1.99984678786224,1.99874558038768,1.9988103845581,2.10175655862685,1.99211797582743,2.01063970093463,1.98958936517925,1.99059011034387,1.98467039264228,1.98534771186689,1.9114016805766,1.98087715023649,1.98069070201967,1.97892847228697,1.97869024384066,1.97685257336401,1.97452287135546,1.97408810753754,2.10489603501501,1.97081089835211,2.11614519743561,1.97128840007176,1.97173287497091,1.9674141583672,1.96722384603238,1.96635194914392,2.01688616618615,1.96578969713989,1.96510732139732,1.96474354038214,2.01296148162191,1.89108775325992,1.89100068267143,1.89141443593696,1.9666983324408,1.9673004886251,1.96616782311614,1.96745262519854,2.09639839633255,1.97211470540325,1.97470401270447,1.90014603635686,2.0071071879706,1.98200656437608,2.09381260750488,2.02698440420911,2.00642019955622,2.04880726468129,2.04851056023342,1.97393182263563,2.05261574462532,2.04736887972057,1.97053781745988,1.96982215895583,1.9697587980442,1.97221291823514,1.96924654776395,1.96913156107065,1.96622132013935,1.96723283914935,2.05046889823308,2.03903110758717,2.05463460035822,1.96507746679981,2.03702335778238,2.05454929700502,2.05956906310916,2.03809203327556,2.03840486801157,1.96412828661829,1.96457230877827,1.96419829004909,2.05442274479126,2.06442784907726,2.05990599514892,2.06087858944279,2.06918547793712,2.05523641588954,2.06322691430883,2.05341523753291,1.95852870552434,1.9592809810838,1.95856835723917,2.04815145760221,2.04664551912332,2.03680624041291,2.04094890507276,2.05525312384291,2.05318315605026,2.03548574374793,2.03782515196932,1.9517831847723,2.02949177289863,2.05003419277309,1.95201641934538,1.98298220707377,2.05167442836308,2.03292900700294,1.94772896871551,2.03399819504763,2.033581150892,1.94346070397684,2.02472702388283,2.0415906908122,2.02968636411726,1.9731755192364,2.02985897112452,2.02231229204387,2.02406456716026,2.02514654480584,2.02320853676841,2.00893088202171,2.00802779983604,2.0264413896396,2.0080344798192,1.9491752132571,1.92674188338833,1.92884175655661,1.92387653513986,1.92968518089436,1.92387984064868,1.92513233968074,2.00544601821848,1.86205857551812,2.04473197532732,1.8837605232652,1.85840225721895,1.85404188002807,1.95430553138174,1.95352340446824,1.84833749255387,1.84663335534587,1.84481471580933,1.88973829879936,1.88876682982524,1.88775944002327
1.92763188153593,1.87651518989549,1.87584964397889,1.99843271222991,1.8733077392328,1.87302846681838,1.87254979324108,1.87289701970118,1.98666176334857,1.98647811305635,1.98460629034687,1.96848725112607,1.86965061004785,1.86992851796423,1.86921918575252,1.86918151232091,1.868334743341,1.86824772541312,1.86883467443736,1.86988093536884,1.91950828331029,1.92036017690692,1.87204940559761,1.87284942768769,1.87138682490635,1.87168729771712,1.87295400015394,1.97893847307996,1.92523324981688,1.92537258958037,2.01482169092038,2.12273182110398,2.0095717139717,2.03237108912098,2.00730616971682,2.00758218163702,2.00600387669233,2.00314256955939,2.00231926489019,1.92676354482946,1.92527273100979,1.99717323106795,2.11313982655504,2.10270978761877,2.10277549745284,2.02098635499962,2.02620066604041,1.98781376763583,1.98624080026049,1.98540363006673,1.91045533790106,2.09859572624358,1.97918727123464,1.97853704513887,1.97788543776269,1.97672136901299,1.97597881403447,1.97429213427265,1.97443792939037,1.89868767636504,1.97128369088798,1.89445015535594,1.89410662000112,1.97059938679103,1.96489629226471,1.96670021052005,1.96510789386588,1.89039421435573,1.96477958961866,1.89090951738796,2.01231330170716,1.96538656849432,1.96576614851121,2.01148075436621,1.96662456606177,1.96745058201496,1.89198544008047,1.89236142489413,1.97102790089904,1.97151031120002,1.97103601385153,2.09616245465592,1.97959760391981,2.08983159066511,2.09096774943662,2.08145169236595,2.09247419673431,1.97723031762305,1.97567424176017,2.04916494752028,2.0619681574376,2.04618715303794,2.04502229642206,1.96955434376019,1.96948342051924,1.97066526222449,1.96950868645654,1.96504978320965,1.9674964513015,1.96446675634427,1.96681154485076,2.05194886580367,2.03956087899751,1.96459776026592,1.96531267383258,2.0444683717404,2.03928764277303,2.03719640892279,2.04048112088045,2.0393877866214,2.04629774798591,2.048321974373,2.03124208994347,1.96259497506045,2.06426408177213,2.06150319313752,1.96176453013156,2.05532485765484,2.04058474626207,2.04921390604845,2.04213468854474,1.9587639404117,1.95783334817719,2.03520598497988,2.03760738503084,2.03544362412513,2.03949257293736,1.95512141582693,2.03888829573583,2.03910658518609,1.95181076708538,1.95157530177543,2.03984147009574,1.95102200916077,1.9509868556157,1.97431300268626,2.03551060348996,2.0353129841517,2.02638012361866,1.94747775418216,2.03568645227048,2.0296666625743,1.94377183033593,2.03579235759963,2.02458078418036,1.96246081520201,1.93791333772172,1.93840403327956,2.0324472095007,1.93777755976313,1.93558340864239,2.01794315622839,2.00834188754996,2.00110162917189,2.00201248492663,1.96346468865272,2.0042077670546,1.92723412688205,1.92962721406847,1.92422093023935,1.92646109114479,2.0059742021275,1.99707714912227,1.99722219445539,1.91087003859735,1.87691965802818,1.85827625079913,1.85432330454878,1.85240232839799,1.85117211824821,1.85030262918757,1.84460718360789,1.84574908870412,1.84370388602605,1.84213601186245,1.84230546771197
1.88091376483596,1.87571944241467,2.08919387658004,2.00519943337821,1.87443117580833,1.87325519841699,1.8732992436842,1.87322674779471,1.98520581594926,1.98606254902981,1.97907983499736,1.91942831614346,1.86941801047131,1.86872632905138,1.86850003977999,1.86932244614355,1.91752861469844,1.92871698962875,1.92065609310165,1.86990916718411,1.91971847879172,1.9194229434328,1.87131061936335,1.92231986548413,1.9223063029918,1.89572243131925,1.92105773051706,1.87133703488864,1.87254770929245,1.87476821282119,2.11633649844695,2.10952301520097,1.9372754023239,1.93699668496055,2.00550596258497,2.00640575212689,2.00576394406062,2.00229277887148,1.92751547807384,2.00122118838469,2.00192276319071,1.99510960664183,1.99531835147959,1.92071931166761,1.9883053280274,2.01637587277111,2.02581144985176,2.11586927811395,2.11054722108611,1.98690624071532,1.98151168324282,1.98072059219489,2.11301448844734,1.98092667380297,1.97503073497563,1.9762591285069,1.97612215972028,2.09550390805019,1.97302682940623,1.97324377551179,1.97123111606268,1.97082422075296,1.97073349342991,1.96872576765519,1.96718128447906,1.96691319917881,1.9647727161884,1.96449906256207,1.96415721957328,1.96284134269598,1.89117203027069,1.9645496543628,1.96462078517511,2.00872850289766,1.96572982172659,1.96620569567049,1.96569257384198,2.00894272133404,1.97097241440181,1.89687925440287,1.97378639745822,2.09069385872321,1.97882130936031,2.07397146758453,2.09859203051433,2.08038646310756,2.09335637084301,2.08262724152596,1.97547245369423,2.06311996331632,2.06204615954216,2.05941416240814,2.05480526290811,2.07163012974677,1.96933719235565,1.97056569687818,1.96673522289793,1.96917903912868,1.96292977429337,1.96790303013409,1.96476381097109,2.05092693454228,2.05930238162415,2.0469714677066,1.9659867822522,2.0475157241484,2.05015332968642,2.06328179311853,2.04221492499586,2.0361267044649,2.05479844443869,2.05131521660893,2.04567919290712,2.04956278649069,2.04985342487124,2.05369020567232,2.04834580774466,2.06227549156543,2.03455361118093,2.03525202796525,2.052667123735,1.95831640143605,2.04461146300082,2.05026931353113,2.03755464347948,2.0310133396099,2.04948717514458,1.95416210955309,2.03924116943882,2.04044607461355,1.95222140070067,1.95210892984617,2.03903093525187,2.02873450290777,1.95013157173036,1.96503202030706,1.94881891815522,2.03043306491007,2.03178879977535,1.94662863849383,2.02555608327936,2.03816096412625,2.03042016838091,1.94132880122341,1.93985664113006,1.93910271389849,1.93815168377147,1.93760023418371,2.03171082640202,2.03082479925836,1.93438869703366,2.01494926780314,1.93155039804319,2.00548412984449,1.92887068434343,1.93005537031058,1.92820551544065,1.92815517090584,1.92264138154772,1.9298910192252,1.92509910411591,1.9251989259967,1.92542112490242,1.99713910944107,1.85994523975147,1.87162062023486,1.90596856849517,1.85478995774483,1.85313647965465,1.85149858018748,1.8489416533639,2.04260761392158,1.84498510523249,2.04182488840963,1.84242020210937,1.84354660595706
2.00454824077753,2.08583954552117,1.87509068656833,1.92419079448616,1.87586754877471,1.87466171610759,1.87325928325443,1.87235990553786,1.87294834952154,1.87345015086378,1.9183627083636,1.91896740655063,1.87000653634724,1.91847297480567,1.86932692709815,1.86972259819747,1.87032410421148,1.87105808926597,1.86980806868173,1.86994518256107,1.87043611315017,1.92047139800582,1.9209244505699,1.87213657072941,1.8731109925418,1.87387725503162,1.87301284511254,1.87274163419614,1.92410254192434,1.98098011949781,1.93918122917077,2.01193042973885,2.10699613793882,2.00990626907889,2.00472438995746,2.00405185376754,2.00475767149768,2.00532165522532,2.0280739095701,2.02924314682903,1.92662098979147,2.02879411166775,1.99823096967662,2.10199867079605,2.02553954731692,2.01188718875934,1.98804324759167,2.02572675511611,2.10085324418314,2.10186235571951,2.02350750328415,1.97935022194844,1.98115888751694,2.02602063373375,2.02549932965028,1.97575697758542,1.97427221843417,1.97449095904071,1.97292634405179,1.97139794238578,2.0180983970411,2.01660758161565,2.10746282747745,1.9706561116791,1.96510637434641,1.96638258908614,1.96514919897019,1.96484577236281,2.01589445090003,1.96561599924891,1.96453814040628,1.96381095149421,1.96572043205249,1.9649777306568,1.9649369130157,1.96465232412821,1.96502028556967,1.96721477204145,1.89495416005604,1.97018092148362,1.97285396851194,1.97410784226572,1.97893996913867,2.00481998444779,1.90602903391907,2.06495096126677,2.08898893192644,2.07567860476076,2.06968081424661,2.06240145432308,2.07020775446009,2.05852348966172,2.05559525051915,2.06204605879676,1.96962788039332,1.96949367113182,1.9696956881503,1.9634223815768,1.96931983600337,1.96297799934437,1.96703865536981,1.96389582678529,1.96492055663824,1.96387040572785,2.05622420521595,2.04848285735689,2.0473641107674,2.06478441039735,2.04606569621719,2.05801349760386,2.055401505661,2.05084226257889,1.96326711396815,1.96356926932823,2.04365706922151,2.04822081354105,1.96092424273279,2.04816547987012,2.04111165572271,2.04311363618862,2.04336310956428,2.03830085411623,1.95817444240309,1.95493429983671,1.95543184207589,1.98395952748237,2.0349509602653,2.03198632837362,1.95305368870647,1.95298079584644,2.03933858760273,2.04224043855372,2.03590434609585,2.03470142181734,1.94948690623894,1.9769315406073,2.04635308693049,1.94705810250374,2.03216638723049,2.02066757946723,2.03911438892501,1.94377700716496,1.94384587628091,2.03438167961493,2.02542108444363,1.93947360059593,1.93957437092893,1.93844977339773,2.03188426623166,2.02928023121101,1.93431910214852,2.02170099289362,2.01579355576477,2.00518201278178,2.00506513475971,1.93051664537431,1.92840423924213,1.92573919689836,1.93104442299634,1.92178392088344,1.92820196182955,1.92556343035775,1.92524714534221,1.99513142530878,1.86002197970963,1.85921526538951,1.85788150474216,1.85704107169221,2.03890807879323,1.85300184580983,1.8470078983417,2.03680315588795,1.84489864501867,1.84389873277499,1.84267239023321,1.84426345815364
2.07560154376759,1.92442913256717,1.92481434565326,1.92428774513924,1.96734901620412,1.91036874438053,1.99817969384951,1.87224580662056,1.87194478103166,1.87255217306858,2.05185871349006,1.9194925954393,1.87099990588022,1.87136351263188,1.8716002732017,1.8970051309097,1.97148116316069,1.87119901780276,1.87069497118496,1.86905518069602,2.07256162478377,1.8719190620434,1.87193220654874,1.871645211175,1.87173615645131,1.87462212284642,2.05221363680978,2.05234975459188,1.87438416587172,2.15615410267395,1.940885796498,2.01203271391773,2.01201054802255,2.03041476953265,2.00752130647243,2.00189038900132,1.93129078429709,2.00474378359575,1.92782520822637,2.03105730207588,2.03220663807326,1.99525630420596,1.99498761476411,2.02500478813721,2.1058488594897,2.00630091685106,1.99472752997046,2.02389371229607,1.98693023718661,1.986224734567,2.09890685260266,1.90722921473913,1.98123219892764,2.02173426626863,1.97728307466888,1.97518158900075,1.90095379155932,1.97388286637961,1.97341633857779,1.97258005968127,2.10975501672995,1.9679939329788,1.89354296910422,1.96835117513306,1.9666709287685,1.96604044264467,1.96525098556186,1.96528925196618,1.88802510271326,1.96482205719877,1.96413063924919,1.96036542216407,1.9630891708874,1.96496430919537,1.89089997048622,1.96215205816467,1.96408606945597,1.9657256988701,2.00639485336873,1.96992139878284,1.9719383234222,1.97405646438431,1.90243091537472,1.98033451697746,1.98133674158592,2.06330171580365,2.07580286653901,1.92368028107566,1.97432046008563,2.0636154513268,1.97202432755971,1.97162893781171,2.05677351897933,1.96895193305968,1.96882646082501,1.97002384820172,1.96552190197069,1.96972544828048,1.96270673314204,1.96881932150375,1.96305138706215,1.96532758440282,1.96444679875694,1.96402848786165,1.96541471522873,1.98765610431136,1.96526360414658,1.96401061271569,2.05259750610516,2.06884791911874,2.06207543947123,1.96249862862198,1.962619696618,2.04347751652306,2.05038436669237,2.04862821254142,2.04570082095241,2.04824798265161,2.03895480335455,1.95962599990484,1.95855445793904,2.04619576014807,2.04105977661722,1.95554733862951,1.95652209962883,1.97304735023435,1.95540858917944,2.03694871564227,1.95399195651346,2.04600582256588,2.03793541627019,1.95151109851812,2.0387080906693,2.03997559535516,2.04367714798642,2.04160876071414,2.04054520262509,2.03002586199468,2.03225531051058,2.0288715063032,2.04149397273938,1.94345696833205,1.94242231114312,2.0291536240385,1.9398376592943,1.93972291199484,1.93887262174283,2.0231191939967,1.93635012549558,1.93513154725584,2.00789200154317,2.00597119968654,1.93123927168411,2.00428682194057,1.92829177006363,1.92987985522461,1.92783771429973,1.92733644342192,1.92353765955153,1.92894052766162,1.92347708665368,1.92498113025037,1.99613974688641,1.99557173370261,1.85947765110541,1.85938642968284,1.85852836427791,1.85724131591685,1.85326491575445,1.85155664205141,1.95392820115174,1.95143248929757,1.95857570116509,1.84341494558901,1.95502072385822,1.85884937575461
1.98553568441514,1.98594637997603,1.92523747924561,1.92499068158276,1.87386180425154,1.87196421001601,1.87046785146074,1.87157036351508,1.87160642328411,2.00100899917742,1.87411005681015,1.91947811178885,1.87178840775105,1.87098695860322,1.97337708941135,1.90556057817031,1.91842073852187,1.91815172970768,1.8702923725788,1.87018919730339,2.07241902520252,1.87239546979777,1.87293413947406,1.87215918042598,1.87051771599261,1.87603693111708,1.87500328546076,1.97832603269329,1.87460822913208,1.87519858927131,2.01428374548619,2.01364159996622,2.10631554902833,1.93482050576079,2.02887958979596,2.00936040104198,2.00598848770321,2.02816310020152,1.92731806689118,1.92798678935342,1.99549599046404,1.9963249784193,2.02499234874142,1.99180099974992,1.98771673845421,1.98828123318297,1.98747429555869,1.98801315319952,1.98591236348206,1.98428304733176,1.98236726692831,1.90872683968366,1.9786616873871,1.90229566198282,1.97379383299905,1.97375047139094,1.97404997840161,2.01943351270654,1.97112026078577,1.96945213092999,2.1026622715876,1.9679295179994,1.89404287757752,1.96771564666944,1.96694991492162,1.96484788134626,1.96526137940316,1.96442498341737,1.8881158052953,2.01401797001456,1.96533314384432,1.96387775855689,1.96320425144033,1.96375760155852,1.9608003982855,1.9599316128404,2.09727343921748,2.00965256797347,1.89539516503267,1.8959524673422,1.97112925179725,1.97199614144784,2.0935496456072,1.90531958365783,2.08446864500146,2.08356045010971,2.08283151600886,1.92377862239571,2.06472367633133,2.05964681205953,2.056625234455,2.06779346307954,2.06869983916601,2.0588170570158,1.96763247629887,1.97018385579297,1.96754827958276,1.96503063564839,1.96817269739132,1.96370764610073,1.96549231359439,1.96449506805324,2.0652663150268,1.96446878215668,2.04010208806268,2.04797277107239,2.05074840954585,1.9651858715376,2.05404476078644,2.05293142999406,1.96207989571806,2.05686114839073,2.06057417523741,1.96109705018621,2.05714519057313,2.05099259426723,2.04995326089235,1.95991908062758,2.05351001425406,2.05586771963999,1.95875558980953,2.0426119808801,2.0397085704624,1.95755080595614,2.04355410271784,1.98821377988841,1.95507760568543,2.04391425535203,2.03371991065309,2.04004635948985,1.95238059837303,2.03791359267405,2.03990659546357,2.03384329346901,2.03274981989329,2.04103890541297,2.05299293980596,2.02157588784412,1.94778703143898,2.03789029490599,2.03615265103725,2.02139429750197,2.03850787361764,1.94163540238522,2.02610328457722,1.96135516389526,1.9386237607565,2.04086842253839,2.03410043884212,2.02445608892241,2.02254542198627,2.0066272725062,2.00591496793858,2.00885014933135,2.00472627420588,2.00213995921726,2.00254518557539,1.92733696149691,1.9263948639794,1.92434641158514,1.92553767837942,1.92354268041545,2.0088177457442,2.00636635564535,1.85886759247499,1.86017294431074,1.85851294743774,1.85701968603973,1.85443916323703,1.85288609156504,1.84955006760488,1.94901976565572,1.84553773119333,1.84329996744053,2.03994840755641,1.86532120448233
1.98614733420386,1.98619640490518,1.92508360694806,1.90727097637087,1.87263419656474,1.87126896297955,1.86936666854041,1.86897012039401,1.86972339468072,1.87093014336747,1.87361946344975,1.87575017574426,1.86869749692873,1.86897277414974,1.8687839830754,1.86862796066727,1.86862099970391,1.86866848315927,1.87046570568793,1.87121929088241,1.87195059285858,1.87252387476834,1.87322060360769,1.87416439840889,1.87513263239872,1.87611233705162,1.87551179807752,1.87512507199266,1.87469406008967,1.87471234736397,2.01298707582815,2.01202401281077,2.00931433951232,2.00817573394223,2.01043316487192,2.00839128068344,2.00886952978957,1.96366989842931,1.95390758069601,1.9431138557707,1.99382538307391,1.99228155076187,2.01297216002441,1.98943503514798,1.98730443833924,1.98671029124906,1.98792418407582,1.98685115889207,1.98598934047734,1.98303252369834,1.97679627132898,1.97469705258664,1.97493347260645,1.97294539268938,1.97162278783837,1.96919734606025,1.97026821256302,1.96769198452507,1.96681770021409,1.96858591071768,2.00134562081407,1.93432265958625,1.92312615348202,1.96757743940064,1.96575192198576,1.96214181474562,1.96333010263404,1.96375587339174,1.96365268457179,1.98762339399459,1.96653958045981,1.96541836648715,1.96400245644632,1.96302931402063,1.96195620749002,1.95923999783434,1.96054400704222,1.96088208038619,1.95984722175725,1.95881027051403,1.96713403563037,1.96996651848713,1.97312662263678,1.97553829559952,2.0783688809913,2.08115336327873,2.08061698766854,2.07338408691775,2.06322416186217,2.0542045872648,2.05525594970916,2.05657041189714,2.05989724375448,1.99510028388767,1.97124487923084,1.97039286524146,1.96866640439435,1.96837509867101,1.96606364601918,1.96671873208701,1.96624387627247,1.98786244518572,2.06487044662854,2.05953804657971,2.05294384303083,2.05489602120306,2.0548387356037,1.98772814137698,2.04868977729906,2.04791415955194,2.04752756451144,2.05988539320899,2.06184692957886,2.06011913210492,2.06005754299356,2.05572703018153,2.05322175700384,2.05578958968521,2.05791580158916,1.99029420131732,1.97812785842282,2.0431800191803,2.04267282317522,2.03947890667617,2.04622270559393,2.05146247263199,2.05110013329797,2.04576482154758,2.04388772831355,2.04918224051154,2.04917613822496,2.04471840638965,2.04117467732475,2.03966142796091,2.03976038620893,2.04157925227809,1.98468410960568,1.97163536127921,1.95942965769296,2.02093042695826,2.02284901497686,2.02440188735241,1.99467507837024,1.99374873719885,1.99322907158957,1.99435240367617,1.99563100216367,2.04390639597289,2.03891571978587,2.02197083891706,2.01792075555374,2.01529016802822,2.01125514847841,2.0050845271514,2.00184317669654,2.00191610567121,2.00181717637175,1.92627135696522,1.92581086619774,1.92527830968109,1.9246185112238,1.92417818567915,1.99264260831429,1.99290205596486,1.89384824501454,1.8620942054063,1.85966642602429,1.85786991125626,1.85503005066361,1.85335745032361,1.88467427334345,1.90217554866093,1.88173651837369,1.85785577641964,1.86461534501947,1.8700103051178
1.98677132486434,1.98623349569125,1.92456931790507,1.8745670323689,1.87412879080138,1.87337709397346,1.9207244378616,1.9210638068524,1.92122221522327,1.87090106217171,2.07925727848682,1.87160738389161,1.87175508668697,1.91962917739474,1.87080552099585,1.87007693145633,1.87103133930156,1.87017429425951,1.8709833123095,1.87258790140173,1.87170360060206,1.87214980820833,1.87242961547226,2.0515573098297,1.98168036375215,1.87504296262642,1.87417159132629,1.87441411253611,1.874282264915,1.87449676241343,2.01295730232312,2.0121660797595,2.01145616874371,2.10351541179658,2.00492345570352,2.00695338910247,2.0264503332626,1.92758642186225,1.99908433357479,1.92709282608038,1.99793084798174,1.92244188835301,2.09900493591496,1.99178162595804,2.10540161534852,2.02079670582541,2.02438172833175,1.98809567792863,1.9872542950711,2.10350568909786,1.90973635239264,1.97918354317306,1.97881323999991,1.97749228800651,2.01891526046138,1.96715932902202,1.97293034405734,1.97027824936136,2.01903488260676,1.97062342143527,2.01836410602779,1.89368411343232,1.89377558167654,1.96728225668908,2.01814043914082,1.95611237302705,1.89071605130774,1.96420763557274,1.96391527692034,2.01541803781781,1.96416048520302,1.96462918519204,1.96302223371608,1.96484040062034,1.96344789374085,1.96161013143126,1.96255859246421,1.96736580518519,1.96665776667436,2.00874799427689,1.97170724228247,1.97316472587018,1.97325059914361,1.97954488449358,2.07782846248316,2.08389573499032,2.08210010950823,2.08240979349242,2.04646752687548,2.05837673038514,2.05948306955785,2.05856703351606,2.04423950530123,1.96852916594315,1.96548430567123,1.96928933019667,1.96935075004997,1.96331072540063,1.96564512571929,1.96447884567179,1.96399883612942,2.03953332113602,2.06772228147757,2.05533997794856,2.05170987800279,2.05499798857184,2.05543611229146,1.9642798374854,2.04701945234699,1.96220977047239,2.05616666527097,2.05622027558292,2.05670277969861,2.05400258932917,1.96102159309009,2.05100486429155,2.04770185721237,2.04905911093338,2.05587763230691,1.95812917822329,1.95826277438592,2.04505263619929,2.04417077338008,2.03047933228188,2.04507377300606,2.04671968032734,2.04276267882234,2.04504753864564,2.04800012322243,1.9528390186561,2.05008896400103,2.04582318970148,2.04377892474231,1.94880695544233,2.0402826252121,2.04237092838059,1.94704968009753,1.9475744417512,1.94535778260263,2.02592111969345,2.02723149496465,2.03601789145885,1.94108199985333,2.02747418509693,1.93951857148125,1.99503846181078,2.02317716683478,2.04302627571933,2.03475291104174,1.93478973261212,1.9341708795284,2.02138117696762,2.02042113461366,2.00176480258726,1.92669981043185,1.94907475981699,2.00517031423016,1.92533540326561,1.92445415363485,1.92418530152732,1.92441789410172,1.9235450915847,1.99663236565191,1.99638414822252,2.04813491987979,1.86267045799515,1.85988842223364,1.85711841977487,2.03982201247304,1.85166491061446,1.951808196714,1.94665203748668,1.94683569087348,1.84406240761621,1.8427642745416,1.8786517066775
1.98567967779488,1.98500998681119,1.92437569179305,1.98521522823462,1.99906359861531,1.87429766522501,1.87421129759677,1.87422142043077,1.87191953452103,1.96715456222969,1.87063003184685,1.87191832269336,1.87280103656495,1.87191437807199,1.87134719574727,1.87129949818449,1.87159838399099,1.87176326327116,1.98750417065347,1.87154358828094,1.87117069755851,1.98180185266978,1.98364916542684,1.87129595361614,1.87117018526665,1.87297498093234,1.87278259155486,1.97123838477726,1.97401858807512,1.87376097375663,2.0118093213585,2.01221213617984,2.00924331994082,2.00774041677847,2.00441070247794,2.00574325992817,2.02714230980102,2.02657099902364,2.00466339962724,1.999539924666,2.02760500408373,2.0252193453626,2.11524387380333,1.99310158649212,1.91585000832489,2.00510577994571,1.98893270295604,1.98576588715912,1.98637012958184,2.02327406888207,1.90846562001519,1.97878453411171,1.90478538409673,1.90455852112656,2.01913523862031,1.96777382984119,1.97198555389101,1.97396422938164,1.89752095251848,1.96857089761789,2.10836703845853,1.96805687407926,2.10864899672145,1.96759360462207,2.01825711152547,1.95683108697829,1.89090997206862,2.01446521419951,1.96428446749018,1.96398855453153,1.96318593800816,1.96278962346296,1.96394975090721,1.96370960459588,1.96115352106422,1.96140520235045,1.89006386125442,1.96713426190726,1.96768446031132,1.89460895943505,1.97163750099317,2.00248646959978,2.07961701833951,1.90407405145667,2.1020914645113,2.08837883944798,2.0892339445902,2.00183579402818,2.04618711017604,2.04553288037056,2.04430853369079,2.04429646047049,1.96826330841727,2.04203872973863,2.0481731887277,1.96710878260797,1.96620782543819,1.96593531546797,1.96162925574832,1.96436704686684,2.03948662310674,2.03962985593579,1.9605145516794,1.96129620063228,1.96232397797783,2.0215631316254,2.05987866268215,2.06134544485068,2.04640681163025,2.04844994096635,2.06210107303869,1.96149871330052,1.96106935932374,1.96109424903371,2.05557303877863,2.04845153651712,2.05118511921835,1.95879369461099,1.95894666706398,2.04240173551938,1.95812529831415,2.04222431435038,2.04554520701544,2.04719919052061,2.03616158252825,2.04246448361608,2.04478127332465,1.95405411427657,2.04872141209954,2.03827671399792,2.04211367548579,2.03874277424974,2.02652384312581,1.9486686072454,2.04502318993292,2.04031199631818,2.0337524411377,1.94743080447628,2.02940092344809,2.03053778519702,2.01770220313625,2.02472910143478,2.02329517978409,1.94087442130058,2.03078572299121,1.99622914086273,1.93871968689601,2.0196084313158,2.02534397707827,2.02799061428644,1.93318924281473,1.93167707219147,1.93103033360739,2.0242353961337,1.92677055316754,1.9274913802548,1.92576099944108,1.92519543242606,1.92424758879115,1.92610639752701,2.01389094739122,1.99960987841604,2.00982160048343,1.86338697558804,1.86243240869905,1.86354148877968,1.95413808000297,1.94152340667183,1.85456621597693,1.95515684164032,2.04174710681986,1.84820742945865,1.89484303888455,1.84260100879972,1.89094862082464,1.88545651110523
1.87890669387351,1.99302171040535,1.98444983551705,1.98584277526325,1.87398778837628,1.87412089497106,1.87383323803753,1.87462426557627,1.99739224488585,1.87119911971734,1.87253038938065,1.87230386262522,1.87166058888096,1.87175922920903,1.87234093271004,1.87198532303375,1.87229334672352,1.8712374322761,1.87080845785307,1.87187223115443,1.87191084491029,1.87184692596677,1.87219155205739,1.8729446569666,1.87048184588791,1.87215414080271,1.87222862245411,1.87191841015772,1.87342819858693,2.04457650178054,2.11014629232454,1.93764653014148,2.0084776202184,2.00873030285695,2.00505959953506,2.00667411984484,2.02655936445067,2.02597727099264,2.02645775906166,2.00195672553244,1.92174019503335,2.02394927915531,2.10986076965327,1.99145366242948,2.02329222536282,2.0085946069492,2.10984488866418,1.91314532936368,1.98539628850309,1.91403009494733,1.98407675370369,1.98016554540825,1.98159406984911,1.97590400377179,2.10444879087383,1.969376013327,1.97231838423586,1.97388026589626,2.01988074403059,1.97150104467279,1.89660701883867,1.9664667331269,1.96566120111432,1.89064700452249,1.96520454301301,1.96380825589133,1.9645691027457,1.96331184765081,1.96242952868363,1.96412731772669,1.96170217565307,1.96384942651374,1.96328683124409,1.96479205564109,2.00889402392801,1.98383912184575,2.00899133482553,1.96489681637346,1.96795166202228,1.89486174960181,1.9737009005178,1.9746260343749,1.9752171332626,2.00222519666529,2.08842058358706,2.05619517380694,2.00256132859645,2.04715211923317,2.0464718690055,1.97286214491832,2.06042322836974,2.06052512428289,2.06251414375926,2.04960749809218,2.04426325678358,1.96637705621034,1.96653129039831,1.96150239255766,1.9658311850122,1.96262350079355,1.96356250461004,1.96394083200573,2.05591285748484,2.06283883632123,1.96153200028763,2.01925984345325,2.05740018463291,1.9624555715624,1.96220926319479,2.05153743036144,2.0524384772447,2.03265663023617,2.05865714718095,2.05882511751152,2.03350551534185,2.04491448448028,2.04514857225526,1.95934853861113,1.95866669797011,2.05318760496247,1.95851705591374,1.95910540497751,2.0509185499012,2.04583788295654,2.05569050892289,2.04377420434713,1.95390599631866,1.95379222614998,2.04463996078076,2.03599563386857,2.04784412785942,1.95050634164148,1.94925116861693,2.04496626165691,1.94803423998563,2.04102344124924,2.03728449773182,2.03221785330431,2.03437721240705,2.03802311964152,2.04229886148558,2.02999229270352,2.03127867320476,1.94141889242898,2.02263811790561,2.02799831271799,2.02852332657,2.02937504187395,2.02386123496496,2.02551530464443,1.93208313785307,1.9308201726897,2.01974146837219,1.92844222949687,2.00217572302398,1.92714853399826,1.92612204011869,1.92460858923666,1.92533382637927,1.92486636217331,1.92471955636415,2.01054427320752,1.92216799377709,1.99498092597019,1.86111349485328,1.86222544027864,1.8605287961845,1.90433610009522,1.90371418046799,1.85370118241961,1.89785787081348,1.89744034376133,1.89486147818644,1.92573486575875,1.84380707179789,1.84551518452922
