0.951050381857744,0.960573043217854,0.960518614366427,0.962536034280386,0.966307201445493,0.971448888265824,0.976343725029297,0.98111329396399,0.985335827345812,0.989805249269551,0.99426819108995,0.998132794348909,1.00071369694712,1.01307788086086,1.01962928937292,1.0242366579096,1.02861692382396,1.03334978031233,1.03807593365674,1.04266898908384,1.04628053718624,1.05104425480244,1.05685380370563,1.06221120217208,1.06715928175479,1.07209979625717,1.07716064606901,1.08067053437683,1.08402203199831,1.08726831343643,1.09035103015847,1.0936113222732,1.09736726298814,1.1005031235281,1.1032702627745,1.10441445141039,1.10550088858122,1.10531819923595,1.10561574898936,1.10525121443418,1.10588278693812,1.10556729829956,1.10392874768443,1.10225585516242,1.10428137431931,1.10154960501789,1.09786762234967,1.09459744019196,1.09212173522767,1.08993032072079,1.08792485342733,1.08656255181439,1.08603538367686,1.08572193436844,1.08457316589814,1.08453619062815,1.06780560881848,1.06726454404514,1.06250185424223,1.06036812874932,1.05880746331867,1.05757539236622,1.0558840892913,1.05473514812683,1.0483084431604,1.04386505606016,1.03834618810301,1.03384089846709,1.02314486355946,1.02398040351673,1.01807718943352,1.00803688825911,0.991519354849867,0.988160121277298,0.986806111622354,0.985273701894919,0.981723868370901,0.978014364018087,0.974974717316808,0.969103963409053,0.963489518129018,0.958867876858173,0.955745881894808,0.954359033351916,0.95296534030465,0.950554339284838,0.947327310866956,0.947756501752273,0.94797973517608,0.949422801109765,0.952771123894019,0.954599939296521,0.954256349698873,0.953243755589633,0.93764795547997,0.918282776646159,0.917214174956135,0.915638787716701,0.914199747251411,0.912883620352767,0.912302783000445,0.909967018881548,0.908252557610987,0.904887221049809,0.902145650495239,0.901709700403495,0.901579414557554,0.887667209840273,0.878565449900461,0.878134546401429,0.877583413495755,0.877202861311182,0.876290266646843,0.876583979718648,0.877124234917533,0.876706966799798,0.873112767700021,0.869388514521087,0.867121680636282,0.866108308868568,0.867139900884821,0.867959724750988,0.869103825936706,0.869724228482824,0.872046810301734,0.877922244657597,0.880732665644554,0.897578548893393,0.904837215889459,0.901224141930977,0.899135578510721,0.898599174950144,0.899112187243575,0.899138744951083,0.899611508161583,0.898615992314119,0.898039370840264,0.893498150593417,0.890373901158964,0.885993210946393,0.884482421162694,0.883929685820166,0.884106947091576,0.870339373346801,0.868317634261338,0.868167268960457,0.870914354148075,0.857240279299051,0.845764615739701,0.823309447898607,0.823015883241736,0.825730633860593,0.826914203382396,0.828081406075741,0.829204438070252,0.833452972356683,0.861496784904989,0.863880403241908,0.864255746914789,0.866229046518328,0.866208588411603,0.785562265638797,0.761487833832379
0.943177122520268,0.962773992833475,0.982937347078919,0.992143312374148,1.01774827127929,1.01286824063314,1.01017707643842,1.00936970314919,1.01125868632495,1.00986831526182,1.00830541130032,1.00502144250382,1.00222391483275,1.02092758045151,1.02777022590815,1.03437169750735,1.04370767397914,1.05210842653894,1.06469055579381,1.06374742881571,1.06254785270514,1.06834733143206,1.11203047531759,1.0845387844647,1.07914143104182,1.07946352561033,1.07959306912098,1.09349692938636,1.10478300138323,1.10697824299338,1.1155606788504,1.11363854828269,1.11280887726827,1.11539328139055,1.11971210432824,1.1164025093927,1.11381264186081,1.11484744591508,1.11559190605955,1.11039822975193,1.10661913317471,1.1055366018404,1.1032849412677,1.10271132392551,1.10237452869297,1.11139094443204,1.123584500545,1.11868723395402,1.11416905478099,1.12075028896886,1.12874596837459,1.1153390930231,1.11258696065461,1.10180180195342,1.09085689720088,1.08719566330648,1.06629392631572,1.06655860110894,1.04715841883654,1.05951291177833,1.05809312076022,1.056986985553,1.05470158231857,1.0558472202968,1.02609815602067,1.0401955468449,1.02322590598618,1.02734823325123,1.02381070829005,1.02590093125925,1.02909320357253,1.02083126235346,0.987483649968218,0.988418053144457,0.988163723035808,0.987390225189871,0.978359118122647,0.97900368177388,0.978442211771085,0.982429213014544,0.982628321886291,0.970516884230657,0.964037578106857,0.977250962903885,1.0292101467232,0.975989787424254,0.945542538897225,0.950565410324877,0.956541662586031,0.955666573737382,0.953872099024909,0.954995334112884,0.954354391168206,0.954040902337913,0.916792675851953,0.917413034432495,0.914146955526041,0.914954749872556,0.913832294620503,0.920442707669361,0.93336384276217,0.919066453568069,0.910538332748129,0.924812916614354,0.961166882123168,0.960842615904936,0.962816107328562,0.903135764972252,0.877938857839534,0.887163563420079,0.901240742706391,0.891657612786314,0.874890110162621,0.875578004946739,0.874378475452208,0.878053614290472,0.88094048028227,0.871765873092996,0.86671415643888,0.866480811205511,0.866520308640704,0.866316876535252,0.863609170420022,0.861787320130641,0.861617207823196,0.873359627034205,0.871475950813627,0.900108330785097,0.907561435002551,0.90095152671324,0.895919932016187,0.898201011737921,0.898315188756292,0.898475867468261,0.899260608677565,0.898419111268536,0.901038082894888,0.893349485218436,0.880205133151402,0.883849578326103,0.882204567672787,0.884078003073922,0.884366632385122,0.87469705065261,0.867134640484403,0.869663171222825,0.887634679975886,0.88298896959981,0.886262355584148,0.82309108261015,0.818807184231653,0.826720309187275,0.893377033828554,0.830279514821479,0.8290546735067,0.830664097917095,0.861546105525163,0.862491173275157,0.863327344098121,0.865217473454119,0.866140707277925,0.788710496345561,0.762761959314793
0.955498795265073,0.965463700450154,0.978878740445577,0.996096594583507,1.01606514463449,1.01379161745806,1.00844516781955,1.00738665244464,1.00799247652693,1.01027874001532,1.01038634651396,1.01521771636366,1.01965871054159,1.02368423257808,1.02918831804012,1.04183215057861,1.04827844435998,1.0550705558435,1.06880078479778,1.07029327007676,1.07134185147929,1.07528572497457,1.08776103653163,1.09108660790381,1.09374985582625,1.096825533333,1.10017478011781,1.1033782980553,1.10451793193511,1.11035630514817,1.11311263208515,1.11281569131196,1.11267375352055,1.11403786407761,1.11565211081424,1.11458080390766,1.11354842681118,1.11419036544123,1.11502457809097,1.11572707490887,1.11631816756456,1.11743081068669,1.11835206752698,1.11921953338105,1.12038996703232,1.12184303742777,1.12289164774969,1.12240432833203,1.1212497063195,1.12093701013899,1.12228718748628,1.11818790413768,1.11428419749603,1.11238737849697,1.11023194008967,1.10480407768511,1.09754442832346,1.09007079319425,1.08262537449712,1.07547266489014,1.06843724511287,1.06260444928004,1.06159903317885,1.0588862378538,1.04762817642101,1.04403258271968,1.03420009917388,1.0317896926548,1.02895995146586,1.0273965439937,1.02692636035059,1.02414193357026,1.02126177729835,1.01876165773582,1.01667665381061,1.01455006920886,1.01236376266699,1.0099561202425,1.00695303431235,1.00349904728862,0.999684516307121,0.995126804663911,0.987737175842935,0.995953328582236,1.00475566690092,0.994960410151645,0.984830702546551,0.976492574886195,0.964821862377364,0.96226610627108,0.959607390163783,0.95594204139842,0.953583513601366,0.955225854385077,0.954235365358452,0.952010229273636,0.948690225507268,0.94856297385803,0.948774877527108,0.949263285944372,0.94866506888972,0.949061720951728,0.949853961895786,0.950988285661536,0.958039582073695,0.958992561437753,0.960685146495812,0.911497143140674,0.903777002702362,0.903553754930484,0.901834580992432,0.897981811411655,0.894092692722423,0.890766814187582,0.887951497634595,0.885385571398059,0.882812213776274,0.879918542646898,0.87637614008243,0.87248769959444,0.869420665052077,0.867752256179186,0.861581428590357,0.861699306133684,0.861670272708871,0.874840342818654,0.874339653071328,0.90202668869882,0.904092452340726,0.901182932076108,0.898580946750906,0.898068337284093,0.89767030902394,0.896332585637651,0.895599884149701,0.894357448287879,0.89250287549809,0.89088357043465,0.886273140815233,0.88527921558733,0.884696803793115,0.883820424903923,0.883258968995843,0.879431086425954,0.878128690052656,0.874279280705719,0.87283073849362,0.871167996764124,0.869591283132152,0.830242602833777,0.828540949567185,0.826606212639434,0.842609587877568,0.836354492272649,0.829857498238977,0.826558849367142,0.819691550866223,0.813121843126748,0.808705343558779,0.805332709124523,0.801340339628006,0.791993532837892,0.783729725171013
0.956505772572697,0.968406750743597,0.976138227688372,1.00574416368355,1.02026928961685,1.0174172391533,1.00297862707773,1.0044232958597,1.00334016167897,1.01225036253354,1.01184542437329,1.02156514631662,1.03234682384835,1.03367150798314,1.03185257254762,1.06043141995433,1.08762366337973,1.0822609182763,1.07829172698817,1.08034101968722,1.08121324584725,1.08033656896135,1.08234074117691,1.09552574020345,1.10312819954098,1.10564280487582,1.10755730989903,1.1054934350713,1.10554846462409,1.12714426202866,1.14029191316273,1.13805399607582,1.13788566781186,1.13950036725798,1.14274408539539,1.14237795470431,1.14317684546034,1.13719630164055,1.13237223257695,1.12154494544877,1.11583438440915,1.13001326413158,1.14470634764478,1.14440478782797,1.14547019712897,1.14447160127777,1.14357437691954,1.1428977509037,1.14232455549489,1.1297520068266,1.12231504024894,1.12180376905495,1.12457681116558,1.11711948987537,1.11445812547785,1.11529978235004,1.11539966561302,1.11565954992203,1.11408950460153,1.11698143539609,1.12127868087081,1.08371178658094,1.06468339534287,1.06832952087555,1.07111184533614,1.05778515666235,1.03567601275967,1.03630266039405,1.03989433387034,1.04429089755158,1.04783196486052,1.04642253648772,1.04712846808338,1.03301033492738,1.02291177578163,1.02227953267883,1.02270236569954,1.01658928134114,1.00631070144336,1.00296727973543,0.999909008828995,0.998839495595158,0.982547921376792,1.00112749331449,1.01822456667044,1.01404469297314,1.03881003206412,0.981370710274901,0.967506462542461,0.970361742949888,0.970697526097957,0.962682919683986,0.945016119231755,0.959146220621609,0.960847708758271,0.9527458806062,0.945654182218529,0.948139649282531,0.947446807971847,0.948345714330986,0.944430461103779,0.948102615949709,0.954514227556928,0.952803244840959,0.954719352760567,0.956750780144688,0.98045512088775,0.917745266622228,0.903197272499651,0.903780729252474,0.903565821010763,0.906696945935472,0.908422204622142,0.910262373378543,0.914698801269302,0.914052326928153,0.912599195005651,0.91342095977184,0.912920240413177,0.89636210180787,0.884591300985352,0.875684732978921,0.860273549589051,0.861451967560497,0.861491897132778,0.875714739607222,0.875886516723368,0.902204028680291,0.905606181620167,0.901948787717012,0.89730376115556,0.898477267528093,0.897112351171969,0.893809040534403,0.892972169277784,0.891894446770169,0.867899466504961,0.889866534676336,0.888200289723357,0.886633322543583,0.884956839607765,0.884233769224946,0.884105394194684,0.880888046793201,0.89776040134946,0.875497848842196,0.850502959467914,0.870684572481105,0.867274988217106,0.833245718036614,0.830435588434696,0.827170455243147,0.847930347820812,0.844215906595438,0.850305003422899,0.825956571749422,0.790713946330545,0.795766759048805,0.790591291927562,0.799979427644011,0.797289745970593,0.795051904151545,0.794473463102927
0.96025229928594,0.971244342735656,0.976329406818672,1.0139757391144,1.02252971735326,1.02506036396722,1.02753951609171,1.02981191801866,1.03190936772275,1.03422093179569,1.03715250270679,1.04139852766234,1.04412835884798,1.05262654893952,1.06324904248586,1.07310427784266,1.08811307527217,1.09193268511651,1.09586875061788,1.0998170190335,1.10350102794755,1.10680354494049,1.10941916195174,1.11436068238101,1.11813392486052,1.12113928782093,1.12416833684071,1.12744182658132,1.1303234832325,1.13302027343738,1.13679929884927,1.13694054385549,1.13751363064369,1.13892847826749,1.14100998304557,1.1419503041472,1.14283870852128,1.1434809060556,1.14391124927633,1.14392309485784,1.14392623263851,1.14393768120845,1.14358341440961,1.14334397361549,1.14353418930815,1.14540386984393,1.14380395626693,1.14311866470352,1.1390072010903,1.13352706802779,1.12962528332044,1.12699824905577,1.12489350971235,1.12123541192289,1.11527752923619,1.11592210025322,1.11689511381534,1.11691376290487,1.11608908473706,1.11677628141568,1.11081038201764,1.10625122091133,1.10144303201685,1.09339844404995,1.08521141386787,1.07743775483004,1.07041670180688,1.064382851228,1.05905346737708,1.05379903345023,1.04503064364794,1.04511821029604,1.04547858947537,1.03911595851446,1.03393207607299,1.02883267214167,1.02466764365265,1.02053785728055,1.01806620457325,1.01521444403465,1.01217137917689,1.0119471635652,1.01233750700228,1.01254243944857,1.01209812311673,1.01099351346186,1.00692116765591,0.995730011266857,0.988268160572332,0.98181998855838,0.971951923686656,0.967723205009224,0.965064434584929,0.962484806475495,0.960196257371097,0.954162000172435,0.950890783269581,0.950534067700822,0.95027399240321,0.949788062839634,0.947963608452465,0.950059110501303,0.95230958705681,0.951857155210594,0.951230005483656,0.950502013812128,0.941191227879321,0.932855289302589,0.929546565536511,0.927142073978322,0.925910533044076,0.92535120969409,0.923839608392785,0.920751898876469,0.91676611235922,0.91583518649889,0.915371842303849,0.914790229812069,0.914645828077785,0.915510469897793,0.916185527448549,0.916989355580335,0.916517324231065,0.912486016859618,0.908355428294845,0.902735508830586,0.900130618695141,0.902600390424905,0.903326146109045,0.902192048912368,0.901637569976478,0.900397708230602,0.898556601929939,0.889603377368669,0.889399501807011,0.889259111208792,0.888541126029462,0.888987989553577,0.888307359922037,0.887271855818864,0.885009447952667,0.882838713118999,0.880501691386461,0.878758646844319,0.87628999899456,0.875189673311002,0.874187896338487,0.872116398292999,0.869451399893423,0.838385958320424,0.835940819830364,0.825756812304681,0.824305073130974,0.821438932897683,0.817874827779671,0.815009809746243,0.809688341392456,0.80847117427978,0.803918409177623,0.800503401455268,0.797893337678045,0.796543580905912,0.793916893797178
0.960519847222521,0.973680359524689,0.975055679626277,1.0206253695218,1.04479780726076,1.04110039312432,1.03789209472422,1.03628734581453,1.03572500780661,1.03553274293129,1.03612999067291,1.04277240234117,1.04558981290722,1.06887340142191,1.08569150156067,1.08530477841243,1.08542018165207,1.09343700860375,1.10652167240727,1.1070203702963,1.10855840401718,1.10815880500399,1.10865943803473,1.11456582411075,1.12781272453715,1.13028284444186,1.13337567104567,1.1428681134308,1.151069076295,1.1565875336744,1.16607140460001,1.16464077697031,1.16572531336488,1.16401599009757,1.16378415129354,1.16229256638329,1.16061851169058,1.15101500977203,1.14448036026033,1.14386077332212,1.14316825138203,1.14331284781574,1.14179433336715,1.14188422097608,1.14025167427439,1.15001077711771,1.15271043596837,1.14918224733382,1.13706334708613,1.142562050157,1.14613955077161,1.14538926786571,1.14488982535315,1.12900888448837,1.11575007396376,1.11571866931512,1.09887437136671,1.12235143506203,1.12750239021364,1.12265917903751,1.10629254570258,1.10508956064876,1.12339969813636,1.11043882276048,1.11403042547368,1.10331164274709,1.09970309229704,1.1004808388137,1.10107766580253,1.06197577593755,1.04361029215797,1.04420890979572,1.04397465046232,1.04169424470288,1.04018922177944,1.03881570022262,1.03643752585726,1.03740053037565,1.03690850969838,1.022318702768,1.00918857522286,1.01111878870628,1.01203883165895,1.01176534255307,1.00977148824023,1.0105705609584,1.00327421943829,1.00335060070314,1.00279737991018,0.991351187838877,0.973950051169961,0.971179573898127,0.964993786109546,0.969312692021809,0.971063386527535,0.961567129410309,0.950908282976771,0.951744175800254,0.952716682019127,0.952033451158895,0.934381150332481,0.952420022914364,0.953567391418926,0.950769106385776,0.948293886310486,0.948317913954499,0.935641033490956,0.933466771603412,0.927560834320916,0.928720947968727,0.929797019641425,0.932178254575247,0.932817212817579,0.924253764354868,0.916369208052658,0.918263660858557,0.919375077708554,0.917753542704159,0.929611663631345,0.914486311435271,0.914049444570801,0.915437595435924,0.9161746725628,0.909297005389971,0.908035436983783,0.899893005614671,0.896462489466861,0.903945061347145,0.918869437022341,0.925848753089178,0.936115948773617,0.902803168322674,0.909695741773375,0.886623092112466,0.886932686225883,0.886450233433487,0.886006775382775,0.887475817678923,0.888263093229419,0.889450009681528,0.848977281946792,0.85580697655714,0.846303300505993,0.873750775620986,0.873761061985815,0.873792213648787,0.874106075274044,0.873346470000204,0.877097344424249,0.844091297420632,0.845570288268664,0.82352548468218,0.808499214471562,0.810301077854469,0.810054411581228,0.810176734824445,0.811552707538573,0.810691053500264,0.813862922842334,0.813949265840189,0.814247843033298,0.799359370925729,0.791197082681207
0.990414861798449,1.00305074565664,1.01518362377753,1.02565289309143,1.05064855680466,1.05609301559689,1.06081631328854,1.06420972303332,1.06765647947873,1.07164719028388,1.07513199593857,1.07841696676285,1.08191850490782,1.08460191300294,1.08606362226617,1.08949221769583,1.09439154873667,1.09951425190643,1.10507324980721,1.10657400668117,1.10895841056842,1.11319714170463,1.11573723601074,1.11850416763899,1.13003336134326,1.13269639530372,1.1394510599594,1.14603522923357,1.15209020438308,1.15852653761787,1.16449192511568,1.16367301834043,1.16377576648206,1.16378533148747,1.16490199491104,1.16614202538096,1.16684946148366,1.16707811329438,1.16706812017622,1.16688696168813,1.16638591366519,1.16526219132249,1.16328021208616,1.16055621052079,1.15755490647841,1.15468854358645,1.15210231584208,1.1494847990127,1.14706196450158,1.14519028554011,1.1449941786425,1.14550325493535,1.14648045927941,1.12961285373219,1.12800043019933,1.1277045380696,1.12678811560768,1.12655803358891,1.12700063721047,1.126323415024,1.1039771963235,1.10374546327073,1.10429362035715,1.10724357368478,1.10893274376872,1.10742391616418,1.10538982978196,1.10205488191955,1.10081828760478,1.07023163313289,1.05740465773458,1.05262668013408,1.04899461616885,1.04686688156873,1.04583035095244,1.04490973385893,1.04310800190094,1.04036667813985,1.03746319199473,1.03531784559104,1.03250886736539,1.02839876473343,1.02335719107233,1.01852527201719,1.01454832214509,1.01110839674698,1.00781249314686,1.00468401158587,1.00201109673793,0.996257041294038,0.992637570283083,0.99002549494319,0.986924866913844,0.982725233116958,0.978411215213705,0.974614825654412,0.971022278150802,0.967013162839484,0.962902832371059,0.959596887151753,0.95688587507789,0.955557399605484,0.954092996726057,0.950844765010814,0.948192592616318,0.946334555382697,0.942995499818762,0.940818099007439,0.939884060986606,0.939526575757203,0.938854163519746,0.935930648528692,0.93397016114213,0.932267508213562,0.928764744553868,0.921323982740758,0.918260963852062,0.916662286312046,0.915286273983813,0.914360927091559,0.913886716341378,0.914837645585836,0.916044435532193,0.908458680417601,0.903352970305813,0.901467038080639,0.900408880987681,0.904578613084298,0.925495390027945,0.929337627841071,0.933340830300933,0.897306874651963,0.896338090409599,0.88419933945718,0.884491741173146,0.8837798169138,0.88412252696349,0.885937018193013,0.889930454344687,0.891522984701954,0.874409555902843,0.86597856407388,0.864471829526262,0.871716983971303,0.871895414406623,0.871024982590847,0.870780762149453,0.869978138511969,0.863831259376123,0.849357371510044,0.836506529226922,0.820485398564297,0.810771007348653,0.811134094082844,0.810710991292576,0.810318341779521,0.808711714718426,0.809967655184268,0.812377193629236,0.813269047848507,0.811115641529976,0.801699767209685,0.782120223558045
1.02243402288113,1.02262186361137,1.02221251985589,1.03246706272628,1.06359628063612,1.06120614121309,1.06171794922155,1.07548418913791,1.09104181362803,1.09059253032287,1.08957036039807,1.0929334558854,1.09471769358754,1.11208747530027,1.12408544790766,1.12249630037286,1.12097400890674,1.12162846817886,1.12335185348669,1.12110537441918,1.11900178325949,1.11630329358771,1.11555581766869,1.1226190171216,1.12952259402262,1.15557646046634,1.17434542558113,1.17205886952621,1.17022702393904,1.17386320428765,1.1779499944794,1.17996480957553,1.18114251439346,1.18132463257815,1.18043181383453,1.17986135446274,1.17918752968869,1.17551297172583,1.17251537329082,1.17380129677939,1.17601564838685,1.17328592945638,1.17218933099358,1.18163534519978,1.19199220282836,1.18352126196445,1.1714082132429,1.17009189412959,1.16969248259201,1.16226695796248,1.15641725174635,1.17348015878745,1.20257264168915,1.20246675936117,1.20367093498895,1.15763161418044,1.12619378466333,1.12655520023986,1.12737853184439,1.12746016690115,1.10319530818824,1.10322058331866,1.10313915670834,1.10542689105515,1.08380076603188,1.11132793838706,1.11777573086606,1.11965565838955,1.12124019484846,1.0800776019184,1.06174400233521,1.06444318994776,1.06477240852197,1.06845774389446,1.07195368809442,1.05740478002747,1.04316842476447,1.04255462735824,1.04355734071721,1.04221616666391,1.04051214685458,1.03930031202196,1.03794575720446,1.03547805954885,1.03324963346243,1.03310933123954,1.03353728777473,1.02142445307901,1.00512724475892,1.00729413826299,1.00838863539332,1.01013148888097,1.01122007428751,1.01240562234089,1.06144002741539,0.988676461666693,0.980941790603719,0.981215332642201,0.981946035215103,0.967920640426368,0.955603428663582,0.956280290984156,0.957186104553107,0.962355996137069,0.96486320451788,0.973288657419418,0.991215456479375,0.968529421594041,0.964255109917804,0.940334727364074,0.938804406722679,0.938622324730947,0.937655634943921,0.934277177479807,0.931037157761559,0.919849031891372,0.914213373261153,0.915913942469316,0.913659114560537,0.914953641663098,0.927456421351287,0.920334104517642,0.936285290494485,0.910647841198784,0.899969961337406,0.901807969064961,0.899046966090162,0.907497805953938,0.941939941138867,0.931907202875574,0.936132167507641,0.893223532717876,0.878603253559763,0.882229257897825,0.878392384706874,0.880768972937464,0.880459645968469,0.882715502071371,0.892596816132225,0.893056574357151,0.896428881060272,0.866983630191007,0.862008914922907,0.870346081895926,0.88495435143453,0.868576255611601,0.868623179069495,0.868921601295718,0.857854671437175,0.855494882383965,0.815177231246417,0.81797097948809,0.811383611412749,0.811136782648066,0.81154937148489,0.811110372010078,0.803914454722776,0.807689917344941,0.846404950869389,0.815929260347704,0.805083710100623,0.804112080575564,0.752941280408881
1.02315283716339,1.02342820748248,1.02381865329967,1.04279578266976,1.06264041696511,1.07785795071539,1.08256196158635,1.08550717172401,1.0973226244212,1.10263557164675,1.10710916510336,1.10922557542283,1.11150001951201,1.11787615351075,1.12784430887316,1.13083673828991,1.13290875945628,1.13690862552225,1.14292594808634,1.14913630465326,1.15490147711638,1.15955500589785,1.16216770327897,1.16451789007269,1.16703172714294,1.16971743600219,1.17265575939851,1.17403605975904,1.17528724713287,1.17642727252372,1.1778985711307,1.17990169994494,1.18195768838159,1.18355768033376,1.18483731410772,1.1862589739935,1.18795197870946,1.18959954015819,1.19080610767907,1.19146645228762,1.19180675662916,1.19215195617658,1.19271882101225,1.19341966583651,1.19379979192615,1.19606294601732,1.19729496911203,1.19614758868723,1.19415780635592,1.19283063980847,1.19265410594792,1.19649998603196,1.20214887356339,1.20201188410456,1.20241116853261,1.18830618448398,1.17752380643276,1.16736038850809,1.15856591028782,1.15056539532764,1.142100644305,1.13421257250787,1.12737719221652,1.12246024329567,1.11180224318055,1.11315732677741,1.11626143759485,1.1187947039446,1.10145249107188,1.09038518717697,1.08759525450437,1.08308640545091,1.07843465907774,1.07526249941402,1.07263620610535,1.07031127771689,1.06720492283233,1.06382570525236,1.06093542529402,1.05871692051607,1.05660356281538,1.05393832327034,1.05063746090251,1.0469995403776,1.04326379631466,1.0395442252078,1.03585882356086,1.03206657411364,1.02815532786214,1.02431730320893,1.02093696899027,1.0176400564458,1.01351240877624,1.01333448920299,1.01321701109489,1.00693302837532,1.00419976881089,0.999896657321201,0.992965854595798,0.995126167131796,0.996116154786361,0.994862928793802,0.992737196634423,0.989365497448804,0.986598792507841,0.985682519327269,0.984720283011648,0.972749045413187,0.948240986774568,0.9404725618079,0.94133568517955,0.939701178106537,0.937755560228607,0.93628005544327,0.93524620192179,0.918927800206132,0.916801859050695,0.916916759668952,0.916817865494489,0.916069453810945,0.916343564464993,0.916127864649372,0.914549577742862,0.912941568121122,0.91253589066764,0.910276986891838,0.910489033700841,0.910308588920035,0.910839628786841,0.901031612788836,0.897214907282183,0.890728706189577,0.889856190447304,0.885484153603852,0.881912557415953,0.879447461752953,0.878390988935817,0.875591874438581,0.873878516823865,0.871873556695,0.870766923138697,0.86861778508041,0.867084891448316,0.868134525346743,0.867235399082867,0.867530465332006,0.867585988071107,0.867292139559602,0.863147415034815,0.860122314241043,0.844226048193002,0.83578418620036,0.826931822347013,0.818088394734685,0.816241052212028,0.813320282477382,0.808058695872614,0.807208335990823,0.832543631535406,0.82139859183665,0.815052175051085,0.806011805745811,0.787951489964252
1.02395885436729,1.02440044150816,1.02574748470551,1.05421847065484,1.06612442523451,1.07910089357992,1.08721198583863,1.09458885692852,1.10275080371298,1.10653053565963,1.10980761113672,1.11185010958746,1.11458299920145,1.13071902264645,1.15005400158441,1.15186716982355,1.15322593805859,1.1705016740879,1.18550539120458,1.18217695438557,1.17813687675092,1.17645382241918,1.17425301132705,1.18053040757468,1.18783644320168,1.19282449499403,1.19966158780717,1.19851144733481,1.19747916565913,1.21144506151027,1.22814794297705,1.21766660725425,1.20672754661112,1.20775941484607,1.20942085546419,1.208475441217,1.20799285158329,1.2157556135771,1.22113796793447,1.22068527754346,1.22020637686662,1.21632826683347,1.20560271756659,1.20013980306779,1.19302503702736,1.19552591117078,1.19745104064893,1.19541212624634,1.19268252922414,1.19165641297439,1.18989288639938,1.2003498806263,1.20230157882178,1.20212946339078,1.20247053000945,1.20151289000122,1.20335542492477,1.19294433087691,1.19046531300242,1.17052528531748,1.1632604693051,1.16004372450341,1.15439536518562,1.13165369114294,1.11235204256868,1.11340193177442,1.1147521533638,1.11797818425443,1.09202827156125,1.09061956486869,1.0880454838152,1.08634901958517,1.08566661635863,1.08848270068246,1.0914488900882,1.09136148733396,1.09091479034744,1.09153329395444,1.09181889987279,1.0788958764704,1.0638570576252,1.06799657135964,1.07186647722789,1.06671148927267,1.05520374379872,1.05141204508791,1.05062805905898,1.04537995325711,1.04264061110919,1.04679253813283,1.04778742423797,1.02743458297947,1.01276457532243,1.01336418521519,1.01320338494148,1.01174939108475,1.00916188920147,1.00088632597133,0.991485687683408,1.00468399038516,1.01100420978954,0.99355692359697,0.992426813028121,0.987949055675631,0.984558781685103,0.984139891203612,0.984419879753471,0.977450826111997,0.941693967794648,0.941832559845419,0.94150707303466,0.943897891742085,0.947767743647975,0.946386746182264,0.948840878731285,0.919032236294438,0.917563868761438,0.918079743904179,0.918569725822763,0.916704858190874,0.914743019965069,0.915139908181001,0.912943756968971,0.913443174149473,0.912834821933398,0.911260673217835,0.910043139575217,0.912295841296436,0.9175726255823,0.899364211911542,0.890019081300904,0.89038312796364,0.919399448274376,0.893046811859907,0.899334391101734,0.874286744765492,0.851975346489947,0.867580191817618,0.868772812839222,0.869076055714351,0.870042369175609,0.87025880310056,0.867582459056174,0.868513333055553,0.867120926480521,0.867801524694403,0.86750902607344,0.868005802104042,0.8674561628468,0.863221075196338,0.874598132862353,0.842981683847314,0.855948207616969,0.820164470460263,0.820646279017474,0.817755080624687,0.805408220503744,0.807947786266086,0.848294698715692,0.827394310734798,0.836602528531974,0.808434028490497,0.81077506693813
1.02701682293762,1.03685906935743,1.0425042553892,1.0649736581329,1.07589041280146,1.0851206938871,1.09330939802133,1.0966906270365,1.10522155812171,1.11479453036273,1.12274026685225,1.12938941959649,1.13627260337636,1.14431600912516,1.15331292554989,1.16286109792378,1.16913020770255,1.17870862660306,1.19021021296029,1.1937548806344,1.19633624458286,1.19878231550737,1.20153930114753,1.20436196445401,1.20690689775672,1.20915190363619,1.21133149067756,1.2137338227566,1.21660566596894,1.22013598367538,1.22438627423978,1.22536262410706,1.22656552353885,1.22749185708095,1.22784236539755,1.22755951352117,1.22668308668355,1.22453265863458,1.22199235022346,1.22108841947631,1.22118744812622,1.22171364266908,1.22098233198283,1.21999605991782,1.21923524993578,1.21737276408106,1.21420450658823,1.21021284570907,1.20653645534821,1.20392071875288,1.20246273931538,1.20167847309438,1.20202520404885,1.20203416662533,1.20165739753318,1.19926824784,1.19915876011303,1.19448424152746,1.18358828218339,1.17308114152099,1.1697160436669,1.16701366964473,1.15529435187855,1.15352338127891,1.14536070839184,1.14097075923842,1.13722288828713,1.13474490722758,1.12838745153796,1.12570533537175,1.12210319701392,1.11793048613263,1.11335445967852,1.10872930413315,1.10441986609354,1.10059304593902,1.09710957500403,1.09374142352414,1.09047693393718,1.08619190846924,1.08287478214357,1.08067804631487,1.07843974336742,1.07436520512047,1.06987236936404,1.0655283814655,1.06327567215502,1.0596114803639,1.0552341287803,1.05086757232303,1.0475835870752,1.03938454069565,1.03332460405949,1.02565530311054,1.0181722160356,1.01542556974134,1.01324662729891,1.00948767045058,1.00620777892286,1.00488689885679,1.00462045278165,0.993841119906483,0.992829748171741,0.990739285686755,0.980901479294137,0.982301941897978,0.982965619832146,0.980986426448916,0.967365604787315,0.957761585772606,0.944590609285318,0.943936994248387,0.943082181638096,0.942992693958195,0.926899248038442,0.919193415902842,0.918700169599527,0.91855546024213,0.918062577245705,0.916007441986181,0.915110157056757,0.914169987672577,0.914020025877901,0.912708009606573,0.912008035664295,0.912185256078348,0.913350957254132,0.914402367104235,0.916278789250036,0.897387732651774,0.88729876081232,0.885268896737244,0.883433244492361,0.881858116590259,0.881353838220635,0.867640557995994,0.8588172932783,0.864197261868409,0.865194608524207,0.866598978654489,0.87140821986552,0.871924784653236,0.87145336957722,0.870492156374018,0.869609940266648,0.869480165364136,0.869481604906175,0.857693652228529,0.854480061973275,0.851647870524499,0.848015311010167,0.842436896849096,0.834916720378307,0.822727288964031,0.821860948947139,0.81944419067753,0.814653265514891,0.810871559546436,0.810517421966276,0.809955687721616,0.809757698785272,0.808801117943918,0.784295445771671
1.03051614832359,1.04244457656098,1.05242176847747,1.07290034757394,1.08172266353659,1.09213148172166,1.10412919142714,1.10634269348423,1.10589362923152,1.12645552157433,1.13876014402392,1.15204103840655,1.20057331161479,1.18228729186443,1.16715691084916,1.17119749933771,1.17419120416691,1.18757916737171,1.20170867971825,1.19947873824934,1.19771169472328,1.20384622933641,1.2097434360084,1.21853951977055,1.22674209328491,1.23128295014933,1.23340260322345,1.24571251075592,1.26381043875102,1.25653202520042,1.25609756687199,1.24399071887478,1.23588343971874,1.23661179998592,1.2394403927776,1.23448762283157,1.22738333153346,1.22899500665695,1.23016267537343,1.23235543749486,1.23315184516448,1.22819744933875,1.2202297836933,1.21996155930569,1.21991370584064,1.21863591564601,1.22016443394592,1.22221168946903,1.26066283703776,1.24886074302875,1.26902003525706,1.24816557936897,1.25944559820962,1.21416651289602,1.18889182239548,1.19499299527561,1.19554777174415,1.19495067374478,1.17767421821626,1.18013136840789,1.18298718091854,1.17317520956836,1.15848593757813,1.15492692818482,1.15063286212331,1.15028232298452,1.15104620451909,1.13771082009331,1.12694621361455,1.12509511794145,1.12207009888471,1.12125123747775,1.12047632138716,1.12125169509647,1.12208493066575,1.1259829041574,1.13146686617633,1.13177396619607,1.13477097895357,1.09926327180461,1.09469270861624,1.09385944367948,1.0908841865275,1.08010555426155,1.07227101185022,1.07154299697727,1.07332172215417,1.06468775047205,1.0550826359383,1.05356965892778,1.04414010647579,1.04189521953027,1.04123271835001,1.04393975888859,1.04688395337753,1.03175786624994,1.01428320866997,1.01872564797115,1.02145028492511,1.01258851623418,0.999456385995304,0.995924312943713,0.994708064477177,0.991894814575855,0.977092209193045,0.981670274960073,0.983890883270702,0.997238380364807,1.00182865126347,0.964291326342494,0.945890363456048,0.945142198296477,0.935335293356253,0.939214286825249,0.922181634295187,0.920246224369595,0.919665574713673,0.919083072126511,0.919194927398237,0.916323760038482,0.936291500324287,0.914374493057402,0.913508411073559,0.912483109274327,0.909545580651228,0.912009070872613,0.918066421768969,0.91645314078966,0.9186161640487,0.894435918732279,0.880323052767816,0.880433261022169,0.883646323486232,0.881469911992486,0.880934154290674,0.860914373336406,0.841034850159359,0.842169689582409,0.844099141511267,0.86155481088903,0.880094065564301,0.875398813888776,0.876371593662819,0.873319627265071,0.870656134490137,0.871222599994962,0.871118702297588,0.849729922449115,0.802038421900773,0.811785779741387,0.804256689847663,0.810014462828311,0.805626862514673,0.825426956993078,0.829028943888684,0.822879041694873,0.840142677060486,0.811401939862095,0.810568991842472,0.810172811120692,0.810065383038856,0.808774274120608,0.74585443967109
1.04511203761815,1.05207945528019,1.06004009605571,1.0823526259896,1.08902050499143,1.09907547679689,1.10700837091622,1.11430658625626,1.11982593982818,1.13403170442723,1.15311603548332,1.16462200857958,1.20082559941508,1.20125432361267,1.20163332116134,1.20056303119526,1.198855747171,1.20367325431474,1.20564233163207,1.21018301139589,1.21498471592751,1.22069701425173,1.22637163222115,1.23189089776909,1.23730106456483,1.24265158409329,1.24817348748617,1.25389935046874,1.26166132013841,1.25826392737365,1.25425057728072,1.25353517173073,1.24949506306421,1.24570964612413,1.24251556464629,1.23953810145008,1.23667463762079,1.23469866230075,1.23418899697682,1.23454993725429,1.23457303012787,1.23519153149064,1.2353320058948,1.23524303149659,1.23405029993619,1.23143556660879,1.22850167104824,1.22536621822165,1.22492695327176,1.22487781516911,1.224397271616,1.22465488662807,1.22525562362155,1.22124588300283,1.21511973989295,1.21047132849208,1.20542269234926,1.19927182979246,1.19138269915421,1.18922547881945,1.18729894634977,1.17606025805568,1.17219080659304,1.16795677217495,1.15937837243712,1.15731943031852,1.1548073359929,1.14426674269029,1.13799824276088,1.13801829834958,1.13788494171097,1.13816560742547,1.13798873869016,1.1370656452406,1.13536519020237,1.13344638850757,1.13176670734352,1.13002206918078,1.12344685352979,1.10230993127135,1.09749855021579,1.0966829754028,1.08779820255074,1.08681378639835,1.08301560875044,1.07832637172591,1.07445371152374,1.07259977242551,1.07104165334556,1.068515640237,1.06469058207582,1.05998811635725,1.05523051659359,1.05129869359617,1.04863266026048,1.04254879106714,1.03753401655588,1.03233262563148,1.02640838393576,1.01982677480292,1.01342708322809,1.00839519952121,1.00675189584836,1.00581266245548,1.00380819322124,1.00295735725186,1.0020263461891,1.00179522843517,1.00119075297382,0.965996556332938,0.962410269768436,0.956544501134083,0.951400802932412,0.944570625584873,0.937625389298941,0.932467391693261,0.928407090785413,0.91895338617022,0.918122794168529,0.916170171573855,0.915048447053371,0.914238564454007,0.913822018915427,0.912562859061758,0.911880651536743,0.912212998356625,0.911934320070299,0.90105295209693,0.896733167101847,0.891923554390773,0.8787948843522,0.877905319455153,0.876186154790319,0.873915285973883,0.871907646848339,0.854827932805726,0.841268840211564,0.841093629081659,0.841894287221113,0.855184899866633,0.869326235607105,0.872382120834362,0.875981244777155,0.874929106556356,0.874262851159531,0.873464246089263,0.871518865293238,0.842179920593438,0.829414156226152,0.829656689230264,0.830490013331615,0.829864635376148,0.82783736804648,0.825893564176402,0.825492165447599,0.823108151932949,0.817035858301965,0.811953253163857,0.811108930608415,0.808872922680929,0.80813279715188,0.807340131461148,0.791788130188721
1.07018418027053,1.07020569766486,1.07053569419059,1.09573757892952,1.12973072278675,1.12940394199436,1.13013763740383,1.12874164013582,1.128913315171,1.14188519677993,1.17915656255206,1.18212296294355,1.20068880856977,1.20108625103229,1.20296089427251,1.19998043085518,1.19572568221014,1.20958383465484,1.22877898588299,1.23145412669995,1.232774847492,1.23294294692943,1.24360754231312,1.24851521655572,1.25074214560345,1.25307341851173,1.25624856370535,1.25870710328524,1.26197066767901,1.25984825248496,1.2432297417555,1.2564157084093,1.25995346174886,1.25579500047239,1.25121854961269,1.25453599418565,1.25819638411612,1.25908101183918,1.26060965649484,1.24616642390711,1.23486043507925,1.23512248522837,1.23445400964037,1.23508561309906,1.2338793433933,1.23820371336562,1.24158807836139,1.22688708925071,1.22460053345433,1.22578221919461,1.22608136729308,1.22635427940178,1.22849865413586,1.2306366955281,1.23114631358953,1.23270288231871,1.23397513410467,1.21292936957084,1.1965784427532,1.19678795816683,1.19766728124462,1.19220422768784,1.18892153757936,1.17592788188767,1.16260773645965,1.16393172262245,1.16471246435664,1.1537652078597,1.13764141665249,1.13774216622538,1.13718130564493,1.13906243827868,1.14117884930015,1.14040727222248,1.14049977084462,1.14039767957951,1.13890165026546,1.13355953937847,1.12048100158421,1.1085605887586,1.10120757704483,1.09898610405995,1.08592830833774,1.08807042390308,1.09023335479801,1.0861204936325,1.08303308156029,1.08034648403335,1.08066529398603,1.07794223502303,1.0784642824669,1.07921447245684,1.07886796769479,1.0698644037544,1.06054259227564,1.05672261676552,1.04885954099184,1.05412929679994,1.05737478164899,1.0320895379159,1.0272429935909,1.01786307348069,1.00699366299237,1.00517394313139,1.00152978632239,1.00195489652755,1.00142166527498,1.00411123922704,1.00703084633916,0.970263327334641,0.969621613047314,0.969584412904293,0.999417706058374,0.985520511389148,1.00112028576127,0.97094394972247,1.00243002674556,0.919819411642323,0.918269377351994,0.917262182206486,0.914493298572546,0.91466224974733,0.913770109190653,0.912437560538912,0.912711883576397,0.911798089893471,0.910038506654261,0.891090586591645,0.868456912468865,0.872703522428543,0.876365546360686,0.876529396868277,0.876217156176908,0.873525511025337,0.871316699898979,0.848937264827142,0.834178692612283,0.838691165271904,0.840554069603531,0.848799085279619,0.86541847040303,0.869160866848001,0.879768330913786,0.877859298967457,0.880125495282736,0.878290488531111,0.882610389426553,0.835784903548333,0.828627887457318,0.828523702501022,0.83975101501334,0.829580143999083,0.836856747408921,0.825218070120654,0.826384890513049,0.822807443911773,0.797901620538061,0.808702333929288,0.801136342862994,0.80698128499149,0.805577480680381,0.806247614228353,0.804110054390876
1.07763448101228,1.08708387086216,1.09915492885488,1.11036260263293,1.1291166376126,1.13017603431246,1.1316109419392,1.13482243355025,1.14181754368495,1.15090868170601,1.1764801235114,1.18527648563705,1.19679206768393,1.19962568304317,1.20030776647091,1.20896008439083,1.21542102397938,1.22247893079747,1.23215396371616,1.23347910543212,1.23469905125422,1.23572176189376,1.23900618998328,1.2506521523404,1.25153209747787,1.25295518653499,1.25526246483632,1.25776438485133,1.26021919057498,1.26058875688669,1.2612946360651,1.26246247536297,1.26363997627656,1.26406366576721,1.26335338568398,1.26178020580834,1.26007184741567,1.25880132071331,1.25757711047145,1.25321812405122,1.24877525823303,1.24472271880399,1.24154956861373,1.23944523949156,1.23815095478485,1.23773591171677,1.23640443727463,1.23099346986174,1.22870286294569,1.22826137440231,1.22794911392966,1.22861925368673,1.22989743872823,1.23151204436287,1.23286215963095,1.23351788489026,1.23409594390673,1.2266615319108,1.22016163645344,1.21401834904525,1.20831497215952,1.2013320332693,1.19299535125443,1.18596135073835,1.17951579226759,1.17378559296201,1.16625115168462,1.16477031136077,1.1616223555631,1.1589193660112,1.15540277339405,1.15123913912929,1.1474290028215,1.14461267500101,1.14230473788565,1.14166187480836,1.13600748897405,1.13563658790491,1.11887741064612,1.11728454568374,1.1125417619488,1.10843580601601,1.105841655354,1.10416817072244,1.1023967196931,1.09967791250097,1.09567562842294,1.09233147438628,1.08846380771512,1.08463009376245,1.08220992417544,1.08127095504927,1.08135836955098,1.07501035836426,1.06928303633459,1.06507193394787,1.06115786667431,1.05721741735156,1.05511239847938,1.03515535454463,1.03237575649435,1.02779609283459,1.02366361487234,1.01929834632258,1.01526784090913,1.01164049524838,1.00924661336505,1.00687774152271,1.00770099013254,0.976271119556057,0.968334682238309,0.969173166259255,0.970262142713634,0.970745330354767,0.960004717793089,0.950525799247695,0.93979033884019,0.921097961478026,0.92078412726379,0.919149248282845,0.917907072113055,0.915507002651351,0.91305453327846,0.910579244112069,0.906099369473911,0.90165408751326,0.889733177514026,0.888887958703598,0.864697558276084,0.860649616993149,0.857091538840103,0.854144574435074,0.851011628734216,0.847176917871306,0.843143579747904,0.840110045350641,0.838562071974279,0.838175501340487,0.838938766771163,0.842918694644061,0.861479853575935,0.856968303476484,0.852737520135026,0.848721182403505,0.845138589352138,0.841985495315706,0.839911269030792,0.83153207255705,0.827612180968301,0.827990616475104,0.828354447138131,0.827254902485916,0.824898460351212,0.824478607900036,0.824087722043434,0.823534103483854,0.8213567784786,0.817292780893493,0.814288163473658,0.811376096920524,0.808012398389777,0.807632735598609,0.806136582607043
1.11336565671357,1.11776191674538,1.12378935278132,1.12559449950445,1.12941840555393,1.13203726731218,1.13295037609458,1.13913257052853,1.14935692986834,1.15491898349605,1.17501044681136,1.18791072094794,1.18974930445292,1.1996798175505,1.1989962734331,1.21730936546687,1.23083347744596,1.23262256554918,1.23389714935939,1.23529860246057,1.23819686681938,1.23737887615281,1.23882252820537,1.2546355690567,1.29060631227274,1.27717048856551,1.26707596363672,1.27339545904857,1.27935078685149,1.27839540768031,1.2778457218113,1.277194593724,1.27744932491484,1.27812080818129,1.27947540840992,1.27610799471016,1.27257467930752,1.27519664757017,1.27804467873597,1.27817260371741,1.27840166543577,1.27092483127661,1.26533637430215,1.25359092635387,1.23741336197345,1.23678852120145,1.23402548487332,1.23216934074527,1.23047492939139,1.22971094399209,1.23112631326326,1.22993375559355,1.23261470147358,1.23254171582005,1.23479213721697,1.23523983254823,1.23701919500913,1.23646607574853,1.23588124493182,1.22356425884279,1.21401683190063,1.20954421830335,1.2056149329115,1.20690189225192,1.20634363822761,1.18764687137707,1.17080677384315,1.16708482397934,1.1607822255915,1.1721271070074,1.19707954906169,1.16477141916455,1.15414207873295,1.16654984613198,1.17461544196701,1.15140025460886,1.13266275314057,1.13516094865615,1.1189671115507,1.11948941336976,1.12122377231482,1.12102484903142,1.1214002780687,1.1109236615432,1.10974187373622,1.10186938654317,1.09430803890587,1.09601842925365,1.09757869879701,1.09912577155397,1.09794678650234,1.08398325458155,1.08315830695529,1.08430103972487,1.08202493740495,1.08070643130987,1.08140303089034,1.06014153478574,1.05094824471509,1.04048496668628,1.03741230478334,1.04001001302706,1.05042571279565,1.02930746890852,1.02592986360233,1.01078648194432,1.00936740549926,1.00716610813678,1.01021797035289,0.98258192722919,0.965946374957701,0.968189626599847,0.969818044706322,0.971001069012216,0.94285633851928,0.943732628097827,0.92053240489352,0.921874456200225,0.923012695537144,0.921525362111286,0.921377215215064,0.916832530111719,0.89250334001349,0.897252563015248,0.902638193163123,0.897095235817311,0.878808343109044,0.878147579315408,0.85035111920903,0.849959109960112,0.849731791336118,0.847721095437704,0.839035377121117,0.837855223958782,0.837817842595767,0.839818988904802,0.842196710037788,0.835938032776374,0.822589940832167,0.837826631083217,0.869811890172578,0.849771985000961,0.840331801912055,0.839057271962105,0.83857753153865,0.838829450333624,0.838852724341172,0.820802608975041,0.806336711668503,0.807350309628893,0.806514309110288,0.823659545985215,0.822176009747985,0.823561617132954,0.798128915889163,0.823953964341104,0.822268387964323,0.819582511999747,0.820643706841082,0.817371877407435,0.821961380521178,0.813905768105312,0.820209026160615
1.11706350388428,1.11878136187762,1.12225451274546,1.12528198483079,1.12599042945459,1.13651046361258,1.13952405487066,1.14278992746698,1.14654147062615,1.15665878170083,1.18853196108642,1.19495002360983,1.20187986987973,1.21070429650302,1.21622935662014,1.21852508406055,1.23313347940797,1.23358843838341,1.23461825204924,1.23633636747648,1.23912541269208,1.24369330362561,1.24718457790529,1.26410140174745,1.28588896162414,1.28546480983911,1.28376762139902,1.28139990542034,1.27967102847595,1.27934600763656,1.28004742146898,1.28085050307129,1.2810217313606,1.28036791182582,1.2794900827895,1.27915854576467,1.27928734840927,1.27938897128934,1.27906116795321,1.27801354924416,1.27662828292265,1.27314250378874,1.26358216456467,1.25996682742071,1.2589739134956,1.25448260391026,1.25080210572559,1.24754457329155,1.24425285936449,1.23965037964775,1.23239804150631,1.23048972987064,1.23075515719808,1.23179388466477,1.23380279146182,1.23496056050512,1.23627922962951,1.23640906538198,1.23633041469082,1.23053910508876,1.21386509360889,1.21204658120686,1.2103898468734,1.20854938696551,1.20701327592672,1.20399549530649,1.20013294786477,1.19548220744713,1.19031734389843,1.18405444822554,1.17816948526278,1.17187610843714,1.17190908496811,1.1733011470803,1.17428308683801,1.16581049419235,1.15737308560408,1.14988233774183,1.14331873462872,1.13707735320445,1.13101634610698,1.12298636947449,1.12226503061825,1.11309761073538,1.11256216980256,1.11224592810171,1.10961480416799,1.10625686017173,1.10245517587876,1.10092358986524,1.09291466566909,1.08641252303132,1.08556816060344,1.08493317151239,1.08313356915695,1.07994725069795,1.07949072741381,1.06153951391361,1.04844688034564,1.0460799912299,1.0459566252097,1.04449090898367,1.04491468429948,1.03196332986916,1.02470187779912,1.01076191032383,1.0069341189591,1.00281788652617,0.999002428512192,0.988610810988176,0.988303295459833,0.980072255300457,0.973932950797426,0.973003181541809,0.946152582405854,0.944944083429394,0.919952474436468,0.921004368699503,0.921662082861134,0.920940506686744,0.920583060630642,0.918347396105822,0.903056325584925,0.89683888055867,0.895330497619472,0.892528609906916,0.879206513981418,0.878800874464867,0.85004572246131,0.849080349862671,0.847234999509376,0.845375609383572,0.838799313757504,0.836434804834568,0.834708592365817,0.833358201932135,0.831654009060882,0.831382476085923,0.826756083293924,0.823937128728396,0.82310607417279,0.821687077770548,0.819906536255474,0.817550745649903,0.815323512716022,0.813643763465193,0.812163731738062,0.810504549477403,0.808678167426307,0.80879107982972,0.811955207856036,0.821791889134805,0.823189186258443,0.824319344702249,0.82433814774847,0.824133544286636,0.823402352498083,0.811875432475545,0.805713623808788,0.79799998736601,0.790268449073555,0.782690859461404,0.776199937994362
1.13867554524074,1.13770657331463,1.13521796031699,1.12860801742336,1.12484279051399,1.1404859863513,1.14709200327816,1.14564152062268,1.1452260411693,1.16032361136332,1.20707586951584,1.21533667882353,1.27079592000411,1.26062463598638,1.24987844341629,1.24982555400867,1.25140052992612,1.26041992773988,1.26713607271511,1.25901225444567,1.24935494244929,1.24884983584213,1.24965462368055,1.27146395349186,1.28244346184598,1.28774093140622,1.30246384609273,1.29769892362539,1.29354423901795,1.30329725980605,1.31252653740981,1.31403942420961,1.31727679340115,1.30368869676568,1.29325157967863,1.29463020605332,1.29597188474472,1.2963129948003,1.29747101151477,1.29514938321138,1.29319647916235,1.28245843988225,1.26807132708038,1.2695564143985,1.27075224883892,1.26998363942553,1.27024082187539,1.25371801365848,1.24563822482931,1.2426299386601,1.23087573954365,1.24904999812198,1.25913524381817,1.26537133963184,1.27078667688617,1.26944119703962,1.2676962210109,1.26459318440928,1.26166820458251,1.24722700623816,1.21370213709477,1.21301309945044,1.21160799462098,1.21098060104212,1.21164953865733,1.21281232380086,1.21389669216882,1.20083749753713,1.1931265590606,1.19177935484156,1.16979082113786,1.17107011125639,1.17082821787323,1.17352657517673,1.17603842826387,1.17236179460035,1.17110676529868,1.17049326736592,1.17095385545972,1.15187084555947,1.14378255872053,1.12471841614024,1.122590270502,1.1160806018611,1.1146804894266,1.1150541959552,1.11391294212955,1.10685908159137,1.10387552752182,1.1058582961301,1.08611591792596,1.08617677582856,1.08524400311716,1.08602787796798,1.08996849623162,1.07803366333363,1.07878685038617,1.06169626591106,1.04864725604417,1.04662190647687,1.04692851195993,1.04679434180724,1.04262903416198,1.0331875417039,1.02334952604052,1.01176442544211,0.996600538536524,0.998157771228067,0.996961862984917,0.995139926492712,0.996246279935871,0.983919925665375,0.976340141251914,0.975312258364148,0.950180002797614,0.944666900499197,0.916822434637599,0.919891239196956,0.919168955490665,0.920828510157141,0.919333171349258,0.918462661375259,0.911795509135443,0.89587502863129,0.884286365618204,0.88407612659991,0.881255853469361,0.879797887666246,0.829858506726386,0.847384119578722,0.846109827032709,0.843995699116355,0.832932475862978,0.833237896365499,0.831239828565962,0.828465968535643,0.820192463205923,0.825934917455736,0.846414439283314,0.823778988386751,0.824607383925238,0.820762600584464,0.807677934414414,0.808838041131876,0.80710114906144,0.809372357914489,0.786381589149108,0.789308241299587,0.789840019747805,0.801644129146101,0.825014573028886,0.823892805175908,0.826257643094943,0.826012822322114,0.827912528585357,0.823021207663021,0.822300252864626,0.798779887247328,0.78976750789334,0.786534503768829,0.779651147148664,0.779260626048234,0.765468562135458
1.13795389566419,1.14018160439427,1.14441781565339,1.14828046102146,1.15132533792668,1.15339266617379,1.15594815266469,1.16550246061608,1.16564960950197,1.16727120249628,1.18802594336936,1.22838258163378,1.27062651575266,1.26927467476987,1.26712843077942,1.26587309246212,1.26631413039784,1.2717725990487,1.27353189283673,1.27397820529845,1.27731044536685,1.27938024331341,1.2809393783566,1.28441560535982,1.289378000946,1.29498111161005,1.30040969010276,1.30360199318191,1.30610797737877,1.30829714606909,1.31093441232535,1.31260467627784,1.31302140187364,1.30893577672255,1.30488129152692,1.3017719903109,1.29990427312325,1.29860607346653,1.29712298654672,1.29520627806515,1.29375565766214,1.29169894694128,1.29101155700405,1.290443622716,1.28921225681314,1.28778338665736,1.28679624604046,1.28629112780357,1.28574215084196,1.28456295935757,1.28263950156774,1.28035548033104,1.27804334895205,1.27550178983329,1.27234352577836,1.26977700113828,1.26740441983395,1.26487733359715,1.26313263081981,1.2560690306429,1.24919082810982,1.24208576001955,1.23032621327937,1.22777682898411,1.22571568189172,1.22321065178542,1.21902909718605,1.20591317038627,1.19995268598309,1.1957948303802,1.18189277888975,1.18104030607259,1.17808814993102,1.17533121689841,1.17262592976519,1.17104726033254,1.16985826087328,1.17006143867158,1.16982678418951,1.15759926746903,1.15204537409741,1.12643255272705,1.12041056669464,1.11846813105206,1.11726884914657,1.11651861058063,1.11467475858034,1.11080611776214,1.10943432657828,1.11023771202935,1.08777332442383,1.08672375006033,1.08357035296481,1.08310615084598,1.08039384966136,1.07666267933393,1.07548262997052,1.06246045047491,1.05982891419732,1.05750070596995,1.05534408590575,1.05286586264925,1.04087505331361,1.03439199470006,1.01838280467758,1.0148692177679,1.01150224628061,1.0075689872587,1.0023408499342,0.995769846920797,0.991095587089482,0.9877852363419,0.985750529964971,0.982296490640331,0.96238190574123,0.944052668445046,0.931363866493338,0.921144106367888,0.922167685485098,0.921099921326558,0.920542748483814,0.918410954752765,0.916196922935996,0.894148920676854,0.885603972147469,0.88453773643164,0.883767076423802,0.879860975893458,0.849628747468826,0.847544572030145,0.843047080723597,0.841441653101668,0.83721887515206,0.833710308615201,0.828888274534166,0.827061873095346,0.820795950180268,0.819848549647715,0.82037514428404,0.819595697124068,0.81771740049418,0.816233256418904,0.812439637081071,0.810695694281671,0.809962408446194,0.809845891803634,0.790656538134535,0.790854244215031,0.791288805015447,0.792646557279262,0.794132750278472,0.794629712554243,0.793596790620736,0.791127868791856,0.788645208884785,0.7864257640028,0.784990739047807,0.784053131276448,0.783664875509074,0.783592154969763,0.780178650870793,0.778397841940075,0.776388392269616
1.13569440280987,1.14108976060624,1.16460951643161,1.16280938253029,1.16141848262023,1.16078766530855,1.16009170937359,1.16765359398868,1.17795558911484,1.17860224953941,1.17910684762011,1.2365166860584,1.28545430863646,1.28678000197584,1.28972753235204,1.27147429860934,1.26233339624115,1.27469385498908,1.27507571206933,1.29575351118534,1.33391083605767,1.33354186142523,1.3336587089196,1.33286753780581,1.33299174108971,1.33442736226588,1.33532417001793,1.32988811004011,1.32050799819039,1.32177255674681,1.32323479074202,1.32758013488699,1.33066010026649,1.34012841561682,1.36727048916099,1.34190292759795,1.32856744167658,1.32605147553201,1.32415184687802,1.3081411048224,1.29566203807056,1.29745025561137,1.29944435448707,1.30778667696146,1.31662064335772,1.30712994220433,1.30248468615246,1.29539423913987,1.28854789147551,1.28927705501999,1.28983394960282,1.28656201717248,1.28323692823279,1.28491114961448,1.28837060686579,1.2884077776183,1.30650754003857,1.28015944695514,1.27168399995884,1.26964916424384,1.26961401042048,1.25174981062892,1.23500596830787,1.23769409411298,1.24169711679641,1.22864080751761,1.22090858561614,1.20980946658005,1.20604050862359,1.19773645362344,1.18195984967744,1.18252840692951,1.1828715979765,1.17790562429833,1.16849105897331,1.16918022490193,1.16614372241233,1.17127636352991,1.17836315102672,1.16742995113292,1.16566300901667,1.12815932574563,1.119459733902,1.11884303837884,1.11951240593598,1.11843412312829,1.11645492578522,1.11333097247308,1.11011133584849,1.11207700046727,1.0924955478994,1.09106657209669,1.07935312209829,1.08169079739157,1.06902128062623,1.07257490860912,1.07041058580199,1.0673191983899,1.06721787858663,1.06706089895426,1.06746248308015,1.05535945590071,1.03954532241281,1.03677944831056,1.0164591450274,1.01697224140622,1.01918210448076,1.01788329186793,1.01334804204771,0.996331397549739,0.989742170631453,0.992368058459888,1.00408800620775,1.00265453221676,1.00241937840597,0.943240172670898,0.943742331917209,0.922614906005089,0.92581602472603,0.92168944182803,0.921591469800444,0.918845158189385,0.918038661742485,0.892742141862796,0.872133861471087,0.88365242912791,0.886467244606096,0.879081811381383,0.852267777967631,0.850119241239457,0.836130912232361,0.840876710436018,0.842440474561465,0.833374127989843,0.826897260754584,0.828148473901741,0.818045871835954,0.817266977261404,0.806884634187446,0.809346348817064,0.801916421857594,0.81505107206892,0.829462360030012,0.811607646664513,0.810807181955014,0.808952251734444,0.792981467937524,0.791482259445125,0.79364673350459,0.792657746701033,0.795476869781242,0.794934999349345,0.794609834359959,0.791509143626711,0.789192261280466,0.777168516825102,0.765028667441807,0.767425666571866,0.767405265273355,0.771477770055212,0.778792948181103,0.777341682691954,0.779300680450545
1.13932108055057,1.14202741862434,1.16527040460272,1.16355812114956,1.16208279275276,1.17246439972175,1.1820140554096,1.19053187717815,1.196552060194,1.21001159747251,1.23048395768404,1.23965953299577,1.28525567035704,1.28583797568214,1.28620545083161,1.28601560642561,1.28693077767034,1.29184661241436,1.29320645161921,1.30966302609708,1.33475229155521,1.33425575372082,1.33297847744616,1.33284966367294,1.33393364915213,1.33519901585611,1.3375560638081,1.33942500015359,1.34045641613356,1.34258679052893,1.34318624747575,1.34239658405877,1.34158928443422,1.34797931536718,1.36256389118234,1.35960173352119,1.35530112771012,1.3503660709129,1.34528078361637,1.34026748733713,1.33540866883742,1.33104343782553,1.32731689502708,1.32404325611806,1.32085834648755,1.31765059963691,1.31462781190071,1.31204320891135,1.30995061598663,1.30816068725957,1.3062194861033,1.30349277354553,1.2996303111165,1.29504649276263,1.29056349887204,1.28931359247857,1.28974604952561,1.28215457570315,1.27987122639473,1.2760383835428,1.27327778167597,1.26204005616891,1.25603196346637,1.25124010290872,1.24324073534281,1.23656298136113,1.23231542780923,1.22357811168137,1.21803910758171,1.21241221292019,1.20663280425493,1.19946284198122,1.19036200058612,1.18794283986515,1.16901820432204,1.16927265356373,1.16996991128141,1.17313416222861,1.17656869127547,1.16748697826077,1.16760784464635,1.13118007631796,1.13248110278361,1.1308913096222,1.12727743776547,1.12187956394047,1.1188186816824,1.115056517108,1.11267415931031,1.11271017690061,1.09493111158309,1.09459399703853,1.08455608443271,1.08171924809897,1.07820153270755,1.0748967377452,1.0725528296049,1.0702852753292,1.0652456928922,1.06493291637351,1.06402569128553,1.05732033702456,1.05156860726749,1.04452441097869,1.03601992573622,1.02833937227086,1.02252426668613,1.01916787861401,1.013909253896,0.998225057931306,0.993108384095383,0.996728649216504,1.00123889640543,1.00166439574987,1.00211936068703,0.941873558530975,0.932273002055901,0.921533959541662,0.922108991762154,0.921481246634556,0.915377137562289,0.910677259896413,0.89625543944126,0.891851831156724,0.88239351167841,0.882498103764353,0.882798284365578,0.8773945784942,0.856677188898331,0.85070251823162,0.849285621682062,0.843445007531151,0.838945227216964,0.834696800576507,0.829726882269326,0.829688521263718,0.815135339122386,0.814958836204872,0.812290922511712,0.813365529792184,0.81569231916036,0.815206347517581,0.814103792758617,0.81303246007835,0.81310448420055,0.809024386548143,0.791571643545084,0.790178670332695,0.790581311447072,0.791782171047428,0.793170867598505,0.788224911578642,0.785358332188788,0.78083447703316,0.775395511415707,0.770511248423835,0.767155966921142,0.76853754719083,0.769137717723598,0.770629135723954,0.772054568012074,0.774048577982329,0.774662525057123
1.14220096532718,1.14267051547879,1.16842970967676,1.16497746986368,1.16189966082011,1.18703236335945,1.20291390554053,1.20325372068574,1.20375121120108,1.21897420974554,1.25233027414324,1.255299776469,1.33798002968901,1.29026349397329,1.2830385799235,1.28391637483811,1.28198889849836,1.29404167449582,1.29454157847763,1.32113265650019,1.33723655093389,1.33890964919572,1.34354426452082,1.34471482918327,1.34615425863183,1.34365079896543,1.34007775166581,1.33949151457606,1.33810592741727,1.34334535706265,1.34901537814392,1.34561269361743,1.34178002816578,1.35524128534183,1.36509193520423,1.36413426529163,1.36340736274885,1.35899979744341,1.35633057856914,1.35383868341369,1.35489988414915,1.35625503295321,1.37412396556124,1.34501613459809,1.34452760662619,1.33403444413241,1.32351951440946,1.32150720224806,1.32300708713615,1.32255169392278,1.32245362481756,1.31813112629706,1.31371779825504,1.29897702154207,1.29002562641741,1.28947594877945,1.29023877461872,1.28542132100141,1.28327548099394,1.28696963565962,1.2906332088981,1.28339601696569,1.2801813986887,1.28124376300062,1.28761633545012,1.25297560443307,1.24012855011273,1.24447386795664,1.24886877860702,1.22395281851442,1.21440818778484,1.21293545795653,1.211160218947,1.19211690592943,1.16827898399077,1.16928980616837,1.16926775838962,1.17603518550928,1.17989977277932,1.16695269659781,1.16977507460983,1.13454868411567,1.13500126174237,1.13150691463739,1.12879710102103,1.12358659068745,1.12204839369155,1.11961953149238,1.11933577161857,1.11612701065737,1.09798198950242,1.09698312955092,1.08714531698485,1.08981472707675,1.09197506431392,1.07724172499642,1.07561670176546,1.07482959175989,1.06068404646123,1.06358278299978,1.0611386900767,1.060537308325,1.06144672298838,1.06545829017125,1.08062327954265,1.06475204613224,1.06242994617276,1.06521994664682,1.06705640351127,1.00125008575827,0.984012124697561,1.00025189401765,1.00274242941649,1.00068536673736,1.00269518437699,0.940698815745843,0.921723952988391,0.921036385306535,0.919752689662903,0.919983684899572,0.901549861285238,0.901868806508744,0.889053934100429,0.890539624231667,0.881609749907569,0.882229406249374,0.88116646369058,0.874812347848216,0.859938519616584,0.852515018067226,0.852751436365859,0.845556431678486,0.835887457005866,0.836273421899795,0.840042573865769,0.830324515718371,0.815215073954075,0.814985662961463,0.813745686014834,0.815063364740656,0.817993983241494,0.815781249659652,0.815356997875994,0.81401711133347,0.814609423589983,0.811210554531302,0.781983229605544,0.786112028391133,0.789106252159905,0.790614694944259,0.798045498229797,0.778620008228825,0.746139749238149,0.759775695296954,0.765600164453204,0.765794470267662,0.76476342953704,0.760070935085131,0.746389539496293,0.755888665692757,0.763768439698352,0.768180442736337,0.794201328021098
1.14011181481742,1.14305454342117,1.15989566497265,1.16631711773757,1.18069193080189,1.19609927821057,1.20953713619723,1.21799159380021,1.22531912286605,1.23011404128807,1.25407875884615,1.25555045843554,1.30818414803567,1.30943799072256,1.31187180592028,1.31331861797117,1.31939031562773,1.3272578246085,1.3280548923734,1.32963298595923,1.33903495738964,1.34012501780778,1.34268400715661,1.3445467808638,1.34635397834743,1.34846704582374,1.35093816269156,1.35396253741072,1.3576823090368,1.35991064590514,1.36178686486159,1.36286836080996,1.36349667606432,1.36408120138009,1.36452225521087,1.36408359512555,1.36337549936973,1.36239494294438,1.36097805566263,1.35972339846405,1.35908735355264,1.35811569820986,1.35494043948942,1.34720479658228,1.34729185586231,1.34388338654266,1.33860197347101,1.33327362265742,1.32608169165208,1.32388463055912,1.32318429293426,1.3226790390059,1.31249675488851,1.30980090838073,1.30396495357237,1.29946550738279,1.29448246753302,1.29457766192772,1.29370791222698,1.29108391991753,1.28965742156399,1.28721404152964,1.2778048802551,1.27894730714644,1.27985200073062,1.26676926322341,1.26160034848137,1.25986566975638,1.24920047702557,1.23278921698612,1.22426961756324,1.21380059270959,1.21282135910117,1.19763153430338,1.19309426889326,1.18326547955547,1.18149133241122,1.18000715154798,1.1810739354446,1.1647058751562,1.16429137028004,1.13943455979964,1.14156970395797,1.13997016612588,1.13448689200398,1.12972217958881,1.12554701222352,1.12179751511433,1.11914851920814,1.11642565666337,1.11453179296896,1.11096070286397,1.10632362328613,1.10058941174868,1.09796919255122,1.08058216306542,1.07867567102036,1.07858245332122,1.06755699840376,1.06764290132453,1.06932781068632,1.07078750618423,1.07171687916964,1.07013087238686,1.07165725859573,1.0669353459632,1.06615010494306,1.06671652243189,1.0678798582764,1.0039682327738,1.00348269204247,1.00132432569343,1.00049396281108,0.99617591913126,0.993633809761466,0.939844454345204,0.921330531386448,0.922365030588404,0.920116289790813,0.919131629512239,0.906072951975424,0.900906775575526,0.891163750029162,0.890184078834769,0.88678083409243,0.884090702047177,0.883583740080069,0.87152114504078,0.856585690804454,0.854943929949503,0.85411127763336,0.847058314900475,0.834165817067141,0.835098664665297,0.836531407635637,0.831081652025942,0.825364159716209,0.817702580891823,0.816967197895711,0.817409444104227,0.817552119951905,0.815601940548599,0.814968985171737,0.812810888796437,0.813547722332393,0.81361521888823,0.793801697119809,0.783734701825343,0.782771681991446,0.776998706565413,0.769895884286408,0.761798318900303,0.756202332229429,0.75672050216379,0.75474283528893,0.753146920785993,0.752642604325856,0.752122409438375,0.746918910564529,0.744260001130219,0.741383064526449,0.737855593487907,0.734335820597748
1.13693687336177,1.14381412070784,1.14746553741952,1.16751455824338,1.23466004044858,1.22165282067201,1.23155932003829,1.22843094403509,1.24207606657659,1.24380315356393,1.25344860183858,1.25499871861687,1.30586891417336,1.3071401491841,1.31935685376835,1.31454490423443,1.37236716460585,1.36978383174975,1.37170909164182,1.36831755549147,1.38252572243338,1.39001294905624,1.47746001100377,1.39290016049811,1.37262634420556,1.37551115146813,1.37986319462656,1.36978274608905,1.36009662992869,1.37039991948155,1.37578401007588,1.37758837786876,1.37971682947423,1.38094759622167,1.38303569095379,1.38680866536975,1.39031649658269,1.37819215184563,1.37265019322036,1.37209195621892,1.36852569156861,1.36152987039342,1.35081917033531,1.35087755266974,1.34971285857891,1.35148872254568,1.34923143995134,1.33769352965596,1.32646907700307,1.32526058138333,1.32791724124123,1.32622930630101,1.31276384005914,1.31333126413679,1.3130883324817,1.30334697189688,1.29511360331737,1.29526871208283,1.29541967815108,1.30073580820794,1.30477588513293,1.28891991690887,1.27591466185096,1.27713560944229,1.27824486589777,1.2824950923474,1.31400003505571,1.26105476491927,1.25194297573845,1.24310837837765,1.24501219389262,1.21554158911387,1.21378832937004,1.21075698888003,1.20564620370981,1.18430333100261,1.17974296786891,1.18093212543627,1.18192938687791,1.16379313901046,1.15625488543765,1.14310233313885,1.14677678492294,1.14296533854189,1.14413278945719,1.14334727823072,1.1428517637447,1.14174040735948,1.1409258411426,1.13172441349501,1.12874571519363,1.11045809703931,1.11308616932463,1.10975643695807,1.1097672578354,1.08380775481709,1.0818192435481,1.08070580329116,1.06768711444548,1.07043169171908,1.07266632531737,1.07270536181288,1.0723998762914,1.07274196826157,1.07539397439926,1.06779417109864,1.06874100912677,1.06840914475481,1.07048595876447,1.00626925979738,1.00535466458707,1.00216896336784,1.01563358838322,0.993828806907419,0.991920141973756,0.939774579306286,0.914770112047459,0.927696527833815,0.932142740468125,0.918767876896353,0.911026069359756,0.897741548084214,0.895540107262704,0.892306548932913,0.89508103673417,0.884428204516893,0.88628445291305,0.868372066912263,0.854617495937869,0.855848463361358,0.85377495151551,0.848864422722676,0.833618614338889,0.834403823626755,0.835483756179483,0.833216120290674,0.836553754351431,0.819683634073239,0.819607398873175,0.818769412169889,0.821027649384712,0.813256368215801,0.802788385022713,0.807996259847816,0.811806614677194,0.814135305620839,0.832187291650541,0.781397147286247,0.779934695724534,0.774565287817719,0.756137957641596,0.757499485748009,0.757332308991343,0.751304434606704,0.743117470894237,0.746538829663896,0.750107188533154,0.750844646218751,0.767516621281265,0.745285694932123,0.725728817675616,0.726355201198554,0.726088638855217
1.14961613668078,1.15892667767125,1.16293046256827,1.16856397460935,1.18836923824354,1.22026012020175,1.22157066325781,1.22543192544687,1.24492318865353,1.24497785457919,1.25266521013306,1.25473978495332,1.28638188046298,1.30589548368848,1.30795537671934,1.31115120740771,1.33131073178453,1.36296964144855,1.36361623671277,1.36402524412372,1.39236256129171,1.39453092863905,1.42479846939921,1.42360136331805,1.42157074598732,1.41850082688936,1.41492503536803,1.41125240533221,1.40770854762553,1.40442659003519,1.40158127066209,1.39936783735962,1.39772880682647,1.39593570056153,1.39287057851996,1.38854847516789,1.3871916748061,1.38144224735561,1.37778783398921,1.3749235161468,1.36592097630775,1.3639212358119,1.36217882553866,1.35739556131253,1.35441819943807,1.35369802647088,1.34386127946973,1.33928508657075,1.33553981526601,1.33261043464894,1.32994244882149,1.32653962732067,1.32285982198637,1.31917210441438,1.31577526808356,1.31290835587727,1.31045023478087,1.30848279184079,1.30757905656164,1.30781643113979,1.30682707621074,1.29036060905102,1.29125256910839,1.29047458597938,1.2896748509677,1.28738543232632,1.27539029082071,1.26265895433043,1.25832779632856,1.24084606186264,1.2305025746008,1.21763951330222,1.21743249706387,1.21458305137208,1.20210051550791,1.18529122854978,1.18229774549222,1.18111779258442,1.17054915331279,1.16245433309577,1.15155993116905,1.14601254624269,1.14420853614706,1.14260175082677,1.1417964308847,1.14155061359501,1.14088010010385,1.13960452602674,1.13581068086459,1.13203836733405,1.13056984433133,1.1081355635279,1.10947557829616,1.10909836562218,1.10868716307292,1.08591608977576,1.0818646213144,1.08072533095948,1.076923455354,1.07406591160892,1.07375595497188,1.07272924658715,1.07281658404522,1.07087024466474,1.06680027993569,1.06168431025129,1.05704865398922,1.0549110361974,1.05484438232706,1.0088172562469,1.0090129001678,0.998970893445077,0.992084733859716,0.983711122236661,0.974741226920763,0.941080035180066,0.942352820531748,0.941422521021614,0.937434290870852,0.917706751497865,0.914827538584569,0.894771260799996,0.894545676691835,0.889247859316717,0.885800907051353,0.882513952687778,0.872880105944937,0.866437996695622,0.862331036613442,0.860627481023325,0.852346847444117,0.850988799214774,0.840479009913711,0.834046812517228,0.832784215123474,0.830015371968829,0.826990765443493,0.821360755810123,0.819954113780899,0.8181382389893,0.814928747194613,0.812332471845071,0.805067131172031,0.804610981038313,0.801115118290946,0.800868844179912,0.787305907898515,0.779189189166352,0.779088311696583,0.770813047474208,0.755771661261948,0.754333576341225,0.752138815964443,0.749305865935002,0.745369870490771,0.74342183693155,0.741233230920168,0.738638635644246,0.735880050199254,0.733285726143589,0.730045724114231,0.727661147752296,0.726609654144565
1.16711612811174,1.16925182140181,1.16904996769706,1.16946105968004,1.17053242316521,1.2051495145305,1.20220299724684,1.22301661961579,1.24883433968219,1.2457092967083,1.26591846557618,1.25795599649562,1.26755568502866,1.3039459832219,1.29958648434169,1.31074819744969,1.30476416640484,1.3503255287323,1.35296713424861,1.3599437724757,1.39841013478174,1.40352912207287,1.42773718077836,1.42814345068229,1.47983002758935,1.42037307142435,1.4146732465909,1.41302528957094,1.41365988458455,1.41271533690999,1.41235140316937,1.40659515584006,1.40016831402701,1.4009095117357,1.40209331495343,1.39366683861943,1.38634376238649,1.38498225550624,1.38656864952706,1.37985171804011,1.36593655993835,1.36497175702556,1.36439659210532,1.35959826940302,1.35496740759855,1.35458279912329,1.33394000899839,1.33987783874467,1.34391033063909,1.34565119770352,1.34463719181587,1.34577202350302,1.34473772413546,1.34737904150617,1.369623957235,1.34660105127627,1.34421519987832,1.34370710329326,1.34361689330573,1.30920221429288,1.30724824203618,1.29291439425808,1.29382279198341,1.29871431232348,1.30021214234868,1.28921471519502,1.2679096249984,1.26591762556584,1.29102598633003,1.23909770025867,1.21971894856926,1.2187281165638,1.21907377084862,1.21738424249061,1.20009617996724,1.18754605366712,1.18604689522827,1.18045142352616,1.15825532560965,1.16029775170914,1.14452027016547,1.14582248141785,1.1440737104498,1.14109309608728,1.13881308761311,1.14001007728868,1.13888855041987,1.13831043807321,1.11958666361813,1.12877555170908,1.12875919466366,1.10660270102168,1.10764787360921,1.10830638536843,1.10662437382466,1.08774265512259,1.08392708649568,1.08385114246839,1.08818067873646,1.07575224686549,1.07392444975423,1.07400093834837,1.07264921256433,1.06187698709011,1.05320710402367,1.05297214401158,1.05630836609526,1.05451050893983,1.0434072739171,1.01014942750966,1.01449965630582,0.994168120994658,0.962459304425484,0.962263992915857,0.964507301519706,0.9420114877303,0.944161522976004,0.942977778996776,0.945426927927443,0.916564183413482,0.916890802971363,0.893951666294541,0.89470515524718,0.88676618752264,0.877486566613001,0.879035061944847,0.862512182045058,0.866121220247815,0.865951011456474,0.864306970448856,0.851344917475712,0.850560743381388,0.848225024812514,0.83502959237375,0.826896088747081,0.827389431068851,0.826502023661128,0.822441082578691,0.820317268859097,0.818459731187129,0.811434873856518,0.811367877742625,0.805905096483572,0.804297885449124,0.797880956897768,0.798777322449494,0.780383690924167,0.778243117428249,0.779142625305972,0.76463982306399,0.741176756528327,0.738237936967196,0.735679706779417,0.73161886498025,0.726282231792423,0.73500408483244,0.74157045727749,0.7387283289635,0.735479748610781,0.734109833170474,0.733274921592866,0.729389717083573,0.748274811882631
1.14158944506543,1.170023436113,1.17601436168959,1.18246359654299,1.18876952165634,1.21213652776617,1.21747110575478,1.2203781710461,1.2316041690308,1.24245035079481,1.24743042228128,1.25273843682041,1.28666926426522,1.30856260509664,1.31270634290085,1.31533328921048,1.31818395462309,1.34952098776919,1.3506718589284,1.35720366787552,1.40611132695588,1.41040374155561,1.42925520041336,1.42889254836223,1.42785698766741,1.42580140065543,1.42487986552941,1.42089705009785,1.41696951101627,1.41311392504388,1.4102374974887,1.40646576670733,1.40411832807044,1.40351395877933,1.4031492358508,1.39830390987085,1.38533225655758,1.38542103848214,1.38339764799775,1.37905388197388,1.37433890462689,1.36973685606201,1.36536299719957,1.36193232791856,1.35980237946324,1.35806084660243,1.35454628646621,1.35025159377706,1.34562840115475,1.34638125665403,1.3469344588436,1.34761748572759,1.34846137014514,1.34977813605019,1.35158781807421,1.3491814465486,1.34665539821465,1.34480234361662,1.34362063569198,1.31182611231315,1.30896394432073,1.29622179450301,1.29905182202594,1.30044967524426,1.30144234472917,1.29098421961835,1.28294539550678,1.26424575195757,1.26379895044766,1.2389207615323,1.23204349893172,1.22663514321324,1.2228828632338,1.21950437843495,1.20922322118878,1.19250658209676,1.19261343981142,1.18035646639152,1.16062001324933,1.16017663468166,1.15637330635624,1.15279943624663,1.13993131649473,1.13982414699704,1.13964838846059,1.13974830716442,1.13892955203673,1.13669443404382,1.13365733918167,1.13069609748347,1.12775107746437,1.10600619030782,1.10731289673334,1.10867847439597,1.1099052647759,1.09172581969439,1.09207685746039,1.08274900164748,1.08387642387451,1.078570443616,1.07794837108465,1.07477356996957,1.07367835129654,1.05712162575329,1.05087191964515,1.045504957492,1.03906620731193,1.03287539346304,1.02760527557948,1.00639033679712,1.00132829980503,0.992585819181849,0.974151584045592,0.954360686366988,0.951424168976629,0.94194862631851,0.943611548967836,0.941504936573837,0.926965467991536,0.914872906729917,0.915179699742431,0.89460827936327,0.895463139633104,0.885212732756273,0.87644210166686,0.876926690421082,0.875224064275457,0.871188984243093,0.867475620152846,0.866592321879582,0.857014471493686,0.851666755256856,0.851253787444468,0.836009281203563,0.827510527085362,0.825216823275857,0.824128471113971,0.820773545355668,0.81960963051567,0.817907861268494,0.815164483418302,0.813789833558402,0.810662366922843,0.80149605594041,0.800567950396518,0.7956983966906,0.784944610078498,0.775680179332098,0.775985692210828,0.757143240512918,0.739555280811312,0.737494354127945,0.734447048830845,0.730655224890909,0.727270780112049,0.72558703098032,0.725534045174369,0.7248817461729,0.724653614225761,0.724288592620588,0.723767816978478,0.723179665841271,0.722472830545581
1.11875998327746,1.1697290051927,1.19633500936899,1.1937201800524,1.19542443454809,1.21602574462554,1.21905550252337,1.21751396465579,1.21357000679515,1.2403789230121,1.23953241839659,1.25036411869201,1.31026984683815,1.31101565488816,1.31690743011577,1.31793914991692,1.31904065620377,1.34882363245067,1.35091979510656,1.35612142202854,1.42528286270659,1.42863303419998,1.43313306387683,1.43020734168022,1.42857577244279,1.42787051907723,1.42715793539533,1.42750891885632,1.43634961827838,1.43339834810645,1.43412971483945,1.43078624269576,1.43261609991332,1.42297544310046,1.42689980436389,1.40530625780097,1.38507947281127,1.38921850417068,1.39464540976576,1.40310558706083,1.42515252882875,1.41125414651587,1.41011197640791,1.40547015101579,1.40059336982879,1.40008011223749,1.39858695597198,1.36837744575373,1.34580469253943,1.34699118294058,1.34789735175688,1.3506569398027,1.35026205449853,1.3528934343018,1.35419931911042,1.3524175058781,1.35292781123875,1.34557524105001,1.34401376872784,1.31782968864208,1.32223707959282,1.29809197458627,1.30161893122147,1.30168306758239,1.30430707536863,1.29368941624207,1.29442896644686,1.26403692763952,1.26441122741382,1.24034325273505,1.24090533480215,1.23388453240506,1.23888822036394,1.2205988879476,1.22192784406534,1.19826724034458,1.20028264824856,1.18109797879469,1.16345207005266,1.1625080820258,1.16391239888853,1.15676059706734,1.13654393089579,1.13871086387502,1.13938164754516,1.14003278373707,1.13985784801904,1.14373945876395,1.14782155192538,1.13606528013453,1.12441594201828,1.10625654439104,1.10709478675192,1.1080179529453,1.11281884569921,1.09730516732162,1.10275414595798,1.08209875226022,1.08211213374296,1.08081969993509,1.08177001353705,1.07498362706152,1.07306605218273,1.05281801280044,1.01871895413715,1.02137754374414,1.02078505811521,1.02153970954832,1.02168381828765,1.00227269637857,0.986212559421007,0.989586699901936,0.988067810262345,0.948737363670517,0.938910772522213,0.940247748636232,0.956944717224121,0.938754747458086,0.913538395705779,0.913419876251023,0.914268432816439,0.895633120911066,0.897650928179083,0.882724844713029,0.876339287985749,0.876447784272452,0.877152920393667,0.875820314923885,0.87812483934999,0.867724515993143,0.876014676179801,0.853227391269655,0.854547623476477,0.837278134704876,0.816489553550472,0.820091235713566,0.811020287809705,0.816759852194692,0.818419014389171,0.818688973732571,0.821975017961637,0.818110621966023,0.82330462243323,0.800147750958128,0.802622693627723,0.790747667076306,0.789802801166863,0.774518615974813,0.774363180932635,0.749554060590538,0.699159367018976,0.706874838474715,0.70112783484829,0.706082099274536,0.701505097833942,0.722999818594206,0.722870425246733,0.723970532411207,0.705206560836998,0.715245468092136,0.709054523636976,0.713103810746871,0.69771901639034
1.14369308609817,1.16891391961421,1.18898816483967,1.18988762960384,1.20361753228512,1.21793379290102,1.21783800658973,1.21684317761628,1.2212530866068,1.23963260554011,1.24383604533239,1.24715019266242,1.31211047465436,1.31183018382962,1.31807216296804,1.31993677332059,1.31967550378056,1.34745256135406,1.35421371530739,1.35591335112732,1.39197560787139,1.42814448000526,1.4306717975864,1.42978259672227,1.42916281357118,1.42835552274956,1.42809980587003,1.42721411798396,1.42771195138869,1.42948911817436,1.43039216260179,1.42708292720535,1.42285057932331,1.42087997302381,1.41669573425194,1.41624542199811,1.41723428125588,1.41798986094729,1.41857983709646,1.41733874101621,1.41501251779798,1.41242248629517,1.41123918808268,1.4083412750791,1.40620715345956,1.40278712880634,1.400332538477,1.38254591120786,1.37152380909582,1.360968283249,1.35942193755169,1.35596078303165,1.35494175542131,1.35450806512343,1.35468371475754,1.35210691791175,1.35130214263283,1.33049231623738,1.3249602167965,1.31636020498397,1.31547634389885,1.29641414458154,1.29927853644457,1.29919487073381,1.29970475272423,1.29637910015851,1.29522184904269,1.26408465450501,1.26023048476654,1.24146087568791,1.24260305106988,1.22863992994887,1.22577283291643,1.22015882492216,1.22130635202792,1.20182233834507,1.1900064556646,1.18180050609343,1.17391444005405,1.17075835765549,1.16854961795527,1.16637287607019,1.16360056064279,1.16036015945066,1.15732377963499,1.15538023164287,1.15463648319288,1.1538240655339,1.15154397433497,1.14242799200863,1.13147223076199,1.10708347382838,1.10511080299072,1.10317900600117,1.09973382656298,1.09764255982209,1.096405286209,1.08045946420844,1.08030294556337,1.07882265406503,1.0788859399152,1.06249530608513,1.05532556201983,1.0492082012995,1.03598277181702,1.02355117572356,1.01323700880623,1.00891097444703,1.00519789371477,0.998970214469589,0.991223161364884,0.977594982490604,0.968790133828686,0.945139112924477,0.937218318743668,0.93564048607621,0.934525142817502,0.935113139971936,0.921528890630303,0.911024582886201,0.910848212073046,0.887337828356315,0.885599981603729,0.879212581833694,0.877311459895823,0.877056932703748,0.876964505239075,0.877366845439468,0.878348886213725,0.863342809563587,0.860775884087182,0.853358776403444,0.85378187839391,0.83883127118741,0.829521552355731,0.818591424854204,0.817454591122246,0.81640816572045,0.817059985970308,0.816204439722443,0.813343906354734,0.814007414481962,0.813162382108089,0.797643269267321,0.797511003989837,0.786752136941336,0.786648472368737,0.771205438117866,0.76929167485102,0.742591675332031,0.723540643255852,0.716357680937277,0.717574936376697,0.719719877162837,0.721517315230863,0.722979903889691,0.723747761807291,0.724512201199372,0.724340678105286,0.723254785951639,0.720544494469605,0.717532109814858,0.71573178362105
1.16813562709866,1.16824016198147,1.1862193422961,1.1867762465966,1.22661777731537,1.21796278764394,1.21629272881814,1.21536308856173,1.23528090636285,1.23871186683046,1.24602083619779,1.24553056242778,1.3144147073126,1.31276205576493,1.32846906373434,1.32410353352528,1.31996527061403,1.34409788600825,1.35680414854088,1.35650097039763,1.35654368457122,1.42629867689284,1.42929658722906,1.42901813018454,1.42832475780979,1.42870369148621,1.42724241826267,1.42624224320875,1.42263149136256,1.42583610175974,1.4555104612161,1.42377343323207,1.42081310634333,1.4214527223779,1.40876413252633,1.4151961442503,1.41633404314468,1.41783913028799,1.41756391047472,1.41693331785874,1.41410299822253,1.41322434130204,1.41486611897089,1.41051456415177,1.41097380296933,1.40973443938038,1.41102740458242,1.39247737231942,1.40363111930269,1.36085254332744,1.36073028531043,1.35809959760889,1.35829582659928,1.3563102269404,1.35583573039439,1.35079930741803,1.34926068162118,1.325605456072,1.31746984946118,1.31483219802172,1.31267646506072,1.29205754741873,1.28960631510666,1.29591650704691,1.29845296745739,1.29740304925902,1.32916003517524,1.26360155628899,1.25725412067545,1.24134114260995,1.24447904986422,1.22535801786263,1.21885713503653,1.21931854698572,1.22243610503985,1.20524006927754,1.18314780157396,1.18122292123973,1.17834450579219,1.1792209923748,1.19423420734863,1.19033086830836,1.19501767390384,1.19100527445879,1.19989879227608,1.16246023175997,1.17500477765264,1.16113246116839,1.17429305575259,1.15040162829339,1.15856120341572,1.10784570215212,1.10518128643939,1.09970323197433,1.09682647605419,1.09680606194119,1.0947852286782,1.08001057347079,1.07528027911876,1.07708477703339,1.07717455327934,1.05572492301868,1.03543969079794,1.04552590249081,1.05333419754177,1.02462454967527,1.00116132828885,1.00166304500585,0.986629153668429,0.997756368962596,0.997806418555741,0.971037362779904,0.958023900379903,0.941638948651093,0.936420292604223,0.935114066205484,0.933248271849137,0.932208532676221,0.929354466549951,0.909654859929932,0.908247860782668,0.884992467262961,0.879953574044001,0.87788886874722,0.87811540033084,0.877361428832064,0.877745992898247,0.877690516245567,0.878600056979073,0.861647755419776,0.852895011247801,0.853012437744129,0.853961925546973,0.840123881590963,0.840637183745532,0.81982744934476,0.823787611496521,0.811402602400774,0.803338986016665,0.806011410373438,0.810866641979774,0.811963684379019,0.811651134967169,0.795682861619952,0.794824771369873,0.784855203983379,0.785035740694951,0.76833132537648,0.759871949366428,0.73665250978151,0.73530869034026,0.714955643679663,0.716445004765264,0.718795986498832,0.72170700736935,0.723195593956696,0.726032662174518,0.728673720792167,0.74427378249844,0.724042589611018,0.726897080926595,0.723687229726124,0.730992205386784
1.13174172626777,1.14446901475951,1.18428791387503,1.18457889227816,1.20486560196,1.20900305588586,1.2120289965641,1.21334546747018,1.22034854702987,1.22327697767733,1.23935104360137,1.24152492961528,1.2773780614081,1.29733341148132,1.32876277345398,1.32844378379699,1.33116431342008,1.3388720628184,1.37093801904772,1.38388783879071,1.40003276246961,1.42497618366345,1.42614751779001,1.4281602126013,1.42985632603893,1.42858090707167,1.42725523859123,1.42510558789991,1.42326316774788,1.42299102985342,1.42191989290552,1.42231753077421,1.42185098768594,1.42187331341671,1.42108903879209,1.41853249373398,1.41818907256116,1.41741110448068,1.41723635799066,1.41530409812788,1.41295418795405,1.41098586989234,1.40988865130863,1.40907168425082,1.40907302458492,1.40879455978101,1.40935441685953,1.38399738380876,1.37997160038354,1.36015774462088,1.35925048874562,1.35844528891238,1.35762622314182,1.35662305009504,1.35598357131421,1.33635116872132,1.32908349805336,1.32160478315194,1.31387624263151,1.31292363991807,1.31229158974228,1.28935285725454,1.28548102419857,1.28101160487268,1.2790448635961,1.27719644435264,1.27412307094116,1.26175628195008,1.25763320546637,1.23873105372146,1.23637555746279,1.2237627248507,1.21816782197695,1.21652387001909,1.21461253262838,1.209035666225,1.19684456219266,1.1810484401668,1.17997955938579,1.1796341314527,1.18006756493698,1.18173058180338,1.17912145719226,1.17621883354453,1.17420117409451,1.15402114420391,1.14917715817759,1.14557835232048,1.1420830235034,1.13112055045722,1.12071492167998,1.10836033524699,1.10764221742386,1.09757296859772,1.09336237147687,1.0880829005301,1.08365237501807,1.07875360239877,1.07591617089999,1.07380755123555,1.05571034999494,1.04849161702394,1.03398059790883,1.03095225385746,1.02949642330334,1.02590620867218,1.01603696965763,1.0033755577283,1.00297514850779,0.998966080680126,0.998038961767591,0.965343637439924,0.946127689451535,0.938159924549186,0.930739153505701,0.926165415892883,0.921470863198852,0.917715269641341,0.914757066365519,0.909260971197296,0.905015362930082,0.883228181307913,0.876794121716206,0.875183382047452,0.872274264297438,0.866344606141558,0.859858432269972,0.85388394965079,0.848070884783786,0.842690035327548,0.837248921241566,0.831153094412853,0.825810278304768,0.821402372656671,0.818290333738544,0.814820007077092,0.810703536251305,0.8059798705048,0.800430239563184,0.793945051243426,0.786779342853646,0.779504715511132,0.772933283752267,0.769989312940467,0.768440007062481,0.764057394927603,0.758508949913013,0.752790825368371,0.745505335074923,0.732634939392512,0.727767028592402,0.713749335125455,0.715142937870977,0.717125827635746,0.721237175519555,0.723557885932472,0.728198114796822,0.734218196120704,0.741361078443332,0.72234090719798,0.722676193461466,0.719393333795704,0.715585671182111
1.11274999293743,1.12563747395613,1.18248508084884,1.18325815928126,1.20037041815617,1.19813410546012,1.1984638592952,1.19700493976712,1.19568220332524,1.21921911837563,1.23490987547885,1.23509714532664,1.23571905186431,1.28622667384618,1.32989375781062,1.32963669694448,1.33270374839912,1.33324872076239,1.42827002401276,1.40149073712396,1.42556895559213,1.42434882533261,1.42279260054467,1.42882739530761,1.43242293738874,1.4298245884706,1.42457298727016,1.42503500396839,1.41853985476399,1.42060192145077,1.41823548098752,1.42070135766704,1.42098045101658,1.42194372422922,1.42411917550154,1.41958861565259,1.418191538812,1.41694401776298,1.41666730167457,1.41414484550693,1.40989401968123,1.40927752617295,1.40754716160752,1.40795363434418,1.4082138538298,1.40836425867988,1.42270759152777,1.37713377912664,1.34910456323779,1.35907435178655,1.35808573687548,1.35804941355692,1.33628642862566,1.34838995788817,1.35507150249998,1.32790042674229,1.31495778384764,1.31415299667164,1.31282366900008,1.31233286128625,1.31242072321372,1.28763888007995,1.28626888643993,1.27886386585129,1.25768823312787,1.26592150720308,1.26961642549512,1.25912403574258,1.25985707710257,1.23787645753851,1.21965408498764,1.22291483826848,1.22071419077478,1.21416862881015,1.21302770659184,1.21243631528952,1.21860163767658,1.18096403561465,1.18172259830579,1.17919514096717,1.1806179872,1.18046692439173,1.17999737631263,1.17625921632594,1.17294569365058,1.14910375742448,1.13622462914481,1.13874675730868,1.13909017592864,1.12430083164528,1.11185791310777,1.10986942982577,1.10968516712415,1.08710002366114,1.07097457240262,1.07211817172574,1.07611093202919,1.07689244824126,1.07467664290516,1.07139439051203,1.04663221649587,1.04166036980048,1.02675675378282,1.02727004448826,1.02910393537367,1.02836577093653,1.03240204168337,1.00483095944762,1.00534396370914,0.998057920613393,0.999117287184951,0.96097595076611,0.932344532801025,0.93108063183881,0.918840207587722,0.915253851162819,0.903624582770948,0.901774965915835,0.898500772941487,0.897830183093839,0.898975616831086,0.872169077373567,0.861609791635468,0.864994561772906,0.869227451784214,0.861989220319737,0.852474879342951,0.837740763291357,0.80549960853329,0.817133273149996,0.826676153479718,0.818821235517617,0.785690017929651,0.787349349597222,0.78645225235542,0.783526758528687,0.773820503567034,0.775913003790067,0.777194798768878,0.775622686901217,0.764303781780741,0.764099464137954,0.761340116526072,0.763338561692944,0.766766372147742,0.762278345739823,0.7412625367443,0.747947777320617,0.70574914994705,0.71411618834303,0.71393064938105,0.713315597149456,0.715287599170155,0.715968010429802,0.741244079172528,0.742391694581682,0.742384756780216,0.738865875173321,0.744331939987331,0.721730845192673,0.715821435478535,0.716713497342474,0.715078865177113
