1.36901426328239,1.36976122123867,1.37771714043599,1.40023499606569,1.39981462630205,1.41051608827745,1.37820668582587,1.37596538469383,1.37955270837335,1.38359043643052,1.38790178928074,1.40500769464497,1.41238919113289,1.42247281606755,1.42314084189379,1.42317416227077,1.42287307239749,1.42165029410348,1.41985811082614,1.41887715353995,1.41964572746067,1.41548125968159,1.40889178848186,1.40436913320113,1.40080969003407,1.42264357584713,1.43130448330841,1.44575583390623,1.44195367465702,1.43963031899336,1.43093974376565,1.42986288604064,1.42710745085563,1.4265035622674,1.42766044463773,1.42680307777655,1.42589171627986,1.42503196647692,1.42105628316679,1.41598903435264,1.41139200661281,1.41433844461841,1.41766590483936,1.42011493149997,1.42166609957579,1.42237017058842,1.38858354391595,1.38590288255696,1.38537990297432,1.3864967783685,1.38761585377615,1.39123331865403,1.39395374523509,1.39446467455685,1.39616182439173,1.39480328429448,1.39413270290268,1.39426690122682,1.39232604272371,1.39161826291995,1.39141407321223,1.39156946675709,1.39398083502393,1.39280965481205,1.39457227513456,1.39309193295207,1.39330388919867,1.40742827197506,1.41484280827101,1.44315663741184,1.44326011745128,1.44258065228294,1.44147733022845,1.43993685041204,1.43815091595267,1.43688918315456,1.43569178484008,1.43256057816043,1.42913090829526,1.42772394555021,1.41981545864823,1.41969425743337,1.41702163099464,1.4322784028107,1.43576065765292,1.44047799412074,1.41453441055711,1.41505163699171,1.41596632240804,1.4188060506093,1.42171986728362,1.42443555347625,1.42607374930294,1.42719343842084,1.42678288339257,1.41447204165568,1.40004337966863,1.40219740989142,1.40369176751954,1.40744079675866,1.41322881713015,1.42204913536183,1.42425489778391,1.4498686066068,1.44648813273389,1.44832209338268,1.44775889595584,1.44639417101738,1.44606016668828,1.44481072126164,1.44321297256573,1.44237974234352,1.44077132033343,1.43865001551962,1.43917921325201,1.44060295722764,1.4426282931475,1.44314174013974,1.4426680625666,1.44002672827508,1.43771814228046,1.43541308815974,1.4352442535305,1.43675605972887,1.43827465590637,1.44158645635573,1.44274671607657,1.44468328981355,1.44615221822717,1.44916510272508,1.43680431642768,1.42706270110552,1.4045834686321,1.40331148923933,1.4035082675515,1.40779110870078,1.41370026798916,1.41534581152417,1.41940809470883,1.42220518257853,1.42596692772916,1.4374120607016,1.43970140254856,1.44209467203866,1.44546895443339,1.44790059078296,1.44964177865774,1.45115565993181,1.43153203736632,1.43245472138346,1.4337931644231,1.43665939027314,1.43980635583615,1.44129265075501,1.44367204128004,1.4482563530822,1.44724748176371,1.44672188838929,1.44955985947445,1.44997056821665,1.43046861490063,1.43022231715347,1.43046974822654
1.36709215822556,1.36647717357099,1.38040367909117,1.40231642398898,1.40061117117589,1.41737413795253,1.38511043785913,1.36273357516242,1.39319966831075,1.42081914614533,1.39106295214109,1.37500371307659,1.40437460721551,1.43442247047078,1.39718526702564,1.37204339439154,1.37144219771255,1.37230459223687,1.37779671960729,1.3837911723301,1.42545062996361,1.43824919194906,1.40229492064162,1.3826110900911,1.39799493494863,1.44742445354977,1.43932080125854,1.44779920142134,1.4384014491766,1.43640700085607,1.4340606778161,1.43482231970256,1.42347621197036,1.42208043995062,1.41493231642751,1.37970491774241,1.40507075843779,1.43060930990974,1.4242430950603,1.4443498766166,1.40462144054295,1.40126959113034,1.416824218677,1.41955282398305,1.42083373988021,1.42171632654108,1.38449902137908,1.38216106562225,1.38226950453673,1.38281049210573,1.38313777104956,1.44052004729862,1.40012375069009,1.40826844058007,1.40172123599453,1.4261621752688,1.39534621336614,1.39873953282302,1.39052671239819,1.38888795021313,1.39037295725556,1.39069150179392,1.39147457895997,1.39047552100058,1.39219823440302,1.39220502485458,1.39207011309,1.43174819632416,1.41774201152793,1.44300760678171,1.44305712325172,1.44208985884031,1.44097172461027,1.43960998015413,1.43689027729354,1.43380709076278,1.43411826616163,1.39703769005143,1.42738409295202,1.42579214845173,1.42183530022853,1.42083147879395,1.41781551763786,1.42857299007214,1.43208488294963,1.44261798179612,1.41443424221479,1.41591725050706,1.41516338836534,1.42479362246098,1.42141402574914,1.44666800713282,1.42774140655904,1.42942037153863,1.42673846791006,1.39130708979328,1.39633823802225,1.56460999999799,1.39796076651642,1.38687363262639,1.41088295564966,1.41995336263482,1.42203709885352,1.45158720481279,1.44319065418812,1.436993965898,1.42665636190331,1.38880965672481,1.44160052202967,1.44469099213265,1.44284120856292,1.44355237353269,1.44334016017813,1.4459399382147,1.42962022417611,1.41793810007766,1.418315974213,1.39568356231819,1.40060939754523,1.39556584836695,1.43451578772554,1.43403202260744,1.43438254495984,1.44207010208948,1.44010369972356,1.44600998396495,1.44379030271338,1.44596318341191,1.44562441646101,1.45698696303261,1.43260763800334,1.42260562308306,1.40642316928912,1.39859856548631,1.39970134619155,1.39734755866994,1.41058717095835,1.4097259716715,1.4212884184253,1.46036402809491,1.43107517241302,1.43479741955929,1.43615571934423,1.39851290872187,1.44376934484004,1.44646854014303,1.44874730163368,1.45321347161493,1.41806008001447,1.39937934340727,1.40549735840849,1.40812357003253,1.40903130750567,1.40233556571239,1.43680611253127,1.45118771711468,1.44932195266577,1.50356002849702,1.45318633524963,1.4562275523828,1.43187512992268,1.43075149671172,1.43184199063005
1.37859960314787,1.38112669494916,1.38419138818166,1.40005342869947,1.3991839211485,1.39854112199008,1.39935439066883,1.3999985862983,1.39959914434911,1.41014135546401,1.39426762028402,1.39110838169075,1.38568094909464,1.37853669618878,1.37269785011809,1.3713975633998,1.36995978948716,1.37118028381128,1.37235452007487,1.40215740905735,1.42977656701571,1.43367064271109,1.39751886290337,1.39420055170523,1.39550267607247,1.42346612473175,1.42352692816075,1.42324542122846,1.42262157381676,1.42177645606959,1.42094427586785,1.42018182382533,1.4214514067562,1.42173498715775,1.40262238849485,1.38232434837907,1.38530578717831,1.38877416061639,1.39274820379888,1.39719491015461,1.40207134052622,1.4054881879141,1.41359805538967,1.41667594402453,1.40653016838088,1.39688733960488,1.38187935366933,1.38073740765978,1.37968017893163,1.3802951015175,1.37974288159599,1.37851321192097,1.37727546800273,1.37724351828285,1.37863481811637,1.38109804905215,1.38344820643543,1.38562497369062,1.38797283190863,1.39121263036347,1.39234767341958,1.39244674393668,1.39220587913838,1.3908219751639,1.39243792452829,1.3929959739385,1.39334531363058,1.4099150400657,1.41113527273593,1.44353187055315,1.44316201578009,1.44207337194645,1.4403473770056,1.43754932411288,1.43594018243712,1.43414649136763,1.43274627978894,1.43020927794687,1.42737838138648,1.42435584979459,1.42027243447652,1.41980508747603,1.41787789004026,1.41575531149858,1.4138289825629,1.41311879407965,1.4138673842323,1.4150040988843,1.41617768176499,1.41853433852467,1.41859445609739,1.43101775898387,1.42915076042175,1.42927852027977,1.42812289917599,1.41826889713739,1.39367066211401,1.39256532693805,1.39199931213147,1.3886239393358,1.38575190084888,1.3826868359898,1.3800089431267,1.37930604275223,1.37868177608106,1.37933947487879,1.38037044730719,1.38392409063875,1.43539917078891,1.4359042053489,1.43685270190239,1.43474609463374,1.43098734325989,1.42814019645936,1.42635069227894,1.42088689087555,1.41979648358519,1.42028535922567,1.42201746043644,1.42452119005588,1.4323197076481,1.43310137422097,1.43264600522816,1.43511248159406,1.44028717403391,1.44374777090981,1.44099372324063,1.43604876144686,1.43200150393031,1.42960726858925,1.42825144838249,1.42639960939575,1.40947725963172,1.40427480153096,1.40904893366496,1.4114009755018,1.41425567925668,1.41899446025337,1.42459345037728,1.43243799464096,1.43242326496089,1.43420175505594,1.4350748379881,1.43690236971909,1.44042991835558,1.44259829658214,1.42854914028978,1.42399161946361,1.41422272936448,1.4006844021618,1.40370980676572,1.40702545154197,1.41028143937137,1.41341740674148,1.43040314635911,1.43965193996317,1.43760684335593,1.43592800910769,1.43557730961915,1.43647459337205,1.4355475170094,1.43624765934413,1.43498963378975
1.38537919727552,1.3970269909248,1.39197940195357,1.39918552506085,1.39845259896653,1.39872249576556,1.39919635281507,1.40231636350991,1.4005475483188,1.41919103935582,1.40081112012849,1.40748987593231,1.38193912556318,1.35911679387928,1.3603872083294,1.35924113391864,1.36587613785496,1.3619685637367,1.3677918892636,1.43285099379787,1.43183968671036,1.43553039649841,1.39491014475458,1.3922789575934,1.39419154479749,1.4231664904009,1.41386537306819,1.36735408516056,1.39341057948504,1.38078880327684,1.41099437125999,1.41806591686312,1.42055365920182,1.42198744474133,1.39356673142097,1.36816249982291,1.36796381227964,1.36847903936408,1.36831409570552,1.36940483077027,1.39211922293521,1.42431335083209,1.41484412209132,1.4167438651119,1.391628260685,1.37029981955127,1.36999654849415,1.3714993036536,1.37259371517874,1.37035136307146,1.37823884058229,1.37975591922859,1.37642753997288,1.37449101409087,1.3741930624866,1.37512019868488,1.37645708720382,1.37809993674199,1.382984835179,1.39551761168116,1.39525843632168,1.39674312083558,1.39345499398398,1.3885916901022,1.39430553568046,1.39579229395031,1.39561167490474,1.39619285307576,1.40783045006238,1.47125003577706,1.42032633019399,1.38161427592527,1.41777957856608,1.43427018556403,1.43480528378674,1.43421734252968,1.43240899325963,1.4304257199879,1.42626158378627,1.42398693878287,1.41439833140952,1.40265628440347,1.40248899051808,1.38498076619393,1.39144545874163,1.38952455263067,1.39251393501512,1.3892338331561,1.41574499239224,1.4162646192,1.41775958878012,1.43329295604983,1.43029787450978,1.43183485269769,1.4286262687535,1.42923651165978,1.38932106082183,1.38111391743011,1.37996009943873,1.37968158862844,1.3790124960398,1.37855093781687,1.38039454493561,1.38281278003839,1.38156477095267,1.38175456866635,1.38116963428628,1.38212597702105,1.43220385678072,1.43452375165226,1.43685746459096,1.43727319209576,1.42575699543504,1.38433324923732,1.40441933848038,1.38315555537605,1.41926314348543,1.41933313262686,1.42053132233828,1.42797516983315,1.42816816128166,1.43470285085783,1.42722845910985,1.42179086505986,1.42674909159458,1.4480341667192,1.4289231198523,1.40407801489612,1.41562481200407,1.41490484143128,1.42317688224297,1.43544223411592,1.41350875326655,1.3874438306648,1.41646314991802,1.44049521505388,1.43878850475394,1.438982341024,1.43303499750204,1.43582081707703,1.43348055325506,1.43482969348259,1.4345148273959,1.43505473728699,1.43765039294637,1.44419866647553,1.42320328979503,1.39540273472973,1.39709412277764,1.39388857131295,1.40308053702762,1.43516711208889,1.41230078155047,1.41771336046854,1.42399074183515,1.44145940233429,1.43067205710817,1.39455435444652,1.43031341767271,1.43947330150812,1.4392399271809,1.44212829585832,1.43717658423695
1.37170242580474,1.3759603967986,1.38047913620576,1.38472615308159,1.38918422512348,1.3938385454064,1.39749005715055,1.40036109561643,1.39156518681416,1.385219009957,1.37917984974358,1.37365523758956,1.36830108623462,1.36012584061273,1.36188225631012,1.36401884312,1.36644807876335,1.36485547909721,1.3650852181296,1.37580236802539,1.38811758968347,1.39353373790105,1.39446452460502,1.39356419251701,1.3944920297292,1.39595528203918,1.3968353968787,1.3995126184652,1.40348446496921,1.40433282038374,1.40515101586923,1.4061152451673,1.39321165840216,1.386661876707,1.38169697944253,1.3672004637096,1.36766164287136,1.36770195806017,1.367587078037,1.36664415720629,1.36404096610946,1.36249163700296,1.36232991422068,1.36226518777701,1.36427494981115,1.36748911074074,1.36889561162375,1.37073690716166,1.3725972589087,1.37343898723487,1.37560363990834,1.3765032218339,1.37502479942406,1.37419901530557,1.37407135942239,1.37464277416742,1.37590199390653,1.37715906871211,1.37913996289711,1.3964254161601,1.39772305350101,1.39631753018676,1.39686980551689,1.39656421432264,1.39732231483871,1.39691086562219,1.39829457835363,1.3986248752756,1.40803902598436,1.40895084569456,1.40723015703677,1.40698419986682,1.4089060819733,1.41031601899524,1.41157389472642,1.41202735070232,1.41158701806139,1.41079803996674,1.40996026747682,1.40905754833263,1.40914551988677,1.40507089157002,1.4032060427044,1.39951512711604,1.39609535268993,1.39268351328538,1.39773406487842,1.40344475429636,1.41493810693538,1.41492134518711,1.41549202318782,1.42696525609865,1.42882540023595,1.42966375762606,1.42701615437855,1.41460490837175,1.38391502514026,1.37987116867796,1.37938999755764,1.37905944224431,1.37911657532421,1.37946209364308,1.37988244285131,1.38097271436046,1.38323376368404,1.38172131999596,1.38020634079106,1.38068142769086,1.42627467630706,1.43199636727699,1.42765370506605,1.42236382589021,1.41798692723581,1.41739060755321,1.41779543681861,1.41893075055709,1.4200868243011,1.42090778359267,1.42222645212493,1.42318918847232,1.42372964416445,1.42091162322856,1.42118459004571,1.41875463171626,1.41594460332353,1.41316861252476,1.41244254803383,1.41342092389275,1.41590270314577,1.41699949968903,1.41938403366168,1.41878993203658,1.4175728192374,1.41919189622717,1.42296565374327,1.43456450211879,1.43647390307914,1.43609551859447,1.4316716100307,1.42982698062179,1.42858977835613,1.42693742425236,1.42522274059137,1.42350356769206,1.42184791486869,1.42172202305489,1.42203910683294,1.40926626360487,1.39995540316203,1.40115349967624,1.40347035349602,1.40653792461813,1.41039713008257,1.41292608441853,1.41116961119278,1.41090433114699,1.41151881420835,1.41250543346456,1.41888041925933,1.42274740991324,1.426238795955,1.43166350729414,1.43523026396273
1.34910526728443,1.35198545194611,1.37335214131417,1.38385711605047,1.38822036558438,1.38970116261657,1.39895112410735,1.40192164317939,1.38632481883484,1.34787551518008,1.34847363704208,1.35188997189521,1.3498566318477,1.34977597184218,1.36270749320877,1.38342637075752,1.3721139869348,1.43471007480638,1.36406992253177,1.35598798930352,1.38288579545558,1.39838725333442,1.39711979518406,1.35723401987553,1.37910451890231,1.35791448401543,1.39453272400365,1.40862335132832,1.40588729042999,1.40620754907395,1.40543279612999,1.40579031993899,1.38865331529161,1.36070124185928,1.36220616113538,1.36649920871089,1.36842819600811,1.40604991502955,1.36858212845059,1.36239240587042,1.36313885209491,1.3621939570558,1.3633396394503,1.36127179042504,1.36386368599368,1.36130765908981,1.36839488716919,1.40233664917748,1.37324933866515,1.37614895659474,1.37509810528924,1.36312493520959,1.37309353458965,1.40706898930542,1.39421997397426,1.40604770521416,1.37545619055593,1.37525960008257,1.37670128635475,1.43369828345949,1.40292877125508,1.41300927176331,1.40104594299885,1.40577944522779,1.40158714525949,1.43341079451898,1.40126883151076,1.40360630198486,1.40528390330143,1.41497214049969,1.40599721316058,1.40580275641835,1.40341111122905,1.37624027857928,1.37742316211051,1.3752262122349,1.37752355959579,1.37532116528397,1.40714300360391,1.40869043771649,1.40758984856184,1.40609961990584,1.40532618664423,1.41918662789058,1.40162874757068,1.38763870561139,1.40304972085881,1.41088446684714,1.41242711557484,1.41351412470219,1.41379910073834,1.42722681837972,1.43009211955831,1.43241249443355,1.42303267373512,1.3774639067362,1.37965610085066,1.37927225465798,1.37895922837051,1.37841288623696,1.37929503890251,1.38075002116079,1.37923667853498,1.37784537165189,1.38835902378723,1.42907609141907,1.37858574298341,1.37507183187986,1.41987415670898,1.4382560623246,1.41972902674149,1.41119392231894,1.41495891456579,1.41692282186014,1.41676815614842,1.43414068273777,1.4198593622565,1.42544866524274,1.42140214576329,1.42254153615967,1.42049151818286,1.42034498923444,1.4182905017329,1.41741902369337,1.41396677538564,1.40035516201462,1.41086835096414,1.44036937011078,1.41684604759505,1.41891446591915,1.41913947312954,1.39259504087137,1.41852509990483,1.4304719925623,1.42737996510375,1.43323172315861,1.43555815851525,1.43651533904458,1.42749970943119,1.42356387160854,1.42232843247648,1.42155559809116,1.42088598386164,1.42037547357974,1.42079363141684,1.42086444464235,1.42147559922478,1.4211086453663,1.40318527743035,1.40193072443305,1.4042347784896,1.3840233934592,1.41052751857898,1.41397126164724,1.40993376283808,1.40833490680829,1.41079927172884,1.41479608530829,1.41517280436796,1.41565596070071,1.4235006563112,1.43385635351183,1.43500356698798
1.34768079439729,1.34953309435916,1.36281336197586,1.36959489672714,1.37719348150865,1.39398965785731,1.39849486752652,1.40074449030318,1.37528462267536,1.34695512465245,1.34629763626499,1.34882628674388,1.34835386707723,1.34749475492389,1.36361224771751,1.36754093635291,1.36783982612971,1.36605439354103,1.36284664888131,1.35886325901428,1.37964459885268,1.39873176624912,1.39869390019958,1.39756222149873,1.39619053656844,1.39415685308979,1.39106099004979,1.38463598198541,1.37804591489544,1.37195308320138,1.36692377734315,1.36333354989375,1.36123688844217,1.36037844719788,1.36095584880075,1.36265641872338,1.37135378929562,1.37239726344637,1.37048001798344,1.36961630624523,1.36781450928303,1.36873959158268,1.36856106806857,1.37040999291968,1.36855337912028,1.36930055476249,1.36926079645418,1.36973061659248,1.37076413889137,1.37187149013398,1.37234732452901,1.37147627557844,1.37155273034845,1.38607773423739,1.37957442516814,1.37676201433198,1.37556030141056,1.37532494580973,1.37629925817181,1.37803058098899,1.38253850298337,1.38764697428903,1.39310730509203,1.40077929275718,1.40156148202274,1.40231250607077,1.4022844436104,1.40289445815103,1.40304548173334,1.40140994326628,1.40141444891886,1.40159149704966,1.40156803973303,1.37864067053062,1.37958315090676,1.37900870348516,1.38076473982817,1.39543896159027,1.406480970617,1.40716034184715,1.4080902839827,1.40836734049043,1.40933857313657,1.41138271084748,1.40785833854154,1.40832407262678,1.40828877164808,1.41115082518479,1.41195186354974,1.41139161335358,1.41332640200268,1.41445419553418,1.415529161583,1.4177183586678,1.41893720413714,1.41742181917855,1.41625280414469,1.41235639593646,1.40939882704165,1.40720697507793,1.4052232626572,1.40370118534523,1.40239670934587,1.40046981670466,1.40237848446128,1.40448997485641,1.37982975427061,1.37770179022291,1.41395073875033,1.41787110571169,1.41606390669557,1.41335134759472,1.41456031455839,1.41700783566107,1.41679577153653,1.41647126533936,1.41804263462081,1.41954249284351,1.41995012698354,1.42119766079788,1.42046752112167,1.41808561948934,1.41751558734038,1.41565995875366,1.41274102447225,1.40315674749608,1.40756708557487,1.41183565634833,1.41582167561718,1.418573000692,1.41971357916857,1.41995140158511,1.41891559092692,1.41765684719731,1.41674952747795,1.41660080536219,1.4169451842587,1.41896748230289,1.42054981124054,1.42182839355554,1.42197963664232,1.42181083812586,1.42070131175478,1.41917821585092,1.41643550368555,1.41299650665479,1.40980555748621,1.40773761994233,1.40579895325341,1.4050386374839,1.4073942813428,1.40714821178544,1.40731983320946,1.40724562597261,1.40699701031053,1.40819645610277,1.40941406140639,1.41129585807819,1.41260039666593,1.4152905515509,1.41675161674554,1.43309001930581,1.43169688252138
1.34260750954657,1.34395515019177,1.34592707759149,1.35170754137628,1.36294109876593,1.40365791333169,1.40155571940432,1.40226628287387,1.36247083837594,1.34076228231998,1.34102332183553,1.34025687646534,1.34798853959076,1.34463797043714,1.36526553718006,1.36789186845185,1.36729887589408,1.36882284099715,1.3644610333279,1.34710652457582,1.37853209099266,1.43079985433871,1.40138701637112,1.40401707478483,1.40295253631148,1.41912655940901,1.39004929303069,1.35527626819201,1.35356100094866,1.35391536086873,1.35233072851102,1.35311848612382,1.35136166920318,1.3519864924776,1.353310533205,1.35302325972475,1.37342948194926,1.37549373762056,1.37262307443082,1.39313245738589,1.38268851809552,1.39172430679872,1.37186689868025,1.37430149521217,1.37237484842495,1.37407779795169,1.37180549700661,1.35489013496381,1.36733988978719,1.39023260477862,1.37214495919334,1.37198386197718,1.37134710066747,1.39099832467136,1.37654956551743,1.37663828731814,1.37243389145927,1.35688839067723,1.36945954564757,1.36940093048461,1.3824150970307,1.38736696579604,1.3901822374119,1.40162824048513,1.40170684607633,1.40338352544451,1.40234836830014,1.40435157421669,1.40096854590834,1.39965157528738,1.39888432970558,1.39853672084497,1.39829663302201,1.36754794382179,1.38072633808615,1.3810279938412,1.38622517623877,1.40542720245828,1.40476969855655,1.40635989348122,1.40746101466961,1.41116655282018,1.41009201232272,1.41216805696031,1.40948353892739,1.40918133095748,1.40922355802995,1.4155780736936,1.41113484588837,1.40882864707113,1.41182435462499,1.41451659818163,1.41477475656055,1.41685050103997,1.4176234273323,1.42895160091085,1.41857619254855,1.42440934239615,1.41333180342613,1.42064717722729,1.40498231442703,1.40527039430116,1.40364542806241,1.40951852857869,1.40574523988017,1.40915536936664,1.38468537205773,1.37679545819158,1.40696480894012,1.41869176944348,1.41556893500989,1.41209393995892,1.41135040100574,1.42083916862103,1.41658884099106,1.41613915869035,1.41506334725844,1.41272137604064,1.41535267573859,1.42542518982456,1.42014505546127,1.41778583960818,1.41794153304267,1.43668438675201,1.40993973878878,1.40256358633423,1.40139548762583,1.3914789839241,1.40606823732743,1.42032733341792,1.42072692680873,1.42262794223101,1.41515383438147,1.37258739361708,1.41297152076026,1.41282875798454,1.41658208350407,1.41970406281673,1.41316893924687,1.39117477361584,1.41774370107357,1.42399672751961,1.41853713564638,1.37185632825536,1.39820807971066,1.40236965393093,1.39309206247823,1.37530583039398,1.39442855655083,1.41536675665432,1.4117006289061,1.41906148725739,1.40518494783745,1.39804819703421,1.40210609163344,1.40003602137323,1.40678692618385,1.42998877593327,1.40831950921981,1.40670988401228,1.41231361848208,1.45517705920382,1.42980230802786
1.34215524363448,1.34180991923243,1.33822241389093,1.33485487481766,1.33254510347237,1.33084375736599,1.32937800645381,1.33064042836038,1.33281119632939,1.3367379347964,1.3371614311451,1.33828375295172,1.35228430854364,1.35980188552375,1.36603180680988,1.36631783837511,1.36643188695537,1.36660958671063,1.36237037181599,1.35148571932848,1.37537667363063,1.38691329900678,1.39103909429993,1.40247583451257,1.40224391116044,1.40270688606426,1.38837074724204,1.35322391086227,1.35168680858116,1.35189116503927,1.35056924866234,1.35078415924779,1.34950446048048,1.35048249719079,1.35402256512616,1.36840046666306,1.3734845680735,1.37402609360335,1.37321545094212,1.37513478511925,1.3754227955975,1.37459713065602,1.37355221239426,1.37393062092859,1.37439757653139,1.37400764462215,1.3739175056245,1.35786465714533,1.36359861301219,1.36535360038724,1.36677746140194,1.36972598101307,1.36940762888094,1.36882784630228,1.36853045096188,1.36906714989161,1.36977754265921,1.3695024385753,1.37010352572787,1.37338352297302,1.38047447004113,1.38532527344103,1.38964487563516,1.39532139547484,1.40011377381613,1.4029806063512,1.40046889937647,1.39993161437216,1.39872023421084,1.39757827758308,1.39696544978014,1.39542606673952,1.39558703189205,1.39414454039864,1.39388286612074,1.39324581210166,1.39211355938171,1.39528712552964,1.40109801017087,1.40408404124923,1.4057466491132,1.40706976917279,1.40861028270575,1.41009660026182,1.40987537689646,1.40960195024929,1.40989693749379,1.40931367093257,1.41047895763735,1.41040182779552,1.41161421056842,1.41183888120483,1.41106910093805,1.40928425904804,1.40764592542698,1.40862038047681,1.40896503567824,1.40931657537339,1.40870952921759,1.40578054240875,1.40403969318654,1.4028628373956,1.40297583355262,1.40132074836809,1.39882273625045,1.39524844129322,1.39072286407842,1.39494199511378,1.39873309432768,1.40156800587227,1.40440629620544,1.40769140060358,1.40949798125412,1.41246101775752,1.41432365725531,1.41491604107732,1.41536927610344,1.41486260376495,1.4156706018202,1.41634437230571,1.41692462236856,1.41795057576429,1.41992293003635,1.42315017099698,1.4084104358233,1.39947020448247,1.3997155942958,1.39727446774186,1.40081326369383,1.40428092445228,1.40699563220943,1.40842648130683,1.41078405646693,1.39067819556251,1.41220110288798,1.41166331125599,1.40920700638852,1.40820768850996,1.40675136879998,1.40764899987961,1.41063946096094,1.41429509312506,1.41580719502483,1.40372670645593,1.39399542007825,1.38946906883956,1.38509304434378,1.38032760938837,1.38640356715816,1.41226006579437,1.41140999898641,1.40860748827558,1.40499223376988,1.40262459796528,1.40249529255476,1.40189921578489,1.40372111331417,1.40479306708016,1.40602271263578,1.40705788816844,1.40950321588629,1.40960102480641,1.4107903725028
1.34167055860674,1.33178451713341,1.33452059009731,1.3326298367454,1.33246307136953,1.33059974643106,1.32867537050007,1.33040240320475,1.33151626461369,1.33173157545308,1.33384055799722,1.33293764694069,1.35752661044784,1.36615474979118,1.36584511761936,1.36745700549495,1.3663003174202,1.41049733376018,1.36025476602594,1.34299398594366,1.36880640464233,1.37938135958091,1.38690573307008,1.4000651630894,1.40173209430188,1.40387321628546,1.38634916055327,1.34781048594426,1.34869316090794,1.40157998338206,1.34816309766873,1.34338940968137,1.34615228814231,1.34380486959773,1.35489690402735,1.40857728895004,1.38728445460224,1.39849690952614,1.37171437364969,1.37004805957265,1.36237644447877,1.34435725973274,1.3463253732726,1.34376953611966,1.37625560756588,1.38236627957383,1.37365737577381,1.3568179661052,1.36311335755094,1.34689181429332,1.36575642377776,1.37146017974919,1.36149292207873,1.34382494777223,1.34329126816369,1.34373216232184,1.36069083553394,1.37055859091045,1.36995284958492,1.40868878590991,1.3651972009332,1.34985580455436,1.34942719130861,1.35199139026217,1.39955927549941,1.40776578670298,1.39684761356067,1.39369035625531,1.39609521006284,1.39601123643249,1.39459876579486,1.39246818182659,1.39381287358304,1.39486857324814,1.39375003104077,1.39485885266153,1.39331331218539,1.39449770379143,1.39632659907159,1.36416688018917,1.40351823340677,1.40371164870702,1.40619945763406,1.4924500173404,1.39364283566469,1.38074277379277,1.3933555509894,1.40766750658864,1.40993948677507,1.41179840733396,1.41120353302743,1.40986498655529,1.40745698953612,1.40418763260745,1.40487712048666,1.40302103231788,1.4042592391364,1.36670624934734,1.40126067533609,1.40330740958109,1.40211151390807,1.39867514557568,1.38671769372365,1.36212777902069,1.36044339230704,1.36090885656823,1.38810042268333,1.40949364536505,1.39670794760011,1.38633825944624,1.39873764239146,1.39995852026436,1.40504430467379,1.41374069631455,1.40741259480956,1.36067104087151,1.40542703601163,1.41648002308753,1.40662277259688,1.35584442484315,1.37582747508941,1.37034048603731,1.41027080292742,1.42937637439252,1.40825622364226,1.39617867889441,1.40035277100257,1.3591936722529,1.37787274343252,1.36105127387407,1.40711538743187,1.40553559528527,1.40871504211877,1.36139224128695,1.41109399070936,1.41105167623566,1.40771514332782,1.40389979562139,1.40474305479103,1.40418365041514,1.40736584017897,1.41600726777127,1.41427981678008,1.41120593303806,1.38889761990666,1.382388660996,1.37955053646431,1.36752515228206,1.38250530794666,1.41206651207428,1.390996320487,1.37113174470531,1.40388407189999,1.40447810452509,1.40329270553256,1.42177946365521,1.40257545533874,1.39789711777016,1.40494626585795,1.40681356000984,1.4083509556536,1.40908801380869,1.40777826926541
1.34974733586566,1.34685523174888,1.34527201816213,1.34523308134842,1.34652707905537,1.34818958684741,1.34787364126629,1.34802940783075,1.34928065108131,1.35149138098189,1.35430539839656,1.35746798918639,1.36098268109863,1.36394606906003,1.36498125493378,1.36512118163969,1.36651293241692,1.39208649719469,1.35905199026227,1.35477307292593,1.36042375673178,1.38007106810607,1.38022017559792,1.38026066674031,1.38171554794079,1.38454740956013,1.38461578537078,1.36928255621721,1.3478497221513,1.34770276754986,1.34695931263347,1.34542565675899,1.34851979720158,1.35192799948407,1.35741418955033,1.35850727661384,1.35681198585673,1.35437304043317,1.35244787715742,1.35096282716551,1.34968448298447,1.348275855193,1.35070837384425,1.3632859572643,1.37766589257151,1.37857775405151,1.37474374854067,1.37109581441082,1.36776847329828,1.36445174430323,1.36151379339244,1.35421971868739,1.34855941956592,1.34466141749209,1.34246965869436,1.34257598716296,1.34162763901014,1.34117149424668,1.3414135345468,1.34186788374456,1.34317547603988,1.3463127372108,1.34674744201409,1.34915966271539,1.39774401923542,1.3971273875047,1.3956790113686,1.39533716632709,1.39557962233616,1.39508144244243,1.39417516676966,1.39401067894987,1.39356615438312,1.39313335946402,1.39384656423299,1.39522989395642,1.39358198080739,1.39336709336227,1.39577879306013,1.39906711727776,1.40120575763596,1.40120725148831,1.39841285194492,1.39492722104548,1.39235510421315,1.38872506083667,1.39253706515003,1.39572067124388,1.39810587025338,1.39964792819668,1.40074269492368,1.40170790290987,1.40434309141155,1.40520533948648,1.40523820168302,1.40455479525027,1.40438212031816,1.40343833497001,1.3991696220451,1.39477992441545,1.39401827796785,1.38312080839412,1.37222289063982,1.36016481527745,1.35873099088556,1.35974611311194,1.38565691334095,1.39347478459777,1.3936842231367,1.39205816569688,1.39625135753281,1.39745874543134,1.39602637036438,1.39454404267093,1.39348694372772,1.39367954732631,1.39344302670598,1.39308429915211,1.39069093265263,1.38185999967012,1.38107080616029,1.38305605008878,1.40583758354385,1.41079167031222,1.40916556161172,1.4076594594798,1.40569740893961,1.40717001362919,1.4078073597447,1.40761877217551,1.40770801180724,1.40763021950829,1.40821372851367,1.40820878488557,1.40926841069958,1.40903028528895,1.40610356236266,1.40511407915029,1.40394498359031,1.40145556536413,1.39912010356891,1.39611250056608,1.3925279140073,1.38857850199878,1.38453534700767,1.3804615795265,1.37663017573483,1.36911426150371,1.36496226687152,1.36421433114466,1.36450228847094,1.36794732530229,1.40204204682855,1.4029286731155,1.40330283095678,1.40322534422483,1.40271928441541,1.40252540743694,1.40461281588844,1.4065470288828,1.40855733473761,1.40842159873164,1.40742118862973
1.36391411476804,1.38595513634774,1.37552190543497,1.38138428247268,1.36101010506795,1.35044868666479,1.36137210831803,1.38069755349647,1.37958544666228,1.38584916698802,1.38450493976975,1.3853898982855,1.36478136370864,1.3343087322664,1.36514831221346,1.36223776083104,1.36820181637335,1.40797732359585,1.35965769665638,1.33319127302366,1.35447788262895,1.38121258414246,1.37527394607809,1.35188850281331,1.37589535467195,1.38786358124125,1.3831497900678,1.38133092452735,1.34856643246756,1.35020787582142,1.34785139126742,1.34273049871468,1.35135767186602,1.39652412350315,1.36307111812527,1.36174317522621,1.35792323089824,1.33625957066961,1.34209601382693,1.34165680049509,1.34286087573383,1.33452559643959,1.35675215903474,1.37918637261195,1.37763966487535,1.37935799100857,1.37612464196732,1.37722413667878,1.37210664788426,1.38367216732667,1.35089670396248,1.33625238654569,1.34479593988579,1.37253271381071,1.33964797575882,1.33891778690871,1.33941228156424,1.34038606547719,1.34147586747568,1.34038045077602,1.34263711651155,1.38994430480205,1.34271867540247,1.34263087951314,1.39527508984385,1.39673789882754,1.39309091685583,1.34675965248924,1.35665037358797,1.34702518115339,1.39049778794554,1.3967717042651,1.39260732282423,1.39061305798231,1.39198222485471,1.40040021807772,1.39174412925099,1.3904853543214,1.39324772814043,1.40000770226421,1.40123389804038,1.40225337498356,1.38982441255095,1.35633349434056,1.36121611414858,1.35743994453618,1.37070525536715,1.37011272598621,1.37166848832953,1.35510794310959,1.39875926757467,1.40061145637039,1.40282444687766,1.40648497340406,1.40478486141386,1.3644478196356,1.40376790322777,1.40604981293821,1.39731340905292,1.38891148417663,1.39162833977001,1.3557881253548,1.3693999155509,1.35418808048807,1.35545035742926,1.3542704162765,1.38399690653275,1.39322602940415,1.39319956314815,1.39280975747089,1.39573586681433,1.39794130814454,1.39365413795737,1.3875756586693,1.39151064242281,1.39472974738266,1.39389229957721,1.39558415160797,1.38917209707125,1.38264342812102,1.38293543475726,1.38481067262493,1.39974431277001,1.41193733466317,1.41022153819336,1.41971796112276,1.40747847686794,1.40869670763554,1.40780731580223,1.40659998226217,1.40773097744875,1.40838113940857,1.40791671083088,1.40691832606717,1.40873386016172,1.40990444981192,1.39987662020191,1.39162142027647,1.38920360991069,1.35785275431403,1.38950370403191,1.39601878986236,1.38045905456671,1.35371635426254,1.35437808675931,1.35423940706699,1.35909319149243,1.35778592497909,1.36053432633026,1.35707110036294,1.36254102941786,1.35810104874243,1.39863052260418,1.4024270162173,1.40394626961249,1.40495377199255,1.40394268191232,1.40511344222049,1.4040653320992,1.42023890832974,1.40852885563717,1.40981913294529,1.40761227377546
1.36407573325318,1.3670579942564,1.36706270686321,1.36848258826355,1.36972778845757,1.3721578069327,1.37510165020806,1.37872559790783,1.37895821014423,1.38053680993197,1.38251544809555,1.38498712878099,1.36802915434388,1.36843567544818,1.36772738103685,1.36761418122448,1.37017214441284,1.37246596773294,1.36113526859173,1.34167484988678,1.34887132006456,1.3580516232187,1.37325637221563,1.37255126090722,1.37049200699992,1.370767626196,1.36983348016901,1.3699545466655,1.34919332139993,1.34973532002439,1.34950479287447,1.35171967036653,1.35455940328192,1.37640680448452,1.3694646013319,1.36541139918428,1.35518759842944,1.34897640011415,1.34658966371181,1.34541668763478,1.34407028176041,1.3396028653854,1.36156311520433,1.37484172746131,1.37383158430798,1.3729528867178,1.37307636495675,1.37436350877573,1.36694941882407,1.35450961258455,1.34418789469275,1.33575076856628,1.3362080320761,1.33652754049062,1.33773869058683,1.33839585317164,1.34030611937737,1.34145062394567,1.3437728378706,1.34432353527221,1.34398076988575,1.34080115228751,1.34035095217001,1.34045157039353,1.39053744459055,1.38896265332452,1.38944311891533,1.38333094632965,1.37938304145504,1.37758776732669,1.3861069842286,1.38655621158161,1.3891142809138,1.39024977299956,1.39028947077438,1.39139008710958,1.39119176956358,1.39004810661286,1.38718060483419,1.38459270196589,1.38190062819099,1.38149922526961,1.38214990635156,1.37681238237738,1.36688731237219,1.3704781326767,1.37110844261586,1.37130334903196,1.3729225684022,1.37455652087487,1.39283708846324,1.39437084990183,1.39835246773675,1.39971068622119,1.40176538155237,1.40131306936872,1.40030485185635,1.39654292629748,1.39510956920875,1.39239139467988,1.39072557750352,1.38938497024197,1.38812271490519,1.38635028708333,1.38390047488927,1.38319511269972,1.38237838709517,1.38053627827095,1.37920528834054,1.37952372147226,1.38102794144733,1.3824712365264,1.38351101526542,1.38673871611509,1.39027774447202,1.39237882801155,1.39207782766012,1.39044152725018,1.38834249365924,1.38472187294058,1.38393868964513,1.38411311052401,1.39514901291036,1.39719670538233,1.39549307306372,1.39413330647014,1.39485588697814,1.39592370056933,1.3970930620385,1.39804569631364,1.39848663727799,1.39800073482173,1.39652995447983,1.39428143435767,1.39166840774432,1.38917724586838,1.38669736994086,1.38392182050818,1.38499774335615,1.38517045782959,1.38363469101529,1.37088423457063,1.35938060175947,1.35426044463023,1.35519271840131,1.35457604765728,1.36103259849342,1.36122271980295,1.36375048742063,1.37034560651532,1.37613999828998,1.3803044799928,1.39394831402637,1.39342720990521,1.39428077742492,1.39824818135397,1.40037157674767,1.40178556246769,1.40287293436081,1.40280239862149,1.40572657643864,1.40764608055003,1.40731409120205
1.36139743480082,1.35762344528118,1.36498952895753,1.36961971077442,1.36827032428673,1.37869241695054,1.37685488431285,1.3754689139607,1.37702753346146,1.37673338888727,1.37963222722514,1.38701368018758,1.36964785311244,1.36855348373203,1.36970845163932,1.39357426131274,1.37296906342423,1.37478737201496,1.36240183702887,1.3231773273713,1.34015855073959,1.33922182042789,1.3728454823589,1.3922207112277,1.36867308838704,1.36577690567612,1.36852806618741,1.37070322606933,1.34514805224776,1.32380749839186,1.34070722747417,1.36703580796167,1.36105496718096,1.38211192313346,1.3729589460996,1.37691437512111,1.35281425878844,1.35107576043866,1.34963288491036,1.3502330792937,1.34738769960869,1.32441240278082,1.36449854293986,1.37286325196776,1.37039791698781,1.36552633845306,1.36981577866625,1.37202028656233,1.36090321899933,1.33918862436357,1.3353657379223,1.33423124477459,1.33673232018256,1.32571313991441,1.33650310959519,1.33282940428488,1.34291853774442,1.37394487405887,1.34785489346216,1.35002059919783,1.34938153448171,1.33295601061719,1.33490082900719,1.32952033089336,1.38715225419288,1.38642594570073,1.38646536250075,1.40881731085071,1.37768957465369,1.37369739372848,1.38242915752312,1.38337828538535,1.3863074167519,1.43992006176728,1.38676762845825,1.37845230239928,1.38081649952084,1.35824650199534,1.37921400012021,1.3789849677035,1.37977066132382,1.38043768578089,1.38326826779627,1.39052336325878,1.36930579516705,1.37357948575368,1.37113522854403,1.35014948002937,1.37372342145238,1.376376446928,1.38697092177132,1.39185211003347,1.39659884670554,1.39825685226207,1.40054261749413,1.40097133714806,1.39854759686477,1.39363727140164,1.3945549277284,1.39465615480802,1.38933056604219,1.388343729277,1.38839489768309,1.39217116215798,1.38472995592258,1.39529673404421,1.36587058147422,1.35686371946551,1.36022614576529,1.36173640306131,1.37399111327117,1.37721366315259,1.38249580844199,1.38618831412135,1.3896266463302,1.39202164374343,1.39144290281513,1.38988648385771,1.3787954229387,1.37104974635177,1.37021702556711,1.34265450277437,1.39110311215878,1.39933453999194,1.39577863089449,1.39236319457962,1.38822709085562,1.38466526788012,1.38212459928913,1.34643821103021,1.3521750200443,1.34667604787293,1.35153811589707,1.34479388927404,1.35479925374962,1.34707271053214,1.37774070237371,1.3802766249228,1.38264688478341,1.38725705941582,1.38172398073729,1.34506640450596,1.35531641905057,1.34535201535337,1.35750243627559,1.35492160771505,1.36392571887095,1.39015271755338,1.38831664326603,1.38958131392556,1.38500562162924,1.38346167669702,1.38903436724781,1.39185268969663,1.39169035896794,1.38944323050208,1.3857345442734,1.38330590933803,1.39379250979074,1.40043579245264,1.40263704528117,1.4262886141387,1.40706888855669
1.35618805240671,1.35576651738126,1.3550352920031,1.35429335769362,1.35396630730846,1.35437284839235,1.35555206056168,1.35732048564001,1.35984044570749,1.36307623569082,1.36741469327343,1.37017878479158,1.37087299781211,1.37091652381413,1.37183772085435,1.37342223571493,1.37346666226357,1.37539311380682,1.36267909352251,1.33689997518727,1.3415209478322,1.35264137988501,1.37292943555147,1.37380410492755,1.36304109137313,1.35737700539592,1.3516806037932,1.34543478032816,1.33834805438406,1.32432066385202,1.32592714257419,1.32716161213697,1.32848773077843,1.33079597690988,1.33422832721101,1.33851780158957,1.34338842290906,1.3485314816264,1.35168300003298,1.35318207142812,1.35547055749539,1.36192926883006,1.36576179193486,1.37010558979631,1.36919044532677,1.36769627828171,1.3687661617156,1.36956469258228,1.355399537223,1.33645560077876,1.33517948287734,1.33544522793363,1.33790155891418,1.33896615263309,1.33949742790862,1.3418817462595,1.34550960100037,1.34787346230091,1.35011552375744,1.35185436296069,1.35314394944239,1.36259268814296,1.37064817118218,1.37383349702002,1.38334044689152,1.38141549593085,1.38073812304646,1.37914223242795,1.37776021460789,1.37792508910099,1.38113718473281,1.38356731405124,1.38605952505994,1.38822300906712,1.38492173909783,1.38230623882848,1.3819574162866,1.38149894581944,1.37903065974813,1.37777545688153,1.37683851698614,1.37483779351646,1.37275722948937,1.37039614713913,1.36820063544778,1.37053374025739,1.36988460945149,1.37072661573459,1.37250756539797,1.37482201053855,1.38107695460952,1.38410795606765,1.38733696605526,1.38944922477374,1.39135049275288,1.39166417968642,1.39007249241834,1.38694181050999,1.38675054704256,1.38561603828959,1.38361469387108,1.38090072954868,1.37768695376687,1.37420173319874,1.37069730283772,1.36725852287064,1.36345640216937,1.35955284673629,1.36195778619627,1.36652990544916,1.37140443564796,1.37376805197875,1.37502325261863,1.37556167038349,1.37491969423828,1.37392137752647,1.37254028179612,1.37167419301477,1.37038238768141,1.37006542233426,1.36843844788443,1.36613123733102,1.3845041850482,1.38591349225082,1.38649281170196,1.38578308275414,1.38462271250893,1.38256643164735,1.38026447396572,1.37134333168197,1.3588746404801,1.35667058157297,1.35936115767642,1.36337382304739,1.36838731265728,1.37305506945552,1.3762963255134,1.37725627723342,1.37995452407453,1.38062609746185,1.38075907998368,1.37465269592283,1.37193960241919,1.36766647682539,1.36155319112099,1.35565892912851,1.36800260792576,1.38704539181105,1.38559622399018,1.38455133520574,1.38407316573197,1.38517602703479,1.3866944486447,1.38820171726949,1.38896120402491,1.38830954602833,1.38532725239869,1.38728175083392,1.38805969182002,1.38930408672161,1.39037229156381,1.39205679155844,1.39425013157572
1.3077763085181,1.30774471610897,1.308360967962,1.30630897484336,1.33745406330825,1.34283946243372,1.34696911936161,1.35060471830762,1.35732939287853,1.36176087178657,1.34435246148998,1.31026985564867,1.30903511907635,1.31086396288628,1.30996432797748,1.31300503253393,1.37023092671623,1.38091385395462,1.36183793812998,1.3151421069417,1.34250640942114,1.38617822783898,1.37316658547896,1.3747309189045,1.35025236200483,1.33940012441021,1.33857667675854,1.31324457278069,1.31241233795917,1.31341332643688,1.31514622080237,1.32021804280975,1.31731915827907,1.31647875260844,1.31632045758924,1.31632167341415,1.31673945697082,1.3171534361896,1.35476668941406,1.35577164657093,1.35537537577163,1.36809579134177,1.36807230443211,1.36987635594318,1.36874811683233,1.36692085471664,1.36789489745486,1.36789235700577,1.3506056602326,1.32275688803944,1.32824806582107,1.31980838008255,1.34597321681883,1.36774789033642,1.35694668920602,1.35711594368021,1.34967380663831,1.33020287856423,1.35237201317393,1.35283593516783,1.35500214405733,1.38564621119164,1.37361554318173,1.37613292186843,1.37989119379647,1.3793131207852,1.37875998105194,1.37786404231566,1.3759217377913,1.33683710273218,1.35319138987936,1.35502487506841,1.36549400293916,1.39169508114301,1.36306760382799,1.34592051058886,1.35780739690719,1.38677993697276,1.37707659563316,1.37554897761989,1.37454954085844,1.35310818649406,1.3601353302896,1.36126519433318,1.36234067354247,1.35860138131441,1.36781465542084,1.39671650360776,1.37069791889652,1.36971222783708,1.37277187759507,1.34385619921365,1.38529420334292,1.38927989299553,1.37546078591863,1.3364463140949,1.37003101489821,1.38307246921152,1.3691994407163,1.33297695637099,1.3346917776272,1.33376497288427,1.33356715997392,1.33258608628774,1.33628718019658,1.32948398442089,1.35671751171526,1.35661107224571,1.36202314454278,1.3721914468672,1.37056116379566,1.37167561742973,1.36994991073746,1.35343790843473,1.37155158969781,1.37451737831007,1.37183022996004,1.36913338748986,1.36898733079503,1.33658409671734,1.36562325355557,1.36236092914758,1.38129952180941,1.38551702849128,1.38656611815108,1.38655256706985,1.3799593056121,1.33672425615534,1.37513155290561,1.3791510492517,1.36380336071647,1.35255454274042,1.36219407500765,1.38686400651077,1.37893555002382,1.37832601745559,1.37570396350365,1.37472087595813,1.37713996023253,1.38148026776905,1.37814005963162,1.37778866334032,1.37122013519337,1.36998000034259,1.36498704762167,1.35090643307306,1.37238831618573,1.38507125663942,1.38256815709209,1.37786238232377,1.38250513807738,1.38687825744445,1.38442986938844,1.34221258251151,1.37649025261631,1.37601521258721,1.38067783972097,1.39246583058566,1.38648277458226,1.38043662781678,1.38086410405362,1.38267418954262,1.38358298201102
1.30957158330659,1.31016058408422,1.311358016171,1.31735076355052,1.33203206034661,1.33619322138449,1.32939335230553,1.32357938291374,1.31709883725308,1.31162782855788,1.30915563662724,1.30795633000924,1.30699944333484,1.30703791449154,1.30653638824206,1.34176606453715,1.36548514452171,1.36232682194479,1.36143384651356,1.35342540307398,1.34148842029277,1.34193172929393,1.34089480855158,1.33981140663606,1.33942201149351,1.3410089585992,1.33791927463762,1.31195071915994,1.31082750397109,1.31180385694809,1.31169132165736,1.31753679649918,1.31644706317148,1.31614602773296,1.31680338367137,1.31726784933233,1.31730875285252,1.3375555844771,1.35678298434693,1.35662077824338,1.35459379529062,1.35145218214064,1.34810392927051,1.3450300828222,1.34281665836827,1.34193984722116,1.34273721217048,1.34539995688697,1.34923860145221,1.35139548895336,1.35327346570406,1.35278265292087,1.35210263316468,1.35608189754441,1.35661855438604,1.3566807476894,1.35435761051172,1.35482273445132,1.35390040206495,1.35473255760717,1.35709665503755,1.36082910709231,1.36344808415745,1.36482686193809,1.36598093146747,1.37016645304628,1.37353786160301,1.37576950173054,1.37410297217204,1.35081180917241,1.35078053082306,1.34917429958093,1.34861257495333,1.34880607438246,1.34905625998063,1.34821499044833,1.35575001089026,1.36189636788518,1.3676617259856,1.37404669584997,1.37195876650029,1.36897052868605,1.36323941483517,1.36171415929149,1.36218963415074,1.36436960705954,1.36686781682817,1.36874954968253,1.36995007669424,1.37183877259294,1.37530727369736,1.37507718280341,1.37046012655601,1.36813772332023,1.36735701748168,1.35001027635096,1.3652768977893,1.36501360895535,1.36454003139066,1.33520969283808,1.33721000056311,1.33544100186494,1.33477360610237,1.33648095910555,1.33877792484735,1.33835386035704,1.35831836443056,1.35959637627226,1.36247611613731,1.36564755291725,1.36835263280702,1.36959529557791,1.36955866846229,1.37023696077045,1.37014101348397,1.37055867187497,1.37117819969182,1.37018703483593,1.36686913341383,1.36385962510884,1.36460774020831,1.36400943170289,1.37614006385246,1.37515240699086,1.37509109078155,1.37553256911426,1.37474332222013,1.36474337253738,1.37001416109239,1.37393297354589,1.36949275966178,1.369042289805,1.36679526427717,1.38479970792204,1.38119481386301,1.37804711454733,1.37612411568513,1.3748096726449,1.3759383840487,1.3758177214354,1.37579305764094,1.37481490839304,1.37218889963721,1.37255328112312,1.37606417028859,1.37711357136355,1.37691927465587,1.38061154009044,1.38077561408705,1.38024117035549,1.38033649617877,1.37885894903334,1.37948693855537,1.37710119335039,1.37717448776294,1.37833686650695,1.37881078937321,1.37843021987528,1.3773957021834,1.37813839722894,1.3796379948474,1.3835714928129,1.38453139955162
1.31177118463268,1.29774058537133,1.30873433597532,1.32217278462803,1.32626238446458,1.39599005519718,1.32172317082489,1.30225145014608,1.30170260193587,1.30277486083196,1.30303418800041,1.30678128431689,1.30429582066931,1.30564015682713,1.30312496063424,1.3672167145273,1.36331646393308,1.3603180090542,1.36078500930685,1.36512417357009,1.34028792610174,1.33688103693546,1.33534078112024,1.31296049595375,1.33803736865518,1.34589206207551,1.3360906315299,1.30608675253197,1.30767416947296,1.30671842677347,1.30938477859708,1.36174526844161,1.34855234763862,1.36399736660361,1.31831657786243,1.31929380977527,1.31868471065063,1.35869272702525,1.35835360878391,1.35920216489728,1.33823814754106,1.3174638050534,1.33586712201409,1.33653658269332,1.33651161160176,1.32486293206185,1.33167578103395,1.31375344128748,1.34333573663795,1.36507573964865,1.35533314048682,1.35688955135302,1.35533511419105,1.35734142698007,1.35746569209563,1.35772985342187,1.35581002481609,1.35542118457559,1.35263246591019,1.31230603858925,1.33486029770114,1.32088812700826,1.33232138785185,1.31724049601878,1.36301493309557,1.3600985921569,1.3711515169108,1.38454629113276,1.37225699859833,1.34995383802421,1.3498442016863,1.32676751671139,1.33072655324223,1.32878070970701,1.32823123653856,1.3272153854521,1.32983737871733,1.330258241939,1.35452361442037,1.37496782578265,1.37191013663642,1.37102631325288,1.36263132768633,1.36091577879872,1.3607426048054,1.39559330412336,1.3671928323599,1.36947528559526,1.368734703808,1.39150440787601,1.37896972084872,1.38164032695823,1.3689715999725,1.36572085942208,1.36532371204828,1.329079776872,1.36389577007976,1.36431290723133,1.36323936643393,1.3240060079019,1.34523492398931,1.36791566153697,1.36354282681232,1.37354907536121,1.34523601252872,1.339557290922,1.35872837708813,1.36163920415411,1.36196960983914,1.36519336387446,1.3659936958032,1.36939030098158,1.36800106065125,1.36892195209613,1.36802725933218,1.36864948286301,1.37102004999578,1.37298342182148,1.3639416411232,1.35886191815284,1.36348323198888,1.36639410487827,1.37105195576022,1.37415523590234,1.37500536042029,1.37584113144639,1.37073978727021,1.35272272985193,1.36649337074947,1.38586430145302,1.37125875470335,1.37174017609341,1.36853866956408,1.3853076532357,1.38045170874893,1.37757161876005,1.37455021505831,1.37511802403253,1.37378000622515,1.37471036646147,1.37322272705644,1.35758690837665,1.36924097942413,1.38007649624534,1.37675274102373,1.37988254111518,1.37733513248173,1.37964076947579,1.37969128173345,1.38087667546711,1.37906884448125,1.37694287119021,1.37657551009691,1.37405811077752,1.37632149988834,1.38130885395828,1.37858344290772,1.37446764995953,1.37446848869396,1.3744817770928,1.37655931790373,1.38692232259642,1.38472414095805
1.31247560000154,1.31019168292607,1.30854808593706,1.30455444534392,1.30223270565045,1.30091484437459,1.3001414117628,1.30021725335809,1.30099363409311,1.30146506319064,1.30178541405684,1.30235459130414,1.30073065640323,1.30099161878315,1.29944019671976,1.35680489684235,1.35925918789956,1.35922903448882,1.35672056591275,1.35409468301227,1.33751989199551,1.3336680588801,1.33436916830299,1.32820818993058,1.3302159149313,1.33242850949015,1.33390079920568,1.31966563153806,1.30806384795671,1.30736858230993,1.30793084343999,1.31109217511272,1.31997513058902,1.32378483636615,1.31877576797598,1.31955066822791,1.32017959296554,1.32266981421621,1.32553700621423,1.32840713733949,1.33100906983688,1.3332273978057,1.33524770833033,1.33616096642409,1.33637215378297,1.33685350675783,1.33666654128964,1.34020440671379,1.34269943099425,1.34364718674658,1.34440852194238,1.34553166736033,1.34697384990203,1.34859040307313,1.35107633259757,1.35301349195521,1.354210679096,1.35307069394972,1.35054036995558,1.34844493889727,1.34841701867904,1.34834778666578,1.34945209624744,1.35392464477135,1.36352706517262,1.36340147229485,1.36730402824642,1.37000129817773,1.36998877139523,1.34936479214905,1.34875822428158,1.34081878015393,1.33432830627181,1.33067732102454,1.32925103975726,1.32943190817829,1.33200526626772,1.33323730250875,1.33990794085845,1.34246383893161,1.34608744708481,1.34983555967248,1.35365723018825,1.35781702618999,1.35943514599873,1.38606182643215,1.36586827918857,1.3667891282465,1.3662992550156,1.36451529288785,1.36307605074561,1.36200565711939,1.36159614784132,1.36377838149111,1.36238051940067,1.3615089790919,1.36158661123989,1.36148740653525,1.3611006470641,1.3567663249357,1.35269812742977,1.35591961533398,1.35848116942185,1.35784134377404,1.35466560054083,1.35724041581618,1.35806094277672,1.35868605872835,1.36025968969828,1.359859381536,1.36170866159626,1.36150101446681,1.36459285722838,1.36567809920358,1.36652831536718,1.3669882769746,1.36722502190908,1.36585885374509,1.36322475506446,1.36288453333936,1.36374502782391,1.36481737404606,1.36738934189438,1.36761219983528,1.36842395356912,1.36842204413126,1.36652399789688,1.36011738208242,1.36230951734582,1.36285468382052,1.36310203094314,1.36295465708262,1.36525137049458,1.36672422955249,1.36789025860992,1.36917988349127,1.37069482417857,1.37186454490497,1.37077907194023,1.36937430350527,1.36799575791437,1.36433030888969,1.36608628221976,1.36783831206126,1.36960230689679,1.37008258518332,1.37312718092934,1.37609942435394,1.37768638737888,1.3784135893782,1.37787210636809,1.37689494442966,1.37568071408247,1.37395353704311,1.37373023180549,1.37385380431607,1.37370248799882,1.37389345289371,1.3730726233415,1.37326101602597,1.37635897102137,1.37879055411572,1.38092855212707
1.31085717767011,1.35465000472751,1.31277558050147,1.29182268833818,1.29268840879653,1.29331721482658,1.29938527864392,1.29839377415017,1.30205475829094,1.36086897613493,1.35067141975755,1.34802707359657,1.2964599004349,1.29669587639814,1.29635117635329,1.35444800531665,1.35794531730825,1.35980602534222,1.35272642640934,1.34937609820286,1.33477117244,1.33253719162284,1.3339621496582,1.3239335628201,1.32887146806172,1.33249937352605,1.33335458583095,1.35063412639944,1.30955495668643,1.29584848768697,1.30331460937671,1.30191040612389,1.31840811965509,1.34144379935018,1.31911721290555,1.31964840559998,1.31210916651892,1.29278278202123,1.29353864674016,1.29467888344854,1.31981989781549,1.35084041884569,1.33580207377093,1.33661889289716,1.33740314575315,1.33943895504446,1.33897149200668,1.34073045404553,1.32052056905128,1.29898745697844,1.30719498315647,1.30692434556941,1.32653702134252,1.33374774366557,1.34315963246644,1.35468567213756,1.34367476693098,1.30895163900056,1.34773646762033,1.34731824799275,1.34632019509684,1.35289270917263,1.35117036097048,1.36447102489055,1.36378774505742,1.36256652413026,1.36445967070007,1.3721888991906,1.36671787697475,1.32283684546396,1.35511705448936,1.36808099565575,1.36201001249324,1.3613093510468,1.32954568468623,1.31870811173391,1.33457076454615,1.33820046660422,1.33736744959819,1.32741682265119,1.33019843009068,1.3289953795127,1.34553603437258,1.34093914161838,1.36005996684079,1.40025775405582,1.36474740185666,1.36376174897994,1.36303769149139,1.36209461385922,1.36216753264423,1.36174470431833,1.35742863487433,1.35365424225428,1.35761855956139,1.36087702682115,1.35906106586963,1.36019703305878,1.36210659693662,1.36697453806631,1.35142079946518,1.3150838592055,1.35587134371431,1.36011609595546,1.35684904393663,1.35848956646445,1.35667726672383,1.31411727762107,1.35643783794223,1.35607380199038,1.35810890162083,1.35860123088336,1.36258043170767,1.36456058054441,1.36039594792192,1.35165432061317,1.35234566189115,1.31838421845749,1.35938718020402,1.36473879040667,1.3621897599377,1.36213984748316,1.36541230129124,1.36664813776608,1.34925166824278,1.33368197177848,1.34793601612023,1.35915460956074,1.35878321157909,1.35478215456889,1.35815805152554,1.36157500549872,1.36103583936107,1.35952546358996,1.36018270682722,1.36165652713217,1.36668448676705,1.37168833769237,1.36738624130391,1.32126183613689,1.36432784649561,1.36687652353532,1.36288289223877,1.35956676844215,1.362966286319,1.3655617100856,1.37085725373568,1.37418697029674,1.37711563659172,1.37770603091039,1.37773581147349,1.37728133114963,1.37543474413512,1.37246595612031,1.36989131364118,1.36391475348693,1.3639390767281,1.36362608822776,1.36665966432266,1.36693876287787,1.36538836528665,1.36375751344546,1.37639175836352
1.30993561339321,1.32075366175045,1.31761934324578,1.29959133395324,1.29326643419334,1.29463096637555,1.30074470216813,1.30229881700804,1.30513451036944,1.35779494984899,1.35309697633534,1.35105705412551,1.29367336686791,1.29445769934932,1.29457562131809,1.32081475693929,1.32676650035325,1.32776102974777,1.32881756979112,1.33032370507016,1.33307823049694,1.33369799115476,1.33406195777884,1.32356205590996,1.32292580672218,1.32137271852315,1.3187866348882,1.31551807798298,1.31208706533476,1.30882258682903,1.30619679440316,1.30358918258054,1.3176010025608,1.31784070153985,1.31838935693105,1.30990178367405,1.30207652424222,1.29140642611208,1.29289300723527,1.29413397826257,1.30089886305095,1.30866443188039,1.30444607427816,1.3018628111864,1.3003581866544,1.29979669674665,1.29998675192896,1.30039067027495,1.30032547004275,1.30205355953572,1.30643092268291,1.30744216557745,1.31527425122639,1.32015294827786,1.32617929308077,1.33314412256646,1.33946079366202,1.34189152114489,1.3447565332752,1.34533167200257,1.34442821029712,1.3448691599026,1.34992179105049,1.35253194128006,1.35434603815609,1.35599621228188,1.35790974573248,1.35951065505182,1.36220702734443,1.36136057063339,1.36091672034702,1.36473761999194,1.36223061816826,1.36054010172417,1.331133574889,1.33232604077953,1.33374967156992,1.33626624992389,1.33586867892008,1.33481823429193,1.33399925726296,1.33174885607433,1.34928906328912,1.35042461033214,1.36081628992508,1.36173209449736,1.36216574746702,1.3625493068807,1.36257586261064,1.36200307328432,1.35983684393111,1.35614770679263,1.35522995977477,1.35350720148226,1.35424371298573,1.35294277678441,1.3538731701917,1.35104240196687,1.34927276769886,1.35019264400261,1.34944674328143,1.34936588053604,1.35219564622379,1.35281229109291,1.35416908445226,1.35418224321428,1.35460174782227,1.33166638530646,1.35466376900643,1.35452351479887,1.35509608135303,1.35558701149397,1.35710550167989,1.35697959193065,1.35532498181043,1.35332535847699,1.35204327401173,1.35144914297081,1.3544099902365,1.35494039849491,1.35774138460888,1.35841862133252,1.35518561675637,1.35277187678107,1.34876127199141,1.34223930851233,1.34703898371096,1.34918901891812,1.35013483090807,1.34970046121635,1.3487661309565,1.34983698823714,1.35177308051865,1.35535421752294,1.35912888102613,1.36145571747199,1.36297076166201,1.36316629171902,1.36222793089778,1.35570195159789,1.35802987636889,1.35789792248377,1.35948441992308,1.36084213264247,1.36186263724272,1.3647771381138,1.36604875750983,1.36474749786482,1.36471992731878,1.36644205039575,1.36738024371749,1.36860360628032,1.37026035896316,1.37040362699167,1.36921844991888,1.36633853597837,1.36499250689285,1.36367798441501,1.3663259149115,1.36688970933662,1.36599349281954,1.36686125066418,1.37108745632561
1.30955394717821,1.32434661340503,1.32046840685296,1.35770003743001,1.29115837289017,1.283645668344,1.30279980588393,1.31484722432592,1.31105849869532,1.35932365022997,1.35262220828273,1.35188075954595,1.29187508001548,1.29003676226905,1.29387991464949,1.29104235332527,1.32666743686768,1.32866547055998,1.32894936448211,1.32912415825142,1.33351521677539,1.33592035991202,1.33512877974105,1.28653101282135,1.30431906405544,1.28743766294812,1.29698648971777,1.2872091230038,1.3147079019656,1.34096575049428,1.31036938973189,1.28657778281559,1.31777318266304,1.31842360443366,1.3185410907663,1.28617500669371,1.29537678033775,1.28940961520887,1.29248740646278,1.29438879102481,1.29731304496177,1.31421536191708,1.30407279383859,1.29809852807548,1.29643380661216,1.29534471743719,1.29995325865695,1.2980905502272,1.29868597990015,1.29153999108091,1.30794406004434,1.30914324983502,1.31179065978085,1.31044704757953,1.3128409880004,1.29630627730891,1.3410116797791,1.34100687626447,1.3425731174052,1.30296904376177,1.34118705533041,1.33897749182467,1.34019950926248,1.32424555943245,1.33352088202821,1.31628815644109,1.35470867999321,1.35851157959284,1.36048164851768,1.36018238969322,1.36091455025724,1.37078750564696,1.36023895973329,1.35760584936026,1.33200622631759,1.33166944811244,1.33361008318757,1.3613902620657,1.35269807654999,1.36168579653419,1.33877516566989,1.32052968358286,1.35066905447897,1.46850000103229,1.36120753808143,1.36194600288058,1.35124125739118,1.32084835549457,1.34921194151794,1.34814391238747,1.34995552952462,1.35104299570146,1.3527236916857,1.35170288442903,1.35209251554562,1.34938209957019,1.35116647775735,1.34807664010285,1.34718024136536,1.34334280495988,1.34600209622297,1.34548667155832,1.34991540876946,1.35141301954177,1.35202085432539,1.35090558651434,1.35189984569982,1.306937005432,1.35157899148767,1.35140066121592,1.35209107526582,1.35090581032111,1.3484443679388,1.30860389367656,1.35108482824535,1.35309776821572,1.35026850363093,1.34776321276301,1.35116371464851,1.35235503277563,1.35508143195318,1.35836788508421,1.35324036539648,1.30974677334756,1.31105351924688,1.3105513137581,1.31312291498367,1.30904264489284,1.31839867489157,1.30955726308698,1.34516384921083,1.3440136624497,1.34492468681091,1.3450039062721,1.34428495590703,1.34143921727687,1.36053668229709,1.36534791179994,1.35866354624922,1.35119598587013,1.35363121842826,1.35269498718578,1.35639409486603,1.36426598428129,1.357600089452,1.34781469998566,1.35823235389998,1.36287744470301,1.36489006699234,1.3643590077066,1.36681339173438,1.36767512674269,1.36441112361551,1.35373623579074,1.35260990745715,1.32790764124324,1.35743934951441,1.35923098588869,1.35681605003204,1.31546196499482,1.3641225593458,1.36586402593041,1.36915580379865
1.30927208071508,1.30874982275426,1.30225689632445,1.29370006662669,1.28871287093445,1.28651370003175,1.30535058386202,1.31090034001183,1.31199519345121,1.32206682194824,1.32013640580644,1.30977282495293,1.29124919335138,1.29025822173675,1.30424638879499,1.31523499348064,1.32528676442376,1.32736923792442,1.32916600395568,1.33076717917592,1.33541577352767,1.3370178995627,1.33549386179977,1.33430072590886,1.33227288462277,1.3298965214734,1.3262497729369,1.32184767931702,1.31718479001555,1.3153035987,1.31474042198986,1.31679303163302,1.31772381134606,1.31847397357508,1.31999604534462,1.31162421712985,1.29731213226256,1.29561740205721,1.29328583082972,1.29392074962864,1.29384210932303,1.29407875108771,1.29496164651053,1.29621669524862,1.29592525632029,1.29724112490595,1.30026644832779,1.3040532768487,1.30677524518851,1.30794796122939,1.30876393057109,1.31024890706554,1.31315391819059,1.31275731954221,1.31417512321159,1.32526913590519,1.34150930246563,1.34125479383712,1.34110826267157,1.33979243815692,1.3398545026031,1.33942822225995,1.34088847363328,1.34276263904575,1.34146009211242,1.3442253821824,1.34430394189803,1.34431866824661,1.34311271839936,1.34140814558245,1.33977993118397,1.33832285459261,1.33688186356498,1.33527708507324,1.33351322776973,1.33333472414303,1.33475227183221,1.33701278307773,1.33885207108488,1.34158210642354,1.34302399275683,1.34865679967698,1.35026574454169,1.35962587952373,1.35698903409461,1.35473286855146,1.35260964434022,1.35016109797525,1.34988930393649,1.34967646534628,1.35026266797044,1.35135141953224,1.35249573395193,1.35297867576623,1.35268804807151,1.35178287206913,1.35167554688141,1.35045335855746,1.34713814323663,1.34482570402059,1.34511375649534,1.34694183817687,1.34925364300374,1.35002361696432,1.35034127600539,1.3498430557645,1.34925545000538,1.34727232724091,1.34779903837165,1.34600477016236,1.34575451369374,1.34506356946395,1.34506545431006,1.34469425930787,1.34655929390869,1.3454878102654,1.34806788273805,1.3489458003258,1.35007778313527,1.3505111493614,1.35028294150798,1.34894929607791,1.3486108036509,1.31145957697518,1.31188229693387,1.31291043238672,1.31834217269905,1.32528492536569,1.33365749306095,1.34155540768306,1.34539592824199,1.34587148812491,1.34578775980896,1.34567940850827,1.34605977157528,1.3511993811234,1.35601223426897,1.35557776389678,1.35547836648055,1.35270459824718,1.35206988073491,1.35152042461882,1.35316001861338,1.35268657685507,1.35295328739673,1.35043544049236,1.35310398923575,1.35277857260353,1.35265881075082,1.3518303664572,1.35119043116342,1.34960721537189,1.34952655757175,1.3500946465933,1.35056885648435,1.34964083610884,1.35067200506834,1.35290526247874,1.35363311256564,1.35291884058949,1.35967852633029,1.36945559598328,1.37028939407703
1.31096106963337,1.31232169472076,1.29872624652967,1.27521200533717,1.27580049403187,1.27486596742989,1.30809087993535,1.30649654168532,1.31305139231285,1.3274926760734,1.31914643663978,1.2798526036257,1.29190019115359,1.28097360737773,1.31049337536974,1.35343460384453,1.32353408215617,1.31686208683368,1.33009125145193,1.34341370935164,1.33901537226622,1.34289245603949,1.33503362749149,1.33544809796723,1.33247201048498,1.33993647893866,1.32587661810769,1.32355238149705,1.31670438897092,1.31342025809956,1.31596443351342,1.31766928656004,1.31834736652089,1.33439920205122,1.32276471677911,1.32677445075408,1.30209983750011,1.31045791197032,1.28983605298813,1.28012163687049,1.2797679734109,1.27680658277784,1.27815075915977,1.27697795626737,1.29022543321276,1.32789289400811,1.31555393768738,1.33036467818006,1.32265694301205,1.33258746978067,1.33120899376095,1.3329881439099,1.31715717500959,1.28805829621489,1.31575297626829,1.33908589224083,1.3406686344649,1.34027675993888,1.33990374739229,1.33808736573406,1.33860849742271,1.33777454822491,1.33945953951629,1.34481249817137,1.34383839009491,1.34618810503613,1.34527271203323,1.34470349244743,1.33297790693602,1.31907866752235,1.31814865561756,1.3017649992482,1.30491868968585,1.30330763039164,1.30329484043143,1.30320920790608,1.30631527031745,1.30869764435905,1.33759802741082,1.34274290679315,1.34295353745673,1.35188465910954,1.35157078297961,1.36508516891618,1.33538435599203,1.3221114801945,1.33603777346985,1.34718434018489,1.34247480918192,1.30027596162172,1.34392646917157,1.35059559067417,1.35270151308868,1.35516097083664,1.33194037128363,1.32402391431016,1.3336867427927,1.35382629570832,1.34509707158804,1.34282408402156,1.34175032717232,1.30772500208388,1.33730656483147,1.34793957768382,1.3489518366361,1.34797988302952,1.34721606756794,1.343747405463,1.34493266220156,1.34233159506529,1.3429548819519,1.33890099006174,1.34233730062687,1.341571733581,1.34337484060867,1.34223062456448,1.34630634865814,1.3497298569578,1.3490327604418,1.34804486046174,1.34709639441553,1.34629859972165,1.34481064539889,1.31214746318756,1.31182053644787,1.31267927693109,1.32345993111137,1.34574810391744,1.34539936207766,1.34474093689911,1.34551214010104,1.34969014476861,1.34511445318549,1.31652300702471,1.34405363464918,1.35555182191347,1.35636565395374,1.3564889455018,1.35534853751553,1.35230186407007,1.34942655604731,1.34850670785382,1.35185947042596,1.35348375181867,1.35162565546852,1.34750022342016,1.35052405501083,1.35306992547819,1.34872239783459,1.34599526489969,1.34687261672148,1.34840223850716,1.34786169199426,1.31626223344625,1.34736571043742,1.34584821619911,1.3469066363495,1.3100460131289,1.35120720880034,1.35085617287171,1.35468799638935,1.37193423772151,1.37175358446555
1.31382990438525,1.31457631697966,1.29656733848371,1.27609465258701,1.27794979883727,1.29979737761292,1.31147446859562,1.31208277525264,1.31363136068412,1.31622408756535,1.31728268321075,1.31611150970129,1.3154184584609,1.31586504322026,1.31731050474839,1.32692892018169,1.32742482754522,1.33135382053807,1.33101335531004,1.33150929480367,1.33362958338569,1.33293090803392,1.33410740211479,1.33511730328743,1.32929760848073,1.32853542584901,1.32631478986964,1.3232284033104,1.31912471478601,1.3169353598982,1.31749881757253,1.31865256578557,1.31979517765791,1.32096979057926,1.32102870913431,1.32069940093777,1.29939452776134,1.29354561912972,1.28599411483887,1.28212854278397,1.28151427357043,1.28065771461895,1.27949599087187,1.27689993190931,1.28467971526562,1.29522155968479,1.30373331825361,1.3111195808126,1.31974587058059,1.33043025453039,1.32698452085775,1.32234419950004,1.32042972256418,1.31983542477378,1.31636629140626,1.31542414681134,1.31500963873419,1.31562977936801,1.31722276140589,1.31906162116567,1.32074855525267,1.32200600584097,1.32262965131315,1.32255166115846,1.32187919970214,1.32085320867632,1.31980122694082,1.31899270594718,1.31850646497645,1.31852890415636,1.31734986158411,1.31485785755165,1.30998626215128,1.30541716651246,1.30349081452727,1.30428496788712,1.30575161005598,1.30980004150709,1.33429416590279,1.33871979298713,1.33437274485906,1.33250737415026,1.33038849791595,1.32877754204324,1.32791720031502,1.32753229140215,1.33251335779843,1.33655089786021,1.33821402960339,1.33700304838896,1.33224548971321,1.3289642608085,1.32702720898377,1.32464810910105,1.32339156691476,1.32469492012835,1.32767487155893,1.33096988080303,1.33384562411019,1.33562775977008,1.33654245267406,1.33282608040792,1.33207499474766,1.33310471004159,1.33314015535864,1.33225416149791,1.33135501311738,1.331201829317,1.33207736479096,1.333851578563,1.33608151125245,1.33817834125505,1.33980864360165,1.34115597658997,1.34281560749446,1.34226342835013,1.34469687753233,1.34752364030464,1.34748755877514,1.34628161209605,1.34297658590196,1.34113590658956,1.3394212926175,1.33655728977153,1.33502957210228,1.33300903186968,1.32880357058681,1.34726317445315,1.34542491799999,1.34399047160101,1.34397564352669,1.34292635906106,1.34309434306107,1.34116857788247,1.34118554103761,1.34105463696334,1.34003731258997,1.3409638468416,1.34263411082298,1.34463756865886,1.34568841110267,1.34464325215404,1.34473836199139,1.34499347306183,1.34543330431418,1.34647036226219,1.34485674954433,1.34502720774247,1.34666091946149,1.34650873620042,1.34675249333924,1.34669204366301,1.34647566704049,1.34552766258838,1.34588966480151,1.34470687677479,1.34372637091404,1.33948488694886,1.34905493989311,1.34911044213029,1.35138677059833,1.35289040602276,1.35556030900923
1.31658175747988,1.31872954544654,1.29575973595984,1.26915992111057,1.28295222540933,1.32164216203919,1.31500071165872,1.33071819297104,1.31398140665723,1.31563182085583,1.31625627251246,1.34745432687742,1.31567127203082,1.31613078854874,1.3202262609393,1.32576693546216,1.32699938400631,1.33504455695046,1.33176122929619,1.3305882854551,1.33176355173052,1.33100476849339,1.33359031968037,1.33531799453431,1.31495998393389,1.29662377883897,1.29319099917235,1.26954512426672,1.27107027906584,1.26886075193809,1.26956846897764,1.2687410575962,1.27075970671178,1.26727536969066,1.3008940328123,1.32025654697381,1.2957984877391,1.27037925376576,1.28606949628974,1.28040846185693,1.28423677879778,1.30042880114845,1.28270248431448,1.27465002952412,1.27471142128835,1.27375291198015,1.27359137307067,1.27308613137356,1.3160339072884,1.33044376039632,1.32304804774349,1.31924946769051,1.32137106553555,1.32477877945775,1.31349106332485,1.30976524253986,1.30901796674029,1.30819161764478,1.30622918928859,1.30148389770045,1.30462361529845,1.30591910906628,1.30521229090068,1.28540180739305,1.30562368776423,1.31604589776958,1.31747237543033,1.31903213742566,1.3182468350611,1.31950471282716,1.31804926893248,1.3175838817238,1.31400469124725,1.32708197150373,1.30125316699797,1.29459176700916,1.30256498169825,1.31365228939002,1.32995736604713,1.35453206028765,1.33180518676466,1.3259827740559,1.3270728652607,1.3123568441433,1.31714352017579,1.28785609373013,1.28965662114017,1.28953302734363,1.31240921051397,1.34049477452418,1.32966684231199,1.32696241252037,1.32408700712483,1.32021464802992,1.31924789843068,1.31860278876595,1.31690788161823,1.2887521075129,1.32868508772727,1.33715342728304,1.33517003005665,1.33016915069075,1.32916877053171,1.28889167745532,1.30851341290573,1.29848480143016,1.30783665325853,1.28819869135102,1.30128001076162,1.29054142874579,1.32005895876518,1.31811220853788,1.32113716862714,1.28896514066257,1.33729014993934,1.33907230900905,1.34202696084499,1.34763926314855,1.34724318529573,1.34634188157286,1.338411498993,1.33170951458308,1.33579561423244,1.33531877840478,1.33482663684362,1.33503998404564,1.33124004514099,1.35026309491103,1.34361765952208,1.34204291942309,1.34268733585394,1.34181010896836,1.34142597946426,1.33878266471383,1.33752644835132,1.33491524923323,1.3378938481376,1.34046040465173,1.33878492428852,1.33812669503218,1.3396848471228,1.34138759392361,1.33629099580807,1.33268383082174,1.33401278388305,1.33584730041217,1.34018967166142,1.34384345502862,1.34594980850611,1.34607051149953,1.34609406043535,1.3448708324506,1.34557381601861,1.34449117411704,1.34491830252527,1.3443600226968,1.34218586241253,1.33255223579044,1.34669232851263,1.34506688918973,1.34910874874207,1.35151849246763,1.35527193893215
1.2985840764727,1.29709383680949,1.29521816909338,1.29263557589075,1.28886607874152,1.30887052964101,1.31054861778948,1.31168575120284,1.31267935546294,1.31478149508725,1.31484165405605,1.31519803232953,1.31532599698657,1.31827343152064,1.32276963884572,1.32437201233913,1.32509610025256,1.32254118262705,1.31946047818807,1.31677934516954,1.31429934361462,1.31207180176836,1.31031498958713,1.30816632142283,1.30562815193583,1.30308285144329,1.28996835408594,1.28002078598456,1.27528994691506,1.27069525937833,1.27107521964558,1.2717246915122,1.27429230979295,1.27888085099082,1.28479795321639,1.28910530632159,1.29297124649977,1.29322439336523,1.29123100493827,1.29090924724205,1.28890914563224,1.28842222955623,1.28557698653631,1.28143847019831,1.2769365380905,1.27496395517674,1.27375627445333,1.27332792025861,1.31336673708488,1.31367599032824,1.31275014744162,1.31513984698519,1.31625212312774,1.31552979216093,1.31367552192672,1.31110013173183,1.30924286559477,1.30891432627397,1.30678334286631,1.30526514422877,1.30608745642688,1.30731259576886,1.30480612957278,1.29381310994433,1.30033543907969,1.30568566017729,1.30938878129079,1.31292553754493,1.31620915147864,1.31933499174104,1.31819458708839,1.31703587960651,1.31377944354628,1.30272234934278,1.29926758054392,1.29755524246253,1.30100227812736,1.31593113459978,1.32629820542557,1.32609394875678,1.32548396788361,1.32616861158571,1.32639642953292,1.32368408631362,1.32119169945078,1.30874899460202,1.29190232523312,1.29292521050516,1.29615019774282,1.29982160063569,1.30437009435473,1.30912164870489,1.31357849421662,1.31811022841831,1.31869640090138,1.31804740829934,1.31521274601621,1.31022507214192,1.31905602298408,1.32232212361393,1.32386003638115,1.32579720673241,1.3258240429737,1.32093319928337,1.31946460808753,1.31713012665163,1.31715977605024,1.31909951490438,1.3213573804599,1.32198410911364,1.32194483327161,1.32228233321989,1.32390128440071,1.32605607325252,1.32653557285603,1.3276938341684,1.33055796622363,1.33218655886644,1.3332464391267,1.33387878796503,1.33406332052453,1.33344712908524,1.33215098780731,1.33000497507285,1.33200306431554,1.3310511697063,1.32999722842204,1.33017973258668,1.33216135250916,1.33458585300205,1.33621484344757,1.33693469443037,1.33749990169906,1.33754676099762,1.33551113136259,1.33539387543313,1.33694186025652,1.33799143347795,1.33764191518796,1.33791486494163,1.33791242857909,1.33664770906268,1.33606316757827,1.33459344791572,1.33475057389204,1.3354210432121,1.33661813738886,1.33566733334357,1.33785403698855,1.33895900094286,1.34027333485867,1.34177219474513,1.34254040945945,1.34391174033036,1.34470067526343,1.34421281923933,1.34293023850186,1.34218591895476,1.3444530676891,1.3454269180074,1.34818294785381,1.34872966154429,1.34923058304555
1.25415888357835,1.25620897783181,1.27812958965703,1.29372762090359,1.29126902758552,1.30677478502878,1.30834653167956,1.3069777662412,1.31173562502089,1.31493851487618,1.31339761123194,1.31081123578146,1.31285260094181,1.34498864475171,1.329337536902,1.33613387225091,1.31435586359004,1.30435689924109,1.30773536459654,1.31127569343503,1.30345532248019,1.2638048396861,1.29959242227061,1.3032818207631,1.30527540582683,1.30735710620684,1.28727463431094,1.28449446831269,1.27977241382547,1.26321010632116,1.2736872782997,1.30684377667745,1.29674334288234,1.31014671869392,1.28615285392308,1.25945571278132,1.29405372009101,1.29482465911823,1.29416399099285,1.31956336841849,1.29072261276108,1.26490925344985,1.28846533700813,1.30737769195072,1.30146171655363,1.31608992560097,1.27328552790035,1.26801206945217,1.31041428762345,1.31572280318638,1.3082919502381,1.29957299529351,1.29936651556356,1.27096989702355,1.27796402998416,1.27037582973422,1.30746194449614,1.31081413516494,1.30738900778458,1.30611373400624,1.30734198396676,1.31225883315024,1.30265844543291,1.28313692724038,1.28868177873171,1.27747198090453,1.2764270775612,1.27726967011344,1.31424903518104,1.32372825192086,1.31941480621804,1.35799000765022,1.31145293177523,1.28574412004504,1.28940615437865,1.28368225741042,1.30123744956319,1.3177302141485,1.32231583279267,1.32602818400692,1.32440714845406,1.28563212063825,1.32907486183542,1.33694819061324,1.32509590746135,1.33097005982518,1.29355293198082,1.29500072138915,1.29660579462896,1.28130849353122,1.30426203458136,1.305386085849,1.31260409466112,1.32113214470824,1.31903696099056,1.32128217330734,1.31517439195928,1.30571782219973,1.31617248302641,1.3229758031555,1.32387366842044,1.32334774289788,1.32343491964625,1.32153742775903,1.32073664494392,1.32285415265471,1.32046139097362,1.32249699972604,1.32242712633775,1.3235175037326,1.32324602953535,1.32515679161065,1.3253757892594,1.32630122004257,1.32622612357794,1.32432372071354,1.31241516870382,1.27654533570716,1.27695613809339,1.27896288889577,1.29845345240725,1.29345511250589,1.32263535303391,1.32522624299634,1.32221381344189,1.30670377836134,1.32190544403538,1.32312558256698,1.32209324203716,1.2837536476555,1.28852384038331,1.28602249358617,1.32150078890911,1.32439256113556,1.33032482529602,1.33422167060756,1.33601299004763,1.33654894886256,1.33444667659533,1.32947277888836,1.33315016075604,1.33424459529682,1.33494453220021,1.33412282483405,1.33427419963487,1.33443402046475,1.33390146728129,1.3330501049587,1.33037083118895,1.31922103134718,1.32178009183494,1.32558512853155,1.3231230509823,1.30719118264746,1.33149582128568,1.34444034911536,1.34377848695177,1.34392464223054,1.34426395537356,1.34406886370165,1.34079648290283,1.28780996630756,1.34390946033589
1.2525030847121,1.25423286862019,1.26758486697052,1.27696618404625,1.28722994099553,1.28880404393538,1.2907636020789,1.29317636976428,1.29621807953096,1.29952924581681,1.30282090973647,1.30569175828013,1.30749709796876,1.30897368515265,1.30870403953778,1.30769331786871,1.30597164513605,1.30455627558141,1.30484870036834,1.30442700587594,1.30330950532341,1.30178014606697,1.29965917640499,1.29726344574713,1.29428494353783,1.29115041400293,1.28798610481558,1.28479047909604,1.28239922805544,1.2789218288941,1.2765038095969,1.27793451673268,1.28022152791115,1.28343140398833,1.28727966920309,1.29151225234354,1.29401879013127,1.29652030676625,1.29549297033444,1.29504188013159,1.29238627212987,1.29134652962896,1.2907880970301,1.29323551565387,1.29552062949264,1.29466472414364,1.2736420890251,1.27063145739461,1.30624018188294,1.30425737497521,1.30338497196505,1.30060689607164,1.29955922263384,1.29584144021033,1.29120770775499,1.28756572691235,1.30489049376391,1.30471311233665,1.30520427946096,1.30499754284451,1.3048515485781,1.30275859371733,1.30135699026949,1.29738168672439,1.29453683085143,1.2758605860897,1.27477175436255,1.27493775903002,1.31206989177914,1.32194630441284,1.31698331781996,1.31279424243703,1.31123656518375,1.29962849474184,1.29497689858202,1.2975970638889,1.3021042190445,1.30804929686247,1.31347502602775,1.31805854507999,1.32039344150269,1.32787853838719,1.33237238215644,1.33515234384731,1.32190811534194,1.30894385675038,1.29441452750399,1.29580349181329,1.29833393574925,1.30110952990999,1.30332048140396,1.3052757204734,1.31040164019878,1.31548256186066,1.31709419149177,1.31569680204857,1.31451837954579,1.31142746610585,1.31445174426896,1.31659624472757,1.31920932318318,1.32084052384466,1.32144159177449,1.32117893705044,1.32023890893482,1.31849243478723,1.32013582651709,1.32092321541376,1.32101873173946,1.31912202278124,1.32196366587023,1.32235184921739,1.32024588826014,1.31674972855078,1.31260221366119,1.31103223390973,1.30803647077585,1.27477161414568,1.27546194374409,1.27716540280626,1.30342533899723,1.30485386798785,1.3199595368828,1.31855280882965,1.31695623571728,1.31384215007367,1.31765174315906,1.31899978252132,1.31876486389839,1.28899154949056,1.29348960594644,1.29759692312361,1.31846982565213,1.32757384454052,1.3269026310861,1.32587515073149,1.32784648133712,1.32972376464008,1.33088558560687,1.33133308402196,1.33337985114906,1.33440704047268,1.33501172909727,1.33465260993791,1.33415170857272,1.33184991419592,1.33137272889277,1.33015801186156,1.32744770713542,1.32329603389217,1.32191127247463,1.32181413496318,1.32219120174468,1.32262089143724,1.32203854372945,1.32423102120486,1.32709620071844,1.32936176359977,1.33137845981435,1.33371337714153,1.33715447898715,1.33804363036536,1.33842581392325
1.25000597024206,1.24892167658089,1.2610727764805,1.24751094416726,1.28506823186691,1.28849801608641,1.28378443877047,1.263323765239,1.29062906221267,1.29565186942694,1.29485446729182,1.29460366779754,1.30349952135129,1.31026880074882,1.30943067374798,1.30894768948793,1.30590695216291,1.30322809983039,1.29438102365576,1.25125343556773,1.28266942638358,1.30562856153039,1.28083407225628,1.27224003874538,1.26242777183943,1.2530025559107,1.27113666198107,1.29536121012379,1.28538961597963,1.28879282915861,1.26303673747301,1.25194327804641,1.2498955435064,1.2496779816598,1.28205305666299,1.29322238143512,1.29393244351327,1.30104714260273,1.29738566795911,1.29657516524794,1.2935060080416,1.29043526956956,1.2920472385325,1.29375028516961,1.29359569267463,1.29204932178722,1.27640401529616,1.26815864005649,1.30291165593102,1.30177501280897,1.30207127380738,1.29930300846135,1.29942726087385,1.29860673548122,1.28975603234601,1.28420844771461,1.30102894479315,1.30453742336213,1.30379870740955,1.30339921533851,1.30449697621794,1.27939228131295,1.30347165743889,1.32305705772777,1.2971004591808,1.26978912778977,1.27226842069187,1.27205499564293,1.30973334965642,1.32981970272111,1.31380682079341,1.31141389583757,1.31068121998037,1.35869006182514,1.29773985627467,1.29465339647721,1.30024470272094,1.27431319052859,1.28661775034037,1.277769687135,1.31668391796464,1.33610663237405,1.33485438201578,1.33650640969012,1.31912391330127,1.27252343931463,1.28152259436172,1.27368284991434,1.29897123889136,1.30162064206431,1.30207531556118,1.30337324825082,1.30571515405892,1.31655792555102,1.31613209893462,1.31404640863064,1.31410684165659,1.31305434354125,1.30874106199952,1.27099679932255,1.28122629428813,1.26918241486725,1.27996926464685,1.2677849581789,1.30365259369626,1.31451653564453,1.31005970485165,1.27037394951945,1.30315644286375,1.31377784411884,1.29616742068275,1.27120857436406,1.30061283006927,1.31642986968294,1.30977383388249,1.30046001149515,1.30463728427066,1.27236327549811,1.27305204590948,1.27141290997421,1.30741571515775,1.31902640501153,1.31945235710932,1.31706488505009,1.31534963580072,1.27208205987127,1.31465292605841,1.31985976197081,1.31439838787937,1.27415705201551,1.29912719706724,1.30104642706544,1.31472743515418,1.33163121363053,1.32367138182225,1.3196483442395,1.31307429418634,1.30939746994741,1.30857356629042,1.27222337092601,1.29177207080679,1.27940945626837,1.30925131644612,1.31724921430907,1.32395462972525,1.32785597864387,1.32936121347085,1.32870490461081,1.32640948248258,1.32520392876639,1.32165219923536,1.31921466914703,1.32160983104743,1.32302563681055,1.3199801960609,1.31603396761967,1.31530011962243,1.31530730856657,1.32538120251983,1.33227721743917,1.33575235729391,1.33742988226776,1.32507521454126
1.28710314320808,1.28815535757385,1.28770279119796,1.28596618058676,1.28295682357868,1.28123573940733,1.27889575295817,1.27803673846277,1.28475599385647,1.28774892437946,1.29103898053062,1.2938956239926,1.29568903756509,1.2968643964519,1.29338113304778,1.28999052514023,1.28682692264718,1.2836982710933,1.28072570016018,1.27891660153472,1.27503816968794,1.27205517809635,1.26837730481423,1.26380318533635,1.25844587932376,1.25319648104499,1.24786854519284,1.24505708822069,1.24325194556775,1.24274048405123,1.24424382364993,1.24790179137411,1.24826384752727,1.24782951089526,1.27754644661545,1.28007988491007,1.28484410126339,1.28884059675279,1.2921016141182,1.29437776221761,1.2930255552814,1.29201686917828,1.29153331072019,1.29242381199224,1.29122666333602,1.28866696211908,1.28145699529038,1.28077034956605,1.29969495978522,1.30313867320791,1.30236976398422,1.30193021217897,1.29970077579309,1.29732567761277,1.29235504079012,1.29030396464466,1.29531284113745,1.29824568808456,1.302121019109,1.30362507172629,1.30501824065128,1.30640148781695,1.30673793305974,1.30921916150871,1.30109931868381,1.30125369746529,1.30032601724491,1.2993075397089,1.30703970284073,1.30805718313959,1.30712411346385,1.30577497137334,1.30444070390558,1.30293808215572,1.3016986016781,1.30269891224939,1.30401960694293,1.30614098504919,1.30774947934107,1.30792623128178,1.31194384689626,1.30996569708307,1.31058542368159,1.31230234607024,1.31375338816862,1.30441812508275,1.295896601775,1.29561972214944,1.29758985997542,1.29903273369276,1.30032074225022,1.30225027496642,1.30284067946309,1.30255250859667,1.30180807535297,1.30157812558449,1.30148953757219,1.29980744074592,1.29968675594842,1.30069851610641,1.29951790807629,1.29909355458899,1.30035485140507,1.30131200280279,1.30221107934741,1.30374887444541,1.30323403485242,1.3000259110433,1.29492456967797,1.29085197679226,1.28575562501575,1.27931106506592,1.28747235756789,1.29220745197178,1.30079286897123,1.30188950993962,1.30486872588031,1.30817404958568,1.31010020767997,1.31084421714643,1.30979875389636,1.31103478136653,1.3093489562479,1.30932288337787,1.31068863678974,1.30985210799443,1.31046060294434,1.30918921642361,1.30893452350906,1.30441704758458,1.30247062401634,1.30235193835008,1.31010891808795,1.30991095363732,1.30841845356077,1.3085954282904,1.30823777930249,1.30838039577989,1.30711837794396,1.304094925566,1.30262241743848,1.30121725875731,1.30355407000298,1.30724757524109,1.31065398494981,1.31319928914722,1.31500244770254,1.31658459989503,1.3194082960793,1.32353119467216,1.32190253320567,1.31954984135346,1.31823023741702,1.3173639839252,1.31608976235408,1.31555129696866,1.31460653769695,1.31220351051934,1.31051553161795,1.30932319800818,1.30907746871743,1.30919071760591,1.30773471874383
1.28696628131529,1.29525437878484,1.28793872880745,1.29119724595008,1.27921758686549,1.23792365517903,1.27646254158282,1.27533705580342,1.28178893738503,1.28519699130356,1.28135783609051,1.26182774099266,1.28446332802286,1.30137668008958,1.28167470478917,1.26459623230916,1.27686597585829,1.2784444025919,1.28017309505437,1.28132659259365,1.2736777483688,1.2415374109241,1.25087271097059,1.23912276053411,1.24621574462561,1.24008247641043,1.24501655766193,1.2430342750666,1.24358266980945,1.23773625829139,1.24349356607519,1.23957573577861,1.24786216426743,1.24576861814947,1.2675185243921,1.25884321469316,1.28135235895745,1.27596474270242,1.29206112012982,1.29395121584216,1.29256416429945,1.27536339940497,1.29035845707483,1.31308331475109,1.29094278249828,1.27180582462248,1.28167625899665,1.27841980380323,1.29558775362169,1.30425893241635,1.30283294306868,1.30522961833482,1.30045796851314,1.29776071170097,1.29441809833225,1.28784081328115,1.29114881504263,1.25519599436667,1.29427779987796,1.3043071528655,1.30572173843074,1.3076430155544,1.30821064350957,1.3116472059369,1.3030963311735,1.3058286235344,1.29951347117744,1.29791540665351,1.30269217984843,1.3092249160909,1.29927262480857,1.26590204212889,1.29826603725664,1.30289821108221,1.30315020979614,1.31148490964143,1.30750299127383,1.3110110321752,1.30799817275367,1.30712415472652,1.30903047014344,1.30721107227379,1.30995750961213,1.31073113995966,1.31137871448877,1.31192618765509,1.29575093504647,1.29237953836617,1.29645702352597,1.29657189555891,1.29783379854956,1.26168326780142,1.30183351087422,1.30274604759276,1.29838861809925,1.29420033081673,1.29552952086214,1.29643039555647,1.2998280635562,1.30189524273065,1.29751570966001,1.29870203053889,1.29979038948034,1.30213646268246,1.30123454751688,1.26073612347746,1.30401027679123,1.3097062731712,1.2923917197536,1.26264441870344,1.26587855386698,1.26342158183125,1.28426718755111,1.27827417994598,1.2996166010362,1.30130597841666,1.30493328996559,1.30868559926128,1.31034729842721,1.31242466436516,1.30783908611473,1.26304151478891,1.3070224161126,1.30772195101575,1.3075532703928,1.30741514353829,1.30751217001004,1.30773395537941,1.30530286596887,1.30290025492395,1.30232076863932,1.30254469686291,1.30628992860683,1.31159557254104,1.30777992485157,1.30381241990648,1.30609379955564,1.30759128888821,1.30760171176787,1.31125391651024,1.30005547053189,1.29856379687066,1.29903761122343,1.26536122195829,1.28334769438424,1.27878244627526,1.31114911782819,1.31223412156857,1.31667845513576,1.32772019165832,1.30967446855268,1.30257450037113,1.30120512107287,1.30193493909375,1.29924437035625,1.29610705450705,1.30665532241624,1.31056599239527,1.30831317589382,1.30770032611425,1.30940424552637,1.3112071347741,1.30950474758786
