0.669774, 0.686471, 0.686886, 0.665161, 0.666431, 0.670958, 0.671144, 0.677815, 0.677589, 0.653992, 0.667933, 0.6748, 0.686875, 0.669769, 0.677096, 0.681083, 0.674071, 0.00362982, 0.690528, 0.690257, 0.69792, 0.673785, 0.679401, 0.682687, 0.694233, 0.693906, 0.684107, 0.687915, 0.700297, 0.704624, 0.701404, 0.705356, 0.67073, 0.691254, 0.673843, 0.704511, 0.698726, 0.701006, 0.698573, 0.701478, 0.687468, 0.698574, 0.707043, 0.712608, 0.707228, 0.706059, 0.701358, 0.725749, 0.703544, 0.707078, 0.721823, 0.701201, 0.706361, 0.707424, 0.701563, 0.736111, 0.729243, 0.741374, 0.710816, 0.749558, 0.742639, 0.725117, 0.74596, 0.00374407, 0.673495, 0.724498, 0.75328, 0.722468, 0.766626, 0.739529, 0.759097, 0.745734, 0.756883, 0.749204, 0.760312, 0.770923, 0.787753, 0.815233, 0.763333, 0.78856, 0.801771, 0.732621, 0.711478, 0.713555, 0.713306, 0.714467, 0.713909, 0.7145, 0.714542, 0.715768, 0.770363, 0.784257, 0.725063, 0.709377, 0.777624, 0.710661, 0.710802, 0.710245, 0.675889, 0.666656, 0.63328, 0.633019, 0.649686, 0.640258, 0.644102, 0.648509, 0.693416, 0.673018, 0.715098, 0.71683, 0.757138, 0.776848, 0.769709, 0.768399, 0.766669, 0.819366, 0.832845, 0.85312, 0.805668, 0.80696, 0.840948, 0.829435, 0.829952, 0.84466, 0.846868, 0.848869, 0.849718, 0.843578, 0.839885, 0.950723, 0.953418, 0.961301, 0.895053, 0.897303, 0.899871, 0.900606, 0.90043, 0.89552, 0.950035, 0.940742, 0.88552, 0.885813, 0.93399, 0.940764, 0.941267, 0.944542, 0.950504, 0.945613, 0.945346, 0.954131, 0.954757, 0.888584, 0.888925, 0.892741, 0.896969, 0.858257, 0.867409, 0.870513, 0.871405, 0.860399, 0.857179, 0.854479, 0.852918, 0.856809, 0.836794, 0.843351, 0.835873, 0.861384, 0.83491, 0.824845, 0.829015, 0.81216, 0.808417, 0.788098, 0.797493, 0.812845, 0.807731, 0.783669, 0.818231, 0.777598, 0.811299, 0.761391, 0.797919, 0.747258, 0.767012, 0.762098, 0.756051, 0.733392, 0.734375, 0.732994, 0.715164, 0.716666, 0.721363, 0.735033, 0.740331, 0.723137, 0.735491, 0.723635, 0.739634, 0.792198, 0.783336, 0.783539, 0.830149, 0.780317, 0.847268, 0.00387649, 0.0036778, 0.00326414, 0.0037583, 0.843411, 0.842795, 0.828933, 0.00356229, 0.842089, 0.835071, 0.0036676, 0.00382242, 0.828986, 0.802997, 0.00355157, 0.852734, 0.803972, 0.860254, 0.865607, 0.850033, 0.867667, 0.867388, 0.00361523, 0.850564, 0.859487, 0.860132, 0.863631, 0.861377, 0.00336359, 0.870684, 0.869647, 0.854244, 0.872108, 0.86403, 0.00334891, 0.868038, 0.875017, 0.00346892, 0.85957, 0.819197, 0.90128, 0.884855, 0.867312, 0.895592, 0.890328, 0.874284, 0.884874, 0.908895, 0.839278, 0.901417, 0.887714, 0.886417, 0.897644, 0.899302, 0.909645, 0.901142, 0.889094, 0.888611, 0.00312999, 0.0037533, 0.929166, 0.919867, 0.914971, 0.00364953, 0.00363083, 0.00373346, 0.00367002, 0.00392888, 0.00341479, 0.003736, 0.0034383, 0.00344326, 0.00366916, 0.00336387, 0.00356029, 0.00378382, 0.00365846, 1.0131, 0.00367495, 1.0093, 0.00321111, 1.0152
0.656803, 0.665792, 0.666087, 0.664841, 0.667259, 0.675396, 0.677035, 0.670707, 0.677384, 0.642278, 0.618948, 0.662928, 0.679143, 0.659753, 0.00355784, 0.673614, 0.653123, 0.657888, 0.663133, 0.645989, 0.673912, 0.661117, 0.687733, 0.687265, 0.693403, 0.666879, 0.667037, 0.695127, 0.00328304, 0.669778, 0.674319, 0.674998, 0.670501, 0.676458, 0.664707, 0.689308, 0.684425, 0.677887, 0.669814, 0.696958, 0.683293, 0.70287, 0.683817, 0.705055, 0.686773, 0.709329, 0.687975, 0.708811, 0.708911, 0.700842, 0.729104, 0.726725, 0.699744, 0.702849, 0.736273, 0.735811, 0.693909, 0.716006, 0.653541, 0.715916, 0.711706, 0.737862, 0.735895, 0.723208, 0.738266, 0.750484, 0.700925, 0.72863, 0.75308, 0.725447, 0.767701, 0.727182, 0.764239, 0.749105, 0.767198, 0.769712, 0.687696, 0.719457, 0.773808, 0.781119, 0.770467, 0.790843, 0.806987, 0.794984, 0.809446, 0.814346, 0.825623, 0.699224, 0.825101, 0.706296, 0.707484, 0.710652, 0.710794, 0.729285, 0.696787, 0.697068, 0.705525, 0.618581, 0.64351, 0.632731, 0.64809, 0.601756, 0.645874, 0.632271, 0.647413, 0.638924, 0.68387, 0.682221, 0.70508, 0.735131, 0.734965, 0.773767, 0.775252, 0.775768, 0.775775, 0.776506, 0.771444, 0.835807, 0.798407, 0.850035, 0.89031, 0.883984, 0.926337, 0.844027, 0.844404, 0.855155, 0.856362, 0.857686, 0.849128, 0.858269, 0.857709, 0.877177, 0.880011, 0.881101, 0.882493, 0.888125, 0.875338, 0.880555, 0.87979, 0.879809, 0.870283, 0.871857, 0.864673, 0.950252, 0.87224, 0.876215, 0.877084, 0.884367, 0.932986, 0.877807, 0.87861, 0.947513, 0.903116, 0.906187, 0.883646, 0.887322, 0.878244, 0.838641, 0.846487, 0.83029, 0.831868, 0.831683, 0.826632, 0.825849, 0.823776, 0.82376, 0.862714, 0.864468, 0.840728, 0.845414, 0.814982, 0.806067, 0.818877, 0.779592, 0.78352, 0.777634, 0.791873, 0.777047, 0.76541, 0.76949, 0.770258, 0.770614, 0.750544, 0.777982, 0.756746, 0.762981, 0.736685, 0.732645, 0.732117, 0.759312, 0.723471, 0.724703, 0.721993, 0.720942, 0.715831, 0.739868, 0.725712, 0.708057, 0.718512, 0.759357, 0.754931, 0.719686, 0.70746, 0.762778, 0.762681, 0.764466, 0.816114, 0.00402709, 0.7899, 0.792652, 0.800809, 0.821698, 0.837137, 0.847394, 0.00357347, 0.842143, 0.00319137, 0.843139, 0.0037762, 0.00384816, 0.00367716, 0.848888, 0.00354547, 0.839911, 0.861337, 0.862458, 0.861022, 0.862837, 0.850476, 0.860395, 0.861158, 0.854276, 0.866104, 0.853838, 0.870376, 0.862835, 0.861277, 0.88122, 0.873012, 0.88065, 0.0033553, 0.880094, 0.884479, 0.871736, 0.845345, 0.90268, 0.00344616, 0.887995, 0.819435, 0.870897, 0.822777, 0.891417, 0.00343448, 1.4648, 0.883182, 0.882115, 0.00366816, 0.885024, 0.00354601, 0.846242, 0.869604, 0.88878, 0.00374069, 0.00323908, 0.905956, 1.30254, 0.00366638, 0.895005, 0.00368988, 0.00386314, 0.00339867, 0.00366672, 0.00342838, 0.00375241, 0.00344988, 1.31933, 0.00351464, 0.0040664, 0.00359567, 0.687426, 0.00368224, 0.0037506, 0.00344333, 0.00372058, 0.0036547, 1.00242, 0.00326973
0.65635, 0.643119, 0.651629, 0.662997, 0.669734, 0.664045, 0.670851, 0.669943, 0.638783, 0.660645, 0.666106, 0.666758, 0.650619, 0.659496, 0.667754, 0.669331, 0.671539, 0.66613, 0.667349, 0.660591, 0.670237, 0.656471, 0.663475, 0.66277, 0.677177, 0.677784, 0.651446, 0.669799, 0.680978, 0.682465, 0.667829, 0.681374, 0.66156, 0.661025, 0.659092, 0.682679, 0.691071, 0.681987, 0.663522, 0.689867, 0.663977, 0.66938, 0.668773, 0.682442, 0.699661, 0.688294, 0.687865, 0.6635, 0.701796, 0.681659, 0.691799, 0.708526, 0.701533, 0.699278, 0.692324, 0.704077, 0.724866, 0.728504, 0.712588, 0.704836, 0.717004, 0.705368, 0.705105, 0.721692, 0.729817, 0.720828, 0.739588, 0.748583, 0.747216, 0.753263, 0.752659, 0.756178, 0.758212, 0.768009, 0.756479, 0.679296, 0.687087, 0.771043, 0.753121, 0.686018, 0.784571, 0.782023, 0.794937, 0.684781, 0.684447, 0.677813, 0.676993, 0.677289, 0.700965, 0.670448, 0.674648, 0.674779, 0.67363, 0.666675, 0.656282, 0.669461, 0.626127, 0.59691, 0.613849, 0.594482, 0.606215, 0.598473, 0.598596, 0.614569, 0.652373, 0.674318, 0.700588, 0.717724, 0.731739, 0.759144, 0.761291, 0.773737, 0.775786, 0.77476, 0.774935, 0.778046, 0.770588, 0.778267, 0.778197, 0.89103, 0.899497, 0.901351, 0.911103, 0.913587, 0.846439, 0.849224, 0.845827, 0.846309, 0.919661, 0.859115, 0.870115, 0.870491, 0.88517, 0.874448, 0.877814, 0.877913, 0.879819, 0.879595, 0.879734, 0.882602, 0.869072, 0.872274, 0.87186, 0.872405, 0.873509, 0.875295, 0.876835, 0.939883, 0.87834, 0.865117, 0.90646, 0.930223, 0.856859, 0.858182, 0.901935, 0.873486, 0.884182, 0.873342, 0.874864, 0.873218, 0.823207, 0.838381, 0.84143, 0.841838, 0.817842, 0.820944, 0.79111, 0.792222, 0.822803, 0.814247, 0.801648, 0.774033, 0.774774, 0.762839, 0.767015, 0.786688, 0.818514, 0.763116, 0.756908, 0.743291, 0.745016, 0.749129, 0.770612, 0.747872, 0.759799, 0.748952, 0.750629, 0.731688, 0.739343, 0.742305, 0.740495, 0.740107, 0.737207, 0.736796, 0.725314, 0.726835, 0.735936, 0.721616, 0.724506, 0.729121, 0.732015, 0.714918, 0.703671, 0.702529, 0.758193, 0.75985, 0.761295, 0.812329, 0.820126, 0.78692, 0.788666, 0.784296, 0.793582, 0.787882, 0.847174, 0.784884, 0.786103, 0.00346745, 0.843174, 0.83323, 0.825782, 0.855676, 0.849122, 0.00365306, 0.00325323, 0.855694, 0.857124, 0.839667, 0.837047, 0.839323, 0.855941, 0.857494, 0.877178, 0.00368513, 0.834906, 0.846959, 0.842649, 0.850199, 0.847798, 0.00378159, 0.886967, 0.840687, 0.872696, 0.80136, 0.864158, 0.847851, 0.808235, 0.0032253, 0.888519, 0.0034911, 0.870407, 0.87068, 0.881326, 0.00366639, 0.881402, 0.881264, 0.884466, 0.881328, 0.00384957, 0.877639, 0.881536, 0.897755, 0.915669, 0.00370366, 0.962063, 0.00332552, 0.00372238, 0.00349437, 0.9227, 0.921546, 0.914894, 0.00373487, 0.71575, 0.00355153, 0.00371075, 0.00364504, 0.661162, 0.00354815, 0.970963, 0.0038787, 0.00384801, 1.00178, 0.00322665, 0.00385368, 0.00371317, 1.00819, 1.01198
0.644991, 0.624489, 0.00371845, 0.643429, 0.00350314, 0.620845, 0.642221, 0.629214, 0.639454, 0.639358, 0.637812, 0.63985, 0.616381, 0.643362, 0.649297, 0.648929, 0.646138, 0.636078, 0.647945, 0.660182, 0.63532, 0.659196, 0.665582, 0.660554, 0.644746, 0.647867, 0.656732, 0.649212, 0.64702, 0.670578, 0.660306, 0.667364, 0.674358, 0.635621, 0.64923, 0.647573, 0.64974, 0.668413, 0.664283, 0.681645, 0.662943, 0.683111, 0.673407, 0.659718, 0.672993, 0.656746, 0.684002, 0.674006, 0.670039, 0.686567, 0.0037314, 0.679902, 0.697875, 0.677303, 0.691606, 0.68427, 0.689166, 0.683859, 0.683526, 0.690318, 0.692614, 0.707977, 0.704951, 0.721613, 0.721028, 0.71118, 0.718413, 0.718767, 0.7383, 0.740874, 0.738486, 0.770542, 0.749689, 0.733357, 0.74637, 0.69181, 0.76982, 0.756786, 0.674723, 0.675092, 0.675861, 0.684254, 0.676284, 0.724832, 0.673748, 0.673714, 0.6708, 0.674172, 0.674253, 0.672943, 0.805755, 0.65946, 0.660535, 0.659916, 0.619134, 0.614607, 0.604603, 0.588224, 0.600738, 0.588155, 0.596297, 0.59323, 0.593276, 0.621311, 0.649225, 0.657122, 0.714439, 0.718146, 0.732486, 0.73156, 0.763335, 0.778837, 0.779734, 0.780379, 0.786111, 0.775518, 0.779293, 0.783217, 0.783317, 0.783968, 0.794488, 0.883909, 0.882869, 0.886717, 0.898231, 0.897748, 0.861253, 0.863465, 0.869397, 0.870503, 0.868688, 0.870322, 0.872878, 0.87499, 0.878952, 0.880602, 0.882727, 0.883175, 0.886372, 0.877073, 0.875451, 0.87554, 0.877671, 0.871792, 0.872074, 0.871955, 0.87119, 0.863823, 0.864909, 0.846065, 0.842586, 0.840044, 0.840462, 0.894787, 0.896159, 0.806487, 0.808932, 0.821321, 0.818429, 0.846084, 0.850238, 0.825966, 0.799353, 0.800416, 0.87044, 0.871161, 0.786999, 0.765492, 0.766942, 0.819708, 0.783971, 0.785845, 0.749755, 0.770166, 0.776208, 0.761328, 0.763362, 0.765261, 0.773918, 0.748848, 0.749028, 0.742358, 0.740732, 0.748929, 0.748632, 0.745891, 0.745263, 0.759427, 0.756606, 0.753704, 0.784942, 0.762014, 0.73236, 0.733082, 0.727852, 0.729419, 0.746456, 0.687561, 0.68968, 0.675848, 0.697982, 0.711716, 0.760334, 0.704806, 0.716702, 0.717839, 0.747684, 0.770483, 0.780406, 0.828898, 0.776555, 0.77863, 0.779674, 0.00359627, 0.00370889, 0.808157, 0.822562, 0.818177, 0.00355504, 0.00354318, 0.828056, 0.835894, 0.00382593, 0.833066, 0.833416, 0.807517, 0.835266, 0.003696, 0.00347725, 0.0034919, 0.00348566, 0.860268, 0.838319, 0.856813, 0.00371957, 0.00367685, 0.838918, 0.84583, 0.867013, 0.853563, 0.85645, 0.872061, 0.0033728, 0.00330327, 0.859193, 0.843565, 0.00344401, 0.878368, 0.88178, 0.866417, 0.856522, 0.867222, 0.849099, 0.868275, 0.873061, 0.00344251, 0.876964, 0.879556, 1.54037, 0.00347587, 0.881755, 0.892261, 0.0035664, 0.863301, 0.00380933, 0.900161, 0.00380193, 0.00382407, 0.00371923, 0.91577, 0.00374843, 0.00349767, 0.00360764, 0.933936, 0.951461, 0.971604, 0.659527, 0.66125, 0.641794, 0.63206, 0.00368064, 0.00381756, 0.00342168, 0.00410669, 0.00378957, 0.00407482, 0.00368476
0.625693, 0.635934, 0.622482, 0.62288, 0.608116, 0.618969, 0.00382549, 0.639431, 0.634663, 0.003901, 0.614066, 0.621026, 0.630351, 0.619218, 0.614928, 0.614719, 0.617496, 0.615928, 0.642553, 0.610911, 0.639422, 0.00359305, 0.638316, 0.629044, 0.623511, 0.652569, 0.623047, 0.646433, 0.00371668, 0.00352584, 0.65657, 0.00363927, 0.666158, 0.640179, 0.632587, 0.664602, 0.650097, 0.634838, 0.644908, 0.648696, 0.680559, 0.652627, 0.666971, 0.658588, 0.671039, 0.673241, 0.673979, 1.36866, 0.679455, 0.668471, 0.678113, 0.670985, 0.645668, 0.700361, 0.671083, 0.649175, 0.692402, 0.691223, 0.697517, 0.682143, 0.687457, 0.709775, 0.707362, 0.00316365, 0.690127, 1.29938, 0.73048, 0.718182, 0.732383, 0.00361699, 0.739725, 0.719877, 0.731533, 0.691766, 0.729599, 0.714381, 0.723137, 0.00325992, 0.775177, 0.00368635, 0.822899, 0.82222, 0.821666, 0.722669, 0.795458, 0.655614, 0.668454, 0.667897, 0.694745, 0.65573, 0.656757, 0.656008, 0.618953, 0.63032, 0.615666, 0.608245, 0.591218, 0.576823, 0.570813, 0.584724, 0.589679, 0.5902, 0.592365, 0.616334, 0.702598, 0.714491, 0.743233, 0.735499, 0.756278, 0.751068, 0.770287, 0.775138, 0.777685, 0.784968, 0.78542, 0.772799, 0.772912, 0.797402, 0.80029, 0.800934, 0.800609, 0.802287, 0.880677, 0.905212, 0.905289, 0.912095, 0.91899, 0.901158, 0.876042, 0.883185, 0.879511, 0.878852, 0.879907, 0.879829, 0.883462, 0.883854, 0.886359, 0.887169, 0.988472, 0.872158, 0.876077, 0.87619, 0.875806, 0.871669, 0.872305, 0.873912, 0.871888, 0.87209, 0.861239, 0.860404, 0.929789, 0.827774, 0.829549, 0.811368, 0.81349, 0.813985, 0.811185, 0.810989, 0.81095, 0.839154, 0.839695, 0.787711, 0.863186, 0.784638, 0.763286, 0.813966, 0.765342, 0.764439, 0.756591, 0.808742, 0.773976, 0.742013, 0.765575, 0.765742, 0.742904, 0.758088, 0.77337, 0.736096, 0.73525, 0.74957, 0.728021, 0.731895, 0.765611, 0.72576, 0.741853, 0.743002, 0.735681, 0.768407, 0.772838, 0.764803, 0.771438, 0.764207, 0.733177, 0.774439, 0.691548, 0.69431, 0.699066, 0.690271, 0.676831, 0.680585, 0.67488, 0.694082, 0.693528, 0.711947, 0.716211, 0.713134, 0.717648, 0.717721, 0.73011, 0.7314, 0.793727, 0.00331649, 0.808088, 0.00377011, 0.821782, 0.00368063, 0.818136, 0.821583, 0.825615, 0.825772, 0.824181, 0.770215, 0.771238, 0.0032385, 0.839334, 0.00388575, 0.84241, 0.00361466, 0.857377, 0.00342852, 0.852189, 0.00319945, 0.844417, 0.850779, 0.855101, 0.853695, 0.00350498, 0.860394, 0.856024, 0.850332, 0.85033, 0.84824, 0.855342, 0.853739, 0.860574, 0.85699, 0.00341502, 0.862565, 0.861212, 0.0033815, 0.870311, 0.856304, 0.852798, 0.841178, 0.840725, 0.87078, 0.870663, 0.841524, 0.812733, 0.00365648, 0.0034099, 0.00372281, 0.902952, 0.00345088, 0.00373695, 0.00357022, 0.00350297, 0.92884, 0.930033, 0.00353769, 0.00335979, 0.00365348, 0.00386612, 0.00342364, 0.0034898, 0.607617, 0.620833, 0.00365166, 0.976759, 0.00373783, 0.00378388, 0.00322905, 0.99141, 0.00357544, 1.01495, 0.00344626, 0.00389321
0.61736, 0.618834, 0.60105, 0.617035, 0.615674, 0.603914, 0.603486, 0.598432, 0.625022, 1.17829, 0.61233, 0.612366, 0.597747, 0.608125, 0.614728, 0.615695, 0.59762, 0.606155, 0.605024, 0.589969, 0.60284, 0.63, 0.633114, 1.18927, 0.623328, 0.624796, 0.607895, 0.615737, 0.635927, 0.622198, 0.631328, 0.642914, 0.653135, 0.623489, 0.632879, 0.650488, 0.628288, 0.622054, 0.642347, 0.667225, 0.652196, 0.663049, 0.6721, 0.669964, 0.667284, 0.666069, 0.673368, 1.36497, 0.631425, 0.655415, 0.00338917, 0.660544, 0.661946, 0.681182, 0.683536, 0.66761, 0.656769, 0.689589, 0.00348356, 0.003884, 0.694044, 0.00384291, 0.699036, 0.700987, 0.703183, 0.666992, 0.715789, 0.698718, 0.00353013, 0.00384823, 0.673169, 0.702473, 0.719484, 0.718999, 0.00372561, 0.728077, 0.00358725, 0.65261, 0.00405968, 0.00331382, 0.00352227, 0.643076, 0.702605, 0.63313, 0.634718, 0.635477, 0.657019, 0.707851, 0.692906, 0.686156, 0.681463, 0.612702, 0.631852, 0.593195, 0.590588, 0.552152, 0.552594, 0.583651, 0.584439, 0.606269, 0.582826, 0.614374, 0.618127, 0.69756, 0.698268, 0.713144, 0.730038, 0.736816, 0.742456, 0.771626, 0.774067, 0.753218, 0.750853, 0.757805, 0.759738, 0.762433, 0.762778, 0.762784, 0.84615, 0.789233, 0.79272, 0.792762, 0.890833, 0.894574, 0.905412, 0.907661, 0.899641, 0.914063, 0.892272, 0.88235, 0.881023, 0.883134, 0.882477, 0.883799, 0.894766, 0.895224, 0.897188, 0.899779, 0.9005, 0.875963, 0.8818, 0.882112, 0.883807, 0.884491, 0.88476, 0.884816, 0.872285, 0.871968, 0.864536, 0.943568, 0.804999, 0.807672, 0.809886, 0.811098, 0.811851, 0.819374, 0.819307, 0.806194, 0.807773, 0.83337, 0.840817, 0.843622, 0.778429, 0.766029, 0.747342, 0.745448, 0.744222, 0.782275, 0.791006, 0.783208, 0.783844, 0.750885, 0.792295, 0.742045, 0.801243, 0.801491, 0.767006, 0.768243, 0.770136, 0.716563, 0.717149, 0.716374, 0.727794, 0.736111, 0.771125, 0.736549, 0.736681, 0.735649, 0.748534, 0.739283, 0.753085, 0.736154, 0.728919, 0.688545, 0.690377, 0.691694, 0.691406, 0.679931, 0.67974, 0.683569, 0.65675, 0.657737, 0.670457, 0.672396, 0.715262, 0.707817, 0.705372, 0.713832, 0.729499, 0.719868, 0.727975, 0.729869, 0.825899, 0.787272, 0.818456, 0.828897, 0.828607, 0.763597, 0.00392088, 0.00335029, 0.003511, 0.828042, 0.822541, 0.818781, 0.00337698, 0.756142, 0.758714, 0.824776, 0.00348442, 0.842711, 0.759089, 0.8049, 0.00366874, 0.835069, 0.826616, 0.842427, 0.00343202, 0.828643, 1.42689, 1.42761, 0.846532, 0.857233, 0.00359971, 0.832175, 0.83234, 0.851431, 0.866698, 0.863472, 0.838573, 0.842734, 0.848042, 0.85149, 0.86765, 0.852463, 0.853389, 0.860212, 0.00351878, 0.805506, 0.00400536, 0.00328452, 0.00374068, 0.00335175, 0.00334004, 0.00342735, 0.00379487, 0.00370671, 0.00377477, 0.897845, 0.00377138, 0.00360182, 0.0038116, 0.931989, 0.00360622, 0.00376854, 0.00320328, 0.607955, 0.00374196, 0.00358653, 0.00388138, 0.974679, 0.525657, 0.525894, 0.535515, 0.531919, 0.534014, 0.0036279, 0.518084
0.581404, 0.56746, 0.557143, 0.584117, 0.570719, 0.584585, 0.599014, 0.599879, 0.592922, 0.575255, 0.611047, 0.00362172, 0.00347371, 0.603943, 0.00330733, 0.615082, 0.604822, 0.0036568, 0.577287, 0.582995, 0.59757, 0.0037501, 0.59874, 0.00323955, 0.589701, 0.617546, 0.586802, 0.61602, 0.591905, 0.601981, 0.625794, 0.625019, 0.636011, 0.615997, 0.628941, 0.615587, 0.624727, 0.643564, 0.622074, 0.632639, 0.638081, 0.626482, 0.626251, 0.638235, 0.661169, 0.629856, 0.646922, 0.00339282, 0.646071, 1.37509, 0.677768, 0.650016, 0.639216, 0.663899, 0.666579, 0.625269, 0.659572, 0.665701, 0.659399, 0.658624, 0.671365, 0.655899, 0.658089, 0.00363565, 0.665731, 0.665626, 0.687423, 0.686751, 0.67746, 0.0033546, 0.00325515, 0.00348341, 0.00361323, 0.00384984, 0.679676, 0.0034408, 0.704603, 0.00368981, 0.766717, 0.755122, 0.619061, 0.618486, 0.619356, 0.656402, 0.633892, 0.636045, 0.680774, 0.612228, 0.614159, 0.597461, 0.598195, 0.60927, 0.587543, 0.61843, 0.57116, 0.583357, 0.565389, 0.569659, 0.577558, 0.608028, 0.607214, 0.642648, 0.663228, 0.688919, 0.721758, 0.716352, 0.725146, 0.757428, 0.745745, 0.790358, 0.819174, 0.746563, 0.762934, 0.806772, 0.805569, 0.816991, 0.818482, 0.805313, 0.835497, 0.82515, 0.802754, 0.905741, 0.912495, 0.813546, 0.814137, 0.825941, 0.826526, 0.92562, 0.937359, 0.935824, 0.949192, 0.993651, 0.997578, 0.885298, 0.887515, 0.889283, 0.895957, 0.899592, 0.888882, 0.893803, 0.878248, 0.877323, 0.876449, 0.875635, 0.877147, 0.877573, 0.950027, 0.947426, 0.847583, 0.846854, 0.811635, 0.805876, 0.8084, 0.796858, 0.797637, 0.815461, 0.81364, 0.845926, 0.832524, 0.822504, 0.822755, 0.823467, 0.81843, 0.747931, 0.81686, 0.818047, 0.763502, 0.765384, 0.763999, 0.763553, 0.75628, 0.839597, 0.76251, 0.76372, 0.765691, 0.804516, 0.795462, 0.766319, 0.749768, 0.767837, 0.738001, 0.734894, 0.756376, 0.756558, 0.747236, 0.740783, 0.732291, 0.763438, 0.747713, 0.756265, 0.739002, 0.721943, 0.718795, 0.721586, 0.733766, 0.74, 0.682912, 0.69696, 0.677551, 0.677133, 0.660751, 0.646972, 0.662628, 0.653114, 0.654395, 0.712736, 0.709127, 0.715842, 0.71815, 0.719471, 0.72234, 0.718495, 0.726346, 0.748536, 0.758156, 0.821599, 0.810749, 0.757771, 0.763443, 0.00329143, 0.821143, 0.822427, 0.00378682, 0.0037261, 0.00347254, 0.823214, 0.824865, 0.00328277, 0.829408, 0.83667, 0.00366041, 0.00371855, 0.00360056, 0.830218, 0.00353287, 0.00362559, 0.804628, 0.834863, 0.835455, 0.00376895, 0.845386, 0.00356011, 0.870532, 0.00356758, 0.852927, 0.845358, 0.83348, 0.864351, 0.867318, 0.858348, 0.863059, 0.845767, 0.860788, 0.859442, 0.795706, 0.863034, 0.862671, 0.00340963, 0.00342191, 0.00368085, 0.00375132, 0.00363582, 0.00368646, 0.00360801, 0.879554, 0.00348817, 0.00362573, 0.00362524, 0.00365664, 0.00329502, 0.00377421, 0.00377996, 0.00345277, 0.00374372, 0.00354993, 0.00359599, 0.565731, 0.00353209, 0.568768, 0.003574, 0.525869, 0.528638, 0.528448, 0.525289, 1.01476, 0.0031485, 1.01434
0.00331208, 0.572898, 0.564954, 0.566899, 0.00346807, 0.576711, 0.577405, 0.57011, 0.0036726, 0.00375748, 0.00336086, 0.00356194, 0.573081, 0.572744, 0.00321087, 0.573486, 0.585081, 0.573305, 0.57225, 0.574215, 0.566314, 0.563188, 0.00360738, 0.566858, 0.57851, 0.576592, 0.58342, 0.00371204, 0.00340843, 0.573634, 0.00336224, 0.585015, 0.00333203, 0.00372243, 0.00357397, 0.601593, 0.600865, 0.581253, 0.00327317, 0.600708, 0.631391, 0.628745, 0.611477, 0.602001, 0.633833, 0.610178, 0.612258, 0.607001, 0.595669, 0.643618, 0.612698, 0.622176, 0.625235, 0.635934, 0.635833, 0.634348, 0.643853, 0.629882, 0.644312, 0.624008, 0.635833, 0.645231, 0.00354841, 0.633275, 0.625212, 0.627978, 0.00328896, 0.665533, 0.651747, 0.66253, 0.00328487, 0.69538, 0.00346825, 0.707814, 0.00370776, 0.687795, 0.00373469, 0.711944, 0.00345719, 0.660738, 0.00338155, 0.616505, 0.628825, 0.615383, 0.621316, 0.588092, 0.59017, 0.590978, 0.59295, 0.587375, 0.595179, 0.596563, 0.586474, 0.553747, 0.566448, 0.54545, 0.577762, 0.582453, 0.603966, 0.587861, 0.670965, 0.623842, 0.656559, 0.691812, 0.72272, 0.723056, 0.712492, 0.722569, 0.724034, 0.732354, 0.749717, 0.762348, 0.766416, 0.764751, 0.815801, 0.782795, 0.78258, 0.782909, 0.786196, 0.781874, 0.786866, 0.801063, 0.801224, 0.798073, 0.839031, 0.825065, 0.823195, 0.826466, 0.826219, 0.841072, 0.842387, 0.950711, 0.928941, 0.931165, 0.887402, 0.889264, 0.885078, 0.887473, 0.889292, 0.974584, 0.972899, 0.861674, 0.863075, 0.86474, 0.864171, 0.854778, 0.855648, 0.958591, 1.01581, 0.827519, 0.829162, 0.901692, 0.86343, 0.864744, 0.869265, 0.79249, 0.797064, 0.80368, 0.767078, 0.826169, 0.76724, 0.773494, 0.778206, 0.777248, 0.74909, 0.740829, 0.721478, 0.732996, 0.721058, 0.724609, 0.720508, 0.719527, 0.740463, 0.803106, 0.804069, 0.805821, 0.805584, 0.805763, 0.798425, 0.737737, 0.737651, 0.7487, 0.749278, 0.745249, 0.748833, 0.748784, 0.731109, 0.732423, 0.741969, 0.735725, 0.75007, 0.697127, 0.697983, 0.735141, 0.697532, 0.742986, 0.717512, 0.692429, 0.718462, 0.662937, 0.659963, 0.660146, 0.656337, 0.671703, 0.660131, 0.653677, 0.654245, 0.701994, 0.681243, 0.709344, 0.714628, 0.713441, 0.717568, 0.721556, 0.76282, 0.750307, 0.816869, 0.815753, 0.815189, 0.738499, 0.740181, 0.788214, 0.00331569, 0.815913, 0.809007, 0.808564, 0.812626, 0.819694, 0.81231, 0.802227, 0.00338111, 0.825283, 0.00320654, 0.814452, 0.00348528, 0.814927, 0.00326005, 0.00319237, 0.810977, 0.829378, 0.00348725, 0.829062, 0.834022, 0.00376203, 0.00319832, 0.839634, 0.8399, 0.849023, 0.842693, 0.845793, 0.847357, 0.8548, 0.00346689, 0.842556, 0.003711, 0.854052, 0.00335621, 0.0037214, 0.780792, 0.0033718, 0.00337136, 0.00371626, 0.003098, 0.00390572, 0.00331541, 0.00391951, 0.00355746, 0.00366774, 0.00340331, 0.00356047, 0.00329195, 0.953304, 0.0034182, 1.00871, 0.00339259, 0.98369, 0.00351607, 0.00381693, 0.00343827, 0.00359515, 0.00342641, 0.518185, 0.0035966, 0.00343898, 0.00372792, 0.00341572, 0.00333833
0.569173, 0.548395, 0.555975, 0.00353966, 0.543002, 0.558296, 0.00369023, 0.00363784, 0.00370311, 0.00340973, 0.00389571, 0.00375581, 0.559613, 0.00366584, 0.545231, 0.00351895, 0.550769, 0.561474, 0.569533, 0.0035926, 0.55559, 0.00343641, 0.559863, 0.568892, 0.56213, 0.00370391, 0.569388, 0.564199, 0.0036599, 0.0034855, 0.576091, 0.583801, 0.00369425, 0.00334378, 0.00354646, 0.00334678, 0.590111, 0.580599, 0.579237, 0.571074, 0.592732, 0.589155, 0.593798, 0.588137, 0.614205, 0.614005, 0.594721, 0.601483, 0.604244, 0.00344017, 0.00365711, 0.614979, 0.622149, 0.610741, 0.638721, 0.00339191, 0.638969, 0.632657, 0.622383, 0.630792, 0.618806, 0.623898, 0.63992, 0.624256, 0.640217, 0.642817, 0.643631, 0.633231, 0.639782, 0.00350455, 0.670039, 0.00375502, 0.00370695, 0.674284, 0.678147, 0.00342427, 0.00373999, 0.00352276, 0.593791, 0.670728, 0.598219, 0.59112, 0.593691, 0.694238, 0.697984, 0.584379, 0.556349, 0.579645, 0.557581, 0.587711, 0.569648, 0.549618, 0.549528, 0.553838, 0.56166, 0.565902, 0.569719, 0.573188, 0.560172, 0.586502, 0.625206, 0.625228, 0.632999, 0.690066, 0.66554, 0.697581, 0.744602, 0.721208, 0.73113, 0.747514, 0.760274, 0.760784, 0.762603, 0.80212, 0.82976, 0.828667, 0.853969, 0.837581, 0.838919, 0.781927, 0.844415, 0.846017, 0.846855, 0.849235, 0.849755, 0.809793, 0.856984, 0.862468, 0.863835, 0.837235, 0.837374, 0.877322, 0.850609, 0.936234, 0.936618, 0.942234, 0.87058, 0.871945, 0.871666, 0.87123, 0.881101, 0.880989, 0.876072, 0.875879, 0.849664, 0.85158, 0.852501, 0.833888, 0.833965, 0.836533, 0.837567, 0.839743, 0.867515, 0.771467, 0.773391, 0.785125, 0.786709, 0.780682, 0.780971, 0.767328, 0.771099, 0.757027, 0.757555, 0.850217, 0.719659, 0.721492, 0.720685, 0.722225, 0.821757, 0.714612, 0.717108, 0.723636, 0.768545, 0.77038, 0.749968, 0.808753, 0.758063, 0.728592, 0.734975, 0.791679, 0.79327, 0.741614, 0.743127, 0.745167, 0.746242, 0.746092, 0.742853, 0.757843, 0.726104, 0.707472, 0.708626, 0.69659, 0.697525, 0.699034, 0.69512, 0.79505, 0.757063, 0.735686, 0.687654, 0.65381, 0.64075, 0.640625, 0.643049, 0.645174, 0.655377, 0.65026, 0.642283, 0.688604, 0.696628, 0.699372, 0.702532, 0.705461, 0.706711, 0.708878, 0.807946, 0.808947, 0.804352, 0.791271, 0.787435, 0.735596, 0.805972, 0.00360646, 0.797152, 0.822953, 0.802187, 0.814157, 0.818016, 0.811974, 0.799511, 0.00335394, 0.812997, 0.00353956, 0.826271, 0.798455, 0.789394, 0.00350094, 0.822967, 0.808648, 1.34411, 0.822103, 0.832207, 0.825063, 0.833103, 0.00343246, 0.786588, 1.24768, 0.00372889, 0.82534, 0.831676, 0.00350253, 0.836351, 0.00360606, 0.826264, 0.00357743, 0.844741, 0.00346298, 0.776704, 0.0033934, 0.00340246, 0.00372829, 0.00372354, 0.00351532, 0.00361772, 0.00368853, 0.869465, 0.00351664, 0.00386118, 0.00341091, 0.00372735, 0.00330132, 0.00318883, 0.00379568, 0.0032268, 0.00350745, 0.980196, 0.003366, 0.00400658, 0.00347586, 0.00368155, 0.00339644, 0.00369351, 0.00358603, 0.00363123, 0.00361075, 0.00394098, 0.00349606, 0.00353557
0.536399, 0.528731, 0.532, 0.547119, 0.00329471, 0.00339119, 0.00337621, 0.544694, 0.00357962, 0.00329349, 0.0038759, 0.00362868, 0.00351554, 0.534661, 0.00355819, 0.53593, 0.00393535, 0.549989, 0.00379109, 0.543045, 0.54058, 0.55308, 0.00362116, 0.539624, 0.538725, 0.553239, 0.550252, 0.00362483, 0.556811, 0.559094, 0.00363884, 0.549724, 0.56663, 0.557623, 0.569574, 0.564807, 0.562904, 0.562847, 0.56856, 0.566351, 0.587301, 0.585217, 0.00345686, 0.573047, 0.593352, 0.596878, 0.00346838, 0.586497, 0.596364, 0.595634, 0.00341414, 0.590314, 0.593304, 0.607815, 0.00366077, 0.598053, 0.615118, 0.596156, 0.605566, 0.0035908, 0.619247, 0.609222, 0.00350164, 0.617312, 0.611496, 0.611666, 0.00309427, 0.624908, 0.00374645, 0.0033624, 0.644077, 0.646272, 0.00343507, 0.624719, 0.0037647, 0.00383258, 0.662388, 0.00365241, 0.639057, 0.640797, 0.645317, 0.645824, 0.678145, 0.679282, 0.558953, 0.555998, 0.556857, 0.555652, 0.560036, 0.582977, 0.548501, 0.548714, 0.546347, 0.548926, 0.544842, 0.539001, 0.576347, 0.573295, 0.560557, 0.598358, 0.638919, 0.635497, 0.658705, 0.674758, 0.685937, 0.70113, 0.680056, 0.733019, 0.708557, 0.748844, 0.750047, 0.759604, 0.804205, 0.760187, 0.780274, 0.780339, 0.80327, 0.805769, 0.812478, 0.782482, 0.818318, 0.818667, 0.841992, 0.884978, 0.820348, 0.851543, 0.828209, 0.840401, 0.830204, 0.846268, 0.850226, 0.824632, 0.824726, 0.834751, 0.836633, 0.915834, 0.894512, 0.932113, 0.925645, 0.866421, 0.867641, 0.861441, 0.868634, 0.855625, 0.859044, 0.856827, 0.855216, 0.83748, 0.837117, 0.841031, 0.840835, 0.804607, 0.776806, 0.784109, 0.769882, 0.77275, 0.773924, 0.773247, 0.761721, 0.770603, 0.760788, 0.764895, 0.801062, 0.802562, 0.733733, 0.733824, 0.82255, 0.766033, 0.769777, 0.766206, 0.774345, 0.77372, 0.774383, 0.778194, 0.753728, 0.754392, 0.707664, 0.715229, 0.71589, 0.792072, 0.738937, 0.735733, 0.739137, 0.743959, 0.750354, 0.729589, 0.768619, 0.758755, 0.730258, 0.733267, 0.708034, 0.714174, 0.708177, 0.695704, 0.666415, 0.668139, 0.669356, 0.673873, 0.650533, 0.656325, 0.661661, 0.671034, 0.660233, 0.641403, 0.646036, 0.639265, 0.626535, 0.626234, 0.675469, 0.673226, 0.700903, 0.701486, 0.699525, 0.702363, 0.716181, 0.732285, 0.729103, 0.776205, 0.799056, 0.797035, 0.00356116, 0.00325327, 0.791123, 0.798458, 0.00352744, 0.00346877, 0.805066, 0.808083, 0.80237, 0.00354955, 0.815479, 0.809698, 0.776745, 0.00371558, 0.815177, 0.0036108, 0.802678, 0.795172, 0.0035642, 0.817778, 0.825846, 0.810736, 0.827848, 0.812549, 0.82195, 0.818937, 0.83198, 0.819036, 0.00345907, 0.826276, 0.817087, 0.833753, 0.84076, 0.842053, 0.00366389, 0.00327653, 0.00340683, 0.0036029, 0.0037121, 0.00426644, 0.00372859, 0.0036254, 0.859986, 0.655543, 0.65711, 0.659102, 0.00366502, 0.00361818, 0.0038317, 0.0034267, 0.00340349, 0.00333951, 0.00371492, 0.525479, 0.527458, 0.528736, 0.993195, 0.00342383, 0.00363319, 0.00357809, 0.0034674, 0.00356399, 0.00372162, 0.00362859, 0.00314852, 0.00342289, 0.443084
0.525886, 0.00328505, 0.474101, 0.525275, 0.531337, 0.00339468, 0.520814, 0.00357885, 0.523387, 0.00343568, 0.521189, 0.0031527, 0.525584, 0.00334794, 0.518476, 0.521762, 0.00378251, 0.546253, 0.509127, 0.00322882, 0.00407316, 0.00371817, 0.00365505, 0.525175, 0.542103, 0.541465, 0.00374559, 0.00338683, 0.536261, 0.0037224, 0.536032, 0.00328776, 0.00369391, 0.00324433, 0.00348038, 0.00336671, 0.546644, 0.560825, 0.569448, 0.00331637, 0.00348855, 0.00339524, 0.569726, 0.590147, 0.589315, 0.00358858, 0.57718, 0.00353315, 0.601381, 0.587615, 0.575168, 0.00377237, 0.595813, 0.594834, 0.594625, 0.586867, 0.597534, 0.598095, 0.604132, 0.590937, 0.62316, 0.623231, 0.587244, 0.580454, 0.597043, 0.610347, 0.611763, 0.591451, 0.607153, 0.00393872, 0.60446, 0.622868, 0.635254, 0.00344167, 0.623047, 0.611785, 0.00335683, 0.00348018, 0.00361304, 0.641545, 0.64692, 0.648401, 0.558962, 0.536664, 0.537914, 0.538912, 0.546617, 0.559317, 0.553435, 0.541826, 0.515232, 0.528425, 0.516127, 0.526052, 0.52656, 0.532927, 0.531006, 0.590384, 0.576911, 0.602493, 0.63587, 0.615323, 0.660518, 0.660797, 0.691177, 0.712425, 0.732057, 0.732552, 0.743787, 0.74667, 0.755455, 0.746444, 0.779358, 0.780807, 0.787184, 0.762608, 0.78523, 0.782576, 0.790289, 0.790841, 0.82674, 0.829383, 0.811361, 0.812035, 0.794255, 0.839048, 0.793688, 0.795026, 0.800883, 0.794618, 0.792154, 0.856866, 0.826353, 0.82799, 0.82819, 0.827512, 0.829504, 0.893766, 0.840902, 0.914267, 0.910909, 0.860963, 0.874818, 0.906224, 0.855968, 0.91741, 0.837482, 0.837662, 0.84252, 0.821939, 0.825121, 0.826245, 0.7984, 0.786037, 0.818088, 0.80431, 0.763645, 0.759162, 0.754309, 0.748976, 0.74993, 0.748794, 0.747387, 0.749416, 0.731658, 0.732157, 0.845796, 0.814588, 0.737154, 0.738273, 0.715994, 0.76349, 0.691306, 0.749074, 0.736668, 0.70413, 0.748961, 0.690554, 0.705135, 0.704428, 0.717638, 0.72225, 0.722745, 0.694887, 0.696772, 0.751009, 0.75617, 0.753946, 0.719349, 0.705309, 0.708794, 0.703908, 0.714845, 0.712247, 0.698347, 0.669555, 0.666384, 0.649889, 0.651163, 0.654735, 0.64411, 0.635163, 0.624997, 0.631447, 0.631881, 0.616985, 0.628303, 0.620137, 0.618852, 0.624639, 0.673833, 0.672824, 0.690884, 0.760132, 0.700838, 0.704347, 0.705735, 0.789399, 0.776857, 0.780482, 0.786572, 0.777278, 0.794342, 0.00343015, 0.798256, 0.800518, 0.801284, 0.00347115, 0.791789, 0.789929, 0.782994, 0.794603, 0.805558, 0.00365856, 0.797115, 0.00339054, 0.789314, 0.00336275, 0.793403, 0.00322427, 0.798762, 0.00345862, 0.811725, 0.811782, 0.811238, 0.804216, 0.804694, 0.815659, 0.810793, 0.810923, 0.814372, 0.00336727, 0.00356305, 0.00331601, 0.00341146, 0.00383258, 0.00341291, 0.00347694, 0.00377195, 0.00324748, 0.862972, 0.863588, 0.00360042, 0.655776, 0.657841, 0.659082, 0.00380269, 0.590506, 0.591842, 0.587164, 0.587561, 0.00331799, 0.968641, 0.524937, 0.527345, 0.00330478, 0.96313, 0.00321881, 0.97785, 0.00349193, 0.00375599, 0.00325237, 0.00386657, 0.00341773, 0.998701, 0.443885, 0.442964
0.535343, 0.00323949, 0.00371833, 0.506958, 0.00368508, 0.503631, 0.00349955, 0.503458, 0.00357735, 0.508578, 0.513766, 0.510819, 0.517522, 0.478332, 0.00361818, 0.00338853, 0.00369126, 0.00352555, 0.511912, 0.513407, 0.516087, 0.524741, 0.00356436, 0.52481, 0.00381224, 0.510941, 1.4373, 1.43849, 0.00327876, 0.528527, 0.00353079, 0.00409982, 0.00346877, 0.00388167, 0.537927, 0.00338637, 0.00343834, 0.553038, 0.00350342, 0.511424, 0.00348292, 0.574634, 0.00350437, 0.00372738, 0.00346296, 0.5693, 0.569792, 0.597567, 0.549641, 0.568195, 0.587426, 0.577732, 0.00342445, 0.590092, 0.580266, 0.59566, 0.607712, 0.608241, 0.598638, 0.57857, 0.594665, 0.599116, 0.00320216, 0.57784, 0.576984, 0.585224, 0.0035878, 0.584996, 0.00336657, 0.00362953, 0.00339607, 0.00369695, 0.00335827, 0.602623, 0.604981, 0.608705, 0.00349575, 0.607028, 0.00352165, 0.577229, 0.53435, 0.538014, 0.539483, 0.532686, 0.538459, 0.538352, 0.550022, 0.542711, 0.534909, 0.534683, 0.508422, 0.526201, 0.514029, 0.50414, 0.562015, 0.532545, 0.558871, 0.553596, 0.605198, 0.61461, 0.638782, 0.631339, 0.650796, 0.680493, 0.675593, 0.721311, 0.749359, 0.718461, 0.745142, 0.784124, 0.760365, 0.764385, 0.767397, 0.837448, 0.842182, 0.84038, 0.842274, 0.769059, 0.771205, 0.775173, 0.771217, 0.787549, 0.81895, 0.815606, 0.807761, 0.797842, 0.792956, 0.8107, 0.792861, 0.797761, 0.795686, 0.796322, 0.796438, 0.811246, 0.81927, 0.826702, 0.831332, 0.822554, 0.823068, 0.9297, 0.926014, 0.916261, 0.926223, 0.926451, 0.84567, 0.846288, 0.850957, 0.849508, 0.842428, 0.822255, 0.82524, 0.812396, 0.80898, 0.808567, 0.818135, 0.774048, 0.75568, 0.765078, 0.757262, 0.77425, 0.739858, 0.740993, 0.752926, 0.753024, 0.732231, 0.711995, 0.710757, 0.704459, 0.729707, 0.727215, 0.762682, 0.693904, 0.712629, 0.702608, 0.704166, 0.723064, 0.721557, 0.696581, 0.697337, 0.702403, 0.705942, 0.694935, 0.703751, 0.691258, 0.731773, 0.728524, 0.719695, 0.722139, 0.702676, 0.704102, 0.73611, 0.694582, 0.672978, 0.675202, 0.725502, 0.688051, 0.665675, 0.726279, 0.649489, 0.660214, 0.67373, 0.653538, 0.635041, 0.615071, 0.615838, 0.608145, 0.605086, 0.614158, 0.6147, 0.611662, 0.61094, 0.684748, 0.683214, 0.684729, 0.723058, 0.701496, 0.7026, 0.704329, 0.71217, 0.715339, 0.769198, 0.767828, 0.00380776, 0.785701, 0.00363008, 0.783477, 0.782869, 0.79368, 0.794719, 0.795398, 0.784747, 0.786144, 0.785684, 0.78359, 0.770314, 0.777379, 0.787299, 0.00385406, 0.00357286, 0.794594, 0.00363143, 0.784068, 0.792858, 0.79143, 0.792981, 0.797993, 0.00335487, 0.798017, 0.00381164, 0.797624, 0.00349957, 0.0035087, 0.817418, 0.739991, 0.00359206, 0.00378278, 0.00356821, 0.0110066, 0.00343121, 0.0037463, 0.00330191, 0.829727, 0.00359926, 0.00364926, 0.00341857, 0.00402241, 0.00364813, 0.00346039, 0.00340288, 0.00355111, 0.00383049, 0.00357075, 0.00353319, 1.47744, 0.998098, 1.54823, 0.00365453, 0.990772, 0.00346061, 0.973763, 0.00348585, 0.465495, 0.984451, 0.463315, 0.441368, 1.01241, 0.427151
0.490375, 0.494681, 0.499973, 0.00363373, 0.494686, 0.496811, 0.00366084, 0.00377286, 0.00373081, 0.00368902, 0.00331539, 0.00337646, 0.483644, 0.00342889, 0.49118, 0.00373418, 0.0035245, 0.0034537, 0.00350565, 0.00338703, 0.500447, 0.500522, 0.512301, 0.00346151, 0.508549, 0.512067, 0.00348042, 0.00385693, 0.00337221, 0.00328434, 0.00376769, 0.00339018, 0.0036015, 0.525231, 0.00342983, 0.539364, 0.0035018, 0.00366087, 0.00367887, 0.00388535, 0.00379433, 0.00376973, 0.00342308, 0.00365526, 0.00325118, 0.00381795, 0.00349851, 0.00359469, 0.566239, 0.00355569, 0.00358092, 0.576894, 0.560528, 0.00357133, 0.579444, 0.580001, 0.561105, 0.559401, 0.558705, 0.00347684, 0.00349711, 0.571214, 0.573037, 0.00324961, 0.559736, 0.00373459, 0.00344297, 0.00345801, 0.00363913, 0.0038158, 0.00357873, 0.003748, 0.00372824, 0.877118, 0.0036929, 0.584171, 0.585223, 0.00321763, 0.0034662, 0.600186, 0.528462, 0.535838, 0.531724, 0.531722, 0.533123, 0.51762, 0.535969, 0.531922, 0.503019, 0.507698, 0.470309, 0.500619, 0.510008, 0.546233, 0.548409, 0.528304, 0.551627, 0.565198, 0.611582, 0.596324, 0.657825, 0.65738, 0.659948, 0.690216, 0.697219, 0.688116, 0.728008, 0.731673, 0.7272, 0.728041, 0.782975, 0.781161, 0.762638, 0.76366, 0.881779, 0.849858, 0.809727, 0.810635, 0.796209, 0.816177, 0.792314, 0.794018, 0.795953, 0.810082, 0.800753, 0.799825, 0.800071, 0.801125, 0.801275, 0.840931, 0.841249, 0.807282, 0.808973, 0.851238, 0.838272, 0.834537, 0.839135, 0.820121, 0.822849, 0.822452, 0.822373, 0.823078, 0.837985, 0.836959, 0.837411, 0.89506, 0.947398, 0.83568, 0.835794, 0.835561, 0.828903, 0.831457, 0.814108, 0.810795, 0.818276, 0.773695, 0.776556, 0.772797, 0.820831, 0.821139, 0.743189, 0.745899, 0.725151, 0.725191, 0.759592, 0.714193, 0.708781, 0.709798, 0.707541, 0.690497, 0.693457, 0.715328, 0.696876, 0.724963, 0.713613, 0.704925, 0.710983, 0.714571, 0.704021, 0.711385, 0.696968, 0.702824, 0.700111, 0.702085, 0.688153, 0.696597, 0.723278, 0.724434, 0.718756, 0.715536, 0.710915, 0.708185, 0.708282, 0.708237, 0.676006, 0.70706, 0.698442, 0.694732, 0.659, 0.64254, 0.629355, 0.626744, 0.610464, 0.612331, 0.600146, 0.596962, 0.614681, 0.614784, 0.604192, 0.612833, 0.61088, 0.610859, 0.619767, 0.673768, 0.684233, 0.69507, 0.697248, 0.745277, 0.706668, 0.776229, 0.75761, 0.752159, 0.773787, 0.763446, 0.7736, 0.774046, 0.760718, 0.770797, 0.760574, 0.773743, 0.770621, 0.760691, 0.76404, 0.764492, 0.764927, 0.00353292, 0.771719, 0.771418, 0.00383252, 0.00405743, 0.783596, 0.0035062, 0.783804, 0.00333155, 0.788299, 0.755847, 0.790469, 0.782332, 0.00344326, 0.00357037, 0.808597, 0.00331699, 0.0035499, 0.00363733, 0.00353257, 0.00361929, 0.00368443, 0.00359704, 0.00346256, 0.00379772, 0.00312318, 0.00338097, 0.00345614, 0.00358696, 0.00391818, 0.00381666, 0.00312302, 0.00341369, 0.00391353, 0.00349158, 0.542575, 0.00368615, 0.00377101, 0.00337796, 0.937212, 0.00338218, 0.00355215, 0.00354824, 0.00362281, 0.00383489, 0.970386, 0.00367351, 0.456549, 0.00313106, 0.43813, 0.00348936, 0.988978
0.00360751, 0.00388487, 0.00328228, 0.00377886, 0.00355295, 0.00343618, 0.00359122, 0.479848, 0.00377025, 0.0034259, 0.00319219, 0.00377743, 0.00338391, 0.0037269, 0.00366914, 0.00403362, 0.00338486, 0.00388567, 0.00359149, 0.0039009, 0.00342803, 0.00357852, 0.493218, 0.00384619, 0.0036538, 0.0033127, 0.00318995, 0.00383266, 0.00357909, 0.00401818, 0.00342664, 0.00296678, 0.00340067, 1.00912, 0.00350488, 0.520827, 0.00336844, 0.00412995, 0.00330972, 0.00384196, 0.0036328, 0.00352882, 0.00345573, 0.00397285, 0.00346232, 0.00339946, 0.00334736, 0.00363737, 0.539138, 0.543598, 0.00326121, 0.556213, 0.00348929, 0.549907, 0.542178, 0.00340726, 0.00324598, 0.00363175, 0.003254, 0.0036445, 0.0035562, 0.0036358, 0.00361116, 0.551618, 0.00327828, 0.551528, 0.560285, 0.552957, 0.00335445, 0.00363633, 0.00332006, 0.00383482, 0.00363432, 0.567151, 0.00352308, 0.00362796, 0.00356057, 0.0034957, 0.00336532, 0.00389002, 0.522881, 0.528058, 0.498035, 0.499582, 0.493795, 0.507132, 0.622184, 0.486645, 0.470492, 0.46899, 0.48916, 0.482487, 0.534446, 0.505912, 0.506978, 0.56393, 0.541169, 0.573526, 0.597625, 0.648558, 0.649981, 0.67107, 0.668471, 0.689161, 0.721515, 0.708436, 0.709368, 0.757826, 0.819, 0.74661, 0.816189, 0.76229, 0.763203, 0.853267, 0.802701, 0.860628, 0.860323, 0.812125, 0.814574, 0.793938, 0.794417, 0.832091, 0.807914, 0.825265, 0.813793, 0.814706, 0.819276, 0.819195, 0.864368, 0.823517, 0.826408, 0.842982, 0.809726, 0.810112, 0.880262, 0.868167, 0.819936, 0.824939, 0.826133, 0.898082, 0.833216, 0.836818, 0.822526, 0.825008, 0.829808, 0.835783, 0.835889, 0.834508, 0.830584, 0.831496, 0.841585, 0.841686, 0.939253, 0.823083, 0.823068, 0.819334, 0.806317, 0.783337, 0.814728, 0.810842, 0.842358, 0.743656, 0.724827, 0.726545, 0.723367, 0.712302, 0.725636, 0.697331, 0.69724, 0.718031, 0.697824, 0.699708, 0.697521, 0.741777, 0.6948, 0.697303, 0.718608, 0.708242, 0.70342, 0.708535, 0.705584, 0.693983, 0.678596, 0.695142, 0.700552, 0.70106, 0.708088, 0.700433, 0.702228, 0.717854, 0.718054, 0.719198, 0.701764, 0.712409, 0.710885, 0.68255, 0.701815, 0.662485, 0.663967, 0.676758, 0.639471, 0.628332, 0.635867, 0.600036, 0.603971, 0.605066, 0.602542, 0.607144, 0.615083, 0.600598, 0.608402, 0.60378, 0.607983, 0.665375, 0.666714, 0.676225, 0.684124, 0.710789, 0.693241, 0.744246, 0.754861, 0.755764, 0.752997, 0.00362497, 0.00353806, 0.76377, 0.00364441, 0.766375, 0.763219, 0.769778, 0.749875, 0.760155, 0.76039, 0.759928, 0.761016, 0.759459, 0.760535, 0.764675, 0.00323223, 0.00373243, 0.00331544, 0.766252, 0.00346992, 0.779932, 0.782914, 0.77703, 0.00323532, 0.00381931, 0.00352512, 0.788522, 0.731431, 0.784228, 0.00303318, 0.00363135, 0.00395706, 0.00369398, 0.00386001, 0.00357768, 0.00375714, 0.00377454, 0.00341677, 0.00398729, 0.00330446, 0.00363217, 0.00354807, 0.00361871, 0.00351229, 0.003654, 0.00312702, 0.00368666, 0.00334743, 0.90619, 0.0035912, 0.00345366, 0.00356794, 0.00395586, 0.00366932, 0.947796, 0.00374817, 0.00357468, 0.00352246, 0.00371019, 0.00361258, 0.003903, 0.411249, 0.41281, 0.4134
0.00385331, 0.00323231, 0.00350197, 0.00341351, 0.00375885, 0.00353017, 0.00328845, 0.00369856, 0.00374694, 0.00343704, 0.00351038, 0.0033906, 0.469997, 0.00353563, 0.0035662, 0.00340113, 0.00341081, 0.00334676, 0.00329678, 0.00343592, 0.477284, 0.00358587, 0.00398293, 0.00370897, 0.00341802, 0.0036906, 0.00394329, 0.00364494, 0.0036604, 0.00344192, 0.00317669, 0.00364847, 0.00351034, 0.00337058, 0.00387324, 0.00349123, 0.504721, 0.00319231, 0.00374657, 0.00360957, 0.00351404, 0.00343731, 0.00349235, 0.00343863, 0.00362452, 0.00344121, 0.534233, 0.00341848, 0.515221, 0.00346352, 0.00375913, 0.524478, 0.00336725, 0.00350532, 0.00350504, 0.51548, 0.53159, 0.00347264, 0.00368598, 0.00353071, 0.525359, 0.00343907, 0.531449, 0.537872, 0.00370054, 0.0035265, 0.529705, 0.00376961, 0.00359378, 0.00353814, 0.00349961, 0.00365021, 0.00345973, 0.00346791, 0.00365285, 0.00348972, 0.00379208, 0.00354171, 0.00400018, 0.515002, 0.529603, 0.539546, 0.621543, 0.497685, 0.496111, 0.494565, 0.468348, 0.46932, 0.476262, 0.476945, 0.407623, 0.501213, 0.455752, 0.50559, 0.50568, 0.566328, 0.585657, 0.549255, 0.575591, 0.57606, 0.601242, 0.663984, 0.663603, 0.670872, 0.70033, 0.709248, 0.704967, 0.705773, 0.732342, 0.733914, 0.758028, 0.845794, 0.76576, 0.776722, 0.776119, 0.776251, 0.778151, 0.783625, 0.768136, 0.81439, 0.792557, 0.792186, 0.793166, 0.81182, 0.812858, 0.797321, 0.803934, 0.8026, 0.803663, 0.822462, 0.816136, 0.822564, 0.809557, 0.818855, 0.819374, 0.833064, 0.825849, 0.82577, 0.832539, 0.834368, 0.843245, 0.849769, 0.850025, 0.845377, 0.830682, 0.831972, 0.838522, 0.840381, 0.830028, 0.839568, 0.836167, 0.930467, 0.838539, 0.840606, 0.836628, 0.845479, 0.807387, 0.809304, 0.809819, 0.884535, 0.765004, 0.757737, 0.821706, 0.780954, 0.711276, 0.694765, 0.696222, 0.698615, 0.701158, 0.704385, 0.712835, 0.732782, 0.752537, 0.75436, 0.716353, 0.696015, 0.697193, 0.71063, 0.698992, 0.710007, 0.70389, 0.687127, 0.685058, 0.76289, 0.762309, 0.695255, 0.706841, 0.699796, 0.702534, 0.701959, 0.70002, 0.702267, 0.691284, 0.695869, 0.704571, 0.676932, 0.679597, 0.681168, 0.684026, 0.685876, 0.686389, 0.634472, 0.615111, 0.639521, 0.632624, 0.612232, 0.611259, 0.600369, 0.632201, 0.631322, 0.604461, 0.60399, 0.639039, 0.641532, 0.640772, 0.683888, 0.682644, 0.694164, 0.694499, 0.687558, 0.673236, 0.0033608, 0.00337541, 0.746642, 0.752986, 0.746638, 0.00408129, 0.0032446, 0.750942, 0.765312, 0.76532, 0.00342131, 0.00358771, 0.742029, 0.753147, 0.00331871, 0.755672, 0.757922, 0.763788, 0.00334125, 0.760706, 0.753612, 0.75361, 0.773257, 0.766167, 0.77682, 0.754286, 0.766333, 0.00352933, 0.774281, 0.00321866, 0.00310971, 0.0105552, 0.00319884, 0.00335287, 0.00361614, 0.00365764, 0.00375905, 0.00369529, 0.00376116, 0.00343776, 0.00333741, 0.00364499, 0.0037293, 0.00348545, 0.00353138, 0.00328325, 0.0033808, 0.00390501, 0.00356481, 0.00360746, 0.00357479, 0.00422074, 0.0036855, 0.00337029, 0.00333591, 0.941033, 0.00314862, 0.453002, 0.00349232, 0.0034598, 0.0035719, 0.433899, 0.41335, 1.00592, 0.410123, 0.412318
0.00332173, 0.00387554, 0.00332971, 0.442265, 0.00353645, 0.00377025, 0.00357118, 0.00400275, 0.447988, 0.00359721, 0.00350668, 0.00385591, 0.00339403, 0.451432, 0.00342588, 0.00362223, 0.0038446, 0.00364011, 0.00357537, 0.003367, 0.00341671, 0.00374195, 0.00365818, 0.00333952, 0.00346722, 0.0038721, 0.00379494, 0.00337923, 0.00347265, 0.00390577, 0.00380618, 0.00362037, 0.00349626, 0.00354397, 0.00354267, 0.00374002, 0.497519, 0.00326633, 0.486676, 0.00350812, 0.00343214, 0.00370278, 0.00377882, 0.0032911, 0.00351937, 0.492973, 0.00361942, 0.00358317, 0.00380666, 0.491969, 0.00352687, 0.480772, 0.00340725, 0.00321546, 0.00332656, 0.00368405, 0.00355852, 0.514477, 0.00332316, 0.00340798, 0.0035463, 0.529048, 0.00376627, 0.525595, 0.00356621, 0.00326653, 0.522017, 0.00375116, 0.510431, 0.517727, 0.523946, 0.511963, 0.00358891, 0.00349253, 0.00349552, 0.00342275, 0.00335369, 0.00387036, 0.525633, 0.517467, 0.539602, 0.47894, 0.480042, 0.484123, 0.569075, 0.466487, 0.4692, 0.469348, 0.469994, 0.442075, 0.452104, 0.412576, 0.445315, 0.468524, 0.566427, 0.561955, 0.577054, 0.565109, 0.563179, 0.578338, 0.62425, 0.625116, 0.657438, 0.650827, 0.71487, 0.67767, 0.68495, 0.701407, 0.700637, 0.728015, 0.728421, 0.822221, 0.774629, 0.777413, 0.776923, 0.774365, 0.775484, 0.780724, 0.774448, 0.822885, 0.794711, 0.808129, 0.7899, 0.794821, 0.805285, 0.810409, 0.810822, 0.796624, 0.795468, 0.79809, 0.81837, 0.830036, 0.832437, 0.797569, 0.798735, 0.840695, 0.808657, 0.802415, 0.805807, 0.835366, 0.814393, 0.912544, 0.827776, 0.82941, 0.831678, 0.832497, 0.893999, 0.894363, 0.836101, 0.84498, 0.839148, 0.844343, 0.833547, 0.838211, 0.838787, 0.837438, 0.842584, 0.842047, 0.793221, 0.741822, 0.74332, 0.756512, 0.7583, 0.762901, 0.824591, 0.711547, 0.696796, 0.694698, 0.703803, 0.689966, 0.729967, 0.716893, 0.735325, 0.736074, 0.705237, 0.704522, 0.704884, 0.705412, 0.718728, 0.689594, 0.673237, 0.693487, 0.681749, 0.703374, 0.710525, 0.686168, 0.69191, 0.683928, 0.681655, 0.688881, 0.684489, 0.696401, 0.694932, 0.685084, 0.685763, 0.666503, 0.679261, 0.671237, 0.684151, 0.685593, 0.639062, 0.665934, 0.643195, 0.614891, 0.616158, 0.622098, 0.634847, 0.620546, 0.624531, 0.586164, 0.587128, 0.590608, 0.604625, 0.629296, 0.638009, 0.638985, 0.676065, 0.66634, 0.684023, 0.672809, 0.739198, 0.728139, 0.00379619, 0.00343923, 0.00342675, 0.00362917, 0.00364879, 0.00375267, 0.00368654, 0.00336707, 0.74348, 0.753102, 0.743408, 0.749711, 0.75294, 0.732937, 0.739233, 0.755159, 0.754972, 0.752672, 0.00378661, 0.733999, 0.00340324, 0.00391023, 0.00342644, 0.753841, 0.00357263, 0.764314, 0.773996, 0.00370099, 0.00333644, 0.00322534, 0.00371826, 0.00337747, 0.00358106, 0.0039219, 0.00358895, 0.00349793, 0.00361482, 0.00320409, 0.00354624, 0.00379709, 0.00349011, 0.00353085, 0.00367206, 0.00357861, 0.00373499, 0.00380803, 0.00346151, 0.00339738, 0.00360981, 1.53806, 0.00351935, 1.50242, 0.0034971, 0.946784, 0.00351319, 0.00367002, 0.00351095, 0.00344776, 0.00347406, 1.33768, 0.406226, 0.414167, 0.406171, 0.405666, 0.404576
0.00321486, 0.00339172, 0.421042, 0.00312942, 0.00368439, 0.003537, 0.00356966, 0.00348786, 0.0039359, 0.0036061, 0.00363012, 0.00321741, 0.00366333, 0.00357893, 0.00376572, 0.00355722, 0.00356384, 0.0035474, 0.438176, 0.00330048, 0.410996, 0.00375196, 0.00367077, 0.00356937, 0.00351093, 0.00339674, 0.44259, 0.00352655, 0.467009, 0.0033331, 0.00386444, 0.00325963, 0.461376, 0.00335821, 0.463439, 0.00338052, 0.00332507, 0.00324268, 0.00379039, 0.00367213, 0.465211, 0.00355812, 0.0035543, 0.00353732, 0.00361824, 0.00391521, 0.00358339, 0.466157, 0.0036003, 0.0035988, 0.00338264, 0.00321998, 0.00346903, 0.0033566, 0.00360344, 0.00348302, 0.00396461, 0.00315764, 0.500397, 0.00339115, 0.493167, 0.00355055, 0.00332688, 0.00358622, 0.00350306, 0.00353599, 0.00396791, 0.0034436, 0.00363288, 0.00342133, 0.49948, 0.00353716, 0.510845, 0.0033586, 0.0035745, 0.00364013, 0.00364235, 0.00324251, 0.504981, 0.504898, 0.477418, 0.477984, 0.558975, 0.00357859, 0.466667, 0.448907, 0.453478, 0.452669, 0.452786, 0.438534, 0.443208, 0.450128, 0.417457, 0.436651, 0.532128, 0.529393, 0.525494, 0.537793, 0.567538, 0.592125, 0.639529, 0.626221, 0.613109, 0.681452, 0.679004, 0.70634, 0.690236, 0.72613, 0.731433, 0.728971, 0.735699, 0.806946, 0.756343, 0.785123, 0.77353, 0.764135, 0.825333, 0.778581, 0.770234, 0.773446, 0.776379, 0.776422, 0.79645, 0.763113, 0.770416, 0.826434, 0.789042, 0.790421, 0.790894, 0.771513, 0.774903, 0.833059, 0.835257, 0.794863, 0.795532, 0.807817, 0.784742, 0.786856, 0.812257, 0.841995, 0.812426, 0.814822, 0.814908, 0.915108, 0.833558, 0.839338, 0.840341, 0.842317, 0.846196, 0.848496, 0.837284, 0.838083, 0.839131, 0.829891, 0.823949, 0.825579, 0.805181, 0.805497, 0.806513, 0.752054, 0.752458, 0.801105, 0.724849, 0.710918, 0.711476, 0.708844, 0.704156, 0.766426, 0.768438, 0.768531, 0.695851, 0.711956, 0.710535, 0.707965, 0.722063, 0.723292, 0.703161, 0.702786, 0.694574, 0.721086, 0.701308, 0.673889, 0.681628, 0.680557, 0.669983, 0.691746, 0.691704, 0.690028, 0.680879, 0.682837, 0.670047, 0.670951, 0.665014, 0.662766, 0.661319, 0.680642, 0.684216, 0.634758, 0.635125, 0.654882, 0.601372, 0.607011, 0.623636, 0.58713, 0.588882, 0.6191, 0.643287, 0.605333, 0.602046, 0.581512, 0.583435, 0.598668, 0.59094, 0.61174, 0.635226, 0.659872, 0.659849, 0.66885, 0.676693, 0.73832, 0.723253, 0.724981, 0.725975, 0.0035377, 0.00362457, 0.003603, 0.00360645, 0.00314861, 0.00383146, 0.73659, 0.00407704, 0.00383082, 0.73898, 0.00339362, 0.759342, 0.00318786, 0.745783, 0.0035494, 0.740929, 0.00350414, 0.00385991, 0.00358034, 0.00365914, 0.00354744, 0.00352201, 0.00368416, 0.0038564, 0.00377967, 0.00365459, 0.00363392, 0.698493, 0.00364369, 0.00365672, 0.00357738, 0.00357921, 0.00363181, 0.00352853, 0.00319301, 0.00442296, 0.00343826, 0.00387252, 0.0035524, 0.794748, 0.00350237, 0.0038165, 0.00346587, 0.00358602, 0.0036906, 0.527935, 0.529259, 0.533055, 0.00332198, 0.00351183, 0.00325757, 0.00378331, 0.00336663, 0.00376395, 0.00332468, 0.00372316, 0.0033929, 0.973631, 0.425989, 0.424594, 0.404819, 0.409464, 0.411849, 0.405949
0.00349109, 0.00368277, 0.00341161, 0.00374919, 0.00386243, 0.00353493, 0.00305884, 0.00371442, 0.0037111, 0.00389104, 0.00366606, 0.00358972, 0.00358965, 0.00346044, 0.00346951, 0.00343697, 0.00364756, 0.00384827, 0.00355005, 0.00354493, 0.00366028, 0.00384792, 0.00356352, 0.431461, 0.00322695, 0.00394443, 0.455719, 0.00335327, 0.00368526, 0.00377756, 0.00382475, 0.00368109, 0.00354707, 0.0037675, 0.00361226, 0.00359594, 0.00351416, 0.440992, 0.00317638, 0.00351383, 0.00340135, 0.00378802, 0.0036924, 0.00363593, 0.0034532, 0.00371347, 0.00362349, 0.00353184, 0.00363387, 0.00367237, 0.00362979, 0.456354, 0.00345652, 0.00390476, 0.00355532, 0.00350872, 0.00352294, 0.00390128, 0.47039, 0.00352936, 0.00365948, 0.00387607, 0.00352259, 0.473596, 0.00373329, 0.00330692, 0.00358065, 0.00373271, 0.00357955, 0.00343949, 0.00363406, 0.00349668, 0.0035731, 0.00358289, 0.00349543, 0.00375497, 0.0033132, 0.00347803, 0.484453, 0.481808, 0.51182, 0.518915, 0.466113, 0.44587, 0.428124, 0.427894, 0.424582, 0.444629, 0.446464, 0.418317, 0.431303, 0.433627, 0.427139, 0.508643, 0.511354, 0.533044, 0.52507, 0.570277, 0.573586, 0.575506, 0.570092, 0.613126, 0.646902, 0.658018, 0.670127, 0.667967, 0.645719, 0.67913, 0.705137, 0.731702, 0.725875, 0.756924, 0.757198, 0.759297, 0.760588, 0.76042, 0.783939, 0.784726, 0.785159, 0.784867, 0.774657, 0.777351, 0.748291, 0.738275, 0.756679, 0.753911, 0.745152, 0.770066, 0.760193, 0.766389, 0.756645, 0.77419, 0.774414, 0.786588, 0.765571, 0.797339, 0.779901, 0.782579, 0.783837, 0.783537, 0.788785, 0.784995, 0.794597, 0.805454, 0.845538, 0.843077, 0.809174, 0.833578, 0.834464, 0.835705, 0.83443, 0.841496, 0.841785, 0.828952, 0.876447, 0.878342, 0.81849, 0.816281, 0.816335, 0.756692, 0.760088, 0.757244, 0.729124, 0.733027, 0.747555, 0.709319, 0.683412, 0.696371, 0.680287, 0.677892, 0.700315, 0.701396, 0.705362, 0.746765, 0.697791, 0.72166, 0.705723, 0.703924, 0.658996, 0.687101, 0.70552, 0.690752, 0.704692, 0.695537, 0.694427, 0.690999, 0.681543, 0.691375, 0.685315, 0.664056, 0.666709, 0.66953, 0.683088, 0.653484, 0.640167, 0.628025, 0.642838, 0.6289, 0.622145, 0.647475, 0.603901, 0.6137, 0.621123, 0.603768, 0.606683, 0.570504, 0.577776, 0.577441, 0.606013, 0.581943, 0.60235, 0.595438, 0.59422, 0.615377, 0.639789, 0.618416, 0.653909, 0.646765, 0.665844, 0.656184, 0.634644, 0.720728, 0.00352249, 0.718102, 0.00369999, 0.00367618, 0.00336943, 0.0036756, 0.732694, 0.732976, 0.00354658, 0.725148, 0.728796, 0.746965, 0.735071, 0.749865, 0.742528, 0.723603, 0.743723, 0.750314, 0.00360175, 0.00342775, 0.00339294, 0.746948, 0.00352681, 0.742934, 0.00362133, 0.741826, 0.00343251, 0.0036213, 0.00357703, 0.691865, 0.00365694, 0.00366523, 0.0035584, 0.00367668, 0.00346317, 0.824301, 0.00351738, 0.00423277, 0.00328035, 0.00349083, 0.00350677, 0.00366164, 0.003802, 0.00384182, 0.00362194, 0.00380728, 0.00362412, 0.5111, 0.511304, 0.00343421, 0.00330938, 0.00357204, 0.00348184, 0.00343757, 0.00357258, 1.04095, 0.00344824, 0.987001, 0.00356307, 0.41607, 0.41539, 0.415966, 0.417408, 0.414776, 0.405428
0.00343657, 0.00353437, 0.00349259, 0.00376097, 0.00357427, 0.00351727, 0.00377998, 0.00357155, 0.00365459, 0.00341753, 0.0033351, 0.00381629, 0.00374754, 0.00351367, 0.00379738, 0.00322662, 0.00357912, 0.00328424, 0.414128, 0.00349314, 0.415518, 0.00387508, 0.428482, 0.00366668, 0.00347702, 0.00354453, 0.0037812, 0.00363098, 0.00355333, 0.00331327, 0.00354645, 0.00308318, 0.00396466, 0.00348624, 0.424583, 0.00333129, 0.421267, 0.00365856, 0.00354835, 0.00347374, 0.00368377, 0.00362612, 0.00384131, 0.00365957, 0.00342957, 0.0033941, 0.00358213, 0.00325328, 0.0034034, 0.00343322, 0.428641, 0.00337083, 0.00383385, 0.00350123, 0.448999, 0.00346475, 0.00385499, 0.00349728, 0.00356636, 0.00358574, 0.00376592, 0.00372833, 0.00380368, 0.00348027, 0.469857, 0.00375002, 0.0034287, 0.00359241, 0.00360224, 0.00354113, 0.00386147, 0.00352434, 0.00398173, 0.00347985, 0.00365204, 0.00376642, 0.00335757, 0.00360754, 0.45591, 0.445056, 0.421161, 0.418787, 0.410039, 0.409019, 0.407228, 0.415449, 0.435865, 0.408135, 0.391222, 0.395469, 0.421284, 0.397545, 0.406515, 0.507783, 0.503727, 0.503808, 0.463173, 0.463647, 0.573059, 0.573108, 0.545535, 0.607128, 0.594406, 0.655887, 0.652214, 0.657404, 0.670556, 0.671739, 0.714054, 0.69759, 0.732369, 0.724406, 0.751705, 0.751525, 0.75112, 0.770133, 0.741797, 0.78231, 0.756621, 0.738476, 0.755624, 0.738089, 0.749194, 0.744864, 0.7361, 0.73562, 0.739769, 0.751086, 0.742577, 0.754833, 0.784394, 0.748448, 0.734524, 0.754853, 0.752005, 0.739959, 0.757521, 0.754202, 0.754849, 0.759425, 0.7713, 0.780541, 0.770805, 0.791865, 0.834876, 0.777233, 0.82594, 0.808071, 0.809525, 0.813474, 0.812899, 0.811286, 0.811975, 0.830904, 0.83199, 0.909661, 0.795351, 0.794714, 0.799418, 0.80016, 0.780452, 0.760277, 0.742091, 0.744952, 0.710811, 0.700018, 0.684407, 0.68468, 0.691046, 0.719238, 0.680742, 0.687755, 0.71481, 0.688306, 0.694397, 0.731858, 0.682834, 0.701783, 0.704652, 0.705308, 0.679657, 0.688181, 0.687757, 0.696722, 0.691989, 0.680362, 0.685364, 0.686823, 0.686111, 0.660811, 0.663039, 0.663658, 0.665032, 0.644114, 0.607022, 0.607418, 0.646717, 0.65431, 0.655825, 0.58757, 0.600079, 0.590497, 0.592017, 0.592135, 0.55944, 0.557366, 0.556474, 0.555746, 0.555696, 0.557451, 0.59079, 0.572774, 0.575172, 0.576664, 0.580583, 0.61961, 0.623055, 0.611737, 0.659514, 0.643038, 0.690511, 0.714546, 0.00350678, 0.0036576, 0.00350725, 0.00363572, 0.720878, 0.00370676, 0.735788, 0.735435, 0.704789, 0.00333624, 0.00356913, 0.728921, 0.732204, 0.728087, 0.710073, 0.726761, 0.729019, 0.723087, 0.725746, 0.00337784, 0.731127, 0.0033735, 0.0033716, 0.736302, 0.748583, 0.737103, 0.00334872, 0.746786, 0.680649, 0.681798, 0.683161, 0.683963, 0.684099, 0.683692, 0.00375347, 0.00341062, 0.00341022, 0.00341152, 0.781076, 0.00365392, 0.00383652, 0.00347224, 0.00311511, 0.00342705, 0.516294, 0.514624, 0.516982, 0.518271, 0.00375065, 0.00350431, 0.487142, 0.00363235, 0.00363171, 0.00347112, 0.459635, 0.00379242, 0.00371369, 0.00337873, 0.42936, 0.415925, 0.421894, 0.421034, 0.414663, 0.407703, 0.41387
0.00366982, 0.00361242, 0.00346482, 0.00345758, 0.00319594, 0.0036528, 0.00352832, 0.00328589, 0.00353515, 0.00359602, 0.00334633, 0.00364309, 0.00368675, 0.00350179, 0.00372437, 0.00357752, 0.00349157, 0.0036557, 0.00336375, 0.00367675, 0.0035115, 0.404372, 0.00321674, 0.00415811, 0.00376836, 0.00375889, 0.00353454, 0.00346799, 0.00321187, 0.00353065, 0.00347633, 0.00369576, 0.00321503, 0.0042999, 0.00375382, 0.404213, 0.00319119, 0.00377107, 0.00333991, 0.00347158, 0.00353791, 0.00340714, 0.00354162, 0.00374887, 0.00332586, 0.00359963, 0.00349248, 0.42054, 0.00326828, 0.00371307, 0.00348097, 0.010321, 0.00344332, 0.445557, 0.00373323, 0.00378664, 0.00343971, 0.00374906, 0.00356102, 0.00382787, 0.0033534, 0.00383957, 0.00332863, 0.0109442, 0.00352526, 0.450141, 0.00358973, 0.446023, 0.00321477, 0.00354189, 0.00367728, 0.00356355, 0.00323707, 0.00358445, 0.00350719, 0.00384764, 0.00366496, 0.411704, 0.0036652, 0.415228, 0.448284, 0.421246, 0.48076, 0.461501, 0.414, 0.407297, 0.415223, 0.421236, 0.396459, 0.396922, 0.383403, 0.387136, 0.357554, 0.406144, 0.40428, 0.462181, 0.464049, 0.464515, 0.54488, 0.545981, 0.563289, 0.622446, 0.621368, 0.643104, 0.658527, 0.783606, 0.667702, 0.67931, 0.700989, 0.731986, 0.730906, 0.730477, 0.733616, 0.770915, 0.751525, 0.722818, 0.728099, 0.728069, 0.742455, 0.743573, 0.742656, 0.731341, 0.731674, 0.738679, 0.71468, 0.715901, 0.731239, 0.715671, 0.703778, 0.705441, 0.69019, 0.693744, 0.703356, 0.700803, 0.765248, 0.766236, 0.740872, 0.76731, 0.766731, 0.766859, 0.769991, 0.772461, 0.743861, 0.746884, 0.759514, 0.732706, 0.733594, 0.792388, 0.793964, 0.794125, 0.790192, 0.765413, 0.766678, 0.792538, 0.00336669, 0.793674, 0.793873, 0.793596, 0.79389, 0.76925, 0.78224, 0.783203, 0.806803, 0.808593, 0.784157, 0.730107, 0.696775, 0.684921, 0.748203, 0.725542, 0.75697, 0.696545, 0.680411, 0.729207, 0.685152, 0.686482, 0.680686, 0.668047, 0.669118, 0.697505, 0.709275, 0.686312, 0.682369, 0.705442, 0.717853, 0.715929, 0.667882, 0.653853, 0.655967, 0.655724, 0.658149, 0.657381, 0.638748, 0.652481, 0.641892, 0.610371, 0.610371, 0.605158, 0.61935, 0.603759, 0.579563, 0.598526, 0.552595, 0.567125, 0.552463, 0.537738, 0.558538, 0.559826, 0.559063, 0.593785, 0.583282, 0.582678, 0.572112, 0.583918, 0.584413, 0.581848, 0.582981, 0.651929, 0.652482, 0.622132, 0.618548, 0.653456, 0.65435, 0.00382892, 0.00331439, 0.694842, 0.00370771, 0.701817, 0.00332695, 0.700873, 0.00325322, 0.00376297, 0.00350179, 0.714345, 0.00335109, 0.704472, 0.0034228, 0.00350168, 0.72904, 0.728391, 0.714942, 0.711982, 0.00358529, 0.727004, 0.735808, 0.00366532, 0.00339015, 0.00368775, 0.00360043, 0.675403, 0.678057, 0.680264, 0.681664, 0.682307, 0.00365819, 0.00352449, 0.822897, 0.826625, 0.832938, 0.00365629, 0.00351667, 0.00385508, 0.799002, 0.00385367, 0.0036028, 0.512088, 0.514182, 0.534421, 0.524255, 0.525156, 0.00360044, 0.0034453, 0.00313333, 0.00367323, 0.00336133, 0.00345887, 0.00363385, 0.0037279, 0.00321578, 0.00398889, 0.00369155, 0.00343753, 0.00350647, 0.967561, 0.00332975, 0.960055, 0.00361585
0.00356691, 0.00339553, 0.00373427, 0.0037253, 0.00383155, 0.00345371, 0.00346183, 0.00359875, 0.0036974, 0.00377351, 0.00349797, 0.00369233, 0.00372908, 0.00365261, 0.00329109, 0.00359791, 0.00357576, 0.00345529, 0.00364051, 0.00383366, 0.00339527, 0.376111, 0.00381577, 0.00347727, 0.00359958, 0.00361864, 0.386591, 0.00356637, 0.00376869, 0.00361765, 0.00379339, 0.0032682, 0.00368936, 0.00376349, 0.00341913, 0.00359722, 0.00361531, 0.00352928, 0.00354958, 0.0032165, 0.00364723, 0.00336812, 0.00369326, 0.00328922, 0.00342792, 0.0033208, 0.00351409, 0.00352573, 0.390812, 0.00373524, 0.00364217, 0.00353218, 0.400215, 0.00341369, 0.0037526, 0.00352034, 0.00374537, 0.00343735, 0.00353649, 0.00348231, 0.00379656, 0.00337078, 0.00354404, 0.00352218, 0.00402216, 0.00367554, 0.00330765, 0.00340332, 0.00372586, 0.00343119, 0.00360999, 0.00338633, 0.00371449, 0.00372026, 0.00364769, 0.00351268, 0.00382598, 0.00331671, 0.414557, 0.00367929, 0.0035438, 0.00384435, 0.445022, 0.00333978, 0.405696, 0.37304, 0.373635, 0.375692, 0.370062, 0.381328, 0.374506, 0.352979, 0.358799, 0.360086, 0.45181, 0.445806, 0.453263, 0.462539, 0.418977, 0.482719, 0.52148, 0.522942, 0.590299, 0.601351, 0.601505, 0.613116, 0.613832, 0.636647, 0.664172, 0.689634, 0.711566, 0.725131, 0.743623, 0.733825, 0.697747, 0.724456, 0.711391, 0.724963, 0.708473, 0.763906, 0.75503, 0.732676, 0.734524, 0.69417, 0.685654, 0.721025, 0.701054, 0.704212, 0.683929, 0.718614, 0.725398, 0.695725, 0.695675, 0.708085, 0.703669, 0.70469, 0.735283, 0.756349, 0.763117, 0.752036, 0.75343, 0.738883, 0.745823, 0.725912, 0.722943, 0.723715, 0.741477, 0.786844, 0.777497, 0.774768, 0.785334, 0.777823, 0.786627, 0.720894, 0.719676, 0.784874, 0.781493, 0.737412, 0.740647, 0.750824, 0.753595, 0.777193, 0.779219, 0.780098, 0.747762, 0.750068, 0.75232, 0.726077, 0.700523, 0.73771, 0.733554, 0.694603, 0.683529, 0.720625, 0.702211, 0.721482, 0.700429, 0.700745, 0.700874, 0.700209, 0.700793, 0.677445, 0.712091, 0.6936, 0.704477, 0.695485, 0.643307, 0.646083, 0.643732, 0.6393, 0.655572, 0.648796, 0.651286, 0.62238, 0.62156, 0.640559, 0.607399, 0.621303, 0.629382, 0.573522, 0.572569, 0.56929, 0.560261, 0.553094, 0.52521, 0.532577, 0.54657, 0.572434, 0.547538, 0.546086, 0.542804, 0.555181, 0.556876, 0.575658, 0.604383, 0.573237, 0.574344, 0.577011, 0.612182, 0.588623, 0.590347, 0.695305, 0.628165, 0.642624, 0.682051, 0.684664, 0.687746, 0.698349, 0.689359, 0.0034719, 0.686364, 0.00342916, 0.705682, 0.705264, 0.701035, 0.0036032, 0.714388, 0.711429, 0.718675, 0.714073, 0.721836, 0.719431, 0.71532, 0.00369288, 0.704802, 0.722358, 0.00363993, 0.00353823, 0.726917, 0.729047, 0.701707, 0.00348809, 0.00360645, 0.00347453, 0.00375728, 0.00347379, 0.659145, 0.00346814, 0.00361946, 0.00332886, 0.00375856, 0.794316, 0.791412, 0.00323328, 0.0036552, 0.00343787, 0.535589, 0.528984, 0.542488, 0.00347434, 0.00344343, 0.00363948, 0.0036626, 0.00381927, 0.00373383, 0.00373961, 0.460338, 0.00338219, 0.0035611, 0.00343105, 0.00366308, 0.00331627, 0.00358646, 0.00349088, 0.960138, 0.00363416, 0.00381285
0.00330125, 0.00344787, 0.00368905, 0.00343159, 0.00342896, 0.00343129, 0.00328173, 0.00348724, 0.00370124, 0.00340941, 0.00345047, 0.00368941, 0.00348089, 0.00342018, 0.00333942, 0.00340804, 0.00349207, 0.00354327, 0.00360203, 0.00369783, 0.00376757, 0.00360672, 0.0038996, 0.00404425, 0.00331516, 0.00377567, 0.00354343, 0.00360665, 0.0034488, 0.00360371, 0.00345517, 0.00361284, 0.00343589, 0.00350734, 0.00345339, 0.00373634, 0.00342914, 0.00360846, 0.00361539, 0.00342973, 0.00355991, 0.00370033, 0.00403497, 0.0034009, 0.00356582, 0.00339747, 0.00335335, 0.00354604, 0.0036974, 0.00375654, 0.0033995, 0.00355252, 0.00345232, 0.00373236, 0.00376805, 0.00353805, 0.00329295, 0.00356519, 0.00362947, 0.00334386, 0.00354282, 0.00374201, 0.00385631, 0.00355747, 0.00357488, 0.00350064, 0.00366055, 0.00324103, 0.00368846, 0.00336153, 0.00361856, 0.0036276, 0.00357252, 0.00349724, 0.00368859, 0.00348628, 0.00348847, 0.00365844, 0.0040357, 0.0040359, 0.380322, 0.386406, 0.350101, 0.351257, 0.371214, 0.373772, 0.373732, 0.375517, 0.378253, 0.355578, 0.354649, 0.352365, 0.343481, 0.364803, 0.405599, 0.407543, 0.441906, 0.445449, 0.480259, 0.521849, 0.522769, 0.549186, 0.593135, 0.604201, 0.604035, 0.577122, 0.605823, 0.640018, 0.631754, 0.681355, 0.684134, 0.731964, 0.732673, 0.717394, 0.717788, 0.72122, 0.720963, 0.703827, 0.722437, 0.708232, 0.670852, 0.671004, 0.674463, 0.67319, 0.669493, 0.785545, 0.697066, 0.652048, 0.650104, 0.659138, 0.64439, 0.666847, 0.66614, 0.680545, 0.673695, 0.70407, 0.705064, 0.735316, 0.719442, 0.732193, 0.744615, 0.704122, 0.711232, 0.711046, 0.67341, 0.675898, 0.676937, 0.711377, 0.694785, 0.681135, 0.695308, 0.687485, 0.701491, 0.759612, 0.712953, 0.784513, 0.788253, 0.735985, 0.738898, 0.739661, 0.738785, 0.738989, 0.739296, 0.751793, 0.754222, 0.753542, 0.750439, 0.750235, 0.698116, 0.72454, 0.704895, 0.703618, 0.691682, 0.712908, 0.721636, 0.71426, 0.691805, 0.703894, 0.671717, 0.673196, 0.670707, 0.679114, 0.68782, 0.68601, 0.689798, 0.663131, 0.726009, 0.639546, 0.641079, 0.640183, 0.638555, 0.618331, 0.593977, 0.605441, 0.597575, 0.586493, 0.58402, 0.583484, 0.597185, 0.569986, 0.560141, 0.570721, 0.598231, 0.600639, 0.532975, 0.545816, 0.521617, 0.54078, 0.541356, 0.542954, 0.537221, 0.543571, 0.526226, 0.52654, 0.56766, 0.600942, 0.567548, 0.567566, 0.574948, 0.570144, 0.643583, 0.602143, 0.628964, 0.684182, 0.688884, 0.696027, 0.00361482, 0.701449, 0.699965, 0.00397338, 0.696426, 0.69823, 0.700387, 0.695691, 0.00360862, 0.00369164, 0.708819, 0.706889, 0.712046, 0.703726, 0.711207, 0.713325, 0.712182, 0.705026, 0.713064, 0.00368889, 0.00353078, 1.23383, 0.694515, 0.711488, 0.0035337, 0.00340875, 0.663984, 0.665144, 0.665817, 0.66537, 0.659471, 0.660697, 0.00369026, 0.0037642, 0.0035068, 0.00366569, 0.779743, 0.00355708, 0.00362256, 0.00367915, 0.00379125, 0.00351501, 0.00324609, 0.0036249, 0.00372132, 0.00355038, 0.00392708, 0.00339955, 0.00348229, 0.00341953, 0.00370018, 0.0034508, 0.00369489, 0.00363632, 0.0034593, 0.00368659, 0.0035771, 0.421151, 0.421896, 0.00355015, 0.00350443
0.0035357, 0.00335132, 0.00376021, 0.00324695, 0.00324306, 0.00356522, 0.00342748, 0.00354214, 0.00311941, 0.0032617, 0.00356619, 0.00334784, 0.00383317, 0.00373388, 0.00379576, 0.00351618, 0.00373357, 0.00351815, 0.00376068, 0.00342317, 0.00333418, 0.00351327, 0.00373007, 0.003158, 0.00383663, 0.00356736, 0.00326843, 0.00345602, 0.00345781, 0.00339557, 0.00355932, 0.00359053, 0.00371265, 0.0034626, 0.00390759, 0.00366876, 0.00374637, 0.00361804, 0.00407028, 0.00356866, 0.00383843, 0.00347843, 0.00385265, 0.00359082, 0.00398118, 0.00354171, 0.00374412, 0.00339993, 0.00395931, 0.00328988, 0.00368745, 0.0037198, 0.00346085, 0.00350085, 0.869783, 0.00354426, 0.00349992, 0.00339921, 0.00371954, 0.00352799, 0.00371427, 0.00366694, 0.00388167, 0.00331018, 0.00345809, 0.00336399, 0.00370057, 0.00320579, 0.00333515, 0.00373587, 0.0035647, 0.00354145, 0.00356763, 0.00323755, 0.406507, 0.00350685, 0.00354742, 0.00350985, 0.00358676, 0.00328391, 0.369777, 0.339173, 0.341399, 0.352225, 0.370289, 0.371157, 0.346135, 0.372676, 0.348568, 0.342935, 0.32823, 0.359946, 0.348338, 0.341703, 0.345176, 0.359062, 0.459871, 0.47386, 0.474435, 0.466832, 0.483272, 0.486046, 0.486683, 0.604817, 0.576682, 0.587404, 0.603695, 0.604405, 0.604297, 0.0035325, 0.654171, 0.655219, 0.684482, 0.688011, 0.687574, 0.688604, 0.721306, 0.688471, 0.658484, 0.677203, 0.663557, 0.654557, 0.673856, 0.659919, 0.664174, 0.648798, 0.649497, 0.651681, 0.659221, 0.645165, 0.665216, 0.641853, 0.648828, 0.654669, 0.653522, 0.667334, 0.645045, 0.691418, 0.719221, 0.717527, 0.652966, 0.655314, 0.666402, 0.640872, 0.642057, 0.644967, 0.642716, 0.644013, 0.645141, 0.697144, 0.690416, 0.729504, 0.731004, 0.683398, 0.698897, 0.688327, 0.696731, 0.695999, 0.741626, 0.741978, 0.738512, 0.738882, 0.739642, 0.731957, 0.751995, 0.752898, 0.729858, 0.732277, 0.734039, 0.705254, 0.706758, 0.707108, 0.692291, 0.690971, 0.691352, 0.688762, 0.689604, 0.690506, 0.695111, 0.673534, 0.664789, 0.66247, 0.725965, 0.725034, 0.678547, 0.676886, 0.638948, 0.638274, 0.632516, 0.632365, 0.590291, 0.591944, 0.617769, 0.615809, 0.587968, 0.589963, 0.589162, 0.566804, 0.593316, 0.563699, 0.571695, 0.563935, 0.564943, 0.562819, 0.542976, 0.516031, 0.549334, 0.515866, 0.532738, 0.536051, 0.54625, 0.543137, 0.556511, 0.556776, 0.559497, 0.557873, 0.569628, 0.573078, 0.569272, 0.569295, 0.574205, 0.581233, 0.597197, 0.667169, 0.677533, 0.677668, 0.675704, 0.681005, 0.678029, 0.694315, 0.686148, 0.00339542, 0.684306, 0.00352557, 0.699602, 0.00324676, 0.695437, 0.00364182, 0.700172, 0.703203, 0.700947, 0.707818, 0.701748, 0.00334366, 0.711102, 0.00334784, 0.00379523, 0.0034541, 0.684111, 0.00361695, 0.00389948, 0.00336342, 0.660733, 0.661813, 0.6624, 0.663487, 0.663043, 0.663612, 0.00384453, 0.00334628, 0.00345423, 0.00299723, 0.00360162, 0.0034857, 0.0033527, 0.00323025, 0.00397873, 0.0034032, 0.00361456, 0.00357587, 0.00367852, 0.00332013, 0.0039884, 0.00357034, 0.00360426, 0.00355256, 0.00351549, 0.00342696, 0.00347592, 0.00365746, 0.00372449, 0.00357364, 0.936509, 0.00358873, 0.00345848, 0.00364275, 0.00387611
0.346169, 0.368583, 0.346126, 0.0035916, 0.00341394, 0.00352491, 0.00349511, 0.00390598, 0.00352589, 0.00369286, 0.00337204, 0.00355466, 0.00364965, 0.00360973, 0.00358025, 0.00347884, 0.00344066, 0.00359443, 0.00336779, 0.00341852, 0.00343445, 0.00342893, 0.0036881, 0.00351989, 0.00339828, 0.00364902, 0.0035453, 0.00355975, 0.00327711, 0.00391705, 0.0036454, 0.0034788, 0.00350703, 0.00388678, 0.00369289, 0.00350065, 0.00357012, 0.00349027, 0.00365489, 0.00352319, 0.00334391, 0.00343819, 0.00354781, 0.00331922, 0.00356633, 0.00371512, 0.00364544, 0.00406021, 0.00329878, 0.0037764, 0.00380161, 0.00386836, 0.00370289, 0.00360141, 0.00362269, 0.00364267, 0.00346882, 0.00387939, 0.00339973, 0.361444, 0.00358864, 0.00339236, 0.00365897, 0.003409, 0.00362939, 0.00362569, 0.00312806, 0.00381273, 0.0034522, 0.00359345, 0.00314846, 0.00350131, 0.00349762, 0.00371754, 0.00347319, 0.00360603, 0.00360916, 0.00372175, 0.00351608, 0.346283, 0.00341819, 0.411737, 0.34146, 0.345346, 0.342356, 0.393653, 0.350459, 0.334795, 0.330895, 0.331948, 0.32084, 0.307967, 0.31237, 0.320466, 0.334006, 0.315725, 0.379458, 0.466905, 0.4561, 0.457137, 0.453988, 0.455841, 0.456304, 0.476087, 0.483956, 0.53905, 0.574668, 0.580945, 0.597388, 0.621957, 0.617708, 0.642452, 0.648017, 0.663569, 0.679354, 0.673199, 0.673428, 0.652476, 0.645947, 0.647474, 0.66908, 0.659472, 0.652243, 0.654548, 0.639299, 0.629761, 0.629662, 0.627626, 0.67741, 0.638974, 0.642495, 0.632853, 0.619462, 0.63568, 0.631765, 0.632905, 0.669395, 0.643914, 0.635704, 0.649965, 0.639317, 0.62488, 0.62548, 0.642384, 0.634891, 0.645791, 0.649146, 0.649912, 0.719115, 0.674893, 0.674344, 0.732486, 0.739213, 0.724865, 0.689912, 0.68739, 0.689931, 0.694463, 0.689943, 0.672438, 0.670399, 0.72957, 0.731448, 0.708155, 0.714643, 0.712378, 0.728308, 0.729264, 0.731429, 0.732713, 0.695002, 0.695156, 0.693259, 0.693413, 0.707253, 0.69722, 0.688217, 0.68378, 0.66449, 0.674355, 0.647049, 0.649419, 0.650686, 0.651436, 0.62903, 0.634847, 0.631261, 0.628558, 0.628233, 0.597068, 0.591443, 0.593952, 0.594162, 0.6188, 0.587934, 0.570096, 0.545297, 0.591549, 0.540822, 0.594499, 0.515051, 0.53138, 0.55953, 0.5357, 0.498494, 0.507902, 0.508583, 0.508183, 0.511497, 0.505658, 0.507725, 0.529606, 0.557066, 0.559106, 0.563014, 0.595145, 0.597827, 0.555598, 0.557608, 0.594957, 0.583869, 0.671466, 0.597436, 0.584388, 0.0035302, 0.663809, 0.666662, 0.00361739, 0.667673, 0.00369255, 0.00359056, 0.577437, 0.579147, 0.580204, 0.605762, 0.00355485, 0.68376, 0.679975, 0.695019, 0.678138, 0.684977, 0.683907, 0.694266, 0.678536, 0.00338847, 0.00345719, 0.00358166, 0.674287, 0.00352881, 0.704999, 0.00319004, 0.71806, 0.646945, 0.649545, 0.650356, 0.655664, 0.655834, 0.656066, 0.656227, 0.00410552, 0.00359035, 0.00355505, 0.00367363, 0.00340945, 0.00373178, 0.0033333, 0.00390644, 0.00345743, 0.00353708, 0.00353954, 0.00338336, 0.00348429, 0.00329757, 0.00363667, 0.00364837, 1.3233, 0.00340219, 0.00362365, 0.0036506, 0.00341561, 0.00320462, 0.00371368, 0.00350485, 0.00361127, 0.00338351, 0.936524, 0.00344878
0.00356388, 0.00354845, 0.00358238, 0.00360208, 0.00351773, 0.0034164, 0.00387827, 0.00337262, 0.00344661, 0.00351766, 0.00368224, 0.00359041, 0.00358811, 0.00354351, 0.00374832, 0.00362455, 0.00379549, 0.00366483, 0.00373845, 0.00351936, 0.00358366, 0.00355298, 0.00376063, 0.00343023, 0.00360908, 0.00353605, 0.00359139, 0.0035499, 0.00389422, 0.00351083, 0.00333839, 0.0034158, 0.00379714, 0.00381498, 0.00368972, 0.00340754, 0.00338827, 0.00348664, 0.00400285, 0.0036776, 0.00348173, 0.00342256, 0.00352169, 0.00340164, 0.00357533, 0.00367573, 0.00379568, 0.00369509, 0.00349126, 0.00358042, 0.003446, 0.00359048, 0.00334232, 0.00370012, 0.00355862, 0.00361274, 0.00338708, 0.00322331, 0.00349181, 0.00326999, 0.00356384, 0.00349398, 0.00382962, 0.00385658, 0.00410235, 0.00323236, 0.00363651, 0.00341321, 0.00379841, 0.00336349, 0.00373436, 0.00347123, 0.00352535, 0.00361647, 0.00349698, 0.00372212, 0.00322601, 0.00359142, 0.00356879, 0.00344944, 0.00339451, 0.00333495, 0.00333635, 0.00346376, 0.317606, 0.350977, 0.314707, 0.324348, 0.321775, 0.325286, 0.318426, 0.301656, 0.310748, 0.266017, 0.303616, 0.300501, 0.309983, 0.30264, 0.356183, 0.451965, 0.466801, 0.454739, 0.477352, 0.456718, 0.44823, 0.467443, 0.465594, 0.593474, 0.591222, 0.591547, 0.587873, 0.624537, 0.618798, 0.637978, 0.62948, 0.666579, 0.668, 0.645805, 0.639931, 0.621116, 0.629369, 0.638744, 0.635117, 0.643406, 0.642785, 0.629502, 0.62902, 0.644902, 0.646314, 0.621197, 0.575537, 0.577186, 0.60817, 0.608917, 0.610475, 0.618381, 0.635494, 0.609139, 0.628859, 0.630015, 0.595362, 0.596584, 0.596913, 0.620878, 0.615503, 0.605414, 0.629176, 0.616533, 0.617279, 0.701434, 0.66732, 0.675595, 0.680419, 0.691638, 0.693259, 0.688459, 0.682219, 0.668312, 0.671996, 0.675804, 0.700242, 0.701117, 0.695816, 0.680763, 0.697547, 0.689458, 0.721841, 0.723801, 0.785352, 0.77656, 0.697653, 0.700879, 0.700749, 0.685563, 0.694409, 0.688406, 0.681176, 0.682514, 0.669656, 0.656537, 0.658368, 0.649558, 0.654087, 0.00336951, 0.63026, 0.630073, 0.629137, 0.585104, 0.587754, 0.601047, 0.590303, 0.594428, 0.600071, 0.598138, 0.574417, 0.574912, 0.549246, 0.557925, 0.594035, 0.510934, 0.505737, 0.522805, 0.503325, 0.477141, 0.503402, 0.480512, 0.477977, 0.508186, 0.501985, 0.521001, 0.511414, 0.500235, 0.553478, 0.53516, 0.584978, 0.57539, 0.539123, 0.555696, 0.571329, 0.577283, 0.649703, 0.00330448, 0.65151, 0.58504, 0.649294, 0.00350204, 0.656954, 0.00355152, 0.00347764, 0.00348484, 0.00361726, 0.57862, 0.580488, 0.581343, 0.583618, 0.681132, 0.677697, 0.00344604, 0.679286, 0.680409, 0.686803, 0.690209, 0.692246, 0.690945, 0.00376678, 0.00352974, 0.00347338, 0.00340347, 0.00349417, 0.00330072, 0.00327989, 0.003431, 0.00336854, 0.649852, 0.652085, 0.654585, 0.656651, 0.657781, 0.659166, 0.659424, 0.658688, 0.00353212, 0.00347429, 0.00352211, 0.00341247, 0.00339927, 0.00368607, 0.00333498, 0.00350928, 0.00355378, 0.00362775, 0.00330212, 0.00336955, 0.00373058, 0.495041, 0.496969, 0.498524, 0.00380161, 0.00373891, 0.00325648, 0.00369682, 0.00356297, 0.00331857, 0.00341477, 0.00360636, 0.00353615, 0.92272
0.0036595, 0.00362533, 0.0032998, 0.00342467, 0.0036537, 0.00382028, 0.00320777, 0.00356255, 0.00358374, 0.00370708, 0.00342289, 0.00384776, 0.00352428, 0.00349105, 0.00337876, 0.00355385, 0.00325728, 0.00359686, 0.00344836, 0.00353785, 0.00326687, 0.0038526, 0.0030838, 0.00315296, 0.00342809, 0.0035835, 0.00340556, 0.00356313, 0.0035391, 0.00377893, 0.0034254, 0.00355384, 0.00349995, 0.0106626, 0.00348948, 0.0035721, 0.00370698, 0.00361965, 0.00316282, 0.00381043, 0.00308899, 0.00367765, 0.00350148, 0.00363116, 0.00351087, 0.00370195, 0.00330397, 0.00387221, 0.00348203, 0.00317976, 0.00327721, 0.0035481, 0.00324445, 0.00365768, 0.00335968, 0.00355409, 0.00348074, 0.00378949, 0.00349282, 0.00361145, 0.00342979, 0.00342086, 0.00350243, 0.00350601, 0.00337362, 0.00325555, 0.00337553, 0.0035543, 0.00323697, 0.0035469, 0.00346701, 0.00344183, 0.00342433, 0.00361779, 0.00356933, 0.00375437, 0.0033182, 0.00378855, 0.00330426, 0.00350219, 0.0033289, 0.00348836, 0.003515, 0.327337, 0.301974, 0.301726, 0.322412, 0.337913, 0.326859, 0.318567, 0.319077, 0.283157, 0.275916, 0.264854, 0.276782, 0.268363, 0.30242, 0.301508, 0.348028, 0.349132, 0.358276, 0.453572, 0.455108, 0.44836, 0.485028, 0.44467, 0.489476, 0.452982, 0.57948, 0.591206, 0.573231, 0.569924, 0.586466, 0.612326, 0.625557, 0.632535, 0.613689, 0.628905, 0.61456, 0.613168, 0.627755, 0.583225, 0.571422, 0.583808, 0.593423, 0.56249, 0.550844, 0.556438, 0.549249, 0.560385, 0.576067, 0.589669, 0.605844, 0.597809, 0.566496, 0.559704, 0.561042, 0.59357, 0.587908, 0.624428, 0.5897, 0.59508, 0.616239, 0.602712, 0.590434, 0.591249, 0.565229, 0.569735, 0.569728, 0.590588, 0.620773, 0.581585, 0.591111, 0.580231, 0.617269, 0.633256, 0.627594, 0.63214, 0.664749, 0.660226, 0.663369, 0.664174, 0.681283, 0.695232, 0.700228, 0.690606, 0.691168, 0.684653, 0.708916, 0.684801, 0.757606, 0.679947, 0.654067, 0.686776, 0.658546, 0.644831, 0.646161, 0.64756, 0.628677, 0.630107, 0.63111, 0.656086, 0.652249, 0.632565, 0.638793, 0.620683, 0.621357, 0.618392, 0.622657, 0.585658, 0.585381, 0.581311, 0.583192, 0.580434, 0.580595, 0.544406, 0.522453, 0.553501, 0.545622, 0.504111, 0.527306, 0.481872, 0.515838, 0.469962, 0.50068, 0.460564, 0.476272, 0.47374, 0.467175, 0.486572, 0.498181, 0.503454, 0.50244, 0.521655, 0.534841, 0.569245, 0.538595, 0.570347, 0.657754, 0.646981, 0.65731, 0.639536, 0.650186, 0.649549, 0.658378, 0.00339686, 0.00356884, 0.00360995, 0.642416, 0.00375058, 0.643583, 0.644742, 0.0032705, 0.00353042, 0.00332676, 0.00368737, 0.00345667, 0.00383833, 0.00356863, 0.696907, 0.660766, 0.683823, 0.686962, 0.687746, 0.691038, 0.669754, 0.0036886, 0.700717, 0.00344169, 0.00359231, 0.00347821, 0.677343, 0.00313928, 0.681023, 0.00343184, 0.652765, 0.653309, 0.649636, 0.654948, 0.65278, 0.653304, 0.651029, 0.00348485, 0.00365961, 0.00352386, 0.761135, 0.770218, 0.00348582, 0.0034505, 0.0036144, 0.00350451, 0.00367731, 0.00350201, 0.00363627, 0.00347328, 0.522405, 0.00329468, 0.00375152, 0.00327929, 0.003619, 0.0034118, 0.00343918, 0.00350983, 0.00353206, 0.00340141, 0.00357513, 0.915706
0.00344078, 0.00335774, 0.00392338, 0.00339901, 0.00371194, 0.00346863, 0.00338568, 0.00335492, 0.0036647, 0.00328714, 0.00347729, 0.00325623, 0.00404429, 0.00340228, 0.00363915, 0.00361178, 0.00347038, 0.00347091, 0.00399862, 0.00359454, 0.0033641, 0.0033619, 0.00360185, 0.00350817, 0.00368585, 0.00333637, 0.00360814, 0.00340698, 0.003617, 0.0035988, 0.00363077, 0.00330907, 0.00379482, 0.00344507, 0.00370102, 0.00368168, 0.00351833, 0.00328536, 0.00383427, 0.00356284, 0.0038062, 0.00336497, 0.00367873, 0.00366083, 0.00389803, 0.00340598, 0.00365778, 0.00348691, 0.00391765, 0.00344387, 0.00329755, 0.00324973, 0.00327875, 0.00357688, 0.0036573, 0.00349194, 0.00355431, 0.00347405, 0.0033779, 0.00349705, 0.00386995, 0.00358017, 0.00341462, 0.00354694, 0.00376024, 0.00361437, 0.00377347, 0.00350705, 0.00377671, 0.00345218, 0.00350233, 0.00363747, 0.00361009, 0.00333706, 0.00353428, 0.00362139, 0.00362188, 0.00343378, 0.00351271, 0.00322566, 0.00341338, 0.00362437, 0.00365885, 0.00317733, 0.300594, 0.300049, 0.293027, 0.291832, 0.284461, 0.290586, 0.284166, 0.284042, 0.304569, 0.305592, 0.304878, 0.275719, 0.27916, 0.258556, 0.285941, 0.314496, 0.414793, 0.411552, 0.354611, 0.34858, 0.37584, 0.453118, 0.447182, 0.404813, 0.454163, 0.487064, 0.55419, 0.553673, 0.585617, 0.587375, 0.617677, 0.616958, 0.587669, 0.587872, 0.589791, 0.618412, 0.610769, 0.576401, 0.562505, 0.565408, 0.576248, 0.563563, 0.554831, 0.549726, 0.561615, 0.542301, 0.530863, 0.536064, 0.529814, 0.571642, 0.561566, 0.568183, 0.577386, 0.567341, 0.582169, 0.588373, 0.594168, 0.569506, 0.581707, 0.577977, 0.573134, 0.569549, 0.566086, 0.566894, 0.572606, 0.584043, 0.589787, 0.57731, 0.571545, 0.572436, 0.580894, 0.556059, 0.570185, 0.569904, 0.571459, 0.570156, 0.614984, 0.632616, 0.681721, 0.681515, 0.684341, 0.685077, 0.686259, 0.663741, 0.66066, 0.663787, 0.6641, 0.678153, 0.680688, 0.682112, 0.657728, 0.672599, 0.650027, 0.674956, 0.639148, 0.640377, 0.649049, 0.648148, 0.611658, 0.610577, 0.613489, 0.614009, 0.615011, 0.584117, 0.578028, 0.587531, 0.569139, 0.569911, 0.585349, 0.585328, 0.569544, 0.560467, 0.543288, 0.525159, 0.49354, 0.494368, 0.473842, 0.481525, 0.465156, 0.465839, 0.48978, 0.483559, 0.473084, 0.480965, 0.486833, 0.497657, 0.48507, 0.500598, 0.539424, 0.539988, 0.539101, 0.536113, 0.554038, 0.552051, 0.0035397, 0.635721, 0.649074, 0.649059, 0.00388537, 0.641648, 0.00366584, 0.0034663, 0.003101, 0.00356643, 0.643366, 0.00316213, 0.669157, 0.640675, 0.00367527, 0.00358267, 0.00366655, 0.00333149, 0.00355902, 0.00355682, 0.00343699, 0.00345465, 0.0035653, 0.00312859, 0.687905, 0.680922, 0.65726, 0.00335772, 0.00364745, 0.689956, 0.689767, 0.00349206, 0.00348522, 0.00342544, 0.00339258, 0.686802, 0.00333964, 0.686739, 0.64664, 0.648888, 0.65077, 0.652579, 0.65488, 0.655274, 0.00346435, 0.00337547, 0.0037585, 0.0033744, 0.00369773, 0.00356972, 0.00362526, 0.00323712, 0.00346127, 0.00330247, 0.00355084, 0.00366964, 0.00358223, 0.00345435, 0.00362963, 0.00334842, 0.00373207, 0.00356959, 0.00380649, 0.00361822, 0.00361311, 0.00362607, 0.00407593, 0.00333961, 0.901512
0.00355199, 0.00341251, 0.00344905, 0.0036079, 0.00358281, 0.00368589, 0.00331333, 0.0033583, 0.00336238, 0.00345384, 0.00354451, 0.0035589, 0.0036318, 0.00381746, 0.00336978, 0.00346717, 0.0033042, 0.00378219, 0.003483, 0.00335853, 0.00342196, 0.00339933, 0.00344843, 0.00387726, 0.00353038, 0.00331907, 0.00341991, 0.00345877, 0.0036397, 0.00358022, 0.00351017, 0.00328799, 0.00342758, 0.00334264, 0.0034621, 0.00334207, 0.00338299, 0.00327892, 0.00345572, 0.00361354, 0.00338646, 0.00349393, 0.00330998, 0.00361778, 0.00354742, 0.00374424, 0.00339561, 0.00362987, 0.00334015, 0.00346483, 0.00360782, 0.00367334, 0.0033754, 0.00345237, 0.00351238, 0.00355006, 0.00333769, 0.00360159, 0.00373961, 0.00335606, 0.00357262, 0.00375453, 0.00328423, 0.00368523, 0.00337431, 0.00358206, 0.00384062, 0.00358284, 0.00345772, 0.00348482, 0.00370978, 0.00366303, 0.00339247, 0.00365225, 0.00341545, 0.00392286, 0.00338507, 0.00360732, 0.00373964, 0.00355547, 0.00340157, 0.0035775, 0.00391715, 0.00328617, 0.003679, 0.00381058, 0.00351386, 0.285492, 0.287332, 0.28418, 0.275928, 0.285167, 0.299947, 0.301936, 0.303239, 0.287406, 0.253484, 0.279858, 0.255038, 0.286572, 0.270618, 0.355273, 0.36515, 0.366181, 0.358881, 0.348819, 0.41373, 0.397033, 0.452687, 0.380619, 0.425079, 0.448096, 0.448591, 0.525137, 0.601483, 0.583073, 0.584638, 0.585636, 0.58678, 0.586871, 0.588347, 0.580595, 0.591495, 0.594836, 0.580695, 0.595817, 0.570432, 0.539868, 0.53945, 0.52092, 0.527635, 0.520422, 0.512757, 0.503577, 0.553601, 0.51442, 0.514555, 0.55969, 0.52604, 0.542004, 0.542456, 0.563831, 0.563944, 0.573386, 0.573536, 0.539034, 0.556227, 0.575968, 0.538007, 0.539023, 0.560717, 0.562855, 0.583051, 0.579673, 0.579701, 0.554682, 0.566326, 0.545706, 0.546601, 0.562694, 0.579782, 0.627797, 0.625266, 0.619837, 0.653686, 0.656192, 0.644078, 0.650611, 0.656208, 0.648491, 0.648388, 0.65247, 0.659865, 0.660388, 0.653601, 0.631164, 0.646794, 0.642018, 0.620802, 0.619594, 0.618226, 0.610315, 0.618943, 0.620518, 0.586876, 0.60402, 0.589586, 0.594813, 0.590282, 0.590483, 0.590156, 0.589336, 0.554022, 0.528014, 0.527195, 0.50709, 0.501548, 0.469486, 0.491337, 0.493001, 0.469583, 0.458881, 0.460668, 0.454751, 0.44494, 0.465683, 0.512329, 0.479988, 0.476724, 0.511003, 0.495361, 0.486661, 0.511827, 0.499291, 0.500691, 0.500971, 0.51127, 0.631787, 0.635651, 0.630985, 0.629112, 0.63229, 0.00335923, 0.00376408, 0.00347478, 0.00342704, 0.00343062, 0.00347951, 0.00326518, 0.00348129, 0.00363827, 0.00369794, 0.645845, 0.65432, 0.00351203, 0.00344307, 0.00344939, 0.00326349, 0.0030291, 0.00371773, 0.00329024, 0.650297, 0.665182, 0.667035, 0.670401, 0.660892, 0.0036452, 0.685051, 0.00373448, 0.00325316, 0.00355012, 0.00352951, 0.00332507, 0.670438, 0.00335788, 0.00374656, 0.00363091, 0.0034555, 0.697427, 0.650401, 0.652116, 0.655311, 0.656433, 0.659291, 0.00357351, 0.00357705, 0.00352634, 0.0036574, 0.00345224, 0.00329094, 0.776001, 0.00364752, 0.00338173, 0.00389337, 0.00349385, 0.826277, 0.00354424, 0.00334223, 0.00367706, 0.00367215, 0.00338566, 0.00365766, 0.00360242, 0.00344232, 0.00344142, 0.00340561, 0.00343406
0.00359966, 0.0032706, 0.00350086, 0.00325355, 0.203841, 0.00347495, 0.00358466, 0.00341054, 0.00377026, 0.00353316, 0.00369032, 0.00319583, 0.00334877, 0.00333305, 0.00358117, 0.00341464, 0.00347998, 0.00346933, 0.00349153, 0.00367567, 0.00346231, 0.00373789, 0.00389633, 0.00338883, 0.00343041, 0.00322671, 0.00350259, 0.00358555, 0.00352756, 0.00332509, 0.00359587, 0.00342924, 0.0038599, 0.00348695, 0.0039351, 0.00340828, 0.00374285, 0.00335847, 0.00384581, 0.00337749, 0.00360075, 0.00359181, 0.00334148, 0.00346035, 0.00363432, 0.00329425, 0.00365574, 0.00316317, 0.00360311, 0.0035846, 0.00369972, 0.00339207, 0.00375012, 0.00366862, 0.00385638, 0.00370111, 0.00376344, 0.00342398, 0.00361387, 0.00318985, 0.00377705, 0.00353202, 0.00362126, 0.00342197, 0.00361795, 0.00343354, 0.00382857, 0.00310514, 0.00364817, 0.00350408, 0.00333109, 0.00342884, 0.003557, 0.00344128, 0.0038978, 0.00346414, 0.00395549, 0.00325277, 0.00361837, 0.00336433, 0.00374195, 0.00330852, 0.0038018, 0.00346547, 0.00348395, 0.00359228, 0.275789, 0.00361585, 0.273849, 0.276421, 0.274232, 0.299543, 0.274708, 0.302411, 0.30162, 0.276903, 0.277942, 0.265519, 0.2657, 0.264406, 0.269281, 0.298273, 0.299939, 0.270066, 0.269745, 0.34619, 0.335384, 0.342001, 0.342105, 0.342322, 0.324716, 0.430462, 0.497122, 0.495657, 0.508581, 0.50038, 0.514467, 0.585177, 0.586001, 0.587323, 0.620401, 0.580776, 0.615015, 0.617524, 0.572603, 0.574108, 0.560335, 0.521645, 0.524166, 0.519721, 0.518729, 0.542282, 0.513064, 0.498422, 0.508366, 0.508339, 0.520784, 0.518813, 0.509867, 0.510389, 0.507076, 0.514756, 0.551628, 0.539342, 0.538174, 0.540129, 0.553568, 0.546458, 0.528368, 0.539446, 0.53932, 0.551428, 0.553682, 0.555629, 0.561145, 0.560366, 0.545667, 0.560318, 0.570172, 0.567039, 0.567169, 0.584722, 0.654307, 0.623447, 0.640052, 0.643148, 0.641853, 0.645346, 0.645535, 0.646535, 0.643253, 0.652561, 0.643818, 0.635216, 0.637094, 0.658385, 0.639171, 0.60821, 0.583799, 0.609956, 0.598173, 0.586193, 0.581574, 0.604587, 0.591669, 0.54848, 0.548914, 0.560763, 0.549361, 0.532582, 0.520909, 0.528989, 0.514721, 0.521343, 0.515013, 0.495795, 0.511491, 0.456815, 0.458775, 0.475547, 0.455908, 0.459951, 0.46201, 0.462346, 0.462267, 0.46225, 0.48124, 0.485873, 0.490505, 0.480014, 0.481141, 0.489347, 0.483797, 0.521011, 0.499919, 0.501142, 0.622295, 0.621595, 0.624208, 0.00352066, 0.00350398, 0.618822, 0.618457, 0.618922, 0.0036064, 0.00338459, 0.63553, 0.00322358, 0.00329988, 0.00340554, 0.00374922, 0.00338199, 0.00361593, 0.00378038, 0.00339718, 0.00337757, 0.00337268, 0.00351669, 0.00395041, 0.664693, 0.00363303, 0.00339326, 0.675275, 0.00322216, 0.680452, 0.00337425, 0.679543, 0.00322568, 0.00365346, 0.00337944, 0.690371, 0.00346113, 0.00360543, 0.00353195, 0.00382675, 0.00337169, 0.677535, 0.00335758, 0.00352204, 0.00331514, 0.65222, 0.653009, 0.654219, 0.659888, 0.00360151, 0.00351557, 0.00353398, 0.00335616, 0.00343122, 0.00357971, 0.00375397, 0.00345778, 0.00406118, 0.0034621, 0.0038301, 0.00351443, 0.00350422, 0.00335274, 0.781457, 0.78338, 0.785598, 0.00324507, 0.00347339, 0.00336484, 0.0037037, 0.00331946, 0.00353898
0.0036227, 0.00378617, 0.00306009, 0.203939, 0.00327738, 0.204012, 0.00342799, 0.00358286, 0.00352926, 0.00364816, 0.00340138, 0.00330487, 0.00350217, 0.00354862, 0.00343834, 0.00333151, 0.00346935, 0.00368692, 0.00341145, 0.00367087, 0.00332036, 0.00350747, 0.00342971, 0.00356935, 0.00346291, 0.00377787, 0.00373766, 0.00342459, 0.00380871, 0.00370503, 0.00335328, 0.00333689, 0.00345112, 0.00332661, 0.00359004, 0.00344058, 0.00349807, 0.00335786, 0.00349483, 0.00373485, 0.00348768, 0.00410332, 0.00365686, 0.00376339, 0.00357001, 0.0034738, 0.00329286, 0.00366216, 0.00368639, 0.00345669, 0.00355254, 0.00382531, 0.00357411, 0.00326097, 0.00365605, 0.00348436, 0.00342355, 0.00338628, 0.00365469, 0.00356053, 0.0034719, 0.00381953, 0.00331045, 0.00378506, 0.00349917, 0.00338271, 0.00361341, 0.00335627, 0.00332949, 0.00386286, 0.0034562, 0.00349849, 0.00331454, 0.00348851, 0.00365135, 0.00363912, 0.00321114, 0.00357858, 0.003599, 0.00379797, 0.00326364, 0.00388157, 0.00343866, 0.00366336, 0.00334187, 0.00351254, 0.00349355, 0.00354057, 0.00363838, 0.265527, 0.266293, 0.266573, 0.267185, 0.259034, 0.273558, 0.2767, 0.276168, 0.261206, 0.258648, 0.2662, 0.251562, 0.238581, 0.286648, 0.252062, 0.28079, 0.299519, 0.272667, 0.273472, 0.24798, 0.33571, 0.33356, 0.412124, 0.472997, 0.457231, 0.450041, 0.491796, 0.493745, 0.501374, 0.52662, 0.553082, 0.539972, 0.541116, 0.542492, 0.568988, 0.57641, 0.00364285, 0.52577, 0.528552, 0.529473, 0.528703, 0.515522, 0.545868, 0.547121, 0.550144, 0.550896, 0.559519, 0.553141, 0.522017, 0.513955, 0.501956, 0.527754, 0.504153, 0.505741, 0.504865, 0.531799, 0.530027, 0.51178, 0.5419, 0.531997, 0.532537, 0.528257, 0.528703, 0.519193, 0.554232, 0.522526, 0.526713, 0.526979, 0.526216, 0.562725, 0.565481, 0.553495, 0.586442, 0.629032, 0.619702, 0.610809, 0.63581, 0.614756, 0.597306, 0.594286, 0.59678, 0.597748, 0.652391, 0.628853, 0.643973, 0.658991, 0.626636, 0.597974, 0.596253, 0.595912, 0.591374, 0.55715, 0.559486, 0.596792, 0.597036, 0.546585, 0.553746, 0.552913, 0.525354, 0.485377, 0.512186, 0.513112, 0.512697, 0.490857, 0.510741, 0.480672, 0.48595, 0.443061, 0.462652, 0.458915, 0.481438, 0.449751, 0.452453, 0.432006, 0.451138, 0.455988, 0.447064, 0.463427, 0.474369, 0.477857, 0.490783, 0.489742, 0.484697, 0.482928, 0.483082, 0.522069, 0.00349298, 0.00363802, 0.00361967, 0.00338, 0.00380762, 0.00364397, 0.612347, 0.613964, 0.613606, 0.608423, 0.00357546, 0.00369546, 0.00364718, 0.00366829, 0.00352104, 0.00344047, 0.00386749, 0.00357044, 0.00330793, 0.00319837, 0.639958, 0.642022, 0.00328136, 0.00310361, 0.0035458, 0.00364408, 0.00357942, 0.00337272, 0.00349655, 0.00333993, 0.673027, 0.674428, 0.00394651, 0.00360101, 0.68753, 0.00331307, 0.684272, 0.00339325, 0.00359833, 0.00339692, 0.00364138, 0.00345765, 0.00349777, 0.0033885, 0.00334964, 0.00351722, 0.00327435, 0.00350526, 0.659364, 0.0033599, 0.00353217, 0.00314283, 0.00379521, 0.00334281, 0.0032567, 0.00362843, 0.00354971, 0.00359969, 0.00342377, 0.00324571, 0.00366746, 0.00338403, 0.00352962, 0.00340447, 0.00365813, 0.00335729, 0.00408774, 0.00335816, 0.00362345, 0.00310115, 0.859468, 0.00363217
0.00352159, 0.00363484, 0.00343269, 0.00354382, 0.003743, 0.00355787, 0.00365806, 0.00350006, 0.00346567, 0.00331699, 0.00381751, 0.00332994, 0.00347167, 0.00377086, 0.218456, 0.00352584, 0.00355678, 0.003433, 0.00376825, 0.00332072, 0.00378376, 0.00346962, 0.00329829, 0.00343609, 0.00364448, 0.00349322, 0.0035157, 0.00374214, 0.00348966, 0.00356341, 0.00388608, 0.00349778, 0.00338646, 0.00344881, 0.0035853, 0.00323539, 0.00362442, 0.00353146, 0.00329454, 0.00334245, 0.00381033, 0.00377424, 0.00363627, 0.00324237, 0.00335432, 0.00357152, 0.00334376, 0.00333852, 0.00377828, 0.00372978, 0.00359483, 0.00395135, 0.00397811, 0.00351782, 0.00369427, 0.00334836, 0.00343953, 0.00367669, 0.00360898, 0.00333874, 0.00348564, 0.00338229, 0.00358531, 0.00362222, 0.00355434, 0.00344326, 0.0036528, 0.00355731, 0.00368946, 0.00359457, 0.00395661, 0.00348037, 0.00361143, 0.00315686, 0.00343005, 0.00365042, 0.00360341, 0.00334762, 0.00342415, 0.00341188, 0.00342833, 0.00364322, 0.00361428, 0.00365759, 0.00318704, 0.00347557, 0.00356412, 0.00356684, 0.00367626, 0.260807, 0.260523, 0.261755, 0.262423, 0.260095, 0.259478, 0.254873, 0.257873, 0.258423, 0.241772, 0.242443, 0.228075, 0.244264, 0.245091, 0.233819, 0.257652, 0.255129, 0.248006, 0.25645, 0.269747, 0.252035, 0.255052, 0.299744, 0.285193, 0.31323, 0.314347, 0.456424, 0.45728, 0.430385, 0.456331, 0.457585, 0.542414, 0.543562, 0.545125, 0.537388, 0.535583, 0.604011, 0.515845, 0.537813, 0.520506, 0.513952, 0.505665, 0.500779, 0.500773, 0.519622, 0.521655, 0.542906, 0.543452, 0.545384, 0.542969, 0.542983, 0.511599, 0.550947, 0.503949, 0.522695, 0.51797, 0.538539, 0.51133, 0.533857, 0.525985, 0.528743, 0.514882, 0.514532, 0.508982, 0.511435, 0.517028, 0.56624, 0.539112, 0.567675, 0.562962, 0.546506, 0.552859, 0.60383, 0.604004, 0.624671, 0.615786, 0.566178, 0.580761, 0.586678, 0.56947, 0.570344, 0.613985, 0.611269, 0.568965, 0.56959, 0.599363, 0.597318, 0.595473, 0.599411, 0.597187, 0.541626, 0.532896, 0.534796, 0.551033, 0.561521, 0.514709, 0.518161, 0.493034, 0.490954, 0.489983, 0.514564, 0.46258, 0.460842, 0.453818, 0.490646, 0.46069, 0.445845, 0.442698, 0.44485, 0.474634, 0.447692, 0.444922, 0.416039, 0.417066, 0.437626, 0.442562, 0.456291, 0.47031, 0.459689, 0.471899, 0.473709, 0.477385, 0.477831, 0.478938, 0.482466, 0.482511, 0.00355432, 0.00334167, 0.00349497, 0.00345329, 0.00332237, 0.003647, 0.00343995, 0.617331, 0.00335951, 0.60458, 0.00337969, 0.00346484, 0.00348668, 0.61642, 0.615891, 0.00344136, 0.0037811, 0.00377625, 0.0036501, 0.00354659, 0.00344042, 0.00342127, 0.00369027, 0.00339927, 0.00335291, 0.00339494, 0.00366596, 0.00373868, 0.0034548, 0.657324, 0.0034016, 0.666278, 0.663024, 0.00361317, 0.00330742, 0.658679, 0.00362697, 0.654334, 0.00334936, 0.660184, 0.00341812, 0.00346563, 0.00369904, 0.00373707, 0.00345162, 0.669658, 0.00333649, 0.00341492, 0.00349329, 0.00344031, 0.00337724, 0.657992, 0.664685, 0.66739, 0.667381, 0.00348817, 0.00321728, 0.766218, 0.00347473, 0.0036163, 0.00311807, 0.00353211, 0.00357446, 0.00365037, 0.00346054, 0.00345448, 0.55001, 0.553557, 0.554796, 0.00355423, 0.00341692, 0.00362161
