1.93737, 1.90069, 1.90468, 1.72259, 1.7087, 1.72325, 1.7612, 1.77347, 1.80695, 1.87451, 1.92216, 1.88752, 1.61496, 1.56935, 1.61234, 1.63031, 1.67247, 1.70576, 1.72032, 1.78606, 1.82473, 1.4793, 1.50394, 1.51632, 1.56517, 1.51802, 1.51784, 1.71329, 1.82045, 1.50573, 1.49848, 1.49196, 1.4856, 1.53425, 1.61221, 1.69954, 1.74483, 1.7907, 1.76799, 1.42522, 1.3431, 1.34246, 1.37854, 1.49814, 1.50777, 1.76486, 1.33297, 1.28227, 1.28078, 1.27872, 1.30687, 1.43949, 1.46748, 1.48633, 1.54238, 1.80108, 1.61451, 1.34986, 1.31304, 1.2871, 1.41021, 1.37878, 1.5585, 1.37872, 1.39205, 1.39453, 1.3252, 1.34335, 1.28829, 1.30039, 1.53799, 1.62096, 1.61934, 1.42044, 1.474, 1.42193, 1.41622, 1.45074, 1.41228, 1.56917, 1.75543, 1.82069, 1.81628, 1.59889, 1.5419, 1.52915, 1.52863, 1.64548, 1.90427, 1.93537, 1.96259, 2.08058, 1.85866, 1.79037, 1.79071, 1.88821, 1.88408, 2.13272, 2.1101, 2.14144, 2.24224, 2.2425, 0.00478802, 2.15573, 2.05616, 2.02066, 2.01091, 2.01686, 2.0816, 2.0392, 2.07137, 2.12171, 2.11186, 2.11001, 1.72328, 2.06306, 2.07033, 2.05551, 1.39936, 1.32703, 1.2711, 1.33069, 1.261, 1.2438, 1.15269, 1.09876, 0.805695, 0.803469, 0.791497, 0.839829, 0.855578, 0.883909, 0.869283, 0.864122, 0.862755, 0.740177, 0.652831, 0.663383, 0.715501, 0.75346, 0.88178, 0.954145, 1.01948, 0.941322, 0.670748, 0.768375, 0.735242, 0.784057, 0.902108, 0.890258, 1.03306, 1.01196, 0.74179, 0.745912, 0.731413, 0.833886, 0.87055, 0.870373, 0.967641, 0.96844, 0.945988, 0.794939, 0.783459, 0.748805, 0.804609, 0.81907, 0.905371, 1.08679, 0.980325, 0.783739, 0.788908, 0.743886, 0.738243, 0.856876, 0.834454, 0.956747, 1.00883, 1.02202, 1.00654, 1.00652, 0.7471, 0.747933, 0.745764, 0.839895, 0.997496, 1.12033, 1.11219, 1.08783, 0.780015, 0.839827, 0.969992, 0.957628, 0.992422, 1.02586, 1.02725, 1.02323, 0.833897, 0.780289, 0.878739, 0.906947, 0.864302, 1.08561, 1.08903, 1.10301, 1.13606, 1.13511, 1.10929, 1.11974, 1.09436, 1.13245, 1.16689, 1.07724, 1.07517, 1.06701, 0.983794, 0.984035, 1.13326, 1.20915, 1.20522, 1.20035, 0.91956, 0.898099, 0.856986, 0.903026, 0.949212, 0.947477, 0.948256, 0.961862, 0.953511, 0.954175, 0.73792, 0.780843, 0.712527, 0.702483, 0.854851, 0.835603, 0.864931, 0.770482, 0.643619, 0.645204, 0.528732, 0.503527, 0.504823, 0.506539, 0.617939, 0.562287, 0.498974, 0.498833, 0.491924, 0.625369, 0.711762, 0.867631, 0.868703, 0.835167, 0.874837, 0.87434, 0.804815, 0.869764, 0.840401, 0.857317, 0.845484, 0.915527, 0.837394, 0.647903, 0.650749, 0.539248, 0.539289, 0.639481, 0.685356, 0.730054, 0.735277, 0.646242, 0.645955, 0.602557, 0.645375, 0.646214, 0.574743, 0.577285, 0.578223, 0.580548, 0.576366, 0.560127, 0.498382, 0.61391, 0.611847, 0.515444, 0.58091, 0.579954, 0.70531, 0.718538, 0.39127, 0.339957, 0.325604, 0.441301, 0.442115, 0.487651, 0.514072, 0.396803, 0.358471, 0.39883
1.90643, 1.90019, 1.90419, 1.71782, 1.71064, 1.75595, 1.76956, 1.85532, 1.86317, 1.88301, 1.8746, 1.86206, 1.61201, 1.56857, 1.61999, 1.64115, 1.69719, 1.83667, 1.83898, 1.82677, 1.55065, 1.4718, 1.487, 1.52608, 1.53424, 1.55882, 1.63988, 1.72416, 1.73661, 1.53403, 1.50148, 1.50087, 1.49326, 1.53328, 1.61324, 1.7127, 1.72622, 1.89542, 1.51365, 1.42994, 1.34621, 1.34416, 1.34496, 1.4911, 1.40295, 1.34909, 1.35041, 1.34278, 1.26454, 1.26923, 1.37586, 1.34914, 1.51614, 1.62393, 1.69976, 1.69938, 1.54997, 1.3691, 1.3266, 1.32759, 1.29927, 1.34338, 1.39551, 1.36452, 1.38834, 1.3562, 1.30666, 1.2772, 1.28055, 1.30637, 1.60074, 1.69648, 1.73349, 1.81663, 1.50363, 1.41022, 1.38647, 1.43027, 1.52723, 1.54051, 1.71632, 1.75632, 1.80027, 1.62757, 1.60423, 1.58533, 1.70229, 1.70257, 1.85932, 2.05518, 2.06043, 1.9073, 1.86923, 1.84596, 1.87553, 1.95821, 2.00277, 2.14594, 2.15743, 2.1658, 2.24689, 2.14641, 0.00434049, 0.00451484, 2.1355, 2.04762, 2.03476, 2.02815, 2.10354, 2.08, 2.11374, 2.10125, 2.12771, 2.13781, 2.09027, 2.06018, 2.06276, 1.70025, 1.31435, 1.32318, 1.3328, 1.24318, 1.25453, 1.19527, 1.23671, 1.09719, 0.811252, 0.810497, 0.828227, 0.843007, 1.06654, 0.883508, 1.01151, 0.864069, 0.975846, 0.770929, 0.657331, 0.699283, 0.815022, 0.881232, 0.882534, 0.971782, 0.972292, 0.785174, 0.677595, 0.798145, 0.729623, 0.825561, 0.885078, 0.958931, 1.01866, 1.02662, 0.843702, 0.746309, 0.731769, 0.839591, 0.836289, 0.871471, 0.911334, 0.937536, 0.957794, 0.773153, 0.667993, 0.668882, 0.789875, 0.749749, 0.88263, 0.996155, 1.03624, 0.749621, 0.752679, 0.744642, 0.797063, 0.797417, 0.881196, 0.900494, 1.00184, 1.00378, 1.01621, 0.807694, 0.853639, 0.748526, 0.756847, 0.928622, 0.928713, 1.04166, 1.07497, 0.862706, 0.780836, 0.790193, 0.849348, 0.911895, 0.901688, 0.941603, 0.936148, 0.802163, 0.936498, 0.880415, 0.815868, 0.849171, 0.979251, 1.01845, 1.0988, 1.16224, 1.09539, 1.13824, 1.13917, 1.11751, 1.14306, 1.09514, 1.08793, 1.057, 1.03831, 1.0088, 0.998146, 1.02654, 1.16433, 1.18173, 1.20221, 1.16213, 0.900724, 0.8205, 0.839854, 0.828647, 0.885787, 1.03165, 0.949441, 1.09674, 0.937792, 0.933009, 0.772144, 0.765386, 0.708545, 0.759192, 0.785517, 0.793195, 0.797394, 0.82514, 0.646669, 0.617946, 0.462786, 0.464179, 0.490133, 0.618651, 0.620721, 0.520999, 0.478912, 0.478564, 0.497603, 0.549531, 0.793518, 0.795221, 0.851671, 0.860684, 0.87612, 0.762273, 0.782673, 0.783565, 0.953638, 0.840406, 0.904767, 0.916638, 0.847001, 0.72042, 0.624947, 0.601923, 0.540667, 0.659463, 0.645108, 0.761053, 0.760974, 0.764379, 0.577317, 0.596298, 0.598701, 0.601374, 0.650708, 0.628665, 0.628909, 0.620425, 0.567769, 0.652448, 0.519731, 0.654194, 0.605821, 0.522337, 0.523118, 0.604397, 0.601653, 0.651936, 0.43281, 0.339319, 0.339848, 0.424276, 0.476949, 0.519313, 0.514966, 0.344865, 0.342594, 0.309
2.00629, 2.0215, 1.75449, 1.70773, 1.66948, 1.72242, 1.75235, 1.78968, 1.86543, 1.90673, 1.90642, 1.63635, 1.59729, 1.57663, 1.63134, 1.71552, 1.76913, 1.75465, 1.85972, 1.85293, 1.50894, 1.45388, 1.45461, 1.48848, 1.52786, 1.62832, 1.58963, 1.7058, 1.73569, 1.56666, 1.49851, 1.47975, 1.51952, 1.64124, 1.63852, 1.64503, 1.78432, 1.88301, 1.47323, 1.4777, 1.40547, 1.35294, 1.35383, 1.40548, 1.40924, 1.83163, 1.41548, 1.34066, 1.27427, 1.31238, 1.32363, 1.41591, 1.41475, 1.49336, 1.6826, 1.88078, 1.36044, 1.39326, 1.33545, 1.28104, 1.29228, 1.30229, 1.38181, 1.42027, 1.40249, 1.43432, 1.36811, 1.31609, 1.37968, 1.49638, 1.61274, 1.62437, 1.76885, 1.81355, 1.44695, 1.44663, 1.43009, 1.49283, 1.4947, 1.63305, 1.732, 1.73024, 1.77276, 1.65055, 1.61846, 1.58068, 1.58595, 1.5956, 1.90611, 1.95271, 1.99046, 1.97839, 1.87966, 1.86692, 1.86027, 1.96597, 1.96169, 2.14752, 0.00435973, 2.40512, 0.00607241, 2.14606, 2.18303, 2.19354, 2.17494, 2.18668, 2.18721, 2.15198, 2.16012, 2.14789, 2.09636, 2.07062, 2.11008, 2.10373, 2.10354, 2.09801, 2.0622, 1.32329, 1.25188, 1.33278, 1.35414, 1.20456, 1.45745, 1.1811, 1.16736, 1.06023, 0.784491, 0.732852, 0.732523, 0.87356, 0.801135, 0.801702, 0.781823, 1.01179, 0.733402, 0.71792, 0.653563, 0.653383, 0.710778, 0.745253, 0.859246, 0.922789, 1.03718, 0.737498, 0.77839, 0.75367, 0.729536, 0.842502, 0.869737, 0.943802, 1.02232, 1.0217, 0.811272, 0.759364, 0.758896, 0.885651, 0.932891, 0.917093, 0.915209, 0.981203, 0.976747, 0.825508, 0.735168, 0.691457, 0.769317, 0.74996, 0.901327, 0.998274, 1.01554, 1.0136, 0.758564, 0.760453, 0.836365, 0.850735, 0.862852, 0.919426, 0.976675, 1.00868, 1.01361, 0.857472, 0.759523, 0.758245, 0.822695, 0.929013, 0.929082, 1.11171, 1.13081, 0.81133, 0.793896, 0.790941, 0.909529, 0.877911, 0.872116, 0.777727, 1.06323, 0.955777, 0.956082, 0.897822, 0.814531, 0.921642, 0.990633, 1.03704, 1.12219, 1.13678, 1.14004, 1.14038, 1.09893, 1.09826, 1.07147, 1.07056, 1.06768, 0.984711, 1.02441, 1.03425, 0.988271, 1.09396, 1.20276, 1.17415, 1.17201, 1.17504, 0.831667, 0.826684, 0.784196, 0.828023, 0.957047, 0.956989, 1.12558, 1.12019, 0.963242, 0.984845, 0.73615, 0.72862, 0.727879, 0.756599, 0.755606, 0.773579, 0.853275, 0.793231, 0.634117, 0.565617, 0.463371, 0.573898, 0.455917, 0.452937, 0.45538, 0.559525, 0.523088, 0.507831, 0.50734, 0.556933, 0.79453, 0.795142, 0.811597, 0.866109, 0.865535, 0.884035, 0.769277, 0.795515, 0.842646, 0.843823, 0.879523, 0.937262, 0.891736, 0.738299, 0.680164, 0.601923, 0.540705, 0.54168, 0.670968, 0.747948, 0.800889, 0.799335, 0.608555, 0.544969, 0.562725, 0.599682, 0.620667, 0.67664, 0.677766, 0.642362, 0.483825, 0.485715, 0.59441, 0.596269, 0.600771, 0.9109, 0.777467, 0.849538, 0.71973, 0.555152, 0.438987, 0.338113, 0.334031, 0.334133, 0.442338, 0.521856, 0.351227, 0.350874, 0.352121, 0.310911
2.02509, 2.01921, 2.02082, 1.74358, 1.66802, 1.69336, 1.73036, 1.78414, 1.85181, 1.89058, 1.89494, 1.68115, 1.60591, 1.57235, 1.61046, 1.70801, 1.71022, 1.74437, 1.74493, 1.74576, 1.50301, 1.45905, 1.46099, 1.47825, 1.55318, 1.60951, 1.74066, 1.77479, 1.76149, 1.52683, 1.48135, 1.4734, 1.52074, 1.66129, 1.57937, 1.58792, 1.58831, 1.58803, 1.58795, 1.37897, 1.34596, 1.3518, 1.41561, 1.40141, 1.6368, 1.69188, 1.64204, 1.36126, 1.34352, 1.27893, 1.33715, 1.33575, 1.36658, 1.40516, 1.48868, 1.77952, 1.43771, 1.36634, 1.3471, 1.36147, 1.3368, 1.38479, 1.44518, 1.45192, 1.46291, 1.4016, 1.42609, 1.42719, 1.45768, 1.56435, 1.59827, 1.67516, 1.68979, 1.86566, 1.76495, 1.40408, 1.41, 1.49973, 1.5176, 1.58595, 1.62681, 1.71853, 1.72608, 1.67577, 1.75515, 1.60641, 1.74243, 1.66398, 2.00338, 1.99415, 2.02869, 2.02919, 1.9676, 1.89582, 1.8835, 1.9424, 2.05781, 2.08957, 2.1423, 2.37793, 0.00446276, 0.00661359, 2.35989, 2.22088, 2.15696, 2.07728, 2.07929, 2.18421, 2.16591, 2.14517, 2.09974, 2.08813, 2.08458, 2.11868, 2.08978, 2.07841, 2.07912, 1.37099, 1.30604, 1.27061, 1.14904, 1.27759, 1.21056, 1.17549, 1.12366, 0.720921, 0.782855, 0.686871, 0.695845, 0.742024, 0.839883, 0.949925, 0.98826, 0.714466, 0.734741, 0.790035, 0.837447, 0.752812, 0.724383, 0.802303, 0.801425, 0.903814, 0.93294, 0.736507, 0.804859, 0.742809, 0.741904, 0.785772, 0.877988, 0.963288, 0.960437, 0.97376, 0.974834, 0.754718, 0.762532, 0.830384, 0.940619, 0.890298, 0.946895, 0.987621, 0.96588, 0.738543, 0.71882, 0.652067, 0.698008, 0.722401, 0.815313, 1.06911, 1.05381, 1.0422, 0.808909, 0.735774, 0.781095, 0.875476, 0.912865, 0.893894, 0.797172, 0.81052, 0.808562, 0.852541, 0.760697, 0.800977, 0.861765, 0.842701, 0.918914, 1.01873, 1.07306, 0.746736, 0.75451, 0.819785, 0.8699, 0.769203, 0.769767, 1.0425, 1.06337, 1.09468, 0.988824, 0.92927, 0.909573, 0.932194, 0.98617, 0.978506, 1.14637, 1.20204, 1.17708, 1.14494, 1.1669, 1.12685, 1.01674, 1.01746, 1.00794, 0.995437, 0.936484, 1.00964, 1.01806, 1.01761, 1.11226, 1.13286, 1.12885, 1.14852, 0.846076, 0.796117, 0.883245, 0.797801, 0.867629, 1.02237, 0.953398, 1.02839, 0.9591, 0.900782, 0.904037, 0.71588, 0.666833, 0.667112, 0.78758, 0.805712, 0.784746, 0.808254, 0.603664, 0.558803, 0.572364, 0.428861, 0.430092, 0.456767, 0.459181, 0.459657, 0.461678, 0.475996, 0.480022, 0.539358, 0.625385, 0.821264, 0.839887, 0.842607, 0.862977, 0.813228, 0.785217, 0.7989, 0.868728, 0.882304, 0.927929, 0.929577, 0.857179, 0.891157, 0.673987, 0.551689, 0.552867, 0.552995, 0.683562, 0.677235, 0.763964, 0.857706, 0.577817, 0.559984, 0.519023, 0.510031, 0.631593, 0.673304, 0.643094, 0.656465, 0.51014, 0.511956, 0.591769, 0.590615, 0.583486, 0.680653, 0.746281, 0.77474, 0.720923, 0.425085, 0.417411, 0.332786, 0.334818, 0.359693, 0.417782, 0.45859, 0.450907, 0.427552, 0.325938, 0.348069
2.01394, 2.04642, 2.04694, 1.72599, 1.65839, 1.76957, 1.76886, 1.82509, 1.83406, 1.82501, 1.84668, 1.64925, 1.59518, 1.60874, 1.61266, 1.69727, 1.74443, 1.82116, 1.82315, 1.91011, 1.5062, 1.50013, 1.53532, 1.51051, 1.51984, 1.60649, 1.60897, 1.69639, 1.76553, 1.75059, 1.51102, 1.51135, 1.51017, 1.58478, 1.5765, 1.65755, 1.65488, 1.82008, 1.46411, 1.41049, 1.42308, 1.41776, 1.4256, 1.43596, 1.58565, 1.62096, 1.75708, 1.40897, 1.34724, 1.28809, 1.35057, 1.35055, 1.33401, 1.39011, 1.41323, 1.74498, 1.37478, 1.33968, 1.30393, 1.36646, 1.54689, 1.76228, 1.85403, 1.64486, 1.433, 1.46771, 1.46003, 1.48468, 1.46287, 1.83359, 1.81622, 1.7447, 1.72889, 1.73926, 1.80461, 1.511, 1.40037, 1.52735, 1.52731, 1.51009, 1.9599, 1.69714, 1.73432, 1.68944, 1.68688, 1.67328, 1.70714, 1.86245, 1.96653, 2.10929, 2.10776, 2.05831, 2.05636, 1.96296, 2.01076, 1.9842, 1.98436, 2.05319, 0.00499231, 2.1634, 2.30318, 2.29805, 2.16381, 2.19829, 2.12792, 2.07628, 2.17314, 2.16569, 2.1247, 2.29281, 2.33277, 2.26271, 2.13897, 2.12584, 2.12291, 0.00452622, 1.52609, 1.70973, 1.14828, 1.16241, 1.16153, 1.16002, 1.17461, 1.08078, 0.704199, 0.761706, 0.784792, 0.653848, 0.718639, 0.697259, 0.771841, 0.737339, 0.735289, 0.714419, 0.76749, 0.725617, 0.643239, 0.779912, 0.766929, 0.814598, 0.711685, 0.996277, 0.970825, 0.726097, 0.777069, 0.713565, 0.821141, 0.820734, 0.828262, 0.976528, 1.00744, 1.00102, 0.798685, 0.746964, 0.825703, 0.839371, 0.848238, 0.92417, 0.922917, 0.98166, 0.96118, 0.967173, 0.727488, 0.704034, 0.756724, 0.826498, 0.868311, 1.02575, 1.0338, 1.03478, 0.800637, 0.794874, 0.808589, 0.807373, 0.854241, 0.948155, 0.943907, 0.959519, 0.958251, 0.900682, 0.762819, 0.76256, 0.897187, 0.896759, 0.949996, 0.978021, 0.807291, 0.770125, 0.789558, 0.781942, 0.765347, 0.763914, 1.01097, 1.05027, 1.08706, 1.08741, 0.995628, 0.939379, 0.918592, 0.932121, 0.895883, 0.921763, 0.905676, 1.05083, 1.17211, 1.15535, 1.12228, 1.0094, 0.969285, 0.967015, 0.966789, 0.925217, 0.926506, 0.920008, 1.00139, 1.02779, 1.0345, 1.11927, 1.11045, 1.09334, 0.890822, 0.793997, 0.836392, 0.763989, 0.864657, 0.938842, 0.90546, 0.907343, 0.888447, 0.956926, 0.782102, 0.759419, 0.765945, 0.766033, 0.772478, 0.771695, 0.826058, 0.845836, 0.627967, 0.542603, 0.560381, 0.428819, 0.429841, 0.460592, 0.461391, 0.462475, 0.459977, 0.504487, 0.479047, 0.453258, 0.663138, 0.88997, 0.936352, 0.90466, 0.922907, 0.796681, 0.79758, 0.799002, 0.801398, 0.856972, 0.867294, 0.880424, 0.849112, 0.629544, 0.652538, 0.586249, 0.552069, 0.615174, 0.71412, 0.853606, 0.776611, 0.880239, 0.657108, 0.632302, 0.55046, 0.588435, 0.635395, 0.653074, 0.655905, 0.563228, 0.525778, 0.5424, 0.543945, 0.542732, 0.607111, 0.683842, 0.76948, 0.778484, 0.780954, 0.383375, 0.34752, 0.349172, 0.413484, 0.435248, 0.437363, 0.422935, 0.511618, 0.432616, 0.363874, 0.366096
1.92561, 1.924, 1.92324, 1.71078, 1.69261, 1.6598, 1.7293, 1.74892, 1.7755, 1.83017, 1.85823, 1.63195, 1.56575, 1.59594, 1.62024, 1.67026, 1.70469, 1.73148, 1.81748, 1.84851, 1.50197, 1.47091, 1.46943, 1.54772, 1.5752, 1.58923, 1.67332, 1.67101, 1.6461, 1.5251, 1.46112, 1.45485, 1.48093, 1.58644, 1.59836, 1.63475, 1.70974, 1.43273, 1.45084, 1.39724, 1.3958, 1.37601, 1.44815, 1.4678, 1.50111, 1.57196, 1.56547, 1.42944, 1.36899, 1.41624, 1.31677, 1.40975, 1.37632, 1.37755, 1.39152, 1.39228, 1.35799, 1.38509, 1.2937, 1.29356, 1.55862, 1.57493, 1.57674, 1.65598, 1.48218, 1.4707, 1.45508, 1.60565, 1.47078, 1.53371, 1.67331, 1.77571, 1.78977, 1.87508, 1.856, 1.50656, 1.47022, 1.52789, 1.51907, 1.5306, 1.89889, 1.92485, 1.77578, 1.73473, 1.71361, 1.69936, 1.81866, 1.99686, 1.9451, 2.24647, 2.23394, 2.14226, 2.24198, 2.0454, 2.01757, 2.01734, 2.00921, 2.0205, 2.22846, 0.00582577, 2.16442, 2.16629, 2.14701, 2.14921, 2.13468, 2.18279, 2.20458, 2.26445, 2.29947, 2.29802, 2.23856, 2.15879, 2.12872, 2.1293, 1.66949, 1.57196, 1.57458, 1.08426, 1.05135, 0.949694, 1.03305, 1.15735, 1.11535, 1.01582, 1.0155, 0.628654, 0.627761, 0.620017, 0.674426, 0.735816, 0.736837, 0.767617, 0.772736, 0.991351, 0.777309, 0.776805, 0.708119, 0.638412, 0.777072, 0.785713, 0.714936, 0.708181, 0.730317, 0.679539, 0.724808, 0.712752, 0.712641, 0.888777, 0.898317, 0.967497, 0.956154, 0.97653, 0.980351, 0.735164, 0.807338, 0.844301, 0.822077, 0.88058, 0.946961, 1.00933, 1.01882, 0.747387, 0.670464, 0.671693, 0.774835, 0.77511, 0.925571, 1.07053, 1.01579, 1.01538, 0.788193, 0.767957, 0.834513, 0.860265, 0.870356, 0.91186, 0.984146, 0.97936, 1.01566, 0.939702, 0.786657, 0.717846, 0.80429, 0.780977, 0.783117, 1.06047, 0.731467, 0.731594, 0.727582, 0.773518, 0.773695, 1.10193, 1.06802, 1.05671, 1.10829, 1.08807, 1.16573, 1.01608, 0.954159, 0.977347, 0.953974, 0.936359, 0.967359, 0.950256, 1.03333, 1.16697, 1.06522, 1.03672, 1.09458, 1.08108, 0.972001, 0.870722, 0.853675, 0.942428, 1.0535, 1.04966, 1.08269, 1.07864, 1.09418, 1.08109, 0.794161, 0.73889, 0.738085, 0.842889, 0.843564, 0.911921, 0.896476, 0.908056, 0.973473, 0.88403, 0.909497, 0.749759, 0.766266, 0.671377, 0.764982, 0.751113, 0.752162, 0.753514, 0.527936, 0.529139, 0.566407, 0.56025, 0.606312, 0.458701, 0.458864, 0.511532, 0.52836, 0.562096, 0.46229, 0.482695, 0.552251, 0.868248, 0.887432, 0.940201, 0.918016, 0.804423, 0.691425, 0.828991, 0.845464, 0.876451, 0.87726, 0.8708, 0.917475, 0.713298, 0.610381, 0.529244, 0.530254, 0.611647, 0.630127, 0.78192, 0.846506, 0.847245, 0.664269, 0.602352, 0.61463, 0.590977, 0.597779, 0.66693, 0.65525, 0.468901, 0.469977, 0.60847, 0.487966, 0.489217, 0.541581, 0.610964, 0.711886, 0.721506, 0.729289, 0.503346, 0.425738, 0.350115, 0.384901, 0.508001, 0.501551, 0.438455, 0.510389, 0.468679, 0.381549, 0.368878
2.00489, 1.99636, 1.99789, 1.68887, 1.72283, 1.7126, 1.71667, 1.74081, 1.88449, 1.95338, 1.95516, 1.64487, 1.60906, 1.60338, 1.63737, 1.71433, 1.67765, 1.76864, 1.85768, 1.76739, 1.53727, 1.47208, 1.47634, 1.51804, 1.55547, 1.60961, 1.61575, 1.74177, 1.65184, 1.66884, 1.49538, 1.43946, 1.49342, 1.48525, 1.58647, 1.45464, 1.45355, 1.48479, 1.43812, 1.39536, 1.44073, 1.449, 1.49062, 1.43746, 1.55733, 1.62506, 1.57554, 1.4599, 1.38115, 1.31194, 1.31203, 1.40086, 1.47193, 1.48327, 1.51323, 1.45304, 1.38157, 1.38174, 1.5719, 1.31081, 1.31406, 1.58038, 1.68144, 1.69866, 1.52039, 1.46516, 1.46483, 1.544, 1.61097, 1.61001, 1.65234, 2.10742, 1.85143, 1.93031, 1.81631, 1.52582, 1.5259, 1.54827, 1.53352, 1.69726, 1.87602, 2.02584, 1.75607, 1.75161, 1.77525, 1.71428, 1.73375, 1.75959, 1.86324, 2.22205, 2.24649, 2.39778, 2.23637, 2.2005, 1.9871, 1.98008, 2.06062, 2.0722, 2.23587, 0.0045964, 2.38093, 2.21042, 2.17461, 2.1778, 2.21306, 2.21769, 2.30362, 2.28527, 2.30177, 2.27001, 2.25189, 0.00500455, 1.74898, 1.61171, 1.57906, 1.54866, 1.43866, 1.06446, 0.958179, 0.83693, 0.969353, 1.02236, 0.961222, 0.77966, 0.780446, 0.764418, 0.683714, 0.740518, 0.802466, 0.764612, 0.804595, 0.738976, 0.739385, 0.987031, 0.993955, 0.710922, 0.634101, 0.701433, 0.753132, 0.86088, 0.956084, 0.97809, 0.946192, 0.696967, 0.69414, 0.818684, 0.749041, 0.779359, 0.833566, 1.00626, 1.00485, 0.984299, 0.96485, 0.770716, 0.769523, 0.797987, 0.840612, 0.831667, 0.929573, 0.977311, 0.960928, 0.73809, 0.711035, 0.763096, 0.805346, 0.770176, 0.860889, 0.947672, 1.01241, 0.826573, 0.758089, 0.861001, 0.840708, 0.866572, 0.911604, 0.956042, 1.0099, 0.995286, 1.00197, 0.874721, 0.721949, 0.721798, 0.766828, 0.923509, 1.09466, 1.03531, 0.730655, 0.73206, 0.743474, 0.773217, 0.773672, 0.877603, 1.02005, 1.11601, 1.12062, 1.14339, 1.15298, 0.974825, 1.00582, 1.11879, 1.08451, 1.05987, 0.963997, 0.980841, 1.00485, 1.00181, 1.00156, 1.04257, 1.11548, 1.27323, 0.894822, 0.850326, 0.829842, 0.865914, 1.01234, 1.01107, 1.12701, 1.02503, 0.780988, 0.773785, 0.784543, 0.68975, 0.874899, 0.678338, 0.783566, 0.783578, 0.898071, 0.956658, 0.885343, 0.895868, 0.837835, 0.766523, 0.75149, 0.75249, 0.693222, 0.755303, 0.754896, 0.75614, 0.520804, 0.520778, 0.560298, 0.501301, 0.615136, 0.460045, 0.477355, 0.434471, 0.436394, 0.438847, 0.473919, 0.524421, 0.814031, 0.859605, 0.890683, 0.893691, 0.926581, 0.755074, 0.690554, 0.794775, 0.813824, 0.898525, 0.92246, 0.922035, 0.919374, 0.781251, 0.606346, 0.580754, 0.55297, 0.595517, 0.6124, 0.754662, 0.767281, 0.769733, 0.668287, 0.653814, 0.57693, 0.625177, 0.659992, 0.704726, 0.684166, 0.471104, 0.472285, 0.594984, 0.594656, 0.484176, 0.540264, 0.558516, 0.482866, 0.502544, 0.504412, 0.506566, 0.505192, 0.405699, 0.406002, 0.319269, 0.320118, 0.403839, 0.470238, 0.471334, 0.473935, 0.410337
2.01065, 2.00597, 2.00726, 1.69908, 1.6871, 1.70238, 1.72879, 1.75335, 1.79654, 1.91349, 1.91216, 1.65987, 1.61776, 1.61434, 1.62656, 1.65467, 1.67934, 1.75574, 1.82377, 1.81479, 1.56497, 1.51828, 1.47391, 1.51608, 1.56876, 1.64566, 1.72729, 1.72005, 1.72073, 1.67136, 1.46152, 1.46446, 1.46125, 1.43067, 1.47796, 1.61706, 1.61804, 1.47088, 1.46158, 1.39838, 1.38382, 1.40054, 1.39808, 1.44347, 1.45641, 1.45533, 1.78342, 1.65621, 1.38657, 1.37402, 1.37157, 1.38141, 1.38109, 1.54701, 1.52419, 1.46492, 1.40669, 1.35642, 1.35463, 1.32946, 1.35089, 1.58895, 1.58816, 1.56457, 1.57997, 1.54342, 1.54488, 1.5381, 1.59582, 1.7902, 1.74582, 1.80635, 1.81864, 1.82591, 1.82205, 1.54716, 1.52264, 1.55745, 1.63047, 1.6989, 1.78357, 2.12134, 1.84589, 1.78412, 1.78542, 1.77861, 1.80844, 1.8102, 1.98589, 2.09905, 2.24542, 2.21823, 2.21796, 2.19879, 2.19197, 1.99493, 2.18492, 2.18304, 2.11679, 2.23857, 2.22908, 2.27551, 2.36517, 2.34518, 0.00472068, 2.3391, 2.39145, 1.62682, 1.57956, 2.06878, 1.60595, 1.63859, 1.81321, 1.64361, 1.50317, 1.46132, 0.00391274, 1.22705, 0.819003, 0.78495, 0.806694, 0.806396, 0.790518, 0.806255, 0.805121, 0.728781, 0.646846, 0.69049, 0.683469, 0.69862, 0.793891, 0.926144, 0.738363, 0.725555, 0.726934, 0.769864, 0.635072, 0.637735, 0.638148, 0.780826, 0.887361, 0.980597, 0.978603, 0.794045, 0.717718, 0.763325, 0.757052, 0.833722, 0.833494, 0.932417, 0.998409, 0.956646, 0.962626, 0.771519, 0.738531, 0.777458, 0.893154, 0.912166, 0.9435, 0.944232, 0.994775, 0.689152, 0.690914, 0.732373, 0.742036, 0.741958, 0.816851, 0.957615, 1.01779, 0.846454, 0.747384, 0.74836, 0.884738, 0.874549, 0.895071, 0.978763, 1.00692, 1.01823, 0.955903, 0.788254, 0.710343, 0.710521, 0.874255, 0.911472, 1.08465, 1.03583, 1.08563, 0.842056, 0.70987, 0.713497, 0.71388, 0.929571, 1.05498, 1.13848, 1.14115, 1.17408, 1.17999, 0.980354, 1.06465, 1.09922, 1.12289, 1.10476, 1.00999, 1.00426, 0.946831, 1.02354, 1.11506, 1.0845, 1.23882, 1.24688, 0.832077, 0.80784, 0.822798, 0.823449, 0.804121, 0.828413, 0.827543, 1.03726, 1.04645, 0.784192, 0.973111, 0.643713, 0.676872, 0.684307, 0.674, 0.826954, 0.877944, 0.877987, 0.985197, 0.884506, 0.873616, 0.835492, 0.728276, 0.747139, 0.749069, 0.770291, 0.709873, 0.708038, 0.519945, 0.520853, 0.52079, 0.496245, 0.504336, 0.502189, 0.47719, 0.479766, 0.431763, 0.431612, 0.490239, 0.473053, 0.804331, 0.803757, 0.8846, 0.876323, 0.878042, 0.694167, 0.69547, 0.834431, 0.819365, 0.867809, 0.863052, 0.918715, 0.914111, 0.835912, 0.55887, 0.559069, 0.62773, 0.669567, 0.671059, 0.740122, 0.76927, 0.773561, 0.552528, 0.538225, 0.615378, 0.633119, 0.664571, 0.704851, 0.705498, 0.536546, 0.513678, 0.472084, 0.515515, 0.473914, 0.46079, 0.636384, 0.61172, 0.622054, 0.623152, 0.624935, 0.456996, 0.405592, 0.317625, 0.319811, 0.32035, 0.402396, 0.389718, 0.424878, 0.375642, 0.376806
2.00955, 2.10201, 1.71195, 1.69941, 1.68, 1.77327, 1.7385, 1.72133, 1.81683, 1.90037, 1.89329, 1.66496, 1.57318, 1.56279, 1.59348, 1.68973, 1.68805, 1.70349, 1.78556, 1.85918, 1.55965, 1.54398, 1.48854, 1.53041, 1.54829, 1.64331, 1.64538, 1.78464, 1.67978, 1.49344, 1.41293, 1.41387, 1.45915, 1.49359, 1.52396, 1.67516, 1.6169, 1.6182, 1.42548, 1.45638, 1.33996, 1.33017, 1.38638, 1.48208, 1.53959, 1.60253, 1.68555, 1.50057, 1.4192, 1.35969, 1.38936, 1.37112, 1.41608, 1.46054, 1.40605, 1.40182, 1.43608, 1.48822, 1.48509, 1.37113, 1.47889, 1.67915, 1.66427, 1.67518, 1.56646, 1.57981, 1.73991, 1.58878, 1.59962, 1.64931, 1.79913, 1.94573, 1.87685, 1.98973, 1.90631, 1.80978, 1.58972, 1.59751, 1.66163, 1.77982, 1.83174, 2.19616, 1.85304, 1.83852, 1.8311, 1.85568, 1.83637, 1.85101, 2.05568, 2.20113, 2.1932, 2.41611, 2.377, 2.20226, 2.18937, 2.06453, 2.19714, 2.20779, 2.10959, 2.19192, 2.19437, 2.26617, 2.27957, 2.26403, 2.37705, 2.2137, 2.33945, 1.60203, 1.49591, 1.55821, 1.52741, 1.58801, 1.65128, 1.55144, 1.51336, 1.43017, 1.27903, 1.27549, 0.798097, 0.750898, 0.764012, 0.801722, 0.902779, 0.879263, 0.879424, 0.710595, 0.71383, 0.736607, 0.736097, 0.696968, 0.68792, 0.673757, 0.921711, 0.944782, 0.978357, 0.629997, 0.629747, 0.682128, 0.698261, 0.779884, 0.881476, 0.875933, 0.949504, 0.704438, 0.704606, 0.708957, 0.776366, 0.843788, 0.849474, 0.983829, 1.03873, 1.01907, 1.01258, 0.746858, 0.783572, 0.780844, 0.936724, 0.899524, 0.949282, 0.949468, 1.00457, 0.73802, 0.687343, 0.842505, 0.759867, 0.870649, 0.870147, 0.989746, 0.954047, 1.02959, 0.819183, 0.797845, 0.847051, 0.911233, 0.949704, 0.974089, 1.03909, 1.04155, 0.912421, 0.813307, 0.811734, 0.714527, 0.757177, 0.898491, 1.07916, 0.996195, 1.06911, 0.894863, 0.70876, 0.711273, 0.711592, 0.88332, 0.923397, 1.102, 1.18226, 1.12624, 1.14272, 0.97128, 0.972153, 1.06978, 1.07356, 1.14093, 1.069, 1.0055, 0.952985, 1.01838, 1.04275, 1.23013, 1.23055, 1.2231, 0.772905, 0.793818, 0.77092, 0.784511, 0.786911, 0.959947, 0.979896, 1.02247, 1.04478, 1.04736, 0.683316, 0.673773, 0.673413, 0.674728, 0.69743, 0.829914, 0.874678, 0.923985, 0.918702, 0.88348, 0.766355, 0.727764, 0.801102, 0.766528, 0.723994, 0.698379, 0.703689, 0.747945, 0.741795, 0.500599, 0.501662, 0.502076, 0.498781, 0.502067, 0.42488, 0.479712, 0.480204, 0.429141, 0.41924, 0.566249, 0.802443, 0.834805, 0.884198, 0.922201, 0.924569, 0.694153, 0.725066, 0.787355, 0.825717, 0.878587, 0.869854, 0.896247, 0.822204, 0.828984, 0.560324, 0.560687, 0.646033, 0.703955, 0.710118, 0.748991, 0.749544, 0.804689, 0.477094, 0.478958, 0.479022, 0.531191, 0.691055, 0.675202, 0.674309, 0.51256, 0.514029, 0.514356, 0.559762, 0.525971, 0.571342, 0.53486, 0.711058, 0.667424, 0.622654, 0.714924, 0.656923, 0.523467, 0.483953, 0.324929, 0.327219, 0.406325, 0.49597, 0.411922, 0.410255, 0.362017
1.99937, 2.01068, 1.73174, 1.67893, 1.64194, 1.66923, 1.75922, 1.74132, 1.80755, 1.86981, 1.92315, 1.62648, 1.64466, 1.56043, 1.6058, 1.61657, 1.66299, 1.74123, 1.76506, 1.75918, 1.48624, 1.48549, 1.53372, 1.52745, 1.56133, 1.62337, 1.66532, 1.75083, 1.74686, 1.48753, 1.46541, 1.44335, 1.46121, 1.5208, 1.63615, 1.63552, 1.61585, 1.42443, 1.37489, 1.36364, 1.3575, 1.43504, 1.59215, 1.44833, 1.60707, 1.64119, 1.73131, 1.42329, 1.39552, 1.40215, 1.3645, 1.47316, 1.37203, 1.4324, 1.43018, 1.49789, 1.48687, 1.53441, 1.49402, 1.58908, 1.44796, 1.62464, 1.68279, 1.65868, 1.5836, 1.55824, 1.53374, 1.55125, 1.58345, 1.64053, 1.67964, 1.92377, 2.0131, 2.10425, 1.97015, 1.97016, 1.61074, 1.60737, 1.7074, 1.71429, 1.84011, 2.12048, 2.13491, 1.85405, 1.88041, 1.8706, 1.87868, 1.94822, 2.06275, 2.10715, 2.13915, 0.00475583, 2.29134, 2.39153, 2.16767, 2.28412, 2.05117, 2.04636, 2.05894, 2.11969, 2.26232, 2.25373, 2.25524, 2.26762, 2.23392, 2.21282, 2.21248, 1.65926, 1.45113, 1.3683, 1.41976, 1.43266, 1.52589, 1.47404, 1.44212, 1.40886, 1.34019, 1.19121, 0.81138, 0.735211, 0.725797, 0.707373, 0.706681, 0.682944, 0.664723, 0.646645, 0.605567, 0.61582, 0.615497, 0.686552, 0.684884, 0.675075, 0.672423, 0.978574, 0.901066, 0.681656, 0.62992, 0.670912, 0.832664, 0.817988, 0.865442, 0.901331, 0.934113, 0.741023, 0.718165, 0.738408, 0.821419, 0.821485, 0.92488, 0.926762, 1.00415, 1.03356, 0.927595, 0.797584, 0.704766, 0.825803, 0.875301, 0.864055, 0.963402, 0.971517, 1.03366, 0.746662, 0.678246, 0.843903, 0.757509, 0.787281, 0.851795, 0.800463, 0.791397, 1.01021, 0.864074, 0.753063, 0.830396, 0.852933, 0.872304, 0.999837, 1.00552, 1.0356, 1.02645, 0.767527, 0.79694, 0.776855, 0.848364, 0.98461, 0.976827, 1.04735, 1.05568, 0.905256, 0.905825, 0.790825, 0.788561, 0.782515, 0.990744, 1.08547, 1.28465, 1.13778, 1.13676, 0.969714, 0.971927, 1.02898, 1.03007, 1.04998, 1.01699, 0.984517, 0.953136, 0.985289, 1.06982, 1.06305, 1.18209, 1.16455, 0.756499, 0.73674, 0.738076, 0.711197, 0.800965, 0.914955, 0.986794, 1.02757, 1.04021, 1.01483, 0.735104, 0.580729, 0.530622, 0.527748, 0.595224, 0.901866, 0.894467, 0.88254, 0.883319, 0.882023, 0.723639, 0.672441, 0.770749, 0.825076, 0.811894, 0.732118, 0.681045, 0.664595, 0.721288, 0.501495, 0.50325, 0.50316, 0.42761, 0.458286, 0.440553, 0.431108, 0.482239, 0.524261, 0.425575, 0.425069, 0.817163, 0.83199, 0.80053, 0.834885, 0.818384, 0.884616, 0.837158, 0.737089, 0.752979, 0.892206, 0.880624, 0.897541, 0.83853, 0.597255, 0.600116, 0.614356, 0.586995, 0.683165, 0.72918, 0.728841, 0.759536, 0.771551, 0.47789, 0.479213, 0.508019, 0.507779, 0.51129, 0.512864, 0.508629, 0.509163, 0.519098, 0.475641, 0.477104, 0.478152, 0.60357, 0.619819, 0.608458, 0.652848, 0.652931, 0.570901, 0.698309, 0.503533, 0.479831, 0.329272, 0.331401, 0.329903, 0.511638, 0.460856, 0.41448, 0.329718
2.05017, 2.05263, 2.04237, 1.66846, 1.63188, 1.6774, 1.77053, 1.73756, 1.75739, 1.87572, 1.82243, 1.62412, 1.57182, 1.54167, 1.55792, 1.67275, 1.72692, 1.72674, 1.77836, 1.78971, 1.55546, 1.48515, 1.48619, 1.53672, 1.55119, 1.60993, 1.62304, 1.63683, 1.66799, 1.49874, 1.45234, 1.44406, 1.50973, 1.51067, 1.60736, 1.70185, 1.73442, 1.44765, 1.37319, 1.37383, 1.37877, 1.37781, 1.44692, 1.48777, 1.55748, 1.57235, 1.64521, 1.38552, 1.34659, 1.37018, 1.34015, 1.47088, 1.47157, 1.49245, 1.45244, 1.51778, 1.52941, 1.48489, 1.49185, 1.61037, 1.57567, 1.59436, 1.59575, 1.77983, 1.60929, 1.57574, 1.56628, 1.67083, 1.62983, 1.69585, 1.7552, 1.88072, 1.99303, 2.07988, 2.08012, 2.07666, 1.69946, 1.64687, 1.66222, 1.94167, 1.84132, 1.83083, 2.13567, 1.91409, 1.9104, 1.97184, 1.97248, 2.06978, 2.103, 2.10794, 2.14495, 2.34391, 2.12016, 2.12058, 2.24171, 2.28033, 2.17091, 2.23151, 2.16968, 2.10808, 2.16006, 2.13151, 2.21723, 2.26675, 2.28969, 2.28938, 2.24823, 1.45432, 1.34302, 1.33337, 1.3447, 1.37114, 1.38951, 1.57359, 1.51055, 1.41041, 1.30557, 1.27448, 0.743506, 0.732232, 0.755205, 0.685546, 0.684064, 0.904167, 0.903919, 0.668789, 0.619319, 0.614461, 0.616966, 0.728469, 0.693539, 0.875223, 0.873817, 0.866517, 0.66667, 0.601994, 0.626023, 0.624728, 0.750313, 0.870491, 0.86444, 0.911738, 0.96225, 0.711959, 0.701215, 0.760466, 0.794086, 0.865995, 0.859191, 0.969893, 0.977029, 0.995972, 0.742978, 0.708296, 0.767506, 0.826159, 0.820595, 0.831252, 0.973206, 0.725516, 0.724854, 0.683916, 0.683109, 0.71387, 0.845581, 0.900535, 0.877053, 0.975311, 0.974772, 0.828175, 0.763419, 0.7936, 0.897743, 0.904372, 0.937767, 1.00874, 1.03817, 1.05964, 1.08816, 0.741739, 0.741958, 0.741987, 0.850497, 0.942972, 1.03667, 1.03179, 1.08332, 0.961774, 0.968046, 0.890333, 0.808885, 0.864497, 0.853292, 1.1213, 1.09622, 1.13407, 1.12662, 1.02621, 1.07486, 1.04076, 1.1913, 1.19179, 0.964497, 0.999053, 1.00036, 0.987199, 1.0218, 1.12896, 1.13656, 1.15157, 1.15038, 0.704014, 0.714968, 0.690489, 0.767925, 0.938956, 0.965778, 0.983948, 0.974978, 0.956849, 0.652002, 0.508078, 0.530621, 0.593194, 0.677909, 0.830234, 0.787769, 0.888255, 0.88357, 0.866706, 0.624525, 0.692158, 0.701585, 0.744035, 0.749494, 0.749597, 0.753242, 0.755972, 0.697088, 0.500011, 0.50161, 0.503272, 0.43064, 0.431533, 0.430767, 0.434731, 0.428459, 0.545206, 0.545743, 0.465944, 0.494576, 0.850646, 0.851968, 0.833557, 0.849243, 0.832241, 0.705199, 0.688701, 0.812613, 0.8113, 0.810808, 0.776607, 0.77715, 0.838761, 0.609014, 0.580571, 0.621525, 0.696113, 0.687815, 0.709194, 0.816083, 0.818248, 0.531781, 0.518368, 0.518029, 0.555537, 0.512308, 0.513507, 0.455859, 0.642245, 0.52562, 0.474475, 0.477025, 0.477478, 0.620488, 0.621914, 0.621612, 0.621756, 0.653166, 0.573211, 0.517142, 0.505107, 0.476793, 0.483328, 0.331852, 0.315721, 0.316824, 0.339701, 0.341738, 0.34116
2.05504, 2.06088, 2.0636, 1.6994, 1.60959, 1.60868, 1.60914, 1.69403, 1.70779, 1.76839, 1.76986, 1.68628, 1.59582, 1.52609, 1.5644, 1.6298, 1.67812, 1.7569, 1.79736, 1.80324, 1.53488, 1.5342, 1.47973, 1.52692, 1.55618, 1.62015, 1.65449, 1.79551, 1.79136, 1.42861, 1.3879, 1.42185, 1.54777, 1.57109, 1.58402, 1.66895, 1.66291, 1.43122, 1.37986, 1.35809, 1.35167, 1.48126, 1.40721, 1.53358, 1.58101, 1.67028, 1.36069, 1.27735, 1.38266, 1.38544, 1.32757, 1.52744, 1.47503, 1.53721, 1.49305, 1.47884, 1.51014, 1.44006, 1.53679, 1.52727, 1.5237, 1.58885, 1.58927, 1.81754, 1.64851, 1.63517, 1.62494, 1.66904, 1.70595, 1.6545, 1.75841, 1.91254, 2.08003, 2.08042, 2.16402, 2.16303, 0.00467887, 1.72894, 1.74447, 1.72332, 1.72416, 1.82298, 1.8277, 2.16702, 1.92758, 2.03739, 2.03159, 2.10693, 2.11571, 2.14216, 0.00475958, 2.35916, 2.10368, 2.11502, 2.11481, 2.20633, 2.21661, 2.07937, 2.0792, 2.11857, 2.13868, 0.0049548, 0.00452969, 0.00500321, 0.00412265, 0.00478261, 0.00469515, 1.68304, 1.35218, 1.3238, 1.28884, 1.3152, 1.33476, 1.35351, 1.35475, 1.40309, 1.0327, 1.03443, 0.698879, 0.654606, 0.653396, 0.749208, 0.884832, 0.652034, 0.999248, 0.60512, 0.597497, 0.616219, 0.614563, 0.746347, 0.751814, 0.889579, 0.936523, 0.65931, 0.662331, 0.664369, 0.679395, 0.652961, 0.724654, 0.885045, 0.880876, 1.00741, 0.931447, 0.711124, 0.708667, 0.707265, 0.811114, 0.809445, 0.916175, 0.915724, 1.03663, 1.03629, 0.760023, 0.692872, 0.753055, 0.81512, 0.803535, 0.813142, 0.891922, 0.978201, 0.977842, 0.681855, 0.71577, 0.717237, 0.716678, 0.855012, 0.892188, 0.968694, 1.03093, 0.74636, 0.797869, 0.835876, 0.837532, 0.930722, 0.930376, 0.997291, 1.00482, 0.710675, 0.711577, 0.741738, 0.741691, 0.781637, 0.94259, 0.987759, 1.01222, 1.0276, 1.06608, 0.957961, 1.00068, 0.993777, 1.02215, 0.905499, 0.973786, 0.93011, 1.09661, 1.10532, 1.12566, 1.08452, 1.02214, 1.11499, 1.19673, 1.19068, 0.983124, 0.981788, 0.981257, 1.09935, 1.03045, 1.13316, 1.1328, 1.18149, 1.1567, 0.69707, 0.697168, 0.708971, 0.662814, 0.963367, 0.964869, 0.984086, 0.984228, 1.00887, 0.606292, 0.51147, 0.511025, 0.526341, 0.767029, 0.84726, 0.839147, 0.80757, 0.925405, 0.705968, 0.707849, 0.627945, 0.690569, 0.739524, 0.739459, 0.744751, 0.647063, 0.646729, 0.714492, 0.478621, 0.479155, 0.504744, 0.429663, 0.513652, 0.414923, 0.431495, 0.394635, 0.446567, 0.448741, 0.772766, 0.728964, 0.788859, 0.831296, 0.832768, 0.83379, 0.683856, 0.634375, 0.634772, 0.718593, 0.706346, 0.776511, 0.777197, 0.875064, 0.798575, 0.610986, 0.559184, 0.648871, 0.653553, 0.700127, 0.697212, 0.824749, 0.683358, 0.58284, 0.500799, 0.457621, 0.463212, 0.549802, 0.498009, 0.458914, 0.458522, 0.449242, 0.449704, 0.550475, 0.60499, 0.624888, 0.58307, 0.600497, 0.687058, 0.641871, 0.53291, 0.631521, 0.484345, 0.486896, 0.48464, 0.375805, 0.313906, 0.314826, 0.341749, 0.341993, 0.339349
1.96565, 1.96546, 1.96563, 1.66226, 1.68457, 1.59957, 1.62872, 1.76064, 1.75179, 1.78034, 1.72582, 1.75588, 1.55611, 1.49678, 1.55831, 1.6055, 1.64623, 1.69284, 1.84125, 1.8139, 1.50491, 1.48172, 1.48392, 1.55082, 1.54624, 1.60676, 1.69465, 1.74895, 1.43799, 1.37817, 1.38082, 1.3998, 1.42461, 1.46247, 1.57479, 1.57269, 1.47849, 1.49672, 1.43569, 1.41562, 1.35743, 1.39509, 1.39225, 1.39964, 1.42239, 1.42267, 1.35375, 1.29326, 1.33048, 1.31829, 1.32557, 1.44788, 1.46737, 1.51612, 1.47873, 1.49316, 1.45036, 1.45014, 1.54991, 1.516, 1.56781, 1.60299, 1.62466, 1.95955, 1.76144, 1.62916, 1.61286, 1.60953, 1.65276, 1.65908, 1.76748, 1.90995, 2.04267, 2.11375, 2.11438, 2.05811, 0.00467693, 1.97326, 1.78051, 1.7541, 1.82826, 1.79671, 1.9292, 1.79414, 1.99311, 2.00936, 2.0406, 2.10912, 2.08982, 2.12989, 2.11954, 2.17925, 2.10281, 2.10946, 2.10865, 2.10999, 2.26408, 2.21021, 2.08172, 2.08124, 2.09624, 2.39058, 2.06952, 2.10215, 2.0925, 2.08724, 1.61425, 1.42339, 1.39155, 1.34258, 1.25725, 1.30356, 1.3259, 1.44833, 1.36307, 1.32589, 1.30612, 0.702454, 0.724096, 0.610448, 0.715047, 0.751395, 0.828254, 0.869719, 0.868806, 0.610963, 0.600019, 0.614965, 0.755121, 0.701549, 0.868603, 0.868811, 0.686286, 0.684525, 0.660271, 0.749309, 0.693952, 0.696701, 0.735731, 0.802211, 0.839856, 0.931478, 0.943137, 0.930316, 0.714361, 0.763127, 0.871863, 0.80275, 0.870154, 0.948565, 0.893638, 0.894799, 0.757084, 0.711397, 0.759459, 0.818628, 0.869761, 0.88769, 0.730051, 1.00797, 1.00868, 0.708599, 0.704911, 0.752961, 0.819891, 0.818416, 0.919075, 0.959212, 0.959441, 1.02937, 0.780502, 0.839419, 0.903346, 0.883669, 0.697577, 0.704213, 0.702526, 1.0405, 1.04033, 0.870791, 0.831492, 0.807977, 0.808669, 0.926061, 0.927513, 0.999289, 0.977785, 0.92864, 0.959162, 1.00196, 1.02752, 1.02835, 1.01067, 1.09834, 1.10837, 1.16392, 1.16592, 1.04344, 1.08878, 1.1988, 1.1985, 1.18133, 0.93591, 0.926122, 0.928527, 1.00515, 1.03823, 1.07123, 1.12283, 1.11586, 1.11485, 0.769806, 0.698922, 0.618582, 0.662705, 0.68016, 0.981579, 0.977248, 1.01821, 0.980617, 0.60581, 0.525316, 0.52549, 0.518976, 0.563065, 0.7249, 0.822236, 0.825886, 0.855166, 0.855376, 0.706703, 0.707197, 0.757359, 0.74229, 0.827954, 0.644402, 0.646489, 0.647682, 0.480642, 0.583062, 0.531503, 0.691091, 0.69573, 0.523144, 0.415157, 0.401539, 0.410587, 0.40783, 0.487046, 0.486623, 0.739784, 0.735985, 0.843031, 0.975543, 0.977552, 0.976758, 0.633626, 0.633863, 0.752502, 0.739398, 0.862796, 0.962861, 0.822997, 0.800957, 0.87694, 0.559681, 0.573053, 0.618182, 0.698131, 0.560081, 0.602211, 0.570244, 0.551272, 0.528655, 0.556586, 0.521693, 0.569285, 0.521345, 0.505967, 0.447544, 0.449223, 0.452887, 0.458338, 0.59374, 0.624395, 0.671184, 0.683453, 0.692344, 0.693558, 0.618467, 0.493011, 0.572767, 0.573972, 0.304773, 0.306498, 0.307555, 0.370282, 0.381421, 0.356534, 0.370644
2.01764, 2.06892, 1.99344, 1.68961, 1.66224, 1.62245, 1.6442, 1.72612, 1.77547, 1.82802, 1.84743, 1.56124, 1.53444, 1.52693, 1.52706, 1.56554, 1.62741, 1.69283, 1.73175, 1.55421, 1.52996, 1.50527, 1.57823, 1.55091, 1.56382, 1.57989, 1.6384, 1.67727, 1.46854, 1.46867, 1.43075, 1.45083, 1.42805, 1.42673, 1.48963, 1.49703, 1.5913, 1.52159, 1.40329, 1.35848, 1.35788, 1.4428, 1.38867, 1.54849, 1.47869, 1.70434, 1.34677, 1.30295, 1.3118, 1.29289, 1.3074, 1.34521, 1.54631, 1.49978, 1.57466, 1.52642, 1.49215, 1.58644, 1.52515, 1.56452, 1.56815, 1.61953, 1.96838, 1.93064, 1.96192, 1.67221, 1.64458, 1.70987, 1.70675, 1.74189, 1.80367, 1.80631, 2.10612, 2.10318, 2.15285, 2.12441, 0.00444584, 1.88147, 1.83785, 1.81852, 1.79616, 1.81123, 1.81347, 1.83833, 1.87283, 2.09721, 2.09707, 2.08444, 2.16952, 2.21784, 0.00463523, 2.23796, 2.26416, 0.00465877, 2.10754, 2.41088, 0.00403027, 1.67653, 1.67199, 1.74932, 0.00449796, 1.87942, 2.05173, 2.05062, 1.78295, 1.79604, 1.57249, 1.54375, 1.32708, 1.27068, 1.26428, 1.35146, 1.33356, 1.35423, 1.34702, 1.35688, 1.35014, 0.702567, 0.687592, 0.612761, 0.699165, 0.689376, 0.898326, 0.89807, 0.954906, 0.676191, 0.69426, 0.590964, 0.762442, 0.670326, 0.668402, 0.676427, 0.669528, 0.98162, 0.979607, 0.697467, 0.640166, 0.638577, 0.722, 0.850425, 0.846325, 0.8504, 0.959709, 0.964102, 0.701323, 0.702681, 0.78313, 0.84727, 0.889094, 0.885384, 0.88382, 0.929948, 0.760339, 0.697361, 0.717897, 0.663813, 0.816635, 0.952546, 0.952819, 0.732564, 1.02627, 0.759888, 0.725541, 0.725822, 0.722937, 0.818813, 0.854138, 0.956644, 0.957517, 0.708174, 0.698098, 0.691818, 0.834344, 0.919755, 0.918939, 0.966466, 1.0376, 1.04058, 0.844546, 0.846819, 0.829224, 0.835057, 0.870082, 1.00876, 0.982003, 0.995398, 1.04336, 1.00198, 0.95198, 0.998934, 1.07365, 1.05234, 1.12766, 1.09794, 1.17834, 1.16974, 1.03103, 1.07537, 0.992511, 1.21612, 1.19374, 1.22849, 0.845308, 0.892669, 0.863966, 0.942915, 1.00694, 1.01708, 1.01846, 1.00854, 0.998336, 0.974507, 0.73159, 0.673865, 0.715742, 0.781143, 0.788255, 1.01012, 0.988351, 1.00472, 0.552468, 0.552808, 0.527556, 0.528108, 0.52844, 0.680726, 0.842709, 0.804143, 0.806361, 0.634837, 0.587943, 0.704814, 0.754891, 0.795111, 0.813511, 0.792639, 0.645535, 0.645556, 0.480758, 0.462027, 0.456198, 0.456605, 0.69919, 0.535059, 0.402029, 0.402024, 0.586791, 0.407583, 0.470417, 0.494829, 0.672548, 0.738872, 0.845733, 0.846307, 0.812629, 0.822708, 0.632303, 0.632727, 0.722557, 0.712253, 1.03404, 0.862744, 0.891078, 0.890571, 0.575094, 0.54495, 0.586516, 0.577724, 0.560001, 0.75434, 0.755986, 0.624994, 0.516384, 0.430485, 0.431825, 0.43476, 0.434997, 0.505213, 0.505292, 0.448607, 0.448892, 0.496697, 0.563532, 0.570003, 0.566374, 0.576219, 0.656606, 0.609064, 0.584352, 0.585962, 0.495867, 0.575809, 0.57633, 0.477174, 0.308112, 0.309933, 0.427522, 0.350498, 0.372014, 0.371183
2.03504, 2.1293, 1.82008, 1.74126, 1.68015, 1.60729, 1.64531, 1.71981, 1.80094, 1.85477, 1.86734, 1.54138, 1.5152, 1.54036, 1.53329, 1.56221, 1.54754, 1.65516, 1.63234, 1.59956, 1.53983, 1.52004, 1.45849, 1.58319, 1.58541, 1.53694, 1.58855, 1.64014, 1.52971, 1.45492, 1.4111, 1.52725, 1.49232, 1.49185, 1.55172, 1.49128, 1.72907, 1.58079, 1.37798, 1.35798, 1.5431, 1.5425, 1.43498, 1.44657, 1.54148, 1.75745, 1.34487, 1.34279, 1.38169, 1.38446, 1.4903, 1.3339, 1.55884, 1.66147, 1.58898, 1.57887, 1.56923, 1.58324, 1.53328, 1.55249, 1.56831, 1.59257, 1.83433, 1.98676, 2.02954, 2.08625, 1.73879, 1.74541, 1.74158, 1.74324, 1.86939, 1.92293, 2.06954, 2.11431, 2.1122, 2.14091, 2.08345, 0.00430897, 1.90589, 1.86022, 1.84577, 1.84504, 1.84258, 1.86684, 1.89568, 2.09027, 2.06515, 2.05829, 2.14185, 2.22602, 2.14493, 2.31281, 2.12975, 2.28878, 2.13819, 0.00478916, 2.30849, 1.62089, 1.61025, 1.65887, 1.71458, 1.74585, 1.78316, 1.80354, 1.71523, 1.69987, 1.58187, 1.62827, 1.34873, 1.28251, 1.25273, 1.25235, 1.30989, 1.39584, 1.39653, 1.27043, 1.34009, 0.702939, 0.609458, 0.606872, 0.701432, 0.693595, 0.692155, 0.69171, 0.690479, 0.660229, 0.60146, 0.628804, 0.684037, 0.760929, 0.774703, 0.829329, 1.05769, 1.05833, 1.0434, 0.78328, 0.78745, 0.639105, 0.697666, 0.877344, 0.836212, 0.942193, 1.02222, 0.745749, 0.797029, 0.723976, 0.713929, 0.800722, 0.842231, 0.975179, 0.963273, 0.960978, 0.728743, 0.662216, 0.661974, 0.650907, 0.824918, 0.825101, 0.973646, 1.00681, 1.05808, 0.70515, 0.70393, 0.786758, 0.82417, 0.839434, 0.838607, 0.976891, 0.757089, 0.75993, 0.674793, 0.675258, 0.684299, 0.862875, 0.905794, 1.04269, 1.01213, 1.07528, 1.02073, 0.800404, 0.840059, 0.815838, 0.849962, 0.976285, 1.01221, 1.0641, 1.04568, 1.0054, 0.995713, 1.00533, 1.07712, 1.06795, 1.15063, 1.16741, 1.1407, 1.17043, 1.04609, 0.964672, 0.997818, 0.987683, 0.990103, 1.22403, 0.829266, 0.82328, 0.904726, 0.937226, 0.988605, 1.01712, 1.01862, 1.20578, 0.730622, 0.670977, 0.656702, 0.649947, 0.57308, 0.574208, 0.572336, 0.947865, 0.995016, 0.963343, 0.647231, 0.575612, 0.531294, 0.59978, 0.645503, 0.749061, 0.825753, 0.775788, 0.572594, 0.573075, 0.591414, 0.720769, 0.741903, 0.776981, 0.783981, 0.784383, 0.770428, 0.708933, 0.541743, 0.462006, 0.461755, 0.459231, 0.459932, 0.591538, 0.40543, 0.419275, 0.423406, 0.435649, 0.434296, 0.590814, 0.512361, 0.748912, 0.824867, 0.848561, 0.880782, 0.881427, 0.619144, 0.640041, 0.74444, 0.745636, 0.678304, 0.864672, 0.861137, 0.910021, 0.586654, 0.56077, 0.555578, 0.610706, 0.612189, 0.730416, 0.738123, 0.626582, 0.524926, 0.52286, 0.438806, 0.438166, 0.436701, 0.743226, 0.746022, 0.543145, 0.428887, 0.430995, 0.601049, 0.555834, 0.560003, 0.58077, 0.609122, 0.580902, 0.465985, 0.446773, 0.448962, 0.425349, 0.437453, 0.446264, 0.427562, 0.411008, 0.383368, 0.423977, 0.368339, 0.370258
1.93268, 1.93413, 1.93176, 1.66939, 1.61837, 1.63706, 1.67122, 1.7169, 1.85578, 1.8551, 1.97633, 1.54153, 1.53552, 1.47938, 1.58782, 1.58615, 1.63368, 1.65944, 1.66435, 1.75714, 1.47821, 1.45164, 1.4719, 1.51181, 1.55021, 1.55049, 1.54986, 1.54331, 1.56901, 1.62862, 1.40598, 1.40303, 1.4005, 1.43615, 1.458, 1.56979, 1.74074, 1.58178, 1.41695, 1.35444, 1.39062, 1.48611, 1.50709, 1.56109, 1.59959, 1.77293, 1.65519, 1.40576, 1.33129, 1.37116, 1.31103, 1.39902, 1.40175, 1.60254, 1.66282, 1.64819, 1.55446, 1.58953, 1.56754, 1.67439, 1.68677, 1.70316, 1.97912, 1.98848, 2.01224, 2.12588, 1.97395, 1.82681, 1.78249, 1.79398, 1.87531, 1.97327, 2.09201, 2.13069, 2.16853, 2.17339, 0.0048753, 0.00482328, 1.95418, 1.94109, 1.88984, 1.89252, 1.87575, 1.89425, 2.33505, 2.32153, 2.09225, 2.05568, 2.06461, 2.23551, 2.20019, 2.13437, 0.00455217, 2.1362, 2.13716, 0.00515854, 0.00409417, 1.56556, 1.52344, 1.6043, 1.60408, 1.68226, 1.71664, 1.68797, 1.67553, 1.65599, 1.73328, 1.37117, 1.39728, 1.27678, 1.22681, 1.28466, 1.48116, 1.28962, 1.29916, 1.26208, 1.23192, 0.684054, 0.643201, 0.613562, 0.657149, 0.656947, 0.832137, 0.885751, 0.691689, 0.669795, 0.613842, 0.646633, 0.743087, 0.744702, 0.754739, 0.977677, 0.978374, 1.06005, 1.08722, 0.721211, 0.712191, 0.801525, 0.726213, 0.699373, 1.03763, 1.00208, 1.00374, 0.748624, 0.772044, 0.695092, 0.73941, 0.790181, 0.840069, 0.959844, 0.921241, 0.955447, 0.744407, 0.652866, 0.657045, 0.654657, 0.745154, 0.952587, 0.93522, 0.991621, 0.778186, 0.744812, 0.704134, 0.703804, 0.80662, 0.836572, 1.00532, 1.00383, 1.0206, 0.670519, 0.668595, 0.690225, 0.850197, 0.852233, 0.890944, 0.94032, 1.06747, 1.05346, 1.09864, 0.863931, 0.869191, 0.846683, 0.849086, 1.00262, 1.09727, 1.09641, 1.04174, 1.02056, 1.01647, 1.06056, 1.0096, 1.26364, 1.33313, 1.07256, 1.18147, 1.19155, 0.994835, 1.09796, 1.11661, 1.36657, 1.2572, 1.27192, 0.824968, 0.821874, 0.904529, 0.951082, 0.956736, 1.05058, 1.09478, 1.15932, 0.703039, 0.701803, 0.623474, 0.557608, 0.574085, 0.53572, 0.536315, 0.917382, 0.925102, 0.955185, 0.573102, 0.569827, 0.570792, 0.556735, 0.535397, 0.697026, 0.855082, 0.854949, 0.58018, 0.580722, 0.653123, 0.655804, 0.754367, 0.821076, 0.815627, 0.815753, 0.72649, 0.646102, 0.500299, 0.461015, 0.448394, 0.449541, 0.449437, 0.573944, 0.566607, 0.490096, 0.452422, 0.454045, 0.431633, 0.539576, 0.512592, 0.764441, 0.820606, 0.848842, 0.85151, 0.880233, 0.635695, 0.603942, 0.75103, 0.733223, 0.654169, 0.655166, 0.688671, 0.784887, 0.678225, 0.59003, 0.531897, 0.583122, 0.5833, 0.605399, 0.742744, 0.739207, 0.731407, 0.440485, 0.442003, 0.440582, 0.561444, 0.48862, 0.489044, 0.504188, 0.532695, 0.432056, 0.428867, 0.545167, 0.563255, 0.566104, 0.501254, 0.501161, 0.4675, 0.448404, 0.448922, 0.518051, 0.438561, 0.366824, 0.373289, 0.373209, 0.368941, 0.397568, 0.362974, 0.364904
2.03212, 2.03522, 1.95945, 1.64911, 1.59661, 1.63873, 1.68486, 1.73728, 1.81508, 1.70245, 1.68628, 1.5322, 1.47106, 1.4724, 1.52934, 1.56264, 1.73463, 1.77697, 1.78594, 1.76977, 1.52335, 1.4459, 1.45373, 1.4899, 1.55263, 1.62119, 1.62737, 1.6494, 1.6099, 1.50911, 1.40511, 1.44652, 1.44176, 1.43986, 1.45068, 1.4595, 1.92747, 1.54665, 1.37087, 1.34566, 1.35779, 1.4205, 1.42037, 1.55577, 1.65288, 1.68277, 1.50011, 1.45772, 1.41953, 1.37243, 1.59943, 1.49219, 1.59034, 1.663, 1.68073, 1.68377, 1.62781, 1.61367, 1.70152, 1.68, 1.71456, 1.778, 2.13301, 2.12456, 2.17215, 2.0721, 1.96664, 1.79858, 1.76916, 1.73791, 1.81594, 1.84719, 1.92838, 2.19502, 2.17664, 2.16886, 2.1831, 2.07697, 2.19057, 1.96521, 2.02522, 2.01834, 2.10184, 1.93041, 1.93676, 1.92, 2.12188, 2.22858, 2.06309, 2.06345, 2.24613, 2.25857, 2.12835, 2.11853, 0.076062, 0.00579481, 1.55234, 1.47244, 1.46714, 1.55852, 1.55874, 1.6325, 1.66097, 1.66782, 1.65805, 1.58503, 1.60688, 1.39262, 1.25517, 1.22079, 1.24124, 1.2372, 1.23224, 1.27478, 1.29766, 1.23329, 1.23319, 0.666685, 0.590384, 0.702921, 0.700151, 0.656984, 0.673421, 0.672343, 0.987632, 0.660152, 0.601005, 0.60094, 0.631251, 0.670459, 0.746485, 0.871065, 0.836091, 0.829846, 0.925804, 0.747281, 0.721948, 0.771093, 0.750049, 0.731871, 0.671376, 0.949715, 0.959188, 0.959564, 0.647413, 0.647345, 0.759383, 0.768525, 0.803957, 0.926695, 1.01439, 0.979481, 0.724161, 0.655641, 0.654512, 0.708403, 0.748333, 0.842604, 0.953375, 0.961819, 0.757116, 0.731765, 0.738365, 0.765408, 0.823174, 0.866582, 0.935804, 1.01753, 0.674329, 0.67307, 0.671676, 0.688542, 0.784076, 0.852561, 0.925159, 1.07745, 1.06806, 1.04499, 1.03627, 0.924345, 0.901718, 0.820236, 0.81996, 1.02903, 1.05224, 1.12813, 1.06957, 1.08167, 0.988255, 1.05675, 1.03684, 1.30135, 1.42654, 1.05917, 1.01456, 0.991878, 1.12664, 1.1028, 1.15344, 1.15311, 1.34582, 1.23646, 0.864601, 0.84795, 0.884828, 0.887504, 0.807945, 0.809397, 0.802993, 0.801574, 0.755445, 0.556714, 0.558533, 0.553976, 0.573678, 0.644396, 0.689092, 0.912195, 0.910997, 0.870978, 0.556777, 0.557935, 0.59017, 0.522824, 0.541851, 0.694507, 0.697763, 0.963129, 0.633017, 0.574678, 0.598906, 0.684308, 0.744582, 0.805709, 0.806479, 0.789383, 0.784405, 0.727015, 0.493499, 0.501009, 0.424564, 0.424911, 0.485184, 0.600435, 0.601026, 0.488281, 0.421918, 0.421667, 0.467141, 0.71107, 0.714557, 0.742395, 0.801907, 0.803773, 0.829352, 0.588449, 0.589615, 0.648625, 0.760662, 0.837654, 0.836585, 0.808186, 0.810148, 0.859748, 0.576858, 0.572163, 0.4759, 0.548968, 0.582767, 0.738849, 0.740869, 0.741597, 0.751727, 0.444758, 0.443666, 0.442718, 0.562532, 0.487159, 0.488547, 0.526406, 0.511231, 0.478386, 0.483506, 0.608735, 0.58057, 0.574089, 0.563883, 0.557263, 0.563368, 0.584811, 0.533127, 0.476733, 0.365063, 0.366627, 0.532564, 0.367913, 0.36896, 0.667866, 0.364312, 0.365509
1.99715, 2.02506, 1.9766, 1.73573, 1.59938, 1.59998, 1.68593, 1.68707, 1.75352, 1.88165, 1.88417, 1.53855, 1.50397, 1.46145, 1.51355, 1.66615, 1.66638, 1.74234, 1.76953, 1.77597, 1.50903, 1.53315, 1.52877, 1.46389, 1.51116, 1.61614, 1.67308, 1.8336, 1.84824, 1.46595, 1.45522, 1.43298, 1.43584, 1.44414, 1.55041, 1.45848, 1.45886, 1.53907, 1.2827, 1.28113, 1.41617, 1.39236, 1.40869, 1.48626, 1.73401, 1.7481, 1.50927, 1.58412, 1.84478, 1.46799, 1.55479, 1.52106, 1.72722, 1.95897, 1.80322, 1.81449, 1.65442, 1.60536, 1.59721, 1.7277, 1.68562, 1.94122, 1.94188, 2.25761, 2.15218, 2.12949, 2.10029, 1.82742, 1.78623, 1.80419, 1.87277, 1.88206, 1.98219, 2.22153, 2.21568, 2.1738, 2.17011, 2.15886, 2.05102, 2.03515, 2.18617, 2.14242, 2.15197, 2.16744, 1.94097, 1.87328, 2.26301, 2.26307, 2.2985, 2.05535, 2.14885, 2.16956, 2.09785, 2.45648, 0.00472891, 0.00483733, 1.50289, 1.45797, 1.41898, 1.44678, 1.50605, 1.59956, 1.62724, 1.67766, 1.65259, 1.58606, 1.53252, 1.45194, 1.35525, 1.24734, 1.22566, 1.33121, 1.33013, 1.24624, 1.24613, 1.24631, 0.667826, 0.668985, 0.666594, 0.696769, 0.6949, 0.691715, 0.67336, 0.67131, 0.90336, 0.659846, 0.65915, 0.65763, 0.721902, 0.722153, 0.725458, 0.821949, 0.872306, 0.967438, 0.715186, 0.704872, 0.691232, 0.687225, 0.683288, 0.788986, 0.898543, 0.953767, 0.686712, 0.707421, 0.731647, 0.65096, 0.690014, 0.798469, 0.805276, 0.884806, 1.01618, 1.00903, 0.71961, 0.754929, 0.652347, 0.67837, 0.726473, 0.763632, 0.949819, 0.788523, 0.767414, 0.691927, 0.693713, 0.737645, 0.735849, 0.881613, 0.985132, 0.986723, 0.67548, 0.677158, 0.673815, 0.743101, 0.776731, 0.920224, 0.907778, 0.988932, 1.09435, 1.04736, 1.14777, 0.967855, 0.863459, 0.862565, 0.946859, 1.01009, 1.08727, 1.09397, 1.0577, 1.00781, 1.00784, 1.05554, 1.03625, 1.04958, 1.0668, 0.984394, 0.984839, 1.07329, 1.09175, 1.16181, 1.21804, 1.15463, 1.20302, 1.18836, 0.812463, 0.78386, 0.853265, 0.894253, 0.950278, 1.00943, 1.06803, 1.03786, 0.756558, 0.703712, 0.559333, 0.590064, 0.748864, 0.651493, 0.877376, 0.878533, 0.879658, 0.881186, 0.894042, 0.558549, 0.503295, 0.519028, 0.524934, 0.644772, 0.703388, 0.687837, 0.59026, 0.648691, 0.635563, 0.632068, 0.766825, 0.780768, 0.748506, 0.724366, 0.775652, 0.780613, 0.527613, 0.444486, 0.425572, 0.425941, 0.428326, 0.623958, 0.624745, 0.587137, 0.422586, 0.424119, 0.525557, 0.711412, 0.728354, 0.766184, 0.821123, 0.825617, 0.832853, 0.643804, 0.638422, 0.62923, 0.684988, 0.825311, 0.835608, 0.834736, 0.812706, 0.817713, 0.622123, 0.479013, 0.478033, 0.647457, 0.59121, 0.592317, 0.773368, 0.79439, 0.729862, 0.483813, 0.444224, 0.443348, 0.63524, 0.687377, 0.684361, 0.695151, 0.475628, 0.443923, 0.474042, 0.469131, 0.539806, 0.563072, 0.565219, 0.621377, 0.642464, 0.722639, 0.582821, 0.377335, 0.365881, 0.367376, 0.48273, 0.513751, 0.371633, 0.59321, 0.586871, 0.365696
2.01458, 2.01621, 1.82185, 1.67469, 1.66643, 1.61949, 1.62549, 1.67946, 1.81022, 1.85921, 1.88983, 1.55158, 1.49412, 1.45528, 1.548, 1.57459, 1.70067, 1.71118, 1.77524, 1.57007, 1.47081, 1.44722, 1.44538, 1.49683, 1.5098, 1.63322, 1.76609, 1.85502, 1.85543, 1.42034, 1.39333, 1.35232, 1.51957, 1.60603, 1.52303, 1.45914, 1.45905, 1.51488, 1.34853, 1.29054, 1.32829, 1.36829, 1.37084, 1.41155, 1.57133, 1.6281, 1.50343, 1.52134, 1.65718, 1.64791, 1.6099, 1.629, 1.60441, 1.81218, 1.98877, 1.86492, 1.72265, 1.72434, 1.6972, 1.68549, 1.69883, 1.93725, 2.07632, 2.16963, 2.18607, 2.20694, 0.00486506, 1.88729, 1.83845, 1.81333, 1.8416, 1.97319, 1.98756, 0.00453003, 0.00482485, 2.19429, 0.00503454, 2.22442, 2.27604, 2.13456, 2.1846, 2.13643, 2.18029, 2.1897, 2.30198, 1.87528, 1.90495, 2.128, 2.15444, 2.05622, 1.9704, 1.96114, 2.11142, 2.13083, 0.417699, 2.11308, 1.8731, 1.44351, 1.38139, 1.38743, 1.42661, 1.41928, 1.5789, 1.64076, 1.60091, 1.56799, 1.54211, 1.43729, 1.36105, 1.36007, 1.24363, 1.32861, 1.32208, 1.32616, 1.24507, 1.48227, 1.11017, 0.632932, 0.574003, 0.608307, 0.722094, 0.73572, 0.938278, 0.906094, 0.661016, 0.659955, 0.645825, 0.705075, 0.72807, 0.673818, 0.763097, 0.80425, 0.889941, 0.963372, 0.963346, 0.683875, 0.673738, 0.682006, 0.783998, 0.784293, 0.877877, 0.961829, 0.757825, 0.63832, 0.7121, 0.736832, 0.795632, 0.756649, 0.849133, 0.991713, 0.99448, 1.01018, 0.723503, 0.668664, 0.669386, 0.732425, 0.701951, 0.768818, 0.791505, 0.768721, 0.798835, 0.798146, 0.834986, 0.787652, 0.819019, 0.805628, 0.974548, 0.974301, 0.67767, 0.671438, 0.67423, 0.701085, 0.780792, 0.884427, 0.95367, 0.973865, 1.063, 1.06965, 1.08949, 1.06723, 0.940428, 0.957141, 0.959855, 0.995649, 1.05346, 1.03992, 1.00041, 0.911946, 1.01438, 1.0294, 1.019, 1.03701, 1.02494, 0.988858, 0.989096, 1.11995, 1.10283, 1.06813, 1.14407, 1.1785, 1.13248, 1.17962, 0.787182, 0.788007, 0.843482, 0.856214, 0.856652, 1.00866, 0.974105, 1.0522, 0.653058, 0.633816, 0.594314, 0.628485, 0.629129, 0.694924, 0.695605, 0.873286, 0.911085, 0.830407, 0.83734, 0.609381, 0.50567, 0.50339, 0.504002, 0.645524, 0.647696, 0.648341, 0.566249, 0.567137, 0.628829, 0.589798, 0.798166, 0.799715, 0.807821, 0.780523, 0.702074, 0.732042, 0.533811, 0.527848, 0.434521, 0.431769, 0.431886, 0.442609, 0.591324, 0.621451, 0.611956, 0.430956, 0.483192, 0.625733, 0.734967, 0.760076, 0.797002, 0.833935, 0.83437, 0.679799, 0.700102, 0.701151, 0.731588, 0.757146, 0.914888, 0.905507, 0.887162, 0.814663, 0.525318, 0.547987, 0.534235, 0.647345, 0.590549, 0.727613, 0.728215, 0.787418, 0.62695, 0.517532, 0.594322, 0.446593, 0.586323, 0.548285, 0.605072, 0.756649, 0.467047, 0.445399, 0.47656, 0.471671, 0.556809, 0.556441, 0.682872, 0.677, 0.660066, 0.614045, 0.322879, 0.323894, 0.476068, 0.462435, 0.465191, 0.537419, 0.587147, 0.519025, 0.520404, 0.365843
2.04547, 2.01246, 1.9715, 1.70299, 1.61371, 1.631, 1.62328, 1.65696, 1.74838, 1.78043, 1.94767, 1.5689, 1.53761, 1.45597, 1.5266, 1.50635, 1.53315, 1.61782, 1.58, 1.60507, 1.55391, 1.45468, 1.45517, 1.51684, 1.57606, 1.59265, 1.73495, 1.80184, 1.86563, 1.48245, 1.41484, 1.37935, 1.35616, 1.61087, 1.50187, 1.45933, 1.4591, 1.48113, 1.41482, 1.33562, 1.33132, 1.42225, 1.40178, 1.48599, 1.68204, 1.65777, 1.52268, 1.51899, 1.54188, 1.63398, 1.72206, 1.65839, 1.75053, 1.9934, 1.82958, 1.84055, 1.78887, 1.72628, 1.72539, 1.77199, 1.79434, 1.92681, 2.1107, 2.16701, 2.20866, 2.25395, 2.2147, 1.9517, 1.90761, 1.93058, 1.90498, 2.04572, 2.03888, 2.48612, 0.0824965, 0.00424048, 2.31814, 2.18247, 2.21125, 2.13466, 2.29297, 2.13173, 2.19955, 2.17435, 2.33282, 2.39863, 1.91798, 1.87584, 1.87438, 1.79304, 1.78516, 1.83344, 1.89673, 1.94476, 1.92774, 1.85257, 1.56722, 1.41647, 1.39265, 1.34729, 1.37883, 1.40882, 1.50552, 1.69202, 1.54192, 1.48513, 1.47676, 1.42024, 1.38869, 1.34057, 1.24738, 1.24638, 1.25688, 1.25666, 1.24015, 1.23027, 0.676953, 0.588609, 0.578066, 0.577644, 0.666575, 0.658887, 0.848154, 0.908319, 0.968935, 0.667264, 0.684352, 0.622248, 0.682547, 0.683047, 0.799253, 0.786942, 0.947132, 0.983371, 0.981194, 0.698004, 0.697939, 0.777278, 0.843351, 0.87292, 0.916353, 0.964324, 0.973861, 0.646318, 0.646596, 0.748862, 0.76332, 0.76216, 0.91481, 0.932053, 0.944219, 0.91827, 0.807405, 0.722211, 0.743232, 0.715841, 0.736028, 0.749696, 1.01755, 0.995861, 0.994192, 0.824749, 0.760169, 0.762093, 0.767927, 0.85894, 0.887559, 1.00068, 0.973943, 0.809878, 0.674364, 0.731989, 0.776028, 0.891636, 0.892266, 1.03931, 1.03646, 1.03241, 1.0339, 1.05187, 0.984038, 0.981071, 0.995116, 1.00721, 1.02933, 1.04379, 0.989124, 0.913612, 1.09564, 1.09185, 1.32435, 1.38202, 1.00517, 1.00814, 1.13942, 1.03678, 1.10274, 1.16744, 1.10939, 1.1651, 1.09039, 1.0797, 0.838282, 0.789794, 0.789604, 0.82874, 0.874961, 1.06835, 1.00271, 1.04895, 0.687276, 0.638484, 0.565593, 0.580682, 0.62894, 0.671754, 0.742479, 0.918701, 0.877271, 0.833395, 0.831815, 0.557045, 0.506163, 0.506417, 0.503878, 0.547879, 0.661592, 0.739804, 0.652804, 0.650814, 0.55276, 0.654399, 0.687153, 0.749819, 0.781165, 0.780469, 0.690981, 0.722686, 0.51439, 0.482566, 0.460027, 0.43411, 0.43408, 0.458652, 0.446724, 0.6051, 0.425487, 0.426574, 0.520757, 0.556669, 0.741784, 0.765006, 0.775025, 1.20775, 0.614162, 0.715007, 0.66943, 0.742731, 0.723657, 0.808326, 0.839568, 0.842499, 0.834998, 0.832578, 0.773405, 0.581339, 0.517877, 0.563928, 0.640491, 0.509048, 0.510361, 0.509639, 0.545924, 0.443453, 0.443992, 0.595374, 0.603661, 0.605241, 0.690092, 0.661555, 0.366201, 0.368239, 0.368811, 0.440306, 0.511471, 0.431226, 0.433021, 0.669879, 0.766491, 0.76613, 0.410654, 0.325921, 0.329026, 0.41415, 0.553739, 0.578597, 0.369347, 0.370196, 0.318588, 0.320707
2.11714, 2.06201, 2.07397, 1.71812, 1.65754, 1.68799, 1.61934, 1.62839, 1.63084, 1.70706, 1.7002, 1.77212, 1.59963, 1.50857, 1.5021, 1.52333, 1.53961, 1.56863, 1.60947, 1.74422, 1.48235, 1.45957, 1.47441, 1.49675, 1.47634, 1.59793, 1.59859, 1.73666, 1.73197, 1.4609, 1.46207, 1.43401, 1.36956, 1.44622, 1.44719, 1.45819, 1.45814, 1.80737, 1.55061, 1.55156, 1.3406, 1.39676, 1.39442, 1.53493, 1.76349, 1.57089, 1.5663, 1.4943, 1.49618, 1.66515, 1.65691, 1.67456, 1.74467, 1.82841, 1.88993, 1.99647, 1.75777, 1.74871, 1.73542, 1.83722, 1.88052, 1.9285, 2.15647, 2.25324, 2.28042, 2.30223, 2.28223, 2.1867, 1.98269, 1.97565, 2.06943, 2.06209, 2.10825, 0.00503004, 0.00611605, 2.21847, 2.31556, 0.00634451, 2.17412, 2.11421, 2.29974, 2.18695, 2.15529, 2.47025, 2.15266, 2.15349, 1.94531, 1.92942, 1.80995, 1.73459, 1.72421, 1.75479, 1.78126, 1.8569, 1.85148, 1.60544, 1.80539, 1.80467, 1.37608, 1.36217, 1.3507, 1.54992, 1.44841, 1.51851, 1.55942, 1.49238, 1.47781, 1.43356, 1.33809, 1.25, 1.33412, 1.31468, 1.3329, 1.29649, 1.241, 1.08213, 0.638441, 0.586552, 0.578375, 0.582453, 0.660771, 0.659916, 0.668544, 0.669191, 0.948611, 0.633615, 0.671185, 0.59753, 0.5963, 0.74421, 0.746133, 0.758807, 0.984325, 0.984172, 0.794305, 0.732618, 0.697296, 0.709328, 0.890545, 0.937253, 0.906377, 0.972107, 0.988536, 0.72628, 0.70495, 0.708348, 0.762602, 0.798405, 0.831434, 0.911677, 0.919127, 0.919468, 0.909935, 0.696974, 0.709402, 0.709249, 0.780406, 0.906875, 0.975179, 1.02359, 1.02914, 0.851012, 0.737048, 0.736409, 0.853518, 0.849397, 0.965986, 0.964224, 0.982735, 0.983553, 0.800638, 0.742402, 0.808764, 0.856716, 0.939873, 0.962727, 0.995328, 1.03556, 1.03059, 1.01566, 1.00508, 0.965188, 0.970404, 1.03812, 1.0112, 1.04844, 1.02588, 1.06591, 1.06633, 1.28043, 1.2854, 1.28529, 0.952942, 0.912139, 0.962808, 0.97048, 1.06399, 1.14557, 1.16304, 1.08134, 1.09545, 1.15629, 0.835271, 0.784667, 0.863729, 0.918075, 0.904482, 1.01144, 1.0126, 0.988378, 0.997865, 0.571378, 0.572027, 0.572875, 0.61713, 0.766852, 0.783664, 0.826927, 0.804098, 0.836656, 0.849465, 0.539207, 0.503088, 0.503068, 0.500846, 0.615837, 0.621176, 0.707354, 0.707103, 0.576337, 0.557807, 0.559493, 0.715491, 0.77174, 0.743299, 0.721582, 0.706806, 0.531772, 0.533306, 0.503925, 0.489132, 0.459366, 0.428586, 0.428259, 0.375308, 0.376738, 0.377581, 0.525539, 0.448984, 0.711743, 0.708976, 0.767472, 0.802239, 0.769026, 0.765013, 0.555867, 0.558953, 0.5226, 0.524313, 0.77951, 0.815279, 0.842419, 0.835775, 0.838149, 0.56437, 0.523981, 0.557143, 0.559168, 0.682496, 0.684701, 0.713363, 0.713059, 0.440877, 0.442885, 0.443442, 0.441521, 0.60153, 0.681542, 0.666534, 0.721838, 0.41963, 0.367471, 0.367736, 0.445741, 0.535716, 0.537578, 0.590551, 0.70079, 0.701263, 0.773545, 0.402484, 0.40383, 0.330765, 0.329141, 0.328938, 0.596827, 0.355164, 0.355963, 0.319817, 0.320455
2.0356, 2.06634, 2.00362, 1.8826, 1.67699, 1.7032, 1.67833, 1.67908, 1.64149, 1.67562, 1.6522, 1.68506, 1.57944, 1.51703, 1.58513, 1.54316, 1.58539, 1.64214, 1.74451, 1.73573, 1.5499, 1.47351, 1.48001, 1.55712, 1.5625, 1.60928, 1.46582, 1.68961, 1.72777, 1.63304, 1.47709, 1.37194, 1.38974, 1.39963, 1.52445, 1.45726, 1.45733, 1.59661, 1.46562, 1.46211, 1.36657, 1.43358, 1.43267, 1.46586, 1.76932, 1.56566, 1.54691, 1.50437, 1.71174, 1.73529, 1.60426, 1.69936, 1.78246, 1.90739, 1.9365, 1.96579, 1.80225, 1.77623, 1.77492, 1.80671, 1.95585, 1.93453, 2.10078, 2.42712, 2.26267, 2.25999, 2.26971, 2.25312, 2.25383, 2.05509, 2.01557, 2.10382, 2.10496, 2.20197, 0.0046957, 2.43265, 2.36994, 2.26405, 2.16276, 2.32233, 2.28461, 2.11719, 2.11802, 2.2519, 2.2453, 2.5014, 1.94384, 1.94467, 0.0049215, 1.67552, 1.65479, 1.65359, 1.68253, 1.62523, 1.8227, 1.81766, 1.81678, 1.74718, 1.38901, 1.36006, 1.35507, 1.40008, 1.45085, 1.53695, 1.51523, 1.61449, 1.46141, 1.40233, 1.2885, 1.23362, 1.23203, 1.25181, 1.18163, 1.1689, 1.14138, 1.16763, 1.01198, 0.659289, 0.584117, 0.58348, 0.582837, 0.767065, 0.812351, 0.848998, 0.955374, 0.677791, 0.621403, 0.607448, 0.606211, 0.689819, 0.75334, 0.91426, 0.956552, 1.02482, 0.769745, 0.637728, 0.694394, 0.788749, 0.843469, 0.895215, 0.908017, 0.916742, 0.963097, 0.676434, 0.676504, 0.723593, 0.738568, 0.801539, 0.84505, 0.834274, 1.00827, 0.879095, 0.700603, 0.700344, 0.741316, 0.827471, 0.773413, 0.899077, 0.962371, 0.996553, 1.00323, 1.03077, 0.779647, 0.7457, 0.757177, 0.728578, 0.9665, 0.960661, 0.997668, 1.07499, 0.793782, 0.764084, 0.829356, 0.797708, 0.9306, 0.953035, 1.02312, 1.00896, 0.998647, 1.00886, 0.980518, 1.08144, 1.22199, 1.02853, 0.989976, 0.978793, 0.988427, 1.24476, 1.30209, 1.29635, 1.25409, 1.25085, 0.864786, 0.857073, 0.857152, 0.877185, 1.18148, 1.15392, 1.12317, 1.17899, 1.22312, 1.10168, 0.863781, 0.78699, 0.877516, 0.891862, 0.911167, 0.984284, 1.03334, 1.00134, 0.935552, 0.659519, 0.588965, 0.59686, 0.643965, 0.649535, 0.784766, 0.840257, 0.842904, 0.871977, 0.849489, 0.632312, 0.566206, 0.575819, 0.557284, 0.617627, 0.673367, 0.68443, 0.628302, 0.622393, 0.519526, 0.567705, 0.647895, 0.708277, 0.75337, 0.739961, 0.722584, 0.460101, 0.461538, 0.461766, 0.393101, 0.391224, 0.434552, 0.391205, 0.376586, 0.504031, 0.379775, 0.408856, 0.576859, 0.703831, 0.70519, 0.778481, 0.787282, 0.756385, 0.590198, 0.613391, 0.545115, 0.698905, 0.675999, 0.766493, 0.807231, 0.806531, 0.885076, 0.775998, 0.64652, 0.583931, 0.58709, 0.560371, 0.561347, 0.625832, 0.714846, 0.715874, 0.538954, 0.443626, 0.430532, 0.430115, 0.645972, 0.64677, 0.673039, 0.710928, 0.447712, 0.446182, 0.407549, 0.425562, 0.549415, 0.54141, 0.590034, 0.724861, 0.727578, 0.693659, 0.40911, 0.347374, 0.348548, 0.330523, 0.330589, 0.358206, 0.359118, 0.317466, 0.320192, 0.321034
2.00723, 2.01529, 1.96739, 1.93823, 1.79275, 1.65364, 1.65521, 1.63402, 1.62281, 1.64241, 1.67081, 1.67755, 1.61962, 1.50138, 1.51046, 1.51786, 1.56182, 1.7169, 1.72391, 1.72372, 1.72453, 1.55383, 1.47461, 1.51635, 1.53748, 1.63618, 1.6579, 1.69944, 1.45468, 1.4655, 1.44679, 1.38886, 1.41119, 1.44725, 1.53317, 1.45819, 1.45769, 1.48821, 1.48277, 1.42991, 1.41063, 1.38599, 1.62192, 1.62616, 1.82813, 1.60673, 1.56112, 1.52302, 1.52421, 1.70138, 1.68025, 1.75489, 1.81612, 1.89165, 1.94439, 1.85563, 1.86654, 1.98999, 1.86083, 1.8153, 1.93304, 2.03939, 2.04188, 2.05334, 2.09654, 2.09069, 2.06909, 2.08753, 2.19723, 2.20347, 2.19312, 2.10724, 2.1128, 2.26332, 2.25246, 2.28585, 2.32826, 2.24628, 2.29177, 2.2664, 2.18481, 2.17288, 2.19533, 2.17988, 0.0045044, 0.00380039, 0.00446918, 1.9544, 1.95396, 1.61695, 1.59727, 1.61386, 1.63739, 1.73569, 1.86801, 2.0129, 1.67974, 1.63374, 1.36761, 1.29449, 1.3641, 1.33651, 1.37404, 1.51377, 1.55108, 1.47171, 1.43053, 1.39623, 1.26418, 1.31524, 1.06901, 1.08336, 1.08103, 1.08103, 1.08417, 1.06648, 1.04717, 0.702503, 0.585175, 0.589248, 0.584567, 0.649296, 0.76055, 0.881799, 0.714905, 0.707124, 0.60674, 0.603641, 0.602029, 0.690238, 0.72457, 0.911434, 0.911265, 0.950096, 0.632537, 0.646791, 0.645844, 0.756109, 0.755289, 0.822262, 0.922671, 0.987986, 0.965248, 0.680272, 0.680064, 0.776346, 0.844078, 0.853067, 0.954386, 0.954844, 0.98406, 0.984647, 0.704818, 0.704992, 0.749227, 0.902065, 0.909091, 0.827564, 0.881219, 1.02666, 1.05617, 0.868397, 0.758651, 0.758767, 0.807953, 0.808314, 0.888287, 0.94717, 1.04166, 1.00224, 0.819316, 0.736761, 0.783322, 0.875874, 0.942084, 0.981149, 1.0387, 1.03121, 1.03659, 1.04252, 1.04277, 1.07855, 1.02724, 0.995335, 0.988059, 0.987762, 1.12663, 1.18131, 1.26167, 1.3121, 1.32576, 0.912425, 0.799021, 0.800286, 0.920726, 0.861085, 0.860426, 1.08411, 1.13911, 1.09758, 1.09994, 1.13998, 0.822054, 0.826266, 0.807472, 0.808094, 0.915084, 0.935329, 1.04281, 0.947108, 0.939861, 0.639201, 0.62222, 0.5805, 0.614269, 0.731979, 0.79704, 0.798777, 0.820578, 0.83471, 0.584465, 0.586171, 0.625331, 0.570895, 0.714972, 0.666661, 0.666258, 0.673512, 0.61935, 0.617315, 0.548922, 0.549669, 0.787507, 0.853608, 0.776903, 0.777475, 0.763693, 0.51803, 0.524737, 0.45551, 0.398707, 0.42647, 0.425718, 0.428894, 0.41785, 0.53626, 0.393061, 0.394238, 0.576708, 0.480479, 0.743547, 0.800878, 0.744745, 0.600876, 0.593903, 0.608358, 0.607183, 0.655222, 0.728266, 0.749339, 0.797626, 0.798705, 0.834979, 0.857607, 0.563289, 0.506928, 0.506812, 0.580065, 0.581474, 0.737487, 0.739117, 0.763195, 0.48368, 0.436244, 0.436793, 0.43689, 0.497137, 0.600343, 0.652034, 0.704598, 0.705856, 0.376293, 0.377562, 0.379443, 0.521135, 0.545513, 0.562589, 0.725605, 0.667711, 0.550807, 0.350556, 0.352257, 0.353335, 0.487846, 0.489847, 0.491507, 0.360397, 0.532069, 0.32055, 0.321762
2.01225, 2.01511, 2.00779, 1.96908, 1.73808, 1.71663, 1.64829, 1.66059, 1.66568, 1.62724, 1.63543, 1.51077, 1.49134, 1.46228, 1.50153, 1.51173, 1.57125, 1.60512, 1.72891, 1.71668, 1.77259, 1.49743, 1.48031, 1.53605, 1.55444, 1.6172, 1.90445, 1.90348, 1.74736, 1.67429, 1.43198, 1.385, 1.38559, 1.42061, 1.44792, 1.49552, 1.46011, 1.50951, 1.44522, 1.42561, 1.40627, 1.42359, 1.65486, 1.70303, 1.93891, 1.62088, 1.6155, 1.56032, 1.59229, 1.63816, 1.7249, 1.77837, 1.80686, 1.93339, 1.96482, 1.89737, 1.90587, 1.85092, 1.86506, 1.95874, 1.95647, 2.08774, 2.19689, 2.30316, 2.36562, 2.35437, 2.35882, 2.33442, 2.29878, 2.25321, 2.31376, 2.17268, 2.24206, 2.24911, 2.24468, 2.30204, 0.00468827, 2.3363, 2.34092, 2.16491, 2.15942, 2.2257, 2.19655, 2.21314, 0.00454003, 2.38902, 0.00449902, 0.00487738, 1.67917, 1.62348, 1.59813, 1.57556, 1.66819, 1.6996, 1.78544, 1.69647, 1.69265, 1.61103, 1.3574, 1.35975, 1.31934, 1.43741, 1.43765, 1.46419, 1.49178, 1.49702, 1.38182, 1.36163, 1.27184, 1.0759, 1.01534, 1.04217, 1.04186, 1.05738, 1.04948, 1.05658, 1.04443, 0.693901, 0.66405, 0.604643, 0.60704, 0.639778, 0.749318, 0.944121, 0.848255, 0.633087, 0.60392, 0.621912, 0.667791, 0.713007, 0.721815, 0.723094, 0.946006, 0.936723, 0.721867, 0.629091, 0.656865, 0.774219, 0.754465, 0.880295, 0.928779, 0.924015, 0.961777, 0.759936, 0.781262, 0.784103, 0.822547, 0.812861, 0.881681, 0.921836, 0.992185, 0.993003, 0.706898, 0.707202, 0.731882, 0.8289, 0.917316, 0.988399, 0.97447, 1.00313, 1.00281, 0.856981, 0.849306, 0.762937, 0.808431, 0.885536, 0.885719, 1.01383, 1.01614, 1.0135, 0.819575, 0.748153, 0.863673, 0.897931, 0.939354, 0.999492, 1.0989, 1.04728, 1.06721, 1.0258, 1.05589, 1.01396, 1.03798, 1.00579, 1.01468, 1.06829, 1.15394, 0.920919, 0.924838, 0.925676, 0.879843, 0.884539, 0.874757, 0.801081, 0.837738, 0.867641, 0.863247, 0.859262, 0.83824, 0.837761, 0.817919, 0.809535, 0.797595, 0.749066, 0.797453, 0.902836, 0.902363, 0.90141, 0.956188, 0.974001, 0.984026, 0.678985, 0.607555, 0.60909, 0.622062, 0.694608, 0.775999, 0.825295, 0.824772, 0.836219, 0.818884, 0.585265, 0.62793, 0.74918, 0.80741, 0.623289, 0.556664, 0.55678, 0.607102, 0.595516, 0.559476, 0.559315, 0.813498, 0.814322, 0.939387, 0.845961, 0.717598, 0.496961, 0.638198, 0.442384, 0.458727, 0.459908, 0.396981, 0.396961, 0.427553, 0.44295, 0.394394, 0.396378, 0.396116, 0.526123, 0.618001, 0.721203, 0.72217, 0.563767, 0.523809, 0.639525, 0.656366, 0.618693, 0.787371, 0.789479, 0.790665, 0.903438, 0.902576, 0.903572, 0.539157, 0.507595, 0.590016, 0.612935, 0.61222, 0.742334, 0.756476, 0.760644, 0.756762, 0.435634, 0.437873, 0.439001, 0.619574, 0.620876, 0.681451, 0.686423, 0.715043, 0.37931, 0.380418, 0.442397, 0.48108, 0.494748, 0.494819, 0.597544, 0.640616, 0.553778, 0.352346, 0.350591, 0.3546, 0.517402, 0.504828, 0.492063, 0.542058, 0.544811, 0.586394, 0.329198
2.08128, 2.01396, 1.99668, 1.72337, 1.70573, 1.66065, 1.72714, 1.70692, 1.7217, 1.65162, 1.59037, 1.53401, 1.51138, 1.46773, 1.51964, 1.49152, 1.57817, 1.70623, 1.68013, 1.78049, 1.53089, 1.46757, 1.54814, 1.56641, 1.56824, 1.70987, 1.95292, 1.79693, 1.77688, 1.593, 1.43336, 1.4337, 1.39143, 1.413, 1.58963, 1.46841, 1.50226, 1.51998, 1.44793, 1.64989, 1.6477, 1.56842, 1.65121, 1.67418, 1.96897, 1.93041, 1.55791, 1.55873, 1.67924, 1.75839, 1.82397, 1.75556, 1.79599, 2.02531, 2.11794, 1.90695, 1.90231, 1.96237, 1.90968, 1.92862, 2.06408, 2.17892, 0.00598403, 0.00465163, 2.33335, 2.35911, 2.40739, 2.3496, 2.30804, 2.32258, 2.30357, 2.30344, 2.28758, 2.29463, 2.33509, 2.21353, 2.2141, 2.17473, 2.34788, 2.19511, 2.17808, 2.09777, 2.24175, 2.23233, 0.00473965, 0.00436751, 0.00538815, 0.00548595, 1.61675, 1.56503, 1.56635, 1.58892, 1.58589, 1.58841, 1.57586, 1.56861, 1.56427, 1.56441, 1.36269, 1.30907, 1.32562, 1.32356, 1.36122, 1.38247, 1.44023, 1.43277, 1.36537, 1.36456, 1.04652, 1.04966, 1.03049, 1.016, 1.31981, 1.25409, 1.06373, 1.18694, 1.12822, 0.661112, 0.661047, 0.613563, 0.616983, 0.616698, 0.807629, 0.647931, 0.907708, 0.701337, 0.605127, 0.607473, 0.617858, 0.687433, 0.723407, 0.777198, 0.947056, 0.945855, 0.629074, 0.627878, 0.686896, 0.756254, 0.790287, 0.808082, 0.92891, 0.975096, 0.973162, 0.69815, 0.690454, 0.690049, 0.826518, 0.85327, 0.85301, 0.950275, 0.929538, 0.960405, 0.690339, 0.69001, 0.766016, 0.83984, 0.899423, 0.921607, 0.979562, 1.05496, 1.14052, 0.870854, 0.780551, 0.780337, 0.842299, 0.886824, 0.918587, 0.952637, 0.952157, 0.846842, 0.785668, 0.786599, 0.800907, 0.940356, 0.946798, 0.947227, 1.08648, 1.07751, 1.04968, 1.05378, 1.01827, 1.09817, 1.03338, 0.957625, 1.01661, 1.01575, 0.942901, 0.921332, 0.92378, 0.924943, 1.28597, 0.900411, 0.867804, 0.815366, 0.87017, 0.961487, 1.02023, 1.22608, 1.20429, 1.22945, 0.816029, 0.80821, 0.798072, 0.74943, 0.749282, 0.856738, 0.838687, 0.838493, 0.975207, 1.00511, 0.898069, 0.839473, 0.606708, 0.596989, 0.610484, 0.722072, 0.777992, 0.781, 0.716728, 0.766023, 0.7953, 0.580804, 0.580565, 0.624284, 0.788347, 0.78915, 0.555184, 0.55662, 0.556333, 0.57341, 0.561139, 0.562598, 0.53928, 0.870393, 0.872023, 0.736529, 0.737107, 0.627818, 0.629013, 0.443583, 0.468827, 0.464066, 0.462007, 0.396421, 0.422117, 0.394049, 0.392125, 0.391787, 0.4903, 0.708889, 0.617512, 0.692208, 0.688065, 0.687059, 0.52721, 0.592147, 0.632638, 0.678012, 0.698066, 0.7936, 0.791598, 0.963751, 0.815105, 0.849579, 0.579758, 0.577871, 0.497697, 0.631866, 0.623238, 0.731999, 0.758588, 0.731778, 0.728805, 0.513519, 0.42095, 0.421337, 0.461817, 0.462593, 0.660121, 0.702593, 0.518149, 0.518042, 0.410835, 0.383609, 0.3842, 0.496495, 0.519635, 0.583471, 0.708409, 0.436385, 0.351753, 0.352233, 0.353897, 0.474383, 0.511579, 0.479386, 0.571124, 0.586198, 0.588108, 0.330244
2.02027, 1.99628, 1.99026, 1.69802, 1.70361, 1.67326, 1.68482, 1.77804, 1.80065, 1.81126, 1.87336, 1.50899, 1.49203, 1.5137, 1.57803, 1.56277, 1.6321, 1.64203, 1.76538, 1.81076, 1.50894, 1.48768, 1.52352, 1.49941, 1.55038, 1.67423, 1.69458, 1.71196, 1.63343, 1.57847, 1.43274, 1.39132, 1.40939, 1.43058, 1.46475, 1.4961, 1.5992, 1.51128, 1.52639, 1.54238, 1.55137, 1.55546, 1.58283, 1.76174, 1.7414, 0.00495412, 1.64836, 1.64203, 1.61401, 1.70101, 1.71755, 1.78642, 1.83091, 0.00448556, 2.14312, 1.92771, 1.96626, 1.89021, 1.88587, 1.94844, 2.1137, 2.20119, 2.20318, 2.47031, 0.00454665, 2.53847, 0.0046198, 0.00447336, 2.31454, 2.38411, 2.34161, 2.34569, 2.35178, 2.33169, 2.36274, 2.35575, 2.18256, 2.17401, 2.13043, 0.00475888, 2.00936, 2.03049, 2.02867, 2.20189, 2.04482, 2.04546, 2.01752, 1.90619, 1.54286, 1.52654, 1.48139, 1.53679, 1.59307, 1.85569, 1.80565, 1.69739, 1.63645, 1.59909, 1.36807, 1.3523, 1.36474, 1.36497, 1.41715, 1.39961, 1.38199, 1.30655, 1.34431, 1.43788, 0.995687, 0.966689, 1.20265, 0.983624, 1.0145, 1.1756, 1.15463, 1.05977, 1.10086, 0.725319, 0.614528, 0.621019, 0.620188, 0.617246, 0.70158, 0.780923, 0.763415, 0.716164, 0.602032, 0.626881, 0.700589, 0.70023, 0.89086, 0.887657, 0.884712, 1.07382, 0.701861, 0.607082, 0.663158, 0.686875, 0.796708, 0.832404, 0.912346, 1.02505, 1.01092, 0.697592, 0.690161, 0.690121, 0.76706, 0.718067, 0.789234, 0.739504, 0.991973, 0.729729, 0.774306, 0.700574, 0.700019, 0.776579, 0.810873, 0.915248, 0.985041, 0.757703, 0.714939, 0.784571, 0.808165, 0.856753, 0.854582, 0.827286, 0.911018, 0.912303, 0.951533, 0.899027, 0.835694, 0.786523, 0.831947, 0.919434, 0.960934, 1.02995, 1.02393, 1.02469, 1.04775, 1.08764, 1.01885, 1.02693, 1.04923, 0.958267, 0.959097, 0.995496, 1.13587, 1.21553, 1.25148, 1.24159, 1.28923, 0.934305, 0.861768, 0.902358, 0.855726, 0.899153, 1.0501, 1.22309, 1.23295, 1.20501, 1.23903, 1.13452, 0.832772, 0.759308, 0.759606, 0.97166, 0.846353, 0.922847, 0.944239, 0.901712, 0.93704, 0.849767, 0.598261, 0.600194, 0.603612, 0.698175, 0.73181, 0.796178, 0.720809, 0.7179, 0.575865, 0.575153, 0.622378, 0.625242, 0.727806, 0.978234, 0.569556, 0.570637, 0.597198, 0.640563, 0.551929, 0.496657, 0.496681, 0.870591, 0.871985, 0.899568, 0.757179, 0.535736, 0.408301, 0.407175, 0.492614, 0.461774, 0.462597, 0.384654, 0.386818, 0.392027, 0.415272, 0.392051, 0.392699, 0.627643, 0.667579, 0.72284, 0.69696, 0.688279, 0.730016, 0.634816, 0.625249, 0.629865, 0.721052, 0.786949, 0.852166, 0.887228, 0.915025, 0.883696, 0.605133, 0.621993, 0.556752, 0.558393, 0.625348, 0.628192, 0.74407, 0.724828, 0.755111, 0.51149, 0.419722, 0.421465, 0.466344, 0.494251, 0.615767, 0.701626, 0.566353, 0.572837, 0.428481, 0.380007, 0.465626, 0.460708, 0.402561, 0.401989, 0.38389, 0.456644, 0.435901, 0.384799, 0.50889, 0.387344, 0.612563, 0.614888, 0.520676, 0.58702, 0.399563, 0.424893
2.00729, 1.96512, 1.98378, 1.7097, 1.6633, 1.65226, 1.68638, 1.79985, 1.80464, 1.79711, 1.79984, 1.68604, 1.46158, 1.45683, 1.52117, 1.57669, 1.61036, 1.72412, 1.72372, 1.78477, 1.50308, 1.43289, 1.48636, 1.48381, 1.58272, 1.5476, 1.70808, 1.70999, 1.52134, 1.46282, 1.4883, 1.40766, 1.4385, 1.45718, 1.61312, 1.77307, 1.57251, 1.53641, 1.49936, 1.49128, 1.55793, 1.5753, 1.62198, 1.74706, 1.85251, 1.95315, 1.68567, 1.66454, 1.65786, 1.70633, 1.81482, 1.81622, 1.87567, 1.99423, 2.14442, 1.95444, 1.94148, 2.11071, 1.93855, 1.9751, 2.12164, 0.00385157, 2.36681, 0.00585723, 0.00474561, 0.00439038, 2.43171, 0.00440394, 2.41036, 2.28773, 2.42541, 2.34587, 2.34226, 2.41171, 2.31195, 2.37027, 2.44586, 2.44557, 0.00495253, 1.935, 2.05613, 1.99336, 2.02044, 2.00254, 1.98623, 1.93295, 1.90275, 1.93537, 1.51832, 1.47408, 1.47945, 1.47868, 1.68603, 1.75333, 1.72653, 1.61704, 1.60762, 1.5619, 1.51253, 1.38089, 1.30567, 1.31996, 1.39815, 1.37023, 1.50217, 1.44629, 1.32064, 0.954185, 0.976209, 0.961423, 0.953333, 1.01216, 1.22684, 1.22554, 1.35734, 1.14483, 1.23232, 0.721699, 0.729369, 0.622846, 0.608461, 0.677015, 0.774717, 0.790524, 0.771902, 0.606915, 0.605507, 0.605666, 0.839806, 0.839354, 0.816418, 0.970329, 0.887467, 0.976967, 0.609122, 0.700788, 0.735858, 0.763061, 0.725805, 0.836531, 0.881119, 0.725971, 0.701715, 0.692876, 0.68054, 0.754179, 0.754202, 0.721367, 0.790257, 0.994166, 0.956171, 1.0502, 0.746254, 0.70057, 0.766939, 0.791147, 0.907194, 0.901918, 0.943033, 0.936377, 0.721289, 0.721384, 0.818186, 0.812023, 0.825995, 0.894141, 0.908937, 0.886684, 0.925594, 0.922896, 0.843748, 0.837467, 0.934152, 0.833254, 1.01253, 1.01303, 1.02603, 1.07514, 1.14094, 1.12616, 1.06554, 1.0463, 0.985319, 0.970593, 0.963842, 1.0129, 1.13605, 1.14677, 1.16038, 1.19855, 1.19001, 0.904145, 0.836657, 0.836636, 0.932832, 0.940225, 1.07681, 1.22171, 1.14421, 1.25306, 1.25325, 1.16763, 0.804539, 0.731822, 0.756527, 0.792523, 0.898761, 0.897854, 0.946323, 0.933074, 0.959064, 0.666973, 0.639682, 0.699866, 0.678919, 0.674618, 0.71135, 0.725722, 0.842598, 0.784856, 0.769017, 0.57687, 0.663245, 0.6663, 0.724177, 0.936515, 0.971619, 0.572779, 0.631282, 0.641614, 0.64183, 0.496822, 0.49769, 0.491696, 0.491935, 0.556899, 0.549017, 0.534357, 0.501208, 0.414343, 0.414089, 0.425162, 0.56174, 0.426145, 0.391727, 0.417601, 0.419491, 0.419915, 0.492316, 0.520914, 0.70078, 0.670738, 0.762689, 0.745264, 0.708664, 0.566195, 0.568885, 0.717968, 0.687357, 0.836515, 0.877143, 0.881552, 0.853879, 0.924329, 0.60102, 0.582955, 0.564394, 0.499035, 0.51749, 0.495038, 0.517712, 0.725458, 0.690751, 0.500105, 0.411817, 0.41418, 0.453484, 0.486594, 0.549947, 0.63009, 0.532117, 0.490299, 0.458186, 0.383531, 0.417481, 0.459853, 0.421341, 0.404834, 0.545435, 0.45581, 0.380396, 0.349009, 0.339246, 0.462635, 0.475711, 0.476525, 0.504284, 0.605125, 0.400282, 0.378654
1.9621, 2.01499, 1.89934, 1.68584, 1.59236, 1.64127, 1.65559, 1.67094, 1.78992, 1.78803, 1.705, 1.55157, 1.46757, 1.46504, 1.49257, 1.54049, 1.52667, 1.5281, 1.53066, 1.52699, 1.5032, 1.48596, 1.4739, 1.49363, 1.51408, 1.52263, 1.52311, 1.55569, 1.57251, 1.56295, 1.47632, 1.43871, 1.43909, 1.48784, 1.54054, 1.5618, 1.53326, 1.61037, 1.6057, 1.49951, 1.51102, 1.66932, 0.00473642, 1.83513, 1.84389, 1.89497, 2.02424, 1.95893, 1.70262, 1.70868, 1.73487, 1.83478, 1.84163, 2.02538, 2.13155, 2.01039, 2.02653, 2.0592, 2.05993, 2.11069, 2.24004, 2.29765, 2.46282, 0.0054281, 2.39382, 2.395, 2.44248, 2.38763, 2.50328, 2.44014, 2.30164, 2.3036, 2.44273, 0.00489672, 2.46587, 2.36071, 2.35937, 2.50456, 1.94947, 1.89987, 1.89313, 1.92597, 2.10658, 2.05203, 1.95583, 1.90379, 1.831, 1.86588, 1.49859, 1.45883, 1.45088, 1.52965, 1.49277, 1.66982, 1.87843, 1.64725, 1.57527, 1.54329, 1.4921, 1.43713, 1.23382, 1.31393, 1.33601, 1.33708, 1.32002, 1.29913, 1.24411, 0.978377, 0.908874, 0.980254, 1.06568, 0.964741, 1.19269, 1.09412, 1.09444, 1.09454, 1.04717, 1.04729, 0.701511, 0.617256, 0.615543, 0.71649, 0.714861, 0.894832, 0.672961, 0.602522, 0.601662, 0.659524, 0.671687, 0.731512, 0.871457, 0.916366, 0.977817, 0.863897, 0.684999, 0.676707, 0.639061, 0.735477, 0.720138, 0.697752, 0.739744, 0.740251, 0.702298, 0.814402, 0.700693, 0.777313, 0.734693, 0.864656, 0.877233, 0.95928, 0.997476, 1.01936, 0.793665, 0.763676, 0.731889, 0.748543, 0.814527, 0.873726, 0.950884, 0.977992, 0.978, 0.836078, 0.816262, 0.847596, 0.856566, 0.87127, 0.884029, 0.986042, 0.986065, 0.888026, 0.880896, 0.841888, 0.845714, 0.845961, 0.867297, 1.02644, 1.02918, 1.03076, 1.13058, 1.14377, 1.05675, 0.981117, 0.931965, 0.950766, 0.960479, 1.05154, 1.03047, 1.13775, 1.27108, 1.22316, 1.23427, 0.911972, 0.890752, 0.835001, 0.89134, 0.94476, 1.13739, 1.13584, 1.29464, 1.18308, 1.24798, 1.14487, 1.119, 0.759621, 0.741682, 0.862798, 0.800141, 0.906025, 0.910945, 0.943139, 0.944028, 0.701104, 0.671916, 0.721712, 0.673272, 0.741283, 0.739386, 0.740255, 0.866608, 0.866625, 0.59384, 0.595197, 0.59733, 0.836956, 0.937459, 0.938317, 1.15811, 0.877423, 0.694511, 0.608807, 0.579458, 0.560081, 0.587034, 0.608967, 0.580416, 0.556214, 0.556132, 0.534387, 0.534954, 0.411072, 0.411532, 0.561056, 0.437861, 0.42828, 0.428382, 0.380849, 0.381505, 0.40632, 0.392491, 0.620875, 0.671842, 0.73112, 0.764286, 0.747507, 0.778826, 0.626457, 0.628474, 0.655765, 0.711775, 0.786679, 0.849215, 0.890892, 0.854167, 0.926438, 0.58362, 0.580922, 0.507105, 0.577911, 0.635997, 0.662603, 0.666053, 0.637406, 0.63905, 0.607461, 0.41532, 0.416617, 0.455596, 0.582, 0.505497, 0.632005, 0.701583, 0.494108, 0.441687, 0.358523, 0.358679, 0.404709, 0.529296, 0.557187, 0.536236, 0.537657, 0.460598, 0.491942, 0.342241, 0.45623, 0.480983, 0.480508, 0.479792, 0.596816, 0.411998, 0.269208
2.0353, 1.96286, 1.91892, 1.6473, 1.58806, 1.64124, 1.65259, 1.68451, 1.70925, 1.5472, 1.75231, 1.75199, 1.46898, 1.47136, 1.50069, 1.51831, 1.62985, 1.61712, 1.69338, 1.68954, 1.7009, 1.51276, 1.47033, 1.58646, 1.66977, 1.5343, 1.5552, 1.72767, 1.62311, 1.57672, 1.47927, 1.45492, 1.45105, 1.50341, 1.61037, 1.56496, 1.57576, 1.57218, 1.57187, 1.56202, 1.58987, 1.58943, 1.70306, 1.86815, 1.85921, 1.86923, 2.05898, 1.95826, 1.81836, 1.74164, 1.74203, 1.8654, 1.9257, 2.09103, 2.2897, 2.4003, 2.05558, 2.03073, 2.03709, 2.10874, 0.00458442, 2.31912, 0.00463834, 0.00405987, 0.0044474, 0.00486328, 0.00482667, 2.52541, 0.00464363, 2.34612, 2.36053, 2.38824, 2.35996, 0.00436839, 0.00427208, 0.00471545, 0.00487269, 0.790899, 1.83851, 1.84479, 1.8469, 1.86757, 1.89253, 1.9866, 1.99353, 1.93742, 1.80697, 1.79301, 1.45121, 1.41872, 1.41051, 1.42548, 1.62808, 1.6448, 1.69746, 1.60627, 1.5587, 1.52367, 1.4959, 1.21695, 1.27868, 1.22241, 1.299, 1.14094, 1.1249, 1.1387, 1.11631, 0.951352, 0.898187, 0.939804, 0.95935, 0.961411, 1.06389, 1.11308, 1.14427, 1.15002, 1.14145, 0.7255, 0.667185, 0.615096, 0.639463, 0.760244, 0.843289, 0.894774, 0.683405, 0.655807, 0.606865, 0.674457, 0.673118, 0.813622, 0.788319, 0.910738, 0.866843, 0.921281, 0.673727, 0.71632, 0.683711, 0.684253, 0.762548, 0.778314, 0.952752, 1.02697, 0.942724, 0.746521, 0.701086, 0.760711, 0.759561, 0.853487, 0.875826, 0.985457, 1.08588, 1.03555, 0.792477, 0.792658, 0.752412, 0.77776, 0.851204, 0.881, 0.973579, 0.949299, 0.933807, 0.933025, 0.756984, 0.756435, 0.801017, 0.884908, 0.883834, 1.01571, 1.03206, 0.85419, 0.928376, 0.928363, 0.945168, 0.911979, 0.950707, 1.11181, 1.08845, 1.06335, 1.10921, 1.12082, 1.14682, 0.970655, 0.926732, 0.946835, 0.915883, 1.03645, 1.03589, 1.09178, 1.19743, 1.19806, 1.22883, 1.228, 0.846887, 0.818307, 0.787597, 1.06397, 1.07131, 1.16467, 1.1765, 1.1946, 1.22701, 1.15365, 1.10544, 0.722073, 0.677322, 0.713238, 0.772002, 0.899993, 0.919789, 0.942719, 0.918103, 0.943777, 0.691952, 0.649169, 0.711052, 0.735209, 0.808176, 0.818674, 0.887172, 0.883971, 0.594054, 0.595466, 0.595207, 0.802352, 1.09258, 0.964004, 0.965415, 0.791061, 0.791527, 0.624398, 0.600892, 0.587236, 0.570152, 0.608118, 0.79405, 0.545885, 0.794106, 0.793807, 0.507356, 0.502463, 0.429344, 0.408798, 0.487255, 0.487233, 0.388255, 0.382364, 0.382796, 0.426622, 0.527787, 0.426865, 0.710136, 0.709553, 0.760048, 0.760038, 0.780308, 0.788346, 0.580157, 0.716254, 0.690625, 0.812269, 0.811686, 0.936699, 0.892475, 0.915681, 0.916585, 0.60756, 0.566189, 0.578006, 0.665055, 0.665776, 0.722736, 0.712576, 0.71432, 0.685771, 0.420828, 0.419049, 0.53078, 0.582385, 0.590178, 0.657346, 0.729812, 0.525358, 0.480112, 0.353024, 0.359702, 0.486768, 0.541452, 0.541642, 0.535848, 0.442746, 0.430009, 0.301894, 0.317134, 0.35007, 0.35124, 0.332037, 0.330536, 0.328896, 0.37331, 0.270512
2.00396, 2.00506, 1.95554, 1.58195, 1.5832, 1.58247, 1.63081, 1.67907, 1.79022, 1.75544, 1.76888, 1.52089, 1.49757, 1.49264, 1.51905, 1.52406, 1.53385, 1.63766, 1.80456, 1.82039, 1.64803, 1.50722, 1.53359, 1.50615, 1.50573, 1.67724, 1.64379, 1.53765, 1.62459, 1.56247, 1.4807, 1.46556, 1.4146, 1.52632, 1.93919, 1.68927, 1.73332, 1.60719, 1.56329, 1.62026, 1.62119, 1.73543, 1.74706, 1.84522, 2.06971, 1.9139, 1.91341, 1.86464, 1.81158, 1.77375, 1.76083, 1.83554, 1.95469, 0.00498662, 2.29635, 0.00389155, 2.46912, 2.20497, 2.15298, 2.14543, 2.14981, 0.00541015, 0.00457269, 2.51492, 0.00477417, 2.41764, 0.0046137, 0.00465299, 2.45188, 2.35987, 2.32938, 2.33116, 0.00475098, 2.4229, 2.43888, 2.36383, 2.3648, 0.00488315, 1.81165, 1.7728, 1.77803, 1.79066, 1.88, 1.94925, 2.08328, 1.84945, 1.80737, 1.835, 1.45915, 1.41495, 1.38099, 1.4195, 1.57863, 1.53558, 1.63313, 1.61759, 1.54757, 1.52289, 1.443, 1.16369, 1.16082, 1.10711, 1.30243, 1.25945, 1.23992, 1.23835, 1.119, 0.904161, 0.886058, 0.929925, 0.960619, 0.981336, 1.08326, 1.09456, 1.12992, 1.144, 1.09036, 0.696501, 0.656212, 0.632835, 0.618276, 0.663849, 0.842089, 0.935643, 0.959132, 0.596105, 0.595102, 0.707762, 0.647139, 0.741979, 0.783937, 0.868482, 0.929214, 0.925423, 0.645385, 0.595032, 0.627348, 0.768996, 0.763151, 0.826269, 0.8988, 0.963018, 0.988178, 0.722154, 0.733568, 0.746322, 0.746019, 0.835226, 0.901341, 0.986875, 1.03239, 1.02517, 0.760783, 0.714182, 0.771123, 0.770007, 0.857048, 0.968015, 0.974643, 0.995629, 1.00239, 0.835444, 0.770258, 0.76351, 0.764053, 0.83319, 0.941994, 1.0144, 1.0702, 0.836906, 0.838847, 0.865003, 0.984671, 1.09999, 0.953379, 1.00843, 1.01741, 1.06732, 1.09201, 1.17173, 1.06171, 1.06156, 0.911783, 0.89941, 0.894621, 0.981018, 1.0196, 1.09173, 1.09485, 1.13897, 1.16907, 1.0339, 0.814824, 0.784243, 0.757753, 0.758306, 1.22304, 1.157, 1.25328, 1.17474, 1.18836, 1.1104, 1.11124, 0.664062, 0.659793, 0.673415, 0.751133, 0.901543, 1.01707, 1.01524, 1.01615, 0.931399, 0.742628, 0.716896, 0.777762, 0.728367, 0.908701, 0.87431, 0.876197, 0.875786, 0.624959, 0.805927, 0.836766, 0.815807, 0.825175, 0.964341, 0.848783, 0.848454, 0.719099, 0.762747, 0.638176, 0.569742, 0.570132, 0.737707, 0.791211, 0.53913, 0.541489, 0.542109, 0.521553, 0.435145, 0.4379, 0.466271, 0.379823, 0.386173, 0.381051, 0.381005, 0.376843, 0.426892, 0.502912, 0.49128, 0.508306, 0.674951, 0.739815, 0.791774, 0.798409, 0.788411, 0.76017, 0.57521, 0.575707, 0.700046, 0.946374, 0.877566, 0.953887, 0.900079, 0.716046, 0.618049, 0.556456, 0.594015, 0.635046, 0.664061, 0.689289, 0.693871, 0.671954, 0.441913, 0.414834, 0.415962, 0.479896, 0.577279, 0.577435, 0.604866, 0.692194, 0.515018, 0.359604, 0.360751, 0.451783, 0.453601, 0.545784, 0.459076, 0.546783, 0.530148, 0.531253, 0.304077, 0.304289, 0.351645, 0.351553, 0.476031, 0.331183, 0.328727, 0.372496, 0.269533
1.9548, 1.97904, 1.65781, 1.65155, 1.59735, 1.62287, 1.61367, 1.68653, 1.783, 1.7619, 1.64875, 1.52034, 1.46096, 1.53392, 1.538, 1.56848, 1.61676, 1.64899, 1.75931, 1.77669, 1.78664, 1.44781, 1.44785, 1.56547, 1.56199, 1.552, 1.53687, 1.53761, 1.64948, 1.52746, 1.47495, 1.45563, 1.5649, 1.60474, 1.68827, 1.81373, 1.66219, 1.56138, 1.90315, 1.72688, 1.62029, 1.64176, 1.70905, 2.04552, 2.06997, 1.95344, 1.94795, 1.93214, 1.82872, 1.80009, 1.86992, 1.97008, 1.96884, 2.03538, 0.00480856, 0.00460065, 2.08688, 2.06395, 2.06538, 2.14435, 2.14526, 2.35849, 2.3458, 0.00487919, 0.00465191, 2.41711, 2.41824, 2.5149, 2.38098, 2.50839, 2.35324, 2.40585, 2.35985, 2.36702, 2.36739, 2.36927, 2.36357, 0.00421626, 1.77998, 1.75251, 1.74218, 1.75914, 1.78943, 1.86865, 2.08624, 1.94922, 1.81491, 1.73475, 1.56991, 1.40543, 1.37182, 1.41163, 1.55108, 1.49053, 1.55234, 1.58716, 1.56781, 1.48809, 1.46877, 1.08912, 1.06635, 1.12577, 1.19081, 1.28569, 1.2655, 1.26594, 1.24826, 0.929505, 0.907432, 0.912309, 1.02186, 1.02039, 1.09708, 1.05759, 1.05718, 1.05684, 0.721583, 0.624345, 0.670175, 0.621824, 0.605497, 0.604237, 0.63634, 0.700682, 0.926805, 0.640472, 0.604136, 0.61151, 0.735543, 0.764478, 0.831255, 0.915835, 0.962567, 0.976096, 0.7523, 0.630088, 0.656626, 0.776455, 0.762682, 0.851283, 0.94379, 1.00444, 1.06347, 0.716251, 0.758435, 0.740261, 0.713973, 0.867112, 0.898146, 0.980831, 0.975646, 1.04086, 0.769811, 0.75996, 0.781937, 0.805312, 0.863704, 0.956216, 0.989529, 1.00918, 1.04316, 0.861357, 0.767714, 0.769843, 0.766906, 0.869952, 0.967003, 1.0187, 1.01735, 0.948424, 0.905299, 0.960274, 0.961442, 1.07322, 1.07242, 0.942, 0.985523, 1.05047, 1.15725, 1.08852, 1.04704, 1.04536, 0.915623, 0.886576, 0.867354, 0.928542, 0.916185, 0.899253, 0.887557, 0.881192, 0.866826, 1.12609, 0.827772, 0.749704, 0.777017, 0.735044, 0.946871, 1.11569, 1.1432, 1.15755, 1.16063, 1.11374, 1.04986, 0.673832, 0.647864, 0.638566, 0.787245, 0.787579, 0.913552, 0.924693, 0.919987, 0.860731, 0.707379, 0.737736, 0.726747, 0.731845, 0.763869, 0.88177, 0.861803, 0.557979, 0.560223, 0.608062, 0.642663, 0.765997, 0.754841, 0.842824, 0.800652, 0.675366, 0.676836, 0.608454, 0.614202, 0.629295, 0.630029, 0.569043, 0.569674, 0.569283, 0.676004, 0.6172, 0.538643, 0.554047, 0.511013, 0.450118, 0.384096, 0.382723, 0.382787, 0.376731, 0.422439, 0.43552, 0.577345, 0.559219, 0.580865, 0.756318, 0.762846, 0.800932, 0.81903, 0.811772, 0.811505, 0.60854, 0.669009, 0.728398, 0.86795, 0.877925, 0.88787, 0.814242, 0.90375, 0.61821, 0.625304, 0.660966, 0.649422, 0.680836, 0.677793, 0.692367, 0.427417, 0.394154, 0.395512, 0.400007, 0.522947, 0.584022, 0.64063, 0.626684, 0.628977, 0.635194, 0.43508, 0.444815, 0.438159, 0.369981, 0.457945, 0.465573, 0.507333, 0.504789, 0.313164, 0.304193, 0.320214, 0.320221, 0.497088, 0.504658, 0.490768, 0.467441, 0.339071, 0.310106
1.96861, 1.9995, 1.67693, 1.67495, 1.56569, 1.60219, 1.64803, 1.71577, 1.69001, 1.70111, 1.6669, 1.4642, 1.47458, 1.50699, 1.49442, 1.52953, 1.60599, 1.60032, 1.75833, 1.84824, 1.47746, 1.44655, 1.44683, 1.57853, 1.58278, 1.5592, 1.59635, 1.63499, 1.59933, 1.5298, 1.46221, 1.46007, 1.53679, 1.50812, 1.62802, 1.74076, 1.7663, 1.63149, 1.56623, 1.57273, 1.60554, 1.68153, 1.69041, 2.0304, 2.07199, 0.00666471, 1.98388, 1.97912, 1.93007, 1.86825, 1.92818, 1.97023, 1.9724, 2.04215, 2.07017, 0.00470311, 2.11356, 2.10532, 2.09568, 2.09711, 2.28063, 0.00424834, 2.33946, 0.00492476, 0.00416434, 2.43838, 0.00430634, 2.40129, 2.38029, 2.36901, 2.36982, 2.37009, 2.36893, 2.36926, 2.36895, 2.36962, 2.38008, 0.00927985, 1.75428, 1.72089, 1.73134, 1.74771, 1.76868, 1.80077, 1.80483, 1.83716, 1.82948, 1.85913, 1.4265, 1.36743, 1.36539, 1.41384, 1.52227, 1.44712, 1.48967, 1.59374, 1.4681, 1.44434, 0.994065, 0.995368, 1.08897, 1.13778, 1.19415, 1.26951, 1.26853, 1.31687, 1.24114, 0.846553, 0.90158, 0.904668, 0.936936, 0.984099, 0.998294, 1.03877, 1.07891, 1.13062, 0.693684, 0.693777, 0.629685, 0.623258, 0.621844, 0.773084, 0.890128, 0.6714, 0.956724, 0.697911, 0.700859, 0.656768, 0.737032, 0.760313, 0.959812, 0.957705, 1.01308, 0.971155, 0.641615, 0.712584, 0.712915, 0.712648, 0.714287, 0.852193, 0.946595, 0.947615, 0.752896, 0.679801, 0.701578, 0.762215, 0.82596, 0.824623, 0.782515, 0.773247, 0.790115, 0.777768, 0.801169, 0.786897, 0.76726, 0.92725, 0.860922, 1.00171, 0.953758, 1.03956, 1.05664, 1.03103, 0.833109, 0.822014, 0.818381, 0.856259, 0.833923, 0.883149, 0.964592, 0.869405, 0.940614, 0.936854, 0.929238, 1.11667, 1.08568, 0.970773, 0.950443, 1.02609, 1.06782, 1.04266, 1.10124, 1.17846, 0.89954, 0.841417, 0.841132, 0.958533, 0.976426, 1.01336, 0.888115, 1.05616, 1.05676, 1.05044, 0.749067, 0.666324, 0.711427, 0.757053, 0.853818, 0.963431, 1.16127, 1.10864, 1.11172, 1.06042, 1.07463, 0.643191, 0.591767, 0.700272, 0.759432, 0.762573, 0.94747, 0.891098, 0.891229, 0.863256, 0.63966, 0.659623, 0.660899, 0.611715, 0.639273, 0.877991, 1.00446, 0.56139, 0.562606, 0.594112, 0.660397, 0.782972, 0.812078, 0.812408, 0.783401, 0.713414, 0.680519, 0.577517, 0.563384, 0.614338, 0.542278, 0.542071, 0.613766, 0.614984, 0.658953, 0.646146, 0.540267, 0.500156, 0.528574, 0.645971, 0.385278, 0.408395, 0.450295, 0.452492, 0.448418, 0.494962, 0.445689, 0.570192, 0.726075, 0.72656, 0.527978, 0.527563, 0.846179, 0.838827, 0.638095, 0.63789, 0.69812, 0.700516, 0.86026, 0.873835, 0.843811, 0.845119, 0.598273, 0.605678, 0.569502, 0.652939, 0.636051, 0.664419, 0.681902, 0.697432, 0.433581, 0.397949, 0.398682, 0.437304, 0.467727, 0.514908, 0.639537, 0.642845, 0.629846, 0.630272, 0.483145, 0.483747, 0.470255, 0.373605, 0.447922, 0.44697, 0.525663, 0.424382, 0.425714, 0.321125, 0.321416, 0.323106, 0.497408, 0.493748, 0.480682, 0.482891, 0.259917, 0.349399
1.94754, 1.92101, 1.92954, 1.62626, 1.62687, 1.56185, 1.63419, 1.67469, 1.76915, 1.7869, 1.87886, 1.48566, 1.47485, 1.46517, 1.5791, 1.53681, 1.5733, 1.64331, 1.66189, 1.76499, 1.4957, 1.49729, 1.49149, 1.57262, 1.56433, 1.63428, 1.66878, 1.60024, 1.52865, 1.48949, 1.42989, 1.42917, 1.45889, 1.52667, 1.58991, 1.82726, 1.82717, 1.6875, 1.57653, 1.57315, 1.65545, 1.69964, 1.70057, 2.02786, 2.07333, 2.43525, 2.04283, 2.0181, 1.97174, 1.91518, 1.89742, 2.02467, 2.02869, 1.99802, 2.09842, 0.00420789, 2.14999, 2.07275, 2.07461, 2.26691, 2.39856, 2.31134, 2.36376, 2.37313, 2.38153, 2.58394, 0.00497351, 2.39849, 2.36535, 2.36622, 1.99576, 2.01086, 2.40507, 2.36752, 0.00446518, 2.374, 2.37836, 0.00475277, 1.73726, 1.71793, 1.72694, 1.72715, 1.74412, 1.82181, 1.8447, 1.80497, 1.80304, 1.73069, 1.36845, 1.32778, 1.31027, 1.33749, 1.39657, 1.45153, 1.49259, 1.56871, 1.41563, 1.03248, 1.00756, 0.991708, 1.01085, 1.09442, 1.17556, 1.29052, 1.27429, 1.32078, 0.804516, 0.804032, 0.817538, 0.868337, 0.904093, 0.93961, 0.979674, 1.0361, 1.20835, 1.30525, 0.62077, 0.645871, 0.642966, 0.625115, 0.796972, 0.894658, 0.89582, 0.955476, 0.940677, 0.701326, 0.707717, 0.745286, 0.76035, 0.759273, 0.800303, 0.975883, 1.03033, 1.00583, 0.737444, 0.750169, 0.729781, 0.72775, 0.707932, 0.70613, 0.933154, 0.950559, 0.774188, 0.667621, 0.729632, 0.744491, 0.745555, 0.785239, 0.784096, 0.899174, 0.963696, 0.780614, 0.783805, 0.736082, 0.857162, 0.8998, 0.97772, 0.956715, 1.00601, 1.00102, 1.05014, 1.03316, 0.957629, 0.884441, 0.878169, 0.877932, 0.887528, 0.880323, 0.909496, 0.92817, 0.864633, 0.942785, 0.942335, 1.19265, 1.14249, 0.991773, 0.974132, 1.00265, 1.06675, 1.01707, 1.12647, 1.12857, 1.17583, 0.877199, 0.838914, 0.832356, 0.825665, 1.06448, 1.05445, 1.05651, 1.05869, 1.04929, 0.645998, 0.647375, 0.647347, 0.731146, 0.774658, 0.990197, 0.991786, 1.05245, 1.03499, 0.999516, 0.600699, 0.667194, 0.667057, 0.726424, 0.726521, 0.742943, 0.912029, 0.912106, 0.973399, 0.88105, 0.649447, 0.5963, 0.586216, 0.586826, 0.592014, 0.681419, 0.608472, 0.555641, 0.556048, 0.568682, 0.661227, 0.6933, 0.739255, 0.739339, 0.782588, 0.780347, 0.560941, 0.507551, 0.596486, 0.598281, 0.615815, 0.718608, 0.706123, 0.714197, 0.857264, 0.452213, 0.452954, 0.453281, 0.534213, 0.573594, 0.572658, 0.456976, 0.456204, 0.454909, 0.420051, 0.419798, 0.490514, 0.608203, 0.751294, 0.748226, 0.707564, 0.714665, 0.503588, 0.807854, 0.628205, 0.757574, 0.754669, 0.755926, 0.861116, 0.863923, 0.819003, 0.822692, 0.641821, 0.624227, 0.580675, 0.604604, 0.639438, 0.635341, 0.638106, 0.640094, 0.640387, 0.481387, 0.39875, 0.399311, 0.501415, 0.522717, 0.441928, 0.444038, 0.445614, 0.435104, 0.45938, 0.452827, 0.376952, 0.379135, 0.401204, 0.548035, 0.547899, 0.56221, 0.424244, 0.385976, 0.303857, 0.308597, 0.309951, 0.368951, 0.257298, 0.259121, 0.260149, 0.249042
