1.98104, 1.98245, 0.00334644, 1.74937, 1.71302, 1.722, 1.80606, 1.81291, 1.85094, 1.91161, 1.94508, 1.94096, 1.64362, 1.64425, 1.70044, 1.73824, 1.8115, 1.81461, 1.85179, 1.86534, 1.58539, 1.59546, 1.5792, 1.54918, 0.00342033, 1.71951, 1.77931, 1.82354, 0.00320075, 0.0108608, 1.47743, 1.43826, 1.4983, 1.53764, 1.58462, 1.64489, 1.73152, 1.725, 1.71469, 1.43379, 1.39772, 1.42245, 1.49807, 1.45896, 1.54082, 1.56538, 1.58863, 1.56911, 1.38538, 1.50833, 1.33063, 1.4603, 1.4741, 1.49003, 1.58437, 1.58261, 1.53799, 1.32951, 1.33607, 1.30006, 1.34129, 1.34013, 1.41913, 1.5055, 1.58627, 1.58604, 1.26845, 1.26715, 1.34992, 1.43757, 1.47729, 1.38076, 1.50221, 1.35418, 1.35127, 1.30845, 1.30578, 1.30656, 1.44997, 1.47904, 1.53054, 1.60023, 1.5962, 1.34707, 1.29117, 1.31879, 1.35948, 1.47637, 0.00301734, 1.5307, 1.78911, 1.45769, 1.50942, 1.47949, 1.46816, 1.61272, 0.00360844, 1.81357, 1.89768, 2.00874, 0.00323436, 0.00346794, 0.00333028, 1.64797, 1.65837, 1.85986, 1.7443, 1.96982, 0.00347145, 0.00342084, 0.00313176, 0.00349433, 0.00368544, 1.81992, 1.79306, 1.74257, 1.84028, 1.83764, 1.87004, 0.00338187, 1.97182, 1.87573, 1.89361, 1.86541, 1.98746, 1.93902, 1.86927, 1.85068, 1.77665, 1.75126, 1.76137, 1.75914, 0.00357592, 0.00375519, 0.00343522, 1.0131, 0.931955, 1.04885, 0.00305201, 1.06693, 0.00331124, 1.19431, 0.00356336, 0.938889, 0.745218, 0.718828, 0.744154, 0.833896, 0.829664, 0.953951, 0.95057, 0.964982, 0.797599, 0.728898, 0.706374, 0.798432, 0.00335265, 0.926406, 1.02629, 1.04644, 1.06966, 0.870721, 0.707703, 0.822316, 0.854413, 0.887954, 0.88724, 1.02523, 1.09545, 1.1093, 0.767829, 0.746441, 0.820285, 0.866826, 0.832878, 0.914053, 0.864742, 1.01086, 0.862404, 0.864575, 0.822885, 0.824852, 0.812347, 0.792207, 0.878418, 0.855738, 0.960165, 0.856758, 0.798153, 0.774413, 0.730634, 0.936554, 0.944098, 1.02137, 0.985278, 1.05017, 0.729894, 0.753176, 0.753368, 0.792684, 0.817699, 0.898632, 1.05492, 1.05663, 0.986891, 0.748802, 0.750112, 0.752939, 0.922023, 1.00311, 1.04644, 1.2086, 1.19467, 1.19489, 1.1229, 1.07069, 1.04089, 1.00625, 1.02988, 1.03602, 1.0051, 1.00532, 1.01374, 1.00538, 0.976833, 1.01207, 0.982264, 1.30638, 0.00315335, 1.03997, 0.998333, 0.97343, 1.08857, 1.00562, 1.00808, 1.01316, 1.00801, 0.967842, 0.00323293, 0.662836, 0.654219, 0.614847, 0.615309, 0.7022, 0.00340011, 0.506777, 0.562485, 0.562468, 0.592032, 0.707778, 0.891955, 0.877274, 0.877267, 0.799959, 0.842839, 0.738283, 0.7271, 0.835354, 0.835237, 0.677299, 0.667462, 0.668463, 0.894684, 0.89104, 0.69476, 0.629661, 0.63098, 0.735452, 0.830724, 0.82131, 0.00344849, 0.704867, 0.624321, 0.62804, 0.643364, 0.648565, 0.650288, 0.726062, 0.703849, 0.704651, 0.722059, 0.603771, 0.671023, 0.624778, 0.709167, 0.712498, 0.600996, 0.577001, 0.570862, 0.00349228, 0.505925, 0.509788, 0.38303, 0.384058, 0.51517, 0.504455, 0.533446, 0.408086, 0.407389, 0.434112
2.04766, 2.04975, 1.94193, 1.79274, 1.72246, 1.72527, 1.77577, 1.80947, 1.84386, 1.96561, 1.96776, 1.72629, 1.7285, 1.66474, 1.83702, 1.81803, 1.80871, 1.80988, 1.84862, 1.88867, 1.57427, 1.56508, 1.57072, 1.57156, 1.63539, 1.57124, 1.66953, 1.76561, 1.73773, 1.73939, 1.53829, 1.51498, 1.51623, 1.58543, 1.64743, 1.67851, 1.67946, 1.73858, 1.723, 1.46291, 1.38478, 1.4226, 1.41616, 1.48601, 1.50943, 1.61847, 0.003619, 0.0033536, 1.37455, 1.3621, 1.35356, 1.47133, 1.48466, 1.50664, 1.50705, 1.62067, 1.53852, 1.35051, 1.28092, 1.28043, 1.37842, 1.36457, 1.36357, 1.53752, 1.59924, 1.33424, 1.30485, 1.31655, 1.28065, 1.3371, 1.44171, 1.38102, 1.3816, 1.34448, 1.3086, 1.2427, 1.30685, 1.31585, 1.35084, 1.47361, 1.53135, 1.67205, 1.58541, 1.37726, 1.33019, 1.32759, 1.36055, 1.50988, 1.50343, 1.66153, 1.85559, 1.51665, 1.46665, 1.45715, 1.53678, 1.60295, 1.71574, 0.00334495, 1.93371, 2.00696, 2.00778, 0.00332435, 1.73521, 1.67901, 1.79647, 1.79926, 1.79755, 0.00360165, 0.0114986, 0.00332406, 2.06718, 0.00350794, 2.08466, 1.8418, 1.80358, 2.03846, 1.96414, 1.87238, 1.85505, 1.97677, 1.935, 0.00329841, 1.88945, 0.00306273, 1.99669, 1.92043, 1.89789, 1.87276, 1.77631, 1.80961, 1.68586, 1.6998, 1.75818, 1.64119, 0.0110067, 0.893565, 0.932275, 0.876617, 0.866691, 1.03855, 0.995679, 0.00362448, 0.00396923, 0.71276, 0.713084, 0.714655, 0.730777, 0.793495, 0.739254, 0.915612, 0.743159, 0.975278, 0.783742, 0.746586, 0.706613, 0.749548, 0.905917, 0.922715, 0.943783, 1.09319, 1.04296, 0.79927, 0.799054, 0.776104, 0.837175, 0.863215, 0.888359, 1.0586, 1.09801, 1.10378, 0.750155, 0.751499, 0.849581, 0.857159, 0.911259, 0.868965, 0.988537, 1.04274, 0.870126, 0.871627, 0.808068, 0.742489, 0.774218, 0.864837, 0.920304, 0.953612, 0.960622, 0.944267, 0.712611, 0.713681, 0.776671, 0.912917, 0.906352, 0.903239, 0.911347, 0.922061, 0.787251, 0.732888, 0.784301, 0.727451, 0.860632, 0.897287, 1.05081, 1.08569, 1.17027, 0.821855, 0.751732, 0.788134, 0.806559, 0.00316052, 1.07079, 1.25376, 1.20609, 1.20703, 1.171, 1.08126, 1.11948, 1.09431, 1.02041, 1.0011, 0.985077, 0.978158, 0.978629, 1.1024, 1.14016, 1.17356, 1.29249, 0.985379, 1.01092, 1.01193, 1.00896, 0.954036, 1.05235, 1.06389, 1.04641, 1.04448, 0.967063, 0.96891, 0.0116906, 0.00317142, 0.687254, 0.627928, 0.543448, 0.602093, 0.607443, 0.608658, 0.607732, 0.584262, 0.518756, 0.518735, 0.814655, 0.876463, 0.853141, 0.800196, 0.95058, 0.699621, 0.653, 0.00323622, 0.876563, 0.776482, 0.667361, 0.66947, 0.702503, 0.723091, 0.676509, 0.696425, 0.781878, 0.784498, 0.832522, 0.792144, 0.795063, 0.764615, 0.725335, 0.622967, 0.625349, 0.649736, 0.641163, 0.727862, 0.704587, 0.835329, 0.655885, 0.605343, 0.655986, 0.685705, 0.733379, 0.645725, 0.811427, 0.00332966, 0.00351257, 0.00367106, 0.507721, 0.369403, 0.437606, 0.439054, 0.508035, 0.512564, 0.537857, 0.539766, 0.410036, 0.458728
1.9806, 2.00131, 0.00376863, 1.77219, 1.72806, 1.74162, 1.78154, 1.76482, 0.00338351, 1.97244, 1.97388, 1.72533, 1.62841, 1.67246, 1.65885, 1.68148, 1.78054, 1.78636, 1.95476, 1.89064, 1.52952, 1.57884, 1.56051, 1.54881, 1.58562, 1.60348, 1.6507, 1.72604, 1.71863, 0.00317598, 1.54409, 1.46798, 1.51482, 1.5931, 1.62993, 1.6588, 1.74167, 1.73126, 1.75614, 1.44601, 1.36763, 1.36727, 1.45206, 1.4898, 1.52651, 1.68651, 1.73816, 1.71655, 1.37851, 1.34313, 1.34915, 1.40542, 1.43249, 1.54153, 1.61681, 1.60242, 1.50194, 1.3581, 1.32743, 1.33092, 1.323, 1.37241, 1.38273, 1.50496, 1.67116, 1.33532, 1.30303, 1.28096, 1.4607, 0.00363039, 1.50684, 1.38126, 1.55194, 1.32536, 1.30198, 1.27491, 1.32042, 1.38065, 1.45078, 1.56472, 0.00349328, 1.72048, 1.63018, 1.38206, 1.37072, 1.3595, 1.43063, 1.42098, 1.42326, 1.61799, 1.52298, 1.51665, 1.60398, 1.5768, 1.57937, 1.72794, 0.00320848, 0.00361279, 1.9182, 0.0106526, 0.00323589, 0.00340519, 1.74148, 1.71304, 1.72289, 1.87396, 0.00306912, 1.98279, 0.00345916, 2.09129, 2.23954, 0.00360098, 0.00345151, 0.0109225, 1.85933, 1.8331, 1.84465, 0.00328957, 1.89877, 1.9807, 0.00324921, 1.96032, 0.00323551, 1.99216, 1.93621, 1.9268, 1.9759, 1.887, 1.80558, 1.75963, 1.64393, 1.64412, 0.00344321, 0.00341215, 0.00342002, 0.941576, 0.929955, 0.86726, 0.990831, 0.974662, 0.807458, 0.00370249, 0.76803, 0.690798, 0.718021, 0.715061, 0.731796, 0.784245, 0.821672, 0.742364, 0.743111, 0.737826, 0.707771, 0.70792, 0.756777, 0.771079, 0.856352, 0.905435, 0.942391, 1.01306, 1.09436, 0.767462, 0.743456, 0.758086, 0.835826, 0.895287, 0.950553, 0.960142, 1.09805, 1.03993, 0.736103, 0.735495, 0.717299, 0.776441, 0.909833, 0.952751, 0.991128, 1.10784, 1.11195, 0.817589, 0.817446, 0.818261, 0.741239, 0.828609, 0.00332716, 0.987804, 1.02773, 1.02834, 0.712894, 0.714316, 0.71312, 0.933371, 0.915677, 0.931835, 0.99467, 0.869154, 0.784827, 0.756472, 0.722729, 0.775019, 0.857533, 0.846279, 1.04904, 1.09854, 1.12182, 0.818815, 0.751574, 0.752373, 0.797577, 1.01534, 0.966367, 1.15708, 1.20514, 1.18967, 1.15479, 1.11533, 1.12284, 1.03041, 1.046, 1.02722, 1.03666, 0.976697, 0.99933, 1.10178, 1.13827, 1.24427, 1.31216, 0.00353064, 0.985562, 0.988088, 0.978279, 0.954731, 0.00325695, 1.03997, 1.03902, 1.03299, 1.0232, 0.995159, 0.00329563, 0.642923, 0.613596, 0.614633, 0.497829, 0.49885, 0.617499, 0.508198, 0.545801, 0.546945, 0.5213, 0.523636, 0.864719, 0.857304, 0.900372, 0.870951, 0.871222, 0.678036, 0.664817, 0.873464, 0.875053, 0.8615, 0.721322, 0.676056, 0.684577, 0.663577, 0.673309, 0.603781, 0.638256, 0.686515, 0.752718, 0.859918, 0.817501, 0.694468, 0.617459, 0.56784, 0.62238, 0.594903, 0.638998, 0.667998, 0.90257, 0.688262, 0.653141, 0.628143, 0.631073, 0.683028, 0.714549, 0.783288, 0.00305572, 0.00350324, 0.00383197, 0.00338702, 0.48084, 0.36866, 0.369762, 0.463409, 0.43832, 0.438643, 0.497605, 0.410215, 0.472856, 0.458847
2.00273, 2.02787, 1.92939, 1.80783, 1.75112, 1.73663, 1.81729, 1.81858, 1.87372, 0.00337336, 0.00338414, 1.67051, 1.67148, 1.62063, 1.68521, 1.73446, 1.82838, 1.801, 1.81964, 1.80196, 1.58656, 1.55782, 1.51325, 1.5561, 1.62744, 1.68218, 1.69246, 1.73134, 1.79905, 1.79895, 1.58845, 1.51059, 1.48492, 1.60278, 1.62816, 1.60628, 1.73866, 1.77648, 1.69332, 1.36834, 1.35884, 1.40684, 1.4338, 1.49512, 1.52162, 1.62898, 1.6771, 1.67788, 1.36855, 1.31987, 1.31966, 1.37092, 1.42103, 1.54693, 1.55397, 1.58862, 1.42233, 1.41978, 1.29022, 1.29857, 1.3011, 1.35772, 1.36499, 1.54692, 1.62083, 1.3122, 1.28416, 1.28267, 1.29516, 1.29464, 1.45803, 1.48109, 1.48373, 1.32709, 1.297, 1.313, 1.31415, 1.44316, 1.44102, 1.50872, 1.69542, 1.76132, 1.84447, 1.4072, 1.34283, 1.38493, 1.40018, 1.56577, 1.49152, 1.64454, 0.0111482, 1.57016, 1.55318, 1.60383, 1.61463, 1.70597, 1.81169, 0.00331779, 1.89733, 0.0107533, 0.00319867, 0.00337343, 1.76272, 1.73139, 1.71708, 1.71708, 0.00340671, 0.00321631, 2.02174, 0.00327334, 0.0111259, 0.00305913, 0.00323251, 0.00344819, 1.85495, 1.85719, 1.8487, 1.92508, 1.93862, 1.96884, 1.93182, 0.00348279, 2.03275, 2.12539, 1.98742, 1.98664, 1.88287, 0.00312929, 0.00322971, 1.58588, 1.50766, 0.00343126, 1.50601, 0.00311298, 1.39937, 0.863337, 0.83947, 0.860094, 0.804818, 0.918083, 0.808418, 0.806955, 0.750085, 0.639055, 0.637793, 0.631868, 0.701296, 0.77441, 0.823152, 0.957691, 0.948148, 0.960868, 0.709672, 0.710818, 0.765666, 0.76404, 0.847881, 0.929061, 0.976191, 1.05108, 1.04022, 0.791314, 0.742951, 0.762614, 0.761142, 0.869903, 0.978988, 0.960232, 1.04713, 1.03777, 0.8937, 0.702417, 0.702119, 0.776092, 0.876969, 0.819797, 0.962982, 1.06706, 1.04523, 0.781379, 0.795116, 0.739235, 0.739203, 0.870943, 1.0154, 0.980676, 1.08091, 1.00472, 0.743948, 0.780342, 0.779889, 0.814616, 0.950027, 0.990522, 0.990828, 1.06959, 1.07355, 0.763623, 0.724356, 0.723497, 0.787427, 0.921871, 1.09549, 1.10007, 1.08387, 0.749491, 0.762142, 0.760884, 0.821998, 1.01907, 0.965328, 1.16207, 1.1273, 1.12933, 1.12305, 1.09468, 1.08509, 1.06409, 1.06687, 1.06717, 1.01963, 1.04254, 1.01598, 1.02636, 0.00310736, 1.39803, 1.24634, 0.00334204, 1.21368, 0.98795, 0.957232, 0.919736, 0.00348722, 1.03667, 1.03945, 1.01495, 1.0093, 0.00328469, 0.00377908, 0.00324307, 0.567572, 0.611665, 0.50372, 0.497175, 0.576011, 0.560182, 0.576281, 0.543161, 0.611057, 0.5713, 0.843013, 0.874063, 0.889278, 0.800236, 0.800356, 0.657876, 0.610082, 0.694384, 0.861337, 0.866087, 0.863694, 0.702076, 0.724506, 0.664459, 0.616451, 0.603855, 0.63748, 0.676384, 0.767679, 0.00350274, 0.837164, 0.00303882, 0.63215, 0.634639, 0.52555, 0.525263, 0.565161, 0.562436, 0.697693, 0.690599, 0.693832, 0.563851, 0.565942, 0.712403, 0.712623, 0.81125, 0.78277, 0.71132, 0.00363718, 0.0033094, 0.429679, 0.364812, 0.356212, 0.357432, 0.439051, 0.439362, 0.511739, 0.4114, 0.411504, 0.483749
2.00024, 1.94567, 1.90966, 1.83641, 1.74803, 1.71645, 1.75872, 1.77592, 0.00302637, 1.96507, 2.0394, 1.67728, 1.67501, 1.62816, 1.64492, 1.67231, 1.80812, 1.85051, 1.89973, 1.90077, 1.5775, 1.57606, 1.51805, 1.5365, 1.57612, 0.0032831, 1.74849, 1.75279, 1.76422, 1.77633, 1.51912, 1.47721, 1.5017, 1.52632, 1.58653, 1.63043, 1.71755, 1.7858, 1.80867, 1.40868, 1.35812, 1.41923, 1.45054, 1.45061, 1.50391, 1.54438, 1.59301, 1.47836, 1.44635, 1.32346, 1.35036, 1.39851, 1.44906, 1.58092, 1.61123, 1.60365, 1.41986, 1.40619, 1.29162, 1.30403, 1.29571, 1.36543, 0.00339583, 1.69524, 1.6861, 1.32653, 1.28402, 1.2909, 1.29616, 1.34981, 1.34962, 0.00348693, 0.00334746, 0.00346638, 1.37528, 1.37482, 1.37457, 1.3785, 1.46629, 1.57055, 1.62857, 1.72167, 1.83026, 1.42767, 1.34544, 1.39756, 1.42564, 1.49489, 1.60579, 1.7049, 1.88013, 1.58387, 1.61854, 1.63426, 1.68965, 1.65866, 1.77238, 0.0110843, 0.00284455, 1.93846, 1.90961, 0.00317096, 1.79972, 1.75418, 1.74904, 1.79329, 0.00336681, 0.0108988, 2.05501, 2.06766, 2.06707, 2.05197, 0.00326445, 2.01988, 1.88839, 1.87974, 1.88753, 0.003612, 0.0033121, 0.0112187, 0.00326293, 1.97936, 0.00334727, 0.0110315, 0.00368731, 1.94257, 0.00323717, 0.00351227, 0.00350149, 0.00368401, 1.42734, 0.0112821, 0.00347123, 1.30996, 0.00349575, 0.765783, 0.763512, 0.821664, 0.963563, 0.922515, 0.80581, 0.954139, 0.74856, 0.698066, 0.636694, 0.680125, 0.702686, 0.76019, 0.759117, 0.988846, 0.989529, 1.06317, 0.710798, 0.709869, 0.709377, 0.838678, 0.784085, 0.958365, 0.928355, 0.992216, 1.04903, 0.794573, 0.777, 0.776846, 0.763277, 0.799238, 0.952675, 0.926713, 0.925785, 0.933231, 0.966753, 0.701198, 0.700349, 0.833067, 0.824431, 0.824794, 1.05652, 1.02461, 1.02538, 0.804696, 0.779903, 0.791007, 0.785691, 0.926489, 1.01579, 1.07015, 1.02627, 1.04697, 0.791072, 0.722477, 0.746484, 0.817898, 0.00331103, 0.944463, 0.990242, 1.03982, 0.83341, 0.733277, 0.730073, 0.728062, 0.0034972, 1.05996, 1.06176, 1.0501, 1.10777, 1.06676, 0.792333, 0.760237, 0.00330544, 0.856517, 0.00337596, 1.16486, 1.1429, 1.15092, 1.14739, 1.20216, 0.0030843, 1.19545, 1.06227, 1.05397, 0.997638, 1.01265, 1.03235, 1.00102, 1.04985, 0.0106805, 1.22177, 1.21875, 1.21887, 0.969799, 0.96466, 0.939238, 0.914695, 0.00335531, 0.00307875, 0.9709, 1.02205, 0.929058, 0.0030565, 0.0109841, 0.00350829, 0.573037, 0.505372, 0.576111, 0.547573, 0.548249, 0.609167, 0.524402, 0.54958, 0.550349, 0.852776, 0.87458, 0.877408, 0.805016, 0.00338664, 0.611686, 0.612379, 0.611984, 0.00341111, 0.884131, 0.887029, 0.753371, 0.719348, 0.687176, 0.666103, 0.629236, 0.690748, 0.662728, 0.00356282, 0.829747, 0.82879, 0.640574, 0.640832, 0.52179, 0.566232, 0.565969, 0.534307, 0.534813, 0.618386, 0.69458, 0.694019, 0.566867, 0.569066, 0.569114, 0.731198, 0.689897, 0.673457, 0.759577, 0.745287, 0.00354185, 0.476801, 0.3691, 0.369453, 0.438344, 0.43813, 0.438948, 0.516094, 0.517395, 0.395869, 0.408006
2.05857, 0.00359045, 1.92366, 1.82419, 1.76386, 1.7076, 1.75351, 1.76233, 1.80021, 1.89231, 1.91569, 1.65033, 1.65553, 1.63447, 1.6249, 1.70262, 1.768, 1.81623, 1.9005, 0.00305171, 1.60306, 1.568, 1.50642, 1.52666, 1.57429, 1.6133, 1.7963, 1.79769, 1.80988, 1.51037, 1.51339, 1.5644, 1.51118, 1.52929, 1.6028, 1.65591, 1.75063, 1.73432, 0.00323503, 1.40307, 1.38597, 1.36941, 1.41238, 1.46105, 1.4638, 1.46692, 1.46816, 1.33458, 1.34044, 1.32055, 1.36133, 1.43819, 1.49153, 1.51347, 1.60333, 1.74481, 1.48176, 1.36503, 1.29896, 1.29893, 1.3139, 1.33619, 1.36775, 1.3672, 1.66171, 1.34528, 1.27822, 1.27818, 1.30747, 1.34605, 1.48572, 1.4882, 0.00312326, 1.37672, 1.32248, 1.37417, 1.3706, 1.40889, 0.0114817, 1.59939, 1.74652, 1.75904, 0.00325849, 1.48029, 1.36363, 1.43793, 1.41039, 1.52003, 1.52426, 0.00311685, 0.00326175, 1.63227, 1.71761, 1.7165, 1.76622, 1.75519, 1.7578, 1.81434, 1.93454, 1.94557, 1.90886, 1.90712, 1.88469, 1.77912, 1.7853, 1.82836, 1.83402, 0.00350336, 0.011051, 0.0030493, 2.29753, 0.00351908, 2.10022, 0.00317598, 0.00365874, 2.11118, 0.0033206, 0.00335444, 0.00359844, 0.00316716, 2.1118, 2.01813, 1.99155, 1.98593, 1.99262, 0.0036441, 1.34073, 1.24764, 1.31218, 1.32087, 1.36654, 1.35403, 1.33301, 0.00350333, 0.811905, 0.81276, 0.762982, 0.891115, 0.833302, 0.833594, 0.954809, 0.0031556, 0.00315892, 0.77695, 0.651602, 0.650539, 0.713013, 0.743437, 0.774374, 0.964105, 0.926256, 1.00843, 0.763986, 0.710298, 0.745455, 0.794219, 0.853508, 0.930089, 0.918122, 0.917744, 1.03403, 0.842327, 0.768935, 0.751839, 0.75051, 0.775494, 0.864185, 1.01562, 1.09347, 1.09644, 0.799683, 0.685781, 0.685637, 0.743456, 0.825088, 0.825198, 1.01846, 1.01366, 1.08426, 0.00309248, 0.815016, 0.815818, 0.756225, 0.757534, 1.05437, 1.037, 1.04309, 1.04735, 0.857217, 0.722464, 0.848109, 0.845445, 0.852649, 0.942682, 0.991466, 1.05899, 0.822108, 0.728516, 0.731185, 0.785009, 0.783645, 0.954766, 1.06199, 1.08044, 1.02032, 0.92965, 0.915694, 0.935724, 0.866773, 0.829936, 0.884667, 1.14589, 1.14631, 1.17337, 1.17529, 1.19267, 1.19085, 1.13181, 1.07052, 1.06335, 1.03607, 1.03687, 0.948285, 0.948972, 1.02708, 0.974146, 0.984133, 0.984152, 0.96431, 0.933148, 0.922543, 0.84654, 0.87468, 0.971565, 0.975168, 0.968309, 0.941914, 0.861109, 0.842136, 0.652656, 0.670445, 0.50212, 0.622054, 0.545458, 0.548231, 0.547756, 0.619323, 0.515105, 0.583706, 0.55071, 0.576642, 0.782155, 0.782753, 0.868292, 0.867306, 0.601247, 0.619536, 0.678044, 0.761473, 0.889073, 0.908647, 0.847948, 0.765817, 0.760378, 0.611221, 0.6111, 0.724833, 0.691832, 0.853591, 0.00323454, 0.894013, 0.00320421, 0.651698, 0.640525, 0.595275, 0.510385, 0.53581, 0.566331, 0.624797, 0.625376, 0.705724, 0.590704, 0.568917, 0.736544, 0.741907, 0.772796, 0.673097, 0.688647, 0.759854, 0.705814, 0.408005, 0.369045, 0.370142, 0.469104, 0.445022, 0.501222, 0.417909, 0.419607, 0.388711, 0.399873
2.06523, 1.93175, 1.9335, 1.81055, 1.76051, 1.74129, 1.7488, 1.76725, 1.80806, 1.85497, 1.70737, 1.68562, 1.60781, 1.6756, 1.64996, 1.7088, 1.76295, 1.84088, 1.95161, 1.88513, 1.65807, 1.68619, 1.51437, 1.51026, 1.55263, 1.59939, 1.77808, 1.78166, 1.78772, 1.50352, 1.49099, 1.50935, 1.56535, 1.58821, 1.58933, 1.71037, 1.73687, 1.76099, 1.37498, 1.37215, 1.35876, 1.37568, 1.42368, 1.46276, 1.47552, 1.46546, 0.00340518, 1.34449, 1.3139, 1.32983, 1.37492, 1.42967, 1.43012, 1.537, 1.54989, 1.64277, 1.43611, 1.41281, 1.32018, 1.28576, 1.34886, 1.39312, 1.3675, 1.36778, 1.6305, 1.35688, 1.29664, 1.27977, 1.39909, 1.60223, 1.52715, 1.56544, 1.70566, 1.44137, 1.36801, 1.3755, 1.37807, 1.44379, 1.49868, 1.61412, 1.69253, 1.80144, 0.00328476, 1.37271, 1.37221, 1.48589, 1.4165, 1.56177, 1.57502, 1.97945, 0.0034417, 1.67559, 1.66524, 1.75027, 1.65212, 1.74301, 1.84396, 1.97959, 0.00359236, 1.93833, 2.03851, 1.93717, 1.92839, 1.88546, 1.86954, 1.83591, 1.81063, 1.82784, 0.0032935, 0.0106029, 0.00353744, 0.0031919, 0.003643, 1.98779, 0.00332048, 2.10048, 2.0276, 2.04863, 0.00349491, 0.00307055, 0.00377186, 0.00337779, 0.00327365, 2.15565, 0.00368046, 0.00364597, 0.00308845, 0.003477, 0.00347056, 1.24132, 0.00345538, 1.10232, 1.07055, 0.00317007, 0.797974, 0.735883, 0.736329, 0.857694, 0.828154, 0.969889, 1.00459, 1.01865, 1.01953, 0.716286, 0.651351, 0.649702, 0.731554, 0.725326, 0.790961, 0.920846, 0.997425, 0.996098, 0.805254, 0.70903, 0.778705, 0.770949, 0.85631, 0.85421, 0.866663, 0.957818, 0.988808, 0.83976, 0.718432, 0.751171, 0.750553, 0.794698, 0.003213, 1.08759, 1.10085, 1.10062, 0.688061, 0.687868, 0.737881, 0.746431, 0.794753, 0.918387, 1.04038, 1.00226, 1.00783, 1.00513, 0.850195, 0.751, 0.728344, 0.770817, 0.843401, 0.980822, 1.01559, 1.01543, 0.736288, 0.736181, 0.756538, 0.821908, 0.76307, 0.792204, 0.757611, 1.05477, 0.793857, 0.72938, 0.747576, 0.781697, 0.832041, 0.934008, 1.06914, 1.12173, 1.07202, 1.00054, 1.00188, 0.950847, 0.936428, 0.00352479, 0.00331254, 1.15029, 1.18112, 1.14259, 1.14311, 1.22676, 0.00323648, 1.07091, 1.17231, 1.22076, 1.04295, 0.991417, 0.981107, 1.05365, 1.0537, 0.00343525, 1.16452, 1.15855, 0.953745, 0.963807, 0.871346, 0.848021, 0.855983, 0.912167, 0.986854, 0.973322, 0.0030669, 0.911233, 0.911797, 0.612038, 0.536274, 0.537211, 0.551632, 0.556686, 0.568368, 0.565507, 0.612127, 0.624869, 0.518054, 0.599719, 0.639997, 0.865917, 0.755318, 0.757409, 0.741862, 0.65181, 0.664458, 0.670258, 0.762012, 0.886471, 0.907427, 0.00379861, 0.690515, 0.732323, 0.605786, 0.606877, 0.725001, 0.760591, 0.733622, 0.780589, 0.755785, 0.648123, 0.662838, 0.644416, 0.553273, 0.514067, 0.521897, 0.6506, 0.00332118, 0.693429, 0.707485, 0.640199, 0.603602, 0.69361, 0.692267, 0.7878, 0.859643, 0.786375, 0.662883, 0.500928, 0.49278, 0.442997, 0.473537, 0.473093, 0.490828, 0.512588, 0.520988, 0.513659, 0.387012, 0.390333
2.08013, 2.06733, 0.00377346, 1.74837, 1.71153, 1.75772, 1.72078, 1.78562, 1.82389, 1.80461, 1.80042, 1.67374, 1.60272, 1.66235, 1.71628, 1.71527, 0.00351271, 0.00324738, 1.87226, 1.87567, 1.70124, 1.55546, 1.57504, 1.50878, 1.54758, 0.0032485, 1.7211, 1.78211, 1.79373, 1.48934, 1.43668, 1.45794, 1.45667, 1.55889, 1.6055, 1.64426, 1.73977, 1.74374, 1.37216, 1.35807, 1.34443, 1.38436, 1.5484, 1.54993, 1.5763, 1.76471, 1.74445, 1.39509, 1.31204, 1.38404, 1.38336, 1.4205, 1.43999, 1.51688, 1.52998, 1.53114, 1.56289, 1.40608, 1.32065, 1.29901, 1.30344, 1.35714, 1.36982, 1.36959, 1.62606, 1.3153, 1.26944, 1.27643, 1.44315, 1.55934, 1.46836, 1.60764, 1.74392, 1.39548, 1.33643, 1.35626, 1.36017, 1.36155, 1.54312, 1.56541, 1.69851, 1.69971, 1.80352, 1.43297, 1.38127, 1.47275, 1.45537, 1.49509, 1.58998, 1.70712, 1.95968, 1.69796, 1.67116, 1.74227, 1.7929, 0.00330583, 1.84813, 0.00340903, 0.00350218, 0.0036292, 0.00339467, 0.00341701, 1.95532, 1.86359, 1.78145, 1.80986, 1.7449, 1.74635, 1.78971, 1.81667, 0.0032902, 0.00340989, 0.0037451, 2.05302, 2.01474, 2.05311, 2.09551, 1.93715, 2.066, 0.00318199, 0.00328829, 2.11026, 0.00322343, 0.0036337, 0.00298616, 0.00331275, 1.0461, 0.00313927, 1.04909, 0.00338021, 0.00346865, 1.2064, 1.15459, 1.01901, 0.79829, 0.724912, 0.794675, 0.808144, 0.893143, 0.974222, 1.0103, 1.01943, 1.01922, 0.730338, 0.649375, 0.666655, 0.738663, 0.748312, 0.801699, 0.859885, 1.00514, 1.04393, 0.805182, 0.77392, 0.784191, 0.854264, 0.821202, 0.913332, 0.988451, 0.981266, 0.987822, 0.819386, 0.724269, 0.72128, 0.822355, 0.851399, 0.848966, 0.966397, 1.03573, 1.04116, 0.739853, 0.691051, 0.70099, 0.757423, 0.817807, 0.826492, 0.977956, 1.02978, 1.02875, 0.955753, 0.825668, 0.725333, 0.815457, 0.819688, 0.843261, 0.946103, 1.04123, 1.0009, 0.73516, 0.756433, 0.756949, 0.757314, 0.875109, 0.792148, 1.03855, 1.05842, 0.734753, 0.735226, 0.748059, 0.812812, 0.881857, 0.985382, 1.04633, 1.08259, 1.0765, 1.04768, 1.00141, 0.939134, 0.997746, 1.02191, 1.17143, 1.19182, 1.28851, 0.00323852, 1.12596, 1.10901, 1.07358, 1.05942, 1.17394, 1.02641, 1.03347, 0.991066, 0.963258, 0.956391, 1.17813, 1.18068, 1.14389, 1.15423, 1.19515, 0.0034175, 0.868546, 0.821854, 0.83249, 0.87065, 0.986521, 0.987512, 1.15557, 0.932965, 0.60894, 0.632082, 0.679707, 0.539137, 0.548805, 0.569259, 0.562769, 0.557286, 0.558345, 0.531552, 0.607564, 0.605723, 0.81533, 0.81483, 0.85239, 0.85437, 0.743569, 0.680817, 0.649766, 0.692762, 0.816, 0.816153, 0.853367, 0.00327527, 0.672933, 0.667901, 0.60516, 0.597841, 0.725894, 0.753982, 0.781461, 0.781413, 0.755563, 0.710526, 0.634958, 0.511497, 0.513324, 0.554762, 0.521666, 0.577029, 0.554184, 0.555576, 0.639309, 0.63929, 0.563711, 0.690557, 0.66288, 0.755577, 0.75871, 0.769504, 0.792003, 0.00336952, 0.473695, 0.506282, 0.496494, 0.484748, 0.463712, 0.541303, 0.602356, 0.486717, 0.496454, 0.461437
0.00341191, 2.01777, 0.00338928, 1.7657, 1.71261, 1.71241, 1.74104, 1.80603, 1.80698, 0.00322206, 1.96371, 1.67158, 1.67228, 1.63669, 1.66307, 1.7269, 1.73815, 1.78643, 1.87277, 1.87555, 0.00340339, 1.50901, 1.51123, 1.5472, 1.54427, 1.73054, 1.72745, 1.73819, 1.77119, 1.54352, 1.45212, 1.45845, 1.45844, 1.57079, 1.57012, 1.70052, 1.70846, 1.76651, 1.40908, 1.34725, 1.37004, 1.40227, 1.4092, 1.53281, 0.00364265, 0.00348245, 1.41973, 1.36139, 1.30991, 1.30937, 1.44462, 1.42041, 1.56007, 1.54829, 1.61864, 0.00316443, 0.00308581, 1.42788, 1.32647, 1.3407, 1.35088, 1.37265, 1.37031, 1.37036, 1.36684, 1.32975, 1.26618, 1.32192, 1.28911, 1.4761, 1.4539, 1.55837, 1.41206, 1.44057, 1.35831, 1.41892, 1.41123, 1.40538, 0.00323894, 1.65253, 1.65255, 1.69005, 0.00339569, 1.38897, 1.38973, 1.59036, 1.42993, 1.48132, 1.60351, 1.77373, 0.00322266, 1.71933, 1.74014, 1.75746, 1.69507, 1.77561, 1.83921, 0.00350449, 0.00340263, 0.00359765, 0.00341034, 0.00352512, 0.00343459, 0.0109352, 0.00371648, 1.7859, 1.79608, 1.79525, 1.76292, 1.90838, 0.00318273, 0.00330841, 0.0033579, 0.00364952, 2.13471, 0.00341575, 2.09639, 2.09723, 0.00349667, 0.00344257, 0.00332312, 0.0034755, 0.00336687, 0.00357626, 0.00352698, 0.00317927, 0.00323221, 0.950408, 0.957728, 0.970319, 1.04559, 1.04518, 1.05688, 0.989312, 0.816003, 0.725717, 0.725473, 0.808899, 0.839469, 0.953482, 0.955029, 1.01864, 1.01911, 1.05078, 0.649654, 0.711571, 0.737269, 0.800932, 0.801805, 0.991915, 1.0076, 1.00878, 0.756822, 0.701599, 0.701151, 0.739033, 0.80635, 0.875162, 0.99107, 0.99147, 1.02462, 0.819189, 0.816273, 0.727235, 0.802375, 0.859638, 0.833461, 1.02242, 0.973636, 1.06397, 0.692409, 0.692955, 0.702049, 0.806418, 0.806212, 0.883643, 0.914194, 0.961439, 1.02626, 0.949843, 0.886989, 0.774235, 0.797583, 0.777306, 0.870169, 0.968487, 1.0415, 0.825584, 0.769436, 0.736221, 0.859809, 0.934815, 0.875815, 1.02678, 1.02658, 1.05505, 0.767133, 0.734611, 0.774312, 0.892229, 0.912661, 1.01861, 1.02543, 1.08167, 1.08342, 1.06692, 1.01257, 1.05083, 0.999148, 0.963103, 1.00633, 1.24142, 1.24293, 1.31184, 1.13426, 1.08552, 1.07528, 0.00343562, 1.17722, 1.18045, 1.00764, 1.00916, 0.979361, 1.02116, 1.14019, 1.12607, 1.15441, 1.15672, 1.15854, 0.81462, 0.818119, 0.804748, 0.84894, 0.865186, 0.987171, 1.03517, 0.978388, 0.952605, 0.640078, 0.550226, 0.677701, 0.573432, 0.546072, 0.559189, 0.5524, 0.558443, 0.503745, 0.56821, 0.489203, 0.517352, 0.635495, 0.802475, 0.822429, 0.855677, 0.797421, 0.72818, 0.737661, 0.738777, 0.817718, 0.819176, 0.814521, 0.833414, 0.00349488, 0.649679, 0.604852, 0.660463, 0.660861, 0.660761, 0.741343, 0.762214, 0.761329, 0.716333, 0.642164, 0.635405, 0.516055, 0.515365, 0.521657, 0.552874, 0.553246, 0.55433, 0.553174, 0.579957, 0.563094, 0.715599, 0.640039, 0.00320103, 0.799431, 0.772455, 0.803725, 0.46847, 0.447073, 0.449889, 0.435545, 0.437441, 0.535506, 0.531839, 0.387084, 0.386016, 0.458749, 0.402029
0.00342027, 2.08095, 0.0035616, 1.75598, 1.71745, 1.73317, 1.75906, 1.79022, 1.88695, 0.00341422, 1.89635, 1.66838, 1.58471, 1.62096, 1.69332, 1.70989, 1.78575, 0.00337641, 1.91709, 0.00336691, 1.69701, 1.54733, 1.51201, 1.5225, 1.5537, 0.00345672, 1.79822, 0.0033222, 1.78098, 1.51763, 1.50824, 1.46553, 1.48892, 1.53384, 1.6063, 1.68975, 1.73078, 1.77588, 1.45526, 1.36163, 1.37007, 1.45034, 1.42303, 1.51684, 1.59547, 1.78789, 1.38222, 1.36524, 1.30674, 1.30704, 1.33651, 0.00331271, 0.00323449, 1.57649, 1.67138, 1.67314, 1.67905, 1.3579, 1.31013, 1.30949, 1.3761, 1.46882, 1.4236, 1.41542, 1.36069, 1.36424, 1.29507, 1.24749, 1.36086, 1.51212, 1.48138, 1.5758, 1.62014, 1.35932, 1.31637, 1.31275, 1.35436, 1.46699, 1.46886, 1.65012, 1.68878, 1.69506, 1.68768, 1.42728, 1.37772, 1.40137, 1.4522, 1.49967, 0.00361641, 0.00337449, 1.96156, 1.93798, 1.7339, 1.7095, 1.79006, 1.80285, 0.00325139, 0.00313895, 0.00322947, 0.00317731, 0.00346915, 0.00329495, 0.00303218, 2.04912, 0.00380826, 1.83758, 1.81177, 1.78761, 1.78333, 1.91474, 0.00323995, 0.00340503, 0.00327139, 0.00338659, 0.00336238, 0.00303584, 2.1385, 0.0032338, 2.0767, 0.00323252, 0.00308516, 2.0212, 2.02152, 0.00342655, 0.00338915, 0.00332126, 0.00347002, 0.95592, 0.956674, 0.00355584, 0.964643, 1.05572, 0.969961, 0.968426, 0.801182, 0.775307, 0.782066, 0.829693, 0.824563, 0.726547, 0.703314, 1.02021, 1.05591, 1.02299, 0.674899, 0.67595, 0.743092, 0.781574, 0.854065, 1.01574, 1.01341, 1.05654, 0.748374, 0.700969, 0.703921, 0.747039, 0.808557, 0.887823, 0.88623, 0.998459, 1.04842, 0.791919, 0.779631, 0.730793, 0.81933, 0.81555, 0.828382, 1.00935, 0.983311, 0.979809, 0.697488, 0.697653, 0.697938, 0.735508, 0.79907, 0.777164, 0.785722, 0.788433, 0.960609, 0.773557, 0.908809, 0.743278, 0.787477, 0.789967, 0.876286, 0.792872, 0.86425, 0.780108, 0.732994, 0.733303, 0.790166, 0.874315, 0.00338809, 1.02246, 1.06838, 1.0607, 0.764362, 0.731747, 0.823477, 0.825117, 0.873187, 1.006, 1.09088, 1.10118, 1.1196, 1.05345, 1.09956, 1.05766, 1.07232, 1.06773, 1.04895, 1.03036, 1.24689, 1.24459, 1.03587, 1.03851, 1.02111, 1.26243, 1.26685, 1.18972, 0.989774, 0.953634, 0.933649, 0.920204, 0.00336227, 1.10159, 1.10958, 1.12775, 1.18651, 0.00305256, 0.827463, 0.837001, 0.827596, 0.883274, 0.861092, 0.999526, 1.04714, 0.929603, 0.00328704, 0.550215, 0.667671, 0.577155, 0.549387, 0.549074, 0.553042, 0.554473, 0.582867, 0.587256, 0.492398, 0.490383, 0.564532, 0.798232, 0.846018, 0.847239, 0.808263, 0.715729, 0.735472, 0.790874, 0.846235, 0.00339998, 0.904245, 0.906462, 0.705077, 0.707554, 0.676001, 0.663503, 0.669594, 0.692502, 0.704157, 0.770369, 0.764095, 0.767883, 0.622113, 0.573953, 0.519294, 0.519487, 0.546543, 0.513717, 0.521423, 0.538453, 0.564624, 0.560969, 0.653179, 0.506589, 0.474076, 0.00329266, 0.780002, 0.00347094, 0.806585, 0.00328753, 0.446694, 0.450242, 0.432993, 0.437647, 0.498624, 0.502338, 0.476986, 0.375859, 0.377576, 0.405032
1.93838, 1.91405, 0.00368486, 1.7701, 1.76888, 1.74785, 1.77732, 1.77526, 1.82784, 1.89492, 1.93549, 1.69566, 1.67146, 1.64667, 1.69325, 1.71688, 1.81033, 1.81091, 0.00340971, 1.71998, 0.00302206, 1.5123, 1.49178, 1.54101, 1.55131, 0.003264, 1.76264, 1.74905, 1.53767, 1.52031, 1.47539, 1.46466, 1.46894, 1.50152, 0.00331875, 1.62022, 1.73543, 1.71429, 1.71671, 1.41613, 1.37748, 1.36469, 1.40134, 1.47827, 1.64886, 1.75814, 1.62553, 1.43687, 1.31214, 1.35032, 1.30524, 1.45399, 1.46861, 1.49514, 1.58493, 1.54319, 1.64114, 1.34837, 1.31419, 1.312, 1.30267, 1.41423, 1.37704, 1.37559, 1.41533, 1.37176, 1.28201, 1.24793, 1.45289, 1.47738, 1.46802, 1.56108, 1.59182, 1.38735, 1.32354, 1.34338, 1.39722, 1.42017, 1.5407, 1.65256, 1.69954, 1.69887, 1.74592, 1.4376, 1.43294, 1.38115, 1.50227, 1.48182, 0.00328609, 1.86431, 0.00328797, 1.98568, 1.74581, 1.74038, 1.79957, 0.00328096, 0.00326122, 0.00342342, 0.00340628, 2.14237, 0.00311547, 0.00316112, 0.00334437, 0.00334707, 2.06039, 1.85244, 0.00322596, 1.83829, 1.8204, 1.82807, 1.81898, 2.23172, 2.20748, 0.00313208, 0.0034954, 2.14912, 0.00297116, 2.09026, 0.00338939, 0.00329715, 2.01742, 0.00352261, 0.00342973, 0.0032836, 0.0031867, 0.0114745, 0.00313614, 1.03572, 0.847212, 0.840369, 1.00849, 1.04686, 1.00288, 1.00626, 0.797118, 0.702455, 0.703693, 0.703136, 0.8332, 0.736393, 0.861402, 1.02691, 1.04392, 0.761453, 0.678307, 0.681029, 0.78421, 0.804332, 0.828521, 0.977759, 1.01605, 1.02246, 0.749168, 0.778083, 0.695333, 0.797291, 0.797573, 0.871638, 0.921495, 0.980648, 1.0037, 0.974894, 0.732048, 0.731704, 0.742259, 0.842381, 0.84991, 0.995278, 1.00277, 0.69347, 0.694962, 0.697098, 0.704329, 0.784409, 0.815136, 0.859382, 1.02175, 0.788301, 0.994268, 0.919817, 0.816067, 0.745835, 0.784126, 0.856181, 0.00346235, 0.793171, 0.842843, 0.746006, 0.732836, 0.733844, 0.856152, 0.821647, 0.95664, 0.957669, 1.05106, 1.07651, 0.733733, 0.733136, 0.804331, 0.921232, 0.949876, 0.950524, 1.06049, 1.09949, 1.10202, 1.12222, 1.05288, 1.09958, 1.16719, 1.07307, 1.10129, 0.00324769, 1.25163, 1.25431, 0.989902, 0.984325, 0.975762, 1.27531, 0.999083, 0.999653, 0.989424, 0.933744, 0.900037, 0.937106, 1.12343, 1.10229, 1.10314, 1.18706, 0.00355472, 1.01122, 0.805656, 0.819839, 0.817747, 0.897767, 0.890003, 0.00339379, 0.00321736, 0.0102995, 0.618064, 0.71657, 0.663694, 0.511349, 0.549187, 0.562103, 0.670456, 0.580416, 0.58102, 0.580622, 0.575549, 0.597351, 0.596382, 0.780488, 0.862904, 0.86266, 0.810744, 0.754159, 0.756299, 0.811364, 0.885013, 0.885981, 0.905384, 0.907582, 0.00339082, 0.683661, 0.701705, 0.573261, 0.691488, 0.694338, 0.696836, 0.748579, 0.749098, 0.7154, 0.615767, 0.626097, 0.524768, 0.526728, 0.52758, 0.513487, 0.539218, 0.580691, 0.582772, 0.54902, 0.577185, 0.474041, 0.47412, 0.461752, 0.489532, 0.500602, 0.501144, 0.534853, 0.434742, 0.486687, 0.432042, 0.513648, 0.487361, 0.534977, 0.502886, 0.375648, 0.379589, 0.369715
1.90826, 1.91752, 1.94658, 1.7414, 1.70768, 1.71748, 1.82999, 1.78981, 1.86825, 1.879, 1.95449, 1.82794, 1.60953, 1.60941, 1.66615, 1.69812, 1.7652, 0.00317168, 0.00316386, 1.85537, 0.00347909, 1.48491, 1.48458, 1.49767, 1.5532, 1.61212, 1.60487, 1.53677, 1.55791, 1.57558, 1.493, 1.49643, 1.49285, 1.50641, 1.51994, 1.64697, 1.72212, 1.71334, 0.00325596, 1.4544, 1.42266, 1.38543, 1.40622, 1.4418, 1.57369, 1.81741, 0.00330504, 1.48922, 1.30827, 1.30692, 1.30654, 1.42069, 1.4952, 1.47159, 1.51674, 1.50268, 1.4787, 1.36214, 1.35007, 1.31604, 1.37751, 1.34662, 1.37456, 1.37655, 1.4161, 1.3393, 1.33964, 1.29552, 1.31727, 1.36178, 1.45313, 1.55516, 1.67503, 1.36541, 1.33765, 1.29769, 1.29715, 1.41787, 1.48228, 1.64384, 1.6861, 1.65253, 1.67094, 1.47581, 1.43117, 1.50519, 1.50531, 1.47434, 1.47422, 0.00325311, 0.00338902, 1.83071, 1.78245, 1.78209, 1.79298, 0.00332171, 1.95956, 0.00350597, 0.0032755, 0.00327628, 0.00313019, 0.00317786, 0.00319909, 0.00343333, 2.06134, 2.06388, 1.87973, 0.0034237, 0.00353797, 0.00346447, 0.0033299, 1.80461, 0.00342916, 2.05105, 0.00359814, 0.0028643, 2.03045, 0.00325582, 0.00320676, 0.003472, 2.01635, 0.00314637, 0.00303268, 0.00316433, 1.35946, 0.00333015, 0.866845, 1.03754, 0.848372, 0.960094, 0.854077, 0.00316462, 1.15964, 0.813708, 0.804835, 0.714694, 0.702206, 0.714777, 0.832077, 0.85522, 0.85666, 0.984896, 0.96266, 0.714819, 0.680847, 0.685088, 0.75702, 0.785349, 0.817964, 1.00933, 1.03602, 0.754076, 0.750014, 0.746136, 0.706198, 0.774019, 0.866042, 0.842512, 0.892841, 0.999984, 0.998741, 0.991317, 0.736035, 0.742096, 0.742097, 0.84545, 0.837284, 1.00567, 1.04107, 0.973691, 0.691154, 0.731935, 0.835594, 0.860439, 0.817567, 0.911094, 0.99494, 1.01212, 0.980936, 0.975683, 0.801605, 0.739169, 0.73861, 0.874632, 0.00337152, 0.0032049, 1.06731, 0.821893, 0.732354, 0.767937, 0.854655, 0.807406, 0.907386, 1.03422, 1.03543, 1.05374, 0.785183, 0.735309, 0.826055, 0.826476, 0.895963, 0.936711, 1.0544, 1.14967, 1.09423, 1.09969, 1.08279, 1.08262, 1.14339, 0.0035015, 1.1046, 1.10564, 1.07413, 1.14824, 1.03688, 0.967407, 0.968461, 0.988953, 1.18441, 1.16349, 0.940791, 0.909782, 0.920186, 0.935429, 0.00365669, 1.14579, 0.00339255, 1.12388, 0.00296525, 0.992214, 0.818055, 0.787019, 0.823176, 0.820298, 0.820833, 0.00330666, 0.00337125, 0.00337408, 0.0031743, 0.00340952, 0.509751, 0.627372, 0.514301, 0.515327, 0.668184, 0.577767, 0.570765, 0.491366, 0.500799, 0.593777, 0.597194, 0.81156, 0.812936, 0.840495, 0.8083, 0.793845, 0.722001, 0.762066, 0.811522, 0.885449, 0.894524, 0.913462, 0.877827, 0.621189, 0.69913, 0.611236, 0.00356714, 0.659697, 0.655901, 0.759861, 0.74988, 0.717643, 0.631726, 0.614282, 0.590944, 0.602496, 0.586542, 0.538896, 0.655602, 0.650331, 0.652434, 0.50321, 0.486199, 0.486858, 0.524448, 0.461775, 0.462729, 0.50176, 0.496327, 0.432492, 0.441605, 0.352198, 0.358737, 0.330859, 0.331665, 0.453091, 0.4278, 0.379603, 0.37826, 0.368121
1.93049, 1.91544, 0.00310731, 1.73883, 1.71728, 1.73275, 1.7714, 1.77975, 1.81829, 0.00322556, 1.91062, 1.67863, 1.6888, 1.6167, 1.63683, 1.70268, 1.72361, 1.71404, 1.73119, 1.73715, 0.00330475, 1.59432, 1.48119, 1.49003, 1.55071, 1.56606, 1.56449, 1.78314, 1.77311, 1.53128, 1.47513, 1.48324, 1.48171, 1.5001, 1.53367, 1.63996, 0.00343354, 0.00342104, 0.00346711, 1.44439, 1.4539, 1.35445, 1.39245, 1.41984, 1.55725, 0.00326555, 0.00335389, 1.4024, 1.38998, 1.29843, 1.31468, 1.41943, 1.42077, 1.52641, 1.5091, 1.51896, 1.56452, 1.40195, 1.32132, 1.32294, 1.41732, 1.4306, 1.37728, 1.37619, 1.40484, 1.40839, 1.39016, 1.34398, 1.31058, 1.5448, 0.00341446, 1.67898, 1.64072, 1.4003, 1.32305, 1.28713, 1.33257, 1.37561, 1.43064, 1.51714, 1.67261, 1.68218, 1.67154, 1.48917, 1.50613, 1.49975, 1.49859, 1.44958, 0.00346129, 1.95792, 1.90126, 1.83731, 1.82592, 1.79476, 1.92052, 1.9709, 0.00329931, 0.00342815, 0.00318264, 0.00387585, 0.00309043, 0.00342596, 0.00350874, 0.00344911, 0.00333487, 1.98328, 0.00309854, 2.07653, 2.07041, 2.07942, 0.00316188, 0.00340367, 2.1414, 0.00314611, 1.79233, 0.00324271, 2.07241, 0.00337771, 0.00321768, 0.00393353, 0.00306075, 0.0033136, 1.34644, 1.3163, 0.00361058, 0.00322981, 0.853673, 0.836301, 0.835281, 0.00318633, 0.00334073, 1.01184, 1.03834, 1.03955, 0.760047, 0.743166, 0.728101, 0.705811, 0.816919, 0.828166, 0.855653, 0.996818, 0.963097, 0.680514, 0.670229, 0.71418, 0.748977, 0.817708, 0.87709, 0.876681, 1.02504, 0.935592, 0.776636, 0.776027, 0.764382, 0.78367, 0.827601, 0.87436, 0.960249, 0.99757, 0.965182, 0.991735, 0.814366, 0.767223, 0.801844, 0.743247, 0.743678, 0.739392, 1.0214, 0.714365, 0.677927, 0.740416, 0.853251, 0.857991, 0.867827, 0.871899, 1.00857, 1.01464, 1.05432, 0.905404, 0.752136, 0.752027, 0.803611, 0.888143, 0.88988, 1.03245, 1.10601, 1.10625, 0.776093, 0.758792, 0.821059, 0.951248, 0.960708, 1.04358, 1.06417, 1.05726, 0.809286, 0.798707, 0.851562, 0.802401, 0.945184, 0.936617, 1.10472, 1.08379, 1.08772, 1.08727, 1.11652, 1.07022, 1.08898, 1.2049, 1.10996, 1.06981, 1.07164, 1.06717, 0.990989, 0.965888, 0.998093, 0.987077, 0.968293, 0.966696, 0.932898, 0.962612, 0.961162, 0.0032409, 1.01788, 1.01892, 0.00319293, 1.09522, 0.00318875, 0.0109105, 0.796358, 0.753181, 0.690405, 0.69033, 0.870773, 0.00351999, 0.905373, 0.918758, 0.608859, 0.643032, 0.612079, 0.525145, 0.514936, 0.516485, 0.562328, 0.563163, 0.584864, 0.586933, 0.561626, 0.59358, 0.58778, 0.843043, 0.829684, 0.867396, 0.785381, 0.714264, 0.712732, 0.776683, 0.796894, 0.838502, 0.912993, 0.912845, 0.873631, 0.624338, 0.624039, 0.583733, 0.654089, 0.656657, 0.656858, 0.690617, 0.00302503, 0.649452, 0.631192, 0.658134, 0.658971, 0.582636, 0.58669, 0.583438, 0.529795, 0.59591, 0.562315, 0.502524, 0.49266, 0.499973, 0.503775, 0.711962, 0.660823, 0.763586, 0.80598, 0.725568, 0.421954, 0.398141, 0.308562, 0.309368, 0.480723, 0.449478, 0.429853, 0.378958, 0.375349, 0.341453
1.93443, 0.00310931, 1.96381, 1.75103, 1.7145, 1.76423, 1.76465, 1.77932, 1.85872, 1.92708, 1.84881, 1.85079, 1.65855, 1.59271, 1.60889, 1.62393, 1.67307, 1.78307, 1.71363, 1.73446, 1.84028, 1.48513, 1.59905, 1.48558, 1.54231, 1.64204, 1.73546, 0.00325843, 1.7649, 1.50592, 1.46035, 1.46087, 1.506, 1.50571, 1.6001, 1.67098, 1.75178, 1.76598, 1.45618, 1.45368, 1.35669, 1.41925, 1.4325, 1.4126, 1.42606, 1.78465, 1.36759, 1.27776, 1.27714, 1.30198, 1.34357, 1.41188, 1.40934, 1.44717, 1.49285, 1.58509, 1.63502, 1.4078, 1.36855, 1.32966, 1.34549, 1.382, 1.37549, 1.37606, 1.38461, 1.35757, 1.3097, 1.28882, 1.28884, 1.34625, 1.45876, 0.00346971, 0.00315455, 1.39724, 1.42769, 1.29958, 1.35061, 1.41541, 1.50639, 1.56304, 1.65602, 1.7756, 1.79642, 1.5706, 1.48251, 1.46438, 1.44696, 1.57913, 1.60118, 1.931, 0.00364825, 1.8695, 1.85107, 1.79553, 1.79579, 1.82834, 0.00330468, 0.00346949, 0.00338886, 0.00345495, 0.00367747, 0.00328249, 0.00323414, 0.00323758, 0.00350221, 2.00354, 1.99003, 0.00345987, 2.06683, 0.00308548, 2.04139, 0.00336567, 0.00342456, 1.87858, 1.68145, 1.75849, 0.00358948, 0.00316151, 0.00334805, 0.00325832, 1.35533, 1.33681, 1.28117, 1.30731, 1.25025, 0.00311022, 0.815116, 0.00335781, 0.842519, 0.829401, 0.863287, 0.00326274, 1.04025, 1.03971, 0.793482, 0.756697, 0.650508, 0.66854, 0.714276, 0.752081, 0.936964, 0.93352, 0.94308, 0.00323109, 0.673768, 0.680298, 0.750082, 0.78048, 0.898226, 0.898007, 0.982455, 0.980886, 0.775838, 0.752592, 0.79219, 0.866806, 0.880353, 0.00330358, 0.987052, 0.98756, 0.970311, 0.00325766, 0.76893, 0.77025, 0.766934, 0.81964, 0.742587, 1.00819, 1.00791, 0.724054, 0.678067, 0.81132, 0.818071, 0.86638, 0.884645, 0.960453, 0.96769, 1.06056, 1.0428, 0.913551, 0.842834, 0.754119, 0.746105, 0.852405, 0.890181, 1.0318, 1.04259, 0.828065, 0.776896, 0.9491, 0.936484, 0.942635, 1.0626, 1.03459, 1.09143, 1.09431, 0.791757, 0.776461, 0.80489, 0.883205, 0.871782, 0.00317597, 1.10535, 1.10947, 1.10131, 1.17375, 1.08447, 1.08484, 1.14585, 1.11647, 1.11593, 1.12404, 1.09555, 1.09554, 1.00576, 1.03723, 0.00301169, 0.00325956, 0.00316961, 0.00305106, 0.926999, 0.960901, 0.846822, 0.00347, 1.03293, 1.15084, 1.1508, 1.06684, 0.954499, 0.956757, 0.77459, 0.731737, 0.690435, 0.691127, 0.715673, 0.83554, 0.856281, 0.856917, 0.643643, 0.644091, 0.526634, 0.527685, 0.582408, 0.580232, 0.562483, 0.564576, 0.535632, 0.487829, 0.486571, 0.595259, 0.708358, 0.812545, 0.891352, 0.866943, 0.834736, 0.715618, 0.717623, 0.739955, 0.838622, 0.839445, 0.847183, 0.912075, 0.887656, 0.621834, 0.622318, 0.608041, 0.614619, 0.660862, 0.664375, 0.656467, 0.635876, 0.651351, 0.670331, 0.76317, 0.659216, 0.659217, 0.576197, 0.57639, 0.618204, 0.612218, 0.549271, 0.547246, 0.494885, 0.504801, 0.505304, 0.505554, 0.579374, 0.64321, 0.745246, 0.735563, 0.429249, 0.397565, 0.308734, 0.309109, 0.441958, 0.503767, 0.427893, 0.431309, 0.373133, 0.304256
1.93868, 1.89967, 0.00327942, 1.73794, 1.70949, 1.7261, 1.76283, 1.78572, 0.00307003, 1.87526, 1.92202, 0.00317967, 1.61602, 1.56922, 1.61312, 1.63835, 1.64019, 1.70651, 1.72085, 1.73849, 0.0033632, 1.57442, 1.76434, 1.49747, 1.56578, 1.51968, 1.51965, 1.71502, 1.8233, 1.5071, 1.49979, 1.47523, 1.50651, 1.53521, 0.00354112, 1.70031, 1.74747, 1.82731, 1.82708, 1.42624, 1.34519, 1.35458, 1.3919, 1.47431, 1.70691, 1.75842, 1.34608, 1.28494, 1.28101, 1.27997, 1.31347, 1.43995, 1.46968, 1.52695, 1.54494, 1.80326, 1.60714, 1.36765, 1.31648, 1.28845, 1.32718, 1.37179, 1.52655, 1.39926, 1.406, 1.39548, 1.33722, 1.34463, 1.30309, 1.30412, 0.00334608, 1.60149, 1.62159, 1.42531, 1.4751, 1.42394, 1.34987, 1.41297, 1.4659, 1.59546, 1.77035, 0.00333571, 1.82871, 1.60972, 1.56258, 1.55061, 1.53437, 0.00326046, 1.95221, 1.92786, 0.00345947, 0.00338773, 1.85895, 1.79225, 1.79169, 1.9023, 1.887, 0.00345731, 0.00329478, 0.00346008, 0.00330031, 0.00365772, 0.00329498, 0.00341015, 0.00324605, 2.02113, 2.0124, 2.0177, 0.0033503, 2.07524, 2.07298, 2.15919, 0.0034895, 2.11072, 0.00341419, 1.73495, 0.0034829, 0.0039715, 0.00342855, 1.326, 0.00350607, 1.32798, 0.00321862, 1.23762, 1.1524, 1.17394, 0.803287, 0.802296, 0.00319161, 0.904571, 0.842092, 0.867818, 0.868207, 0.863929, 0.795655, 0.782143, 0.653489, 0.714788, 0.715399, 0.733782, 0.881785, 0.959503, 0.987004, 0.942167, 0.724619, 0.709177, 0.735853, 0.783665, 0.902115, 0.980577, 1.01235, 1.01182, 0.741739, 0.746101, 0.731584, 0.828289, 0.870832, 0.877407, 0.968946, 0.968837, 0.946143, 0.00356222, 0.780317, 0.761862, 0.750365, 0.821249, 0.904948, 1.08738, 0.980856, 0.784059, 0.736681, 0.701059, 0.73922, 0.858379, 0.857999, 0.901432, 1.00968, 1.02141, 1.00789, 1.0071, 0.747946, 0.748672, 0.746262, 0.846468, 0.999065, 1.12571, 1.11914, 1.08813, 0.781208, 0.813435, 0.970795, 0.958676, 0.995013, 1.02736, 1.0608, 1.02289, 0.834864, 0.781858, 0.879573, 0.895831, 0.866076, 1.08814, 1.10478, 1.16757, 1.13798, 1.1368, 1.10888, 1.11888, 1.09521, 1.15327, 0.00330067, 1.11687, 1.11918, 1.06871, 0.984513, 0.984588, 0.00321764, 1.20977, 1.20712, 1.2058, 0.869909, 0.873304, 0.837284, 0.873642, 0.949891, 0.949453, 0.949179, 0.962524, 0.954911, 0.954643, 0.759865, 0.781977, 0.714284, 0.802965, 0.715232, 0.836444, 0.834893, 0.771365, 0.645499, 0.646195, 0.530296, 0.521417, 0.505122, 0.507284, 0.619089, 0.564036, 0.549253, 0.488659, 0.531525, 0.549205, 0.714566, 0.81254, 0.876342, 0.871465, 0.938989, 0.760139, 0.797688, 0.80125, 0.841208, 0.859148, 0.846634, 0.91855, 0.910712, 0.649291, 0.636272, 0.594246, 0.540799, 0.583789, 0.722059, 0.655714, 0.736607, 0.653153, 0.647573, 0.611182, 0.647056, 0.646966, 0.642609, 0.578308, 0.579344, 0.581652, 0.621519, 0.499474, 0.519298, 0.503052, 0.613366, 0.585497, 0.596761, 0.584269, 0.710987, 0.742089, 0.418141, 0.340904, 0.342754, 0.450216, 0.448934, 0.481284, 0.515209, 0.400233, 0.398983, 0.30645
1.90767, 1.88019, 1.87003, 1.70956, 1.71747, 1.75738, 1.78388, 1.7691, 1.85889, 1.87522, 1.87213, 0.00344261, 1.56756, 1.56815, 1.62274, 1.63774, 1.67694, 0.00337366, 0.00307735, 0.00334589, 1.54776, 1.50323, 1.48222, 1.52884, 1.53267, 1.58564, 1.64935, 1.7227, 1.50324, 1.53364, 1.44316, 1.49659, 1.50279, 1.56871, 1.62733, 1.71028, 1.72604, 1.69885, 1.5291, 1.45696, 1.35385, 1.34448, 1.48473, 1.48341, 1.36761, 1.34837, 1.34775, 1.30617, 1.30103, 1.27533, 1.30837, 1.34989, 1.37173, 1.6132, 1.69343, 1.73107, 0.003102, 1.37231, 1.3725, 1.28688, 1.29891, 1.39146, 1.4043, 1.41271, 1.40259, 1.37395, 1.30222, 1.27775, 1.28079, 0.00327726, 0.0033881, 1.6074, 1.69247, 0.00336802, 1.39005, 1.39268, 1.40021, 1.48825, 1.50659, 1.54011, 1.71765, 1.7586, 1.8131, 1.61311, 1.58241, 1.5433, 1.67025, 1.70086, 0.00336117, 0.00339858, 0.00346175, 0.0030284, 1.84721, 1.84277, 1.93476, 1.91307, 0.00367095, 0.00332727, 0.00367272, 0.00319942, 0.00352807, 0.003293, 0.00327911, 0.00360464, 2.13444, 0.00337615, 2.02489, 2.04337, 0.00334665, 2.1198, 2.10351, 0.00329207, 0.00330959, 0.00339969, 1.96849, 1.96935, 1.71045, 0.00338349, 1.32236, 1.30257, 0.00326656, 1.26418, 1.2635, 0.00335046, 1.10949, 0.00358172, 0.808989, 0.807697, 0.00318337, 0.842298, 1.06397, 0.00338168, 0.868542, 0.86435, 0.86258, 0.784173, 0.655852, 0.678375, 0.813582, 0.732687, 0.881464, 0.974252, 0.970507, 0.712468, 0.815483, 0.797578, 0.694741, 0.850204, 0.884857, 0.961499, 1.01853, 1.0334, 0.79546, 0.743233, 0.7315, 0.840558, 0.831282, 0.870395, 0.942376, 0.935076, 0.956079, 0.00331366, 0.784843, 0.666031, 0.760097, 0.784523, 0.725549, 1.01857, 0.980396, 0.746375, 0.680928, 0.680797, 0.788069, 0.786915, 0.871664, 0.990765, 0.991401, 1.012, 1.01552, 1.01485, 0.808027, 0.748237, 0.798056, 0.848, 0.00301142, 1.04045, 1.08017, 0.818362, 0.778007, 0.788992, 0.840182, 0.911677, 0.943738, 0.934618, 0.966755, 0.800203, 0.836165, 0.880334, 0.909116, 0.898735, 0.00311172, 0.9916, 1.06706, 1.16141, 1.09541, 1.13344, 1.12946, 1.11792, 1.15343, 1.10299, 1.08063, 1.06374, 1.0398, 1.00838, 0.997106, 1.02401, 0.00341202, 1.18158, 1.2006, 1.1609, 0.00327108, 0.853745, 0.840209, 0.837315, 0.00339115, 0.00345564, 0.949207, 0.96253, 0.935758, 0.00336066, 0.756184, 0.739837, 0.721399, 0.760496, 0.754506, 0.857892, 0.796807, 0.00310424, 0.0033504, 0.579143, 0.461077, 0.461944, 0.504336, 0.618278, 0.618478, 0.515856, 0.476919, 0.477297, 0.586714, 0.556157, 0.792645, 0.794, 0.836131, 0.860636, 0.876919, 0.00377543, 0.790849, 0.781022, 0.869801, 0.868942, 0.00331704, 0.00336393, 0.831429, 0.00348662, 0.722453, 0.583224, 0.538479, 0.659319, 0.0032134, 0.765474, 0.759451, 0.00359836, 0.591237, 0.60169, 0.597481, 0.64889, 0.648976, 0.628287, 0.627229, 0.629073, 0.57362, 0.5244, 0.519392, 0.520424, 0.514596, 0.52158, 0.522223, 0.634647, 0.607419, 0.651036, 0.438876, 0.33777, 0.338769, 0.474819, 0.477023, 0.513937, 0.517584, 0.3408, 0.34101, 0.360672
0.00324937, 0.00331336, 1.97796, 1.77107, 1.67196, 1.80571, 1.74795, 1.79142, 1.81348, 0.00345045, 1.90633, 1.68484, 1.5945, 1.56765, 1.63077, 1.78657, 1.71635, 0.00340848, 1.85533, 1.87968, 1.46345, 1.49693, 1.49665, 1.55236, 1.59101, 1.58117, 0.00334859, 1.72566, 1.73766, 1.51481, 1.50547, 1.50826, 1.49996, 1.54513, 1.6169, 1.71245, 1.77048, 1.86384, 1.50099, 1.43978, 1.35666, 1.35704, 1.3474, 1.38512, 1.61299, 1.41108, 1.36379, 1.3364, 1.31635, 1.27378, 1.3091, 1.30523, 1.41489, 1.61713, 0.00338968, 0.0112843, 1.34738, 1.35039, 1.32703, 1.27525, 1.27482, 1.30785, 1.39569, 1.36405, 1.42256, 1.37087, 1.34883, 1.58126, 1.27941, 1.31558, 1.59641, 0.00332542, 1.74848, 0.00330989, 1.4787, 1.40018, 1.41782, 1.44821, 1.55479, 1.61491, 0.00315281, 1.73616, 1.80444, 1.62079, 1.60187, 1.59924, 1.59897, 1.62308, 0.00356765, 1.91495, 1.98243, 0.00344879, 1.87324, 1.8359, 1.83119, 0.00336761, 1.95974, 0.0164771, 0.00324627, 0.00340626, 2.42829, 0.0111567, 0.00345989, 0.00353452, 0.00321552, 2.17932, 0.00316615, 2.03433, 0.0031093, 2.11091, 0.00305294, 0.00349258, 0.00328366, 2.07264, 0.00358264, 0.00336307, 2.05991, 1.36213, 1.32369, 1.26244, 1.30991, 1.2548, 0.00308642, 1.17374, 0.00328139, 0.00349573, 0.00332518, 0.729338, 0.729247, 0.826526, 0.820092, 0.856939, 1.01015, 1.00962, 1.08728, 0.791168, 0.650204, 0.723591, 0.711739, 0.749187, 0.849819, 0.921363, 0.00332473, 0.702615, 0.677755, 0.805422, 0.705818, 0.835026, 0.880581, 0.923016, 1.01038, 1.02591, 0.00334314, 0.757873, 0.810249, 0.841701, 0.865182, 0.866189, 0.943431, 0.958935, 0.9706, 0.823262, 0.665713, 0.666321, 0.768599, 0.768824, 0.884175, 0.900972, 1.03592, 1.03975, 0.743162, 0.760712, 0.826824, 0.795708, 0.881424, 0.89456, 1.00169, 1.00128, 1.0118, 0.842219, 0.755775, 0.753338, 0.822529, 0.822748, 0.929027, 1.10973, 1.10165, 0.801326, 0.777339, 0.79044, 0.849062, 0.876725, 0.912124, 0.93156, 0.935904, 0.800623, 0.953503, 0.923097, 0.814503, 0.962476, 0.987926, 0.986495, 0.00329298, 1.1023, 1.13709, 1.09082, 1.14025, 1.13766, 1.08138, 1.1082, 1.08073, 1.02295, 1.02266, 1.01636, 0.996514, 0.00349837, 0.00328067, 1.18222, 1.17223, 1.17343, 0.859603, 0.809171, 0.798087, 0.836107, 0.00346175, 0.955962, 0.00322902, 1.10006, 0.00338802, 0.959215, 0.763477, 0.763407, 0.752559, 0.754812, 0.754777, 0.807749, 0.828422, 0.821843, 0.00351628, 0.63894, 0.46509, 0.46473, 0.455203, 0.490563, 0.504227, 0.509443, 0.506013, 0.507287, 0.508316, 0.545821, 0.794454, 0.796672, 0.839092, 0.853516, 0.880079, 0.883207, 0.78721, 0.782754, 0.925838, 0.84208, 0.873429, 0.912886, 0.00327941, 0.762842, 0.00343322, 0.603905, 0.608181, 0.541212, 0.00314676, 0.763063, 0.798213, 0.800419, 0.00344381, 0.56658, 0.598298, 0.601894, 0.601594, 0.676157, 0.621892, 0.640041, 0.639919, 0.485467, 0.653933, 0.595039, 0.598292, 0.521902, 0.593298, 0.597511, 0.66087, 0.659039, 0.00333103, 0.339766, 0.340205, 0.384372, 0.476325, 0.537956, 0.535609, 0.349014, 0.342076, 0.360999
0.00319679, 2.02802, 0.00353039, 1.73858, 1.66894, 1.70871, 1.7926, 1.8513, 1.86503, 1.92188, 0.00330993, 0.00332998, 1.60645, 1.57615, 1.69787, 1.71413, 1.74365, 1.80793, 1.85749, 1.8755, 1.50566, 1.45361, 1.45258, 1.51448, 1.57072, 1.5785, 1.63664, 1.72178, 1.76, 1.52692, 1.5268, 1.47834, 1.54719, 1.64455, 1.65892, 1.6436, 1.69091, 1.76195, 1.49321, 1.44624, 1.35556, 1.36126, 1.45023, 1.40428, 1.40893, 1.66938, 0.00328494, 1.37395, 1.32452, 1.33765, 1.31691, 1.41334, 1.38671, 1.47882, 1.86149, 0.00323257, 1.34181, 1.36132, 1.27932, 1.28064, 1.30313, 1.36728, 1.37757, 1.43041, 1.38457, 1.39433, 1.38851, 1.38932, 1.37644, 0.00356261, 1.61679, 1.61576, 1.74768, 0.00351395, 1.77227, 1.47175, 1.45039, 1.5032, 1.54477, 1.60949, 0.00326218, 1.76664, 1.73884, 1.65854, 1.61534, 1.57619, 1.58428, 1.66783, 0.00327264, 0.00321638, 2.0165, 0.00348855, 1.92764, 1.8837, 1.85215, 1.89336, 1.96962, 0.00350647, 0.0112627, 0.00329144, 0.00355556, 0.00329713, 0.00333686, 0.00322154, 0.0109047, 2.18801, 2.07024, 2.16676, 2.15981, 0.00325469, 0.00323322, 0.00330242, 0.00354872, 2.11422, 0.00328613, 0.00346949, 0.00300512, 0.00362605, 1.31552, 1.28883, 1.19849, 1.20264, 0.00325728, 0.00320222, 0.00350978, 0.00335678, 0.771478, 0.731225, 0.729958, 0.870537, 0.00363541, 0.00337843, 0.780222, 0.00293868, 0.732647, 0.730439, 0.733841, 0.65281, 0.725707, 0.00330905, 0.856012, 0.923778, 0.921387, 0.799203, 0.681306, 0.739957, 0.729019, 0.728165, 0.864403, 0.944107, 1.01285, 1.02089, 0.806294, 0.754257, 0.758983, 0.830603, 0.918869, 0.914631, 0.953673, 0.987238, 0.964782, 0.759917, 0.761104, 0.652879, 0.75045, 0.820457, 0.899428, 0.998556, 1.03181, 1.04625, 0.784314, 0.763913, 0.779826, 0.849325, 0.855418, 0.903745, 0.956681, 1.00968, 1.01114, 0.857089, 0.758358, 0.75922, 0.848876, 0.871473, 0.893383, 1.01314, 1.02916, 0.801194, 0.753576, 0.804046, 0.850678, 0.852574, 0.870842, 0.778017, 1.06346, 1.11625, 0.954345, 0.900808, 0.911896, 0.908252, 1.00155, 1.03626, 1.1544, 1.15186, 1.17639, 1.18665, 1.11705, 1.12047, 1.04995, 1.06721, 1.08856, 1.0027, 1.0245, 1.04056, 0.990678, 0.00316326, 1.11266, 1.16766, 1.22438, 0.00310239, 0.847292, 0.881052, 0.783373, 0.821199, 0.901416, 0.957056, 0.00342839, 1.00948, 0.973922, 0.00348205, 0.787335, 0.724427, 0.729729, 0.00317947, 0.755431, 0.77467, 0.783592, 0.0034013, 0.612812, 0.573905, 0.560351, 0.573894, 0.579083, 0.454812, 0.453949, 0.5617, 0.470837, 0.508066, 0.497851, 0.549242, 0.79459, 0.795659, 0.847348, 0.866918, 0.866527, 0.00335619, 0.769355, 0.821923, 0.841889, 0.842261, 0.879807, 0.00326447, 0.854245, 0.739254, 0.674318, 0.551954, 0.552591, 0.541556, 0.66942, 0.747285, 0.790588, 0.804126, 0.584416, 0.517947, 0.568803, 0.580909, 0.621965, 0.642192, 0.649718, 0.649886, 0.483538, 0.511843, 0.594535, 0.596159, 0.588432, 0.00337048, 0.735955, 0.00323946, 0.721613, 0.660219, 0.387604, 0.338831, 0.335197, 0.445838, 0.448761, 0.00324669, 0.351454, 0.352376, 0.352694, 0.313814
2.02452, 2.01828, 2.01823, 1.68611, 1.71094, 1.68582, 1.71352, 1.78483, 1.84633, 1.87978, 0.00365042, 1.6794, 1.61234, 1.5725, 1.60999, 1.70826, 1.7103, 1.74503, 1.74449, 1.72893, 1.50128, 1.45953, 1.46133, 1.47873, 1.50876, 1.56495, 0.00317929, 1.77503, 1.76132, 1.53536, 1.49581, 1.47433, 1.52078, 1.59937, 1.5806, 1.58831, 1.58876, 1.58851, 1.47675, 1.40832, 1.34451, 1.35151, 1.41667, 1.42417, 1.63634, 1.69373, 1.64982, 1.36691, 1.33358, 1.27938, 1.33787, 1.3373, 1.41688, 1.41241, 0.00326452, 0.00344586, 1.42001, 1.34496, 1.32155, 1.32609, 1.35222, 1.3861, 0.00331964, 1.43648, 1.4315, 1.4058, 1.39051, 1.42864, 0.00344168, 1.58975, 1.56467, 1.67615, 1.67835, 0.00327014, 1.49876, 1.40515, 1.41025, 1.44346, 1.48275, 1.58804, 0.00330482, 1.77113, 1.74894, 1.67627, 1.6544, 1.75867, 1.74866, 0.00330027, 0.00341343, 0.00352541, 0.00335734, 2.029, 0.00329679, 1.90335, 1.87771, 1.94298, 0.00345969, 2.08991, 2.14395, 0.00383625, 0.00388473, 0.00322448, 0.00325647, 0.00336971, 0.00334842, 2.07768, 2.18563, 2.1829, 0.0033054, 0.00316168, 0.00343921, 0.00349559, 0.00327109, 0.00356257, 0.0032924, 0.00329389, 0.00355137, 0.00351883, 0.00306019, 1.21562, 1.21311, 0.00348647, 0.0031972, 0.00352269, 0.00359011, 0.763279, 0.784052, 0.698431, 0.70914, 0.00317157, 0.00323129, 0.949679, 0.989186, 0.732511, 0.733074, 0.79007, 0.835971, 0.738929, 0.708055, 0.803434, 0.805394, 0.918887, 0.939531, 0.795005, 0.686435, 0.684784, 0.777181, 0.788181, 0.820927, 0.964656, 0.961506, 1.02183, 0.975055, 0.75389, 0.754001, 0.82997, 0.941639, 0.890565, 0.946898, 0.993497, 0.965188, 0.712452, 0.711025, 0.702174, 0.701056, 0.722833, 0.00333523, 1.06996, 0.00353952, 1.04249, 0.780329, 0.737183, 0.787348, 0.856846, 0.91551, 0.9327, 0.798514, 0.810682, 1.03265, 0.835582, 0.762603, 0.821404, 0.863571, 0.891226, 0.931719, 0.9933, 1.07173, 0.748364, 0.747787, 0.821592, 0.761125, 0.760485, 0.771347, 1.04405, 1.08049, 1.0893, 0.994973, 0.940499, 0.903128, 0.901992, 0.936405, 0.923151, 1.16335, 0.00369429, 0.00317161, 1.12218, 1.13929, 1.08916, 1.02994, 0.991305, 0.994857, 0.984662, 0.937158, 0.9374, 1.00434, 1.01921, 1.11449, 1.15487, 1.12989, 1.15028, 0.00302489, 0.795851, 0.00333603, 0.810915, 0.870071, 0.00355662, 0.00349935, 1.01998, 0.959911, 0.901995, 0.90461, 0.745447, 0.668365, 0.669126, 0.789409, 0.807715, 0.786555, 0.810399, 0.632507, 0.559981, 0.574213, 0.430901, 0.431726, 0.457672, 0.461845, 0.462125, 0.562241, 0.477825, 0.481875, 0.542258, 0.0032173, 0.00319331, 0.842284, 0.843458, 0.830474, 0.814634, 0.784286, 0.770094, 0.86993, 0.885292, 0.929125, 0.931602, 0.858431, 0.00299056, 0.676973, 0.553469, 0.554982, 0.555189, 0.670093, 0.00335401, 0.766352, 0.0030774, 0.587789, 0.586749, 0.520959, 0.579916, 0.634683, 0.634679, 0.645715, 0.716797, 0.51158, 0.513711, 0.514577, 0.580551, 0.549792, 0.683363, 0.00355066, 0.76838, 0.722316, 0.00359214, 0.407539, 0.33566, 0.362763, 0.418299, 0.418227, 0.424574, 0.44873, 0.46362, 0.358083, 0.328241
0.00335689, 2.02057, 2.04882, 1.70094, 1.65928, 1.66421, 1.76924, 1.84059, 1.83692, 1.8242, 1.84835, 1.63694, 1.59645, 1.60966, 1.6095, 1.69843, 1.74617, 1.81131, 1.82385, 0.00349003, 1.50822, 1.50215, 1.4645, 1.51373, 1.53406, 1.60873, 1.61027, 1.69678, 1.7656, 1.75097, 1.51145, 1.51138, 1.51266, 1.58609, 1.57578, 0.00317178, 1.65554, 1.77511, 1.466, 1.41133, 1.38092, 1.42016, 1.42684, 1.4394, 1.61681, 0.00347163, 1.75774, 1.36133, 1.34567, 1.28928, 1.31528, 1.39513, 1.39396, 0.00326059, 0.00364881, 1.74629, 1.45446, 1.33645, 1.3125, 1.55035, 1.54715, 0.00301096, 0.00313489, 0.00325821, 1.45898, 1.44196, 1.47778, 1.48515, 1.43942, 0.003159, 0.00374351, 0.00340903, 1.7318, 1.73483, 0.00346228, 1.49644, 1.45184, 1.45778, 1.52941, 1.54794, 0.0111045, 1.69917, 1.79478, 1.69104, 1.68692, 1.67499, 1.72846, 0.0032722, 0.0106543, 0.00324849, 2.08054, 2.07452, 2.05743, 1.9448, 2.01085, 2.01075, 2.01565, 0.00338097, 0.0032808, 2.16401, 0.00400718, 0.00318773, 0.00339302, 0.003231, 0.00331003, 2.07743, 2.17392, 0.00325137, 0.00329435, 0.00325313, 0.00371838, 2.26384, 2.13845, 0.00336304, 0.00318576, 0.00331911, 0.00383638, 0.00331124, 1.1489, 1.16248, 1.16138, 1.1732, 1.17381, 0.00320744, 0.703723, 0.762138, 0.785367, 0.687553, 0.00313215, 0.00355805, 0.735178, 0.737852, 0.735282, 0.714634, 0.767035, 0.753433, 0.694453, 0.781184, 0.719741, 0.784464, 0.791871, 0.997429, 0.971591, 0.716522, 0.776438, 0.715262, 0.823274, 0.815249, 0.828048, 0.977041, 1.04572, 1.00924, 0.888967, 0.749354, 0.765329, 0.839706, 0.8388, 0.92449, 0.923058, 0.964241, 0.964381, 0.711359, 0.728824, 0.70527, 0.702219, 0.762116, 0.869196, 1.02622, 1.02588, 1.03591, 0.814769, 0.789864, 0.810537, 0.808194, 0.835654, 0.949817, 0.951254, 1.00476, 1.03318, 0.878446, 0.763551, 0.763078, 0.846038, 0.897587, 0.932047, 1.0807, 1.00157, 0.7478, 0.790103, 0.819822, 0.766425, 0.764879, 1.01157, 1.04983, 1.08827, 1.08862, 0.998158, 0.950289, 0.918402, 0.892441, 0.897482, 0.923138, 0.880076, 0.00336284, 1.17325, 1.15618, 1.12219, 0.00323568, 0.98477, 0.968277, 0.96773, 0.953282, 0.942192, 0.92142, 1.00377, 0.00309672, 1.03523, 1.11795, 1.11122, 1.10314, 0.893818, 0.00333503, 0.00340312, 0.00312774, 0.869465, 0.00323542, 0.90623, 0.908272, 0.888912, 0.957611, 0.762681, 0.74915, 0.767143, 0.76743, 0.773546, 0.772842, 0.845506, 0.847022, 0.666137, 0.560141, 0.00344136, 0.430728, 0.431257, 0.00321144, 0.462953, 0.463588, 0.528728, 0.498056, 0.479498, 0.455492, 0.00330059, 0.890198, 0.925271, 0.818375, 0.939824, 0.796994, 0.783531, 0.756519, 0.802327, 0.857512, 0.868154, 0.879908, 0.887761, 0.00330707, 0.638142, 0.586161, 0.554738, 0.61069, 0.0107117, 0.00345336, 0.880454, 0.0032797, 0.658486, 0.587038, 0.559833, 0.58884, 0.62902, 0.699983, 0.657253, 0.524679, 0.540352, 0.54923, 0.541973, 0.543743, 0.54451, 0.00334373, 0.760894, 0.780205, 0.781222, 0.00330469, 0.34846, 0.35036, 0.350089, 0.436559, 0.438367, 0.427696, 0.434214, 0.433508, 0.365349, 0.366996
1.92548, 1.74695, 1.74313, 1.70194, 1.65911, 1.66015, 1.72675, 1.75717, 1.78533, 1.89036, 1.86525, 1.64191, 1.60649, 1.57952, 1.601, 1.66888, 1.71491, 1.75871, 0.0030642, 1.89233, 1.5592, 1.47427, 1.47577, 1.55688, 1.55433, 1.61381, 1.65368, 1.68404, 0.00301953, 1.59729, 1.49067, 1.4746, 1.47481, 1.60464, 1.60392, 1.61886, 1.75864, 1.74216, 1.42764, 1.47435, 1.40016, 1.37837, 1.39565, 1.45421, 1.51081, 1.68485, 1.5193, 1.40638, 1.40293, 1.41349, 1.30083, 1.40713, 1.39246, 1.40897, 1.39098, 1.39119, 1.39933, 1.4159, 1.29383, 1.29368, 1.50735, 1.55817, 1.59234, 1.63338, 0.00322232, 1.49192, 1.47016, 1.46773, 1.46021, 1.53022, 0.00308191, 1.74795, 1.79987, 1.79991, 1.78493, 1.47899, 1.51288, 1.53036, 1.53577, 1.55807, 1.60645, 1.90681, 1.77571, 1.72692, 1.68691, 1.70861, 1.73659, 0.00311904, 0.00322712, 0.00309688, 0.00345047, 2.11073, 0.00347662, 0.00358073, 2.05944, 2.03171, 2.00302, 0.00359938, 0.00332507, 0.00336584, 0.00344828, 2.16626, 2.14718, 2.22618, 0.00335691, 2.17089, 0.00314242, 0.0110015, 0.00336384, 0.0112069, 0.00346645, 0.0109098, 0.00340304, 0.00335499, 0.00315214, 0.00344494, 0.00340012, 0.0113894, 1.04939, 1.05419, 1.12303, 1.12156, 0.00311868, 1.0133, 1.01174, 0.696645, 0.616062, 0.617671, 0.715838, 0.688403, 0.736472, 0.736037, 0.770979, 1.00842, 0.77612, 0.748841, 0.70589, 0.71888, 0.741229, 0.784291, 0.714095, 0.706438, 0.728376, 0.677848, 0.724358, 0.717067, 0.711054, 0.886668, 0.887676, 0.964655, 0.964074, 1.04687, 0.799608, 0.747429, 0.804911, 0.849306, 0.820506, 0.909745, 0.94927, 1.00829, 0.960954, 0.960268, 0.669897, 0.669733, 0.746414, 0.780779, 0.868261, 1.02606, 1.07082, 1.033, 0.818629, 0.801852, 0.833016, 0.83452, 0.835868, 0.893083, 0.960691, 0.957073, 0.999994, 0.931625, 0.794208, 0.818562, 0.831441, 0.780276, 0.782096, 0.770157, 0.824767, 0.763515, 0.725386, 0.75828, 0.76436, 0.00311228, 1.01168, 1.07823, 1.08823, 1.08833, 0.00337827, 0.987477, 0.958526, 0.970427, 0.895485, 0.893199, 0.92688, 0.981801, 1.1631, 1.17719, 1.11151, 1.02263, 0.966127, 0.967858, 0.998447, 0.870572, 0.877484, 0.943305, 0.00326138, 0.0106243, 0.00341801, 1.07794, 1.09267, 1.0739, 0.767829, 0.735218, 0.736222, 0.841235, 0.00328695, 0.915306, 0.926747, 0.908966, 0.970696, 0.883801, 0.00332428, 0.758415, 0.76614, 0.766794, 0.76416, 0.819445, 0.752151, 0.767272, 0.527661, 0.528148, 0.560147, 0.560658, 0.00352545, 0.458134, 0.45907, 0.462767, 0.476536, 0.563721, 0.462384, 0.484803, 0.551858, 0.916169, 0.918343, 0.949532, 0.950239, 0.802227, 0.800069, 0.732132, 0.824579, 0.827951, 0.867831, 0.869378, 0.95613, 0.00317474, 0.611169, 0.588459, 0.588892, 0.612007, 0.612453, 0.84557, 0.598139, 0.00349244, 0.659134, 0.581405, 0.622787, 0.592879, 0.563123, 0.694809, 0.70822, 0.526704, 0.526271, 0.575688, 0.487662, 0.48963, 0.565968, 0.610994, 0.00346384, 0.700617, 0.77634, 0.00371154, 0.470039, 0.350449, 0.414359, 0.414365, 0.439895, 0.439896, 0.48064, 0.510069, 0.382221, 0.368747
2.01581, 2.03935, 0.00313996, 1.71754, 1.69535, 1.69715, 1.7462, 1.74803, 1.78327, 0.00366788, 1.88748, 1.61998, 1.60965, 1.5989, 1.61347, 1.67395, 1.73381, 1.75438, 1.81779, 1.77661, 1.535, 1.46537, 1.51242, 1.53373, 1.59397, 1.59849, 1.63081, 1.63994, 1.68192, 1.61686, 1.46393, 1.43888, 1.46443, 1.50661, 1.57994, 1.61153, 1.43022, 1.48558, 1.46776, 1.40944, 1.37903, 1.43829, 1.48454, 1.43458, 1.58444, 1.64679, 1.4942, 1.4198, 1.40397, 1.41259, 1.31467, 1.40606, 1.38863, 1.43173, 1.51454, 1.6856, 1.37819, 1.35146, 1.29374, 1.29068, 0.00316109, 1.5438, 1.66883, 1.69502, 1.65343, 1.46848, 1.47774, 1.46785, 1.50205, 1.64367, 0.00346522, 0.00302876, 1.85496, 0.00314294, 0.00327808, 1.52734, 1.48894, 1.50002, 1.58407, 1.64781, 0.00329435, 1.72678, 1.81243, 1.72165, 1.76678, 1.72148, 1.8073, 1.77999, 0.00299788, 0.00332894, 0.00334559, 0.00325827, 0.00326522, 0.00328525, 0.00324724, 2.2758, 0.00338415, 0.00322844, 0.00374057, 0.00337995, 0.00351054, 0.002952, 2.27455, 0.00329994, 2.1345, 0.00331189, 0.00351981, 0.0034451, 0.0106355, 0.0033912, 0.00364154, 0.00298509, 0.00335349, 0.00314404, 1.59996, 0.00350008, 1.4936, 0.0032179, 1.04931, 0.00343001, 0.00342605, 0.00368877, 0.00306324, 0.00341678, 0.972922, 0.971819, 0.627707, 0.620839, 0.714686, 0.763612, 0.798298, 0.767556, 0.771093, 1.00861, 0.776283, 0.776992, 0.711874, 0.698613, 0.761168, 0.00313731, 0.713812, 0.946853, 0.93284, 0.726277, 0.678502, 0.71393, 0.713217, 0.778041, 0.898695, 1.00785, 0.97678, 0.973913, 0.818228, 0.818634, 0.733664, 0.805596, 0.838826, 0.91321, 0.981722, 0.96913, 1.00959, 0.977219, 0.670085, 0.670546, 0.718746, 0.77709, 0.825846, 0.0034224, 1.01362, 1.01269, 0.781224, 0.818443, 0.847664, 0.864288, 0.876249, 0.878271, 1.01224, 0.984606, 0.00300013, 0.914938, 0.720089, 0.718936, 0.00343392, 0.914234, 1.01132, 1.04612, 0.730526, 0.731267, 0.728243, 0.770506, 0.00336228, 0.00321433, 1.06507, 1.06663, 1.11898, 1.08792, 1.0983, 1.00932, 0.99772, 0.967227, 1.11288, 0.925462, 0.960665, 0.967179, 1.02578, 1.03401, 0.999648, 1.02897, 1.09251, 1.10533, 0.911523, 1.01255, 0.860419, 0.0033388, 1.02288, 1.04189, 1.06105, 1.07859, 1.07998, 1.08069, 1.05354, 0.738756, 0.722418, 0.0030987, 0.00333157, 0.896532, 0.896842, 0.00323718, 0.975305, 0.895325, 0.00356107, 0.759313, 0.74975, 0.750377, 0.698782, 0.752244, 0.754662, 0.754893, 0.518973, 0.529741, 0.0111215, 0.67142, 0.610991, 0.459458, 0.51029, 0.510569, 0.435712, 0.429335, 0.463103, 0.491034, 0.552069, 0.870505, 0.8898, 0.891166, 0.923524, 0.690486, 0.692486, 0.738702, 0.823023, 0.894809, 0.880486, 0.880491, 0.920517, 0.00306174, 0.610046, 0.612044, 0.615219, 0.00328874, 0.614995, 0.00338388, 0.847044, 0.00358917, 0.653286, 0.672866, 0.542657, 0.593185, 0.593329, 0.705319, 0.679452, 0.470762, 0.472362, 0.47248, 0.595179, 0.504609, 0.502078, 0.00324491, 0.00366878, 0.502461, 0.503917, 0.505564, 0.504705, 0.483066, 0.404442, 0.318593, 0.50254, 0.00346701, 0.469459, 0.48271, 0.38221, 0.411371
2.00269, 1.98567, 1.98735, 1.70925, 1.70805, 1.79283, 1.75768, 1.7418, 1.83132, 1.95249, 1.9532, 1.63768, 1.6144, 1.60064, 1.60569, 1.67617, 1.72398, 1.77605, 0.00336094, 1.76537, 1.76455, 1.48244, 1.47494, 1.51233, 1.5792, 1.63998, 1.64035, 1.78785, 1.6586, 1.64712, 1.48241, 1.49515, 1.50426, 1.45564, 1.45705, 1.43697, 0.0030556, 1.47937, 1.41854, 1.37051, 1.3772, 1.37086, 1.45714, 1.47727, 1.49459, 1.45664, 1.69049, 1.54316, 1.40324, 1.31171, 1.31167, 1.39822, 1.39355, 1.51309, 1.48824, 1.42943, 1.36537, 1.36705, 1.29731, 1.37591, 0.00315769, 0.00306858, 0.00330893, 1.75111, 1.55309, 1.46777, 1.62767, 1.5508, 0.00323601, 0.00341587, 0.00345018, 0.0034125, 0.00348489, 0.00335736, 1.86471, 1.50066, 1.50871, 1.56608, 1.53732, 1.96887, 0.00341734, 0.00332691, 1.78537, 1.78304, 1.775, 1.74148, 1.75161, 0.00322308, 0.00348413, 0.00333763, 0.0033568, 0.00344035, 0.0036135, 0.00394907, 0.00344193, 1.98747, 0.00322526, 2.08347, 0.00311245, 0.00325518, 0.00328078, 0.00320049, 0.00329141, 2.17927, 0.00334626, 2.19174, 0.00313264, 0.00325324, 0.0034052, 0.0036175, 0.00325683, 1.68175, 1.67561, 1.64402, 1.59522, 1.51784, 0.00327225, 0.00347948, 0.00328288, 1.06361, 0.00335119, 0.00336727, 0.974258, 0.806938, 0.778359, 0.76681, 0.644101, 0.740658, 0.693702, 0.797433, 0.00337403, 0.738325, 0.738224, 0.722862, 0.724982, 0.723767, 0.63324, 0.635713, 0.636228, 0.794152, 0.902966, 0.978351, 0.977991, 0.767232, 0.794475, 0.701638, 0.701771, 0.826946, 0.820212, 1.00505, 0.988455, 0.997499, 0.965336, 0.77181, 0.769701, 0.808563, 0.846107, 0.914429, 0.926822, 0.943042, 0.997027, 0.942208, 0.718826, 0.662976, 0.770054, 0.770142, 0.867125, 0.94749, 1.01511, 0.840958, 0.757436, 0.756229, 0.842292, 0.866829, 0.911573, 0.99136, 1.01084, 1.02561, 0.980886, 0.82184, 0.798287, 0.826737, 0.849973, 0.892609, 1.08228, 1.07805, 1.02534, 0.801294, 0.746112, 0.711574, 0.712332, 0.0108583, 1.08058, 1.11434, 1.11875, 1.14064, 1.15389, 0.976515, 0.976655, 1.10272, 1.14922, 0.00356071, 0.99935, 0.97832, 1.01178, 0.991881, 1.00101, 0.00329226, 0.00317568, 1.27417, 0.00310011, 0.814196, 0.815472, 0.86972, 1.04715, 1.02323, 0.00333811, 0.779778, 0.780579, 0.78423, 0.78551, 0.66351, 0.715882, 0.80321, 0.798609, 0.864057, 0.960669, 0.959522, 0.885813, 0.88856, 0.873339, 0.776046, 0.727813, 0.753027, 0.697485, 0.729279, 0.754831, 0.754797, 0.521361, 0.520935, 0.520117, 0.503985, 0.504103, 0.458901, 0.00331309, 0.435298, 0.436523, 0.441082, 0.475746, 0.476809, 0.805419, 0.846376, 0.846736, 0.903717, 0.877532, 0.731382, 0.718997, 0.845951, 0.810757, 0.92143, 0.921881, 0.924899, 0.00331919, 0.00351918, 0.00312051, 0.538883, 0.552747, 0.600508, 0.652988, 0.756371, 0.769119, 0.770664, 0.00320804, 0.631549, 0.57656, 0.591584, 0.648713, 0.710874, 0.707047, 0.472394, 0.473232, 0.473624, 0.584521, 0.487252, 0.460516, 0.568672, 0.00323178, 0.503115, 0.505371, 0.50608, 0.507988, 0.405791, 0.407492, 0.320906, 0.322408, 0.407263, 0.00330718, 0.483709, 0.376046, 0.411575
2.01039, 2.00591, 2.00707, 1.72127, 1.68516, 1.71231, 1.73146, 1.75409, 1.799, 1.91404, 1.91203, 1.66131, 1.58489, 1.58514, 1.62675, 1.68083, 0.00324547, 1.7421, 1.82374, 1.80774, 1.56627, 1.52277, 1.47398, 1.51573, 1.56854, 1.6462, 1.72867, 1.72, 1.72094, 1.6713, 1.46178, 1.42494, 1.46151, 1.43088, 1.47804, 1.64239, 1.70139, 0.00330388, 1.44702, 1.40035, 1.36907, 1.35516, 1.46721, 1.45148, 1.45882, 1.45697, 1.78697, 1.65519, 1.38754, 1.37909, 1.35043, 1.45928, 1.3816, 1.5477, 1.5178, 1.49982, 1.40493, 1.36203, 1.33363, 1.34851, 0.00322745, 0.00330758, 1.6668, 0.00314, 1.53393, 1.54467, 1.54625, 1.49516, 1.66863, 0.00340086, 0.0107436, 0.00338731, 1.81766, 1.82736, 1.82297, 0.00310133, 1.52309, 1.52341, 1.56552, 1.65439, 0.00353222, 0.00339972, 1.84577, 1.78493, 1.77608, 1.76152, 1.79357, 1.81071, 0.00333989, 0.00327866, 0.00347983, 0.00322446, 0.00324882, 0.00324371, 0.00349148, 0.00330733, 2.17457, 2.18127, 0.00356032, 0.00322028, 0.0032516, 0.00319068, 0.00355689, 0.00319686, 0.00318561, 0.00318836, 0.00372566, 0.00315102, 1.56592, 2.06827, 0.00319271, 0.0032189, 1.62158, 1.61461, 1.5408, 1.49232, 0.00349616, 0.00325595, 0.00336342, 0.774006, 0.781198, 0.805277, 0.787192, 0.807023, 0.783885, 0.714528, 0.645815, 0.704191, 0.735799, 0.00315847, 0.793659, 0.925655, 0.940571, 0.724529, 0.725971, 0.00330304, 0.63442, 0.634369, 0.637738, 0.782697, 0.886894, 0.88711, 0.977968, 0.781985, 0.791286, 0.774299, 0.757498, 0.833225, 0.849524, 0.917739, 1.02844, 0.988677, 0.962597, 0.850279, 0.739142, 0.778339, 0.893194, 0.943913, 0.931347, 0.94372, 0.972899, 0.722227, 0.706429, 0.695713, 0.742283, 0.742379, 0.816462, 0.957092, 0.990241, 0.843493, 0.745585, 0.746239, 0.885189, 0.875039, 0.895404, 1.00806, 1.0073, 1.01923, 0.928768, 0.829452, 0.710307, 0.710541, 0.797094, 0.911991, 1.08517, 1.04374, 1.08528, 0.00306417, 0.707192, 0.713947, 0.713928, 0.00346504, 0.00337548, 0.00325998, 1.14182, 1.17464, 1.17897, 1.03168, 0.978572, 0.00320061, 1.09926, 1.10113, 1.02227, 1.00252, 0.947463, 0.946843, 1.08588, 0.00343111, 1.23844, 1.24676, 0.789114, 0.811795, 0.822746, 0.785048, 0.8054, 0.829412, 0.828629, 1.03946, 1.04671, 0.784409, 0.973383, 0.00340604, 0.676426, 0.00342136, 0.00376064, 0.82844, 0.878728, 0.924958, 0.986223, 0.884295, 0.834799, 0.728092, 0.728413, 0.748502, 0.749309, 0.725682, 0.718603, 0.707321, 0.521177, 0.521095, 0.500602, 0.49824, 0.505755, 0.00311163, 0.478036, 0.426081, 0.43206, 0.432179, 0.473699, 0.473818, 0.805374, 0.804759, 0.859854, 0.00336396, 0.878218, 0.695614, 0.696765, 0.82461, 0.825591, 0.868907, 0.864081, 0.919569, 0.919832, 0.00299945, 0.559504, 0.560158, 0.628768, 0.669456, 0.652797, 0.741416, 0.769448, 0.00301287, 0.627767, 0.549963, 0.616079, 0.632308, 0.653595, 0.00335907, 0.705627, 0.722692, 0.514959, 0.472755, 0.473657, 0.47478, 0.461111, 0.00318787, 0.628627, 0.62261, 0.624114, 0.625151, 0.00335694, 0.405926, 0.31801, 0.320241, 0.321651, 0.403534, 0.403855, 0.0033458, 0.376593, 0.00340322
2.0105, 0.00301537, 1.71131, 1.68385, 1.70421, 1.68301, 1.73841, 1.72282, 1.81348, 1.89974, 1.8939, 1.6465, 1.5742, 1.56949, 1.59168, 1.66237, 1.68772, 0.0035207, 0.00325376, 1.79863, 1.56083, 1.52604, 1.48795, 1.53235, 1.55361, 1.64174, 0.00354651, 1.78522, 1.67891, 1.64998, 1.41381, 1.41433, 1.45871, 1.49466, 1.5236, 1.62972, 1.68258, 1.79526, 1.42595, 1.4515, 1.3335, 1.33114, 1.3886, 1.47953, 1.53065, 1.59278, 1.69372, 1.5009, 1.40916, 1.37714, 1.39114, 1.37384, 1.44121, 1.46097, 1.48534, 1.40703, 1.43653, 1.43694, 1.39536, 1.36528, 0.00289473, 0.00340855, 0.00336843, 1.67486, 1.56288, 1.52216, 1.54384, 1.59188, 0.00336786, 0.00324225, 0.00297939, 0.00337599, 0.0033163, 1.98908, 0.00341358, 0.00321591, 1.55626, 1.59824, 1.66279, 0.00381349, 1.83254, 0.00305205, 0.00320347, 1.84135, 1.81784, 1.86261, 1.82751, 1.85094, 0.00339703, 0.00336132, 0.00337526, 0.0110431, 0.00334541, 0.00353585, 0.00320852, 0.0107543, 0.00314862, 2.21031, 2.18389, 0.00344847, 0.00340241, 2.27412, 0.00349975, 0.0032789, 0.00328543, 2.21288, 0.00324998, 1.54675, 1.50285, 1.55799, 1.52646, 1.57813, 1.65109, 0.00327301, 0.00323038, 1.42446, 0.00351845, 0.0110153, 0.00352999, 0.749355, 0.781709, 0.781146, 0.00346316, 0.87779, 0.877381, 0.711441, 0.737855, 0.736397, 0.735315, 0.693888, 0.686833, 0.930115, 0.9427, 0.942495, 0.00362369, 0.628221, 0.628226, 0.62817, 0.813485, 0.800595, 0.887177, 0.875127, 0.949194, 0.704277, 0.766422, 0.748558, 0.725598, 0.829801, 0.848817, 1.0023, 1.03904, 1.01831, 1.01205, 0.828568, 0.78376, 0.780759, 0.908689, 0.889098, 0.94931, 0.949604, 0.00304507, 0.735459, 0.687616, 0.842392, 0.71898, 0.850087, 0.878034, 0.895616, 0.989999, 1.0291, 0.746445, 0.799863, 0.845974, 0.909242, 0.960596, 0.966151, 1.03865, 1.04029, 0.953071, 0.900972, 0.776825, 0.715292, 0.788385, 0.900651, 1.08028, 0.996098, 1.07081, 0.89524, 0.708732, 0.713622, 0.712861, 0.880449, 0.922937, 0.00335862, 1.18432, 1.12606, 0.00337143, 0.970548, 1.02886, 1.05074, 0.00338794, 1.13994, 1.03708, 0.991511, 0.946211, 1.0185, 1.03961, 0.00312446, 1.2303, 1.22345, 0.00366431, 0.776932, 0.783248, 0.784836, 0.804606, 0.959997, 0.980292, 1.02187, 1.04486, 1.04614, 0.00317498, 0.673836, 0.674817, 0.646289, 0.0030741, 0.800495, 0.878393, 0.915161, 0.918365, 0.882963, 0.767073, 0.849832, 0.800742, 0.853421, 0.00327991, 0.800956, 0.704466, 0.674772, 0.00357225, 0.500828, 0.502163, 0.502845, 0.498905, 0.00339608, 0.00352686, 0.479331, 0.43133, 0.430728, 0.563691, 0.494081, 0.802631, 0.815585, 0.00337097, 0.924668, 0.925066, 0.695218, 0.696325, 0.787603, 0.824081, 0.847309, 0.869406, 0.897344, 0.898569, 0.826901, 0.00340457, 0.541481, 0.610077, 0.621072, 0.709441, 0.740269, 0.746709, 0.786833, 0.476962, 0.478631, 0.507438, 0.631497, 0.00327792, 0.00336872, 0.675739, 0.528518, 0.513941, 0.515681, 0.472465, 0.526226, 0.57275, 0.600247, 0.00313141, 0.688222, 0.623514, 0.711502, 0.00339296, 0.0036263, 0.00306299, 0.327596, 0.328276, 0.438115, 0.368978, 0.490688, 0.373875, 0.362465
2.02082, 0.00323434, 1.78944, 1.63951, 1.641, 1.68288, 1.70996, 1.78094, 1.80735, 1.86982, 1.91009, 1.677, 1.56048, 1.56143, 1.62665, 1.62708, 1.68063, 0.00342131, 0.00345436, 0.00325006, 1.56472, 1.48353, 1.52316, 1.53029, 1.5718, 1.6391, 1.74841, 1.77592, 1.75475, 1.48298, 1.41205, 1.47489, 1.48443, 1.50732, 1.5687, 1.62996, 1.62175, 1.62311, 1.40179, 1.43421, 1.36421, 1.36222, 1.39728, 1.45018, 1.64035, 1.606, 0.00349762, 1.4164, 1.40926, 1.34247, 1.34729, 1.36509, 1.37471, 1.4345, 1.50741, 1.47786, 1.40266, 1.49991, 1.49675, 1.39836, 1.45256, 1.64024, 1.67958, 1.64405, 1.60025, 1.57155, 1.55774, 1.64192, 1.64057, 0.00323727, 0.00353229, 0.0033961, 2.01245, 0.00318763, 0.00372405, 0.00307791, 1.63502, 1.63591, 1.60249, 0.00312995, 1.8008, 0.00320878, 0.00331429, 1.84384, 1.84966, 1.85093, 1.86888, 1.87575, 0.00335682, 0.00322523, 0.0115197, 0.00333041, 0.00330428, 0.00308214, 0.00334789, 0.00338141, 2.12491, 2.04523, 2.21419, 0.00323099, 0.0115256, 0.00328111, 0.00380512, 0.00342084, 0.00322054, 2.2121, 2.21221, 1.50156, 1.45386, 1.41286, 1.4137, 0.00323416, 0.0112114, 1.47545, 1.45164, 0.00312072, 1.25826, 0.00328606, 0.742535, 0.713074, 0.732954, 0.705681, 0.704199, 0.680487, 0.670128, 0.00340154, 0.742192, 0.646488, 0.670198, 0.739438, 0.68673, 0.673946, 0.701634, 0.974259, 0.898947, 0.71483, 0.62875, 0.674033, 0.84052, 0.746003, 0.886809, 0.90053, 0.925363, 0.75104, 0.701782, 0.738665, 0.787468, 0.821166, 0.835359, 1.00469, 1.0043, 0.00335685, 1.0284, 0.703191, 0.766865, 0.80831, 0.873489, 0.912792, 0.897542, 0.94908, 0.96995, 0.757793, 0.676301, 0.729521, 0.756909, 0.787251, 0.84658, 0.795876, 0.999303, 0.00323174, 0.849457, 0.85918, 0.844933, 0.852427, 0.872275, 1.00311, 1.00444, 1.03832, 1.03719, 0.881681, 0.753143, 0.767341, 0.847383, 0.886996, 1.00253, 1.04652, 1.06848, 0.904285, 0.904346, 0.791206, 0.793124, 0.00316434, 0.00318332, 0.00334158, 1.17537, 1.1577, 1.13787, 0.970623, 0.972414, 1.06486, 1.02892, 1.05083, 1.03244, 1.00903, 0.953592, 0.987632, 1.05627, 1.06726, 1.22708, 0.0033501, 0.867318, 0.764723, 0.746526, 0.749902, 0.799327, 0.993024, 0.981467, 1.03748, 1.03865, 1.04731, 0.00363699, 0.602515, 0.558663, 0.00324296, 0.00327789, 0.893547, 0.894949, 0.881557, 0.882479, 0.881357, 0.739382, 0.735816, 0.742208, 0.823963, 0.815533, 0.736554, 0.753574, 0.673969, 0.720953, 0.501239, 0.502279, 0.503344, 0.427828, 0.00315295, 0.00327431, 0.427782, 0.482491, 0.525444, 0.427706, 0.496934, 0.802464, 0.798422, 0.831863, 0.905366, 0.978009, 0.808841, 0.724874, 0.788325, 0.790373, 0.890015, 0.880095, 0.898044, 0.899041, 0.00325824, 0.834482, 0.578232, 0.579477, 0.611838, 0.622039, 0.0033933, 0.780486, 0.00337212, 0.47789, 0.479737, 0.507159, 0.507954, 0.50877, 0.511786, 0.508077, 0.508559, 0.517349, 0.508738, 0.557222, 0.478299, 0.522415, 0.618329, 0.0107309, 0.00331707, 0.822048, 0.822382, 0.698996, 0.504767, 0.504684, 0.329319, 0.331103, 0.331315, 0.480331, 0.00303004, 0.327968, 0.413652
2.08083, 2.03432, 0.00323397, 1.66657, 1.63119, 1.63213, 1.74751, 1.74839, 1.8874, 1.89105, 0.00318061, 1.63372, 1.57594, 1.64457, 1.57067, 1.68516, 1.73061, 1.73824, 1.8114, 1.80184, 1.54462, 1.54326, 1.51585, 1.54693, 1.55204, 1.61592, 1.68283, 1.6665, 1.6414, 1.49907, 1.40817, 1.40767, 1.53899, 1.57625, 1.61956, 1.67341, 1.62239, 1.75044, 1.36968, 1.36865, 1.3601, 1.39279, 1.39181, 1.515, 1.59152, 1.5688, 1.67, 1.46094, 1.39965, 1.35802, 1.38787, 1.37222, 1.47108, 1.55306, 1.43806, 1.43146, 1.49988, 1.4947, 1.49465, 1.48261, 1.74747, 0.00337289, 1.69926, 1.67687, 1.62708, 1.56821, 1.53698, 1.67891, 1.68199, 1.63693, 1.74535, 0.00317958, 0.00318201, 0.00386822, 0.00344494, 0.00331204, 0.00354783, 1.64521, 1.71466, 1.71282, 0.0035951, 0.0037883, 0.00317293, 0.00343374, 1.88683, 1.87607, 1.97041, 0.00349601, 2.08672, 0.0105784, 0.00340027, 0.0116308, 2.11993, 2.12129, 0.00319545, 2.17228, 0.00349048, 2.1981, 2.23859, 2.1034, 0.00346385, 0.00322817, 0.00338833, 0.0034797, 0.00327966, 0.00337911, 0.00331033, 0.00321894, 1.38859, 1.34444, 1.35808, 1.39977, 0.00320062, 1.64084, 0.00337816, 1.43582, 0.00354525, 0.00352727, 0.750442, 0.74784, 0.75182, 0.706402, 0.705259, 0.901303, 0.901085, 0.666786, 0.666988, 0.704293, 0.615211, 0.686955, 0.721531, 0.769887, 0.672221, 0.670278, 0.901213, 0.753319, 0.624305, 0.673396, 0.00320663, 0.779184, 0.866729, 0.902032, 0.752925, 0.710379, 0.718457, 0.763603, 0.821597, 0.822243, 0.879077, 1.00814, 1.01966, 0.994231, 0.707341, 0.708813, 0.769113, 0.825092, 0.836387, 0.912006, 1.14168, 1.04663, 1.02225, 0.74705, 0.678689, 0.677478, 0.805444, 0.792013, 0.853045, 0.975748, 0.974715, 0.828147, 0.871847, 0.755389, 0.834218, 0.902174, 0.990138, 1.0135, 1.0145, 1.03335, 1.03579, 0.793513, 0.739855, 0.739323, 0.850419, 0.944822, 0.977697, 1.05638, 1.05348, 1.06733, 0.00356394, 0.794535, 0.794093, 0.864474, 0.00332085, 1.09621, 0.00302947, 1.27747, 1.1258, 1.0164, 1.00552, 1.03921, 1.19832, 1.20254, 0.983982, 0.982353, 0.974259, 0.987581, 1.068, 1.07197, 0.00306028, 1.16461, 0.781253, 0.712143, 0.00308293, 0.0032139, 0.00321684, 0.937583, 0.964076, 1.03703, 1.02185, 1.01617, 0.00341938, 0.590799, 0.533152, 0.531039, 0.00325326, 0.676683, 0.876309, 0.890218, 0.88415, 0.886704, 0.69139, 0.674427, 0.00327171, 0.772535, 0.739689, 0.753455, 0.674607, 0.667136, 0.72244, 0.500558, 0.501216, 0.425479, 0.428802, 0.429154, 0.443352, 0.433201, 0.483776, 0.528037, 0.534668, 0.466657, 0.479318, 0.850073, 0.801355, 0.966829, 0.848038, 0.908822, 0.70796, 0.834483, 0.00331059, 0.811291, 0.810871, 0.835659, 0.78029, 0.633007, 0.527489, 0.617791, 0.581188, 0.635735, 0.687629, 0.763027, 0.816174, 0.773032, 0.525505, 0.520699, 0.515679, 0.507995, 0.511915, 0.51424, 0.514556, 0.510562, 0.521296, 0.476752, 0.478259, 0.479274, 0.595956, 0.623784, 0.00330868, 0.663402, 0.658099, 0.823401, 0.00347322, 0.0107007, 0.00334811, 0.480958, 0.331696, 0.332504, 0.00340248, 0.497358, 0.341251, 0.331468
2.05097, 2.02089, 0.00347906, 1.66832, 1.68559, 1.65889, 1.77109, 1.77277, 1.76247, 1.77124, 1.82346, 1.63759, 1.62404, 1.54356, 1.55761, 1.60816, 1.64347, 1.77683, 1.7782, 1.81801, 1.53917, 1.49673, 1.48489, 1.5311, 1.56528, 1.6417, 1.61299, 1.63655, 1.64466, 1.46619, 1.4061, 1.43389, 1.54306, 1.54843, 1.61415, 1.69652, 1.72799, 1.42019, 1.41546, 1.3752, 1.37646, 1.3779, 1.40191, 1.42659, 1.51798, 0.00323047, 1.4809, 1.37866, 1.37733, 1.32384, 1.3436, 0.00337476, 1.49959, 1.46474, 1.45865, 1.51606, 1.52976, 1.51096, 1.52433, 1.56416, 1.56803, 1.59472, 1.60365, 1.77831, 1.61768, 1.63313, 1.63356, 1.56897, 1.5691, 1.68547, 0.0035098, 0.00325168, 0.00325615, 0.00323245, 0.00313464, 0.00359957, 0.00343289, 1.72322, 1.66438, 1.94118, 0.00321759, 1.83175, 0.00351936, 0.00338238, 1.92444, 2.01656, 2.04723, 0.00320737, 0.00317119, 0.00324105, 0.0036809, 0.00337513, 2.11985, 0.00356017, 0.00350524, 0.00334934, 2.16951, 0.00322647, 0.00348985, 0.00327019, 0.00350686, 0.00328211, 0.00342604, 0.00346143, 0.0108524, 0.0034632, 0.0111473, 0.00349046, 1.36709, 1.31324, 1.33271, 1.34985, 1.37886, 0.00337515, 0.00326972, 0.00333764, 0.00320029, 0.00329417, 0.781538, 0.739063, 0.690941, 0.00367775, 0.684127, 0.902913, 0.902106, 0.69541, 0.599881, 0.645871, 0.645515, 0.729383, 0.694326, 0.875805, 0.87416, 0.866777, 0.883154, 0.674515, 0.624547, 0.625126, 0.00323807, 0.00327583, 0.867584, 0.00320287, 0.00340849, 0.775114, 0.703965, 0.717697, 0.790713, 0.865923, 0.862736, 0.925488, 0.977689, 0.932619, 0.740095, 0.709189, 0.746662, 0.807615, 0.821697, 0.812542, 0.984653, 0.725683, 0.725658, 0.684902, 0.683825, 0.715796, 0.849783, 0.900917, 0.905583, 0.976488, 1.03213, 0.762081, 0.765172, 0.766571, 0.832644, 0.914115, 0.940036, 0.989971, 1.02993, 1.04289, 1.05548, 0.742551, 0.742993, 0.742483, 0.853627, 0.965187, 1.05314, 1.0329, 1.06119, 0.96364, 0.973839, 0.994847, 0.860624, 0.863567, 0.90501, 0.00358438, 1.09687, 1.12868, 1.12841, 1.12341, 1.08837, 1.13168, 1.19113, 1.18794, 1.00187, 0.943484, 1.00066, 1.10124, 1.00977, 1.13094, 1.13194, 1.13361, 0.00311337, 0.715304, 0.656691, 0.00315828, 0.00342547, 0.962861, 0.967343, 0.985516, 0.985603, 0.969234, 0.00345933, 0.509841, 0.531431, 0.593235, 0.594104, 0.692397, 0.816157, 0.812487, 0.912326, 0.913656, 0.626956, 0.693882, 0.748688, 0.746427, 0.785831, 0.741893, 0.758068, 0.75864, 0.743943, 0.553462, 0.55448, 0.505648, 0.43087, 0.432535, 0.430933, 0.536132, 0.431267, 0.42636, 0.539023, 0.558781, 0.727966, 0.788913, 0.832731, 0.832611, 0.850875, 0.674639, 0.633369, 0.674367, 0.704244, 0.770309, 0.776349, 0.778644, 0.777517, 0.845748, 0.612708, 0.618472, 0.656388, 0.636519, 0.70805, 0.00345248, 0.00345359, 0.00352592, 0.00329347, 0.515441, 0.542284, 0.541499, 0.51161, 0.513996, 0.497777, 0.458557, 0.556146, 0.504267, 0.476772, 0.580039, 0.590691, 0.601155, 0.639157, 0.623642, 0.645216, 0.644376, 0.519111, 0.517807, 0.00365225, 0.577152, 0.363174, 0.331114, 0.318402, 0.341075, 0.34448, 0.341137
2.05107, 2.06138, 0.00317572, 1.70216, 1.66129, 1.60886, 1.71082, 1.69475, 1.70737, 1.78512, 1.76729, 1.74447, 1.65062, 1.52643, 1.56426, 1.6296, 1.64704, 1.7572, 1.79718, 1.80902, 1.53542, 1.48594, 1.51323, 1.51497, 1.51636, 1.62103, 1.65581, 1.65563, 1.79005, 1.39993, 1.40336, 1.4238, 0.00310447, 1.53992, 1.58386, 1.64099, 1.64768, 1.47228, 1.39632, 1.35814, 1.35121, 1.48816, 1.40319, 1.53393, 1.58164, 1.68488, 1.32617, 1.27646, 1.38357, 1.38584, 1.32837, 1.45466, 1.53765, 1.48293, 1.51791, 1.48094, 1.45013, 1.54024, 1.53724, 1.52685, 1.52929, 1.58685, 1.63102, 1.80699, 1.65857, 1.6283, 1.66727, 1.63103, 1.70661, 1.69177, 0.00339473, 0.00336117, 0.00367639, 2.08114, 0.00285526, 0.00334273, 0.00338585, 1.77983, 1.74498, 1.7235, 1.72413, 1.8209, 0.00313944, 0.0114033, 0.00329657, 0.00319429, 0.00282237, 0.0107985, 0.00332131, 0.00346344, 0.00361008, 0.0169472, 2.10316, 2.11263, 2.1149, 0.00343407, 0.00308041, 2.07947, 2.07888, 0.00370402, 0.00315013, 0.00325873, 0.00321295, 0.00338165, 0.00325582, 0.00361683, 0.00338894, 0.00352773, 1.34928, 1.37186, 1.32968, 1.3377, 1.35162, 1.38751, 0.00306243, 1.39807, 0.00341672, 0.00354245, 0.00339545, 0.652633, 0.652374, 0.00327163, 0.00338959, 0.651383, 0.00326695, 0.639259, 0.615326, 0.614735, 0.614102, 0.756873, 0.00319107, 0.890086, 0.87746, 0.658397, 0.656756, 0.653845, 0.676027, 0.697525, 0.724552, 0.88414, 0.881381, 0.00324827, 0.930764, 0.930826, 0.710564, 0.706205, 0.810587, 0.863247, 0.874354, 0.969165, 1.03662, 1.03576, 0.00343138, 0.690855, 0.761034, 0.816684, 0.811595, 0.813481, 0.947967, 0.977879, 0.977873, 0.682233, 0.682935, 0.716865, 0.821219, 0.864251, 0.894039, 0.968998, 1.0318, 0.745752, 0.798299, 0.764165, 0.838573, 0.932962, 0.930016, 1.00052, 1.03019, 0.710818, 0.711103, 0.73973, 0.741491, 0.740861, 0.00313079, 0.966724, 1.01152, 1.02762, 1.02632, 0.973207, 0.964964, 0.995014, 0.988281, 0.906028, 0.973424, 0.973052, 1.09803, 1.10596, 1.12355, 1.08586, 1.02291, 1.12564, 1.19752, 1.20171, 0.00329477, 0.955676, 0.939154, 0.011107, 1.03092, 1.06105, 1.13308, 1.18161, 1.1182, 0.680332, 0.697906, 0.612229, 0.00339812, 0.964262, 0.964678, 0.983735, 0.00319034, 1.00892, 0.00326317, 0.512144, 0.512651, 0.52571, 0.00334903, 0.796701, 0.822417, 0.866724, 0.926194, 0.708585, 0.628841, 0.628597, 0.756189, 0.741239, 0.774112, 0.74552, 0.646721, 0.647142, 0.7147, 0.479351, 0.479417, 0.506708, 0.430693, 0.514985, 0.514836, 0.430383, 0.462988, 0.47931, 0.450033, 0.773584, 0.729973, 0.790228, 0.83056, 0.83354, 0.973271, 0.681864, 0.634851, 0.636336, 0.704803, 0.706621, 0.783165, 0.777636, 0.874468, 0.798691, 0.00307697, 0.558854, 0.652337, 0.670208, 0.701673, 0.698048, 0.825551, 0.00323657, 0.00328254, 0.54953, 0.462535, 0.518371, 0.549754, 0.497127, 0.500266, 0.458641, 0.450159, 0.450531, 0.552395, 0.643656, 0.626184, 0.583505, 0.621933, 0.6632, 0.00319308, 0.641243, 0.00352272, 0.473208, 0.476964, 0.425396, 0.436118, 0.313694, 0.31457, 0.33988, 0.353758, 0.354597
1.9653, 1.96574, 1.96646, 1.67221, 1.644, 1.63112, 1.64429, 1.7621, 1.7482, 1.72994, 1.72529, 1.71113, 1.55626, 1.49725, 1.54904, 1.60617, 1.60562, 1.72766, 1.81361, 1.81413, 1.55803, 1.48191, 1.48368, 1.54926, 1.54711, 1.60717, 1.69502, 1.74841, 1.438, 1.37759, 1.38087, 1.40959, 1.42842, 1.46187, 0.00321521, 0.00333075, 1.50852, 1.45452, 1.45958, 1.41762, 1.35869, 1.42098, 1.39466, 1.40054, 1.42595, 1.42421, 1.35758, 1.29393, 1.33793, 1.31818, 1.33987, 1.44875, 1.4713, 1.51729, 1.4814, 1.49871, 1.45051, 1.45048, 1.5507, 1.51067, 1.56661, 1.6021, 1.61912, 0.00317808, 1.88025, 1.65238, 1.60063, 1.7749, 1.72654, 0.00314957, 0.0112344, 0.00336957, 0.00354263, 0.00329951, 0.00330541, 0.00317666, 0.00324733, 0.00333382, 1.77157, 1.75728, 1.82841, 1.79646, 1.92803, 0.00342286, 0.00361422, 0.00347657, 2.04938, 0.00333395, 0.00359316, 0.00322367, 0.00328382, 0.00325085, 2.10294, 2.10439, 0.00333229, 2.10903, 0.00312001, 0.00330918, 2.08052, 0.00318925, 0.0032641, 0.00327634, 0.00318715, 0.00338179, 0.00337288, 0.00309879, 0.00363903, 0.00325512, 1.37023, 1.34132, 1.25635, 1.32617, 1.32073, 0.00318, 0.00314733, 0.00351145, 1.30273, 0.00337759, 0.725624, 0.608605, 0.672794, 0.750266, 0.828168, 0.866222, 0.86662, 0.666702, 0.614841, 0.613961, 0.753588, 0.00332289, 0.00336978, 0.867264, 0.684049, 0.682397, 0.657668, 0.746848, 0.682309, 0.697486, 0.677018, 0.814931, 0.891622, 0.00294706, 0.942419, 0.9318, 0.714371, 0.763094, 0.870784, 0.801471, 0.871282, 0.947109, 0.893586, 0.894257, 0.753, 0.718147, 0.754582, 0.816963, 0.86893, 0.887187, 0.729213, 1.00814, 1.00766, 0.680503, 0.711303, 0.760052, 0.820633, 0.816357, 0.86177, 0.958702, 0.958614, 0.0032583, 0.755064, 0.76823, 0.896934, 0.894878, 0.697508, 0.702186, 0.701745, 1.03955, 1.0407, 0.836707, 0.739641, 0.830551, 1.0024, 0.973191, 0.92699, 0.994866, 0.954826, 0.928613, 0.985055, 1.00319, 1.06793, 1.02822, 1.00949, 1.07185, 1.12331, 1.10844, 1.16711, 1.0438, 1.09164, 1.19558, 1.19512, 1.1812, 1.18352, 0.954233, 0.00331521, 1.00202, 1.03761, 1.07154, 0.00349909, 0.00330349, 1.1149, 0.00319157, 0.00307578, 0.661493, 0.66328, 0.68085, 0.980657, 0.976612, 0.00321504, 0.981431, 0.981258, 0.525173, 0.527469, 0.617962, 0.00314979, 0.0033761, 0.848777, 0.867694, 0.855328, 0.855839, 0.706032, 0.705833, 0.718154, 0.742605, 0.82813, 0.644711, 0.646916, 0.648084, 0.673246, 0.525328, 0.549052, 0.00344129, 0.695782, 0.522953, 0.397993, 0.413958, 0.400521, 0.408689, 0.451525, 0.451856, 0.704907, 0.00341963, 0.842752, 0.977596, 0.975368, 0.976926, 0.633133, 0.638855, 0.752204, 0.00320164, 0.960189, 0.96275, 0.875239, 0.801488, 0.877594, 0.621431, 0.652178, 0.612001, 0.704151, 0.756267, 0.718433, 0.570771, 0.55218, 0.549835, 0.532298, 0.513663, 0.487592, 0.508738, 0.495457, 0.448211, 0.450016, 0.451773, 0.458987, 0.523823, 0.593315, 0.672166, 0.672415, 0.693434, 0.694532, 0.586148, 0.491877, 0.494566, 0.574758, 0.459434, 0.306815, 0.314503, 0.414498, 0.00324148, 0.355738, 0.371032
0.00330142, 0.00338248, 0.00309767, 1.69237, 1.67547, 1.64172, 1.65113, 1.65525, 1.77373, 0.00341365, 0.00335166, 1.55148, 1.4962, 1.49622, 1.52896, 1.56058, 1.647, 1.72419, 1.72627, 1.73735, 1.51612, 1.48468, 1.47482, 1.51634, 1.56436, 1.57988, 0.00341793, 0.0111493, 1.44217, 1.46962, 1.46823, 1.44317, 1.43285, 1.45485, 1.4869, 1.52753, 1.59183, 1.58931, 1.47421, 1.38924, 1.41666, 1.38564, 1.38523, 1.47159, 1.47107, 0.00325834, 1.3532, 1.30529, 1.31119, 1.27496, 1.2741, 1.35298, 1.545, 1.49647, 1.52819, 1.53191, 1.48896, 1.5613, 1.56123, 1.53054, 1.55581, 1.59617, 0.00331434, 0.00358514, 0.00335674, 1.66208, 1.64767, 1.70376, 1.70692, 1.7442, 1.80421, 0.00324235, 2.08056, 0.00324617, 0.00329453, 2.07009, 0.003259, 0.00322621, 0.00336443, 1.79234, 1.81917, 1.79302, 1.82131, 1.82668, 0.00336395, 0.00305817, 0.0031367, 0.00363404, 0.00331515, 0.00334365, 0.00319105, 0.00347289, 0.00339209, 2.10772, 2.10778, 2.1083, 0.00297225, 0.0034489, 1.78302, 0.00358623, 0.00300212, 0.00348303, 0.00309394, 0.00357398, 0.00311579, 1.75743, 1.59262, 1.57581, 1.33851, 1.33074, 1.26302, 1.33915, 1.34018, 1.34008, 1.32222, 1.39115, 1.35477, 0.701182, 0.717915, 0.610703, 0.610814, 0.705331, 0.0034073, 0.901994, 0.00340588, 0.656375, 0.692108, 0.566116, 0.748868, 0.00322107, 0.667181, 0.673423, 0.93895, 0.959149, 0.887031, 0.74337, 0.684612, 0.63663, 0.711714, 0.853351, 0.851972, 0.902522, 0.957199, 1.02742, 0.762966, 0.699881, 0.854782, 0.846207, 0.890978, 0.884232, 0.894563, 0.894671, 0.754788, 0.69437, 0.711531, 0.755945, 0.870508, 0.00337506, 0.732602, 0.732827, 0.9835, 0.732141, 0.722845, 0.723351, 0.808638, 0.790474, 0.853509, 0.959042, 0.957613, 1.0265, 0.723009, 0.753297, 0.834598, 0.894333, 0.70046, 0.700751, 1.03596, 1.0396, 1.04601, 0.83207, 0.757938, 0.82695, 0.826255, 0.991905, 0.982023, 0.997917, 0.984721, 1.01559, 0.938679, 1.02413, 0.00356732, 1.05337, 1.08841, 1.09909, 0.00352246, 1.16885, 1.08744, 1.0797, 1.05578, 1.23113, 1.19868, 1.24021, 0.90743, 0.870064, 0.00309036, 0.997971, 1.03821, 0.950908, 0.953399, 1.0905, 0.997316, 0.00310228, 0.0032195, 0.712714, 0.655779, 0.781617, 0.00331867, 1.01128, 1.00968, 0.991078, 0.55082, 0.527477, 0.528322, 0.527981, 0.535482, 0.00330824, 0.802037, 0.812933, 0.807227, 0.646762, 0.630439, 0.676589, 0.754452, 0.812204, 0.830001, 0.830434, 0.646944, 0.647546, 0.48294, 0.515604, 0.462589, 0.696482, 0.00350075, 0.52768, 0.401755, 0.401436, 0.587396, 0.406894, 0.46301, 0.00306841, 0.741014, 0.739022, 0.849387, 0.846507, 0.845746, 0.850749, 0.634363, 0.634343, 0.00317336, 0.00304362, 0.00328338, 0.933519, 0.00348999, 0.82382, 0.00324877, 0.562564, 0.553488, 0.60974, 0.00344703, 0.561529, 0.75659, 0.572271, 0.00320515, 0.431663, 0.431235, 0.434199, 0.43422, 0.438117, 0.491195, 0.745912, 0.448737, 0.459013, 0.00326733, 0.576363, 0.565984, 0.604063, 0.655191, 0.663804, 0.584883, 0.587068, 0.497113, 0.576234, 0.577187, 0.30649, 0.308648, 0.310103, 0.421544, 0.418172, 0.36766, 0.372951
2.02709, 0.00319855, 1.98876, 1.73471, 1.66465, 1.6073, 1.67542, 1.71123, 1.79501, 0.00321778, 1.87924, 0.00328323, 1.52354, 1.53415, 1.52595, 1.56116, 1.60094, 1.67573, 1.73825, 1.53258, 1.53997, 1.49483, 1.48277, 1.53647, 1.51655, 1.56727, 1.65782, 1.65041, 1.686, 1.45007, 1.40829, 1.43336, 1.4328, 1.45628, 1.46902, 1.49239, 1.67703, 1.56383, 1.47329, 1.35795, 1.35787, 1.54266, 1.39459, 1.44051, 1.4967, 0.00312509, 1.34542, 1.30274, 1.29587, 1.34046, 1.30233, 1.4055, 1.40329, 1.49972, 1.61022, 1.53444, 1.50305, 1.54816, 1.5403, 1.61148, 1.57446, 1.64107, 0.00357759, 0.00305799, 0.00347788, 0.00333336, 1.66203, 1.8662, 1.7401, 0.00339664, 0.00338728, 0.00337039, 0.00345313, 0.00322344, 0.00345377, 0.00323783, 0.0033377, 0.00357982, 1.87142, 0.00323238, 0.00328261, 1.8431, 1.83395, 0.00352869, 0.0034998, 0.00317743, 0.0034607, 0.0032752, 0.0110359, 0.00334669, 2.14678, 0.00338062, 0.00385251, 0.00317629, 0.00324689, 0.00317251, 0.0115217, 1.66135, 1.62407, 1.66462, 0.00383585, 1.90383, 1.90275, 1.83048, 1.75819, 0.00327339, 1.59566, 0.00326751, 1.31594, 0.00332904, 1.25087, 1.25022, 1.32853, 1.35726, 1.378, 0.00338414, 1.33425, 0.0032158, 0.615284, 0.653082, 0.624949, 0.662947, 0.690085, 0.877014, 0.809018, 0.695112, 0.625576, 0.631956, 0.676083, 0.0030881, 0.669849, 0.668072, 1.0577, 0.00333949, 0.00366253, 0.766404, 0.784158, 0.639879, 0.718681, 0.821524, 0.875459, 0.00330516, 1.0213, 1.02019, 0.707506, 0.70106, 0.741759, 0.796763, 0.886619, 0.963957, 0.964602, 0.00314636, 0.766951, 0.659926, 0.662606, 0.648109, 0.824142, 0.82415, 0.954701, 0.985202, 0.980799, 0.710953, 0.710685, 0.727914, 0.80159, 0.802381, 0.862979, 0.947507, 0.758458, 0.671689, 0.671845, 0.71106, 0.687044, 0.862233, 0.923142, 0.998145, 0.997595, 1.07791, 0.798624, 0.79948, 0.788806, 0.831777, 0.911657, 0.980536, 0.982613, 1.01843, 1.00478, 1.06102, 0.953963, 1.00217, 1.07734, 1.05038, 1.12916, 1.09786, 1.13537, 1.16886, 1.05544, 0.964566, 0.965355, 0.986249, 1.2289, 1.22173, 0.833047, 0.845313, 0.864143, 0.939415, 1.01518, 1.01746, 1.01989, 0.970186, 0.998195, 0.00310431, 0.730767, 0.65566, 0.700829, 0.57308, 0.00338145, 1.0807, 1.08085, 0.00313645, 0.594783, 0.00321989, 0.529165, 0.570064, 0.530076, 0.00298428, 0.794003, 0.775208, 0.636133, 0.642377, 0.590254, 0.718748, 0.704185, 0.771764, 0.814023, 0.784178, 0.763728, 0.711899, 0.732858, 0.46189, 0.459194, 0.459547, 0.003294, 0.537223, 0.406912, 0.406655, 0.422842, 0.469875, 0.435385, 0.549373, 0.677703, 0.747689, 0.773912, 0.00311117, 0.819373, 0.881269, 0.753757, 0.00331664, 0.00332298, 0.745496, 0.00316037, 0.863726, 0.863818, 0.898227, 0.00329551, 0.606901, 0.563334, 0.00321145, 0.642785, 0.00339816, 0.758424, 0.626643, 0.628069, 0.432311, 0.436366, 0.438064, 0.435985, 0.490375, 0.744306, 0.54269, 0.544102, 0.497198, 0.564265, 0.553915, 0.554289, 0.600704, 0.634699, 0.579703, 0.585662, 0.597445, 0.507906, 0.0029816, 0.57722, 0.00332378, 0.446528, 0.424461, 0.421626, 0.00315243, 0.369789, 0.369091
