1.13383,1.04938,1.05255,1.05645,1.0608,1.06357,1.06761,1.06766,1.06999,1.07498,1.07747,1.0813,1.08353,1.08432,1.08636,1.15109,1.3083,1.08246,1.08508,1.08425,1.08188,1.0813,1.08359,1.08364,1.08368,1.08794,1.0849,1.08337,1.0822,1.08151,1.08424,1.08406,1.08502,1.08528,1.08724,1.08785,1.08545,1.08474,1.08578,1.0896,1.08974,1.08963,1.09117,1.08993,1.09161,1.09108,1.09263,1.09289,1.09237,1.09132,1.08651,1.08203,1.08113,1.08167,1.07045,1.07045,1.06164,1.06014,1.06076,1.06126,1.05629,1.05723,1.0637,1.61339,1.07509,1.07584,1.07624,1.07565,1.07606,1.07567,1.07316,1.07363,1.06806,1.06327,1.24983,1.18794,1.18867,1.07342,1.03301,1.08229,1.26917,1.05715,1.00412,0.999395,1.29288,1.19801,1.29536,0.983118,0.980577,0.975489,0.973091,0.972614,0.966868,1.00655,1.00857,0.960295,0.95801,0.960029,0.959526,0.958197,0.96715,0.973774,0.979013,0.980966,0.988303,0.994122,0.998178,1.00137,1.00574,1.01999,1.01047,1.01218,1.01347,1.0145,1.02314,1.11281,1.05742,1.05864,1.05365,1.05787,1.21276,1.08859,1.1855,1.18201,1.18856,1.17455,1.14803,1.14283,1.16414,1.14499,1.14499,1.15392,1.16043,1.1664,1.16876,1.21483,1.18927,1.19143,1.19369,1.20244,1.21047,1.21444,1.21659,1.22764,1.23798,1.32006,1.2632,1.4227,1.33707,1.34129,1.32924,1.27274,0.00396356,1.29812,1.29128,1.29866,1.3032,1.30888,1.31387,1.31906,1.32731,1.34737,1.35488,1.35513,1.36018,1.45179,1.38558,1.37958,1.36722,1.37269,1.37949,1.38888,1.38943,1.39873,1.40203,1.40885,1.41655,1.4247,1.42507,1.49264,1.49939,1.46529,1.46496,1.47119,1.47525,1.48546,1.48769,1.50424,1.50564,1.51218,1.51621,1.51477,1.52668,1.53069,1.53418,1.53494,1.53756,1.54419,1.54358,1.55008,1.55001,1.55009,1.55081,1.55053,1.54833,1.54686,1.55616,1.55395,1.55412,1.55475,1.55568,1.55532,1.55515,1.55829,1.5678,1.56546,1.57459,1.57626,1.58511,1.5826,1.58937,1.58846,1.59666,1.60374,1.60481,1.60529,1.61631,1.61426,1.6303,1.63634,2.15092,2.14116,1.65802,1.66537,1.67077,1.67913,1.67796,1.68595,1.7731,1.77375,1.69975,1.80919,1.78643,1.7238,0.00358388,0.0037782,1.74454,1.74356,1.75011,1.81475,0.00363913,0.00379252,0.00383152,1.78777,1.79843,1.79698,1.79988,1.79981,1.80637,1.80431,1.81116,1.87291,0.00354311,1.82878,1.85351,1.85385,0.00375371,1.86887,1.84293,1.86901,0.00412615,1.84572,1.84972,1.84776,1.85661,1.86489,1.86471,1.86819,1.86894,1.8706,1.87942,1.8825,1.87656,1.88401,1.88674,1.90052,0.00373534,1.90988,0.00397844,1.92763,1.9269,0.0167103,0.00362749,0.00387835,0.00328711,2.03819,0.00380105,0.00422745,0.00388727,0.00417199
1.05582,1.05788,1.05876,1.0643,1.06693,1.07061,1.07332,1.07442,1.07976,1.07962,1.08095,1.0856,1.08755,1.0872,1.08906,1.09003,1.08981,1.08755,1.08716,1.08575,1.08613,1.0855,1.08507,1.08524,1.08771,1.08806,1.08914,1.08959,1.08854,1.09055,1.08705,1.08706,1.08904,1.09069,1.0911,1.09174,1.0947,1.0929,1.09383,1.09358,1.0946,1.0939,1.09449,1.09502,1.09576,1.09326,1.09447,1.09418,1.0939,1.09658,1.09398,1.09071,1.08863,1.08832,1.08066,1.08013,1.07696,1.59303,1.1266,1.27492,1.06069,1.28867,1.06869,1.1152,1.07762,1.07789,1.08029,1.07968,1.0794,1.07572,1.07395,1.07462,1.06977,1.16874,1.20974,1.21214,1.15756,1.18121,1.04265,1.19798,1.06328,1.26996,1.27133,0.993179,0.99124,0.986012,0.982231,0.978054,0.97633,0.973209,1.08404,0.965079,1.17489,0.953966,0.954035,0.955439,0.957,0.959356,0.960801,0.960214,0.960967,0.974513,0.984165,0.987598,0.993576,0.995639,0.996658,0.999467,1.00246,1.14024,1.14356,1.08194,1.08422,1.0863,1.14055,1.07159,1.11855,1.12733,1.12269,1.11743,1.11802,1.11683,1.08434,1.09298,1.09809,1.16385,1.22983,1.25268,1.15078,1.14635,1.24392,1.31783,1.16263,1.1637,1.1753,1.1774,1.18291,1.18819,1.26352,1.20182,1.20996,1.20848,1.22976,1.32272,1.31238,1.23983,1.24113,1.24615,1.24705,1.25255,1.25804,1.26804,1.31049,1.30882,1.30592,1.32607,1.31786,1.31812,1.55503,1.31863,1.32722,1.32948,1.32825,1.34754,1.33902,1.39264,1.37272,1.35437,1.37241,1.37388,1.38189,1.62323,1.39312,1.39753,1.40291,1.40652,1.41566,1.42364,1.42258,1.43695,1.45083,1.44836,1.46419,1.46404,1.47956,1.49266,1.49135,1.50186,1.5,1.51077,1.51642,1.51796,1.52326,0.00352496,1.53283,1.53317,1.54003,1.54215,1.54387,1.54542,1.54655,1.55084,1.54972,1.55055,1.54765,1.55002,1.54842,1.54828,1.54979,1.54482,1.55108,1.55234,1.55388,1.55243,1.55517,1.57128,1.57265,1.57871,1.57707,1.58398,1.58704,1.58897,1.59671,1.59688,1.60058,1.60585,1.6123,1.61735,0.00403895,1.63367,0.00389166,1.64228,1.68188,2.0652,1.66518,1.68182,1.67727,1.68546,1.68428,0.00412376,2.17312,1.70738,1.70597,1.71657,2.17395,1.72463,2.16038,0.00401839,1.75171,1.77215,0.00407994,0.00370186,1.79211,1.78625,1.78584,1.97298,1.79928,1.79715,1.80489,1.80674,1.81064,1.81784,1.90588,1.84785,1.82419,1.82216,1.8628,1.8308,1.84189,0.00386095,1.84243,1.84688,1.84697,1.85078,1.86156,0.0038421,1.8635,1.86093,1.86965,1.86549,1.86338,1.86937,1.87198,0.00389596,0.00414853,0.0042099,2.03049,1.90969,1.91394,0.00399854,0.00380241,0.00322264,0.00403218,0.00409569,0.00360373,0.00367358,0.00432089,0.00442189,2.05709,2.05856
1.06451,1.09298,1.06919,1.07263,1.07518,1.07756,1.08214,1.08352,1.084,1.08748,1.08895,1.09096,1.09119,1.09359,1.09136,1.09385,1.09128,1.09027,1.08999,1.08936,1.09077,1.08821,1.08769,1.08861,1.09083,1.09112,1.0912,1.09496,1.09559,1.09441,1.09464,1.09513,1.09742,1.09579,1.09947,1.09832,1.099,1.09913,1.10096,1.10036,1.10094,1.1012,1.10186,1.10123,1.10216,1.10107,1.10117,1.10098,1.10101,1.09903,1.09812,1.09781,1.09761,1.09652,1.09277,1.09143,1.08756,1.08883,1.08415,1.08489,1.08203,1.08085,1.07838,1.08072,1.08114,1.08248,1.08258,1.08169,1.08091,1.08044,1.08078,1.07583,1.06883,1.21902,1.19133,1.18833,1.17878,1.0906,1.09078,1.09389,1.09449,1.00854,1.00972,1.16287,1.16229,0.978009,0.979061,0.973763,0.972924,0.966582,0.966504,0.968204,1.17068,0.953931,0.951301,0.950128,0.951214,0.951109,0.95992,0.961523,0.96306,0.976153,0.977647,0.977296,0.98227,0.989967,0.992186,0.995167,0.998743,1.00066,1.00206,1.00524,1.00621,1.01501,1.01861,1.14118,1.13642,1.14285,1.24419,1.20242,1.24648,1.08871,1.09055,1.09892,1.10668,1.10941,0.00374598,1.15631,0.00373733,1.14768,1.15009,1.15385,1.16196,1.16824,1.17166,1.1784,1.18438,1.19847,1.19651,1.19981,1.20821,1.21218,1.2132,1.22186,1.23244,1.23439,1.24297,1.24675,1.24688,1.25372,1.36041,1.27179,1.27832,1.28132,1.37155,1.43933,1.31465,1.30645,1.3098,1.31569,1.32445,1.32543,1.32693,1.33483,1.33969,1.40238,1.37763,1.35751,1.36103,1.36731,1.41729,1.40688,1.38926,1.40615,1.40656,1.40635,1.41455,1.41931,1.42741,1.43917,1.43959,1.45341,1.4654,1.46905,1.47497,1.48519,1.48882,1.49448,1.50622,1.50731,1.51372,1.51907,0.00370338,1.52282,1.52957,1.52981,1.53378,1.53233,1.53606,1.54029,1.5455,1.54654,1.54441,1.54704,1.54504,1.54481,1.54505,1.54819,1.54711,1.54553,1.54665,1.54602,1.54893,1.55412,1.55212,1.55754,1.56917,1.56887,0.00321697,1.5831,1.58502,1.58927,2.08628,1.604,1.60547,1.60392,1.61019,1.61949,1.62688,1.62343,2.06352,1.63942,0.00392453,1.72386,0.00373573,0.00382521,0.00365044,0.00401677,0.00384726,1.69259,0.00374662,1.70469,1.70295,1.71611,1.72678,1.72656,1.73082,0.00400512,0.00426111,1.7511,0.00356531,2.09862,0.00341136,1.78219,1.78395,1.99493,1.7952,1.83424,1.80988,1.8062,1.81978,1.9163,1.91456,1.82352,1.84872,1.82854,1.82735,1.83053,0.00369614,1.83336,0.00354623,1.84077,1.83733,1.84382,0.00414968,1.87594,1.85753,1.85665,1.86221,1.86734,1.86846,1.87174,0.0040005,1.88819,0.00353828,1.89334,0.0036357,1.90117,0.0037405,1.91065,0.00361168,0.00966605,0.00413688,0.00381683,1.95965,1.95707,0.00342648,1.959,0.00406833,0.00440525
1.07379,1.07493,1.07858,1.08103,1.08556,1.08527,1.08729,1.09046,1.09057,1.09084,1.09319,1.09423,1.09395,1.09441,1.0948,1.09415,1.09453,1.09262,1.09456,1.09327,1.0924,1.09425,1.09352,1.09416,1.0959,1.09757,1.09826,1.0983,1.09753,1.09637,1.09718,1.09911,1.10189,1.10274,1.10481,1.10492,1.10326,1.10352,1.10479,1.10504,1.10592,1.10713,1.10578,1.1052,1.10498,1.10436,1.10586,1.10406,1.10471,1.10383,1.10434,1.1012,1.10043,1.10114,1.77924,1.78097,1.09776,1.09298,1.10174,1.08959,1.09021,1.08962,1.08886,1.08688,1.08745,1.0858,1.08559,1.0875,1.08464,1.08507,1.16728,1.36833,1.3674,1.58985,1.18122,1.1195,1.1368,1.19066,1.07708,1.08753,1.06543,1.0705,1.01515,1.05766,1.04607,0.982886,0.984788,0.973778,0.970342,0.963158,1.06965,0.948358,0.947065,0.947364,0.949006,0.946496,0.947243,0.959484,0.961682,0.972125,0.974762,0.977869,0.978192,0.975992,0.979273,0.980655,1.08334,0.988892,0.991225,1.14896,1.02234,1.01315,1.04918,1.01554,1.24768,1.17538,1.13887,1.37411,1.05647,1.06418,1.06866,1.07625,1.09052,1.09155,1.1056,1.18723,1.18157,1.15396,1.16321,1.16465,1.25189,1.24372,1.24919,1.17895,1.18209,1.18593,1.19282,1.19836,1.20027,1.20235,1.2118,1.2117,1.22571,1.22768,1.22584,1.23363,1.23982,1.24462,1.25316,1.25389,1.26411,1.27381,1.28187,1.28185,1.29204,1.29822,1.29899,1.3054,1.30642,1.31066,1.31992,1.32649,1.33908,1.33773,1.34063,1.34393,1.35385,1.35774,1.35814,1.36681,1.37449,1.37562,1.38887,1.3921,1.39795,1.41226,1.40977,1.41367,1.42736,1.42812,1.43851,1.45067,1.46427,1.46362,1.47255,1.5332,1.55088,0.00414251,1.49695,1.50082,1.50297,1.51099,1.51555,0.00387779,1.52676,1.52433,1.5268,1.53467,1.53097,1.53549,1.54226,1.5421,1.54382,1.54458,1.54132,1.54345,1.53956,1.54331,1.5441,1.54538,1.54412,1.54423,1.5514,1.55454,1.55772,1.56258,1.56454,1.56827,1.57578,1.57773,1.5804,1.58958,1.58987,1.59945,0.00350048,1.60708,1.60803,1.61007,1.61374,1.61466,1.61972,0.00352009,1.66158,2.02772,2.02752,0.00390746,0.003495,2.16669,1.68323,1.68195,2.08902,1.69971,1.70222,0.00418411,1.72168,1.72692,1.72741,0.00386751,1.75219,2.10718,1.7594,1.87062,1.77027,1.77834,1.78291,1.78547,1.78207,1.99002,1.91299,1.9009,1.89888,1.80975,1.81016,1.8203,1.81804,1.82313,1.82286,1.82527,1.82457,0.00396452,0.00387562,0.00333918,0.00415371,1.83474,1.85588,0.00378608,1.85473,1.85489,1.85828,1.95018,1.86449,1.87184,1.87531,1.87989,1.87919,0.00401724,1.88715,0.00348555,0.0038796,1.90191,1.91664,0.00390593,1.92488,0.00354227,1.93977,0.00381531,1.94289,0.00391537,2.04368,2.04128
1.08179,1.12497,1.19805,1.08738,1.08917,1.09226,1.09273,1.09416,1.09489,1.09453,1.09593,1.09718,1.09705,1.09639,1.09883,1.09911,1.09715,1.09806,1.09893,1.09934,1.1964,1.10245,1.1011,1.09945,1.10425,1.33115,1.10006,1.10219,1.09771,1.09773,1.0989,1.10251,1.25775,1.10583,1.10647,1.10889,1.10838,1.10889,1.10829,1.10836,1.11139,1.11026,1.11072,1.11168,1.11074,1.10854,1.1085,1.10775,1.10406,1.10432,1.10501,1.10548,1.10785,1.10591,1.1037,1.10378,1.10406,1.10339,1.1022,1.24421,1.09802,1.09579,1.09466,1.09445,1.09525,1.09336,1.0931,1.09069,1.183,1.11616,1.11403,1.12204,1.17053,1.37492,1.24977,1.16731,1.15142,1.14792,1.0838,1.12548,1.12584,1.01235,1.01352,1.0057,1.00623,0.984008,0.97385,0.973434,1.0508,1.24602,1.04832,0.946224,0.946645,0.947267,0.948017,0.956619,0.961076,0.963336,0.968326,0.973695,0.975308,0.975115,0.977473,0.972901,0.975795,0.977931,0.984088,0.984327,0.98758,1.17658,1.17767,1.17788,1.08721,1.32758,1.32708,1.17119,1.32401,1.32812,1.33067,1.06321,1.06425,1.07782,1.08371,1.09777,1.18416,1.19601,1.15386,1.17106,1.16526,1.22773,1.23419,1.1675,1.1706,1.18426,1.18637,1.19639,1.19923,1.20093,1.20149,1.21532,1.22174,1.22617,1.2268,1.23845,1.23657,1.23982,1.24012,1.25066,1.25152,1.26604,1.27245,1.27919,1.2827,1.28788,1.31393,1.29997,1.3038,1.30437,1.31871,1.31743,1.39875,1.32652,0.00397332,1.58948,1.34075,1.35091,1.35003,1.35911,1.36071,1.36618,1.37157,1.3742,1.38061,1.38456,1.48718,1.40051,1.40376,1.41089,1.41916,1.42327,0.00409545,1.53727,0.00396707,1.46018,1.62405,1.59703,1.5084,1.48808,1.58529,1.49588,1.4974,1.50367,1.5088,1.50693,1.51499,1.52032,1.51793,1.52259,1.52724,1.52797,1.53335,1.53228,1.53616,1.53991,1.54108,1.53966,1.54612,1.5406,1.53861,1.54107,1.54455,1.54509,1.66779,1.5584,1.55662,1.55581,1.5892,1.57099,1.56998,1.57457,1.57962,1.58593,1.58626,1.58998,1.59635,1.60553,1.60292,1.60978,1.6093,1.61785,1.61886,1.62959,0.00345681,1.66436,0.00353869,1.70217,0.00370253,1.67698,1.67715,0.00387458,1.68847,1.69758,0.00386202,1.71433,1.71258,1.72992,1.73157,1.74328,1.74042,1.74565,0.00389351,1.9776,0.00377076,2.02711,1.86258,1.78369,1.78192,1.78901,1.79892,1.79917,1.80114,1.80786,1.80724,1.81317,1.81645,1.81324,1.81691,1.80991,1.81678,1.81395,1.81425,1.81643,1.81505,1.82063,1.82485,0.00334226,0.00394995,0.00388503,1.85836,1.85202,1.86461,1.94024,1.86999,1.87528,0.00315392,1.88101,1.87977,1.88238,0.00395487,1.89467,0.00405654,0.00468823,1.95205,1.95182,0.00384607,0.00407526,0.00383936,1.94582,1.94484,0.00379293
1.08759,1.09166,1.09313,1.0954,1.09691,1.09815,1.09901,1.09827,1.09962,1.10185,1.10146,1.10292,1.10313,1.10418,1.1051,1.10652,1.10727,1.10553,1.10493,1.10596,1.10863,1.10823,1.10769,1.11002,1.109,1.10966,1.10897,1.10856,1.10881,1.10878,1.25593,1.10832,1.11118,1.10983,1.11075,1.11349,1.11451,1.1155,1.11505,1.11457,1.11288,1.11454,1.11246,1.11358,1.11391,1.11187,1.11175,1.10819,1.10889,1.10759,1.10786,1.10875,1.10961,1.11131,1.11105,1.11229,1.11074,1.10973,1.10988,1.10997,1.24033,1.2332,1.10369,1.1777,1.10196,1.10005,1.31015,1.36528,1.09051,1.09161,1.08445,1.08495,1.07604,1.07427,1.07072,1.06502,1.05862,1.1671,1.15882,1.18093,1.18088,1.08397,1.09965,1.06326,0.98677,0.984932,1.12411,1.0812,0.962674,0.961082,0.96046,0.957008,0.9571,0.959013,0.958332,0.960325,0.961838,0.963689,0.966419,0.969321,0.972188,0.974347,0.974311,0.976251,0.979902,1.09878,1.15686,0.986916,0.98836,1.0767,1.38976,1.00238,1.15019,1.01456,1.10339,1.10352,1.27049,1.04143,1.28929,1.28971,1.23706,1.21664,1.28491,1.10466,1.10439,1.32259,1.13765,1.19904,1.17413,1.21991,1.16452,1.16509,1.17403,1.1871,1.18993,1.19478,1.2034,1.21341,1.2167,1.21917,1.22593,1.23782,1.23773,1.23895,1.24885,1.24801,1.25397,1.25594,1.26798,1.2737,1.2788,1.2844,1.2879,1.29235,1.30881,1.30319,1.30995,1.31357,1.31333,1.31697,1.32052,1.33295,1.33826,1.33607,1.33697,1.34357,1.37642,1.36564,1.42268,1.38094,1.43925,1.37764,1.37718,1.37956,1.39492,1.3936,1.4048,1.40966,1.41949,1.4331,1.43927,1.4406,1.4502,1.46133,1.46562,0.00367589,1.47578,0.00376545,1.48969,1.48654,1.49777,0.00362212,2.46521,1.49719,1.49714,1.50628,1.50745,1.51474,0.00419308,1.52787,1.53232,1.5654,1.55709,0.0037261,1.538,1.54048,1.53981,1.54055,1.53996,1.54026,1.53835,1.53989,1.5471,0.00353593,1.55795,1.55727,1.56171,0.00419907,1.57334,1.57257,1.57772,1.57995,1.5814,0.0036871,1.59443,1.59748,0.00398296,0.00411527,1.61204,0.00345988,0.0038429,0.00343481,1.71726,0.00389923,1.85972,1.68261,2.10407,0.00378144,0.00371609,1.67927,1.68714,0.00362522,1.70257,0.0033296,2.08413,2.0737,0.00398886,2.00997,2.01478,2.05111,2.05348,0.00380245,1.82832,1.77223,1.77009,1.77908,1.77515,1.78662,1.787,1.89203,1.80352,0.00361916,1.80755,1.80604,1.81397,1.81137,1.81241,1.81189,1.81245,1.80938,1.8068,1.81102,1.81793,1.81867,1.82288,1.89923,0.00454837,0.00408185,1.90698,0.00330952,1.91097,1.89018,1.99819,1.93687,1.94791,0.00396594,1.96935,0.00383284,1.88229,0.00371119,1.89572,0.00399406,1.91557,1.95352,1.93174,0.00356158,1.93238,0.00331209,0.00430889,0.00381622
1.09222,1.09685,1.09729,1.10884,1.10337,1.10393,1.1053,1.10807,1.10832,1.10853,1.10917,1.11175,1.11155,1.1119,1.11096,1.1129,1.11521,1.11488,1.11484,1.11475,1.11989,1.23453,1.74817,1.24023,1.11877,1.11648,1.11696,1.11553,1.11589,1.11809,1.11531,1.11824,1.12029,1.11818,1.11724,1.11886,1.11893,1.11774,1.11555,1.11459,1.1142,1.11449,1.11496,1.11548,1.11672,1.11698,1.11532,1.11479,1.11407,1.11337,1.10951,1.11173,1.1117,1.11287,1.11446,1.11477,1.11521,1.11481,1.11274,1.11496,1.11215,1.11269,1.11082,1.1036,1.10804,1.18615,1.09846,1.0937,1.09414,1.08623,1.08534,1.07591,1.07611,1.07346,1.06901,1.06331,1.06233,1.05126,1.09507,1.21194,1.16426,1.05458,1.16098,1.17775,0.982673,0.981266,0.981091,0.973758,0.969886,0.970888,0.96172,0.963343,0.964571,0.963198,0.962559,0.960808,0.961435,0.961977,0.969796,0.970454,0.973952,0.979758,0.981788,1.1207,1.12411,1.1254,1.13283,1.20602,0.996348,0.996429,0.998591,1.3433,1.1341,1.13968,1.13731,1.40233,1.12406,1.12523,0.00393979,1.06053,1.17701,1.28167,1.17119,1.22721,1.21249,1.19212,1.14299,1.14335,1.19464,1.20136,0.00409674,1.21283,1.30805,1.19519,1.19755,1.20891,1.20894,1.21681,1.21897,1.23048,1.23569,1.23613,1.23972,1.24186,1.24667,1.25877,1.2604,1.27317,1.27384,1.28459,1.2842,1.32585,1.31301,1.32407,1.31606,1.31738,1.31617,1.32643,1.32283,1.32483,1.33393,1.33173,1.33775,1.33688,1.34264,1.34292,1.40284,1.35468,1.36662,1.36642,1.37108,1.37382,1.38138,1.38193,1.38168,1.38512,1.39595,1.40529,1.41305,1.41982,0.00402789,1.51214,1.44208,1.45484,0.00383894,1.53378,1.47584,1.47686,1.4773,1.48232,1.4858,1.49243,1.48932,1.48999,1.49193,1.49082,1.50203,1.50636,1.51035,1.518,0.0034777,1.58244,1.60306,1.60286,1.60682,1.61338,1.65531,1.53572,1.53776,1.53729,0.00379861,1.54007,1.54377,1.55206,1.5504,1.55834,1.55949,1.56976,1.56982,1.56837,0.00348536,1.57798,1.57713,1.57907,1.586,1.58534,1.5937,1.624,1.60997,0.00368294,1.70203,1.72246,1.7247,1.71371,1.77283,1.73388,1.66085,1.68265,0.00349932,1.6762,0.00364429,0.00413641,1.97318,0.00366296,2.04969,2.05679,0.00419075,2.05498,2.07212,2.04273,0.00417978,2.01354,1.92923,1.76714,1.90061,1.77557,1.77944,1.77753,1.79044,1.78727,1.79292,1.79296,1.79953,1.80826,1.8064,1.80841,1.80875,1.8092,1.80747,1.80707,1.80483,1.80477,1.80425,1.80127,1.88064,1.82112,1.81962,0.0101178,0.00418662,1.84157,1.89707,1.85127,0.00430161,0.00397219,1.89934,1.93422,1.87292,1.87523,1.98794,1.95537,0.00370899,1.92217,1.90666,1.90013,1.90706,1.91562,1.92779,1.92402,1.92107,1.93643
1.0976,1.10061,1.10177,1.10549,1.10816,1.11092,1.11109,1.11563,1.11627,1.11826,1.11717,1.11875,1.11962,1.11817,1.11784,1.11861,1.11966,1.12092,1.12324,1.12552,1.12725,1.1285,1.23332,1.17053,1.29575,1.12828,1.22274,1.12532,1.1256,1.12731,1.12768,1.12633,1.12338,1.1244,1.12412,1.12231,1.12097,1.12158,1.11793,1.11501,1.11664,1.11408,1.11557,1.11738,1.11813,1.11826,1.12272,1.11843,1.11823,1.11559,1.1163,1.11503,1.1157,1.11558,1.11665,1.11632,1.11718,1.11672,1.11654,1.11616,1.11552,1.1122,1.11124,1.11092,1.10765,1.10738,1.10208,1.09109,1.08838,1.08954,1.08926,1.0797,1.08051,1.07937,1.06943,1.06978,1.05694,1.04652,1.04709,1.1467,1.06878,1.01551,1.15029,1.03225,0.984558,0.980842,0.979759,0.974689,0.968676,0.971346,0.967026,0.967156,0.968331,0.968707,0.967139,0.967676,0.963205,1.05504,1.09386,1.09513,1.04735,1.11326,1.11509,1.22317,1.22241,1.10944,0.996883,0.999546,1.00093,1.00008,1.00394,1.09983,1.01253,1.25123,1.24609,1.24613,1.10915,1.10878,1.5173,1.06306,1.06361,1.16988,1.08444,1.29559,1.1713,1.15999,1.2598,1.15406,1.16422,1.27117,1.22256,1.25158,1.26221,1.21878,1.22996,1.21061,1.28538,1.26116,1.2325,1.23408,1.24337,1.2448,1.2569,1.25697,1.26582,1.33592,1.28414,1.28478,1.29225,1.2944,1.31629,1.30806,1.30817,1.3264,1.32448,1.32787,1.32694,1.32096,1.33862,1.32884,1.32917,1.34446,1.34514,1.34491,1.34337,1.34978,1.35214,1.36844,1.36473,1.3669,1.37467,1.37679,1.38153,1.3813,1.38496,1.38817,1.3952,1.39651,1.4086,1.4177,1.4296,1.43177,1.43983,1.44526,1.44798,1.45271,1.46353,1.47238,1.47409,1.46907,1.51026,1.48871,1.48383,1.49223,1.4954,1.48968,1.49411,1.49917,1.50866,1.50989,1.70029,1.68141,1.52226,1.52059,1.52929,1.52777,1.59597,1.53433,1.53357,1.53322,1.53876,1.541,1.54156,1.54418,1.56499,1.55578,1.55515,1.55442,1.5627,1.56926,1.56939,1.57224,1.5823,1.57994,1.58432,1.58818,1.73894,0.00418622,1.69933,1.61346,1.61273,1.61531,0.00381056,1.6313,1.63149,0.00395313,1.64734,0.00390693,1.71401,2.18239,1.67585,1.67707,1.68622,1.69525,1.70996,2.01782,0.00399986,1.72162,0.0105636,0.00357909,1.91717,1.95118,1.85838,1.81773,0.00391365,0.00381316,1.77731,0.00426735,1.78276,1.78928,1.79068,1.79248,1.79882,1.79917,1.79822,1.80612,1.80641,1.80631,1.80639,1.80338,1.80422,1.80299,1.80734,1.80666,1.81484,1.82006,1.81666,1.82443,0.00367534,0.00386609,1.83887,1.8492,0.00370472,1.84777,1.88679,0.00393599,0.00372131,1.86684,1.87247,1.86972,1.9599,0.0039136,1.89149,1.8982,1.90445,0.00396576,1.91631,1.92505,0.00403164,0.00358087
1.09956,1.1013,1.10194,1.1089,1.1124,1.11516,1.11841,1.11995,1.1228,1.12587,1.12488,1.12602,1.12297,1.1234,1.11655,1.11943,1.12535,1.12629,1.13086,1.13182,1.13373,1.13381,1.1376,1.13768,1.13993,1.13721,1.13844,1.13848,1.13914,1.17553,1.13387,1.13818,1.33205,1.13067,1.1309,1.13021,1.12752,1.12943,1.12877,1.12626,1.12241,1.12351,1.12451,1.12352,1.123,1.12555,1.12295,1.12295,1.12212,1.12001,1.11801,1.11743,1.11613,1.11686,1.11833,1.11832,1.11709,1.11718,1.11535,1.11578,1.116,1.11392,1.11135,1.11104,1.10909,1.10805,1.0993,1.10026,1.0919,1.09314,1.0943,1.08881,1.07942,1.07786,1.07029,1.07044,1.06622,1.05651,1.05012,1.10625,1.11643,1.11433,1.14038,1.13791,1.13994,0.984397,0.982553,1.13665,0.973492,0.974311,0.967148,0.969079,0.969853,0.970395,1.13057,1.13301,1.01835,1.12327,1.11824,1.11876,1.23387,1.24046,0.995445,0.995689,1.00118,1.00028,1.00253,1.00491,1.00627,1.19459,1.00792,1.01133,1.01422,1.02529,1.02661,1.10645,1.10175,1.10161,1.10272,1.08577,1.1291,1.13101,1.13653,1.13619,1.13189,1.14755,1.16203,1.18082,1.16158,1.28572,1.32,1.3234,1.19499,1.20697,1.29034,1.2964,1.2847,1.26174,1.26393,1.27059,1.2766,1.25897,1.26896,1.28112,1.35831,1.30631,1.29863,1.29721,1.30112,1.3123,1.31704,1.32792,1.32737,1.3282,1.33244,1.33287,1.33407,1.34323,1.35031,1.36028,1.36121,1.36077,1.37787,1.37859,1.35803,1.42781,1.36252,1.36793,1.36869,1.36805,1.37154,1.38157,1.38168,1.38884,1.38851,1.39763,1.39885,1.40169,1.40058,1.42014,1.42033,1.43647,1.4356,1.44094,1.44014,1.45005,1.4662,1.45729,1.45606,1.46621,1.46934,1.47105,1.46951,1.47594,1.47835,1.6033,1.49358,1.49279,0.00356319,1.50654,0.00350361,1.68614,1.72805,1.62962,1.51982,1.60602,1.52665,1.52784,1.52724,0.00386516,0.00388353,1.53622,1.53846,0.00363901,0.0038147,1.61911,0.00359132,1.63356,0.00384951,1.5629,1.56767,1.56538,0.00410224,1.57843,0.0038548,1.72739,0.00373582,1.59748,1.60044,1.60614,0.00419829,1.61608,1.62107,1.62012,1.62797,1.63067,1.64059,1.64754,0.00357903,1.66098,0.00354789,1.67844,1.6886,0.00404533,2.04012,2.02483,2.02687,1.95155,0.00366929,1.73653,0.00345199,1.91831,1.91424,1.86902,0.0038945,0.00347544,0.00391472,1.77623,0.00362529,1.78265,1.78633,1.78589,1.79369,1.79282,1.79655,1.79858,1.7982,1.805,1.80183,1.80285,1.80631,1.80687,1.80325,1.80719,1.81061,1.80904,1.80757,1.81572,0.00380082,1.82529,0.00409964,1.83308,1.83159,1.84828,0.00380604,1.93456,1.93695,0.00378981,1.87481,1.87019,1.87816,1.95667,1.89651,1.89334,1.89727,1.9032,0.00404203,0.00379204,0.00358219,0.00357843
1.10474,1.10669,1.1081,1.11177,0.00396918,1.13336,1.12615,1.12757,1.18864,1.20197,1.29786,1.16365,1.16257,1.15313,1.17745,1.16339,1.1337,1.13431,1.21225,1.13694,1.14265,1.14271,1.14459,1.14561,1.14555,1.14578,1.14599,1.15144,1.14939,1.14854,1.14849,1.14708,1.14658,1.29582,1.14326,1.14375,1.15035,1.13613,1.13546,1.1306,1.12976,1.13111,1.13094,1.13,1.13067,1.13018,1.12951,1.1286,1.12878,1.12502,1.12002,1.11608,1.11824,1.11834,1.11879,1.11855,1.1169,1.11466,1.11523,1.11511,1.11523,1.11443,1.11342,1.11156,1.10794,1.10855,1.10109,1.10093,1.0881,1.0897,1.09154,1.09268,1.08612,1.08218,1.07678,1.06725,1.06739,1.05695,1.05289,1.04381,1.03936,1.09443,1.01736,1.01003,1.00492,1.00445,0.997366,0.991247,1.1175,1.02164,0.97441,0.969606,0.974512,0.975053,0.977845,0.98635,0.988537,0.992114,1.24239,1.24271,1.23953,0.998209,0.999035,1.00161,1.00278,1.00675,1.00433,1.00764,1.00786,1.00614,1.01487,1.01533,1.01727,1.0743,1.05379,1.23654,1.05609,1.06789,1.08683,1.08792,1.1899,1.19058,1.12599,1.15402,1.18041,1.19548,1.22333,1.15208,1.21256,1.18973,1.24937,1.24793,1.23668,1.30882,1.28987,1.30976,1.28633,1.254,1.29302,1.30989,1.38224,1.26515,1.26842,1.27138,1.27243,1.29218,1.29136,1.30632,1.3229,1.36717,1.35047,1.34006,1.33814,1.3414,1.35383,1.35056,1.39113,1.36154,1.36231,1.36571,1.3663,1.365,1.39515,1.37664,1.39903,1.37063,1.37829,1.37344,1.39418,1.38122,1.37942,1.38168,1.38343,1.38633,1.39266,1.39911,1.39835,1.39913,1.40912,1.41333,1.42292,1.42457,1.43359,1.43295,1.43813,1.44041,1.44145,1.448,1.45428,1.45549,1.45537,1.46152,1.46856,1.46869,1.47391,1.47275,1.5824,1.48544,1.61407,1.60342,1.49869,1.51012,1.50884,1.70268,1.69929,1.62776,1.51723,1.5208,1.52329,1.52062,1.60657,1.52406,1.57767,1.55808,1.56119,1.53523,1.53726,0.0040123,0.0040611,1.55221,1.62323,0.0033468,1.56544,0.00332425,1.57513,1.58054,1.63549,0.00389279,0.00423833,0.00362883,0.00387132,1.60639,1.61243,1.64123,1.64011,1.63923,1.63735,1.63796,0.00355868,1.66041,0.00420854,1.67024,1.68823,1.68479,1.69449,0.00348605,1.71124,1.71964,1.71787,1.73084,1.9272,1.93637,1.93478,0.00373709,0.00383207,1.85149,1.76943,1.77323,1.77345,0.00382921,1.80708,1.79289,1.79033,0.00391992,1.79437,1.79448,1.79463,1.79982,1.80322,1.80362,1.80098,1.80174,1.80044,1.80574,1.80592,1.80568,1.80998,1.81147,1.81627,1.81543,1.81989,1.82855,1.90662,0.00405137,1.86127,0.00356417,0.00449014,0.00367144,0.010768,0.00363484,0.0036377,0.0038184,1.91881,0.00380301,0.00378222,1.89562,1.90319,0.00387973,1.90589,0.00363512
1.11197,1.11191,1.1444,1.12311,1.12403,1.12672,0.00407992,1.13383,1.13926,1.13793,1.13951,1.13798,1.13924,1.139,1.13992,1.1394,1.13878,1.13936,1.14075,1.14277,1.14598,1.19259,1.15022,1.15199,1.15293,1.154,1.15538,1.15652,1.15765,1.15672,1.15659,1.62113,1.15424,1.15352,1.15246,1.15073,1.14814,1.14628,1.14431,1.14077,1.13833,1.13894,1.13648,1.13787,1.1384,1.13834,1.13791,1.13605,1.13598,1.13415,1.12951,1.12948,1.12553,1.1255,1.12512,1.12388,1.12549,1.12207,1.12038,1.1205,1.11917,1.11863,1.11669,1.11334,1.11283,1.1012,1.10214,1.08994,1.09163,1.09066,1.08984,1.08991,1.08788,1.08234,1.08061,1.0739,1.06315,1.05673,1.07156,1.04876,1.04375,1.03247,1.02684,1.0199,1.01538,1.00481,1.00548,0.998694,0.997842,0.992722,0.9911,0.988009,0.986714,0.98439,0.991614,0.988365,0.989618,0.990845,0.993148,0.997101,0.99363,0.998995,0.998231,0.999254,1.00198,1.00411,1.0047,1.00417,1.00814,1.01418,1.01499,1.01538,1.02707,1.02959,1.03642,1.06019,1.05892,1.18144,1.05953,1.06051,1.46241,1.28178,1.12823,1.17417,1.17022,1.18743,1.14481,1.14616,1.14725,1.14724,1.29446,1.30854,1.29271,1.23403,1.25066,1.25077,1.25748,1.27027,1.26013,1.2582,1.2529,1.25547,1.28889,1.2775,1.29507,1.34596,1.3464,1.34445,1.35373,1.36799,1.34284,1.34144,1.34541,1.34738,1.35691,1.35696,1.36731,1.36469,1.37302,1.3787,1.44925,1.38348,1.38248,1.38362,1.38834,1.37872,1.39063,1.39162,1.38262,1.39567,1.47891,1.39486,1.39227,1.39591,1.39823,1.39862,1.40158,1.4027,1.41545,1.41322,1.42104,1.42411,1.42782,1.42742,1.43482,1.43957,1.4383,1.44283,1.44398,1.44659,1.44834,1.45627,1.45782,1.46101,1.46356,1.46261,1.46621,1.50192,1.55582,1.57526,1.48724,1.49193,1.48955,1.49877,1.50767,1.5057,1.50674,1.50804,1.50913,1.50951,1.51196,1.50901,1.51317,1.51207,1.51658,1.53805,0.00363622,0.00383017,0.00361829,1.54358,0.00381058,1.55433,1.57014,1.55292,1.61401,0.00417706,1.57583,1.5814,1.69006,1.66302,0.00423657,0.00345642,1.60367,1.6155,1.61345,1.62828,1.63709,1.6895,0.00372291,0.00398697,1.65765,1.76174,1.75781,1.67805,2.07992,1.75633,0.00396737,1.71073,0.00378697,2.01182,0.00366878,1.97056,1.95452,1.94851,0.00411634,0.00350324,0.0038236,0.00403122,1.76987,1.77122,1.77932,1.78146,1.78285,1.78398,1.78573,1.78641,1.79104,1.79365,1.79228,1.79384,1.79727,1.79926,1.80011,1.79941,1.80065,1.80327,1.80283,1.80477,1.80777,1.80503,1.80397,1.81328,0.0031853,0.00357716,0.00370992,0.00395923,0.00395024,1.84586,0.00374874,1.8539,0.00378714,1.90398,0.00409074,0.00349309,0.00421106,1.87938,0.00426662,0.0123843,0.00400465,0.0032885
1.11848,1.11951,1.35897,1.12647,1.1308,1.133,1.13712,1.139,1.14281,1.14452,1.14405,1.14466,1.18414,0.00420397,1.14532,1.14475,1.13566,1.1365,1.13802,1.1449,1.14928,1.15211,1.15536,1.1579,1.15892,1.15886,1.1731,1.16293,1.25752,1.27331,1.16317,1.16247,1.16193,0.00355556,1.18759,1.19206,1.15488,1.15541,1.15636,1.15187,1.15153,1.14945,1.14619,1.14604,1.14201,1.14341,1.14331,1.14122,1.1374,1.13677,1.13585,1.14035,1.13368,1.13221,1.12916,1.13028,1.12741,1.12543,1.12371,1.12471,1.12238,1.12558,1.12061,1.11563,1.11194,1.1059,1.10439,1.09788,1.09541,1.09138,1.09071,1.09139,1.09019,1.08824,1.08394,1.07887,1.07948,1.06443,1.05991,1.04761,1.03525,1.03452,1.03025,1.02686,1.01702,1.01763,1.00901,1.00735,1.0058,1.00748,1.008,0.994524,0.995412,0.992738,0.990043,0.991192,0.994598,0.9948,0.992629,0.993949,0.992896,0.995398,0.999157,0.999795,1.00493,1.00481,1.00469,1.00504,1.00793,1.01145,1.04731,1.04082,1.043,1.05019,1.04606,1.04604,1.04672,1.15247,1.16761,1.18144,1.22135,1.2339,1.23604,1.14054,1.19997,1.17536,1.18614,1.34205,1.28742,1.28347,1.28418,1.3424,1.27232,1.28204,1.27612,1.26477,1.29833,1.29567,1.30255,1.29997,1.26075,1.29194,1.28455,1.31314,1.29499,1.33488,1.34976,1.34854,1.34861,1.3586,1.34586,1.37138,1.35078,1.35546,1.35676,1.36568,1.37452,1.37427,1.3759,1.38554,1.38847,1.38721,1.38877,1.38615,1.38614,1.39233,1.40468,1.39134,1.3934,1.39302,1.39823,1.39744,1.39588,1.39817,1.40156,1.4036,1.41119,1.41439,1.41364,0.00334091,1.4556,1.42743,1.42981,1.42901,1.43288,1.43237,1.43433,1.4398,1.43609,1.43935,1.44494,1.44442,1.45036,1.44883,1.45192,1.45459,1.45568,1.6136,1.47053,1.47101,1.47346,1.48511,1.48538,1.49172,1.49031,1.53832,1.49979,1.50083,1.54654,1.51064,1.50545,1.50893,1.50803,1.50748,1.50912,1.51334,1.52077,1.52439,1.52726,1.5325,1.52632,1.53641,1.5385,0.00407824,1.55874,1.56162,1.55953,0.00376791,1.60072,0.00378448,1.75064,0.00356703,0.00400266,0.00334873,1.63141,1.61821,0.00365536,0.00379229,1.63918,0.00391544,0.00427297,0.00382286,0.00409278,0.00377387,0.00418916,0.00382786,0.00364117,0.00369711,0.00409763,0.00401037,0.00452436,0.00377686,0.00323426,0.00383862,0.00380399,0.00368923,0.00373817,0.00375809,0.00416212,0.00350126,1.76982,1.77375,1.77441,0.00396387,0.0109019,1.78133,1.7819,1.78336,1.78959,1.78548,0.00389948,1.7918,1.79015,1.78876,1.80065,1.80081,1.79614,1.79961,1.80042,1.80096,1.8089,1.80383,1.81081,0.00349785,1.82089,0.00339511,0.00391912,0.00371479,0.0037297,0.00385932,1.88972,0.0037808,0.00435421,0.00367171,0.00425037,0.00366714,1.88293,0.00360817,1.89028,0.00370016
1.12264,1.12575,1.12891,1.13135,1.13423,1.13708,1.14221,1.14331,0.00375189,1.22674,1.14921,1.40547,1.15015,1.15216,1.18515,1.1508,1.1515,1.22318,1.14863,1.15658,1.1561,1.15742,1.16385,1.16496,1.16663,1.16724,1.16857,1.16803,1.17039,1.39242,1.41565,1.40974,0.00365858,1.16717,1.168,1.3475,1.16283,1.1619,1.15817,1.15734,1.15746,1.15315,1.1521,1.15031,1.14925,1.14516,1.1471,1.14565,1.1429,1.14151,1.14016,1.13888,1.13886,1.13637,1.13494,1.1327,1.13234,1.1298,1.13002,1.12882,1.12621,1.12293,1.12359,1.11858,1.11673,1.10781,1.10734,1.10861,1.09795,1.09468,1.09539,1.09594,1.09222,1.08758,1.08721,1.1777,0.00363471,1.15522,1.17759,1.04851,1.03612,1.0368,1.03691,1.02699,1.02759,1.01827,1.01958,1.0061,1.00473,1.00029,1.0018,1.00018,0.998863,0.996583,0.997816,0.999564,0.997574,0.998019,0.995161,0.99595,0.995994,0.994438,0.997443,0.998874,1.00197,1.00362,1.00384,1.00523,1.00627,1.0072,1.01113,1.01237,1.04845,1.02257,1.02328,1.10855,1.05175,1.05065,1.17491,1.20233,1.16848,1.16695,1.16584,1.23142,1.24056,1.24171,1.2044,1.20621,1.24101,1.22029,1.21986,1.37473,1.37997,1.28517,1.29141,1.32588,1.25271,1.21426,1.21647,1.22744,1.3165,1.32048,1.3922,1.31955,1.34772,1.36206,1.36292,1.3686,1.35069,1.36925,1.36386,1.36229,1.35989,1.36043,1.36462,1.36709,1.36681,1.37293,1.37432,1.39927,1.38708,1.38626,1.38833,1.39121,1.38975,1.3905,1.42769,1.39447,1.39782,1.39851,1.39854,1.40551,1.40079,1.40229,1.40572,1.41012,1.40915,1.40968,1.41409,1.4185,1.42152,1.41944,1.42738,1.42682,1.42646,1.42715,1.42553,1.42904,1.42994,1.42977,1.43648,1.43817,1.44092,1.44339,1.44619,1.44694,1.44471,1.45016,1.45118,1.46384,1.47738,1.58904,1.52706,1.56856,1.59315,1.49587,1.48955,1.55076,0.00388592,1.52711,1.50301,1.50213,1.50394,1.50402,1.50375,1.50407,1.51065,1.50936,1.51914,1.5202,1.52715,1.52671,0.00339836,1.53334,1.55565,1.55464,1.55857,1.6031,1.63104,1.56151,1.56138,1.56747,1.57888,1.59491,1.77885,1.60321,1.6164,0.00404728,0.00363019,1.71332,0.00387842,0.00410803,2.09075,1.6874,0.00377192,1.67591,0.00379518,1.73558,0.00358311,0.00392123,0.00374717,0.00370142,0.00384055,1.83127,0.00394098,1.81769,0.00401331,0.00389705,0.00383577,0.00395556,0.00387376,0.00355476,0.00377385,0.00448242,0.00367489,0.00351156,0.00361459,1.77625,1.77535,1.77921,1.77853,0.00312087,0.00388436,1.7774,1.78124,1.78386,1.78938,1.79657,1.79386,1.79403,1.84534,1.80139,0.00386602,0.00424677,0.00342793,1.80686,0.00366166,1.82701,0.00341185,0.00372052,0.00363867,0.00408506,0.00377135,1.86473,1.86072,1.85688,0.00358372,0.00976769,0.0038603,0.00418455
1.12512,1.12625,1.28903,1.13549,1.13656,1.66237,1.14413,0.00394844,1.14947,1.15079,1.15337,1.15505,1.1575,1.1562,1.15811,1.15881,1.15872,1.16063,1.16101,1.16103,1.16515,1.16706,1.16872,1.1716,1.17204,1.17544,1.17611,1.35117,1.33362,1.17834,1.34688,1.47316,1.53697,1.36385,1.17377,1.17182,1.17065,1.16756,1.16419,1.16125,1.15989,1.15673,1.1544,1.1518,1.15026,1.14917,1.14852,1.14509,1.1452,1.14273,1.14244,1.14161,1.1396,1.13964,1.13579,1.13475,1.13584,1.1329,1.13373,1.13251,1.12883,1.12701,1.12559,1.12596,1.11481,1.11108,1.11154,1.10512,1.10453,1.10284,1.09975,1.09746,1.09427,1.09373,1.0929,0.00408374,1.09711,0.00339726,0.00416249,1.23284,1.20293,1.31414,1.03871,1.03142,1.02536,1.01888,1.02016,1.01391,1.00424,1.00518,1.00252,1.00419,1.00048,1.00002,0.997621,0.99805,0.998045,0.997732,1.00062,1.00122,1.04421,0.999967,1.0016,1.00197,1.00269,1.00204,0.999392,1.00114,1.06379,1.05605,1.10296,1.01667,1.01856,1.01812,1.01976,1.23432,1.15183,1.07192,1.17797,1.20602,1.2264,1.22336,1.2261,1.20938,1.28193,1.32013,1.32686,1.27283,1.30656,1.38625,1.39864,1.40262,1.32338,1.35855,1.19205,1.19333,1.29347,1.29671,1.20482,1.23727,1.38849,1.35965,1.30339,1.41011,1.39713,1.40461,1.40595,1.38438,1.37337,1.3741,1.37821,1.35624,1.35836,1.36,1.35946,1.36216,1.36524,1.36867,1.41916,1.42337,1.43071,1.45081,1.46731,1.44431,1.4364,1.4511,1.46464,1.39817,1.40071,1.40277,1.41259,1.40297,1.40179,1.40029,1.40385,1.40566,1.40656,1.40977,1.41306,1.42619,1.41661,1.42189,1.42243,1.42279,1.42259,1.42298,1.42096,1.42454,1.4249,1.42621,1.42619,1.42975,1.43152,1.43665,1.43608,1.43989,1.44183,1.44507,1.44821,1.45711,1.45641,1.46459,1.5748,1.4681,1.50492,1.47453,1.50213,1.57327,1.56464,0.00400964,1.49574,1.49506,1.5773,1.57802,1.4994,1.50268,1.50113,1.50243,1.49965,1.50879,1.51725,1.51435,1.52347,1.5222,1.53035,1.53668,1.53876,0.00398446,1.54231,1.63838,1.62633,1.57259,1.59194,1.62913,1.63732,1.65082,1.59756,0.00383506,1.6116,0.00392419,0.0038225,0.00393538,2.07969,2.04737,1.68241,0.00399388,0.00356283,0.00372233,1.72707,0.00377822,0.00391837,0.00413596,0.00403198,1.82172,0.00363243,0.00389408,0.0041805,0.0040836,0.00351386,0.00378739,0.00406794,0.00410131,0.00364933,1.7597,0.00356343,1.76039,1.77201,1.77045,1.76868,1.76925,1.76903,0.00348773,1.81806,0.00391645,1.77204,1.77176,1.77894,1.77561,1.90967,1.77393,1.81366,0.00359838,1.82268,0.00357795,1.84352,0.00390762,1.84837,0.00390182,0.00386599,1.82084,0.00388266,0.00379877,0.00410568,0.00391718,0.0033191,1.84908,1.85536,0.00407546,1.85688,0.00375442
1.12349,1.12649,1.12942,1.13963,1.13777,1.24767,0.00359435,1.15077,1.15203,1.15596,1.15666,1.15765,1.1708,1.1718,1.16311,1.16451,1.1651,1.16689,1.16967,1.17051,1.17695,1.17499,1.17516,1.18008,1.17946,1.17855,1.18073,1.18065,0.00373754,1.18215,1.18376,1.61777,1.17847,1.1785,1.17542,1.1751,1.17432,1.17099,1.16743,1.16433,1.16312,1.15757,1.15572,1.15285,1.14801,1.14831,1.14303,1.14359,1.14146,1.14128,1.13959,1.13764,1.13749,1.13901,1.13823,1.13621,1.13467,1.13479,1.1355,1.13529,1.1339,1.1314,1.12762,1.11761,1.11889,1.1181,1.11655,1.10952,1.10633,1.1023,1.10209,1.10016,1.09966,1.10828,1.13578,1.14363,0.00342932,1.14645,1.16862,1.13307,2.00818,1.3125,1.44793,1.44719,1.03232,1.01915,1.02137,1.01787,1.01819,1.01536,1.01599,1.00905,1.00957,1.00286,1.00451,1.00293,1.00449,1.00309,1.00479,1.0044,1.00449,1.0052,1.0061,1.00539,0.998265,0.997807,0.997925,0.994861,1.04644,1.03972,1.2886,1.42432,1.12716,1.01349,1.01496,1.13007,1.14289,1.18784,1.18228,1.15234,1.14867,1.28108,1.24398,1.29377,1.29152,1.21525,1.19909,1.2016,1.20286,1.20691,1.21217,1.26863,1.3061,1.29181,1.20147,1.20125,1.20156,1.31288,1.21084,1.2108,1.35017,1.30311,1.34311,1.34766,1.33102,1.40527,1.41585,1.40598,1.3716,1.38997,1.43034,1.40076,1.39615,1.39387,1.35776,1.35706,1.41748,1.41987,1.43238,1.44847,1.43735,1.42917,1.37382,1.38113,1.45394,1.37519,1.37691,1.37876,1.37893,1.38563,1.42626,1.40175,1.40009,1.40519,1.40816,1.40599,1.40773,1.40826,1.40578,1.40894,1.41294,1.41427,1.41733,1.41842,1.4193,1.41884,1.41908,1.41887,1.41777,1.4203,1.42008,1.41943,1.42466,1.42843,1.43199,1.43716,1.43523,1.44293,1.4447,1.4456,1.45117,1.45981,1.47006,1.48802,1.46949,1.47195,1.47191,1.47443,1.48241,1.48333,1.48365,1.53809,0.0035944,0.00360532,1.58039,1.49707,1.60936,1.49719,1.49756,1.50214,1.5309,1.53423,1.51206,1.55032,1.52026,1.51963,0.00354741,1.52858,1.53729,1.53723,0.00352545,1.61813,1.6057,1.59842,1.63661,1.64405,1.6506,1.62756,0.00369958,2.12114,1.74503,1.74396,0.00340667,2.08017,0.00374652,1.70602,1.73005,1.70898,0.00358505,1.70951,0.00358172,0.00425715,0.00378237,1.7528,1.74741,1.74716,0.00374391,0.00390113,0.00368635,0.00381144,0.00363631,0.004181,0.0037092,0.00392792,0.00369353,0.00427858,0.00375382,1.75572,1.75722,1.75373,0.00334253,1.75501,1.76233,1.76244,1.76574,1.75276,1.75742,1.76814,1.76673,1.77121,1.86585,1.82441,0.00388688,1.78919,1.78735,1.78689,1.79048,1.79402,0.00371308,1.81034,0.00368073,1.83429,0.00341992,0.00414629,1.83267,1.84147,0.00360331,1.84552,1.8549,1.8552
1.12166,1.12188,1.1235,1.32329,1.32421,0.00371496,1.1471,1.14957,1.15325,1.15691,1.15983,1.16119,1.18824,1.19181,1.16715,1.16833,1.16959,1.17168,1.174,1.17675,1.17821,1.17838,1.18149,0.00350519,1.29222,1.18628,0.00333319,1.1865,1.18768,1.18737,1.18551,1.18411,1.18403,1.18259,1.18251,1.17767,1.17603,1.17161,1.16764,1.16715,1.15757,1.1582,1.152,1.14652,1.1468,1.14345,1.14247,1.13938,1.14032,1.13763,1.13382,1.134,1.13636,1.13687,1.13681,1.13639,1.13547,1.13561,1.13364,1.13347,1.13419,1.13415,1.16251,1.12291,1.12251,1.12168,1.11505,1.10854,1.1084,1.10513,1.10531,1.10125,1.10277,1.09872,0.00362389,0.00370878,1.23135,1.07793,1.06068,1.0626,1.32607,1.0467,1.06101,1.09844,1.09835,1.02314,1.02279,1.0226,1.0134,1.01686,1.01787,0.00352216,1.00692,1.0099,1.00976,1.00897,1.00758,1.00774,1.00764,1.00744,1.0075,1.16139,0.990034,0.990802,0.989071,0.988129,0.998182,1.00469,1.00612,1.05212,1.04597,1.02476,1.02481,1.02535,1.02563,1.02563,1.13685,1.13102,1.1058,1.1067,1.14437,1.19945,1.19874,1.28096,1.28878,1.3024,1.28523,1.29826,1.22912,1.32428,1.27546,1.31271,1.3133,1.28836,1.34687,1.29898,1.27765,1.23203,1.23262,1.24594,1.32829,1.31627,1.35017,1.34532,1.36059,1.33,1.32764,1.32614,1.32596,1.36407,1.33066,1.33156,1.33992,1.36661,1.35176,1.35016,1.3446,1.34345,1.3407,1.34177,1.37186,1.38496,1.38426,1.45838,1.44122,1.44103,1.36692,1.43339,1.45018,1.43408,1.44555,1.43708,1.43441,1.44349,1.43173,1.43284,1.41042,1.40739,1.41173,1.40904,1.40765,1.41133,1.41277,1.41329,1.41924,1.41828,1.41814,1.41907,1.41781,1.41832,1.41726,1.41707,1.42196,1.4244,1.42957,1.42849,1.43245,1.43955,1.44362,0.00416827,1.44842,1.4481,1.45374,1.4581,1.46757,1.46455,1.49657,1.46805,1.46729,1.47125,1.47215,1.48296,1.4812,0.00359029,1.48899,1.49568,1.49529,1.49659,1.49849,1.49806,1.50021,1.50464,1.54541,1.51203,1.52265,1.51667,1.51744,1.52142,1.52794,0.00385729,1.5382,1.55794,1.55262,1.55234,1.63185,1.64903,1.58233,1.75558,1.67822,1.60022,2.06467,0.00351669,2.07212,0.00346526,2.07168,0.00372328,1.67618,0.0033961,0.0032443,1.81803,1.81362,1.78001,1.73426,0.00385298,0.00384567,0.00360945,0.00407282,0.00370422,0.00399882,1.76338,0.00394843,0.00377951,0.00388232,0.00382399,0.00403975,0.00388376,0.0040063,1.74933,1.75783,1.74923,1.74811,1.74867,1.74789,1.75758,1.75318,1.75472,1.75,1.74802,1.74676,1.75809,1.76252,1.76866,1.76713,1.76855,1.77508,1.77952,1.78479,1.78113,0.0035806,0.00379644,0.00358008,0.00384164,0.00384875,1.82287,1.82026,1.82911,1.827,0.00368643,0.00373578,1.84027
1.12054,1.12297,1.12568,1.30619,1.13674,1.14261,1.14765,1.1527,1.15662,1.19437,1.25553,1.22319,1.16721,1.16859,1.17038,1.17198,1.17381,1.17601,1.17875,1.17953,1.21929,1.18509,1.26037,1.18778,0.00392844,1.18924,1.19138,1.19086,1.18954,1.18971,1.1876,1.18787,1.18747,1.18337,1.18424,1.17791,1.17519,1.17264,1.16827,1.16346,1.16198,1.15391,1.15294,1.14761,1.14156,1.13978,1.13582,1.13378,1.13044,1.13089,1.13239,1.13062,1.1345,1.13444,1.13617,1.13765,1.13655,1.13454,1.1332,1.13321,1.1331,1.1355,1.1353,1.12896,1.12438,1.12558,1.11861,1.11744,1.11861,1.10401,1.10463,1.10348,1.10476,1.10168,0.00314725,1.08518,1.0814,1.07496,0.00356468,1.05926,1.0549,1.05525,1.07426,1.0744,1.02028,1.02217,1.02158,1.02177,1.02151,1.01925,1.01756,1.00959,1.00944,1.00953,1.00888,1.01008,1.00999,1.01446,1.002,1.0029,1.00462,0.985451,0.987826,0.988368,1.01542,1.01512,1.00877,1.00761,1.01502,1.14452,1.1275,1.13318,1.13721,1.11315,1.01177,1.01454,1.01497,1.01386,1.03635,1.06029,1.16617,1.15457,1.17118,1.2,1.1834,1.21933,1.21882,1.24945,1.23653,1.25319,1.30914,1.38284,1.35281,1.35427,1.28246,1.5415,1.29567,1.30911,1.28785,1.31271,1.34461,1.34514,1.34767,1.45613,1.36795,1.35398,1.3713,1.44358,1.33915,1.34786,1.3668,1.37111,1.34966,1.35985,1.41786,1.41074,1.40849,1.34625,1.34657,1.36985,1.35192,1.35338,1.3537,1.37578,1.37263,1.33975,1.35425,1.36208,1.36051,1.44523,1.43103,1.39203,1.38531,1.43596,1.43143,1.43348,1.41957,1.41193,1.40956,1.40747,1.40692,1.40772,1.40973,1.41058,1.41383,1.41447,1.41567,1.41545,1.41502,1.41195,1.41126,1.41578,1.41821,1.42179,1.42139,1.42383,1.42639,1.42947,1.43657,1.43627,1.48682,1.44459,1.45083,1.45134,1.45379,1.46234,1.46036,1.46092,1.46133,1.46501,1.46689,1.46899,0.00373399,0.00406601,0.00426899,1.52179,0.00396844,1.61114,1.5852,1.50042,1.50365,1.50161,1.50216,1.51375,1.51077,1.51128,1.51776,1.51753,1.52454,1.52343,1.53401,1.53529,1.54742,1.71817,1.5571,1.68711,1.56861,1.77383,1.74345,1.58636,0.00375269,2.07041,2.08697,2.0845,1.62338,0.00381859,0.0034458,1.65599,0.00378178,0.0106408,0.00395196,0.00383444,1.70371,0.00377301,0.00387794,1.6892,0.00327285,0.00327175,0.00402831,0.00374745,0.00325337,0.00358794,0.00366291,1.79316,0.00388221,0.00400926,0.00375894,1.80968,0.0038278,0.00364425,1.74853,1.74836,1.74902,1.75058,1.7524,1.75217,1.75479,1.75089,1.75195,1.75354,1.75346,1.76174,1.76062,0.00379021,1.77313,1.77851,1.77651,1.78053,1.78628,1.83793,0.00362716,1.8029,1.81006,1.81996,1.8853,1.83135,1.85402,1.82208,1.83069,1.83709
1.12592,1.12781,1.1312,1.1342,1.18162,1.14651,1.14978,1.15472,1.3317,0.00357383,1.39501,1.30193,1.17105,1.1738,1.17492,1.17756,1.17947,1.18103,1.18292,1.1832,1.18568,1.18591,1.18764,1.25911,1.24918,1.19433,1.19384,1.19334,1.19454,1.19404,1.19318,1.19073,1.19072,1.18772,1.18416,1.18061,1.27615,1.17123,1.35806,1.16332,1.1571,1.15712,1.15246,1.14575,1.13649,1.1356,1.1355,1.13569,1.13132,1.13187,1.13133,1.13068,1.13534,1.13663,1.13833,1.13722,1.13775,1.13807,1.13661,1.13669,1.1363,1.13729,1.13634,1.12748,1.12854,1.128,1.12645,1.12776,1.11135,1.1108,1.10874,1.1084,1.11027,1.18233,1.09001,1.08955,1.08019,1.08081,1.06422,1.06488,1.07481,1.14461,1.10564,1.03395,1.02925,1.02648,1.0226,1.02129,1.0213,1.01774,1.01787,1.00958,1.01131,1.01245,1.01497,1.01538,1.00854,1.00074,1.00328,1.00221,0.999611,1.00167,1.00587,0.997846,0.999498,1.00238,1.00826,1.00847,0.998059,0.999232,1.00235,1.00443,1.00468,1.04408,0.999028,1.01819,1.02025,1.02216,1.12215,1.07461,1.13949,1.13593,1.21889,1.22687,1.24682,1.22362,1.22554,1.22947,1.26451,1.28129,1.2837,1.41059,1.41323,1.2954,1.38179,1.30596,1.29914,1.358,1.31352,1.32956,1.33957,1.38954,1.35442,1.37754,1.36379,1.3652,1.38343,1.35244,1.34984,1.35085,1.40269,1.36434,1.36102,1.35854,1.35755,1.36046,1.37198,1.35246,1.36495,1.362,1.37153,1.4048,1.37834,1.35695,1.36735,1.34614,1.34595,1.37866,1.34579,1.34451,1.37567,1.35814,1.36497,1.40558,1.47763,1.44453,1.39804,1.41209,1.42717,1.4033,1.40196,1.40187,1.40636,1.40431,1.40689,1.40541,1.41188,1.40942,1.41017,1.4106,1.40952,1.40828,1.41009,1.46773,1.41939,1.4206,1.42231,1.42411,1.42992,1.43301,1.43467,1.4377,1.44067,1.44834,1.45017,1.45333,1.45283,1.45273,1.45674,1.45852,1.46505,1.48604,1.46871,1.47163,1.52703,0.00379677,0.00393569,1.4927,1.49209,0.00357802,1.4966,1.50003,1.57011,1.51244,1.51236,1.5153,1.51555,1.51977,1.52331,1.52766,1.5266,1.53393,1.53816,1.65721,1.64952,2.13773,2.13765,0.00343447,1.61589,1.63762,1.58022,0.0038502,1.59028,2.086,2.05624,2.06587,2.06544,2.06235,0.00405226,0.0032698,0.00432564,0.00382449,1.65762,1.66421,1.66432,1.67172,1.68451,0.00364739,1.70032,1.69722,1.70465,1.71252,1.77911,1.80007,1.79927,0.00349866,0.00362899,0.00341798,0.00363228,0.00401269,1.7458,0.00399797,1.74601,0.00413546,1.7514,0.00391139,0.00389498,1.75381,1.75407,1.75533,1.75228,1.75326,1.7633,1.76602,0.00357705,1.77233,1.77832,1.77839,1.78329,1.79063,1.79006,1.79972,0.00405312,0.00394853,1.86301,1.85431,1.85463,1.88657,1.88629,0.00387662
1.12889,1.13312,1.1363,1.14015,1.14639,1.14841,1.15182,1.15952,1.1607,0.0039126,1.17052,1.17988,1.17603,1.17723,1.1794,1.18144,1.1815,1.18288,0.00348434,1.19435,1.18808,1.18967,1.19155,1.24097,1.19479,1.19478,1.19463,1.19503,1.19564,1.19514,1.19281,1.19326,1.1906,1.18908,1.18556,1.18548,1.18074,1.17344,1.38103,1.15314,1.15358,1.15752,1.15421,1.1532,1.14845,1.14288,1.14263,1.13914,1.139,1.13877,1.1379,1.13821,1.13904,1.14,1.14002,1.1425,1.14233,1.14166,1.14168,1.14058,1.14042,1.1383,1.13762,1.13486,1.13588,1.12898,1.12123,1.11919,1.12109,1.11845,1.11275,1.11539,1.16026,1.29614,1.35784,1.08781,1.08192,1.085,1.06931,1.07166,1.11609,1.13537,1.14429,1.03265,1.03193,1.02851,1.02703,1.02566,1.02465,1.02405,1.01706,1.02026,1.01549,1.01541,1.01503,1.00562,1.00656,1.00102,1.00148,1.00291,1.00244,1.00447,1.01507,1.02087,1.00976,1.08611,1.00146,1.00158,0.992342,1.00216,1.00365,1.09463,1.09591,0.997946,0.999397,1.00266,1.11776,1.22966,1.27424,1.10325,1.14586,1.18819,1.31056,1.22372,1.26125,1.22882,1.23685,1.24114,1.3621,1.46141,1.34671,1.33983,1.35641,1.36957,1.39408,1.39269,1.35776,1.36274,1.52524,1.49331,1.4162,1.37962,1.3878,1.40492,1.38039,1.38483,1.3683,1.36607,1.36797,1.38066,1.37981,1.38798,1.37315,1.43283,1.43113,1.36944,1.3704,1.37417,1.37472,1.39775,1.36771,1.36442,1.36409,1.36444,1.35911,1.36778,1.36889,1.34403,1.34355,1.35931,1.3382,1.32735,1.35174,1.35346,1.41288,1.39327,1.39535,1.39555,1.39083,1.40301,1.40108,1.39902,1.39857,1.39828,1.3988,1.40091,1.40537,1.40619,1.40374,1.40554,1.40586,1.40688,1.40867,1.41943,1.41052,1.41957,1.41783,1.42255,1.42242,1.42451,1.4313,1.43927,1.43795,1.43684,1.44395,1.44431,1.44711,1.44657,1.45081,1.45387,1.45601,1.46411,1.46464,1.46534,1.47358,1.47848,1.48455,1.54861,1.49083,1.48963,1.49374,1.49598,1.50162,1.50044,1.50454,1.51091,1.51598,1.51797,1.51817,1.52085,1.52294,1.52722,1.53351,1.53254,1.53692,2.1051,1.54709,1.54683,1.61831,1.59668,1.56395,1.56165,0.00390143,1.58622,1.58418,1.60034,2.07223,2.02858,1.6362,0.00342984,0.00396953,0.00397603,0.00401704,0.00364832,0.00369038,0.00387669,0.00373692,0.00403503,0.00385564,1.68888,1.69692,1.73508,0.00370654,1.74381,0.00354673,1.71327,0.0038203,0.0100737,0.00381854,0.0040013,1.73833,0.00367483,0.0033274,0.00405455,0.00355722,1.74965,0.00341479,1.75447,1.75019,1.74701,1.75418,1.75057,1.7483,1.75475,1.76194,1.76658,1.76969,0.00364443,1.78025,1.78767,1.78624,0.00392097,1.79679,1.80088,1.80156,1.8098,1.806,1.80735,1.84431,1.82738
1.13046,0.00350954,1.13944,0.00363926,1.14711,1.15157,1.15645,1.16069,1.16364,1.16828,1.1702,1.17406,1.17615,1.18042,1.18038,1.18402,1.18452,1.18568,1.18517,1.18774,1.18902,1.19084,1.19375,1.19509,1.19492,1.19469,1.1964,1.19703,1.19805,1.19806,1.1968,1.19637,1.19189,1.19204,1.18854,1.18252,1.18117,1.18042,1.17635,1.16604,1.16477,1.16352,1.15725,1.15943,1.15499,1.14912,1.15077,1.14938,1.14913,1.14849,1.14583,1.14727,1.14924,1.14783,1.14682,1.14644,1.14813,1.14845,1.14694,1.1443,1.14338,1.14213,1.14076,1.13984,1.13651,1.13341,1.13019,1.12578,1.12662,1.12026,1.119,1.11083,1.11206,1.60629,1.09299,1.09078,1.17133,1.16819,1.1812,1.06701,1.18009,1.05792,1.05768,1.05011,1.42064,0.00384837,1.41641,0.00360959,1.02496,1.02552,1.0264,1.02222,1.01571,1.01847,1.0043,1.00264,0.998184,0.999425,1.00001,0.999866,1.00168,0.996633,0.99726,0.994008,0.99511,1.14255,1.09846,1.02521,1.02359,0.991434,0.995133,0.9967,0.999075,0.999591,1.15786,1.08273,1.08277,1.08096,1.08226,1.13323,1.16293,1.22288,1.22749,1.21551,1.24318,1.25518,1.27906,1.37744,1.4989,1.40284,1.36303,1.37119,1.52801,1.40553,1.42113,1.36795,1.37886,1.38874,1.527,1.40012,1.3933,1.39208,1.39166,1.38759,1.38633,1.40983,1.40332,1.47122,1.45999,1.38686,1.39347,1.40376,1.3995,1.39823,1.38978,1.39607,1.37484,1.37532,1.37814,1.43305,1.37389,1.37447,1.3634,1.36386,1.35814,1.35734,1.36703,1.36715,1.36674,1.36864,1.3438,1.34111,1.36837,1.36779,1.41934,1.43541,1.50946,1.40493,1.40491,1.39605,1.39747,1.39637,1.39499,1.39454,1.39662,1.39841,1.39996,1.39734,1.3965,1.40171,1.39959,1.40215,1.40538,1.40422,1.40902,1.4124,1.41702,1.41668,1.41852,1.41949,0.00389826,1.4318,1.43185,1.43653,1.43807,1.44341,1.4435,1.44655,1.44722,1.45401,1.45282,1.45575,1.45826,1.46362,1.46712,1.47623,1.48076,1.48162,1.48296,1.48632,1.48666,1.48878,1.49366,1.4949,1.62964,0.00396373,0.00397842,1.50916,1.51577,1.51787,1.51687,1.51761,1.52194,1.52393,1.53008,1.58235,1.54271,1.54365,1.54591,1.55171,1.55364,1.55326,1.56109,0.00370716,2.08677,2.08052,1.5879,1.642,1.6385,1.6517,0.00381783,0.0041496,1.69649,0.00365708,0.00416138,0.00380917,0.00375024,0.0036896,0.00400306,0.00403409,1.69042,1.6918,1.69198,1.69951,1.70527,1.70137,1.70744,0.00337287,0.00355233,0.0036912,0.00403598,0.00391138,0.00366317,0.00365511,1.74255,1.7454,1.74429,0.00394271,1.75187,1.74864,1.74604,1.75047,1.74536,1.75817,1.75935,0.00414775,1.77349,1.7706,1.77589,1.77932,0.0106271,0.00377683,1.79772,1.79515,1.80073,1.81047,1.80536,1.8027,1.81328,1.8267
0.00354526,1.13441,1.13753,1.15164,1.16632,1.15496,1.15645,1.16028,1.16608,1.16705,1.17022,1.18161,1.17767,1.17837,1.18174,1.18414,1.18655,1.18726,1.18777,1.18819,1.1912,1.19228,1.19517,1.19542,1.19277,1.19501,1.19667,1.19787,1.19851,1.19925,1.19832,1.19783,1.19667,1.19182,1.18871,1.18895,1.18385,1.18398,1.17955,1.17388,1.17445,1.16886,1.16842,1.16465,1.16239,1.15941,1.15792,1.1577,1.15485,1.15525,1.15667,1.15424,1.15523,1.15372,1.15324,1.15357,1.15193,1.1528,1.15043,1.14895,1.14717,1.14741,1.14325,1.14255,1.1378,1.13593,1.13072,1.13116,1.12455,1.12386,1.11601,1.10946,1.10784,1.10641,1.13321,1.19113,1.08906,1.08057,1.07617,1.07595,1.06628,1.06732,1.28932,1.05391,1.04891,1.04935,0.00360231,1.03657,1.03375,1.03001,1.03209,1.02858,1.02684,1.01125,1.0046,1.00452,0.999264,0.992452,0.998301,0.998489,0.998196,1.03253,1.16494,0.98819,1.04071,0.982962,0.985212,0.987859,1.07088,1.07829,1.01806,0.986669,0.987678,0.991095,0.995883,1.08013,1.08007,1.08239,1.08539,1.16496,1.21315,1.22093,1.22641,1.27213,1.27422,1.28878,1.31711,1.36297,1.38177,1.50362,1.49621,1.44393,1.43313,1.42269,1.5583,1.4238,1.42813,1.43735,1.4374,1.4225,1.43944,1.45453,1.44311,1.41652,1.41947,1.4264,1.45821,1.40286,1.41397,1.39408,1.3935,1.42209,1.42232,1.41678,1.41738,1.41879,1.39316,1.40306,1.40338,1.39335,1.38614,1.38892,1.38931,1.39524,1.38645,1.38256,1.37757,1.37082,1.36401,1.36723,1.39549,1.37523,1.39244,1.41593,1.42242,1.38775,1.39948,1.39955,1.4004,1.38514,1.38302,1.3834,1.39009,1.3929,1.39321,1.39516,1.40243,1.42386,1.41016,1.40949,1.3969,1.39693,1.39687,1.39952,1.40191,1.40577,1.40926,1.41482,1.42009,1.42138,1.42646,1.42755,1.43331,1.43585,1.43791,1.43833,1.43634,1.4364,1.44097,1.44439,1.45048,1.45834,1.45734,1.4605,1.47957,1.47562,1.47838,1.47527,1.48154,1.47912,1.47861,1.4801,1.48608,1.52073,1.49247,1.49278,1.499,0.00366578,0.0035658,1.50959,1.51662,1.51484,1.52118,1.52086,1.5233,1.53005,0.00406586,1.53816,1.5474,1.54444,1.55362,1.5517,1.56369,1.57063,1.57203,1.58142,1.58113,2.03123,0.00348076,1.60741,0.00330307,0.00359571,0.00371061,1.68634,0.00342063,0.00377498,0.00374213,0.00344845,0.00353066,0.00390211,0.00374372,1.72098,1.7211,1.6917,1.74137,1.77789,1.70035,1.69888,0.00376592,0.0109319,0.00331788,0.00368018,0.0035671,1.73908,1.73942,1.87957,0.0037961,1.74249,1.74401,1.73941,1.74099,1.745,1.74639,1.75374,1.76147,1.76045,1.76383,1.7794,1.77873,1.77719,1.78963,1.79306,0.00342358,1.80301,1.80591,1.80182,1.80601,1.80297,1.80521,1.81993
0.00369697,1.13302,1.14069,1.14261,1.24129,1.15201,1.15797,1.16017,1.16443,1.16696,1.1725,1.17468,1.17765,1.18035,1.18195,1.18316,1.18584,1.18833,1.18758,1.19152,1.19196,1.19279,1.19465,1.30827,1.19327,1.19475,1.19635,1.1984,1.19815,1.19845,1.1987,1.19667,1.19647,1.19483,1.19425,1.18789,1.18773,1.1851,1.18482,1.18064,1.41982,1.2045,1.24321,1.28444,1.16567,1.16672,1.16662,1.16372,1.16351,1.16375,1.16238,1.16112,1.16029,1.16097,1.16014,1.15888,1.1599,1.15466,1.15518,1.15254,1.15094,1.14981,1.14984,1.14468,1.1426,1.14003,1.13294,1.12779,1.12724,1.11875,1.11204,1.10855,1.10701,1.10601,1.16377,0.0034124,1.08936,1.08703,1.39951,1.07566,1.06958,1.06213,1.0614,1.48579,1.47756,1.07075,1.05453,1.04242,1.0505,1.03324,1.12103,1.18135,1.14041,1.01459,0.98584,0.986356,0.991486,1.01248,1.17184,1.03406,0.947663,0.950013,0.952992,0.941119,0.942882,0.998802,0.964707,0.965018,1.03058,0.964815,0.988045,0.98362,0.990244,0.991771,1.09657,1.09897,1.15517,1.11796,1.19304,1.28155,1.2296,1.23953,1.25231,1.29188,1.32581,1.37953,1.36045,1.37202,1.3831,1.40355,1.41778,1.44745,1.46223,1.45801,1.45749,1.53281,1.45318,1.45455,1.45738,1.46782,1.51958,1.49508,1.55215,1.55002,1.48093,1.46659,1.45904,1.4702,1.47803,1.4265,1.46728,1.47463,1.44062,1.41299,1.42322,1.40211,1.4037,1.41554,1.41762,1.41746,1.4054,1.42887,1.42985,1.42801,1.38555,1.41284,1.3933,1.39271,1.38967,1.39509,1.4122,1.40027,1.41415,1.40664,1.40617,1.41935,1.43386,1.3955,1.40458,1.3968,1.39468,1.44708,1.46093,1.42645,1.41994,1.39623,1.40761,1.39145,1.3909,1.38953,1.38892,1.389,1.39867,1.39696,1.40008,1.40115,1.40488,1.40511,1.41079,1.41601,1.42297,1.42469,1.42781,1.43269,1.43692,1.43694,1.43707,1.4392,1.44112,1.44284,1.4461,1.45703,1.45543,1.46163,1.46423,1.47181,1.46953,1.47296,1.47327,1.47623,1.47503,1.48154,1.47913,1.47825,1.48531,1.51612,1.49171,1.51814,1.62534,1.51041,1.51116,1.51149,1.51815,1.52228,1.52077,1.52306,1.53322,1.53075,1.54217,1.54068,1.54429,1.55382,1.55299,0.00397626,1.56979,1.57373,1.57829,1.58174,1.70804,1.65109,1.68791,1.60898,1.63445,0.00373005,0.0034554,0.00353303,0.0039032,0.00364766,1.66343,1.66515,1.66743,1.68361,1.68277,1.68302,1.69018,1.69391,1.69761,0.00341094,0.0037624,0.00398256,0.00364514,0.00409573,1.87511,0.00377102,0.00377044,1.73344,1.73741,1.73192,1.73718,1.74006,1.74459,1.74312,1.75155,0.00347226,1.75718,1.76568,1.76305,1.76836,0.00356852,1.78258,1.78167,0.0037125,1.7927,0.00364416,1.81067,1.80267,1.80697,1.80401,1.81483,1.79977
1.12884,1.13267,1.20457,1.14159,1.14565,1.15178,1.15378,1.16072,1.16197,1.16732,1.16854,1.17384,1.17526,1.17821,1.17933,1.18402,1.18383,1.18565,1.18664,1.18965,1.19076,1.19346,1.19431,1.28252,1.19477,1.19523,1.19766,1.19796,1.1978,1.19616,1.19648,1.19637,1.19512,1.19433,1.19201,1.33327,1.33289,1.18797,1.39903,1.18537,1.18141,1.24088,1.17802,1.26049,1.17456,1.1727,1.17268,1.17132,1.16991,1.16884,1.16724,1.16689,1.16698,1.16386,1.16485,1.16232,1.16304,1.16044,1.15756,1.15632,1.15386,1.15137,1.15138,1.14883,1.14188,1.14049,1.13701,1.13136,1.13256,1.11518,1.11152,1.11171,1.26093,1.10349,1.21337,1.15498,1.37558,1.36435,1.08443,1.53494,1.51995,1.06648,1.06406,1.43329,1.47616,1.04751,1.04807,1.04654,1.04454,1.03552,1.02932,1.00353,1.00486,0.982865,0.9849,0.988684,0.99432,0.974303,0.975262,1.03684,0.949882,0.945347,0.943293,0.938605,0.976916,0.949126,0.952933,0.962967,0.963829,0.966186,0.968059,0.996044,0.997692,1.08119,1.09145,1.12068,1.11317,1.18789,1.17729,1.20985,1.34497,1.34329,1.31585,1.31636,1.35481,1.35722,1.41281,1.38478,1.39977,1.4023,1.43754,1.45682,1.46283,1.4812,1.47486,1.46847,1.47476,1.55101,1.4636,1.47136,1.45825,1.48774,1.4992,1.47283,1.47977,1.55121,1.51117,1.52528,1.47826,1.45503,1.46107,1.47404,1.54089,1.54467,1.54361,1.45192,1.45373,1.43673,1.4248,1.44022,1.48111,1.42819,1.43018,1.44707,1.41983,1.43584,1.4452,1.44019,1.44092,1.39961,1.40583,1.4065,1.43323,1.42757,1.42711,1.40399,1.40293,1.41325,1.3812,1.35383,1.37454,1.34543,1.37769,1.38022,1.43005,1.37673,1.38082,1.38334,1.38405,1.38464,1.38402,1.3857,1.38495,1.38647,1.43597,1.43033,1.42735,1.40618,1.41303,1.40996,1.41216,1.41968,1.42712,0.0039397,0.00405159,0.0041721,1.45061,1.44169,1.44487,1.44452,1.44752,1.45566,1.45687,1.45621,1.4626,1.46496,1.46505,1.4713,1.46904,1.4709,1.46768,1.46798,1.46976,1.47566,1.47826,1.48096,1.4807,1.51688,1.49707,1.50266,1.50227,1.50903,1.53041,1.55766,1.5201,1.51984,1.53055,1.529,1.53323,1.53546,1.54472,1.5471,0.00393499,1.5582,0.00346495,1.57459,1.58132,1.57935,1.59649,1.59309,1.59469,1.59283,0.00340088,0.00331781,0.00380429,1.63158,1.63648,0.00381672,0.00379077,1.69204,0.00389652,1.6651,1.67639,1.68228,0.00368588,1.68963,1.69746,1.69735,1.70282,1.70879,0.00367085,1.79227,0.00398987,1.7212,1.72741,1.73118,1.7283,1.73131,1.72983,0.00363863,1.73943,1.74237,1.7426,1.74963,1.75265,0.00340579,0.00377299,1.77179,0.00354033,0.00361603,1.78285,0.00346008,1.79273,1.79923,1.80682,1.80693,0.00393127,0.00389587,0.00324517,1.82467
1.12628,1.12927,1.14277,1.23564,1.22892,1.14825,1.15376,1.15765,1.16037,1.16648,1.16692,1.17444,1.17495,1.17681,1.17789,1.17935,1.18132,1.18403,1.18579,1.18756,1.32127,0.00391856,1.25031,1.19288,1.19353,1.19486,1.19465,1.19548,1.19429,1.19522,1.1943,1.19343,1.19171,1.19258,1.19167,0.00362689,1.36986,1.37083,1.37243,1.42696,1.42735,0.00379038,1.309,1.32779,1.34425,1.17477,1.17576,1.2187,1.1717,1.17232,1.17119,1.16985,1.16953,1.16801,1.16911,1.16487,1.25832,1.28951,1.15996,1.15924,1.15605,1.15384,1.15256,1.14935,1.14293,1.13773,1.13911,1.12925,1.12881,1.11991,1.11311,1.11751,1.10411,1.09882,1.09942,1.09471,1.10201,1.08183,1.08363,1.08223,1.07381,1.42935,1.60426,1.53453,1.05458,1.05475,1.05517,1.15996,1.03715,1.03007,1.1558,1.16641,0.993896,0.989457,0.987786,0.990275,0.991631,0.975014,1.01718,1.01626,1.01328,0.949814,0.950459,0.989713,0.989146,0.9884,1.04514,0.991556,0.971205,0.987566,1.0582,1.05939,1.08168,1.11179,1.11023,1.12171,1.16779,1.22256,1.22988,1.27213,1.26811,1.3334,1.33486,1.35329,1.36825,1.41415,1.4576,1.43276,1.42864,1.47734,1.47824,1.48295,1.47515,1.47453,1.51252,1.48399,1.48228,1.61323,1.49318,1.51195,1.48386,1.48688,1.52569,1.51218,1.49531,1.49325,1.48938,1.4903,1.48872,1.4999,1.47645,1.50659,1.52988,1.52725,1.48892,1.48052,1.46699,1.46885,1.47119,1.46027,1.48612,1.46525,1.45633,1.44526,1.43994,1.42515,1.43609,1.45297,1.4205,1.4026,1.41101,1.42422,1.42678,1.44082,1.44701,1.43079,1.45444,1.40914,1.39543,1.40677,1.41015,1.38458,1.3486,1.34801,1.34508,1.35038,1.4118,1.4132,1.38767,1.38676,1.38766,1.38782,1.38464,1.38496,1.3842,1.39027,1.42291,1.42906,1.42432,1.43038,1.42564,1.43428,1.43462,1.43739,1.43885,1.44319,1.43861,1.44191,1.44375,1.45068,1.44894,1.45473,1.45236,1.45386,1.45526,1.45381,1.45772,1.45489,1.46407,1.46316,1.4649,1.46358,1.46772,1.46728,1.47308,1.47338,1.47869,1.48447,1.49181,1.49587,1.50538,1.5057,1.51063,1.51771,1.51608,0.00361313,1.5234,1.62269,1.52784,1.5411,1.53956,1.54854,1.54869,1.55768,1.56772,0.00336136,1.57929,0.00370649,1.58843,1.59133,1.59052,1.6203,1.60377,1.61421,1.61666,1.62392,1.62779,0.00344472,1.64,0.00331197,1.65116,1.65865,1.67207,1.67586,1.6791,0.00374261,1.69003,1.69586,1.70022,1.70915,1.70656,1.71249,0.00378589,1.7225,1.7208,1.72124,1.72101,1.72905,1.73018,1.73214,1.73168,0.00396012,1.74764,1.74579,0.00369832,1.7606,1.75849,0.00340345,1.77318,0.00358954,1.78927,1.78514,1.79314,1.80537,0.00354873,1.80763,0.00356064,1.826,1.8215,0.00350116
0.00363186,1.12681,1.17883,1.13739,0.0036081,1.26503,1.14974,1.15336,1.15663,1.16129,1.16323,1.16746,1.16888,1.17268,1.1767,1.17815,1.18075,1.1813,0.00361554,1.18442,0.00350387,1.27833,1.33017,1.21868,1.19016,1.19111,1.19111,1.19079,0.00335408,1.19101,1.19001,1.18861,1.18873,1.18924,0.00350246,0.00331929,1.78275,1.78589,0.0035854,1.49259,0.00366157,0.00373547,1.18072,1.92418,1.17707,1.17649,1.17627,1.17584,1.17502,1.17414,1.17362,1.17267,1.17009,1.17008,1.16938,1.44665,1.20346,1.16254,1.16106,1.16145,1.22626,1.24389,1.1515,1.24699,1.24405,1.19463,0.00349915,1.16369,0.00372121,1.12489,1.12398,1.12678,1.10024,1.09525,1.09609,1.09415,1.09107,1.08432,1.08323,1.08383,1.16509,1.07352,1.50397,1.31443,1.05935,1.05513,1.05279,1.11989,1.19132,1.19149,1.01556,1.01635,0.98755,0.98821,1.01928,1.01487,1.132,1.01692,0.975532,0.957766,0.958149,0.979067,0.961043,0.953265,0.955056,0.990676,1.02223,1.01265,1.13704,1.04181,1.04538,1.17185,1.16811,1.14838,1.14068,1.16526,1.1886,1.27026,1.28678,1.28938,1.3158,1.33475,1.35156,1.36741,1.39554,1.41955,1.47462,1.47311,1.45633,1.48791,1.48413,1.48593,1.54756,1.52789,1.50985,1.51257,1.56236,1.49699,1.50167,1.50245,1.49486,1.49871,1.49769,1.54515,1.55716,1.52465,1.48445,1.49506,1.51195,1.51651,1.50317,1.52131,1.53006,1.55341,1.50327,1.56283,1.48407,1.4866,1.4963,1.48006,1.48038,1.48911,1.47199,1.46263,1.47254,1.453,1.44847,1.45668,1.44473,1.45616,1.43715,1.43685,1.4475,1.43756,1.43585,1.43685,1.43846,1.42404,1.40023,1.41009,1.40983,1.39694,1.36855,1.3713,1.33772,1.33957,1.34651,1.3988,1.40245,1.38684,1.38777,1.38754,1.38947,1.38583,1.39019,1.38827,1.38943,1.41786,1.42108,1.4014,1.46103,1.45784,1.42696,1.43414,1.42695,1.43373,1.43887,1.43886,1.44526,1.44637,1.45365,1.45411,1.45412,1.45498,1.45267,1.45195,1.45168,1.4527,1.45505,1.45868,1.46157,1.46238,1.45895,1.46468,1.46702,1.47125,1.47828,1.47695,0.00395983,1.48964,1.48963,1.49744,1.50481,1.50732,1.51613,1.54992,1.52125,1.52388,1.52968,1.53102,1.54244,1.54132,1.55301,1.5554,1.55758,1.5625,1.56932,1.57744,1.58311,1.58868,1.59859,0.00369422,1.60319,1.61036,1.61295,1.63005,1.65058,1.64868,1.63886,1.64696,0.00364466,1.65517,1.66471,1.67138,1.67869,1.67805,1.68699,1.69555,1.69951,1.70573,1.71048,1.70969,1.71539,1.71613,1.71854,1.71678,1.7217,1.72304,1.72712,1.72678,1.72919,0.00389108,0.00359386,0.00413612,1.74599,0.00382264,0.00354899,1.78752,0.00364378,1.80046,0.00340341,0.00377547,0.00353718,1.80147,1.79908,0.00340267,0.00367378,0.00364781,1.83074,0.00406322
1.22438,1.30673,1.30712,1.13249,1.28257,1.14055,1.14434,1.14812,1.15171,1.15403,1.15655,1.16006,1.16455,1.16752,1.17065,1.17133,0.00378953,0.00354698,0.00363345,0.00362893,1.32643,0.00373877,1.18248,1.18325,1.35436,1.18549,1.18664,1.18445,1.18508,1.18453,1.18557,1.18442,1.18443,1.18337,1.18155,1.18197,0.00378851,0.0036126,0.00360379,1.1781,1.1777,1.1756,1.17741,1.17566,1.17557,1.30632,1.84983,0.00385603,1.28426,0.00359546,0.00389955,0.00377275,0.0037902,1.24179,1.42759,0.00354498,1.21913,1.20701,0.00361228,0.00354423,1.15323,1.15141,1.15101,1.14798,1.32403,1.34071,0.00380634,1.13396,0.00369632,1.20244,1.30012,1.16174,1.11823,1.12374,1.09954,0.00389378,1.08478,1.08172,0.00405761,1.13212,1.11411,1.98088,1.17119,1.12553,1.07818,1.05021,1.10992,1.04938,1.01106,1.01133,0.999632,0.988118,0.986682,0.987778,1.00167,1.11293,0.976819,0.976633,0.942905,0.945298,0.975277,0.969857,0.956951,0.960078,0.962833,0.977119,1.01477,1.01314,1.04475,1.06176,1.09362,1.11913,1.14701,1.18227,1.19515,1.20482,1.26371,1.26554,1.2921,1.30111,1.31637,1.34993,1.35132,1.38405,1.42545,1.41895,1.46029,1.4953,1.48196,1.51108,1.5123,1.50268,1.50551,1.50703,1.50556,1.50716,1.53011,1.55396,1.54948,1.58758,1.58679,1.51051,1.51998,1.50789,1.50763,1.48533,1.50416,1.54001,1.54291,1.57914,1.58276,1.56141,1.56417,1.57624,1.57998,1.55859,1.5093,1.51278,1.50156,1.50386,1.4942,1.49511,1.5579,1.51457,1.5002,1.49215,1.4911,1.48968,1.45513,1.45233,1.46517,1.44442,1.44227,1.44365,1.44409,1.43347,1.44536,1.43724,1.42818,1.45878,1.46161,1.41159,1.42828,1.41638,1.37311,1.36957,1.35558,1.35413,1.35334,1.47902,1.43749,1.43821,1.39322,1.39405,1.39546,1.38822,1.39044,1.39281,1.39559,1.38988,1.39027,1.40649,1.41338,1.41918,1.42263,1.42987,1.4398,1.4365,1.44393,1.44663,1.44599,1.44893,1.44756,1.44973,1.45066,1.44825,1.44659,1.45183,1.45296,1.45428,1.45788,1.45746,1.46156,1.45939,1.46101,1.46191,1.46374,1.49695,1.47778,1.48458,1.49154,1.49462,0.00355027,1.50429,1.50562,1.51065,1.51671,1.53996,1.53066,1.52356,1.53041,0.00361745,1.54486,1.55135,1.55379,1.56158,1.5702,1.58381,1.58246,0.00373937,1.60064,1.59554,1.61016,1.61987,1.61691,0.00348257,0.00385465,1.63652,1.64472,1.64427,1.64861,1.66171,1.65941,1.6756,1.67898,1.68374,1.68479,1.68822,1.69435,1.70251,1.70645,1.70696,1.70973,1.7157,1.71676,1.71497,1.71474,1.71925,1.72381,1.72031,1.72096,1.73111,1.73052,0.00352767,1.75079,1.74852,0.00354655,0.00349742,0.00347781,1.77242,1.77823,1.78398,0.0037474,0.00387541,0.00372654,0.00384134,0.00381179,0.00386152,1.83074,0.0035539
1.40029,0.00408644,1.12442,1.12798,1.13148,1.13479,1.13927,1.14246,1.14653,1.14869,1.15154,1.15422,0.00343708,1.15929,1.16276,1.16499,0.00384518,1.19573,0.00376077,1.30623,1.17455,1.17421,1.17419,1.1778,1.17785,1.17786,1.18019,1.17711,1.17638,1.17763,1.17633,1.1762,1.17563,1.17469,1.17676,1.17209,1.1729,1.1737,1.24756,1.1724,0.00350753,0.00360652,1.17438,1.17339,1.17227,1.17025,1.17041,1.19721,1.4549,1.34639,1.1984,0.00387708,1.2315,1.22863,0.00369115,1.16178,1.16004,1.15801,1.18954,1.27133,1.18135,1.14793,1.14515,1.14366,1.14363,1.13744,1.13745,1.13692,1.12909,1.12842,1.21965,0.00360253,0.00332954,1.36523,1.30932,1.23364,0.00357991,1.50269,1.07086,1.07162,1.0667,1.06665,1.0672,1.06779,1.06944,1.12208,1.05611,1.19112,1.01814,1.00029,0.999154,0.990669,0.991598,0.981246,0.97198,0.973791,0.979693,0.953502,0.98164,0.978314,0.951825,0.954714,0.963497,0.967095,0.990672,1.0321,1.0251,1.05702,1.07405,1.1012,1.12521,1.14151,1.18827,1.31669,1.29121,1.29365,1.27908,1.29366,1.29077,1.32755,1.34791,1.3717,1.41809,1.41684,1.4278,1.43922,1.50713,1.50606,1.59237,1.51544,1.591,1.53528,1.53363,1.63837,1.52784,1.55612,1.55086,1.66337,1.65514,1.52465,1.52057,1.54924,1.54465,1.54454,1.51606,1.52519,1.51753,1.54836,1.55079,1.54715,1.54911,1.60633,1.59237,1.59557,1.59201,1.68253,1.549,1.57129,1.55223,1.56599,1.55863,1.52097,1.51705,1.51566,1.51544,1.50286,1.5659,1.59786,1.47469,1.48,1.50515,1.50149,1.45544,1.45422,1.45885,1.50834,1.46686,1.46429,1.45811,1.48792,1.48178,1.56208,1.57419,1.43519,1.39584,1.38631,1.3597,1.37106,1.37426,1.48565,1.45878,1.41517,1.41021,1.41573,1.41518,1.39533,1.39625,1.39204,1.39218,1.38888,1.39225,1.39375,1.39863,1.41028,1.41976,1.42549,1.43698,1.43718,1.44113,1.44331,1.44897,1.44697,1.44577,1.44582,1.44592,1.44607,1.44543,1.45081,1.44887,1.45374,1.45634,1.45434,1.45521,1.45321,1.46024,1.45822,1.45835,1.46793,1.46581,1.47675,1.48562,1.48824,0.00307167,1.49946,1.4991,1.50515,1.5052,1.51726,1.53465,1.52669,1.52392,1.53913,0.00345412,1.5861,0.00366917,1.5593,1.55829,1.56743,1.62734,0.00358737,0.00358466,1.59845,1.61258,1.61043,1.6189,1.61891,1.6276,1.63516,0.00363151,1.64784,1.65509,1.65574,1.66858,1.66927,0.00380104,1.67684,1.6836,1.69175,1.69081,1.69291,1.70313,1.70525,1.73377,1.70993,1.70992,1.71051,1.71304,1.72294,1.7216,1.7189,1.72071,1.72642,0.00370124,0.00410166,0.00346493,0.00352016,1.75861,0.00371807,1.76798,0.003884,1.78042,1.78704,0.00370718,1.79953,0.00361701,0.00370853,0.00379495,0.0042238,0.00361913,1.83424
1.11232,1.11312,1.11701,1.12218,1.12279,1.12869,1.12983,1.13327,1.13755,1.14041,1.14371,1.14798,1.1491,1.32009,1.15384,1.57562,1.57609,1.58575,1.57514,1.16377,1.16595,1.1673,1.16584,1.16718,1.1683,1.16915,1.16921,1.16735,1.16846,1.17045,1.16742,1.16709,1.16407,0.00336491,1.28444,1.16263,1.19427,0.00382643,1.30017,1.20178,1.23568,1.24086,1.1646,1.16418,1.1651,1.16361,1.1668,0.00366591,1.16305,1.16339,1.16273,1.16362,0.0038346,1.15707,1.15724,1.15529,1.1536,1.15292,1.15014,1.14931,1.14663,1.1446,1.14188,1.14325,1.13861,1.13642,1.1337,1.13229,1.13393,0.00321385,1.14679,0.00368803,0.00392737,0.0038473,1.1813,0.0035733,1.09549,1.15464,1.16507,1.06684,1.06886,1.07026,1.06109,1.06695,1.05876,1.06038,1.1903,1.03264,1.02573,0.997382,0.997335,0.99098,0.993647,0.994737,1.03608,0.959827,0.959041,0.960248,0.948628,0.953428,0.985899,0.963831,0.951803,0.991279,0.993084,1.07683,1.0767,1.08395,1.08672,1.16479,1.16284,1.24255,1.24734,1.23232,1.32451,1.27448,1.28036,1.34009,1.35394,1.36523,1.38127,1.37241,1.42032,1.40544,1.41334,1.44497,1.48216,1.51578,1.65743,1.54477,1.53856,1.53678,1.67812,1.67586,1.60728,1.6063,1.55609,1.55908,1.55973,1.56237,1.56386,1.55871,1.55757,1.58914,1.55344,1.55852,1.55331,1.54703,1.55164,1.58588,1.56211,1.60153,1.60136,1.63448,1.58402,1.57956,1.54688,1.56443,1.57939,1.5742,1.57111,1.57261,1.56347,1.53339,1.51988,1.56713,1.52328,1.53764,1.52385,1.48269,1.48259,1.47852,1.48609,1.50014,1.47448,1.479,1.46438,1.45332,1.4666,1.46538,1.46738,1.47004,1.63336,1.45988,1.40934,1.4204,1.39347,1.39192,1.39364,1.3611,1.35868,1.38506,1.3751,1.40256,1.46099,1.42789,1.41885,1.38546,1.38558,1.3858,1.38712,1.38905,1.39166,1.4703,1.41088,1.46904,1.43248,1.44698,0.0036257,1.52242,1.44659,1.44707,1.44745,1.44666,1.44521,1.44472,1.44541,1.45069,1.45019,1.45187,1.45007,1.44406,1.44548,1.44865,1.46499,1.51374,1.46497,1.45836,1.46369,1.4756,1.47666,1.48874,1.49047,1.49215,1.49882,1.49648,1.50284,1.50414,0.00401178,1.51802,1.51673,1.51998,1.52705,1.5379,0.00351756,0.00327236,1.55809,1.57051,1.569,0.00389957,1.58894,1.59067,1.59994,1.60467,1.61746,1.61974,1.62617,1.63742,1.64435,1.64258,1.65034,0.00378936,0.00315897,1.67027,1.6745,0.00361453,1.68248,1.69156,1.68886,1.69432,1.69583,1.70035,1.69915,1.70513,1.70678,1.71254,1.71624,1.71392,1.71935,1.71792,1.72299,1.73174,1.73226,1.73779,1.74446,0.00344191,0.00336113,0.00398108,1.76647,1.77166,1.77482,1.80421,1.8036,0.00338528,0.00369404,0.00344611,1.81677,0.0038997,1.82559,0.00353646
1.10356,1.10778,1.10968,1.11327,1.1149,1.11735,1.12079,1.1221,1.12751,1.13332,1.32664,1.13574,1.13553,1.14161,1.14284,1.32719,1.47156,0.0035301,1.15306,1.15222,1.33665,1.38455,1.15494,1.15823,1.15903,1.15773,1.16094,1.15955,1.15777,1.15811,1.15665,1.15499,1.15118,1.15122,1.14995,1.14878,1.14584,1.18478,1.14876,1.14988,1.17419,1.16344,1.15452,1.15578,1.15532,1.15445,1.15675,1.25088,1.15678,1.15708,0.00360705,1.29524,0.00385673,1.15376,1.15415,1.14875,1.14666,1.14619,1.14408,1.14146,1.14064,1.13927,1.13839,1.13797,1.13573,1.13556,1.13512,1.13472,1.13384,1.17843,0.0035978,1.46798,1.14369,1.12934,1.11136,0.00358616,0.00350026,1.09875,0.00363098,1.08172,1.06109,1.06389,1.06012,1.04752,1.04016,1.50074,1.04746,1.00119,0.999759,0.999354,0.99631,0.995082,0.995161,0.97909,0.97121,0.970063,0.964142,0.970995,0.972956,0.970681,0.959635,0.947376,0.947843,0.948868,1.06324,1.12157,1.0947,1.13998,1.13689,1.15485,1.20238,1.21617,1.24682,1.24626,1.26613,1.27829,1.29941,1.37178,1.3799,1.38212,1.42344,1.44493,1.45267,1.4195,1.42289,1.46048,1.5202,1.51906,1.57401,1.57095,1.65444,1.55233,1.65239,1.60686,1.60255,1.60985,1.69848,1.6017,1.60368,1.59227,1.63233,1.60849,1.58185,1.58339,1.58614,1.5631,1.55784,1.57985,1.57812,1.57874,1.57977,1.58602,1.57312,1.57128,1.56252,1.56309,1.56111,1.60707,1.60917,1.57815,1.57485,1.57836,1.57562,1.55088,1.53417,1.53378,1.58807,1.61009,1.54375,1.562,1.501,1.48535,1.4846,1.48124,1.47847,1.47522,1.47175,1.47201,1.47242,1.50614,1.50946,1.4547,1.47444,1.42967,1.39894,1.39889,1.4092,1.40068,1.40462,1.40901,1.37239,1.37024,1.3768,1.37381,1.37474,1.3768,1.37837,1.38561,1.38872,1.38995,1.38863,1.3893,1.39159,1.39863,1.40042,1.44115,1.43359,1.43742,1.44844,1.44588,1.44458,1.44564,1.4479,1.44892,1.44994,1.44746,1.44777,1.44684,1.44689,1.44248,1.44116,1.44237,1.44061,1.44121,1.44334,1.44178,1.44595,1.47398,1.45688,1.45804,1.46823,1.46879,1.49229,1.47873,0.00352613,1.48678,1.48869,1.50311,1.51402,1.50995,1.51253,1.5157,1.5235,0.00345119,0.00356937,0.00380706,0.00357399,1.56162,1.56891,1.58022,0.00344876,0.0037395,0.00341971,1.60973,0.00372208,1.62262,1.62674,1.62701,0.00379079,1.64234,1.65149,1.66135,1.66758,1.66454,1.67572,1.67704,1.68609,1.68358,1.68281,1.69436,1.69325,1.69723,1.69802,1.69604,1.70237,1.70364,1.71648,1.71194,1.7185,1.71891,1.71942,1.73099,1.72999,1.74006,1.73954,1.73835,1.74089,1.75101,0.00383584,0.00363908,1.77822,1.77482,1.80253,1.79089,0.00346221,0.00322236,1.81608,1.8124,0.00361213,0.00403301
1.25633,1.25704,1.0998,1.10356,1.10638,1.10557,1.1097,1.11493,1.11294,1.11655,1.11872,1.12515,1.30824,1.1285,1.13107,0.00338908,1.13403,1.15127,1.13888,1.14099,1.33216,1.14482,1.28759,1.14459,1.14955,1.14661,1.14929,1.15,1.14936,1.14754,1.14417,1.14312,1.14038,1.1421,1.14268,1.13879,1.13798,1.13818,1.13636,1.13677,1.16819,1.16761,1.1559,1.1408,1.14366,1.14612,1.14647,1.14946,1.15075,1.15211,1.15157,1.15283,1.15069,1.15085,1.14987,1.14326,1.14013,1.13733,1.13615,1.13585,1.13676,1.13905,1.13924,1.1318,1.13026,1.13201,1.13296,1.13337,1.13373,1.13015,1.12911,1.12649,1.1189,1.11817,1.11337,1.1135,0.00376108,1.10269,1.09272,1.08868,1.08608,1.07853,1.17037,1.05629,1.19553,1.27176,1.08155,1.00012,0.990552,0.990689,0.977241,0.977127,1.02023,0.982219,0.996229,0.954663,0.954505,0.959254,0.959764,0.953605,0.95391,0.953616,0.99874,1.00163,1.11858,1.11956,1.10859,1.11384,1.14349,1.23141,1.22889,1.24016,1.25388,1.25266,1.26478,1.29919,1.36555,1.38307,1.39173,1.39213,1.39315,1.41372,1.4133,1.4152,1.43989,1.45391,1.46768,1.47348,1.48882,1.49036,1.62524,1.61479,1.61731,1.65707,1.65097,1.6221,1.62079,1.6206,1.61822,1.61693,1.62452,1.62168,1.62318,1.64966,1.59233,1.61137,1.62283,1.61911,1.62723,1.62454,1.62189,1.60783,1.6033,1.60326,1.60715,1.59565,1.59307,1.67138,1.6692,1.57558,1.57251,1.57133,1.59038,1.5782,1.54822,1.55016,1.56134,1.56819,1.58879,1.58697,1.54189,1.53809,1.49507,1.48183,1.52824,1.47337,1.47127,1.47089,1.46933,1.47623,1.46761,1.49199,1.44343,1.44301,1.44176,1.43916,1.4323,1.43338,1.43376,1.48975,1.3853,1.37823,1.33776,1.33845,1.3406,1.39287,1.34592,1.39151,1.39285,1.3927,1.39186,1.39829,1.44348,1.42686,1.41591,1.41475,1.49639,1.4457,1.45137,1.4453,1.44626,1.44542,1.44634,1.44579,1.44894,1.44993,1.44288,1.4414,1.44046,1.43957,1.43922,1.43365,1.43615,1.43305,1.43356,1.44006,1.44082,0.00369752,1.46012,1.4541,0.0034178,1.46729,1.46983,1.47402,1.47454,0.00359117,1.48899,1.48969,1.49881,0.00380236,1.51323,1.51588,0.00336526,0.00365831,1.53251,1.54431,0.00351619,0.00340388,1.57907,0.00375943,1.78306,0.00358636,0.00399352,0.0035957,1.60867,1.61672,1.61743,0.00366244,1.63431,1.6398,1.65048,0.0035424,1.65823,0.00362816,1.66914,1.67819,1.67599,1.68417,1.6868,1.68631,1.6899,1.69198,1.69283,1.69561,1.69536,1.69805,1.70015,0.00350115,1.71115,0.00335277,0.00370825,0.00368573,1.73135,1.733,1.73401,1.73888,1.73726,0.00368207,0.00389029,0.00365884,1.76491,0.00354233,0.00358989,0.00345784,1.83427,0.00353884,0.00366126,0.00357021,0.00374996,0.0036137
1.09067,1.09082,1.08969,1.09057,1.09457,1.09414,1.09531,1.15724,1.20783,1.09978,1.10165,1.11604,1.13669,1.11,1.11708,1.19877,1.19824,1.23138,1.33394,1.33246,1.32937,1.13252,1.54196,1.13339,1.13361,1.13328,1.13463,1.13491,1.1428,1.13415,1.13496,1.13356,1.13533,1.13406,1.13645,1.13511,1.13605,1.13606,1.12935,1.12751,1.12661,1.1283,1.13264,1.13127,1.13141,1.13395,1.13516,1.1403,1.14159,1.17203,1.15662,1.14793,1.14922,1.15,1.13948,1.14013,1.14066,1.14271,1.14163,1.1408,1.14232,1.14101,1.1393,1.13563,1.13573,1.13646,1.13515,1.13592,1.1359,1.13099,1.12935,1.1259,1.12596,1.12658,1.11542,1.11562,1.1047,1.10348,1.10499,1.0949,1.10324,1.07964,1.07401,1.06758,1.04983,1.06679,1.01865,1.01166,1.01118,1.01385,0.991104,0.988409,1.02359,0.980775,0.988,0.969814,0.962449,0.96326,0.967494,0.967229,0.994471,1.04748,1.04867,1.04721,1.07305,1.1166,1.10924,1.12712,1.17755,1.20527,1.279,1.27942,1.26144,1.26683,1.26269,1.26328,1.30171,1.38201,1.36184,1.36094,1.39108,1.39149,1.41555,1.41386,1.41181,1.47564,1.46489,1.46242,1.4968,1.51315,1.5643,1.6827,1.76249,1.74259,1.75704,1.64358,1.64221,1.64917,1.63772,1.65165,1.64016,1.642,1.6395,1.68344,1.67807,1.67557,1.64659,1.67802,1.66404,1.68982,1.63756,1.64986,1.62121,1.61664,1.61875,1.61444,1.61111,1.60938,1.59644,1.61366,1.57568,1.57097,1.57207,1.55438,1.54866,1.56905,1.56246,1.56812,1.58645,1.58875,1.58724,1.55176,1.52727,1.52273,1.50083,1.53995,1.52609,1.52133,1.51685,1.61002,1.50186,1.46942,1.45926,1.48193,1.44915,1.44976,1.49628,1.43946,1.43929,1.46232,1.45644,1.35985,1.3587,1.35057,1.35052,1.34428,1.36934,1.41243,1.41124,1.39334,1.3918,1.44697,1.4198,1.40891,1.42099,1.41714,1.42927,1.44016,1.43839,1.44721,1.44483,1.45012,1.45345,1.45001,1.45169,1.44788,0.00378083,1.44246,1.43458,1.43699,1.43441,1.43125,1.43057,1.42815,1.43032,1.4297,1.43277,1.44116,1.44197,1.44949,0.00357412,1.56358,1.46763,1.46596,1.47156,1.47505,1.50661,1.49132,1.49032,1.49254,1.49975,0.00330916,1.51703,1.52351,1.52733,1.52988,1.53979,1.548,0.00362557,0.00354921,0.00354832,1.57766,1.58556,0.0038439,0.00374514,0.00358706,0.00337878,0.00372303,1.62876,1.79438,1.64075,1.65082,1.65416,0.00372055,0.00366077,1.67515,1.67385,1.68201,1.68305,1.68943,1.68604,1.68574,1.6904,1.69039,1.69853,1.69454,1.69115,0.00357028,1.70533,0.00370566,0.00351265,1.72348,1.72328,0.00380933,0.00396513,1.73725,0.00351717,1.74843,0.00340371,0.00371922,0.00354215,0.00360512,0.00397225,0.00367571,0.00367285,1.79595,0.00337532,1.84135,1.82112,0.00348259
1.07477,1.0749,1.08051,1.07637,1.07576,1.15994,1.07614,1.16471,1.16521,1.12732,1.12836,1.13082,1.09158,1.12891,1.11902,1.10253,1.10941,1.22341,1.21633,1.21924,1.2518,1.25373,1.11957,1.11939,1.12204,1.17073,1.19784,1.14081,1.12501,1.16401,1.29116,1.12036,1.21082,1.11949,1.11834,1.11745,1.12273,1.11892,1.13049,1.12059,1.12404,1.12422,1.1238,1.12526,1.12665,1.12956,1.13277,1.13602,1.14004,1.14276,1.14638,1.14686,1.14702,1.14979,1.14884,1.14782,1.1476,1.14846,1.1471,0.00369493,1.376,1.37391,1.14203,1.14102,1.14098,1.14312,1.14092,1.13866,1.1391,1.13778,1.13664,1.13649,0.00373074,0.00354864,1.12049,1.12055,1.10876,1.11044,1.11035,1.10866,1.08864,1.09199,1.07049,1.06174,1.07485,1.01152,0.998446,1.00757,1.00494,1.00125,0.998716,1.03436,1.03363,1.0155,1.03217,1.00785,0.961671,0.962981,0.963711,0.968293,1.01532,1.0051,1.06003,1.06176,1.09227,1.1358,1.16231,1.23761,1.2293,1.26672,1.26799,1.28803,1.2859,1.34535,1.29818,1.28371,1.28126,1.28711,1.39335,1.39305,1.36725,1.3958,1.39616,1.42771,1.43171,1.43085,1.49223,1.5146,1.53952,1.5407,1.55534,1.68706,1.68481,1.72736,1.70426,1.67517,1.6858,1.68174,1.68322,1.68369,1.6791,1.68627,1.68918,1.72019,1.67618,1.68629,1.67933,1.68644,1.68717,1.69359,1.65402,1.65513,1.65544,1.64723,1.65009,1.64775,1.62964,1.62773,1.61778,1.61554,1.59408,1.5878,1.58817,1.58221,1.56648,1.58259,1.56825,1.5672,1.59237,1.56297,1.55421,1.55318,1.6368,1.53629,1.54446,1.56965,1.54498,1.54592,1.54564,1.57119,1.58188,1.49931,1.47666,1.48051,1.47021,1.47166,1.47516,1.45445,1.44809,1.44031,1.43123,1.41171,1.42328,1.42249,1.35366,1.35119,1.36296,1.34978,1.35918,1.36032,1.39927,1.42199,1.40374,1.45144,1.44374,1.43131,1.4271,1.45142,1.45116,1.44725,1.44733,1.45128,1.4509,1.45104,1.46144,1.447,1.44647,1.43494,1.43231,1.43165,1.42365,1.42353,1.42107,1.42373,1.42058,1.42447,1.42712,1.43096,1.43631,1.44461,1.44703,1.45515,1.46254,1.4624,1.46757,1.46898,1.47331,1.4762,1.48226,1.48855,1.49522,0.00346246,0.00444594,1.51662,1.52282,0.00361061,1.5383,0.00335424,1.5523,1.5545,0.0040206,1.56326,1.57974,1.57775,1.58593,0.00344377,0.00402158,0.0035688,1.62294,0.00368487,0.00347962,0.00347606,1.65025,1.6596,1.66912,1.66864,1.67281,1.67856,1.67604,1.68198,1.68213,1.6856,1.6829,1.68846,1.68635,1.69229,1.68949,1.69751,0.00354903,0.00376353,0.00335841,1.71246,0.00373885,0.00382299,1.73305,0.00359099,1.74257,1.74613,0.00360096,1.75251,0.0035847,0.00340946,1.77565,0.00329625,0.00351878,0.00400648,1.80409,1.80919,0.00367902,1.84006
1.06532,1.11518,1.09599,1.1546,1.13708,1.23625,1.17739,1.12944,1.13224,1.16688,1.16216,1.1626,1.16103,1.15909,1.14143,1.13083,1.21672,1.21959,1.11704,1.09563,1.0974,1.1193,1.10805,1.10852,1.10702,1.10821,1.10836,1.10851,1.10937,1.10993,1.1083,1.11127,1.11174,1.10669,1.10718,1.10679,1.10759,1.10811,1.1082,1.11022,1.11188,1.11235,1.12,1.12152,0.00333543,1.13332,1.13303,1.13669,1.14324,1.14478,1.14637,1.14986,1.15137,1.14964,1.1485,1.14945,1.15207,1.15296,1.15196,1.15094,1.15158,1.15136,1.15022,1.14606,1.14797,1.14619,1.14485,1.14371,1.14051,1.1411,1.13975,1.14073,0.00338813,1.15048,0.00337721,1.12431,1.12063,1.10741,1.1079,1.10859,1.09659,1.09297,1.08482,1.08141,1.06803,1.09707,1.00091,1.03745,1.00466,0.990266,0.992286,1.02296,1.02052,1.02117,1.00846,1.01125,0.977469,0.963707,0.961669,0.977591,1.02516,1.04098,1.0467,1.09786,1.13054,1.20104,1.20075,1.21956,1.24018,1.34063,1.30127,1.33183,1.33036,1.28586,1.28509,1.28985,1.29469,1.31539,1.35019,1.33832,1.3516,1.39296,1.38321,1.42682,1.43389,1.46419,1.49583,1.60551,1.60322,1.56381,1.70996,1.79962,1.7167,1.67459,1.69382,1.69722,1.69422,1.70618,1.71295,1.70812,1.701,1.69442,1.69796,1.69674,1.71238,1.68079,1.71016,1.71177,1.70849,1.68985,1.69537,1.73531,1.68659,1.68526,1.68068,1.68474,1.66564,1.66526,1.65827,1.65508,1.62973,1.63017,1.63013,1.6021,1.59962,1.59725,1.57725,1.57239,1.59542,1.64307,1.5588,1.56165,1.54842,1.56757,1.56795,1.56913,1.56906,1.55358,1.54076,1.53737,1.53517,1.53657,1.51914,1.50537,1.49139,1.49827,1.63688,1.46242,1.47082,1.45798,1.45793,1.54604,1.42441,1.42803,1.57709,1.46818,1.39622,1.36465,1.37555,1.37701,1.37575,1.41265,1.41206,1.40433,1.44843,1.47349,1.45814,1.46473,1.45697,1.45765,1.44846,1.44733,1.44845,1.45868,0.00380498,0.00392829,1.44121,1.43768,1.43059,1.42923,1.4206,1.4223,1.42029,1.4206,1.42021,1.4227,1.42273,1.43051,1.43721,1.43798,1.46936,1.44916,1.46019,1.46454,1.46669,1.46765,1.47061,1.47185,1.47563,1.48059,1.48132,1.49635,1.49874,1.50868,1.51341,0.00412748,0.00305902,1.55119,0.00338026,0.00360154,0.00370879,1.58069,1.56764,1.57601,1.57507,0.00356868,0.00365156,1.66218,0.00342028,1.68933,0.00348075,0.00352898,1.65476,0.00367786,1.65991,1.66042,1.6628,1.67418,1.67341,1.67686,0.00324204,1.68015,1.67706,1.68218,1.6779,1.68578,1.75133,1.6897,0.00357947,1.70559,0.00374199,1.71711,1.71421,1.71494,0.00337165,1.81068,0.00331672,0.00421492,0.00338654,1.75095,1.76099,0.00413818,0.00383149,1.85593,0.00350848,0.00368748,0.00375987,0.00381404,0.00400638,1.85579
1.05621,1.05724,1.04988,1.11569,1.1792,1.0426,1.04286,1.04376,1.04932,1.0505,1.13025,1.088,1.15476,1.1359,1.1296,1.07679,1.08118,1.08209,1.08272,1.08345,1.08383,1.08689,1.08802,1.08932,1.09422,1.09356,1.184,1.113,1.09719,1.0984,1.10035,1.13589,1.64723,1.09777,1.09654,1.0978,1.09887,1.10103,1.1034,1.10529,1.11003,1.11288,1.14463,1.12173,1.12875,1.12909,1.13454,1.13955,1.14518,1.14611,1.15127,1.15331,1.15392,1.15615,1.15538,1.15338,1.15447,1.15507,1.15553,1.15731,1.15651,1.15569,1.15593,1.15369,1.15083,1.15224,1.15103,1.15022,1.15171,1.14731,1.14692,1.14965,1.29289,1.20538,1.1357,1.13861,1.13432,1.16755,1.1193,1.09914,1.09904,1.10273,1.10966,1.0788,1.09195,1.04569,1.05401,1.03697,1.03562,0.986163,0.987898,1.00466,1.00542,1.0188,1.01916,0.997624,1.00955,0.994446,1.00586,1.00559,0.998354,1.06017,1.06002,1.15258,1.17164,1.20752,1.22012,1.27545,1.27627,1.30605,1.30303,1.31536,1.31431,1.31415,1.36406,1.31663,1.31275,1.32086,1.34611,1.39914,1.4006,1.40121,1.4124,1.45104,1.49583,1.50549,1.56788,1.56479,1.5968,1.59904,1.80091,1.73672,1.7127,1.70931,1.70977,1.72397,1.71965,1.73511,1.74199,1.72621,1.73305,1.73687,1.75,1.75043,1.74563,1.72912,1.73179,1.72271,1.72993,1.7196,1.71378,1.72012,1.72363,1.69667,1.69537,1.68911,1.69394,1.69292,1.67176,1.66921,1.68464,1.6649,1.66125,1.62546,1.61421,1.62053,1.62263,1.66635,1.64854,1.57613,1.55759,1.55769,1.57678,1.64746,1.56072,1.56041,1.54756,1.54515,1.5478,1.52663,1.52757,1.50973,1.50105,1.49984,1.49825,1.49266,1.50203,1.49988,1.47416,1.46506,1.44576,1.44671,1.45065,1.45076,1.58305,1.62051,1.60454,1.37594,1.37021,1.37094,1.38575,1.43423,1.40204,1.40248,1.40374,1.50366,1.44836,1.46015,1.46341,1.45064,1.45055,1.45348,1.45154,1.44732,1.44476,1.4429,1.43883,1.43099,1.42443,1.42359,1.42461,1.42307,1.41922,1.41643,1.42027,1.4263,1.42386,1.4289,1.43669,1.43487,1.44377,1.45439,1.45418,1.45886,1.46534,1.46289,1.46558,1.4667,1.47096,1.50291,1.49272,1.49144,1.49229,0.00358885,1.50937,1.51304,1.51287,1.53281,1.53376,1.54476,1.55531,1.55526,1.55452,1.57235,1.57016,1.65235,1.59246,0.00329153,0.00391517,0.00347058,1.62847,0.00392213,0.00326382,0.00351678,1.6518,1.65821,1.65759,1.66784,1.66808,1.66499,1.6647,1.6721,1.67252,1.67898,1.67832,1.67626,1.76845,1.68518,1.69489,0.00378156,0.00396904,1.70493,0.00338749,0.00323394,0.00346004,0.00325934,0.00360095,0.00346329,1.74572,1.75113,1.75585,0.00361378,0.00374341,0.00335276,0.00339805,0.00313488,0.00382754,0.00366295,1.8104,0.00307104
1.04333,1.04214,1.04248,1.04271,1.04478,1.0427,1.04214,1.04361,1.04409,1.04977,0.00338024,1.05835,1.0596,1.06299,1.06483,1.0688,1.06955,1.07394,1.07546,1.07668,1.07812,1.07836,1.07895,1.0805,1.08227,1.08492,1.08812,1.0858,1.08886,1.08925,1.09001,1.09033,1.08851,1.08889,1.08888,1.08925,1.09036,1.09514,1.096,1.10018,1.1061,1.14939,1.11861,1.12677,1.13009,1.13384,1.14154,1.1464,1.14671,1.15148,1.15575,1.15733,1.1584,1.15924,1.15464,1.16064,1.15929,1.16014,1.15995,1.1619,1.1619,1.16205,1.16025,1.16762,0.00354249,1.25179,1.25282,1.15802,1.15625,1.15489,1.1947,1.1504,1.14655,1.14495,1.79704,1.13434,1.13367,1.13445,1.16851,1.10826,1.10659,1.15209,1.09508,1.11819,1.07041,1.05793,1.0353,1.04114,1.03289,1.0144,1.0149,1.02369,1.02634,1.00547,1.03687,1.00455,1.00777,1.03175,1.07092,1.07151,1.08209,1.07959,1.16427,1.1744,1.19051,1.21521,1.21552,1.24735,1.32761,1.32627,1.32722,1.2983,1.31011,1.30962,1.32339,1.32813,1.33883,1.35471,1.38524,1.40768,1.42241,1.42622,1.42746,1.51053,1.51179,1.51095,1.54205,1.57157,1.65179,1.65274,1.66608,1.69893,1.70415,1.77288,1.74075,1.77901,1.74703,1.7797,1.75814,1.75062,1.75906,1.7589,1.75427,1.75167,1.75861,1.7476,1.77287,1.7593,1.74681,1.74014,1.76599,1.76594,1.72076,1.72687,1.7186,1.71667,1.75472,1.78469,1.73613,1.72931,1.71737,1.71729,1.67106,1.67529,1.64324,1.69543,1.65731,1.65095,1.6489,1.6943,1.69642,1.63893,1.63564,1.67628,1.59582,1.5962,1.55325,1.55393,1.55492,1.55154,1.533,1.52787,1.53259,1.52449,1.51218,1.49927,1.49179,1.50828,1.50628,1.57567,1.45813,1.45631,1.46352,1.46368,1.43975,1.4352,1.43394,1.42715,1.39167,1.37817,1.38081,1.38079,1.40815,1.56065,1.56954,1.49943,1.47307,1.47951,1.44653,1.44539,1.44761,1.44739,1.44928,1.44159,1.44018,1.43911,1.43617,1.43097,1.42743,1.42617,1.42131,1.41626,1.41542,1.41779,1.41763,1.41924,1.42225,1.42855,1.43306,1.43792,1.44147,1.44416,1.44859,1.45414,1.4626,1.46172,1.46665,1.47083,1.47203,1.47699,1.4836,1.4837,1.49053,1.50057,1.50173,1.51345,1.51237,1.52087,1.53455,1.544,1.55056,1.56792,1.56037,1.5674,1.60031,0.00376215,1.58865,1.58639,0.00340886,1.61951,0.00335425,0.00343981,0.00396014,0.00374973,1.64679,1.65189,1.6516,1.65421,1.65935,1.66161,1.66182,1.66237,1.66463,1.66809,1.73747,1.67852,1.72782,1.67554,0.00375371,1.68552,1.69093,0.00355891,1.72571,0.00376192,0.00367307,1.72606,0.00354859,0.00364172,1.74094,1.74792,0.00379776,0.00396661,0.00388755,1.77347,1.78248,1.78674,0.00368442,0.00432196,0.00365092,1.81001
1.0378,1.03814,1.04015,1.03806,1.03966,1.04103,1.0426,1.04121,1.04347,1.0449,1.04972,1.05073,1.07468,1.0603,1.06003,1.06255,1.06474,1.06701,1.06759,1.07001,1.07143,1.07277,1.07166,1.07389,1.07727,1.07734,1.07841,1.08174,1.08527,1.08631,1.08689,1.08757,1.08788,1.08868,1.08706,1.08824,1.08928,1.15407,1.09529,1.09863,1.10275,1.11886,1.12228,1.13265,1.13582,1.14254,1.14588,0.00325603,1.15647,1.15687,0.00351721,1.16164,0.00355702,0.00371724,1.16503,1.19548,0.00411614,0.00395572,1.39301,0.00386993,1.24646,0.00344244,1.29547,1.16781,1.16494,1.1667,1.16328,1.16161,1.16109,0.00357224,1.19992,1.23666,1.15079,1.15031,1.15738,1.79628,1.79409,1.14641,1.23201,1.10871,1.10688,1.10147,1.10829,1.17083,1.08309,1.07563,1.04147,0.99925,0.991184,0.991676,0.984293,0.99098,1.05054,1.06555,1.06861,1.07298,1.04544,1.10353,1.10161,1.07157,1.09124,1.14941,1.14355,1.18948,1.21636,1.21673,1.2401,1.26196,1.29585,1.29598,1.29635,1.3621,1.31604,1.31569,1.32043,1.33953,1.38834,1.3883,1.41558,1.40506,1.42605,1.42983,1.47375,1.48125,1.50275,1.55426,1.58928,1.66172,1.66118,1.66353,1.6924,1.69046,1.72069,1.77904,1.7874,1.79267,1.7862,1.77287,1.80626,1.78068,1.78585,1.78267,1.78688,1.8082,1.79933,1.79816,1.79249,1.8011,1.75811,1.77878,1.78929,1.83458,1.77652,1.77264,1.79289,1.79293,1.79189,1.77579,1.78211,1.72223,1.72828,1.72798,1.74474,1.72566,1.70386,1.7196,1.69976,1.65509,1.65232,1.65926,1.65793,1.70282,1.65194,1.59158,1.57365,1.57177,1.57674,1.54077,1.54842,1.58157,1.57992,1.53474,1.52124,1.51961,1.52274,1.58186,1.51119,1.49083,1.48051,1.46109,1.46007,1.45975,1.46465,1.45077,1.45525,1.43559,1.41995,1.42023,1.39521,1.40596,1.4005,1.41008,1.38321,1.38859,1.5558,1.49154,1.46136,1.48929,1.46913,1.48563,1.44778,1.44591,1.45351,1.44545,1.43972,1.43742,1.43043,1.4296,1.42615,1.4228,1.41862,1.41358,1.40966,1.4106,1.55161,1.42648,1.42258,1.42382,1.42856,1.43332,1.4377,1.44083,1.4467,1.45343,1.45985,1.45746,1.4611,1.46276,1.46896,1.47797,1.47765,1.48489,1.48808,1.48835,1.53481,1.50573,0.00376522,1.52339,1.52769,0.00351084,1.54359,0.00334682,1.55659,0.0033851,1.56818,1.57907,1.578,0.00324432,1.59738,0.00350624,1.61149,0.003539,0.00355021,0.00316237,0.00345597,1.64774,1.6463,1.6504,1.65741,1.65764,1.65544,1.66218,1.66285,1.66097,1.65974,1.66483,1.67854,1.67212,0.00360173,0.00331101,0.00366694,0.0033451,1.70244,1.7098,1.71432,0.00379514,0.00364542,0.0036788,1.73805,0.00374697,1.74498,0.00354061,1.76668,0.00361082,0.00356358,0.0034413,1.79297,0.00353541,0.0032917,0.00321925
