0.468291571751786,0.467943272662996,0.467990848016292,0.519120349310642,0.552750653645357,0.56555347600591,0.553047776053256,0.541728102152861,0.52966376270145,0.514828772546178,0.552703442560127,0.577786249586995,0.560565726937718,0.53981649955191,0.519097648721252,0.483132548999834,0.482934476733454,0.483966585020633,0.485964392691516,0.488647170022271,0.490401249600391,0.493027704963259,0.495370903121039,0.497486573393199,0.499565536275041,0.501613383724684,0.503423933987387,0.504853145051819,0.506432864385608,0.507076427770882,0.511876951985611,0.514154504281249,0.515203592340302,0.516511845324395,0.518555634651716,0.522505894644662,0.56147367179603,0.614139455203926,0.608531352315964,0.600927571059563,0.59160724299398,0.580944541868555,0.552708711874101,0.554363568528121,0.555912113671786,0.556507280929762,0.557773883488766,0.558332060657301,0.558872427733774,0.559274646062993,0.560518775134047,0.56155897811584,0.562260042168644,0.562766895318342,0.564261439204625,0.564964265718323,0.565097428319877,0.609920946194157,0.631611752882528,0.653293539783319,0.67497613464232,0.696644289826511,0.634613557140778,0.585729624118722,0.586269551194875,0.586445117461505,0.587381537564782,0.587809760674578,0.588016428922305,0.58818198816837,0.58824282444678,0.588121693976645,0.588508823225379,0.589148230051584,0.589607539717294,0.590221669457878,0.591097439910987,0.592272924186539,0.593147985073597,0.594394408273881,0.596380657849108,0.597429751233106,0.598520071405503,0.59994743970664,0.601070447663448,0.601728587565227,0.605912313483076,0.626805592367424,0.633252232243567,0.63638562540194,0.642819841171685,0.649580490424659,0.642968293692835,0.64063597266858,0.639178462951496,0.637963312434503,0.636988266096383,0.636317502660546,0.635214961874425,0.635060203585979,0.6398937724892,0.655474284621468,0.657816713091212,0.696686750046834,0.699966113004493,0.702293848894922,0.703293956174135,0.703241153968185,0.703697802095494,0.704309308052015,0.678487868161035,0.677022593829499,0.683532222015751,0.686959824637019,0.689269876048987,0.691905146702268,0.694659103811631,0.697392742804525,0.715375168708482,0.725375709391809,0.741755022807325,0.778898963583014,0.782988867860918,0.786590919655608,0.788999355830464,0.791453353797546,0.792630527398686,0.793500958846412,0.802021227335423,0.807498978072522,0.807434939165053,0.807553449749789,0.80778689874226,0.809027940731935,0.786540803165732,0.782743419393209,0.781123775109314,0.778748110396093,0.777387407546379,0.777254017382991,0.778153741737693,0.779587154789859,0.780476938782342,0.839593051540449,0.913352001736977,0.93803832506877,0.913497381624867,0.891599214464918,0.872123437274611,0.854740528947783,0.8390295687173,0.824560870825096,0.810884214821415,0.776694646459646,0.775983288603689,0.776507939940847,0.778860887062701,0.780433559677572,0.781811101900026,0.783082809892221,0.783856247450447,0.784422505745062,0.785397909992551,0.787210285507933,0.788718961582961
0.452867108920185,0.452497107664679,0.454036046065691,0.608328999999684,0.563452117235836,0.588362000000163,0.561968444677495,0.614498479853397,0.556707584834198,0.465382000000304,0.573408453749351,0.597780593021017,0.603223391148161,0.949497,0.534177526512091,0.479879338934777,0.481315257865256,0.480446731223152,0.483367222364608,0.480827502685042,0.489420077222506,0.488933126301016,0.48910722095744,0.489845297463104,0.490067666129362,0.491031698441453,0.499000643223941,0.502798024956656,0.506312302100531,0.504992849282568,0.511380909848329,0.512306272730225,0.514016301147869,0.515235597737427,0.516052037927757,0.516443212056243,0.54976626106331,0.862349,0.57113298992585,0.527332496250141,0.529891521998737,0.532379070323582,0.549864201183161,0.835572883607365,0.832142810399935,0.830585006061964,0.616627060492747,0.544497021829652,0.548627216570328,0.545850036794905,0.547615952576039,0.548748127925581,0.549768458444026,0.549785191300864,0.550466898093969,0.549960608343372,0.555412093076582,0.783756,0.763286469682973,0.763752029896293,0.737856623326125,0.737364022473887,0.646664951500053,0.576501015678636,0.576085223216758,0.575734059338829,0.577110882179473,0.577499456243291,0.578675674013628,0.578456601697736,0.582889635782806,0.585832507391542,0.586851041890145,0.588200866963587,0.588476012274732,0.588832235180951,0.590162726856231,0.592549481186471,0.5924365830338,0.593881561451203,0.594204855759088,0.594319006992326,0.595701639522861,0.597343864406516,0.598930412760634,0.600314175285281,0.60616464319839,0.607433316913877,0.612905320220932,0.613711206345114,0.641145441653561,0.663237865315403,0.640128538644279,0.619711000002835,0.625878014338151,0.62651093761373,0.632178709668897,0.631715257082607,0.633440025888387,0.633297842671011,0.633123011669098,0.632980153302705,0.653782646356124,0.704853000109435,0.700074808840742,0.709362999999779,0.669487731843247,0.649210988549083,0.677968744822114,0.70471064739264,0.676454698373715,0.663392333981419,0.663376063822748,0.663329211253264,0.663810043492899,0.664306822664155,0.663145677668257,0.661666834089346,0.660874661278984,0.661455663864506,0.716545229850111,0.773801786310468,0.729478315639802,0.678805294687478,0.736646827978459,0.829206999999847,0.76246795018924,0.733149000000643,0.771257823131525,0.807811627191939,0.807656113921261,0.807997858017651,0.807529465159868,0.823166968948979,0.785343647233947,0.783731341099636,0.782405496394378,0.709447209480848,0.710120334891208,0.710442900600009,0.768816011306819,0.778710524583719,0.779745782778755,0.764473018704511,0.894439830063179,1.06918201824654,1.06857827188289,1.06884562411597,0.990005031540311,0.950829725203616,0.952168733638104,0.953508125222246,0.836720057130601,0.771171355123975,0.773699282675273,0.773955764095322,0.779462848501897,0.781762169837491,0.782538048279116,0.785196507810592,0.784517999968702,0.784877153613361,0.784050659881602,0.781685660978366,0.78212769201873
0.453283689280671,0.453123811881615,0.453266265715191,0.496361490741456,0.518286700226085,0.540252443687495,0.550960771562591,0.614899669744791,0.615116924730604,0.615083410176239,0.614780809624913,0.6141664224505,0.613174325088797,0.612484738407561,0.549238106818696,0.481049270680241,0.4817760670901,0.482461082418537,0.484577734210366,0.487158052678011,0.488659480970564,0.488759887862884,0.488329902575227,0.489229373041857,0.489293557306957,0.489928574987148,0.494776267339279,0.497865712049564,0.507101004359309,0.507357773912605,0.509689705568531,0.511557641222415,0.512794248958852,0.514349487916136,0.51612247137406,0.517866727929335,0.520665322239355,0.522659483625537,0.523767340514147,0.524207367620978,0.525527687049506,0.52846650460154,0.5475594161113,0.834691023957812,0.833802152918957,0.832219955198143,0.666284834596935,0.641069087116964,0.618877989386183,0.596691933590072,0.547895459830028,0.549154030414086,0.550151212112111,0.550616121156471,0.550962691501315,0.550855644360979,0.551099129939053,0.757273457035945,0.756160091502287,0.756099351618587,0.739256400409684,0.737856624081312,0.657815814489867,0.576261715138678,0.575897107310887,0.576538716817462,0.577592991466682,0.57844968113931,0.579443967324708,0.580304579131783,0.582404637545255,0.583650523208517,0.58473251849362,0.587648468977809,0.587047089908948,0.588016031387712,0.587947980740306,0.588275576372682,0.589881714905438,0.590966798946187,0.591940048404087,0.592840156469671,0.594014322452628,0.595673258154631,0.596810816775327,0.598117628165957,0.605133403268616,0.609718231507685,0.611289727086752,0.612928070700802,0.615697299013687,0.61660143150742,0.618284745352645,0.621602887130024,0.625096659638046,0.627658809917172,0.630944112882956,0.632179751559268,0.633168251250402,0.633255549708236,0.632785780022867,0.632316075455039,0.649813257504725,0.679142634098556,0.671098583252354,0.663920993210045,0.65758079103927,0.650286611206918,0.651346619316076,0.652318083012524,0.653087149047689,0.65358970313649,0.65389430249101,0.654168540986366,0.654568444481164,0.655239341007009,0.656352938469324,0.659106689394022,0.659667070894724,0.660439301355939,0.670330262515023,0.67140531923221,0.671754802129096,0.672943281922646,0.689971676019327,0.704169350498081,0.712914163556985,0.722865828450311,0.732498840287544,0.741322711282994,0.749590058868742,0.757595056596322,0.765514160948574,0.773128837641761,0.779626954233419,0.783104813131126,0.782645147432809,0.769936379407958,0.709789017329407,0.710645802532349,0.76299295996156,0.779743274044636,0.779923406615097,0.768608473363539,0.880666069516924,1.06881690200744,1.06822112171902,1.06218346355197,1.02039775902106,1.00197081150838,0.983476068771415,0.966120493474697,0.871218885325668,0.845285645204795,0.819325110015325,0.77665250254711,0.779247450588339,0.780738997752873,0.781727369372743,0.782328215926045,0.783838309817548,0.784083224115573,0.783685887511208,0.782782014459332,0.782556946574907
0.446893536410343,0.447399823971323,0.445919038500735,0.443912611003296,0.443661836031768,0.442657557663807,0.542512406143866,0.682538999999395,0.635639003576295,0.976742,0.641371269884492,0.960554,0.612486037676694,0.611479465468509,0.564279292561896,0.46317800000085,0.544276493919634,0.640245792646078,0.640064756372863,0.64500199998314,0.54218471514643,0.478370019471164,0.486007388109495,0.483713549882352,0.487996317549237,0.486736598817303,0.491602840100077,0.00380558000000022,0.516617185809845,0.593034,0.508313156067917,0.50665383165807,0.50822577973144,0.508798584812262,0.509832952728055,0.00339587000000022,0.512374221508207,0.511822423452158,0.516488902874554,0.51720776562435,0.520522603673387,0.524663187440689,0.546238091175894,0.837905374065491,0.836173427324208,0.8368184096098,0.691650057165352,0.656590999650209,0.665210897122012,0.807287,0.546328942128035,0.539308194358359,0.539013882788756,0.53813202949063,0.538982429211336,0.539589327509741,0.5461511977948,0.75920144790759,0.609295920465087,0.545475990099975,0.743088501253037,0.747088434849636,0.668065398084592,0.566884843660942,0.571780980997666,0.565662235318299,0.564481170703247,0.564852880031038,0.563695999231151,0.563718908770965,0.574355150325129,0.575552352083022,0.581375527350672,0.601339973477845,0.584138891603253,0.582958144011112,0.585319232775238,0.586365346717849,0.587844095608367,0.588610100706056,0.589862250860585,0.590010496398242,0.591906402445178,0.592573145420381,0.594592903761113,0.5956988538109,0.603866877807053,0.749041,0.608653446439188,0.605105349142953,0.604784212313616,0.605483210175244,0.617176916476913,0.738551999999472,0.691005054138863,0.73889199999846,0.702085750343468,0.743093999998734,0.642492242707159,0.624423000049192,0.632035264217513,0.630922215113238,0.649900341515595,0.690058999892162,0.660949588857065,0.641772315690054,0.641338238365076,0.641081133481118,0.641716121432314,0.643023938960262,0.643586148185789,0.644868860149193,0.649955420379888,0.653323697461458,0.653284327002165,0.654659813228931,0.655173155642355,0.655928027876773,0.655743557461737,0.655430531221375,0.66816967867378,0.666444725056204,0.669219252786194,0.670117091063447,0.672011835232299,0.671546707354264,0.673536724482851,0.673513884780885,0.674614610639551,0.673320134884965,0.686665720023586,0.690553640657223,0.687003063218498,0.685577166231498,0.752526420678141,0.838043999998058,0.800517872003537,0.866241,0.707438053441488,0.705008066964006,0.755213786779442,0.829437000000392,0.779692470296491,0.736287000000301,0.869971953436576,1.06956272395952,1.06848550684205,1.05774197848407,1.06229894282846,1.06342975981759,1.03813281467384,1.02899000027405,1.02108773886319,1.02496862991434,0.845280886874636,0.763019000135279,0.779772925370346,0.780057767380088,0.781000777951025,0.781051722977574,0.777413602018851,0.772320002635466,0.773172829957268,0.773228992368726,0.773752386602699
0.447078214271841,0.447010200551318,0.446100700954783,0.444870307555073,0.444156152268832,0.443547920152019,0.532298060903366,0.584571994160902,0.586078690893354,0.588771487438037,0.590791486751046,0.592249465535226,0.593465318141643,0.594854778407361,0.596917199509182,0.599358991353943,0.602338374477705,0.61283972920313,0.639729824644015,0.639515497521429,0.590923816502718,0.584728083193252,0.577187670968423,0.569319651272261,0.560558438133501,0.551396893907235,0.542066383040846,0.532415411981032,0.52195985054318,0.516250524485311,0.508385233673256,0.508094130640877,0.508800955426531,0.509477792642387,0.510225975393861,0.510708565886316,0.51291278732382,0.513398110898412,0.51536422386008,0.516083241034745,0.519346513502776,0.521159998883374,0.540132977998912,0.581094083910023,0.685675157300727,0.742942355440416,0.717242252993323,0.691714536339999,0.671753722948027,0.613692484535795,0.544171549419164,0.541513300095354,0.539101831446283,0.538359795107724,0.538952383916049,0.539821609338186,0.540414731641835,0.54191041051961,0.543290285756223,0.544485154766637,0.743709494904426,0.745121046404283,0.677386751476,0.628754854392276,0.582737572769074,0.564198021879035,0.563096189175887,0.562943310614135,0.562653520365789,0.562521085793872,0.573108592893292,0.574323462898613,0.579629211174247,0.59242788251635,0.582611298977891,0.582952268463574,0.583864682700021,0.584802460824349,0.586021541095276,0.586997406308815,0.588415915823834,0.589570539730905,0.590619110127048,0.591457637285179,0.593014114981704,0.594537324381718,0.602224989597856,0.601269444959516,0.601721166198613,0.602840646172817,0.603620411102925,0.603821903209322,0.616631222601524,0.649559518906343,0.659745083839479,0.673902743606941,0.688791909500633,0.703724871187908,0.662851161570902,0.658487756783839,0.654424313325412,0.651948006102173,0.650414868062574,0.648981276813156,0.646644825308266,0.643309341381322,0.640902255531144,0.640341863382187,0.640925043320219,0.64171864210187,0.642772027532895,0.64409304299366,0.646469039944471,0.648254096073463,0.650077373633347,0.652101813006956,0.653892209583112,0.654397492799759,0.654621478270007,0.654482395520137,0.6669110713171,0.666464923966697,0.668000473033614,0.668350668526081,0.673927911835792,0.673675342366668,0.674978285544101,0.674092585831427,0.676930943081537,0.678961661739691,0.68281413181735,0.68382352751246,0.684824539766853,0.684840366245073,0.728271780661745,0.74977263477028,0.771268427581154,0.790047616427953,0.706410122535098,0.70622681745313,0.746706760781309,0.813780078451964,0.782802780456398,0.783508050318317,0.85856881272051,1.06881537287375,1.06805697034871,1.06691046938461,1.06545959761667,1.05894837222953,1.04215531213348,1.03813863616254,1.01742503180298,1.01713795280552,0.871211327031013,0.83022598020099,0.785902362609035,0.780105966622395,0.779836686610396,0.778942513396896,0.77718068650405,0.7745977744249,0.773854767824232,0.773535394151146,0.773377046852213
0.429739163512763,0.425141163777299,0.42516299317101,0.425272977126959,0.4252365665283,0.424679541441399,0.519722594035088,0.582667519647025,0.584364693027565,0.578127901122804,0.58326095158094,0.4492,0.501835491140611,0.449689,0.597786120067041,0.609691391841549,0.605823008275818,0.58106100000103,0.639449693236221,0.639161140938217,0.605159522146379,0.599766495202569,0.601437211537745,0.629077999999246,0.618012512822865,0.618428091120333,0.621332456925725,0.687359,0.54318656289418,0.491098880173742,0.49075956564941,0.491453016822096,0.490051159510259,0.483691911691969,0.498531540232105,0.589885999998441,0.539020938757392,0.505677562284137,0.515140291700328,0.514366212791517,0.514756344438391,0.513695828273724,0.513878834895498,0.512226492017347,0.660098393258012,0.822863,0.742942355466066,0.823165,0.677145175100167,0.534097680785644,0.53833137163388,0.810826,0.538324400555489,0.536780793106769,0.53825545738012,0.54014189018116,0.539355105979755,0.538502294199732,0.538445793387552,0.537906909485253,0.756113779775277,0.798426999998895,0.687562124815943,0.70461899983537,0.595116516104713,0.559254903577648,0.561030799883357,0.561301640432334,0.561692003081025,0.561343641585956,0.570582902584467,0.570150812419649,0.577406800495181,0.714642,0.581159073332548,0.580010060301402,0.582659365200995,0.582719344468859,0.584614256607358,0.584520863011235,0.587469797144925,0.588856544451335,0.589638578326151,0.589238291574929,0.591268091755023,0.589208624640223,0.601164138757132,0.599595869979745,0.600836052434226,0.600753100946318,0.602955829983475,0.602324737464312,0.615101224419407,0.602476999998762,0.632672622202021,0.642493890459724,0.673163712736633,0.731366999997951,0.665836411787193,0.667799538575029,0.661267900131321,0.669368999826983,0.637722066727753,0.634612961846198,0.635316661492205,0.635847698738256,0.638249760983747,0.638247405040511,0.639759960521642,0.640030222965187,0.64156182034707,0.641648178944012,0.645742782106161,0.645887971407263,0.64873789082302,0.649674816073106,0.653831133276822,0.653004743600872,0.653662886759041,0.653198085572857,0.66555943480793,0.664132707468997,0.667560913204403,0.666645192328364,0.675453002295204,0.852471,0.678131660516523,0.670725861617582,0.679813754290534,0.68060883308907,0.681844105459476,0.681404226611279,0.683552780249241,0.684061828217214,0.684204674170752,0.683704642617247,0.747980426507183,0.833028999998931,0.704308530524397,0.701165005640025,0.738855059906405,0.847054999998811,0.781912759170215,0.783960844839906,0.846720941883952,1.09037999994953,1.07165515210397,1.06909902826799,1.06670969188364,1.0512800492979,1.04847902111423,1.07760999999755,1.01442402631368,1.00488081550392,1.00647102602565,1.00802074873783,0.800113123861674,0.759198041942869,0.764725096550977,0.762686028083092,0.765277513400252,0.764020601525085,0.767084412576968,0.761305369990481,0.772391122630981
0.422955101627903,0.424161814078639,0.425048337744638,0.425619541367497,0.425711912474626,0.425542726384668,0.505869062495826,0.583436000908257,0.58402465135456,0.584081242226863,0.583932027090102,0.587570564911179,0.591931756561094,0.596681587859193,0.600280191610099,0.604396580624135,0.613996273127833,0.619900587318899,0.639374819638147,0.639272253829546,0.609542219360697,0.601437216849788,0.602526014668467,0.61054031614989,0.615457719980021,0.618010642772654,0.623783436551084,0.624643321651202,0.556470860583574,0.490423644893323,0.489450607924177,0.489878595684242,0.488317506329869,0.485800515580071,0.496980473261852,0.56716163265033,0.548633163053813,0.539182420864103,0.515430210881797,0.51531255752534,0.515429507000515,0.515100096266096,0.515060115624146,0.561478071504447,0.634898075198565,0.682110124344304,0.700374935463955,0.699950541391366,0.681867935736834,0.53676797865367,0.538202528362678,0.53834729810113,0.536882369499437,0.536254049223745,0.536764561013438,0.537797211175812,0.538131403171059,0.538386111749851,0.538703112388748,0.599731482273582,0.757921140284507,0.759277968870897,0.679007770652195,0.674546796193781,0.604908540317679,0.59711366310434,0.560500626184712,0.56090105388722,0.561581739866988,0.562082821735393,0.568341694069047,0.57269630487499,0.574991141650185,0.575562216675155,0.577545773137718,0.578983332587314,0.583901726218406,0.583901221743993,0.584886532526805,0.585583163574568,0.586801554926033,0.588019627264468,0.589510024971287,0.589957162238304,0.593187314630379,0.594334023779204,0.601251512882359,0.600773937004862,0.601040374300121,0.60116942691519,0.609931991791285,0.612236232604739,0.61593753384528,0.619977358764874,0.620537877841505,0.620737664124115,0.620293526636981,0.620137036080613,0.621241345643739,0.622850776500436,0.625403562773901,0.627893142961026,0.630705160759227,0.63359192559682,0.635459598919713,0.63649032958903,0.637801958210301,0.638577046498984,0.639698598512536,0.640604749649662,0.64169953416412,0.642674983456255,0.644750956259314,0.646043347465261,0.647628470383302,0.648628938662731,0.655380022036793,0.65652041585906,0.657860224027495,0.659862120914205,0.665705698345935,0.666629801002267,0.668518136653748,0.671740957989497,0.676451383866434,0.679829524573263,0.680669956527437,0.68189088359842,0.681718157759802,0.681904109913209,0.682495728967619,0.682805918110839,0.683856127124422,0.684624329982287,0.684834997099303,0.684906572146344,0.70041116100299,0.700776114247727,0.701320055788592,0.701447743264396,0.725939119995016,0.76493393512434,0.779150751615229,0.799308988733098,0.834612715082298,1.07639832599859,1.07387824462789,1.0715345016712,1.06804144046144,1.06327556047901,1.03921672782266,1.03052441048594,1.01202238492096,1.01031029177643,1.00920637323989,1.0085149013307,0.808949265961472,0.76465039620261,0.76633794813241,0.766901177487209,0.767218892537473,0.769456077583038,0.769956297165363,0.771266212483501,0.771892728244556
0.423185285436799,0.423547512246198,0.425297759980582,0.426369092821337,0.426419160988514,0.426187313535056,0.492187183652249,0.829667,0.725715112772976,0.979026,0.758325037428036,0.968212,0.72960132670322,0.966336,0.637611346564108,0.59139900003046,0.641979345387631,0.807992,0.655547017833315,0.648795000121385,0.614837217939072,0.462548,0.515760572774754,0.461051000000083,0.512356926903881,0.460720000000044,0.626234592562745,0.645435999998303,0.569710953547194,0.484600434887026,0.486376200022385,0.484878205054389,0.487165079652356,0.485202231119432,0.495202578348283,0.88554,0.588458654033734,0.886885,0.496714331280824,0.00325371000000022,0.498369105689163,0.497939179370712,0.505522847968415,0.597267999999682,0.609979082150416,0.673911999998463,0.700281135951234,0.699161803703865,0.686021713916842,0.521312000008596,0.52244221129523,0.521427003517937,0.534960758785681,0.533978296574076,0.534179702118045,0.532930335112635,0.536474764260648,0.537838679728496,0.538835917612462,0.807735999999506,0.759903157905739,0.830613,0.674583602715732,0.667332000088014,0.619209612288798,0.637050000003525,0.559572576001796,0.560168532480358,0.561901959048219,0.563430855003377,0.565820125059072,0.573108051475984,0.573994212714564,0.57387490516922,0.570734580231286,0.570029854253169,0.585046847399725,0.604126999688504,0.585520041752209,0.585975779840589,0.586380366436602,0.58677292129825,0.590363335847855,0.590920911686607,0.601954398912836,0.636159277614873,0.637342945906307,0.637701958817919,0.606052057578696,0.601507576139524,0.609514502296906,0.751961999998119,0.708041152702884,0.75288499999915,0.62118874516629,0.622361765913847,0.621316018345255,0.620851497841563,0.62214810540164,0.623204082248964,0.626114658960845,0.626410263716843,0.627422359050214,0.626273413947602,0.63641539931239,0.636783161619158,0.637759998695851,0.638408885272269,0.639732885790437,0.640841028142329,0.641861762273682,0.64250105688323,0.644446350819259,0.645915055716414,0.647168990977499,0.648662153180587,0.660019749613453,0.718946484373137,0.717969691989916,0.717649144213889,0.686398173668655,0.68745727873741,0.686370820561432,0.748774999998994,0.683108606367535,0.682088046774547,0.682418775696406,0.682958232726213,0.682997066336731,0.682635492851102,0.683245513906693,0.683363701340874,0.684331139654411,0.685699521274061,0.685572247994619,0.686171341771005,0.700236587052175,0.700496251733391,0.701381387952204,0.701486378105609,0.702137100422273,0.701688768991367,0.777190341232086,0.820155000016096,0.825451193618584,1.08032459312203,1.07639728248142,1.1057499999972,1.08059467510913,1.09128999994243,0.899705805505914,0.795819000000008,0.900059279727781,1.03938536383159,1.03275727109961,1.03122761879938,0.815904977282176,0.762529229503213,0.768623451100766,1.02193,0.771541605631282,0.771028215918164,0.771784547799219,0.771717692901615,0.771845607373823
0.423598724145831,0.424720765286398,0.426145909846398,0.427428533145456,0.427310155392106,0.427188208544376,0.478730772747778,0.673716394298265,0.699716104942057,0.745995224088139,0.732327270583355,0.717962269389843,0.703603169442163,0.691842500653526,0.677039904424214,0.674513122072507,0.671539667100472,0.668334277301333,0.658820274783863,0.655534716200283,0.622647357546464,0.603161104730248,0.58126050013327,0.55937562701697,0.537506047278577,0.514806447555668,0.627964577388966,0.628989682203773,0.583403768095821,0.555047657438363,0.531290672421478,0.490539170419088,0.489990048999996,0.491306617320706,0.492904370880394,0.492968982633647,0.493650440870259,0.494881325324994,0.496149685396188,0.497522836668095,0.498515280132752,0.498707063594283,0.503999108094715,0.559079383847928,0.584394832823487,0.610254785049122,0.700697047324359,0.700271099076277,0.689996444991228,0.633674692563537,0.607908096847908,0.582576964149603,0.533446499381005,0.533482195404691,0.532640915816768,0.5335651481694,0.534569947873384,0.538997002716065,0.539418037788214,0.540844444663596,0.550416525101864,0.550401503140682,0.552380216519394,0.553376769848416,0.554632526453279,0.555796879516018,0.55783347679977,0.559996135058707,0.562322467985868,0.563536716406717,0.564740996435943,0.565045355816496,0.56577429395408,0.567157596708447,0.5682276275348,0.569140262434375,0.585864210872347,0.585556119692527,0.585612314718722,0.585476907044606,0.586124590564223,0.595945570115356,0.599548867231377,0.601886136272283,0.603481543113129,0.637280736188355,0.637744574502442,0.637965769775156,0.608352706265627,0.610594910618713,0.610390061187465,0.710896080903706,0.692686463639324,0.676290752054981,0.620938694293428,0.621860927188171,0.621947089863677,0.622210262094623,0.623196792120046,0.624068545894132,0.626392620961898,0.627485890530981,0.629366327716198,0.630750674699323,0.636939714484609,0.637251952081111,0.637938650081314,0.638455467508999,0.639827268643513,0.641105689534142,0.64224774226772,0.643239931472526,0.644503196755495,0.645506947739408,0.646459281539153,0.646940618379399,0.663938147846504,0.718064230734593,0.7176467621951,0.717421423691121,0.685007941669025,0.686010583546483,0.685566744440261,0.685019606123398,0.683756266557807,0.683113518854784,0.683637652597057,0.684421381512824,0.684443755852362,0.684264016713124,0.684326082358347,0.684421796699603,0.685593072044869,0.686179971864655,0.687527117726231,0.689856481638029,0.700210755416567,0.700818220171524,0.701968723680744,0.702323719027414,0.702853282594212,0.746336214992082,0.776405738838082,0.789327025799945,0.805240287242982,0.826302175960552,0.84794235914369,0.870419671934904,0.893948694671577,0.918680295892057,0.873723880981511,0.847760919559147,0.874148436541713,1.03683551818823,1.03441004146159,1.03352789873979,0.820415794609796,0.77077302714639,0.77053984803088,0.771497664404922,0.771978619162483,0.772554144373646,0.774272643765546,0.776663171476004,0.77874835937748
0.424646406637178,0.425544262626338,0.427221241726207,0.429758574674071,0.428157793018358,0.427979029774844,0.46563523005323,0.647724000000002,0.673716394298221,0.782587999998173,0.707031853262046,0.676701572962965,0.67797673683958,0.679199754044759,0.679015391115761,0.680447282796503,0.674377474407144,0.665034330110692,0.677429174935893,0.695509374885235,0.638748383552751,0.639085594530333,0.638773450683358,0.674533,0.563496330390616,0.466938000000491,0.627912519380575,0.639418999998207,0.626610346444604,0.625780980649991,0.551902992600527,0.490769640442159,0.490491499403627,0.490390662512181,0.491373941968548,0.490564574886429,0.492915787203705,0.494632960954436,0.495753802125032,0.86819,0.499079719451787,0.499388046380286,0.500947063165521,0.500681650464098,0.554658353626451,0.501707,0.708519535642182,0.870627,0.711730196563154,0.853567,0.633674692713569,0.851962,0.531530819363452,0.527217741896034,0.528866447324551,0.526803992991231,0.53287145298312,0.539268632810851,0.539772100881462,0.540012421862584,0.549463466350987,0.547527688002197,0.552369466454323,0.552221618616605,0.553875553730018,0.554321304095638,0.555715476338024,0.555440357991437,0.563733246602102,0.563409645884725,0.564507417895664,0.564444826909182,0.564874917692012,0.564475814131805,0.565767051822538,0.563697713639631,0.586480902532613,0.585125797741555,0.585863222339061,0.584276836844516,0.587025755013018,0.632441999761943,0.613289677652164,0.613472171942041,0.612281632100876,0.77437,0.687863825627172,0.774439,0.610006985843659,0.614160054222608,0.612292502251391,0.76331,0.675505314272655,0.652948999998651,0.619615358446646,0.618093334400267,0.621907977167076,0.777228,0.623748492416949,0.623105431983989,0.627686140662354,0.749288,0.631395442122532,0.631573410798753,0.636959243207981,0.757246,0.638246726907299,0.637505636583906,0.639955518698691,0.641317277266479,0.642706810131264,0.643538019023991,0.644713862614092,0.645027701202976,0.646132638558341,0.645628227225076,0.667812979121323,0.749937000000028,0.721738246487361,0.724863401456066,0.682308860151227,0.669371517062552,0.681049192403566,0.685867374372288,0.683655928090984,0.682739211038054,0.684329870938548,0.686351682819421,0.685785122119035,0.685419732638068,0.685117427544557,0.685419392300905,0.691743127089923,0.771340999998836,0.71349887443139,0.725377936981753,0.717444678633133,0.769395999995204,0.703063443314408,0.702571415897561,0.703480666036901,0.779408456945053,0.776698348676264,0.774790062752733,0.774778282129834,0.774854350460229,0.782953226613594,0.795051999939682,0.831023660363535,1.08805,0.847572828992258,0.805187935818659,0.848328615582602,1.04996999999851,1.03465814053927,1.03503744572667,0.826359576203419,0.770982629989151,0.771161861905509,0.771938422564974,0.772273816505083,0.7728618323403,0.775968688286323,0.778872528077376,0.77939240348177
0.426036774132926,0.427073881590008,0.427364301820872,0.427893303619751,0.427428965846019,0.427818541712939,0.452509880908468,0.472212870979462,0.492240831983625,0.512802922448162,0.534023585654501,0.555995140288446,0.578848405671064,0.602701891928963,0.627619952820865,0.685653143155631,0.689826665252856,0.692535709473075,0.693861785951021,0.69429356705615,0.638602582488464,0.638700698393672,0.638625009452226,0.645516798472273,0.627578062265102,0.627501192476528,0.627490083006822,0.627058247688476,0.626769977534894,0.626612235986449,0.572514384983377,0.556759944451899,0.540996544490462,0.52717366639518,0.49112962634071,0.491539250815502,0.49275292289912,0.494601973986712,0.496251519291147,0.497915588772365,0.498893921732378,0.499088413708904,0.500705248676811,0.559507274144839,0.585439873832968,0.61139754852646,0.729179454986834,0.753349985905503,0.654938032524032,0.629358099871457,0.604131905812862,0.579110613697347,0.52934005185235,0.528430707626516,0.528530547273297,0.528368365227601,0.530266476314065,0.535319256296221,0.539821465231406,0.540655977742985,0.549855649955426,0.549839966862386,0.551722807291121,0.552358052685553,0.553711396783524,0.55429721741937,0.555076880855489,0.555381876901097,0.564853205838248,0.564727576607894,0.565116036088722,0.563770157849495,0.564530948773327,0.564515277257528,0.566700404332599,0.573694609471772,0.587944986966154,0.58746030895955,0.588274389974864,0.589221437615699,0.58869018764325,0.612581001115568,0.61260486407488,0.612321567733131,0.610529745802514,0.607432443849681,0.60589822959686,0.606071138558136,0.608730065558069,0.611704236661494,0.613094285577882,0.614205460549996,0.615622154389321,0.616579754197584,0.618202831366593,0.618597519073691,0.621243463485364,0.622052118113094,0.624323971804827,0.624714655992361,0.629092634274008,0.632778332425063,0.632844784781423,0.633660957111201,0.636621622057644,0.639180653727542,0.63925054734747,0.639432431340581,0.640968582976475,0.642358112645583,0.643484750220153,0.6443468773849,0.645562341863917,0.646489571271162,0.647260629367109,0.647687573099904,0.672758725260343,0.735050371626875,0.718888251038886,0.717726821355547,0.679235125421408,0.676603857846099,0.677952564320337,0.68028287594978,0.68205771748284,0.683140510333526,0.684387212894327,0.68586088626428,0.686697832910343,0.688291598270025,0.68984108010504,0.691380598970122,0.692830575010476,0.698126891863676,0.702629160245448,0.707159159474084,0.712067659218322,0.742839119854822,0.704106259097178,0.70401281613445,0.70435799768317,0.730130480767173,0.743996670132468,0.756217638023311,0.763890043448724,0.774613941886109,0.779922575545392,0.783299621931527,0.786285882256268,0.789370027593769,0.793177290204541,0.79802882353302,0.821739372658341,0.830960461810786,0.848298258326396,0.847551745282432,0.833246456986888,0.826319989578653,0.791105408308409,0.789790982062373,0.789548671860668,0.789176765612864,0.789561787697593,0.789650070358067,0.819711040483367
0.427584450163848,0.429210439054566,0.427234942522323,0.426909887186595,0.425718687163818,0.423857309789277,0.423424117337189,0.422897419564346,0.422898007201072,0.422445467918324,0.482439778132966,0.52878,0.488043435179462,0.427791831224193,0.495611196188529,0.798529,0.72160013106331,0.796626,0.724933469526873,0.915595,0.51840776400975,0.446524896162593,0.524840452710874,0.646924315001729,0.627654428762126,0.648559999998992,0.527675508083708,0.465401628603396,0.532438493568309,0.659801,0.586976293152843,0.624563999998291,0.565030816022112,0.614566999999704,0.489930932992869,0.484224936295127,0.485909715670193,0.486560991514287,0.486339244708607,0.486627001287248,0.498918915918702,0.498571450213481,0.499753212314821,0.878578,0.704284961845804,0.870195,0.753349985897596,0.867799,0.622165507785557,0.522626358160443,0.52480245001699,0.52577923538114,0.527727694671413,0.528398712362056,0.528126788058905,0.527544533744357,0.528961828454406,0.527935898745789,0.538835977401264,0.908221,0.612918985721988,0.915878,0.551719485115353,0.551243015532797,0.553811246566175,0.553775799929951,0.554844919431111,0.555647886981489,0.565394411728094,0.568210775272147,0.567281744190802,0.560803101982461,0.564719803151753,0.563763478706955,0.568449854206382,0.718948,0.589218008780043,0.590289174186994,0.590295870139244,0.590720841775027,0.590177708891431,0.61239681182581,0.611940855608158,0.784214,0.61004726431797,0.604784527313384,0.606289822418171,0.601635931365672,0.693746440052238,0.799389,0.614693960764995,0.607673000060076,0.61627382245176,0.616016754082098,0.6179973594946,0.616838138688868,0.622097096272318,0.620275339809254,0.626196308183305,0.62621523166064,0.630680460751749,0.632313651316135,0.633213166193584,0.633379090730344,0.638520683407716,0.639600502629038,0.640197988248767,0.639887204632002,0.642074144420291,0.643398832896848,0.644400423250666,0.644551147952997,0.646499674455423,0.647853222752513,0.648541806759447,0.649181728683001,0.678278396814606,0.766132999998809,0.717720095417652,0.717077417911688,0.67626528221082,0.674230108936038,0.675540669046189,0.675072505166565,0.68080598300248,0.683128832547016,0.684103608905852,0.685879524057252,0.69914592756573,0.785675237540305,0.784010034850946,0.805111999999383,0.695211707236071,0.688890000065722,0.700860180184201,0.700833697332222,0.705172757590451,0.785667999998749,0.704537013739461,0.704473631194018,0.704870552967006,0.704793909140609,0.705284470634872,0.704767672724557,0.745569562166987,0.774364485726167,0.776730973342181,0.77906255646174,0.763430507058457,0.754830679375914,0.75602034165112,0.757267000837238,0.781786680635823,0.790843385245371,0.847892001553225,0.845846699222317,0.847241029660992,1.0403,0.790451982819583,0.787194890444719,0.788346322652477,0.787351252643516,0.788819079879106,0.788857646956238,0.84104958440939
0.425288066429931,0.425132242818433,0.425361690230795,0.425198877868076,0.424616582800482,0.423818602531952,0.423498339701585,0.42326594315885,0.423285144767872,0.423462090775754,0.424751450274083,0.426685469684995,0.427975310702641,0.428468576000164,0.431157772538808,0.432891080533652,0.434665319457172,0.437248650148088,0.441113249660204,0.44382750262388,0.445075931724349,0.445647019330434,0.453395470346988,0.45482865458827,0.456428989138175,0.459358300532358,0.462788608373991,0.465077041189745,0.490649390027157,0.504852539806057,0.513857469528,0.522826721306447,0.533226229034299,0.544594730486985,0.487964678816778,0.48612368371112,0.485718165512969,0.485661364832033,0.485485493446259,0.491749977601495,0.498740821736042,0.498821475011217,0.499353916612793,0.704284961845869,0.679576093342134,0.657405831524962,0.636318671033555,0.616115538887922,0.596572204483256,0.576335950302164,0.525585983663084,0.525864603929399,0.527030959405159,0.527461296333728,0.527751086582917,0.527892922145137,0.529769939149986,0.530327701262215,0.536876857399048,0.536747185051225,0.544165810706783,0.54503371228368,0.551628070090641,0.55310761365391,0.555794264882488,0.558413807799418,0.560727960214043,0.562996932973773,0.565459113152633,0.567338048772691,0.56834229811307,0.568808044543539,0.569585855279244,0.570715574614117,0.570454847578224,0.575198616450595,0.588606725028759,0.591173764447636,0.591612243525835,0.591793007365841,0.591172563208603,0.611387316120285,0.610973180002802,0.609883508831905,0.609196413414865,0.607490339543246,0.607999299780701,0.675062902011286,0.716086820675459,0.741914903488387,0.616501702444037,0.617141099890942,0.617364661271141,0.61820691518799,0.620259667187314,0.6231731195393,0.624576268212169,0.626300841728698,0.627468109334148,0.628020473045072,0.630541541754698,0.633157488017832,0.63425194650767,0.63652567196922,0.639199066770544,0.640995632748555,0.641991101736825,0.642820539438081,0.643799709741784,0.644697316626941,0.645892257086666,0.647001675249192,0.647767448613411,0.649491740627017,0.650277196804008,0.675365309798251,0.683520453597588,0.706920743857284,0.70248263410599,0.689399589081148,0.675205122861324,0.674099267646296,0.67469571823521,0.675581145672802,0.67902196742842,0.6817075224958,0.6829505322383,0.683550031149129,0.707308636079577,0.779217535024134,0.779202743727522,0.74896929499217,0.699949801680521,0.700451326233139,0.700922917632466,0.701395150022121,0.702554812584204,0.703557655556958,0.704518759859599,0.704949264477008,0.705428442752749,0.705601903077428,0.706114528785237,0.705984013997239,0.72875359586355,0.739012561805429,0.744942477610903,0.748209991220894,0.748934187781599,0.754059712951313,0.755723505811873,0.756737080932053,0.775326776371133,0.793464526124463,0.8485869079142,0.847716950938678,0.847907539487796,0.838436985895497,0.79127847796539,0.790069801303549,0.812521711484273,0.826446659166657,0.838318484590523,0.848119225360373,0.854595640327854
0.424368726681876,0.424493011672744,0.423669998542166,0.423848341504245,0.423631948746557,0.423282372798542,0.423444248503536,0.423275840031043,0.423447183449849,0.423112507607125,0.423726352096498,0.422378422539283,0.428257553116735,0.429313043703486,0.430907189828143,0.433842129928109,0.434377189996467,0.435292504195252,0.441539821533124,0.444316569470196,0.444656305930975,0.444736741718974,0.452806067886711,0.455321823564756,0.455720556021452,0.00404655000000021,0.464284005695787,0.467217534937792,0.468538021580598,0.46936293009211,0.470540289097017,0.4706938299993,0.517107146955696,0.559578999984434,0.48726571096185,0.48620247712104,0.484734281007035,0.484503109976483,0.484005941037556,0.49706302770065,0.497906221354015,0.498122973160202,0.498857898895916,0.897459,0.628771354555502,0.597616999997419,0.583560587028058,0.508756758262773,0.572088773349765,0.762411,0.525406181623069,0.52454595762203,0.526484709851572,0.526267687141351,0.527112642392139,0.526208596494447,0.531548478690807,0.533047563891365,0.534702349424639,0.534016016024363,0.542579146610759,0.540649638903994,0.549654866807483,0.561513215569957,0.558483030061498,0.824438,0.567708968208763,0.56739467907018,0.566151090450576,0.820876,0.56984424934311,0.568364148553438,0.570701834436657,0.572120306100986,0.572315797683408,0.57287840334697,0.586826168272908,0.784276,0.5927531440229,0.593434998541708,0.591432263117039,0.625440857244537,0.611098199224566,0.599530009988999,0.603144413036763,0.600356620929303,0.60929695955509,0.786375999999493,0.738643363788077,0.793727999999979,0.617738670682061,0.617709799173251,0.61803792254008,0.619220305797469,0.621551553808643,0.624436409253779,0.626404579320581,0.628687438712365,0.628778556227129,0.6286433058402,0.631273334362699,0.771843,0.640006940830082,0.63808272005026,0.640725876500083,0.643106807267449,0.643928081738214,0.64491349446903,0.645525436747465,0.645424997936137,0.647244268742632,0.683977999997551,0.652358414210576,0.651714873641322,0.651676606538778,0.692344987394603,0.692977829579455,0.713493939577455,0.699409460922843,0.665789008141783,0.672845746961123,0.672107224806449,0.673458592140525,0.673456964145797,0.677960396271891,0.675405317141826,0.682404960091207,0.681796228854663,0.715817862406185,0.779449064985497,0.779466086275998,0.735659999994414,0.700266949042912,0.700691549317312,0.701021036017674,0.701299004876125,0.7026166083798,0.703475006385273,0.704620348293463,0.70509731670265,0.70584540100054,0.705798728671175,0.707332834084908,0.70695131999686,0.710906411272374,0.707742979175373,0.720762962008555,0.720197164020351,0.744520697580386,0.909904,0.744515748196001,0.728593000000759,0.767679316896894,0.796084186162356,0.849245935465952,1.10977,0.886463372066025,0.761435000000744,0.774552789380179,0.772536691615427,0.848806249439138,1.0539,0.93321396181391,1.0523,0.867215116366419
0.416546091037182,0.418660172344481,0.420855050309511,0.422230955542359,0.422765060499723,0.423194959796372,0.423582677855779,0.423870399056699,0.423834458940978,0.423791106512042,0.424305045460178,0.42488669864497,0.427038792101504,0.428235039544305,0.429802713492981,0.432467687844523,0.433806453199489,0.435608147800981,0.441008183556288,0.44223336637623,0.443439524078531,0.446092801721335,0.450504329046751,0.453699166361525,0.4560026183902,0.459276485631795,0.463178107490228,0.466415726406332,0.469080628668678,0.470615376588405,0.471402416429361,0.471915221928131,0.475026835959928,0.47607157640082,0.477016693891512,0.478963606414655,0.480958510431055,0.482385559750413,0.481928077786622,0.496680371375029,0.49723338303717,0.497539692125886,0.498500554228568,0.545566051636984,0.568560012427092,0.581649872931258,0.567124760899534,0.512175287252202,0.515332537665639,0.517849509683603,0.519936476838905,0.52203700854562,0.527463296826803,0.527440869000938,0.527802060495702,0.528220198915473,0.531552385976083,0.533268359373938,0.534806443525237,0.536473771244177,0.54236253873092,0.542974597550095,0.547379499409578,0.555484918405906,0.556911474809251,0.626897532376249,0.567615026728995,0.56699019862778,0.565742542739549,0.574296388295699,0.572661555051572,0.572898761628116,0.572660373571895,0.57309888391997,0.573831245798935,0.574592916953332,0.583945165284191,0.584255006566993,0.584405201326621,0.587479762461214,0.589710750631846,0.62011090891319,0.616255981050562,0.614508383882921,0.614196483179084,0.614678259596727,0.615584471689995,0.618715424917585,0.61847605888187,0.618183975797742,0.618897446561924,0.62134638453135,0.623228191784723,0.624779182349913,0.626331305413048,0.6264680227976,0.627741215412136,0.628877239898993,0.629937296854971,0.630563893426675,0.631514556939205,0.701053750486876,0.641497043400034,0.641866026118814,0.64240464996252,0.644292627960779,0.645525610334526,0.646574654733537,0.647785749649182,0.649606919827099,0.650107981155614,0.651881149382762,0.652484397143143,0.652532042620269,0.652537762931304,0.693037980472753,0.69336306045077,0.693443548556365,0.69331474670372,0.684611631090728,0.6729875044186,0.67300888846863,0.67339615869734,0.673567477443845,0.679670894418522,0.68121692768105,0.682310136591591,0.682949299458742,0.723721664256741,0.77954209109821,0.780065797064585,0.748197338503356,0.700342986501833,0.700554341089537,0.701189902578312,0.70193627887306,0.70317804890714,0.70449360350444,0.705277559013673,0.705867767648687,0.706810375406724,0.708126898163631,0.710243540736837,0.713005994018933,0.713737476251621,0.716567186073207,0.720653286999942,0.740768793661159,0.741104789492637,0.738438659003636,0.737224038983477,0.73690653064896,0.760211394597053,0.778547163482016,0.849316901849635,1.03163575220383,1.03166849826277,1.03177201178906,1.03192292113532,1.03211025704501,1.03229765277361,1.03236668306799,0.908524009752343,0.88499247556041,0.867263658653892
0.41496000078827,0.416053273165015,0.418756787015306,0.421427734643894,0.421902877820734,0.423062415972309,0.423633051954488,0.424468312103814,0.424044516369235,0.423461871018421,0.424629885464173,0.425380421058568,0.426615158463279,0.426441041721832,0.42785210525136,0.426914235366468,0.432616647010033,0.437541297517091,0.439568968984374,0.681846,0.546005392543787,0.681302171746649,0.678341576536677,0.686543999998605,0.568724737773063,0.541946999999729,0.518228264425997,0.00318665000000023,0.470809119125604,0.472538486727079,0.4723503848621,0.472967027088742,0.474459710255542,0.474044207180451,0.475916290779609,0.476488772156636,0.478344806028805,0.479459285768393,0.479780359168189,0.495431916462648,0.496312087802938,0.495781198655761,0.498499829574374,0.499313784361652,0.545935914873682,0.746946,0.553011461976193,0.50800746528406,0.507430444600474,0.507462678133591,0.518417072300733,0.521168601263266,0.564799345709952,0.626957999997276,0.564249322367917,0.527099296995746,0.53295394383905,0.533652955107138,0.534806520534315,0.540093694136025,0.540995108840259,0.545614617785094,0.545209507657868,0.553859924312454,0.556511452011406,0.744635,0.559197700791505,0.556300700026867,0.564220948716614,0.575843900954035,0.573383820764905,0.573604781829644,0.573813091996288,0.573777978679151,0.575197238384726,0.577024865804868,0.580125773075199,0.580159299384261,0.581548027679473,0.579851071629178,0.588426035373877,0.79801,0.677436042751055,0.794951,0.681777690306253,0.781379,0.61676801249683,0.618031771755527,0.617675378342782,0.616614601269416,0.617896704620173,0.792376,0.627174741992344,0.632473369598888,0.62861096621203,0.630228435444027,0.62915652577205,0.638955951311605,0.63119784077882,0.631838431813132,0.632279899646949,0.779797,0.642152400078017,0.642308277841484,0.642603234446721,0.64593064686933,0.647117167942171,0.64785822212066,0.64942125753167,0.651431620527062,0.651586309096539,0.652760248716088,0.652776803697726,0.652964211872795,0.652912589319682,0.703927000100272,0.693674773500743,0.693602763248435,0.693375952594143,0.711416999999,0.672533360401848,0.673191716683687,0.673356020133831,0.673710626400312,0.710933526792204,0.809269,0.722198345745574,0.684556769476453,0.731682254287413,0.783543523267994,0.781628689508147,0.79852999999836,0.700222026510765,0.699970102633869,0.70110120105227,0.702080691177553,0.703520131995668,0.706053334270665,0.705845474557164,0.70616055176631,0.707069495391034,0.754181999994366,0.712152780027195,0.714611868261004,0.71424263627139,0.72005788249124,0.719668226704482,0.787224999997199,0.761082253047382,0.730052000000973,0.736905101538946,0.734185721946841,0.749813416717423,0.736483999998689,0.850924438942011,1.1113,1.03163603587232,1.10174999999983,1.07046691204388,1.06931105677139,1.03236668405541,1.05039,0.835730710438633,0.761958016769044,0.762070817831443
0.413939245550379,0.414747853459503,0.416783284173107,0.418287885752322,0.420410393598569,0.422150583881456,0.423183792799836,0.423843405009669,0.423928483394609,0.423922457651684,0.424803541134819,0.426298824794163,0.426961261904663,0.42729522232138,0.427884538174576,0.428579027252442,0.430848130419117,0.434692064203627,0.437164055147897,0.489409515619702,0.520254724464292,0.546005392543483,0.675857282560136,0.675216051937612,0.599338015254214,0.573705770679235,0.54842128416216,0.522765367741411,0.516487461526917,0.506264438590699,0.490759662797712,0.476333783640375,0.475718417480666,0.475602114601078,0.476016808261728,0.476536217153747,0.477380810984068,0.478039633911568,0.478444355987479,0.48498481648105,0.488132105835435,0.497364995225436,0.498227462504951,0.498644243249196,0.499218272055622,0.502952183492275,0.507130337129591,0.507349474981254,0.506806998764597,0.506779088560833,0.516435877771185,0.519452688065681,0.581183014255056,0.593964373613636,0.580949567224684,0.532976023610601,0.533600094874243,0.534462692912223,0.535973979050473,0.538504280991751,0.540231130754358,0.543752027925556,0.543198486928974,0.554270535029859,0.555661713125245,0.556073624853705,0.556277974806198,0.556214213108702,0.562960099124532,0.564596168150662,0.568605038507842,0.574538338344881,0.575080174066426,0.575118382541999,0.576125485957433,0.577535537949891,0.579085486887641,0.579800307842017,0.584658276681492,0.586188970917124,0.587882490804448,0.606768283799179,0.609528878096997,0.609451360776988,0.609658202255845,0.611041812703247,0.612463047984704,0.614016714555089,0.615398352222906,0.615792109368479,0.617892298399973,0.619813001129265,0.621802763421289,0.62400665671065,0.626438830039572,0.628719469606731,0.629551217662258,0.630907271230334,0.631518314301101,0.632216586541719,0.633157291795913,0.634749532145796,0.636671550636124,0.639937823602047,0.640565581205232,0.647633679933046,0.64876894044486,0.649614222071591,0.650395746561285,0.651415415724906,0.651856338460291,0.652293177514492,0.652570061339469,0.652665163914905,0.652887346174586,0.665333275594208,0.665843778105413,0.666448604890728,0.667427427179012,0.668792972181757,0.670946230205999,0.672355105890737,0.672861794081917,0.710442535039273,0.722646401411738,0.761874337799375,0.759636956758556,0.754229837439742,0.748795942197348,0.748446280281945,0.72931371906699,0.720471826690699,0.700350817204493,0.700487982889532,0.701101614950579,0.701671424633077,0.702788172851749,0.70448663613764,0.705807357398783,0.70691102950136,0.707968684580817,0.709555232427833,0.711242008789588,0.712839498602906,0.713945592475159,0.716714327422126,0.717521531304802,0.772682552835595,0.772705090494942,0.778721595661864,0.78278603637007,0.786324281581296,0.788879114819282,0.817137808203359,0.854195687814199,0.895951437482874,0.921916679922782,1.07272369745748,1.07166910390561,1.07101404342102,0.861136047373264,0.835412735574,0.809936268812232,0.762009978901605,0.761736786051433
0.412329738415729,0.412354562305237,0.412266653097831,0.412292873068943,0.415701947763027,0.421923970583756,0.422909275943966,0.423425478561343,0.423568130205707,0.423007171852506,0.424079297310222,0.427509018381284,0.427388859715196,0.427209200856142,0.427614304203814,0.42811743629678,0.428620170481385,0.427776060402682,0.427492424897896,0.427701153782468,0.494992005800676,0.445070000000247,0.674707975355479,0.675204650589504,0.679239006431262,1.01898,0.568504657322194,0.53042299989893,0.565728179530449,0.702844,0.534621077806665,0.476676208237571,0.476344173959498,0.476450029626271,0.476035510022107,0.476041695070225,0.476737673578058,0.476932830973151,0.47810265594103,0.479548486851555,0.485407299090399,0.497664937320299,0.497973158996507,0.497728689461141,0.498884548190338,0.49998296574154,0.506540416953118,0.89445,0.505693330474691,0.505178371454095,0.513984471057889,0.517670025328573,0.606857144875559,0.718713,0.606744900847945,0.532232812650017,0.533842718948385,0.534563875517175,0.536001662786275,0.537622585137261,0.541064265471032,0.542662436732426,0.541897166306098,0.552749346959135,0.555178469197124,0.555862925798776,0.556308015356227,0.556027503053139,0.561771610701186,0.562518511981434,0.565963197795962,0.78354,0.576563987418698,0.575425166309725,0.576480562749535,0.577776893283158,0.578463509171789,0.578772546306585,0.587260848109429,0.58754406975022,0.58818198211798,0.603471902591534,0.609182692226635,0.608429677847004,0.608030407436121,0.605620643717714,0.605298529044962,0.605006222392003,0.609043603859131,0.613010996682835,0.613091371365729,0.613117562929512,0.612597748238722,0.612824680374589,0.625078992623147,0.628179510758845,0.629458510539584,0.631655223102882,0.631547162986822,0.632099417811255,0.63312907202525,0.634263244114573,0.635223787879634,0.635494134247456,0.638829521707137,0.76956,0.650194831064307,0.651024733471259,0.65098183530725,0.651782686119729,0.652129372394177,0.651762714774105,0.652403455399218,0.652066246670829,0.653024833977894,0.664195979485291,0.665077924381733,0.665500878799591,0.666538510408787,0.667326402638017,0.669682747712844,0.672066846372722,0.672457129780553,0.774406999998483,0.739332782288736,0.766177999944264,0.762345148400454,0.764587983087117,0.748440501158003,0.747526690742385,0.724300581865619,0.693292297619436,0.693993575902364,0.756353999995988,0.700978467801845,0.700663519776926,0.701318394965312,0.703208759763675,0.705681793737434,0.707529147874406,0.708045457309767,0.709140926660433,0.710111759557962,0.711199548270525,0.711548950059791,0.711037467175203,0.715559233078135,0.772626927756732,0.772683194345848,0.799580000001211,0.786260595013442,0.808541999843895,0.79198316810203,1.09729,0.857546820286236,0.861712984147465,0.89595145342538,1.07382460835771,1.0725185620413,1.07209346318374,0.81037829791811,0.757335718227899,0.758550733257277,0.758773820615711,0.760674800736677
0.410759775378952,0.410969264395624,0.410954630447276,0.411042646104797,0.411711163120884,0.413098504865937,0.415080804049812,0.417262035786507,0.419495579661909,0.421792385658544,0.423971240593124,0.425627280461776,0.426386528523794,0.426234048149957,0.426604422818319,0.426882166865282,0.427132278997328,0.427382920715046,0.426715391763848,0.482141533804746,0.520249291988473,0.545998295509068,0.673836450698131,0.674041715041502,0.683392150736381,0.688174103380356,0.587659065311398,0.564358228142657,0.58799435086933,0.613659238467781,0.572917012867664,0.547116632131809,0.521482505585304,0.476071869761745,0.475337405025665,0.47567348178801,0.476291218440133,0.476865110924891,0.477525256367455,0.478063602771363,0.483213383373564,0.485139839721854,0.488549445097953,0.491701599979555,0.495040346897417,0.501123068950436,0.505416141075182,0.50553139300676,0.505181091343421,0.504884876616535,0.510975256757695,0.560606867607447,0.632649463309501,0.658572907844087,0.632614092342375,0.592902739778619,0.53475108850405,0.534758846197287,0.535595128387187,0.539048106767601,0.540360065488495,0.540998510889175,0.540880868680168,0.551648813687056,0.55593979912635,0.556296242862052,0.556869746126474,0.557531133041143,0.559686540394201,0.560468929543187,0.563341745011542,0.581170740904655,0.579143093013003,0.577000447152797,0.576717852897374,0.577491916628499,0.577948301237011,0.582747158922773,0.589382254669873,0.589581448818941,0.589254332817012,0.606550926920943,0.60854162386932,0.60862939237118,0.607904259016624,0.606514971659671,0.605309996843983,0.605385085101123,0.606089600127178,0.606244735368461,0.607701519578974,0.609750825801695,0.611667096359169,0.612376833352148,0.623425584972994,0.627571822033955,0.628426474031826,0.629499978746691,0.630603466898608,0.63196424786867,0.63271940540575,0.633676189148587,0.634381029356377,0.635582721211949,0.636805235305558,0.640493549936163,0.643592850667866,0.650032838592725,0.650416656712382,0.652178423621322,0.653053295778817,0.653033200260716,0.653110187797701,0.653215792870564,0.653496644978774,0.663819833519069,0.664284960805105,0.664877082284879,0.665521123788531,0.666399752132288,0.668045844609529,0.670841303094212,0.671953605282476,0.681700158099429,0.685063217727718,0.699208689884973,0.699010240597019,0.698044629118769,0.696689626579534,0.695204687055801,0.694743490148793,0.693574107421544,0.693933956077803,0.695043630699919,0.696319273077634,0.698469216460341,0.698609754695883,0.704843473610538,0.705956956247306,0.706804192105641,0.707437040133797,0.708063910942382,0.708625352233555,0.709305878901178,0.709738233231998,0.709850485429599,0.713357057182783,0.734042515366406,0.747173877418434,0.758368138450421,0.768337770800177,0.774198828487668,0.78218689930609,0.812544538972796,0.835202468371755,0.847297623908415,0.838073972967132,0.827589338897015,0.812615657418695,0.797761283586303,0.782879009985097,0.758494926411684,0.759123535860734,0.759688792082529,0.760535416894515
0.409294796158733,0.409751978630271,0.409453559385999,0.40938418882451,0.408170252652944,0.408287532844281,0.407990885526849,0.409117709291956,0.408525669581635,0.409426784231318,0.409211286104306,0.410331048576225,0.417241626972882,0.424101859146211,0.425377689532275,0.425111863226194,0.425164080412347,0.422799360682467,0.424822329203915,0.78125,0.545997540032532,0.691194998250764,0.688865211293105,0.441649,0.687434067971431,0.746466,0.604444761626131,0.00355674000000022,0.608529936031174,0.738082,0.682551605138785,0.708191999997921,0.54681882310229,0.47077311705307,0.47349707599886,0.474645434573279,0.475840623198432,0.476446323553309,0.477081839696375,0.477103644878201,0.481894321057179,0.484701120028349,0.478713486707884,0.00379204000000022,0.49051567953574,0.502235335507344,0.503766224848147,0.505804124908889,0.504683748114131,0.503106801865204,0.507630153978171,0.719203999998304,0.703760770243181,0.712197999993011,0.702990378284078,0.71540299999799,0.535026617464645,0.533660652868313,0.535424603229007,0.864846,0.540337562087452,0.540325270858618,0.540376863604573,0.54916363082092,0.556263097496513,0.556188698839872,0.556993432724258,0.55730830659717,0.55871251563176,0.559012797245632,0.561311250617939,0.583287997071305,0.581918211734389,0.583355987129718,0.576004378817183,0.569181171614426,0.577456851983818,0.682002,0.590874497080266,0.591921889302129,0.590471917774983,0.732005,0.671219204225548,0.811313,0.607738689466889,0.606959842803003,0.604097678890678,0.601728063584713,0.603933961400568,0.60539806244019,0.604693365931053,0.605278481002111,0.604301791239991,0.604678007769112,0.621260598870399,0.625947897250769,0.626943787838177,0.626169798747093,0.628815571051041,0.745121,0.631683223389343,0.630118809335756,0.632830034108172,0.635607989644481,0.635962676370154,0.635478547166235,0.642961826784936,0.648257889493334,0.649561008480575,0.657463186622236,0.655043478877026,0.654201520655399,0.65390844022527,0.654361966383913,0.654733513059847,0.66256467973932,0.662920203260874,0.663852255468189,0.663978799672557,0.664442826683682,0.664924802431613,0.664362155429544,0.664508231179643,0.665876591451334,0.683964132008097,0.698267233618686,0.698448488742089,0.69718519383754,0.695603000323695,0.692050787793719,0.692084020243567,0.692004853897618,0.692349551409106,0.692261395824531,0.693341571654977,0.694363402132254,0.696223901230096,0.763908999998765,0.706174573580246,0.706214660438749,0.70685807341283,0.706969801842225,0.706944312002313,0.707425535110882,0.708091709921063,0.708633262690033,0.711404812083261,0.719840141078214,0.720222470233014,0.720671624336424,0.758631081622234,0.769761999921321,0.755321276761609,0.733455991428029,0.791376897476261,1.091,0.791750347683129,0.741229294648634,0.74082953107909,0.740444267869851,0.74030209845181,0.741560059167997,0.741064750349503,0.74159713362342,0.747036025788708
0.407796951807021,0.407831109074083,0.407585574423355,0.407236174841411,0.406807393949994,0.406647706316813,0.406676370504442,0.407010475334469,0.407190721956808,0.408140351703814,0.40804107334119,0.408693278241913,0.409123725080887,0.410778918070718,0.413417141831453,0.416323831135635,0.419476598574343,0.422160565678847,0.423744469100273,0.477136006632924,0.517313250951609,0.692172062652335,0.69279774012599,0.692247713067903,0.691161800517957,0.640119919239359,0.621870184808533,0.622539660443344,0.63651377292092,0.669527295340503,0.669574774338856,0.669646690751587,0.572438461153386,0.525862425306878,0.472995982294594,0.474541582370637,0.475558352279104,0.475852533071459,0.475841388839472,0.475733902217031,0.475482112094375,0.474963069504874,0.47424263820102,0.475533467312901,0.486277327102896,0.500571537027741,0.501398853781336,0.505344694468676,0.504668289707827,0.503980167130745,0.50441418772985,0.68896864635918,0.687307608172751,0.686256248452215,0.685940543704215,0.686286531491318,0.535854406332287,0.535579106616059,0.536318740586653,0.537109191094304,0.538556429895909,0.53970136595929,0.540083699491019,0.552761775356674,0.55624995940525,0.556725863628014,0.557333761249686,0.557856048317072,0.558650475925198,0.559205163640091,0.560022279861147,0.56445741037117,0.56743153744338,0.576036705670924,0.575349375566079,0.573741972127787,0.576296701528052,0.5770491102243,0.577338659711044,0.578659400255304,0.581244119102537,0.584623178266718,0.588586797778538,0.592878677306955,0.59712391077141,0.601879075332091,0.602461632024939,0.602263143919539,0.602789262313907,0.603777079883592,0.603306184813587,0.603116176647245,0.603129032019337,0.603869857641929,0.618576050290941,0.619168212032696,0.619108335126241,0.620272552789531,0.621383191157029,0.623200899405163,0.625717107794449,0.629553277942607,0.632274324121114,0.6340376817049,0.634969593540394,0.635370836721027,0.641372749028766,0.641929496533564,0.642320281133198,0.656522931344069,0.655420172778428,0.654565512535148,0.653950786982616,0.654981732467783,0.656626125915643,0.659214087907165,0.660676857941162,0.661343535293008,0.661951016203789,0.662346133809636,0.662727139395644,0.662754780523488,0.663265320774618,0.664535571985617,0.678322572485535,0.682267451358877,0.68711290839069,0.687349041537482,0.688320966308461,0.690765625816926,0.69174466799641,0.691949387886532,0.691659408706605,0.691898769628347,0.692556147269884,0.693448088260497,0.694537079456317,0.695415419918182,0.6970121415751,0.698965356891522,0.700783898499881,0.702596340504909,0.704469748296354,0.705441667628403,0.706345817885448,0.706903899328216,0.70994117890772,0.714710510832919,0.715829506821205,0.718414370864219,0.745926297767691,0.750074591217099,0.743669947203932,0.733765632153712,0.73444853033771,0.735443486768116,0.73609167130175,0.736486621580884,0.736705488966449,0.738696611240543,0.738809462073682,0.739435325028097,0.739846895450477,0.740873952766266,0.742334365795584
0.406326525965681,0.405869972129573,0.405910495803343,0.404863465119537,0.405433554163473,0.404674615747877,0.405477613672153,0.405048498148837,0.405495545493367,0.40458915256456,0.406552180786903,0.407532907144959,0.408073537747929,0.408629724676331,0.413670239401315,0.415981473070441,0.415082352715295,0.414903003811963,0.414885215905606,0.414564993962251,0.491409838796621,0.829029,0.693439030567164,0.728284999996685,0.693232350948848,0.515728,0.62248936819522,0.624191445735857,0.640638939549611,0.669536874114822,0.669616167114476,0.669779295710969,0.599019282712007,0.732975,0.470808746436681,0.467856231648623,0.467177210808977,0.46667545060913,0.465939640627789,0.465805502918227,0.465963827881944,0.466316231726273,0.472200876888672,0.476795688332108,0.481435461500026,0.49802969275908,0.499746730989293,0.517938999890055,0.500645335395303,0.00320219000000023,0.502123207239161,0.6909994261313,0.685531183859865,0.676021692364641,0.681380477219965,0.687056548669237,0.527978470316138,0.52447269815553,0.530127934974255,0.536012880542371,0.525778125528086,0.00372841000000022,0.534597136625959,0.642627,0.567761470881412,0.584261000003258,0.541570502543743,0.534362038766375,0.534101473767379,0.534843418017818,0.534443854951597,0.534700273374329,0.560570103610878,0.57654397429015,0.565936593801769,0.561247459017092,0.561119146501379,0.561770262609343,0.561345362108346,0.56207390533931,0.561602858488081,0.562340961794859,0.569066672902759,0.56968081818604,0.590747701587816,0.601401075426095,0.601804490814488,0.614827965525312,0.601452559134851,0.600399672541879,0.601779681912452,0.60090643404592,0.601424932169911,0.6004641217393,0.614883131413415,0.611241964431136,0.617548957293996,0.616961037261874,0.620878905040411,0.622623685102893,0.622384214226767,0.622586275940915,0.62184604293156,0.622562847752178,0.62198648785197,0.622778343729543,0.639468099299054,0.638736511947225,0.639990759534283,0.781601,0.708762296254816,0.78687,0.65237622816653,0.00337647000000022,0.657584137278171,0.658043301286998,0.659055399664575,0.658775163907498,0.660096654338588,0.660245922535223,0.660846626482683,0.66064578429871,0.661245095284585,0.659770822573127,0.672605398606678,0.663033999872631,0.686931955427735,0.68683028668732,0.687147460697212,0.680175281034248,0.683779231924912,0.684117373643787,0.690245133589572,0.690687101439131,0.691583510679409,0.692018525422457,0.693399958942282,0.693961840026739,0.69421279270152,0.694489767191816,0.700258717114532,0.701075557430163,0.702688097193173,0.703150356557638,0.704870776376459,0.705598401698332,0.70879316013231,0.7133043505684,0.714064046023837,0.715213702794043,0.740098491409419,0.762624972171473,0.738521499316197,0.733136209576703,0.73375579969877,0.733142060278708,0.733328276268127,0.733273172597878,0.734744464314023,0.734996892571334,0.736622971212455,0.737386363383342,0.737729716640006,0.737061674672031,0.740613722349438
0.405142462042312,0.405032906429559,0.404863561776965,0.404724279291077,0.404978275033248,0.405384737767389,0.405263101595078,0.405255838390844,0.405072772267306,0.405013378965663,0.405982384151045,0.407014126134006,0.407843796656563,0.408985295306532,0.411133522194776,0.41284242268436,0.414288787027491,0.414873320190011,0.415042248313152,0.415042454880089,0.46559609819315,0.491411479354771,0.517316800870127,0.703092328167233,0.694396162902213,0.674700795362038,0.661456612701868,0.64892630729832,0.648233094782912,0.656317712869043,0.66273587844575,0.667155464275322,0.559079662313425,0.517208943742621,0.469587898106818,0.468196706204488,0.467047832679938,0.46578871731635,0.465315231212234,0.465288859455843,0.465617347327374,0.466409071058825,0.470170545421399,0.473898921431936,0.478426202791625,0.483100279251482,0.487991541750352,0.492625247941728,0.496717389734475,0.500207246358031,0.500592083561912,0.510902251501016,0.511568737510024,0.512720962538719,0.514713638406745,0.517187056706017,0.51955883908351,0.523821565889504,0.523197103751898,0.522969212411527,0.517598110332731,0.51508529916771,0.52789142594182,0.52842192823063,0.529204645843948,0.530117604333908,0.531180800796666,0.5326764861714,0.532939677364332,0.533191781928132,0.533574957042161,0.533860593425254,0.552602197546598,0.55664130810079,0.559772836027482,0.56010373525682,0.560346820137718,0.560301146953844,0.560304017494152,0.560430428050777,0.560582270297455,0.560839451951989,0.568330795263843,0.568208079416992,0.576445122340357,0.579544583315705,0.584319199190688,0.588271034281071,0.592891809319544,0.596082444195483,0.60250155840901,0.603776921516272,0.60555245482468,0.608547480418504,0.614908838621513,0.615448598867825,0.616557033534214,0.617095988395717,0.618729528103135,0.619767640051527,0.620546864092532,0.621014319276065,0.620776774661738,0.620870089539959,0.620889842423456,0.621371845517994,0.638045554801867,0.638580803451319,0.639701865833404,0.641261510823227,0.643003670578266,0.646526488496934,0.650936949831526,0.650658974913379,0.657844614278123,0.658092297163555,0.6585776993687,0.658756455667253,0.659409050206174,0.659737088535673,0.659787450987536,0.659483929628496,0.667469555670587,0.673715808092683,0.676383448449034,0.67867912562727,0.686843035160419,0.686733344490869,0.686713661357979,0.681513973708195,0.68377292334664,0.685644614008566,0.688064674953452,0.689261105825712,0.690509061119768,0.69180968013714,0.692695637175277,0.69357728769832,0.694083432020983,0.695161120108111,0.698331987368377,0.700082108657349,0.701592440292855,0.702870192736138,0.704142279724158,0.705406320933744,0.70763808538091,0.710356356299419,0.711862412503111,0.713515266628867,0.731743507629852,0.745335776223966,0.734528343134903,0.73381620577097,0.733920679005049,0.733612152282919,0.733323394777078,0.73359547287964,0.733875908328491,0.734222979874073,0.735186452506897,0.735888812346948,0.736474284643014,0.736962713257879,0.738700136214576
0.404359032165522,0.403560919931655,0.404195750935973,0.403564517190009,0.404871146577118,0.406110068864014,0.405527153158545,0.405250983373179,0.405110938532769,0.404128411321081,0.405905433818268,0.406327244655807,0.407746242536566,0.407994660007937,0.408809225207358,0.406505210854593,0.414313433478554,0.415154355252398,0.415241811381528,0.415385028679183,0.424756941086579,0.426657503542976,0.482753090210395,0.818761,0.716053398571537,0.816539,0.686102944568122,0.792323,0.534068556982674,0.434863,0.541271633518873,0.69036999999932,0.532700381025338,0.446995954411658,0.446429032565387,0.445859025204518,0.463643643408062,0.464034189629668,0.464346035744486,0.464192455147705,0.4648270589477,0.464983433358882,0.464817066715547,0.464897347877981,0.465213360720986,0.464866401195218,0.466310752597614,0.00355286000000022,0.492068838226662,0.595099,0.500045906408071,0.00334765000000022,0.10776966512769,0.509457089262795,0.504879799068555,0.00378171000000022,0.516055781007125,0.67918,0.522814675319469,0.522564969383552,0.516046532647332,0.510301916201662,0.528140937491793,0.528689852993516,0.529312915886106,0.529971304148434,0.530571748902051,0.530183222027877,0.531525853766238,0.531179970083354,0.532504361199196,0.533088310265461,0.548146508708491,0.538086072819742,0.559520149407979,0.559090893052052,0.559889698222222,0.558877152666092,0.559315808271569,0.558963561137801,0.559723759577446,0.559839610396043,0.56752115228027,0.56648664908834,0.572571852475237,0.565942018151917,0.58078327860041,0.582424404004337,0.582044887443713,0.582781787642609,0.60272675929855,0.719684999999904,0.668409542988291,0.719419999999868,0.622303995415563,0.624859107925793,0.616464381105315,0.616165772544997,0.617401647590722,0.61740772912326,0.619220048888949,0.620320812280091,0.619889860182835,0.619615957175378,0.619757267796058,0.619687349454499,0.635941292105924,0.633563308178113,0.634407417865475,0.633720080607565,0.640634978025945,0.641846602996927,0.651433030364201,0.650708292266242,0.657496056227058,0.657670806485478,0.658274044402094,0.658219389813827,0.659059657666989,0.659543511328295,0.659112296905647,0.658040890178233,0.670026202022169,0.698987614908033,0.69926697938498,0.698805377586662,0.700855955301338,0.749946999996925,0.68774435540619,0.680623594375142,0.684368995581007,0.686576644226192,0.687341594104194,0.687256418315121,0.689779129081818,0.691325764344302,0.692396668267685,0.693061580705334,0.693648884789741,0.693455135594561,0.697899716424231,0.698895397497901,0.700847235505831,0.702258634186197,0.703429893316046,0.704026822881796,0.705948638431618,0.706158823944563,0.70954834010201,0.708544383512591,0.723436374384387,0.86961,0.72625591319057,0.721049856420153,0.721198033694569,0.721354979248251,0.732325791063878,0.819548000000001,0.732683199896066,0.732670892530705,0.733764706277012,0.734392952062832,0.735057831931994,0.735426099068616,0.736369126995549
0.404291367604325,0.404044001665884,0.403959188346971,0.403856109938478,0.404063496938525,0.404528402245781,0.404828001202201,0.405366983508802,0.40539465109774,0.405672011665651,0.406570222832563,0.407710922246722,0.408268372903661,0.408781748192274,0.409064152789451,0.4088924418854,0.413606214437251,0.414731758710083,0.415301367211486,0.415722700732985,0.422964970748959,0.424758385736397,0.441380937884245,0.455961169711411,0.456542289842744,0.455549880120374,0.453798504336727,0.451730261825039,0.449878938315385,0.44964051956095,0.450364147199686,0.451217137512097,0.450986375268444,0.450942927321403,0.446382547029072,0.446185126825077,0.462873928981538,0.463179853259221,0.463572343106286,0.463791488546528,0.464191538687535,0.464518730508796,0.46459348096232,0.464915069660033,0.465773673952257,0.466780392338246,0.46761078489456,0.468710548543828,0.487614978410803,0.511442064471547,0.499937564810155,0.0557680924969837,0.0817678333825201,0.10776966512769,0.501058635771212,0.501186158620904,0.502243415686026,0.503497375549336,0.504931600595063,0.506314543855484,0.507630142190266,0.508946312570615,0.528330467021425,0.528796160944911,0.529450173538512,0.53013616677049,0.53070321096568,0.530952718814464,0.531498057260041,0.531534962532678,0.531914739200173,0.531958377751698,0.551708172348493,0.555154215783186,0.559762218700007,0.560037203952782,0.561289415948576,0.56395723507686,0.566548681082156,0.568825450271281,0.570145430172882,0.571003731493302,0.57194234053132,0.572648202166124,0.573257426601078,0.57571327029433,0.58033184336942,0.581287221250226,0.581426111811125,0.581819532850934,0.602737729281955,0.630475461425574,0.630669993437172,0.630633125754894,0.619408811430339,0.618075928784519,0.616785452361406,0.616721008036724,0.617139331125772,0.617613550566049,0.618523613680888,0.619095101098096,0.619148837034228,0.619200066764689,0.619163214491429,0.619212487533516,0.635877809130669,0.635308073014961,0.63558009116577,0.636171334529789,0.638724862484976,0.640306447215898,0.652873168448109,0.653434680162524,0.656652906248045,0.657833993353412,0.658533700499764,0.658727375613895,0.659092331243487,0.659382552804097,0.66650406741139,0.670052078365163,0.672900319758778,0.685793838597039,0.699762718516615,0.699323458545764,0.703063005774875,0.721029887608951,0.69102951103888,0.683786221913133,0.684511474895911,0.685849351696149,0.687051195172154,0.687923040413649,0.689299159965741,0.690685588117383,0.691728578317382,0.692689244978029,0.693421126852067,0.694332364495826,0.697106149732009,0.698813132285012,0.700279877443833,0.701635352877187,0.702993816865279,0.704211605574776,0.7058016088595,0.707029771398933,0.709070175676002,0.709677330526765,0.716191511023888,0.718191261303258,0.719667940033729,0.720680105491436,0.721220677051937,0.721530758119856,0.730739452803258,0.730374971386958,0.731288986002239,0.7318253387022,0.732675173533037,0.733260933880052,0.733777252314722,0.765091565927639,0.773397329105889
0.404844234259424,0.403596852891198,0.404251279429063,0.402956536621238,0.403524866268472,0.402357938680763,0.404382084413031,0.405292695861304,0.405913634665955,0.405872868967616,0.407490980434227,0.408976715482173,0.409274558817776,0.409133988095643,0.409760169888897,0.409064039377682,0.413751188713672,0.414915299128263,0.415569603240834,0.416449011969324,0.419160835707834,0.416093114576986,0.425664188490877,0.425908534071497,0.43525261241237,0.435757129762608,0.436003325265325,0.437184586391393,0.44897813032481,0.849471,0.451461569036785,0.453456345406041,0.451517275454518,0.680194,0.446481463196304,0.443438372615916,0.46128113542013,0.461925153680881,0.462978889724642,0.462808317552251,0.463824149114616,0.464021600558055,0.464422253646416,0.464210833977108,0.466236473539255,0.468665023120487,0.468605741100748,0.46975453053543,0.482791278189529,0.583651,0.494494916214298,0.00377107000000347,0.0557663619200327,0.00319312000000023,0.498161611790294,0.548886999997125,0.502536350556199,0.496004164608881,0.495311623054562,0.494352765757202,0.49436233622898,0.493670096820521,0.549566831463133,0.601161696314069,0.596379194549396,0.591688648812964,0.607688706951513,0.647382000001077,0.564955539403637,0.531234674293064,0.531338047365131,0.530646425068614,0.561904329929978,0.597913999961814,0.577531560105494,0.571312735125735,0.56957198925402,0.567887328236017,0.568701880962028,0.569389375555032,0.57014546660207,0.570586922070757,0.577214282609312,0.596655601577986,0.589523393707691,0.605513999746067,0.580469849397269,0.581665366808563,0.581236688698533,0.00392009000000021,0.602656374969237,0.629676605648499,0.630280161422393,0.630091621444258,0.617664357276602,0.615776674262903,0.616133861034343,0.616602005975436,0.617102449913128,0.617190007588632,0.618453209101877,0.618511573654112,0.618861797615168,0.6192165801723,0.618962389900499,0.00337921000000022,0.635871757067419,0.635794377740846,0.636022406061285,0.636387466647387,0.637597751577411,0.00350747000000022,0.653973975728168,0.658498675479148,0.657674797442347,0.658370698309181,0.659211145536358,0.659053069317985,0.659219099058872,0.659545201145174,0.671935659676422,0.779488,0.677682959309661,0.673246059948629,0.700205143147735,0.698581586745447,0.705894524601847,0.782114999999993,0.694996430784206,0.683320438181259,0.684294931870254,0.68514195440342,0.687369534406822,0.687540500846986,0.689233085226429,0.689632349898729,0.691595096661488,0.691801304233404,0.693360601167384,0.69306449223991,0.697816714166828,0.698728114413879,0.700107443150316,0.700682758441406,0.702755675130247,0.703807377537782,0.706025752611047,0.87447,0.710011432181286,0.711393420536754,0.713643266823927,0.712856584265713,0.719891853032938,0.720708535432814,0.721555523790908,0.722143568864584,0.728961196721346,0.728692172920798,0.730037068279564,0.730495332856716,0.731611131070544,0.732018706027073,0.73269810858694,0.79679689426152,0.786966612741765
0.406904305584222,0.406427525363296,0.405758352483522,0.404886818085133,0.403994663062961,0.403555979741933,0.40444686979797,0.405675481605438,0.406339718151126,0.406948173643158,0.407744651394624,0.408803308073386,0.410113806841138,0.410974153643122,0.411226677411664,0.411583701741284,0.413096979502107,0.413935103987886,0.415536229588282,0.416495966598588,0.420933286132076,0.423134694012596,0.425299981780056,0.425695757865734,0.434144517169658,0.434217174621273,0.434777036607725,0.436140550545982,0.446304457858794,0.453552782319999,0.451271816967096,0.449843718680987,0.448338595438126,0.44750985231857,0.446708805214602,0.445703281111173,0.458647588261236,0.458871522854637,0.463194237139007,0.4633546536166,0.46377701001325,0.464303286104639,0.46450475293789,0.465017302717504,0.465952185826258,0.467259490682655,0.46830538082844,0.470029901829058,0.470113368943355,0.470175981497559,0.469377900909798,0.0557680925816658,0.0817678334597713,0.107769665219734,0.496444355122327,0.495796148667079,0.495768402593079,0.495989454293258,0.495554225457631,0.495065169653162,0.494953497764684,0.49487258503739,0.560580884715083,0.590656096362825,0.607119733084614,0.608891338207085,0.620268077010261,0.635704071109074,0.593616887382811,0.592453652834593,0.5920551385399,0.591424858176721,0.591453209581384,0.591333492283775,0.583237458844354,0.578575499731085,0.574271010674611,0.571618789242194,0.574428017845895,0.576086036695356,0.57703864081885,0.577825077733158,0.578776326705723,0.580005700058122,0.580243406583635,0.580377507073657,0.580286634454105,0.580663710321071,0.592523080655617,0.596864303396231,0.602588762083346,0.604443147887084,0.606028317998662,0.608929893450065,0.611790031314328,0.613962440269053,0.615238755124141,0.616278230563962,0.617211269371174,0.618274078706284,0.61952746616016,0.621902507340276,0.624463249325985,0.627318271408252,0.629708170658056,0.632533746604095,0.635587931787616,0.635810786422402,0.640274530280892,0.643885598015762,0.647533342098766,0.651099369034015,0.655030494862307,0.656435111679512,0.657112009749693,0.658088200282024,0.660877547981061,0.662339017653387,0.663648599944193,0.673737258066291,0.676829441501191,0.690577884873966,0.682453290212187,0.678249207559073,0.701697516654738,0.701009344227835,0.70845444574811,0.710321386266347,0.699910732603534,0.696671740894608,0.693332281015883,0.691353922667638,0.68954126623926,0.689383915139555,0.689935251938165,0.690933037156928,0.692490776793795,0.693707844194822,0.694634615341163,0.695431685757706,0.697690530185252,0.699200961801611,0.700458330718764,0.701544482174123,0.70328729181103,0.704882860113161,0.706469094621464,0.707930369417319,0.709487436202777,0.710751947456888,0.713815353205274,0.715005218130115,0.71918766820845,0.720401968313457,0.722216315418577,0.724005342801941,0.727007610015022,0.728340994504539,0.72944567115864,0.730216267479389,0.731051215658354,0.73152949404592,0.732001586113575,0.769375434388692,0.778718947109739
0.409170383446805,0.408356655999679,0.407900636695218,0.40637368293759,0.404492421268154,0.403147209586383,0.4045809521708,0.406207134579128,0.406847827133648,0.40717278444331,0.407740447588581,0.407844206315031,0.41175549284441,0.412966106253343,0.412822057391995,0.412680493715884,0.413301015510395,0.412151904629499,0.416139329452735,0.415983223996228,0.421906695917212,0.795257,0.426575923330739,0.00343413000000022,0.432402169775184,0.431829664020756,0.432407831535415,0.431057664700686,0.446001705150355,0.455787191013697,0.448868575997924,0.445928341938657,0.446791013898445,0.446418468776124,0.44726996952017,0.446101971136498,0.454737315038134,0.449676478183574,0.462985229295175,0.46308903065986,0.463712369542991,0.464373889589149,0.464524319923856,0.464951903626559,0.465409785665908,0.465926540969988,0.467518562601343,0.472395937214752,0.471381397905893,0.472519256978452,0.470368928256681,0.00347516000000022,0.107769665219735,0.545815989284374,0.520277297050146,0.496177879505076,0.496112902094876,0.496501941538966,0.495800835075877,0.495320015683492,0.49537045712342,0.495876708369656,0.573133319051559,0.574284000051589,0.610690731587457,0.646976960382843,0.642564159615977,0.648942000016802,0.593048762593066,0.590422731596621,0.59126852493,0.589986576849138,0.590885048191156,0.590566164719264,0.590398204188454,0.589695152291591,0.581454901228961,0.567766250759474,0.586833406875776,0.670659999998704,0.632834692385804,0.669984999998724,0.587408688381767,0.581303274392666,0.58080387137459,0.581172088360993,0.580405592631655,0.00335864000000022,0.596687425279606,0.601968480474225,0.602576552614022,0.602844247863976,0.604709565063051,0.602668092971203,0.612432713005576,0.612916075112233,0.614733544126475,0.615815211799047,0.617442950152103,0.619012881600454,0.619700400457141,0.638538910943806,0.627049627713433,0.629018394064759,0.63514715988413,0.640221305585703,0.63798145686162,0.00333487000000022,0.645872259964078,0.652653828200588,0.653274320268664,0.653395930888888,0.654711530568243,0.654949937279215,0.656216318871405,0.656037827603796,0.663847689924563,0.664430875448585,0.664972793920893,0.694338910917861,0.684360655723698,0.70172998000627,0.684328890178754,0.671422999953151,0.702965437446778,1.18799,0.711110141167197,0.711471829464108,0.712039443095309,0.712135294436101,0.695365266398663,0.691294750428781,0.690348944326949,0.690392362727904,0.690518013106481,0.691259239368118,0.693948326030749,0.695305837091726,0.696263842787954,0.696081095157141,0.698582492499961,0.699704904134526,0.701153946481873,0.701514900949601,0.704017046902524,0.705885875826994,0.707131095860673,0.707807210866935,0.709189252890077,0.708168381823258,0.715630087118223,0.71670893778081,0.718687136505663,0.719466347165113,0.72305088931635,0.724561080769722,0.726632811629403,0.727921615893045,0.729125750838618,0.729638171147829,0.730665841510546,0.730805707588924,0.731483048502938,0.730741000383056,0.770529634181727
0.411354042903535,0.411345355497205,0.411275957094488,0.412345071182219,0.413253674097141,0.413233648075016,0.41310964786711,0.412856049731257,0.41278044386909,0.413463984777041,0.413816180063964,0.414165651045878,0.413682371923247,0.414161363478627,0.414098033928976,0.414402984344692,0.415142630508823,0.416012340027183,0.416927599738606,0.417163081655715,0.422959968345927,0.426621716070871,0.427692122455608,0.429476646667137,0.43093637914516,0.431306128851321,0.431843808873331,0.431900917164774,0.445318391585954,0.446484929778533,0.446886520479256,0.44652558751096,0.44707922349637,0.447558376301645,0.449791334067829,0.452309494055501,0.455040761225274,0.458546690106446,0.462388975238888,0.462758661379267,0.463132677858107,0.463599072490826,0.463773804918808,0.4640873350139,0.464374924668871,0.464446973639669,0.467630696893585,0.472442611304658,0.471325153262671,0.470791755189931,0.470406085759696,0.499604299925877,0.519334728225882,0.534672256462334,0.526104504495939,0.518592215863928,0.511258067677146,0.505205240029551,0.50153833385332,0.495152946974998,0.495206017552995,0.495255608730514,0.581799310994415,0.5962207072589,0.616937283155765,0.632533879873162,0.632945331149695,0.633700131437565,0.593546112014557,0.592336680288604,0.591861173025119,0.591144610072654,0.591091182213364,0.590870032261856,0.590636555885076,0.590328000040088,0.590448790679204,0.592256148563134,0.596248408726119,0.616277126820103,0.61485670708593,0.599542176077343,0.599057787747,0.59954494252917,0.599761192043678,0.600049825926685,0.600562333588267,0.601260435021577,0.601741348172367,0.602016428865775,0.602945412261891,0.604073923466194,0.606464200599617,0.610603572429519,0.61243958185962,0.613423755256104,0.614778578037148,0.616155666082525,0.617621487580593,0.62012405083853,0.620619225707884,0.624738592902389,0.625565442830012,0.626435603221311,0.638331974505454,0.642701373492732,0.64455673161569,0.646718837652337,0.64858500710038,0.653228603149916,0.653766726141915,0.654771174631419,0.655463927010666,0.656052809197506,0.656918442414652,0.65789940187579,0.666080852915391,0.666511219901176,0.666763165264445,0.674149096677821,0.67815457014003,0.685820843429987,0.68631459482362,0.691168231963805,0.703429931471991,0.705847810097625,0.709845191479183,0.711365169674509,0.712129420536835,0.712748308501994,0.697472992862803,0.698639160327385,0.699386391160791,0.699638915192781,0.699674918968481,0.698903352279139,0.698094139065366,0.698110406742022,0.698749840313519,0.700320481441657,0.700724583202827,0.701816333500844,0.702771004690353,0.703781074028413,0.70523383700518,0.706640225708427,0.708335604366539,0.709869978176645,0.711244151929199,0.71313080958072,0.716205439378627,0.717803780146665,0.719265140666656,0.720730823830559,0.723330311869446,0.72511493234652,0.726741866221634,0.728227740358917,0.729204036467327,0.729923144544572,0.730910228173172,0.731711048669334,0.73217641369969,0.732336674977658,0.763631687023909
0.413894869217852,0.413573320052887,0.413422211108537,0.413867497765871,0.414169594499825,0.414248516632559,0.415015181013113,0.414969873978637,0.415149038533837,0.414598413948372,0.414723227497314,0.415280348320521,0.41489687551941,0.415755472488572,0.415136844239772,0.415501674001149,0.416873806573714,0.419861478508844,0.418479417949174,0.418707027599671,0.424128798198377,0.425380405968435,0.42796966025079,0.429778773596545,0.430512142614493,0.430621545837279,0.431765735913611,0.432831241586,0.442770076968737,0.437025119485806,0.447101766197439,0.445906756593936,0.44715269155821,0.446621301306188,0.451451849670225,0.452182297950089,0.456855944960527,0.461297150376269,0.461897995213802,0.462166679785182,0.462683617427736,0.462655788850795,0.463124812619199,0.462730005868669,0.463521604926755,0.462734643616308,0.467618635880334,0.474032212245826,0.471306109411769,0.469498334044281,0.470805635980733,0.660223,0.569545812959872,0.868177,0.628120916484923,0.755878,0.579910403824424,0.561045000000145,0.542654991823602,0.49482474188547,0.494902206083666,0.49457377160604,0.591757995666072,0.642501999972947,0.626249841836788,0.632958344579843,0.633531590917028,0.635286878807192,0.564353858707162,0.539437301687694,0.539761844282172,0.540556892907543,0.541577933559135,0.541691839759546,0.544281829688636,0.541403996118599,0.596656514459406,0.609200677677564,0.611793783896972,0.61755992980507,0.613455447352758,0.584224000165249,0.597914695402136,0.616173340940887,0.613928281291264,0.614332415916723,0.60231113845582,0.601548751312768,0.601953646328894,0.601428650611797,0.603212356810617,0.633239999937526,0.614283807481107,0.612764723544434,0.613188456190805,0.613402291097784,0.614885132435536,0.616334941962908,0.616948446535516,0.623237953875827,0.622154631913042,0.624228797727923,0.624444707470024,0.625042404190749,0.641137321168017,0.646516114100566,0.647007568653556,1.13093,0.728268929593168,1.30346,0.657510558918715,0.656429923764145,0.656305660622663,0.657001554971387,0.657753436029682,0.659557047157527,0.667529649463095,0.668580872412809,0.668626830312677,0.670409193061905,0.674723937336491,0.671348657560511,0.689201148543186,1.22429,0.7032372481349,0.702447807448456,0.708243671077362,0.736209999656917,0.711826970933562,0.713711532124685,0.698508098204874,0.699026977077677,0.699705485607478,0.700148320693487,0.700312386834415,0.700313429156655,0.699881049453106,0.700173011559778,0.700581301421747,0.702087139525927,0.702420542890167,0.704040020739934,0.70439149979337,0.705515201730258,0.706429367930998,0.707031795165036,0.709667933608246,0.712032584364524,0.712782218817761,0.713763428228887,0.716426216570923,0.71889369078256,0.719772046904945,0.790928000001273,0.724431488900013,0.725573102158147,0.727032863858372,0.728710394463242,0.729475395961752,0.729674875407672,0.731199814942229,0.732764628582538,0.733013114404325,0.733973176067353,0.759548463044926
0.41520291958361,0.415028561693943,0.414806475252178,0.414866636943556,0.415321244191505,0.415712238713395,0.416013170757854,0.416061785973923,0.416198529120185,0.41626250194596,0.415974020677781,0.416255179297931,0.417165685628532,0.418633363667506,0.420338876416762,0.421972129401111,0.422598856373358,0.42298513746353,0.42339758006716,0.424225654962764,0.425598834087048,0.427275491728488,0.429005035362228,0.430206528851101,0.43083481514986,0.431392800085509,0.431896074515269,0.432391837898055,0.445448428454787,0.447061593384932,0.448087976849317,0.449610311509299,0.450737258983782,0.453070477767581,0.455346879791103,0.456858219872193,0.45871921115037,0.460798700253,0.461652832855232,0.462208703488439,0.462421959338429,0.462665370751539,0.462916245233685,0.463308657349797,0.463784411346468,0.464270396205603,0.467245875365042,0.470450457596794,0.47056478682307,0.470510408837674,0.471467690858339,0.518933817707081,0.543904424436828,0.569546819778739,0.602920339269385,0.62809727121666,0.599799743529054,0.599407856038373,0.590457890448352,0.590701449557453,0.590834055338585,0.598471025402,0.609761476883298,0.62807081402559,0.618872322477748,0.609172009318725,0.602377138018483,0.583896296275769,0.558531115559095,0.538614911725986,0.539066989980247,0.539988552370765,0.541970124226575,0.542481026000472,0.54758734590926,0.579112415952827,0.605992709362042,0.611791650249396,0.613909173698422,0.615734399139334,0.612413341739162,0.594908517558882,0.596007259397328,0.601640047527883,0.613434302672792,0.614178889915012,0.603228069086446,0.603020269503913,0.603115691012563,0.60319398755205,0.60371265097792,0.616470029529492,0.614987459449391,0.613874138873818,0.613923501505217,0.614202306647761,0.614952593289233,0.615678343950193,0.616899079443805,0.618336355643772,0.620462734562534,0.62264044774301,0.623097904845146,0.639375200743785,0.643014102521625,0.647005608655558,0.64711810398562,0.657947798984383,0.658019407118611,0.658031287253569,0.65834648628728,0.659187365081258,0.660545209547838,0.662046515065398,0.663701651885302,0.665433747553646,0.675564757380451,0.676170669638944,0.677405267870295,0.679022282483084,0.682231988852949,0.685914000575209,0.69178996349141,0.702050629558671,0.703239128828713,0.704241456155741,0.706119382852856,0.714536894053362,0.708343381543225,0.701512050736382,0.699191474195823,0.699637308580434,0.70018479105849,0.700845238316147,0.700996492460363,0.701208928779688,0.700913723815484,0.701050813365024,0.701345272750836,0.702114224075668,0.702913049814425,0.703995089336983,0.705238147887222,0.706513440213863,0.707772634403013,0.709112816333936,0.711150520349462,0.712871870798466,0.714004394785304,0.715509729273035,0.717327958228947,0.719366208856669,0.720965724070471,0.722870143936849,0.724171216116193,0.725253340043136,0.726805524418433,0.729125380815826,0.729987664798069,0.730707790220191,0.736633662912107,0.737412240703026,0.738896350132838,0.740949069588791,0.743928256890404
