1.1468789647214,1.14442048403375,1.14237403657916,1.14195957627546,1.11817173952779,1.11809162680651,1.11578665806669,1.11203985945321,1.10854733241471,1.10204378410715,1.09815549437355,1.08854125305729,1.08441442710902,1.08288775041698,1.08188405313332,1.07788347588047,1.05678506458702,1.04834537868994,1.04076548510357,1.04054450764494,1.04032116574179,1.04001786255837,1.0405105450279,1.04059895309295,1.03686053133313,1.01883160740781,1.00896155611381,0.993836244260857,0.99386530303773,0.993856461914876,0.994169081961293,0.995513282849791,0.998615181288783,1.00250606332198,1.00678798658907,1.00820336111464,1.02272376827469,1.081955166825,1.09330177548182,1.11055240536234,1.1121469867322,1.11811434011353,1.11990924618044,1.12195353967567,1.13355894174619,1.15830104896856,1.15733239603162,1.15672169140896,1.16198227352279,1.19860264983543,1.20666528302949,1.2175538670562,1.21935781203604,1.22136255471013,1.22237594882894,1.22280251607711,1.23203847047147,1.24706212740449,1.25405839231513,1.26849609554728,1.26783069482873,1.26618972531348,1.26360216790765,1.26281510756238,1.26691206836464,1.27145746028981,1.27344496783487,1.27463880728602,1.29375520535495,1.30319505915353,1.30466817263973,1.30660086001447,1.3091522671981,1.31307853804554,1.31985183240147,1.32448398479973,1.330948254146,1.33112585458761,1.33426855012809,1.34452236192488,1.34957166584661,1.35490745987452,1.3607076728007,1.37180274056962,1.3729318750678,1.37551211770769,1.37816036088411,1.38129221418144,1.38462195569623,1.38786261509831,1.38927023354037,1.39141867262324,1.39465564163334,1.39714699259125,1.39929131402587,1.40020986715567,1.40016445049814,1.39831812563548,1.39880689521591,1.40001668429858,1.41920400294183,1.423013044031,1.43510700205306,1.43600079095475,1.43811862411178,1.44210044414206,1.44562149467281,1.45077225436203,1.47711295612372,1.47996483994846,1.4839319411404,1.53870838856418,1.56309170485916,1.58742535078758,1.61572394397782,1.67096971271891,1.6707751317949,1.73279756239844,1.7335718431083,1.73578717924848,1.75744372356406,1.77695865098629,1.79066904723311,1.78901823513836,1.79048266981005,1.79036116806128,1.79209749164891,1.79383612089842,1.79585201196871,1.79680696178995,1.80026041931219,1.80623041270513,1.81185848913566,1.817733700554,1.82401017723998,1.83025558430971,1.83558922334597,1.83899074907593,1.84233569946124,1.84585748503886,1.8491178705164,1.8521126444792,1.85395173156974,1.85698078992905,1.86004184210674,1.86281939265892,1.86541343942296,1.86784822754837,1.87031260268349,1.87315031404249,1.87629047040622,1.87889325054837,1.8806092302204,1.88496607556664,1.8881373498042,1.87390527436238,1.85796426537035,1.82308275242483,1.82238468871947,1.82199781950973,1.82158668525807,1.821600282317,1.82241124873088,1.82678255358492,1.82337441552296,1.8206596485332,1.81728236132708,1.81656967566112
1.14770245103066,1.14612399722233,1.14065841441236,1.14051516496293,1.12065687439366,1.1224384107497,1.11870465429724,1.24693000043278,1.1097255783398,1.10011140567934,1.09923744722839,1.07347015442677,1.08242490350924,1.07585056682941,1.07652958123907,1.07514044724423,1.06072267592763,1.0685079642109,1.03925940402341,1.03745655725584,1.03812718090412,1.03733987608386,1.0394709567844,1.04107536361532,1.04223442788294,1.04265919532477,1.01687410604634,0.993890966246336,0.993938490016731,0.994144017191045,0.993466791409492,0.992156863385632,1.00354158688843,1.00776590068257,1.00846712966618,1.00901479320709,1.02175533649849,1.10212691853053,1.10240113991928,1.11118763886593,1.10912263594018,1.10093956021908,1.11964409798074,1.11894734743435,1.14272285669115,1.15986249299303,1.1578838738594,1.15604693665485,1.1661130142032,1.2125779953454,1.21061914950148,1.21383883089812,1.21890341740513,1.22348920080381,1.22630960910899,1.22435189902242,1.23541536547383,1.24465033305908,1.25709558290342,1.26830163955355,1.2681946133367,1.24419955839405,1.26126163526228,1.25874483292655,1.27002966837146,1.27347268728325,1.2740345062573,1.27520066263904,1.2975605087122,1.30129676750854,1.30583983537675,1.30879204103639,1.31243006878828,1.31467835826931,1.322586481434,1.33212487926112,1.33142818142866,1.33179016376873,1.33820152457753,1.37986556831759,1.37814947691553,1.40092659454046,1.39559473782117,1.39641594172131,1.39632005814501,1.39820099966085,1.40005683779598,1.40019127920463,1.40395258719352,1.41293984787075,1.41472722340674,1.41538932315582,1.4104959347046,1.40607879314691,1.40370660036564,1.40532173808401,1.40317678275917,1.39358826120913,1.39638427535149,1.39631227214838,1.42417804613547,1.43366558422007,1.435017778195,1.43568948886644,1.43886345694498,1.44213262985109,1.45015361685419,1.45774131976963,1.48021277068715,1.49354527976956,1.49043747405237,1.49404775393471,1.55630922195688,1.59906282312889,1.61226346855327,1.67145856066223,1.67110592365145,1.73193642631332,1.73229805587166,1.73983781620625,1.74981152770437,1.80636977669636,1.79598277392849,1.79963460159206,1.79511648980923,1.83337999749078,1.79808311976262,1.80388896843626,1.79616814660939,1.79326763338578,1.79713229465637,1.76482400829306,1.7723791034436,1.775855035517,1.77265768035961,1.77126029753014,1.76690978934033,1.76370632215265,1.76383355362252,1.76321270289105,1.76357692351708,1.76215205808005,1.81436398489011,1.85351110583283,1.85345606404947,1.85350883272767,1.82721456045514,1.78580701509731,1.8410103264336,1.8647569073407,1.86962116972315,1.87463354802688,1.87813302242715,1.87383128026631,1.88967648972834,1.94547000233844,1.86903428353959,1.82359315500648,1.8227117252064,1.82211989330403,1.82197912990679,0.00353211000001658,1.82213244370241,1.85617980306257,1.83194398940787,1.84204763422581,1.81790354894625,1.82237969863979
1.14863284039478,1.14080546736485,1.13832868559988,1.13353677545803,1.12184895045889,1.12004353542619,1.11795500897423,1.11531350671868,1.11118883728384,1.10413380686835,1.10087709132639,1.08871994367708,1.08684649362032,1.07847802627638,1.07845897635675,1.06406175288405,1.05719930731316,1.04833208414737,1.03865460543722,1.03715991461804,1.03719613254935,1.03716131069492,1.03884002860847,1.0406859486729,1.04172010187532,1.04236659564334,1.04094828641279,1.03962419903554,1.03803410614569,1.0361268501565,1.0337046290449,1.03019711647647,1.02566094604772,1.02096855167182,1.01709966632877,1.01101804899533,1.02168906795187,1.06541119670356,1.10275398768949,1.12105622060408,1.12770996660025,1.13474105002083,1.14115521754898,1.14716932383958,1.15229460300857,1.16003490239507,1.15878899790155,1.15792094731642,1.17112936097554,1.21085938927604,1.20884142611036,1.21049531782044,1.2211162132795,1.22154885741001,1.23394437873169,1.23538490228084,1.23881418160672,1.25323280998666,1.26040371874056,1.26610173289109,1.2679923873225,1.26956143703591,1.27137625966869,1.27375101339578,1.27696717574692,1.28111622998723,1.28602390545967,1.29135440015388,1.29691747343362,1.30232406865315,1.30776979766727,1.31148153637052,1.31622150530043,1.32035440678804,1.32438290593967,1.33589996771156,1.33728932347296,1.33777772393419,1.33995404008436,1.36294175872984,1.3761238320063,1.3788591417223,1.39370924758186,1.39432894801876,1.39456094075282,1.39514349521086,1.3993880173617,1.40201043238232,1.4054483397895,1.41087268708096,1.41539550438368,1.41673906587478,1.41898868889765,1.42056861500457,1.42272344373536,1.42470786541331,1.42581694282867,1.42632067857093,1.42643432346644,1.42627629822967,1.42641459211302,1.43347329169279,1.4347106937746,1.4365821138921,1.43957511658887,1.44044763539991,1.45408739775353,1.45953766997607,1.48271513333887,1.49060169553873,1.4903032893741,1.49118914634855,1.54925670095135,1.59626416705534,1.60724440413558,1.631907878253,1.65180792633453,1.67587541200312,1.69969787652761,1.72015348280015,1.72949036651715,1.76060166769108,1.7657433414792,1.77050077044733,1.77523721462691,1.77946197722959,1.7839469493443,1.78903401036926,1.79575102343064,1.79551674238674,1.79692448339727,1.7767180227931,1.77056491034168,1.77125760894426,1.77089165829951,1.76791968498927,1.76587685387241,1.76386145407142,1.76453926066142,1.76478262086977,1.76528112488086,1.76529960412806,1.76690520846097,1.76799927625436,1.77072898852191,1.77392847677577,1.77872245924218,1.7860365052292,1.82199535133906,1.83867860270647,1.85513507981718,1.87939774238418,1.88379799212266,1.8894005804348,1.8902863304037,1.89841875258082,1.87705660385832,1.86730941903881,1.85543297967048,1.84427554467856,1.8322094144981,1.82689204461465,1.82160852952904,1.81786648101556,1.81466738197901,1.8136616123226,1.81270586665813,1.80849639474693
1.16405367046286,1.13352593705906,1.13597796306419,1.11785525771345,1.11927766254624,1.11797182088308,1.11765095451554,1.11708541622717,1.11475228673869,1.18895413884911,1.17015914722196,1.24980000116751,1.12049629807296,1.08077994502528,1.07985427219754,1.05408618262894,1.05454972239748,1.0401913373271,1.04070835431103,1.0356762286034,1.03638464826743,1.03504387675157,1.03825878427062,1.04085915321069,1.0418472796628,1.04383705505047,1.04161125516347,1.03976545869728,1.03870820458091,1.03787246803475,1.03769919624693,1.0383693993297,1.03157433185897,1.02164692821252,1.01954387601184,1.00822774623041,1.02231863353422,1.02335140660571,1.1034066301246,1.13430826328308,1.13085027587422,1.16034767984953,1.16141864762448,1.16108949575169,1.16011346790189,1.15987928535469,1.1592380241718,1.15942864952873,1.17698334448743,1.231709793415,1.20363984868717,1.19107868604108,1.22190823467883,1.22181683705311,1.23815600174148,1.24168030013817,1.24173772683979,1.26230283560908,1.26202832009466,1.26277532487963,1.29360146349909,1.33629096150952,1.32627951694301,1.31590969445727,1.31547804391327,1.31550172028071,1.31585191469011,1.31629938034202,1.31584937725143,1.31524244753125,1.3119952439834,1.31244311468732,1.32055916947931,1.32439134104961,1.33364665368888,1.36596540929974,1.35095037627457,1.34849873672447,1.34494341595511,1.34861682374314,1.37359527839659,1.37008005502256,1.38955859060867,1.39155876881829,1.39316472868615,1.38903891686648,1.40011271174945,1.4022374112371,1.40694099233444,1.40835672637255,1.41870009802049,1.46102983102506,1.42792154643948,1.42503497893718,1.4284600881855,1.42847537707931,1.4286275472016,1.42663794528068,1.42662143236086,1.42556547084309,1.42783887865595,1.43209380829991,1.44214574948859,1.44894241017788,1.44296022810585,1.44021209135998,1.45757815031269,1.46013710879745,1.48494326782168,1.48808769405547,1.48922164752156,1.48939248944966,1.54265535794429,1.59344502799433,1.60125006693223,1.61385975663385,1.6135649907653,1.61336374422505,1.68207793498031,1.70326007335395,1.7195827538975,1.75455660280699,1.75290177192559,1.75087284486923,1.76012926464979,1.77251561549233,1.75278952368211,1.73986970426426,1.79921504872656,1.87169000221131,1.82896889124427,1.83292453985525,1.76853009265822,1.75963849966973,1.76235555442025,1.76336000824196,1.76463685335492,1.76181644469934,1.76541428013093,1.76590441892397,1.76706937164571,1.76644532733111,1.7667329470698,1.76602112048358,1.76521626936563,1.76411929768624,1.77345737857095,1.79455634142184,1.79107212234022,1.78704602942669,1.81743879353008,1.89843191411085,1.88729573019138,1.8919638585761,1.89155766047897,1.90752683245161,1.88804067073555,1.9396200017528,1.88953953120955,1.92754000085567,1.83762156565064,1.84326257971042,1.81954639905844,1.81387571675781,1.81335820715979,1.81195236763576,1.8112513701314,1.80891049879675
1.16706093768689,1.16210533848441,1.15347748806503,1.14351403224234,1.12580068792634,1.11894654664167,1.11793142400141,1.11687750474462,1.11637798668343,1.14965613045326,1.1553038371044,1.18866202417793,1.13267976446994,1.12211798385555,1.10094948580281,1.05222277450281,1.05303423134719,1.04866162035937,1.04506207284755,1.03415900202093,1.03723252629627,1.03686816610219,1.03777393802658,1.03884285869227,1.04018641101735,1.04194396857426,1.04089190596768,1.04058579869442,1.03835860062946,1.03717347420922,1.03631542276504,1.0369687034743,1.03863039423231,1.04057575475635,1.04056723516577,1.05810596556963,1.0641094325035,1.08370933905497,1.10458627602174,1.12414222602596,1.12794948005382,1.14198162677499,1.16241981407481,1.16521180465548,1.17113560495008,1.1744548362331,1.17656703152257,1.17931222033612,1.1831853454988,1.19641789902641,1.19784668062932,1.19477509251289,1.2219001864519,1.22197079938287,1.24166729045221,1.24419732619543,1.24414477992744,1.25738526213618,1.28142023214889,1.29707585342176,1.31071197658731,1.33576657044895,1.33498586721282,1.33450555480141,1.33465505999526,1.33541650445105,1.33656376227379,1.33783281122834,1.33904896105862,1.34025242248317,1.34155369830095,1.34287224699152,1.34615751925305,1.34883517250917,1.35092405416333,1.35337882574726,1.35474558431506,1.35855108231415,1.36136019775047,1.36243341931459,1.374867606496,1.37305848766508,1.3857268942836,1.38689136817661,1.3971180422364,1.39827534608764,1.39852772892627,1.39879365731598,1.41320703441439,1.41814582411746,1.42109358079246,1.43039933735102,1.42963742497022,1.42821824089228,1.4302152411131,1.4307099608386,1.42986991129475,1.42836652930708,1.42743589344253,1.42684204719696,1.43567079489362,1.44065578448399,1.446572550945,1.45462424708773,1.46403255305593,1.4739496854942,1.48316214423085,1.48776562831889,1.48889848591601,1.4962310015332,1.50626985976814,1.51284075273358,1.53594229421009,1.55999287646251,1.57575190909019,1.59180074694773,1.59670478336669,1.64324112648568,1.65600981446529,1.66797988831258,1.67857821019335,1.68894155097308,1.70542698807979,1.71917239787726,1.73154059911394,1.74043661395643,1.74591526283619,1.77830113724715,1.80455318158658,1.82164565712987,1.82565635370616,1.83120707910699,1.76639452083649,1.76375266269456,1.76424078781808,1.76547364735404,1.7676921454393,1.76802097684117,1.769640051916,1.76911427716906,1.76999344163244,1.769118266983,1.76674323945895,1.76551202821396,1.76472589484546,1.76376027125919,1.77197659017741,1.79318603013819,1.79128623308425,1.78910357435522,1.78881841427426,1.78888341498328,1.78981788023426,1.79187583766614,1.79488146741756,1.79831239090562,1.80161128155173,1.8045143050284,1.80715913462279,1.8099265699957,1.81318035148696,1.81708202152982,1.81751049166965,1.81485862578951,1.81396934218489,1.8135415066671,1.81268998657574,1.81044114108498
1.17529322381409,1.19566303214783,1.1794927036335,1.22295000140224,1.13129189085514,1.12130259667695,1.11845452939859,1.11653090829192,1.11775660952527,1.1189419188265,1.14429962080739,1.2262600004266,1.15833404507907,1.15801359938616,1.11223307345391,1.0499487345585,1.05769547426235,1.06392085960786,1.04589337308873,1.03051513548163,1.04115234919876,1.06778972879285,1.03722836126337,1.03567187587726,1.03904199692904,1.04122177021445,1.04086561645581,1.0415543842826,1.03819771428867,1.03518026367365,1.03466619725541,1.0331315801104,1.0375574918187,1.04245765472499,1.04132246725986,1.07847438009896,1.07952808360043,1.1074757873169,1.10639044968473,1.10793987461773,1.12572470441878,1.12374746816709,1.1625308496463,1.17182502709724,1.17263574982322,1.18133031769496,1.18491516138696,1.18156915559285,1.18898093899322,1.19419181506499,1.19586166339291,1.19497758230501,1.22193704008863,1.22226071618105,1.2443403509501,1.24735461647928,1.24722052267149,1.25019499078438,1.29664227177662,1.32899303486668,1.32808959201365,1.36018762899466,1.34715007604443,1.37366247995811,1.36346770579314,1.37136084201679,1.3712954069921,1.37081139113761,1.35904549188612,1.35533678726452,1.34789972210831,1.34076735736787,1.35081611932527,1.36431960458891,1.35223869748712,1.33649584244141,1.35658930675289,1.35914831604706,1.36175939103326,1.36563494729699,1.37743166696777,1.3770414101413,1.38024426362679,1.37736500908321,1.39857172890787,1.40035399510656,1.39788205701281,1.3961489331854,1.41759901103292,1.42605309558276,1.42654894938775,1.42798618357636,1.43224074097255,1.43506789395609,1.43359815411734,1.43221546131861,1.43168001165748,1.42881425712256,1.4283021116715,1.42835374447922,1.44204969772131,1.4616866462082,1.45820262998478,1.49514972459377,1.48030259348017,1.48383039560351,1.48756338368346,1.49191697842017,1.4936872353733,1.51426116060773,1.51625607707757,1.52333504352357,1.52380420902995,1.52728370187766,1.55478118043582,1.55506221105611,1.58700194358216,1.66730974145291,1.6483987712296,1.62062301292271,1.66240762118778,1.68220578023055,1.68269735860318,1.6833027859521,1.68359660726272,1.68323473313966,1.72567543114488,1.83819999933513,1.81095624232075,1.81859893457247,1.8216545087443,1.83547916733905,1.75148313636152,1.74372812269947,1.75089943385004,1.78377389869948,1.77277028461654,1.7782267735871,1.77583594574645,1.77824931335457,1.77371644785362,1.77263948643448,1.76471006075362,1.76365856409653,1.76338552358446,1.76166306231379,1.7663691248277,1.83407999976314,1.78056614359058,0.00324108000001664,1.75713772947192,1.7561975494316,1.7582266737155,0.00341332000001661,1.77205130606113,1.77455031855004,1.77801011596172,1.78194943634732,1.78150748010484,1.78157332467689,1.8050760922504,1.82109054999814,1.81905006740562,1.90646000145837,1.81476378629291,1.8164213786467,1.81412365619843,1.81261645298053
1.16502465560964,1.16495147650811,1.16516119043281,1.15638549775349,1.13744781535291,1.13352147375996,1.12848793776773,1.11688573133716,1.11945998392313,1.12073526217291,1.13741315919734,1.14566217157852,1.15938010476058,1.15833235870399,1.1194649629479,1.11065568788428,1.08187833954809,1.07309737243143,1.04770559972331,1.04485749539994,1.04371213128706,1.05569731488627,1.0376961722826,1.03717493308401,1.03743067150299,1.03798653675069,1.03746438104068,1.03756045877416,1.03561091504289,1.03381320727252,1.03294078432832,1.03374528830282,1.03746450180621,1.04058171138751,1.04095218003719,1.05755752341292,1.08035323983701,1.11437424589284,1.11892744220584,1.13198899147471,1.14115809170721,1.15211429726564,1.16226135188422,1.17373255592557,1.17426487847658,1.17585987922176,1.18952626260375,1.19035206613191,1.19573146554274,1.20278661619704,1.21249042237209,1.22029625095979,1.22427644578268,1.23994957549149,1.24776891374304,1.2643175027308,1.27970532778021,1.29499657054955,1.30674602576137,1.32594719188033,1.32596132749445,1.33308212574077,1.34084923801437,1.3490393089658,1.35703976955877,1.36454197760305,1.37138571307714,1.3685815848189,1.36331526215067,1.35790514155677,1.3590010352557,1.36145019676192,1.36364944104713,1.36492756850738,1.36626103716073,1.3676111093166,1.36956099901012,1.37239354399264,1.37594751259335,1.37985134214006,1.38386179119203,1.38782202994812,1.3917247689621,1.39542695115789,1.40171970967199,1.40687163361594,1.41170302147731,1.41553356661454,1.41934908909115,1.42579786656223,1.42899803042227,1.43150378430763,1.43270522166832,1.43433138870245,1.43327897401169,1.4334762127005,1.43650312418581,1.43949567864595,1.44340478705077,1.44836619928901,1.4534221123063,1.45521468595405,1.45453520989327,1.46384582339977,1.47710346367697,1.48019892797872,1.49080817946121,1.49342018884113,1.49560180566159,1.51642309003904,1.51847991759463,1.52118896314443,1.52230585867853,1.5396697327702,1.55366330054625,1.55322370363767,1.57416192809523,1.59144475066203,1.6133085559347,1.63284878505967,1.65076051735178,1.65539752655084,1.65995413632851,1.66551056332765,1.67114008245881,1.67635159655476,1.68704068195618,1.69279071244784,1.69910909287176,1.70630937032888,1.71430645395717,1.72817007216927,1.73054605385213,1.73582990378257,1.73710258312445,1.73980176018926,1.74389754521799,1.74870865525126,1.75380089615318,1.7583055933698,1.75936517644616,1.76381692836009,1.76318483653459,1.76307407316702,1.76279118513753,1.76191914091632,1.76083791900931,1.75949642007147,1.75896477364974,1.75805452424461,1.7578885697233,1.7578426568739,1.75997301634029,1.76246474143179,1.770104893059,1.77251973397078,1.77783939791037,1.78073437576475,1.78103144848869,1.78093250564739,1.78137814177391,1.78324429406553,1.78536853360943,1.78812961357449,1.79177999346141,1.79626470248107,1.80151885826213,1.80763212026574
1.16592535486442,1.16520410623286,1.16556768802964,0.0034716600000166,1.14747475551975,1.26869000019718,1.13674158350852,1.11530369030901,1.12231592098575,1.12428781332059,1.12857999728813,1.12201701260169,1.16056741478972,1.17584713425185,1.14275968371787,1.1368705451441,1.0943487576577,1.09449587459157,1.05054633314499,1.04482930116726,1.04485098231222,1.08557973449646,1.03855545998014,1.01684519844608,1.03611929383213,1.03345690373208,1.03512751927501,1.03317843314035,1.03438164796001,1.03042927359195,1.03102044637646,1.03069417980132,1.03843217923668,1.04070505554634,1.04119710526173,1.04284248803283,1.08071452866214,1.13696211577705,1.12880603010021,1.16135196575093,1.15609406600342,1.16404666521864,1.16178824947066,1.17398697421127,1.17590263625155,1.17446148197237,1.19097425736726,1.19501904063157,1.20072135672737,1.2334321104882,1.23389142006841,1.23473646308002,1.23672527678863,1.25905483787743,1.26002053274832,1.3307361547539,1.33163065161033,1.34407652566792,1.32777252139884,1.32203208179364,1.32261117841659,1.32205275081384,1.32089049494804,1.32081641997226,1.33488503160885,1.32936250266924,1.37284338726425,1.3799544937161,1.36805120989437,1.35458333552874,1.36555713986487,1.39687975086381,1.39977752583366,1.39919478435435,1.38866128402062,1.37908061509093,1.37539078480413,1.37223744547053,1.39145978501982,1.42540107819762,1.4084928516275,1.39931890276345,1.39906328889324,1.39925342120716,1.40515308592897,1.41427757599893,1.4209801464425,1.43118593402575,1.4323996474462,1.43227767825835,1.43338157423512,1.43211798593336,1.43494831757528,1.43244550987339,1.43246676754818,1.43009454349071,1.43969962483604,1.46115134053844,1.46119803584839,1.46192482510281,1.45569094694783,1.45109335862128,1.45128378654493,1.44828810173653,1.4700356480588,1.46326596219174,1.49330350238984,1.50254189475992,1.50013331411304,1.55067965560226,1.51999570559545,1.52078133926147,1.52260927622594,1.55097339971826,1.55215495803735,1.55043269647598,1.54961815925213,1.5487510808418,1.58935679799824,1.64392113789368,1.64407863890363,1.64402756563569,1.64561204174353,1.64695888462979,1.65016722372006,1.65334291728936,1.65004452976728,1.64674490848029,1.67072530193821,1.68889000054783,1.70858089841645,1.72590877462925,1.72806758088894,1.74058372999148,1.72992784539052,1.71657082543802,1.71340846526439,1.71104884441884,1.73165615010853,1.7331261535026,1.73290687373628,0.0037167500000165,1.76440717616627,1.76305907713288,1.76228324344827,1.76181939585881,1.76048881121087,1.75826716950203,1.75904869026521,1.75705461326044,1.75833730664168,1.75697610776231,1.76112628262353,1.76478439707708,1.76558867671839,1.76334021253411,1.77532829974307,1.78199477017574,1.78109381149048,1.77972955093872,1.77996021477561,1.77771348439714,1.78084872675216,1.78327141337945,1.78444768107768,1.78728002492304,1.79625163634018,1.80762438989738
1.16813767248448,1.16707310481049,1.16673542560589,1.16674758367188,1.16602996465402,1.16361257808469,1.14976015918922,1.14616299054285,1.1491692172692,1.15195809534952,1.1549490440013,1.15835106647215,1.1623215181427,1.16887592070156,1.14798852222257,1.10893758213993,1.09380575300438,1.09442174848125,1.05397284769093,1.04689371566796,1.04526882358427,1.0411868622232,1.03907687676149,1.03792891757944,1.03593888645666,1.03410155846278,1.03398725835815,1.03394980658426,1.03684256251361,1.03885985926659,1.04165485639374,1.0456051396567,1.05060180809221,1.05385370430767,1.05482134612382,1.06555428888589,1.08039431858154,1.1059209499774,1.12274197331848,1.14905704229043,1.15175337341803,1.15354693257433,1.15822210077784,1.16610093297459,1.17999668484975,1.18901829619622,1.19297035491039,1.19986276101738,1.20715799658117,1.22772774881702,1.23416601892995,1.2356188322511,1.23638348686979,1.25341562348956,1.26079048666455,1.30551383053146,1.33283405541135,1.33757536634216,1.33348704486757,1.31997447468967,1.32042893390879,1.32045068171541,1.3204304054229,1.32057524854867,1.33998450747714,1.3422361063219,1.37421892153021,1.37532416651317,1.37265748355514,1.37321154134346,1.37303416020637,1.37903593728584,1.40239248962945,1.403501921433,1.40786998418584,1.41131123891832,1.41407087719632,1.41640284871787,1.4185365934495,1.41996315267965,1.419486121958,1.41909406562744,1.4213571664845,1.42400045249573,1.42662261030709,1.42916915378051,1.43070451499611,1.43163275752777,1.4325340395232,1.4338105946004,1.43617241001502,1.4378429003771,1.43853882179573,1.4416140213202,1.44326678838402,1.4440321911547,1.4431924764652,1.45708179364917,1.46010585124815,1.46635646743485,1.47169788765868,1.47732639966409,1.48265361832418,1.48738437101751,1.49122447412645,1.49343874753481,1.49508083199097,1.5018903821673,1.50226933673521,1.52459785081894,1.52040129284483,1.52269103019239,1.52451588417342,1.52622378716758,1.52921670595555,1.53413151173003,1.53849640125317,1.54325049715348,1.54978557662241,1.56355844855514,1.56477017299795,1.56561879840944,1.56508235436247,1.56475365011252,1.56555353414686,1.56795981922093,1.57226985260544,1.5811742495485,1.57941048470717,1.12805290711849,1.12805289594778,1.12805288904082,1.12805289593784,1.12805290710242,1.40956008603069,1.71394126602219,1.71408275798802,1.7140610078995,1.72590334141904,1.72925904040835,1.72795462585542,0.101449598339328,1.75899038687723,1.75874752413092,1.7609722901728,1.76131141940709,1.76069118634555,1.76012812704818,1.76179693206471,1.76152300118859,1.76119217620051,1.7612135785036,1.76231506048779,1.76382989645936,1.76396135961698,1.7631520285707,1.77370222808448,1.78124214551632,1.78144480278882,1.78165399791941,1.78110661581245,1.78075364311977,1.78168146003046,1.78259490823024,1.78345821041223,1.78344019644843,1.78273096600608,1.7838002979509
1.17050543794049,1.16892722044977,1.16787743300355,1.16732701944564,1.16545198428353,1.16197174184988,1.15439135195155,1.13876300973508,1.15887756411602,1.3031500005242,1.22134577619143,1.24386984332338,1.22494575712945,1.23033010214379,1.15171152991406,1.09446950184032,1.09292650033679,1.11327749945112,1.05773873707628,1.05003726442979,1.04753499529944,1.03588706982246,1.03865341301758,1.03778628306934,1.03618213594242,1.0308606424595,1.03398050564988,1.03037916489668,1.04058864870156,1.05774059573413,1.05504732376577,1.05985292366436,1.05578953254728,1.05595342626035,1.05541923320635,1.08055997820221,1.07945748154693,1.0811764891704,1.11715713488885,1.14565055215203,1.14832884848571,1.15036717958874,1.14667269131258,1.1474724984589,1.18365707045433,1.19787509955951,1.19580500281977,1.21818012745875,1.22084118196766,1.21750861701306,1.23458524063037,1.23714380667231,1.23646249632152,1.2470468656833,1.261443201271,1.28022257955614,1.35213733435428,1.37527192921057,1.34486220564003,1.31798686580825,1.31913768740559,1.31955482589703,1.32017376836547,1.32075766366658,1.34236402583643,1.34436490927898,1.37481751685489,1.37451723912629,1.37412270268842,1.37373441662354,1.37202367862467,1.36911144724964,1.40389147366101,1.42822732281189,1.42877214331274,1.44141419536146,1.42235404323029,1.42009392368908,1.42004043779672,1.41842778127924,1.41846942066324,1.41613826174846,1.42080037629299,1.42334874033305,1.42559383158353,1.4423828734897,1.44138282449631,1.45480399602405,1.44594714954555,1.44272846272592,1.44193765449079,1.44007429493769,1.44282809847475,1.44408661706863,1.44572097671416,1.44583004868559,1.4474983928115,1.44895373250381,1.45988346636532,1.48730438660499,1.48390100620515,1.49842664321231,1.49338853541395,1.49925804797788,1.49645455757745,1.4986529991996,1.49803102578784,1.50065973608297,1.50523347075534,1.52712923110694,1.51402126302552,1.51085931564376,1.51284424661738,1.51563083307231,1.51618739919897,1.51464212227278,1.52252261160918,1.52310222507127,1.54780636217112,1.56174174544924,1.56453986165176,1.5666977363454,1.56505632770153,1.56287427290117,1.56150186487239,1.56216370608958,1.56933677936807,1.59024006779677,1.57646914103241,0.00366066000001656,0.110018121651794,0.00375146999868018,0.101389293552937,0.00394760998870834,1.40956008688328,1.75951000000001,1.71657862178229,0.00362575000001657,1.72302726434367,1.74467666341029,1.71418869555845,0.00363314000001662,1.74910689262769,1.75611892523169,1.74981487009157,0.00350334000001659,1.74844591034883,1.77082428931493,1.76660081680336,1.7659427929116,1.76365598245117,1.76411168296945,1.76299862657574,1.7636771188647,1.7632707268698,1.76322638451394,1.76946559182386,1.78187673439817,1.78192533205203,1.78408807197192,1.78228082343437,1.78287152797547,1.7824032024539,1.78221605244001,1.78290886158163,1.78176956384254,1.78289415303855,1.78492372812226
1.17254270523992,1.17036708730188,1.16929770640184,1.16811713274901,1.16642343546995,1.16442551554764,1.16458396325535,1.17217703828033,1.17765643007925,1.20112845928238,1.20497847182376,1.21704172737309,1.2206360098974,1.22494250866637,1.15390177397718,1.09224374798483,1.09230546678094,1.0829332081272,1.06194648759994,1.04853223548024,1.04698850956027,1.04533563752869,1.04103949170824,1.03962421091112,1.03850433494081,1.03939572791364,1.03951769474374,1.04290414562688,1.04268885007774,1.04313916658675,1.04857388892688,1.04977796408992,1.05253249200648,1.05351306949854,1.05613395099433,1.06952538183219,1.07521313034288,1.07702373072892,1.11231607047465,1.1388845012488,1.1429176924879,1.14427916087346,1.14475804176762,1.14536090907077,1.18664189781518,1.19684657353233,1.1968328320636,1.22185906011508,1.22284937835639,1.22301914163059,1.23593313428386,1.23691839007574,1.23790202465252,1.2415233784361,1.26204763559878,1.27812697357894,1.35692361507496,1.36329141744351,1.36186857733171,1.36018768799015,1.35966977238192,1.35927167529963,1.3588156634632,1.35840454882462,1.35794670129357,1.35710175559455,1.37559705843239,1.37527657011915,1.37569399319772,1.37526128377697,1.38757632498881,1.40156504539431,1.4058867341489,1.42918332666747,1.42980098757712,1.43384326493039,1.42445988720639,1.42535144646959,1.4226182453322,1.42082850239252,1.41968146296063,1.41894590634256,1.42208647228428,1.42467312380746,1.42624525385251,1.43792838051529,1.44060169992697,1.44165576791024,1.44541474857041,1.44450364035533,1.44502858354221,1.44580261981536,1.44504283294811,1.44622357810839,1.44768299354636,1.45071948907346,1.45318873275285,1.45765870709567,1.45902329072186,1.46453498426911,1.48076491537043,1.48012513005068,1.48259895625147,1.48497566876239,1.49082117957968,1.49580386733347,1.49719982076166,1.50439833455948,1.50890089660583,1.51255456572247,1.51290790522196,1.51260045767108,1.5131324515832,1.51595064973127,1.51763952412183,1.51866346516334,1.52170028593665,1.52562844740719,1.53066015140125,1.53309024064293,1.53652774573833,1.54098179806785,1.54592318033161,1.54953013046352,1.55465888331664,1.55838834960292,1.56795427979669,1.57325520279303,1.57508979541895,0.296052791560455,0.247307395623293,0.198648149408401,0.15005495421493,0.101367450530185,1.40956008688328,1.66965414408816,1.66755990966392,1.66929836438228,1.66940911784161,1.67713054243877,1.68279915349198,1.67516788400291,1.73392867164372,1.72301274549507,1.72004016678608,1.72231014018001,1.74170460607817,1.76954768458742,1.76745359301235,1.76564690339797,1.76318761008668,1.76209497865524,1.76162277603372,1.76162823518463,1.76177385446031,1.76186824248634,1.76596726080698,1.78152693316134,1.77962151275717,1.77936443036714,1.78117315199277,1.78286710225949,1.78321953727041,1.78222027368022,1.78288098451759,1.78152120029467,1.78301110492607,1.78604872491459
1.17427464012703,1.1714710932109,1.17070846413711,1.17027503584971,1.16794283056033,1.15011542849217,1.16697256694483,1.20943025149355,1.18173130567245,1.19282205079771,1.20229176315238,1.21190066812898,1.21589326913499,1.24797995866294,1.15776540736907,1.08916281147241,1.09138626258767,1.07254195413025,1.06686023865224,1.04850864571082,1.04711557121738,1.04750656512949,1.04083926569539,1.03971710805891,1.04005523734482,1.04000836843921,1.04258504322468,1.0448188989036,1.04416693601488,1.04034434403989,1.04636382910191,1.04256695529283,1.05201383856583,1.05013342535973,1.06081197235978,1.06507512297769,1.07440596976603,1.07413432472368,1.10807130267656,1.13551148065059,1.14065627263465,1.14232118415447,1.14278384885642,1.14319945610151,1.18891859933688,1.19567527806013,1.19793214448842,1.2246593314695,1.22501017980415,1.22719324766763,1.2360505537148,1.23654362548755,1.23771795704234,1.2389580337251,1.26244138153172,1.27639015664324,1.35883309484864,1.36422588123175,1.36177222927332,1.359027304538,1.35986651132872,1.35955144028168,1.35875980329186,1.35791192773854,1.35717011354429,1.35491125004138,1.38194745924235,1.38402658918709,1.37855836052955,1.37670497607293,1.39617729353844,1.41276183893157,1.4128348548859,1.42994048662521,1.42882889511901,1.44745087898631,1.42621348841368,1.42984688423372,1.42425121536231,1.42296831479823,1.42063019381414,1.41787056423858,1.42375509910174,1.42695138111264,1.42921494248344,1.42965814843409,1.44099827760467,1.43867833328296,1.44922078720998,1.45254826357094,1.44998293860275,1.44872598814824,1.44742136628257,1.44587195311111,1.44939308225881,1.45397628001855,1.4555125804328,1.45971775346958,1.46013101347458,1.45824340510004,1.47560406331902,1.47622425124516,1.47897900368241,1.48315916148024,1.48655787847957,1.48152133090928,1.4975178967995,1.54522982773732,1.51374950002755,1.51621914024645,1.51275836853318,1.49152948844892,1.5101079994411,1.50186018914336,1.51921056313785,1.51997571902234,1.52068916667447,1.53226753044123,1.5282001586195,1.52317771985213,1.53406795663479,1.52705891818406,1.54780746833984,1.54944207610519,1.55011940500311,1.55050667422692,1.56281971668941,1.57594978276023,1.57554286514317,1.58665027144493,1.57414010165859,1.61406000085511,0.198853650584011,0.00349169000001658,1.40956008603069,1.67549869853239,1.6665254364479,1.66208856128338,1.66431525220764,1.68212391141777,1.67291060208001,1.65894150977872,1.72421064523593,1.713749732286,1.71571493414403,1.72408376332636,1.7366792990622,1.82949999893327,1.80544760644623,1.86200000072591,1.76127100633643,1.75934494429878,1.75981265786004,1.7591691460939,1.760160186992,1.75969598296223,1.7650138360839,1.81715999694539,1.7754831120835,1.76373532624636,1.77751803397527,1.78547536979016,1.78537424432269,1.77902886473947,1.77955891806357,1.77617807919954,1.77936585950287,1.79027415606451
1.17689024948757,1.17425513789631,1.1724859881058,1.16973787137554,1.17050165510247,1.17061795951004,1.1699337449093,1.17142506396737,1.17237865579149,1.17477883629616,1.177084882455,1.17900628820555,1.18085195815536,1.18228127723121,1.16397854021236,1.13942726688199,1.09594000817409,1.09048175359349,1.08259191218051,1.07224717755622,1.05554227016812,1.04316220365807,1.03841253806245,1.03777974767163,1.04028695568365,1.04169139538844,1.04457161089241,1.0458046600939,1.04690667015589,1.04932250792456,1.05183221236632,1.05473611199882,1.05382894265296,1.05245803895824,1.06183404062997,1.06917747377665,1.07257721011275,1.07309519806615,1.10299473296,1.12043318429213,1.13067380823075,1.13974390497712,1.14023240915893,1.1400707926597,1.19055873785356,1.19592203109011,1.19918279395226,1.21368423179927,1.22531209426589,1.23356824219002,1.23596649382855,1.23846580442145,1.24741958023238,1.25505614113975,1.26291840057061,1.27251856252652,1.36041310330134,1.36220914318619,1.36161737846061,1.36045999665597,1.36134098849551,1.36362820638996,1.36913777960937,1.37467517669433,1.37991288461398,1.38458768059458,1.38875211214379,1.39255726509772,1.39609262464009,1.40075041482816,1.40530280759829,1.41144484657524,1.41244543582435,1.42984038718728,1.42739115569147,1.42489008842976,1.42485604249611,1.42519006595014,1.4243168677536,1.42373908564239,1.42233208316034,1.42142991081548,1.42486740125309,1.42837898474716,1.43449706401525,1.44022834840855,1.44313909137029,1.44556702308054,1.44787907647244,1.45064474004901,1.45089865278379,1.45129957590883,1.4519620812091,1.45277337799631,1.45388355244847,1.45476184625847,1.45585487329125,1.45984561969545,1.46447526184193,1.46722394108826,1.46952002639872,1.47283655272156,1.4738989303655,1.48950118466394,1.49096822832591,1.4937974446262,1.49749267308862,1.49785311031447,1.49958644608959,1.50291758343088,1.50805596720044,1.51399593575441,1.51517110840562,1.51888666747092,1.51944911221781,1.52062287259612,1.52103829066976,1.52352538682838,1.52713921295092,1.53371332467773,1.53939221414539,1.54529704566275,1.54783680272365,1.54929453132817,1.55006920149889,1.55056246883555,1.55833281826354,1.5764046637316,1.57612099843772,1.57472447525398,1.572056977957,1.56963832648433,1.56921210342269,1.57338264653251,1.57457135815516,1.63658958309818,1.64204048778392,1.64778204099192,1.65326537882345,1.65948413648958,1.66579052713941,1.66857088238674,1.71690988871322,1.71303197857132,1.71270043688197,1.72307395754091,1.73490469032716,1.74261307720052,1.74903038821474,1.75358970884147,1.75538385313039,1.75815492427152,1.75906724589249,1.75939952015431,1.75979577775089,1.76265093233369,1.76515108617953,1.76735370895445,1.77114941279618,1.77456441626984,1.78839463876644,1.79745714345368,1.79644982802202,1.78166184010721,1.77777469844133,1.77567177676817,1.77621197882696,1.78100351819306
1.17973464554334,1.17716255027579,1.17492035064621,1.16616592126967,1.20954200296261,1.27409985303909,1.21153429567864,1.1576097124055,1.15976378613522,1.14466194245697,1.16511189631119,1.17889800841476,1.18113161164822,1.1835438141866,1.17176327073735,1.18195235209982,1.10989853260718,1.10529708101248,1.08862833923057,1.08485658432035,1.06032766191902,1.02926823197972,1.03239069348617,1.03120925023856,1.0415889840545,1.04099509314846,1.04899967403019,1.06010656594238,1.05842226369161,1.05829214990133,1.05632714594516,1.05803497112091,1.05645008546445,1.05454404821583,1.06282344016496,1.09639249821312,1.07276119539059,1.0721355030479,1.09723881354274,1.10805590704791,1.11942696526832,1.1362036178747,1.13784031326155,1.13649588099581,1.19162508837954,1.21110908321087,1.20447815987479,1.20270176833297,1.22546817420209,1.23709741437798,1.23580813057113,1.24252167479326,1.25502023738422,1.26587671390211,1.26512005897521,1.26680151139181,1.36827924152664,1.46848006311201,1.39394717969217,1.3597172988104,1.36153152806889,1.36362373620455,1.3720896832362,1.38489153875779,1.38856347161874,1.39230065229629,1.39391430055443,1.39496066161313,1.40322446785956,1.40932652908735,1.40930153779171,1.40930207270793,1.41346458002288,1.431630699225,1.42635950067751,1.42281479788222,1.42330988745728,1.42232873354537,1.42416314901943,1.42599916209479,1.4235517792642,1.42092722695468,1.425980798754,1.44156251709592,1.44064336488102,1.44232601698896,1.44499041346127,1.46160903700934,1.46089994688723,1.47645473624932,1.45297737964622,1.45263516273272,1.45392768193962,1.49069602786438,1.47348451502573,1.47863258345907,1.47778938825516,1.47898924368626,1.47099586011463,1.49357716001559,1.46350912137296,1.45724672834303,1.4710183075046,1.49379578532923,1.49312930157483,1.49490545547773,1.49583934351345,1.49617171710147,1.49959087751898,1.50196561595335,1.503456611143,1.51710742469308,1.51663758034374,1.5188537515113,1.51892649645984,1.52070320757166,1.52039478814154,1.52090725441608,1.5233667989595,1.55291877953984,1.54384680574989,1.54842825396145,1.54869190202076,1.54960880636147,1.55011850031997,1.55098822506573,1.5542551393778,1.60226987564687,1.5606212152039,1.54971991867353,1.56266941423483,1.56702422988121,1.56512333000304,1.57574082756279,1.57582282545965,1.63149830345312,1.63019049869226,1.62870211191999,1.62807826043571,1.62732291224091,1.6417679694862,1.71330039224765,1.71111318242656,1.71164037548421,1.71190472114676,1.72307543095251,1.71052787229869,1.69287998925476,1.67128022027033,0.00349660000001659,1.70402383305538,1.87871000000001,1.70199785953212,0.00368785000001655,1.70453424094398,1.82264000143789,1.76575150646137,1.76624772565114,1.76838239122019,1.81832000139103,1.45053674815728,0.00320421000001659,0.19893902105626,1.781579408953,1.3638388177804,0.0034495200000166,1.76736539469619,1.76334739055464
1.18403169594543,1.18575030571856,1.18587211566947,1.2149328083792,1.22570872964853,1.23927592820305,1.22470859510848,1.19930041728836,1.1615561373713,1.1458508848632,1.14441043677404,1.14015356398611,1.13770246415522,1.13533321274936,1.13346131342728,1.13304448537134,1.11362297271152,1.1099693539406,1.09730946408522,1.08201087082124,1.06595967853536,1.04890374940071,1.04949917240468,1.04945029436193,1.04970684963709,1.05130129314373,1.05374554989376,1.05802137324805,1.05715198704572,1.05604547055004,1.0555487564612,1.05658616667567,1.05941519935521,1.06312813081904,1.06433753814076,1.06913252183999,1.0732411150131,1.07431614694901,1.09146685194163,1.0990173917892,1.10873790404425,1.13793509247028,1.13810958379161,1.16175297929505,1.19210611606335,1.19946758578156,1.20335973285645,1.20675933840994,1.22523826095445,1.23476314052381,1.23436847088495,1.25766186659347,1.27200168581475,1.28198336617427,1.29062179597901,1.346658414567,1.37701159971881,1.4592054456236,1.4518814737354,1.45029450176443,1.44767628152525,1.44382137079472,1.42984937643877,1.4284633977334,1.42447533923103,1.4201670623576,1.41749563916836,1.41454225016446,1.41128203134706,1.40964916022745,1.41222315428442,1.41404765754082,1.41513804636958,1.41653337372754,1.42296082014177,1.42427237218842,1.42370205971232,1.42307072013048,1.42481494290289,1.42629992562278,1.42553069286098,1.4244327263855,1.42624683922544,1.43824557805253,1.44382159638179,1.44511194284997,1.4489277000031,1.45433540800535,1.4577022675323,1.45645263302486,1.45579702487218,1.45674337567095,1.45736682333679,1.46296107356316,1.46837390340633,1.47430106311234,1.47204914919933,1.46759616966996,1.46394400571441,1.46150672848878,1.45953179168203,1.45824656003829,1.46845462394002,1.47718556581121,1.49225094357207,1.49415801360212,1.49492694914123,1.49697787301698,1.50026078111436,1.50207173097465,1.50289508970633,1.5078452062002,1.51298445127377,1.51332806981877,1.51528113593778,1.51704919512679,1.5172019507118,1.51866979091329,1.52187126356314,1.52602110464913,1.53060160712882,1.53513752727427,1.5394123863544,1.54345647701586,1.54720288374671,1.55021469691729,1.55226267785878,1.56057069599984,1.5557769489114,1.55502264246754,1.55897563223533,1.55907367009249,1.56054184732141,1.57700580519899,1.57664513642346,1.59944245702364,1.60626543255536,1.61360747253607,1.62139356285575,1.62809494922058,1.63310449315553,1.63616499736714,1.63582086310303,1.63436108132138,1.63168051264731,1.6287980891253,1.62525878371538,1.62320687642152,1.62289473704804,1.62446340413776,1.64006334064089,1.65020262930295,1.64435818810977,1.64196367528302,1.65188546265559,1.66041816902943,1.67084028366216,1.69591815923549,1.69530403572668,1.69457418542953,1.45051727774353,0.101256162181973,0.150097463344155,0.19893902105626,1.36383748111043,1.3638388177804,1.76416246311411,1.76371812788716
1.18600246931456,1.18706749097189,1.18631369395195,1.26519871075411,1.27416580468638,1.30439003034487,1.2607150654621,1.35236000038888,1.16299104691108,1.14953553371152,1.149163805302,1.13316465658892,1.13804703036858,1.1323896440762,1.13193533260788,1.13231814839436,1.13174701000194,1.13303810846723,1.10551275958761,1.07964981212191,1.07205038417587,1.04804764566822,1.04883740433342,1.04841408760174,1.04883284533841,1.05925667018561,1.05743077473155,1.06108763380542,1.05701947372457,1.05244122693709,1.05363687520297,1.05288325841154,1.06178282384171,1.06515697155416,1.06269557135728,1.06057310871281,1.07612892935753,1.07789858656811,1.08507203382315,1.08413511161646,1.09901303306086,1.13917066324119,1.13812021757364,1.19185999479474,1.19201001019355,1.19719523567102,1.20313356629783,1.21399471621532,1.22461594767847,1.2320743789132,1.23175136005469,1.29960157851587,1.30136878657273,1.31295521635956,1.31163007638652,1.41398022622394,1.38845481701351,1.47071431469118,1.46130261149101,1.45908718164313,1.45953932791178,1.47291992262924,1.4308613047044,1.42955483458906,1.42302172903371,1.41728646454946,1.41707724295358,1.41443487849609,1.41194572679221,1.40541843897724,1.41555192566608,1.41972446846783,1.41756876379184,1.41380024008039,1.42490042780839,1.42754259714027,1.42415320647405,1.42210266200984,1.42580004250843,1.42957858027631,1.42756823677987,1.42559720809538,1.42905509045758,1.43332403349545,1.44550862316083,1.46405152767943,1.45105607032213,1.4496645892931,1.45951374293987,1.45981684561802,1.4588725690234,1.4949795753072,1.45572300552059,1.45355525694589,1.46323473717762,1.47712263895139,1.46741305881217,1.4562828174805,1.45689195652149,1.45476857497545,1.45551759848947,1.45191837744068,1.46541426800308,1.46734361187377,1.49054415060393,1.52505875407292,1.51262181889211,1.52299832316803,1.50188489989764,1.5016205839071,1.49851875435393,1.49041263291513,1.4980357851907,1.49903229784913,1.512846522728,1.51333069987758,1.51424922033287,1.51277095850185,1.51355676221049,1.51250569747946,1.51344585825976,1.51399268117078,1.51506480236791,1.5168442522809,1.52012213228074,1.52312124325925,1.53856784046088,1.56564950682778,1.55049343692526,1.54530983868086,1.54794584503022,1.54857482758943,1.55835934331913,1.57801837562896,1.57724927060185,1.59186308670163,1.58801888746468,1.5848757645338,1.60771302967471,1.62821254801436,1.63008362018403,1.63903532300796,1.637010432242,1.63585880608562,1.63248467929413,1.62989840507654,1.62083143991171,1.60749803593111,1.62288034657739,1.62723540724308,1.63496827821009,1.65669303380459,1.64177159152642,1.63994224077251,1.63744925346658,1.63572081290376,1.66324884930854,1.69630349165752,1.6951063984817,1.69351029255365,1.450489741425,0.00357366999993069,0.101256162181973,0.00331305000001663,1.36383480774766,1.76697291804145,1.76388376525509,1.76273154675656
1.18635506526027,1.18631071961951,1.18632107833068,1.27416882912963,1.27719201297202,1.29601753387169,1.24029514220652,1.21498697845195,1.1644015228782,1.16086887344322,1.15487496754007,1.14884034042286,1.14524069402576,1.13020373687507,1.1300742290755,1.12982075100433,1.12965165063052,1.12944109454479,1.1132364447601,1.10097656410274,1.09009284000464,1.07849621509642,1.06134348234688,1.04864437974764,1.04985101958292,1.05340363650246,1.05456378402118,1.05651904221382,1.05755549022486,1.06015660338688,1.06361155388369,1.06726444740963,1.07083053818002,1.07444639909815,1.07623285749818,1.07719028684875,1.07716872516112,1.07840381555591,1.08278517660121,1.08245838988023,1.09060424344097,1.12267221968526,1.13672720233757,1.15623833711041,1.19163585102327,1.1961032302056,1.20285514296645,1.21863529992974,1.22383917040092,1.22669826199606,1.22800932388503,1.2627420430551,1.30247831680964,1.30894866754042,1.31041140419848,1.36259439008944,1.3754722122803,1.46821463522694,1.46403353743848,1.46234172869648,1.45855292278799,1.43367731311092,1.43183323335723,1.42947308848365,1.4258070562011,1.42081505375509,1.418340127704,1.41677609113406,1.41656707977098,1.41816765277431,1.41742780795731,1.41858713941424,1.420832230058,1.42306405967924,1.42361859338603,1.42372860861687,1.42333532668491,1.42339749517917,1.42723905240378,1.42958654047468,1.42995766729694,1.43093428166832,1.43135335225558,1.43258943908056,1.44780014415508,1.45977929813766,1.45488958061088,1.45328722927454,1.45914648202567,1.46202883394323,1.46143448847768,1.45910875917325,1.45592319786032,1.45528013413023,1.46008778619316,1.46042732485848,1.46282190920407,1.46056201002845,1.45829963494631,1.45662545842817,1.4560534144179,1.45609322331595,1.46020304025775,1.46350358907527,1.48818616333612,1.48717407821688,1.48667901646375,1.48811080993102,1.48960218979124,1.49087152855319,1.49525446740431,1.49599487369494,1.49863292273145,1.50147912320844,1.50704218341892,1.51109831158347,1.51154032942329,1.51213633360742,1.51254950133221,1.51359454052628,1.51331615642055,1.51400356405775,1.51434811309454,1.51713941414072,1.51994159741432,1.52190530793231,1.52922690204493,1.53255870973187,1.53639860870194,1.55037285050052,1.55062011140482,1.55145765554885,1.55556563612234,1.55932613013849,1.56414388002681,1.56894415648696,1.57393775683694,1.58125383099951,1.58658382002197,1.59033918053787,1.59700395566153,1.61081693747164,1.60889801642814,1.6077685976739,1.60866284579952,1.61027925534549,1.61268812269152,1.61642160180225,1.62087677030542,1.62978901924251,1.63204988764999,1.63418192795684,1.63532419601774,1.63611810418111,1.63664733943895,1.63619151578014,1.64386208055953,1.65194754948083,1.6611070465247,1.67364830139981,1.45047026961078,1.40428746195281,1.4042488741469,1.40419430146592,1.40415571186037,1.71320072889656,1.72015860129447,1.72646147162624
1.18623703326694,1.1855506025566,1.18611823074146,1.29588176421204,1.28490251824729,1.32273000142608,1.21380629447004,1.16841145749934,1.16729851631673,1.16583397205771,1.16781922021106,1.27723000054463,1.1513648661076,1.12891757666993,1.12865644629722,1.12747221118752,1.12740937772807,1.12550270146825,1.12553389745841,1.12496522748105,1.10467417372027,1.10103372582981,1.06681899784286,1.0470756563321,1.04871423906008,1.04861518101735,1.05116245538869,1.05022887753303,1.07091062955614,1.08023855428555,1.07856893899578,1.07703416829353,1.07685776577843,1.07557116873302,1.08048832751591,1.08873888555199,1.09076209797123,1.0918313728986,1.08496587536594,1.08021274730437,1.08097355138257,1.079340366423,1.135023412577,1.12693192973955,1.19075365004324,1.19477848163242,1.20265890881556,1.22958902932087,1.22548336549346,1.22271633178653,1.22504260382216,1.22380459792251,1.30294260828809,1.30337818911741,1.31058233107487,1.31815290125284,1.36409502775799,1.48172124437881,1.47585272365198,1.48058994053884,1.45597937583079,1.39364691231145,1.39840259894156,1.38947672752947,1.42859700174812,1.43363198800902,1.42538943677062,1.39513458496308,1.41840012019355,1.41921405696011,1.41679128951992,1.41483197355331,1.42844193479625,1.44925601937301,1.43351785455251,1.42066263559915,1.42167341247518,1.42095325658653,1.42979015908914,1.43181668805763,1.43167695654327,1.43335335272873,1.43258481357252,1.43299230092795,1.45080938974952,1.5037999971502,1.45502590740524,1.45053906543258,1.46103884433168,1.46703526962143,1.46568170010285,1.45029349882068,1.45309874792956,1.4518953885848,1.46203293790251,1.45893080444115,1.4631567192542,1.46359184335768,1.45947782885307,1.45698085588737,1.45640749853331,1.45645364378875,1.45614772369953,1.45216483457013,1.48659866738243,1.48663502268896,1.48500267151981,1.48049586826632,1.48279990466711,1.48331106361585,1.49628756982888,1.49908549783008,1.49992041800751,1.50066280141603,1.50314449906266,1.51021203941634,1.51015814720635,1.5095573421496,1.51185005793076,1.51453655980546,1.51295072990274,1.51366256174387,1.51188254225312,1.50233890587977,1.50331930316735,1.50005534137183,1.52651046134066,1.52857595333789,1.53045413215979,1.55517498755182,1.5523161272727,1.55065447739366,1.5490548136554,1.54779776974855,1.55423110018746,1.56215366958846,1.57006756308895,1.57997779160905,1.57796395291143,1.57617542973177,1.59599874105195,1.61058406177299,1.60841344073441,1.60656796095896,1.60469983932899,1.60349520902723,1.61047152042425,1.6212593343023,1.62133590847413,1.68164999902217,1.62964340006885,1.62719563277661,1.62417854624978,1.61977346340696,1.61833038339834,1.61564038144049,1.61533389254173,1.61214455290741,1.65386994638087,1.69047499559151,1.67368607656275,1.68823998954896,1.67478028708999,1.7087202247564,1.69369155793673,1.70401070926319,1.70304331713321,1.70266755443623
0.375197707855495,1.18602324443474,1.18620185492799,1.18612490291169,1.18593387412695,1.18544925046116,1.18442086399628,1.17161061331389,1.17070226683473,1.16948093245208,1.16962622432644,1.16967317392573,1.15658327730664,1.15034153466402,1.14179256902803,1.12721613050849,1.12703847978036,1.1262588093019,1.12540412194365,1.12240123366776,1.10736174950497,1.10448107678752,1.07389102630932,1.06753155279016,1.06882963413755,1.07046221797805,1.07219473341517,1.07429664607529,1.07698552361738,1.08011129010039,1.08293076111095,1.08473078881558,1.08609979384241,1.08881726240605,1.09131369645728,1.09022867735572,1.09086069646392,1.08815308040433,1.08424684450998,1.08134273592299,1.08335009387662,1.10678467939104,1.14095161680319,1.14341257552881,1.18947318528645,1.19028009732591,1.20257279689154,1.2278120986174,1.22581379466819,1.22506053427194,1.22545038156758,1.22536165671749,1.30255760967789,1.30228685735018,1.31049918225308,1.32261154762036,1.35455303346785,1.398266992126,1.44949994238401,1.44973004419939,1.45202018803655,1.40313665221175,1.40189904405964,1.40257189534647,1.43036616562737,1.43084841266358,1.42850434497233,1.42644362679548,1.42522871485763,1.42470402575978,1.42375555523118,1.42155429755649,1.43429439915449,1.44854113734761,1.44921487090334,1.44736107498594,1.44589235394492,1.44629362407268,1.44790661669299,1.44931799441653,1.45038409115465,1.45128271587997,1.45235811751938,1.45382739590765,1.45423160359053,1.45667319684081,1.45719495953719,1.45844308927339,1.46169957408981,1.46509312832591,1.46633272487883,1.46752650674979,1.46729227493166,1.46763609905777,1.46673504984882,1.468366121202,1.46694233249953,1.46811221803892,1.47032348321965,1.47315767557972,1.476226330232,1.47885717173456,1.48070565108569,1.48200293188836,1.48479362983427,1.48613577520471,1.48608578430864,1.48592189743044,1.48630488026926,1.48815660207284,1.49176202753822,1.49506574960735,1.49897210024253,1.50071455608915,1.50230947416123,1.50615846439009,1.50749637862592,1.5088076104052,1.50902686772474,1.50963176579658,1.50887044789475,1.50909670800956,1.50795813931531,1.50612121256357,1.50757862648137,1.51480590332616,1.52544480079637,1.52733957010727,1.52712238463237,1.55398570834196,1.55267310213609,1.55132502872265,1.5500291202225,1.54911889034195,1.54944212118912,1.5488898386358,1.54815754456778,1.54828573520062,1.55004965427418,1.55297919188118,1.55580949598854,1.56225770115882,1.56051700352298,1.14386823274047,1.14386822157282,1.14386821467082,1.14386822157281,1.14386823274045,1.6091471792764,1.63121029098208,1.629698003038,1.62738022984343,1.62463029153408,1.62184306341599,1.62005308214709,1.61864453979763,1.61903686353942,1.62159510629819,1.63095205237049,1.6374772535711,1.64324934776835,1.6466758811119,1.65234678220702,1.6574065320539,1.6579064488902,1.65824010928239,1.65772821506197,1.65782561646869
0.32868091830606,1.18610205712097,1.18615745656695,1.18592732221338,1.18600565219075,1.18629831141622,1.18407017227909,1.17569772815886,1.17377929901479,1.17227786140206,1.17096546897465,1.16923066878131,1.16200844752648,1.16010046369919,1.14872755702387,1.12734315687806,1.12705976094282,1.12667989935357,1.12640699189211,1.11594485130512,1.11462261338742,1.11481419573353,1.08183871199112,1.06627362936803,1.06852126337377,1.07048045144317,1.07973034558303,1.1037770265753,1.1027592149008,1.10335616813561,1.09921981465709,1.09820229875884,1.097791935585,1.09659482188033,1.09406397035325,1.10858315983245,1.09637448787595,1.10365021843177,1.083317402402,1.07801282202976,1.08766663590831,1.12273258031899,1.14330092963104,1.14426927088073,1.1874126535321,1.18670641510421,1.20251881702407,1.31931000106594,1.224755468223,1.22624719416106,1.22612696072175,1.22669589576236,1.30189485145622,1.30044135618056,1.31014281951305,1.32667032290856,1.34322606652463,1.34808022685404,1.44888031239197,1.44714435565121,1.449444914486,1.40438186129912,1.40314783778687,1.40315167810223,1.43136169920238,1.45913841118989,1.44622714179489,1.46205292393412,1.43847742525097,1.43922770949972,1.4291230971147,1.42084035621423,1.43929514587057,1.44569520676089,1.44881935457589,1.44956083471796,1.44759593428379,1.44578141919291,1.45458548980263,1.46785003092323,1.46599312894521,1.46461499129953,1.45982514374916,1.45523829245839,1.45598786212724,1.458908312045,1.45882075526145,1.458650203809,1.46257301952441,1.46421714298717,1.46710732615318,1.4684963512259,1.46925943635765,1.46847037084616,1.468473526901,1.47000055320983,1.46876182748324,1.47118661187398,1.47530185994296,1.47875822949377,1.47895798560616,1.47976177189943,1.480496201725,1.4802908189974,1.48398935894946,1.48678407463318,1.48743552461824,1.49024099222396,1.48887826463863,1.49185079958785,1.48782024344458,1.48339926877203,1.48089771559625,1.48053686107399,1.49452137744049,1.50407299597627,1.50592604861984,1.52630886303659,1.50731918491637,1.50580702585637,1.50532638265948,1.50499921716343,1.50631298694177,1.50636077060086,1.50668332900905,1.52221295293001,1.52191004574417,1.51798499474105,1.52198805515066,1.56711046761896,1.53208528681205,1.52033892614082,1.52336809306528,1.52782953557671,1.53539905564188,1.53995588483112,1.54231509811438,1.54624332421514,1.549338365523,1.55269125760155,1.55248589725293,1.56846285117772,1.55795428012221,0.00349281000001663,0.105995444885198,0.00379956000001653,0.106007330188946,0.00339432000001661,1.60588091391965,1.63228235715987,1.63018040936883,1.62836127730312,1.62537904272712,1.62349139438264,1.62140634899202,1.62097825665653,1.62019922220327,1.62365366828013,1.62302379851172,1.62481466131574,1.62294250485453,1.61994956785481,1.64956398711849,1.66098770902243,1.65924990325432,1.66001853481246,1.65883390009863,1.65940493350588
0.284457464322364,0.328680919272893,0.375197709419863,1.18602518245723,1.18579423599497,1.1850830863666,1.18334391600262,1.18022362319582,1.17705442887805,1.17430314046218,1.17299315815047,1.17085411233515,1.16735643887108,1.1651360807813,1.14904522089824,1.13926334094842,1.13168828718347,1.12649009888963,1.12649868544272,1.12171171167098,1.12062091034054,1.11122492347866,1.09088847459239,1.08828136595331,1.09195904126348,1.095381514577,1.09898916199989,1.10156931035653,1.1006042932788,1.09930485863083,1.09752099787337,1.09689119579921,1.09620192809339,1.09578653524925,1.09370947782511,1.09032182951404,1.08609465695883,1.08415103405504,1.08095396808257,1.07865875640339,1.09219100785635,1.1108472746293,1.14487575128298,1.14488488725528,1.18625444380735,1.18602020238523,1.2023358576593,1.21136895784188,1.22236248752923,1.22699173124756,1.23402179322229,1.25373327816234,1.30210707752412,1.30502588768508,1.30967186289115,1.31841047965577,1.3385134266312,1.38907499611345,1.4496145446635,1.44911697515117,1.44856934220279,1.4447517434295,1.44203814341841,1.43640513316447,1.43250685404786,1.43307024991707,1.43398332909972,1.43540058775808,1.43752488773238,1.43924755078415,1.44103954135096,1.4442646597186,1.44826412069241,1.44877120086325,1.4501411980559,1.45178896783679,1.45820331841113,1.46183552222933,1.46538165537818,1.46687842407739,1.46573298032807,1.4647407361954,1.46426845481739,1.46421070324101,1.46433489098052,1.46380979637729,1.46297229355897,1.46625314153661,1.46619982320946,1.46748137784785,1.46817546486033,1.46988244388699,1.47149206243823,1.47208017765143,1.47385245689332,1.47456264056354,1.4750108003083,1.47519689310967,1.47625716310711,1.4776844864878,1.47861070237679,1.48057898008158,1.48077090737911,1.48133719191198,1.4837559398446,1.48550569342099,1.4861116138153,1.48638704180186,1.48607735061513,1.48474512659078,1.4841763449206,1.48206262311009,1.48138037155624,1.48220865050418,1.48407116425792,1.48753939964228,1.49040951832127,1.49336553877487,1.49661078340005,1.49945549754091,1.50067248071639,1.50369594210778,1.50528662461176,1.50612218063715,1.5063358935853,1.50876878096428,1.51154491017935,1.51513197997906,1.51661186864258,1.51780716577891,1.51911166833724,1.5208832970976,1.52276209717455,1.52619831767279,1.52941019543767,1.54016606502078,1.54175536082878,1.5443181682763,1.54748480133344,1.54850789963184,1.54921627346015,1.55309521661629,1.55444753565449,1.14387163789553,1.14387162672788,1.14387161982588,1.14387162672787,1.14387163789552,1.58698923136909,1.58930808922094,1.59321045546071,1.59848347348332,1.60291531663777,1.60766543743541,1.61255699254068,1.61743628982631,1.61868157793568,1.61981269394478,1.62163700531916,1.62335733718952,1.62418804081743,1.62478783292032,1.64663620570114,1.64832702710965,1.65362066796619,1.65632822032533,1.6575088771795,1.65887969964303
0.247082185266667,0.00326086000001664,0.321705725242089,1.23358000051667,0.399611431636755,0.00337711000001661,1.18403056300711,1.18550659828052,1.17888458129626,1.17636150955597,1.17477604337539,1.17494556470493,1.17132357651226,1.1704544774954,1.17104290010333,1.23834000266414,1.19553417403497,1.21843981259542,1.15285260466956,1.15246194705075,1.1248859437131,1.10724041466029,1.1002754883502,1.08442762084962,1.09225935517401,1.0957993423386,1.10021632012989,1.10165685562169,1.09971036487055,1.09341080530921,1.09610274263987,1.09274226054192,1.09551096130732,1.09437055417071,1.09491958618716,1.07871853688298,1.08357720503576,1.07811267396966,1.07782201907496,1.07723333238057,1.09734704794282,1.10004388913941,1.1465215817795,1.14548133424961,1.18546470330897,1.18521759119979,1.20190036484539,1.2023136552245,1.21577884258819,1.23260003193479,1.24281105542774,1.26835970616679,1.30167686693628,1.30906526664873,1.30913651955934,1.31011708606155,1.33415468357781,1.45051119429884,1.45040092171423,1.4507442614057,1.45071110511682,1.45224304769395,1.44588326439624,1.44732447140613,1.42939083176071,1.4160630455354,1.42302460194574,1.42285473658455,1.4379075920371,1.46046135490665,1.45678237260249,1.45497356688904,1.45144350209032,1.45119317824234,1.45142567057854,1.45007121129112,1.46049852233424,1.46417883084884,1.46645316545097,1.46879062125939,1.47330471494827,1.48809958731107,1.48448912571953,1.48025160403638,1.48041821922825,1.47922283915478,1.47478450390215,1.46823025404673,1.46829850379449,1.47073998939822,1.46922131416952,1.47093842648388,1.47551905705085,1.48041761421234,1.48282324152513,1.48298603587023,1.48539798378301,1.495579503961,1.49468981572013,1.49475076843642,1.48959732348779,1.48357970162389,1.48104896183643,1.48028071405481,1.48406832080927,1.48492284385505,1.48528656320648,1.48227647486986,1.48453242677596,1.48117046803181,1.48237482986848,1.47810785102662,1.48101209649276,1.48128028547041,1.48216381674421,1.48090845823478,1.47977723496802,1.48030823521931,1.48879806382802,1.49124587826548,1.49468317249076,1.52465365469097,1.50589191207468,1.50547749536737,1.50447546641916,1.5050471088013,1.50594456938699,1.47882010879638,1.48634080617291,1.47853489233779,1.51886976402278,1.52108733982211,1.52089858807686,1.52017093164579,1.52578941368119,1.54065370926045,1.54063411440836,1.53783197465582,1.53502563440686,1.53602677254406,1.54648387352055,1.55480583325424,1.55255324060137,1.56886925579552,1.5501904139979,1.55141852442775,1.55157251851174,1.5922812386736,1.58619781272403,1.57994489149815,1.59120615705719,1.59958837699823,1.60074937087859,1.60066218886999,1.60843612558497,1.61785340554378,1.61650680894469,1.61695595342229,1.61979648873504,1.62370578124151,1.6253208042372,1.62825308207989,1.64560648929549,1.64591284744285,1.65493527813783,1.65429503711211,1.65524192353302,1.6512801571019
0.230344852141559,0.246900154895522,0.275348337719932,0.313153270355478,0.353587671847262,0.399611431636755,1.18380580335513,1.18309334923876,1.18031691494779,1.17774860557397,1.17692275443203,1.17585797007609,1.17408369643331,1.17245971604722,1.17126537856258,1.16915436181042,1.16729565990877,1.15832586726924,1.15269490452569,1.15285852292816,1.12858831308054,1.11419708116582,1.11330259418066,1.10967919307907,1.10826335821385,1.10720658428915,1.10416414656832,1.10309507877845,1.10008046612702,1.09788520623129,1.09637896780563,1.09621071001107,1.09431846053285,1.09410515651219,1.09404215290551,1.09446746834339,1.09196943730212,1.09460442853514,1.09613658780866,1.0961094587757,1.10058693670416,1.10184262155055,1.14996436906703,1.15629101714488,1.18474146674263,1.18995879693299,1.20076579058742,1.20193582314119,1.21014421940606,1.23521189278197,1.25242940307414,1.28438968402014,1.3006729463121,1.30775336027986,1.30828675283925,1.30893906756489,1.33052689866307,1.37667021622973,1.42941603465022,1.42907402362882,1.42910423252321,1.42887482874958,1.42684167792444,1.42641316441041,1.42479146225024,1.42077271151967,1.42313422469531,1.42395802859815,1.43909649356081,1.45768921704377,1.45465584058126,1.45266676631562,1.45119378081684,1.45054303493488,1.45500626817272,1.45753421805042,1.46128437962872,1.46322954139802,1.46830321772318,1.47256857872678,1.47656679226842,1.48417390814433,1.48508014653667,1.48316057359593,1.48139895690308,1.48011239672557,1.47954445556309,1.47891228828709,1.47857641282962,1.47887915474091,1.47995454185423,1.48047928593051,1.47934017939761,1.48188291463111,1.48491476075976,1.48839239738496,1.48930426427424,1.49292255171776,1.49335484848123,1.49324548543905,1.49265654085286,1.49290450218544,1.4932212142088,1.49157990049366,1.48802219025567,1.48692202961559,1.48727893000548,1.4891161720732,1.48760444470022,1.48582589577142,1.48440362434449,1.48118689574904,1.48108763291912,1.48215089199465,1.48156080400378,1.47890677039353,1.47857778692357,1.47997372221486,1.48536322927436,1.48788341449479,1.49067900911062,1.4920271553436,1.49332813209078,1.49615358753142,1.49984084644187,1.50399391846425,1.50601709713733,1.50717722616179,1.50775690597282,1.50775398880023,1.51587749765673,1.51857523448305,1.51940735972933,1.51983832716889,1.52187752503652,1.52385314727459,1.52690106215894,1.52965801331651,1.53227089816033,1.5342543580025,1.54483916620814,1.54688525501729,1.54815454734077,1.54733121037874,1.54905896811558,1.55067006650268,1.55150700978416,1.56362247042138,1.56809277560401,1.57331972716035,1.58534949019768,1.59269826639711,1.59640483851028,1.60015860597961,1.60570531865706,1.6101556500287,1.61321039755911,1.61428764132897,1.61837540585387,1.62358807465487,1.62561838896368,1.62693288047841,1.64512657430615,1.64975539453762,1.65486209157506,1.65634561833938,1.65794204238744,1.66043583604908
0.142181840247291,1.19175000000001,0.14666974095122,0.00310525160429953,0.198468056891718,1.18632502640371,1.18412790744036,1.18366450901055,1.18040253865127,1.17940522164518,1.17758196479024,1.17988066620731,1.17518644619972,1.17497024422866,1.17153960868032,1.16934372990722,1.16574298737795,1.15134247250578,1.15184316308501,1.17399863417213,1.13169344328674,1.12172896568482,1.11410408645396,1.10639785213291,1.10715080354576,1.10690979805057,1.10632761360291,1.10426008869698,1.10154061801054,1.09741503661941,1.09836398059736,1.09611729745521,1.09453763784975,1.08901603156683,1.09354261031227,1.09453029683499,1.09546205457238,1.09510732223456,1.0957669059448,1.09601212297413,1.10318275619028,1.10554170269972,1.15424773127237,1.16599000341474,1.18342713584083,1.19453822258101,1.1985115110021,1.20239349584483,1.2056883764719,1.23791767434697,1.26222888341587,1.29687051234594,1.29972995107817,1.30522062550046,1.30711087960206,1.2883757482875,1.32536800338337,1.31865488441662,1.42494080212639,1.42982589282963,1.42997230308561,1.43141077604918,1.42664801003319,1.42094867341832,1.42141351467,1.41987552015777,1.42479208217976,1.42612914099396,1.44104387482231,1.49100995322944,1.45136517400108,1.44959376799967,1.44997677024866,1.44463641254253,1.46057571952478,1.46467673174078,1.46378305706737,1.4643671334497,1.4759662430326,1.49270544863133,1.49168762215161,1.48848651621193,1.48759688836099,1.48670606718071,1.49087072918687,1.49241189840035,1.49268507845824,1.49295689234168,1.49149859642563,1.48920117347173,1.48509880807565,1.48086180580532,1.48053148456377,1.48339658870307,1.48816234512296,1.49156929152955,1.49153796538078,1.52864550470323,1.51148197330859,1.5104509922131,1.50972197651204,1.50780777800211,1.49528389551848,1.4925619759131,1.49332250966908,1.51524982217782,1.49280647621388,1.49232611289748,1.49160818527664,1.49182242630115,1.48880505955285,1.47997346792911,1.4810310530927,1.48388568199867,1.48326690519728,1.47556145130139,1.4761845335116,1.47604157583672,1.4844414254455,1.48397522571708,1.48825366906561,1.48523757130196,1.49206059813596,1.48926874472727,1.49463957368426,1.48612129130531,1.50600589798765,1.50669544968495,1.50736537997295,1.5072039517332,1.50934161260494,1.50452565895322,1.51768696130336,1.51820027533005,1.5180870740216,1.5154344941256,1.52801507530321,1.52739864871518,1.52952593829953,1.52805557253785,1.53967173216572,1.54770484149826,1.54663025697263,1.54559557681297,1.54781424107887,1.55096545109677,1.55170406399261,1.56057858771683,1.5586268404077,1.55848946272862,1.57759854742665,1.58813394853652,1.58251184484779,1.57819995009921,1.59593540832084,1.60855977801121,1.61118594774611,1.60977004271943,1.6152857836645,1.62694319241661,1.62582629742632,1.626732530501,1.6439740254845,1.67010193745303,1.65795738404651,1.65897960421652,1.6596954204185,1.66149498454914
0,0,0,0.00206961407014064,0.149658634847726,0.198468056891764,1.18316931961823,1.18204224250407,1.17967088982674,1.17738749402218,1.17647123450706,1.17549110362284,1.17394097841233,1.17227093726014,1.17132881620724,1.17095974768873,1.16158126818745,1.15227299368177,1.15131829082918,1.14743936066247,1.13612507346189,1.13170584969757,1.12827252217429,1.12487479697093,1.12078064336507,1.11540013283015,1.10934911515868,1.10259583455419,1.10104150522611,1.10017376878411,1.09871473616267,1.0956061107402,1.0932806328684,1.09256645476778,1.09271424171952,1.09504119750487,1.09906718357786,1.10329163351507,1.10660679062663,1.11056804864645,1.11189471229272,1.13625847078139,1.160057167653,1.16962179274739,1.18158969177496,1.19719762209047,1.19879103610796,1.20035800333309,1.20235415695528,1.26065175924788,1.27134584075226,1.28686032385063,1.30144182469667,1.30986152866768,1.31377182572125,1.31735762619705,1.34505351683841,1.35516769021255,1.40001653362364,1.40203005459434,1.40493269544193,1.40771597314516,1.41121011563567,1.41781379763537,1.42035866342562,1.42510013122055,1.43040466859454,1.43600072198938,1.44408505568789,1.44826795914046,1.44988921811141,1.45358270437061,1.45424844559741,1.45786294603643,1.46154838107281,1.466341373614,1.4718040985879,1.47791881519644,1.48613033494929,1.49292680471218,1.49260998230764,1.49039482679569,1.49200863520119,1.49417301668453,1.49385450850936,1.49202288709695,1.49234415253725,1.4926805398834,1.49253810483668,1.49332904227404,1.49380150423399,1.49436736026014,1.49520825297328,1.49514196272987,1.49351904124436,1.4938628689156,1.4939193616593,1.51344319539562,1.51197860174717,1.5108811380589,1.50938476021017,1.50684856557088,1.5007918953553,1.49532619443501,1.49385741689758,1.49364712830728,1.49415407333235,1.49503804957525,1.49400046872099,1.4933476400208,1.49154100186724,1.49065409067026,1.49119753764594,1.49267612883712,1.49153660837698,1.49134317969518,1.49269600433959,1.49500423352065,1.49485027218894,1.49362926252885,1.49379771514248,1.49624074829576,1.49624280347552,1.49731277070759,1.49905264419457,1.50214511137886,1.50454283726664,1.50574319328249,1.50720618853134,1.50836073524958,1.51048967539378,1.51236673668956,1.51506855590947,1.51582168825041,1.51794080386736,1.51939400976894,1.52714314930725,1.52859054455886,1.53047116696653,1.53086853031436,1.53520704028721,1.53747502268968,1.53993808527048,1.54371149722179,1.54665384931031,1.55064855594999,1.55280740382391,1.55595091437933,1.5570936867415,1.5578774414617,1.56945364735627,1.58470017603917,1.58147192117428,1.58000741291501,1.58668616099394,1.59148209496701,1.59599918164704,1.61087247262696,1.61253891351454,1.61778678569159,1.62335142686679,1.62560053717144,1.64208662447122,1.6654095812511,1.66095146026334,1.66006385122774,1.66075203682648,1.66247078638132
0.00121547676609876,0.0023396136853178,0.00183175003726828,0.00307242101146082,0.100910726793507,0.0033665699962159,1.20367330715878,1.23221250608054,1.17824285793175,1.17534842040274,1.17388169556567,1.17389165886335,1.17095724488982,1.1699336816627,1.16877024643762,1.23340000276493,1.1577792875981,1.1559235366557,1.15329063655502,1.14429194626767,1.14217578886099,1.14303887946599,1.14018968485132,1.13493200643662,1.13610018579223,1.13503941025513,1.11366018249178,1.10094395960656,1.10110901269964,1.10110451986501,1.10203361953022,1.09145830119202,1.09220088763324,1.09179604169034,1.09177938215241,1.09222825843321,1.10275775048077,1.11545586703363,1.1148336308165,1.11313945116143,1.11302081475862,1.17119225529672,1.1667808417784,1.1730301209856,1.17987575796678,1.1987671723371,1.19943998210951,1.20052751671119,1.1997702333123,1.28172537645057,1.28046526129544,1.27711251820763,1.30313219716274,1.32285952429747,1.32188758496146,1.32072024630292,1.35615814141686,1.37554098933132,1.39902238852301,1.39951945746248,1.4056766795933,1.40811860829031,1.40957790184692,1.4103953580726,1.41877920621325,1.450983701476,1.43900317453519,1.45392704608928,1.44911828783399,1.44784228511606,1.44718159238448,1.45954271262905,1.45556285477149,1.48670658197646,1.48226483482774,1.52718989713337,1.48983128857727,1.48475502304489,1.48945089893437,1.49414530553334,1.49505000173248,1.49982983490198,1.49553553972893,1.49680805104861,1.49825257262626,1.50269770466269,1.50447465208218,1.51702122333845,1.51648862667145,1.51534335787886,1.50674615944041,1.49672366420008,1.49537189749955,1.49547464424321,1.49713458291746,1.49675463307807,1.49737995708226,1.51458763693284,1.51151919388829,1.5115641860552,1.50919542823409,1.50879044398753,1.50582711134224,1.49507521156152,1.49444745362757,1.4958992808092,1.49694737622137,1.49899588308238,1.49702084277588,1.49525988489162,1.49930917899497,1.50337789797347,1.49982308884962,1.49594408528619,1.50174386976405,1.50793561881509,1.50345164602442,1.49739399450353,1.49939611176691,1.49991870405724,1.49696758848848,1.49686888017076,1.49924144416391,1.50473591312207,1.50220783166878,1.50249354352308,1.50385390686925,1.50424498157211,1.51223101989449,1.59580000236635,1.51553641104213,1.51413397091337,1.5143244224807,1.51234266550826,1.51895688371053,1.53409945890656,1.53057895627084,1.50933412248722,1.53106015325528,1.53249710909093,1.53201622168504,1.5310402702061,1.5311058097924,1.52643015742019,1.54446384856205,1.55312796612232,1.55182932469833,1.55432904495622,1.55544673058582,1.55820278035613,1.56189464608091,1.62970999950101,1.57881942912686,1.57534297790275,1.57782744393378,1.57982096773631,1.58312284214288,1.65345999610982,1.60663398448757,1.60432367853536,1.60258369134774,1.60352813236663,1.6399139556566,1.78766000000001,1.64284059451718,0.00367128000001656,1.64020721437196,1.72094000111348
0,0.00171735162026646,0.00911441449448436,0.151138168408193,0.199980356336164,0.248825958697912,1.21280916733964,1.2214168029966,1.17704934266641,1.17233312100593,1.1710987548807,1.16915991948777,1.16751875558145,1.16585759445108,1.16457392248422,1.16142885045942,1.15683756525126,1.15340499965181,1.15156617750061,1.14736058652553,1.14589996960014,1.14495891706857,1.1423846716405,1.14109929498855,1.13829529096023,1.13692536889823,1.12171651202335,1.11807503069213,1.11550350378566,1.11331042345284,1.10964172515135,1.10703904928695,1.10796870064181,1.10876045919443,1.11057834446116,1.11062994359718,1.10999700525861,1.11318392683205,1.11432421427289,1.11433209434881,1.11401739489542,1.14655671798387,1.1549120720911,1.17701896931449,1.17890248981262,1.18609997192638,1.19020843082269,1.19412355471859,1.19672166677358,1.28407513001364,1.28329549373798,1.28953260568506,1.30393518104051,1.32832225194483,1.33206137407736,1.35063939302232,1.3669833503165,1.37818029556083,1.39875086211181,1.40017381826457,1.4032041626004,1.40558991047011,1.40981457103217,1.41378194801421,1.41758898363697,1.42086056713884,1.42550458793477,1.42976389580386,1.43480122618112,1.44087126705263,1.4443125748514,1.4464376088557,1.45133884084683,1.47206031412954,1.47805144263165,1.4997411415622,1.4968488043607,1.49420549782603,1.49216488082488,1.49356352557176,1.49491487701112,1.49634495818529,1.49555019457905,1.49647818779543,1.50000137906914,1.50327776269514,1.50528958762666,1.51636718824332,1.51767586057517,1.51743662333674,1.51688282240328,1.51350552396347,1.51034442589388,1.50745013503151,1.50266380213683,1.49897014205525,1.50257527906332,1.50818238358791,1.5082489398514,1.50735785452018,1.50720549036141,1.50779280349499,1.50652360545208,1.50194784603375,1.49929818960193,1.4982299886525,1.49843370144913,1.4992316599653,1.49884659281945,1.49870217799797,1.50006873279138,1.50277333160338,1.50433597570128,1.50459608422617,1.50489789920939,1.50588927460148,1.50520311265497,1.50541336341776,1.50304253112742,1.50143698702273,1.50085062558846,1.50141238973846,1.50310447835702,1.50561442649519,1.50894668262813,1.51211509639552,1.51507255976153,1.51698866578834,1.51796589076622,1.51977349191997,1.51811906762577,1.51659560195215,1.51590017825477,1.51683606333354,1.51988031263774,1.52319701160775,1.52774461272484,1.52877428384969,1.53120825925485,1.53127056138263,1.53394020558764,1.53354771132069,1.53722244661758,1.54101889568833,1.54388967455672,1.54505300296047,1.54857281682511,1.55006543623314,1.55336025020552,1.55649005648775,1.55758410660597,1.5828171548376,1.58017656598107,1.57804216956541,1.57873571618029,1.57986827871367,1.58048775560823,1.62721351901941,1.60343464463252,1.6027043873193,1.60114966202019,1.61921365319038,1.63795553976045,1.63649072806633,1.63575426530789,1.62917716331713,1.62550190032401,1.6214416116279
0,0.00274656528318757,0.00935024196136801,1.26156000000001,1.23059826744718,1.25453999973223,1.23418199045499,1.24825988081085,1.1761985918992,1.17080765409781,1.1680909699439,1.1651442922321,1.16462247626262,1.18576269348383,1.16228338591403,1.15443290906646,1.15387298193926,1.1510654105361,1.1504410431983,1.14976887911617,1.14784941713371,1.14893662228762,1.14793551561266,1.21037999828287,1.18478217622989,1.20391985382317,1.12602041635641,1.12875278053928,1.11691485602211,1.11412140073651,1.11087650443421,1.10390446033429,1.10876871312693,1.11222682349785,1.11165708872222,1.11110860179094,1.11076336365005,1.14116017644888,1.11440489374303,1.11570799521408,1.11501790416586,1.13934170682394,1.14933048150088,1.178953284005,1.1799205253208,1.18157437034055,1.18262420394498,1.18224534037219,1.19614070504789,1.28694316663754,1.28521146075671,1.3028106346911,1.30371325485207,1.33285030929911,1.33521814668968,1.38283455631044,1.38194182754595,1.38079010839889,1.3981396821706,1.44840999773473,1.40142876478986,1.40168501622847,1.41097306789894,1.41737969218645,1.41793937231563,1.41902702942508,1.41943573178369,1.41940363386671,1.42999526844075,1.43190189255958,1.44294938416181,1.44477198347356,1.44319325994536,1.43986677177691,1.47415475713628,1.50300685595821,1.50605834181616,1.53053019518691,1.49208083069125,1.48151907800164,1.49488134757284,1.54430996682385,1.50783286373484,1.48742179134587,1.50179683440392,1.50451875984521,1.50719222212932,1.52564070353392,1.52113161209633,1.51975222123569,1.51813470811187,1.51700434086451,1.5176142132592,1.51650094590892,1.50660419772264,1.494861876765,1.50601645517953,1.50851711702418,1.5059480022461,1.50297636558917,1.50426527406204,1.51886171938001,1.51053702609776,1.53300081660296,1.51479118966183,1.52877046805159,1.5002609899077,1.49980344217657,1.50113940970709,1.50029068857861,1.50654306745202,1.52833701959018,1.5170967166391,1.51131507073397,1.50727434894024,1.50544767830629,1.50627651807613,1.50835044565368,1.51482586211198,1.60396000158625,1.56849166912643,1.58916018243331,1.58052524577384,1.58793812528153,1.53728938342967,1.52098285076533,1.53142045913613,1.55427605977748,1.52878968887406,1.52240928879438,1.51972841715325,1.51803175977726,1.51677185220073,1.519489669958,1.52054495731071,1.50845263973452,1.52738355416052,1.52810476218274,1.53063704877636,1.53187830662394,1.53370450361741,1.53924030394855,1.53725785853685,1.54335652832283,1.54108965724511,1.54430845821716,1.54440151398955,1.54698311843007,1.54508363057107,1.54368553264665,1.54769929412362,1.58585990944718,1.56960764043466,1.56194700872388,1.55773695500938,1.55755335675515,1.56911647403614,1.6420421292948,1.60135163596002,1.59953632110076,1.59967538103562,1.63997091143964,1.63794306916474,1.63624880800974,1.63504041474445,1.63337924299671,1.61099546573233,1.59706594303814
0,0.00970121598806905,0.00982358977816578,0.198827280288582,1.19624289546471,1.20455938623032,1.20544139789425,1.2062168807954,1.17583262319795,1.16708920332003,1.16607867242948,1.16376543210388,1.1620804332141,1.15959561815485,1.15915776128923,1.15623221037645,1.1548705048279,1.15284289904594,1.15198063761804,1.15081388156526,1.14860086021645,1.14718695741505,1.14732988434683,1.17869439991946,1.1676924178401,1.14939563773797,1.12694902988127,1.12654645173295,1.12053198154371,1.11887214699502,1.11765040238848,1.1151804652146,1.11108646069367,1.11143632008916,1.11158764946097,1.11263770011523,1.11124123633407,1.11113832404729,1.11277453179375,1.11681651788458,1.11577084982888,1.12935576255907,1.14447169495304,1.15285595581629,1.16936752174534,1.18271391913921,1.18395221339353,1.18721156498927,1.19544777887656,1.24711562802125,1.26275254022471,1.27499683473138,1.27691275404952,1.33390497937592,1.33966789106679,1.38743161317982,1.39149928000536,1.39510313925048,1.39894845328405,1.40035742994895,1.39962328425424,1.40076686206592,1.41197495144112,1.4143246729178,1.41613928957652,1.4184408760436,1.41988461344034,1.42253703318248,1.42917354384724,1.43344590779092,1.43856253516462,1.44153876208041,1.44597309010481,1.44907108699938,1.47067539980942,1.50680209913243,1.50868701101938,1.51362323941367,1.49382630071738,1.49559679080553,1.49514957074232,1.52599934639321,1.51483239352257,1.51100383197474,1.51014066213427,1.50860666286646,1.50859010728908,1.52470069914807,1.52178166595506,1.51994752252104,1.51822342517425,1.51733539580353,1.51692993021608,1.51549118995006,1.51138980850337,1.50842136397731,1.50616447921807,1.50566304105164,1.50478872945965,1.503553395019,1.50334759280911,1.50314517069218,1.50524975571939,1.50413704232565,1.5017591267145,1.50169105913532,1.50210644737028,1.50332681452471,1.50530645784472,1.51197763489428,1.51883629989531,1.52407173757049,1.52341698605894,1.52732401254988,1.53032479009253,1.53220649356115,1.53269991988571,1.53292637958681,1.53275018940439,1.5331204130854,1.54186537745766,1.55619213389195,1.57114887278161,1.57903266849349,1.55759383938641,1.54984632641193,1.54722122723365,1.54753641988783,1.53307688452055,1.53187592363536,1.53301094620562,1.53190541768981,1.53142362701502,1.53076931009164,1.53132971251118,1.53275793503786,1.53447292453331,1.53564788434956,1.53481617730318,1.5349476431748,1.53763811478719,1.53673105875889,1.53919281495215,1.53800949260577,1.54117687401772,1.54093080283624,1.543305886685,1.54282821635559,1.54322814889764,1.54201423330483,1.54236050788027,1.54516009354118,1.54807279001234,1.55042946604979,1.55381992527057,1.55617984630439,1.5612145941562,1.56460564993087,1.56772871244936,1.5727138993049,1.5788595831223,1.58796510914429,1.58840482620791,1.58863592828352,1.58971974927466,1.5914032910746,1.59341809493378,1.5957286281225
0.000394732866243925,1.33113000000001,0.0106917615621481,0.00365656000001656,1.19338916916158,1.20728769760669,1.20674741424091,1.20787454022568,1.17624560667724,1.16456557598278,1.16502963782965,1.16303682912341,1.16005896161437,1.15835048700149,1.15769164762994,1.15791055580422,1.15544035222998,1.15618745344099,1.15245769111435,1.15521005925896,1.14712475867647,1.14520584376869,1.14643403631363,1.19635051362541,1.15680536142642,1.11576193225044,1.12846192721814,1.13055153333154,1.12802806314223,1.14401729132897,1.11842651910913,1.12015647070274,1.110333091974,1.11003128840455,1.11137210734359,1.11576618675984,1.11076829913281,1.10854376480603,1.10927507791526,1.12144116380117,1.11596052031356,1.11384142807196,1.1384544123634,1.13993220986695,1.16127983427097,1.18172899601455,1.18349532500552,1.19388711629528,1.19470930650633,1.23485204647779,1.23874303535191,1.24264405038927,1.26753328557853,1.33497996185684,1.34583966430353,1.41532395131801,1.41354147719685,1.41347113532075,1.40240693421124,1.39044694792601,1.3948199041754,1.389464179485,1.41117768251293,1.410360643911,1.41489969279127,1.41611938685396,1.41995137318865,1.42385627513546,1.4274744642852,1.43325585736022,1.43626737188991,1.43641650017302,1.4506712651623,1.45172908511158,1.46762768888384,1.5093306644632,1.50845458987606,1.51772699555909,1.49555240044454,1.49764671706037,1.4951451529698,1.53675537180876,1.51939841800263,1.51043484085029,1.51122260600198,1.511799246677,1.51011377462469,1.54235796647772,1.53134704961638,1.54417381936156,1.5171818660861,1.51680580824905,1.51661098262603,1.51630702261254,1.51532628143087,1.52168165542979,1.50479681041307,1.5039503912944,1.50409161164461,1.50334843638317,1.50344534125909,1.50331685751017,1.5034117877742,1.50164890303412,1.50171983538881,1.50105231383313,1.50336096044213,1.50515824699117,1.50573773443297,1.52929928501972,1.52087035727806,1.52340667711814,1.52521833434797,1.52738402056393,1.53069448776991,1.53268698112198,1.53438734687383,1.53403496916548,1.53183479588496,1.52597217398311,1.52628025852336,1.52664743690298,1.54920179218001,1.59034005919247,1.56609503200962,1.57673055960709,1.54665559987536,1.54603776224702,1.53737223169252,1.54040961488724,1.53581359983751,1.53105048726081,1.53536093721558,1.53856011916604,1.54078756714619,1.54314571599589,1.54371928141005,1.54214486793558,1.54345766624909,1.54623864232439,1.54023366065467,1.54155459065082,1.53698703670392,1.53871355289038,1.53799693448507,1.54297379671831,1.54029540029666,1.54208782852207,1.54049230452281,1.53989726924125,1.54056755331,1.54049710082044,1.54278390665217,1.54663471764259,1.55161550943712,1.55787995391325,1.56203859480009,1.56475520129887,1.56375836930459,1.56168948157504,1.57660117642418,1.5922902558275,1.5895066006512,1.58830897742985,1.58785708477653,1.58723325829542,1.59036277750513,1.59374023355206
0.00193237542469283,0.0114986773231703,0.0120414542590346,0.199111074840092,1.17903931936452,1.1804328540428,1.17977711906034,1.17824216351879,1.17787403621884,1.17892175554142,1.16731161506741,1.15881001381318,1.15814075397517,1.15681144738019,1.15693694320934,1.15674289413243,1.15515386712681,1.15363743890225,1.14891994144038,1.14541331381,1.14460327645146,1.14209188792663,1.1351941134423,1.13280810309488,1.12952539588363,1.12782771027411,1.12682995743385,1.12846638149711,1.12848939743164,1.1336604063585,1.11772347424384,1.1147273864877,1.11131263227753,1.10961745286346,1.10742202239933,1.1068815459468,1.1065764597466,1.1068013019984,1.10755027099304,1.10988117996006,1.11178216678755,1.12030466770518,1.13744942824072,1.14278084899067,1.15301320197529,1.16346191467226,1.17209654103888,1.18036707739596,1.1854873790696,1.20726268084566,1.22000213489526,1.23049761856742,1.25448011390578,1.3527350004498,1.35382898064809,1.39628571621729,1.41161580484415,1.41063400375045,1.40637940383699,1.4059728324677,1.40573999729307,1.40916690685305,1.41097384635019,1.4129020353469,1.41368485024806,1.41499631334127,1.41693858321231,1.42013499867732,1.42227541535435,1.4370656232809,1.43646813908072,1.44450921087974,1.45454682312205,1.45546989491507,1.46489962541687,1.46769179264945,1.47768875685006,1.48026742340248,1.48328430801484,1.48601649287263,1.49095538532442,1.52972386380421,1.52497791919536,1.52028183405242,1.5144961108085,1.51250936978613,1.51057874447728,1.51085869479832,1.51190589594127,1.51338791280542,1.51636990088085,1.51796895556126,1.51599185073531,1.51438688143181,1.51148199140253,1.50705961898424,1.50514074690341,1.50468772062815,1.50435490734904,1.50376226641004,1.50345653046545,1.50341924706823,1.50296492697577,1.50253476060564,1.50246422313276,1.50314420815515,1.50377930743761,1.50534110877575,1.50678261727125,1.51005726191823,1.51483886780638,1.52472842486667,1.52671128648664,1.52842152721534,1.53043941205841,1.532217514219,1.53512381274645,1.53585882566658,1.53427911317538,1.53072747491796,1.52736958612254,1.5279104654646,1.51894630564458,1.14370928620905,1.1437092750414,1.14370926813941,1.14370927504141,1.14370928620906,1.53661859058031,1.53679483142162,1.53855700422664,1.53915999581668,1.53972066758925,1.54014618286085,1.54065509569938,1.5424523051798,1.54477009214043,1.54397004673873,1.54460351239775,1.54348874126222,1.54244889253469,1.53929602691512,1.53906243436193,1.53643653842836,1.53852709924147,1.53783583680059,1.53930357364292,1.53832887888618,1.53954418600801,1.53942924787404,1.54043814901448,1.54109699550116,1.54237920297473,1.54440721497671,1.54692377155986,1.54827311932021,1.54996035783197,1.55408225488904,1.556412989577,1.55893055617087,1.55879895194993,1.55858133293626,1.5587107659541,1.55983680043088,1.56228684829156,1.56580388037993,1.56560606445001,1.56465853340426
0.00292650283480188,0.00341477166149115,0.0144209569209249,1.18158389069022,1.18087645758378,1.18324034456946,1.18109335884394,0.00363822000001656,1.17919658182838,1.28529000074226,1.17056471060636,1.15438187129766,1.15649576608022,1.15506158071845,1.15573196128739,1.15854847855531,1.15330809165407,1.14063936702266,1.14303705023636,1.14125423102441,1.14276626397471,1.14286916939049,1.13044797789801,1.12667716727076,1.12795447940673,1.17598995946037,1.12271754854891,1.1000215968216,1.12465692047083,1.13915628775097,1.11970667467612,1.09034393733402,1.10221764448626,1.09508321699246,1.09910678219617,1.09749456521377,1.10212843916498,1.10291802908103,1.10449891758235,1.10395849017464,1.10897260996966,1.13434466047967,1.1369264094491,1.1454973768787,1.14599816144991,1.14503429598768,1.16614368581408,1.17507334156177,1.18540458847663,1.18649645700109,1.18388244391338,1.18251669923047,1.2409535824278,1.37729013054802,1.37553703409718,1.37491325576814,1.41048565303036,1.43639976186887,1.40617422178946,1.40470985586753,1.40713921463878,1.41031515933306,1.41181975991265,1.41477105069385,1.41367147869216,1.43433135698575,1.41516810199989,1.41616095036791,1.42025890216142,1.44012699895785,1.43720400713874,1.45506585066268,1.45696694911293,1.46017131622469,1.46253745905608,1.46270278991379,1.47558546616812,1.47970218402407,1.475869515327,1.47395264736945,1.48440627351771,1.53368624535969,1.53098301768342,1.53499107685378,1.51398904017604,1.5139030821534,1.5091443483328,1.51110359135085,1.51260082758029,1.51255344326396,1.51710187156976,1.52234601538806,1.51471383453449,1.51324117270094,1.50962714906797,1.5053787005459,1.50499550594325,1.50534684268275,1.50506163966797,1.50363475061286,1.50311630924523,1.55948999979796,1.50238431101927,1.50227387071311,1.50276186726077,1.50374035546803,1.50407401315334,1.50476162315056,1.50704275422615,1.50910340154793,1.50996788581763,1.5288772582999,1.52867028185877,1.52892156829706,1.53066530756806,1.54202760830776,1.53791753208629,1.53915512646264,1.53770889038803,1.57761999654227,1.53999530730627,1.55480929543385,1.51633484770293,0.00320603000001665,0.105741272356892,0.0034559500000166,0.105736237019067,0.00325187000001659,1.53487646373128,1.53057053871041,1.54224839108789,1.54908726560747,1.55086642383578,1.55249869969457,1.55297019018063,1.55194779431173,1.54739435936113,1.54511548492713,1.5448525376378,1.54535553532058,1.54231344340525,1.54211419725204,1.53831885074458,1.53627796614419,1.53677928345585,1.53712374976954,1.5367195144473,1.53630611223656,1.53788360725062,1.53906043007957,1.54002883284909,1.54099264738506,1.5414766081336,1.54120590471789,1.54303516486034,1.54118829261287,1.54853521653652,1.54938654921889,1.55089738692206,1.53945745928102,1.5384823301368,1.52403949413888,1.54444658577145,1.54767061944696,1.56055014849241,1.56990061522606,1.56648022315702,1.56358821942887
