1.18312,1.18298,1.18392,1.1794,1.18012,1.1803,1.17338,1.16853,1.16653,1.16648,1.16996,1.17959,1.17011,1.16434,1.16404,1.16006,1.16042,1.16219,1.1654,1.16799,1.16676,1.1597,1.157,1.15821,1.18529,1.18746,1.18787,1.18938,1.18697,1.18312,1.18413,1.18098,1.17962,1.18481,1.18349,1.18114,1.18453,1.18399,1.18533,1.18245,1.18438,1.18569,1.19633,0.00369574,1.20592,1.20873,1.20135,1.20294,1.20315,1.20742,1.20245,1.20221,1.20455,1.20904,1.20843,1.20895,1.20943,1.20993,1.21314,1.21353,1.21416,1.22039,1.22174,1.22124,1.22085,1.22206,1.22505,1.22511,1.22389,1.22096,1.21684,1.21892,1.21754,1.22058,1.22422,1.22541,1.22821,1.23055,1.23191,1.23062,1.22779,1.2276,1.22572,1.22639,1.21827,1.21968,1.21888,1.23727,1.23835,1.2368,1.07696,1.07211,1.07732,1.0774,1.07823,1.09232,1.08424,1.11946,1.09103,1.19143,1.19062,1.17592,1.12315,1.09632,1.1092,1.12721,1.12945,1.1561,1.22954,1.2215,1.19126,1.20641,1.18196,1.1917,1.19811,1.21244,1.21561,1.229,1.21639,1.22978,1.23048,1.32241,1.32096,1.32107,1.31052,1.33399,1.28353,1.25586,1.27143,1.27291,1.26428,1.25988,1.27091,1.3656,1.25532,1.27084,1.2759,1.26817,1.2719,1.27167,1.28044,1.27357,1.3017,1.29233,1.28742,1.28772,1.30295,1.30605,1.37168,1.35345,1.35318,1.29876,1.30369,1.31127,1.30243,1.35118,1.33376,1.33468,1.28706,1.28454,1.27881,1.2671,1.27698,1.27392,1.25457,1.26111,1.2765,1.26047,1.27044,1.27015,1.26888,1.2722,1.26684,1.26746,1.26688,1.27184,1.25965,1.23461,1.20662,1.23352,1.23018,1.23283,1.22717,1.30692,1.2952,1.29854,1.27716,1.26864,1.25464,1.26778,1.26839,1.24886,1.24833,1.24725,1.2684,1.27249,1.27465,1.42288,1.38515,0.00357783,0.00356646,0.00403379,0.0035088,1.60151,1.92875,1.60099,0.0036175,0.00334958,0.00340705,0.00339262,0.00350952,1.55824,1.52763,1.52618,1.52575,1.49539,0.00348059,0.0037223,0.00350821,1.59129,1.4902,1.49221,0.00364293,1.50944,1.5089,1.52709,1.52624,1.52669,1.53108,1.51231,1.50916,1.5053,1.51297,1.51007,1.7147,1.50788,1.50489,1.50228,1.71494,1.74459,1.74379,1.52775,1.52571,1.52919,1.52527,1.53052,1.52592,1.52411,1.52906,1.71085,0.00348226,1.69068,1.69627,1.69429,1.6861,0.0040315,0.00325751,1.6925,0.00359301,1.67667,1.54392,1.54719,1.54569,1.55431,1.55554,1.65723,1.57593,1.57777,1.57827,1.57814,1.57787,1.56846,1.56963,1.59117,1.5843,1.58247,1.57316,1.58344,1.58756,1.58728,1.59647,1.59977,1.59749,1.59443,1.58871,1.57869,1.57582,1.57779,1.5768,1.57622,1.57522,1.57451,1.65531,0.00374238,0.00360996,1.58584,1.58407,1.63782,1.60021,1.60817
1.18111,1.18074,1.17764,1.17709,1.17496,1.17416,1.1695,1.16754,1.16341,1.16362,1.16572,1.16419,1.16201,1.1634,1.17021,1.16593,1.15777,1.16032,1.16119,1.16936,1.16514,1.16568,1.16394,1.16195,1.17232,1.17275,1.19452,1.19534,1.18628,1.18182,1.18217,1.18406,1.1873,1.18895,1.18899,1.1884,1.19426,1.19126,1.19279,1.19468,1.19632,1.19812,1.20004,1.20175,1.20318,1.20309,1.20414,1.20466,1.20204,1.20183,1.20036,1.20002,1.20155,1.20681,1.21323,1.21229,1.21313,1.21213,1.21272,1.21294,1.2118,1.21216,1.21175,1.21373,1.215,1.21703,1.21772,1.21855,1.21575,1.21723,1.21658,1.21511,1.21586,1.21935,1.21992,1.22341,1.22332,1.22693,1.22872,1.22271,1.22421,1.22343,1.22329,1.22498,1.21132,1.21176,0.0037598,1.22601,1.22508,1.22814,1.23053,1.16889,1.07159,1.07421,1.07591,1.0963,1.10869,1.16409,1.17736,1.16452,1.16542,1.17798,1.13645,1.1365,1.12966,1.13358,1.13432,1.13244,1.13979,1.22281,1.16448,1.16494,1.19194,1.21241,1.18772,1.18769,1.20504,1.19578,1.20156,1.20184,1.2312,1.24006,1.22062,1.22923,1.21642,1.22958,1.23202,1.25043,1.25744,1.24777,1.25504,1.26047,1.26364,1.24289,1.24398,1.24398,1.24609,1.24412,1.24468,1.25649,1.26525,1.26528,1.26061,1.27227,1.27151,1.27169,1.2754,1.34638,1.34485,1.36088,1.36023,1.25709,1.25493,1.24171,1.24487,1.25016,1.24189,1.24076,1.23912,1.28976,1.30012,1.25839,1.22362,1.25903,1.21369,1.23314,1.2978,1.27258,1.28151,1.25598,1.24707,1.2461,1.253,1.26367,1.28997,1.31992,1.31952,1.22281,1.21666,1.20562,1.24486,1.19115,1.20009,1.21932,1.21468,1.23947,1.24816,1.25796,1.23037,1.23599,1.22216,1.25205,1.22992,1.24705,1.22273,1.22999,1.24851,1.25301,1.3993,1.36264,1.36384,0.00353935,0.00341389,0.00341378,0.00379603,1.67983,1.56879,0.00348931,0.00348915,0.00373474,0.00389873,0.00340737,1.52598,1.48054,0.003623,0.00361121,0.00322454,0.0036944,1.46342,1.72806,0.00354183,0.0033544,1.48048,0.00340147,0.00362593,0.00342693,1.78135,0.00333328,0.0037656,1.77,1.50206,1.50112,1.50093,1.50685,1.5063,1.50111,1.50376,1.50905,1.50882,1.5156,1.51408,1.51328,1.5112,1.52067,1.52052,1.52419,1.52653,1.5248,1.5297,1.68341,1.54177,1.69215,1.68881,1.53158,1.52829,1.52863,1.68153,1.54253,1.54159,1.54547,1.54424,1.54862,1.54719,1.5498,1.54971,1.55005,1.56368,1.56509,1.56552,1.57836,1.57179,1.57451,1.57229,1.57674,1.5809,1.57201,1.57277,1.57657,1.57782,1.58489,1.58599,1.59777,0.00350562,1.61916,1.57911,1.57219,1.56684,1.57762,1.63047,1.56077,1.55155,1.55086,1.54933,1.56192,1.56058,0.00357796,1.5798,1.58486,0.00365323,1.5998
1.17646,1.17674,1.17725,1.1721,1.17239,1.17091,1.16473,1.16143,1.15647,1.15889,1.16187,1.16326,1.16168,1.16174,1.16374,1.15811,1.15811,1.15952,1.16106,0.00354091,1.16482,1.16247,1.15461,1.15486,1.15612,1.35749,1.35723,1.18559,1.1851,1.18375,1.18415,1.18665,1.1865,1.18717,1.18585,1.18706,1.18743,1.18903,1.1931,1.19385,1.19456,1.19431,1.19571,1.1975,1.19758,1.19736,1.19766,1.19557,1.19812,1.20033,1.20836,1.2028,1.20209,1.20332,1.20446,1.20523,1.20611,1.20712,1.20831,1.39545,1.2051,1.20529,1.2072,1.2077,1.2086,1.2065,1.20768,1.2106,1.21532,1.21516,1.21368,1.21532,1.21669,1.216,1.21696,1.21718,1.21299,1.21329,1.21991,1.21932,1.21919,1.21521,1.21641,1.21596,1.21291,1.20288,1.19858,1.20132,1.19435,1.18923,1.19264,1.19408,1.17453,0.00348486,0.00342972,1.18703,1.12101,1.16778,1.16896,1.17086,1.1805,1.14485,1.1444,1.12736,1.13646,1.11809,1.12303,1.13579,1.1354,1.18445,1.16898,1.16875,1.19212,1.19932,1.19247,1.20615,1.18825,1.20173,1.20972,1.22031,1.24146,1.21377,1.20588,1.2129,1.20693,1.21759,1.23094,1.26717,1.30056,1.2999,1.24403,1.25062,1.22201,1.22185,1.25802,1.23169,1.22669,1.22876,1.22609,1.22676,1.24342,1.23936,1.23968,1.24092,1.25591,1.27076,1.34655,1.34597,1.26204,1.23413,1.23358,1.23571,1.22943,1.22794,1.24722,1.24725,1.24411,1.24391,1.32199,1.25289,1.24097,1.24397,1.21495,1.21307,1.23614,1.23757,1.20648,1.22451,1.23937,1.26135,1.24104,1.23232,1.23771,1.2476,1.3004,1.30174,1.20263,1.19579,1.19552,1.18528,1.18081,1.18452,1.18763,1.1891,1.2093,1.20986,1.20998,1.21309,1.20634,1.19354,1.19583,1.19099,1.19283,1.20145,1.19779,1.21577,1.24041,1.24341,1.36065,1.36866,1.36919,1.37266,0.00349095,1.5646,0.0033963,0.00369131,0.00354756,1.77001,0.00369934,1.66383,0.00354957,0.00347289,0.00355044,0.00421827,1.6314,1.62343,1.42733,0.00356281,0.00362884,1.62149,1.62177,0.00384806,0.0033275,1.73879,1.73568,0.003535,0.00346129,0.00356674,0.00352299,1.4869,1.48744,1.48951,1.49306,1.49805,1.4979,1.50009,1.50947,1.50914,1.50613,1.51016,1.50988,1.51011,1.50807,1.51074,1.51636,1.51588,1.52164,1.52164,1.52641,1.53075,1.5349,1.53571,1.53451,1.53089,1.53717,1.53891,1.54197,1.54003,1.54907,1.55001,1.54914,1.54986,1.54739,1.55426,1.55842,1.55806,1.56456,1.55763,1.56147,1.5696,1.57094,1.57542,1.57742,1.57652,1.58118,1.57613,1.57466,1.5751,1.57208,1.57283,1.57031,1.57403,0.00364196,1.56346,1.56244,1.56698,1.5646,1.56409,1.562,1.55432,1.54915,1.54975,1.55363,1.55532,1.55619,1.55748,1.57355,1.57371,1.58844,1.5866
1.17467,1.17715,1.17338,1.16985,1.16791,1.16873,1.16352,1.16112,1.15357,1.15432,1.16103,1.16093,1.16089,1.16171,1.16305,1.15168,1.15256,1.14446,1.14073,1.14231,1.1464,1.15401,1.15408,1.15668,1.16038,1.16425,1.21196,1.18673,1.18695,1.18525,1.18372,1.18276,1.18315,1.18442,1.18365,1.18177,1.18528,1.18258,1.18185,1.19266,1.19347,1.19191,1.19181,1.19321,1.19258,1.19343,1.19402,1.19433,1.19555,1.19896,1.20178,1.20581,1.202,1.20134,1.19964,1.2012,1.20375,1.20428,1.20421,1.20271,1.20017,1.20149,1.20268,1.20359,1.20461,1.20488,1.20826,1.21183,1.21331,1.21384,1.21595,1.32639,1.3244,1.20568,1.20638,1.20933,1.21008,1.21327,1.21472,1.21459,1.2104,1.21094,1.21192,1.2015,1.20094,1.20083,1.20126,1.20306,1.20544,1.20845,1.20695,0.00370398,0.00402249,0.0036053,0.00368359,0.00347645,1.19917,1.19869,1.18783,1.11299,1.1733,1.12646,1.12572,1.12642,1.13289,1.13647,1.15134,1.15435,1.1606,1.2225,1.20054,1.19788,1.16073,1.17589,1.17133,1.16918,1.18136,1.18168,1.23541,1.23724,1.21862,1.21533,1.20673,1.20124,1.20276,1.19494,1.19762,1.17399,1.17137,1.17952,1.21179,1.21542,1.19946,1.19575,1.19378,1.21134,1.26506,1.26337,1.1981,1.20143,1.21226,1.21565,1.25105,1.25393,1.26183,1.26263,1.24987,1.23958,1.24058,1.22993,1.21933,1.22669,1.23277,1.22617,1.21766,1.21806,1.23361,1.23338,1.23408,1.21531,1.24361,1.23293,1.2361,1.22041,1.22373,1.19588,1.20348,1.23674,1.23648,1.23299,1.23235,1.24296,1.24107,1.2239,1.22526,1.24632,1.21521,1.175,1.17731,1.17373,1.17515,1.20965,1.18373,1.19154,1.20041,1.20912,1.20536,1.20894,1.20253,1.20411,1.19717,1.18845,1.19018,1.19508,1.19923,1.20603,1.22384,1.24142,1.35067,1.35338,1.35487,0.00335264,0.00364501,1.37033,1.37123,1.3752,0.00359377,1.77868,0.00367456,0.00351536,0.00355487,0.00365425,1.42295,1.42198,1.42076,1.42018,1.41784,1.41955,1.4259,1.42426,1.42477,1.4264,1.42678,0.00347263,1.59617,0.00356246,1.59616,1.59678,0.00382417,0.0036903,1.6043,1.60484,1.72746,1.72819,1.48351,1.59873,1.49056,1.49066,1.69765,1.71372,1.49782,1.50209,1.50292,1.50853,1.50993,1.51292,1.51647,1.51588,1.51399,1.62936,1.64943,1.53469,1.53439,1.53582,1.5357,1.53557,1.53514,1.53417,1.55137,1.54435,1.5458,1.54868,1.54703,1.54567,1.55629,1.55563,1.55493,1.5604,1.55642,1.55756,1.57821,1.55825,1.56768,1.56885,1.56881,1.57397,1.57335,1.56985,1.57054,1.5634,1.55891,1.55968,1.55687,1.55507,1.56262,1.55802,1.55737,1.55741,1.54649,1.54651,1.54666,1.55158,1.55566,1.55455,0.00367391,1.58348,1.58253,1.58189,1.58246,1.59199
1.17698,1.17762,1.17871,1.16963,1.16683,1.16375,1.16777,1.16051,1.15874,1.1601,1.16768,1.16771,1.16802,1.1674,1.16176,1.37067,1.14842,1.14979,1.1422,1.13625,1.14302,1.14612,1.27348,1.33428,1.17604,1.17507,0.00363945,1.18715,1.19086,1.19463,1.19616,1.18418,1.18414,1.18443,1.1814,1.18065,1.18233,1.18281,1.18409,1.18855,1.19276,1.19783,1.19681,1.19726,1.19976,1.201,1.19338,1.19461,1.1966,1.20186,1.2026,1.20421,1.2047,1.20565,1.20469,1.19911,1.19827,1.20111,1.20067,1.20132,1.20063,1.20174,1.20229,1.20252,1.20458,1.2047,1.20445,1.20392,1.20458,1.20279,1.20528,1.20472,1.20366,1.20167,1.20507,1.20626,1.21284,1.21093,1.21114,1.20609,1.20819,1.20894,1.19858,1.1989,1.19893,1.20013,1.20267,1.20851,1.21006,1.21058,1.20882,1.20949,1.21322,1.21538,1.2148,1.21495,1.21554,1.20855,1.20856,1.12617,1.11328,1.10316,1.10514,1.24021,1.24107,1.14305,1.14541,1.19142,1.18838,1.15431,1.16455,1.16385,1.16411,1.17316,1.14968,1.17313,1.1682,1.17013,1.2134,1.25125,1.23748,1.22184,1.23402,1.20267,1.19094,1.1827,1.21117,1.16564,1.16684,1.16581,1.18437,1.19294,1.19604,1.19613,1.18498,1.19524,1.19481,1.1952,1.19386,1.21146,1.19869,1.1944,1.21002,1.20568,1.18817,1.18875,1.21116,1.22315,1.21537,1.22044,1.22286,1.22638,1.2226,1.23059,1.21758,1.25345,1.21069,1.2146,1.21554,1.22635,1.23612,1.21423,1.21393,1.24701,1.24439,1.20207,1.18926,1.19115,1.23652,1.23216,1.22184,1.18574,1.20252,1.19409,1.19697,1.18173,1.18923,1.18943,1.19105,1.19649,1.22664,1.20623,1.17985,1.17222,1.1822,1.17199,1.1737,1.18929,1.1902,1.18916,1.20264,1.22706,1.22783,1.2003,1.1931,1.20159,0.00359093,0.00342592,0.00367216,1.34529,0.00358169,0.00396298,0.00365408,1.53486,0.00338218,1.37699,0.0036183,0.00349402,0.00360799,0.00345489,1.5511,1.5507,0.00335511,1.55427,0.00350829,0.00355075,1.42367,1.42768,1.42654,1.43257,1.42902,1.42759,0.00353994,1.43645,1.44096,1.43895,1.44233,1.44342,1.44774,1.44651,1.45019,1.45506,1.59997,1.46849,1.60232,1.60387,1.54333,1.60151,1.47991,1.47884,0.00364091,0.00360684,1.49899,1.49735,1.49569,1.49685,0.00346621,1.503,1.50346,1.50476,1.51155,1.51292,0.00363539,1.51841,1.52179,1.52304,1.525,1.62699,1.63213,1.56847,1.57048,1.57734,1.57764,1.56946,1.56265,1.55814,1.55297,1.55171,1.55064,1.55287,1.55241,1.5642,1.56516,1.56545,1.5726,1.5747,1.57291,1.58301,1.57925,1.57737,1.5738,1.57146,0.00358468,1.57098,1.56865,1.56667,0.00370841,1.54521,1.54743,1.54945,1.55059,1.54378,1.55374,1.61947,1.57838,1.5772,1.57778,1.57328,1.59021,1.59063
1.30205,1.1689,1.16973,1.17329,1.17177,1.16866,1.16075,1.15019,1.15087,1.15809,1.15733,1.16544,1.16719,1.17306,1.1708,1.17211,1.1737,1.17357,1.21373,1.21389,1.15464,1.15553,0.00353036,1.16669,1.16655,1.16687,1.17107,1.17732,1.18406,1.18433,1.18658,1.18931,1.19033,1.19115,1.19125,1.18899,1.18865,1.18844,1.18454,1.1905,1.19226,1.19413,1.19465,1.19617,1.19901,1.19786,1.19566,1.19262,1.19201,1.19698,1.19801,1.20347,1.20389,1.20074,1.20113,1.20159,1.20263,1.20014,1.19995,1.20198,1.19673,1.1985,1.20035,1.19851,1.19821,1.1995,1.19694,1.19816,1.20152,1.20186,1.19941,1.20174,1.20179,1.20127,1.20307,1.20679,1.20793,1.20182,1.20052,1.19955,1.20284,1.19821,1.19943,1.19768,1.20219,1.20475,1.20488,1.20616,1.20676,1.20717,1.34017,1.20249,1.20507,0.00339669,1.21524,1.21342,0.00376026,1.20912,1.20131,1.2007,1.2092,1.21194,1.17052,1.18643,1.14206,1.14539,1.15049,1.15704,1.1588,1.18938,1.17439,1.16466,1.1888,1.14707,1.16319,1.15724,1.16203,1.16542,1.16476,1.17113,1.17713,1.18163,1.19224,1.18061,1.17923,1.17543,1.1927,1.16918,1.17848,1.17802,1.15666,1.14936,1.17432,1.18176,1.18201,1.182,1.15758,1.20559,1.17376,1.20211,1.19289,1.18112,1.16552,1.16742,1.17771,1.18925,1.18885,1.19836,1.20631,1.20547,1.23662,1.24309,1.23532,1.22958,1.21914,1.22593,1.20699,1.20867,1.21925,1.2174,1.23964,1.20339,1.20583,1.20579,1.18094,1.18046,1.19734,1.18868,1.22266,1.20124,1.20301,1.19314,1.19846,1.19987,1.19088,1.18899,1.16461,1.17838,1.18176,1.19825,1.19983,1.18979,1.17264,1.17482,1.17641,1.18509,1.18918,1.19473,1.18927,1.16789,1.17263,1.20262,1.20382,1.19208,1.20115,1.19885,1.23936,0.00338544,0.00340468,0.00326018,0.0038621,0.00363305,0.00354935,0.00348057,0.00360809,1.3618,0.00356019,0.00336105,1.60012,1.36978,1.37131,1.37492,1.37589,0.00365222,0.00362414,0.00337464,1.52834,1.42103,1.42293,1.42169,1.41902,1.42062,1.42562,1.42246,1.42291,0.00358571,1.63027,1.43687,1.43716,1.44253,1.44709,1.4465,1.44834,1.45232,1.45484,1.45398,1.45215,1.54549,1.54466,1.54514,1.60796,1.60601,1.60649,0.00338554,1.48684,1.4856,1.58624,1.58073,0.00354571,0.00374213,1.59194,1.50204,1.50508,1.50371,1.50298,1.51584,1.51563,1.52789,1.5339,1.53733,1.53697,1.62747,1.62718,1.62564,1.54522,1.55305,1.55321,1.54708,1.54398,1.5553,1.55352,1.56282,1.55941,1.5639,1.56333,1.57112,1.57055,1.56577,1.57174,1.57582,1.57651,0.00345785,1.61393,1.60985,0.00339455,1.55888,1.55091,1.55396,1.5533,1.54606,1.5434,1.54775,1.54739,1.62079,1.56166,1.5669,1.57104,1.57036,1.58394,1.58529
0.00360314,0.00363827,0.00336601,0.00371297,0.00363005,1.15677,1.15332,1.30033,1.15689,1.15989,1.16239,1.16788,1.16746,1.16805,1.16913,1.16728,1.16823,1.16552,1.16463,1.16469,1.16061,1.16026,1.16233,1.16755,1.16753,1.16625,1.1667,0.00347285,1.17894,1.18548,1.18654,1.18774,1.18709,1.18615,1.18643,1.18667,1.1873,1.18721,1.18783,1.19096,1.19374,1.19214,1.19318,1.19412,1.19504,1.1947,1.1943,1.19537,1.19494,1.19684,1.19758,1.1971,1.19713,1.19803,1.20385,1.20447,1.20124,1.20163,1.20253,1.20516,1.20166,1.20183,1.19816,1.1992,1.19484,1.1897,1.18765,1.19173,1.19069,1.19155,1.19122,1.19265,1.19118,1.18467,1.18391,1.18425,1.18616,1.18772,1.18743,1.18906,1.19281,1.19652,1.20049,1.19873,1.19753,1.19489,1.27419,1.2033,1.2047,0.00340082,1.19152,1.19484,1.19817,1.20143,1.20364,1.20635,1.20674,1.20715,1.2056,1.20484,1.20453,1.20355,1.20549,1.20818,1.20801,1.2125,1.21254,1.16474,1.16487,1.16697,1.2067,1.15699,1.18509,1.17338,1.19228,1.24359,1.21834,1.201,1.18828,1.18981,1.16416,1.1587,1.15848,1.16005,1.16048,1.16463,1.17022,1.16828,1.18365,1.18456,1.18496,1.22491,1.15602,1.15719,1.17686,1.18441,1.17126,1.16775,1.15991,1.23658,1.23091,1.21115,1.20897,1.20639,1.16335,1.1638,1.15747,1.1928,1.21075,1.21558,1.22716,1.22696,1.22584,1.25646,1.32203,1.32287,1.24304,1.20372,1.20539,1.20263,1.18666,1.19108,1.20553,1.19812,1.21471,1.21352,1.18234,1.19315,1.18435,1.18793,1.1925,1.19189,1.18896,1.17912,1.20045,1.17004,1.18099,1.16746,1.17054,1.17398,1.18118,1.17089,1.1626,1.16146,1.17246,1.18215,1.18434,1.16368,1.15085,1.15848,1.19672,1.19092,1.16744,1.18089,1.20121,1.20136,1.24136,1.24198,1.36122,1.36024,0.0035024,0.00388686,0.00349519,0.00351193,0.00376395,0.00392589,1.35496,0.0036402,1.36428,1.36617,1.36814,1.36535,1.36671,1.36791,1.36824,1.3652,1.52607,1.42302,0.00360795,1.40755,0.00347287,1.41243,1.41911,1.41948,1.41534,1.41046,1.52818,1.55477,0.0033059,0.00376026,0.00317278,0.00357805,0.00360874,1.43438,1.54553,0.00359356,0.00331865,1.5564,0.00367919,0.00369767,0.00364305,1.43218,1.4341,1.43679,1.43501,1.43316,0.0036105,1.46436,1.46371,0.00380194,0.00323682,0.00381206,0.00350038,1.50178,1.50279,1.50515,1.50647,1.51737,1.52228,1.52346,0.00359038,0.003525,1.53965,1.59654,1.54391,1.54199,1.54069,1.53852,1.55057,1.54947,1.55508,1.55971,1.55843,1.57416,1.58166,1.5606,1.56016,1.55236,1.54511,1.54711,1.55055,1.55551,1.55558,1.5688,1.56941,1.57182,1.57168,1.58658,1.59255,1.59101,1.59062,1.55045,1.55071,1.57655,1.57419,1.57412,1.57763,1.59997,1.59613,1.59517
1.12538,0.00352082,1.36474,1.14695,1.14694,1.14211,1.14225,1.13434,1.13473,0.00338873,1.2664,0.00362249,1.16196,1.16549,1.15846,1.15855,1.15744,1.15293,1.30366,1.15008,1.15119,1.15107,1.15481,0.00341734,1.15202,1.15403,0.00344996,0.00343492,1.33167,0.0034275,0.00360961,0.0034933,1.17792,1.17888,1.18242,1.18621,1.18797,1.18761,1.18805,1.18669,1.18819,1.18849,1.19093,1.19024,1.19488,1.19549,1.19628,1.19594,1.19459,1.1945,1.19642,1.19712,1.19937,1.20252,1.20421,1.20495,1.20124,1.20196,1.20115,1.20189,1.20295,1.20089,1.2007,1.19522,1.19249,1.19055,1.19005,1.19182,1.19154,1.18693,1.18774,1.18834,1.19019,1.18224,1.18445,1.18495,1.18264,1.18427,1.18247,0.00327661,0.00337071,0.00359161,1.19645,1.19643,1.19492,1.19286,1.19451,1.31595,1.18122,1.18118,1.1828,0.00367158,1.19616,1.20086,1.20052,1.20507,1.20461,1.20477,1.20677,1.20741,1.20536,1.20425,1.20734,1.20866,1.20276,1.20438,1.20675,1.21631,1.2133,1.16974,1.17563,1.1777,1.17612,1.1784,1.18401,1.18372,1.18973,1.18735,1.16709,1.16745,1.1672,1.16782,1.15768,1.15721,1.15589,1.18408,1.14726,1.15451,1.15737,1.16491,1.15444,1.15821,1.14666,1.16076,1.12582,1.12623,1.12759,1.14936,1.12188,1.12216,1.1238,1.18801,1.21698,1.24465,1.16411,1.14342,1.16124,1.14966,1.18907,1.18915,1.19983,1.20967,1.21204,1.22898,1.26493,1.25478,1.23645,1.23739,1.19346,1.16891,1.17121,1.17219,1.17815,1.15806,1.18998,1.20133,1.16918,1.1674,1.16522,1.16863,1.1685,1.2048,1.20214,1.19168,1.20184,1.17136,1.17114,1.18227,1.1711,1.17714,1.16771,1.16739,1.22484,1.21951,1.16339,1.17086,1.16399,1.16034,1.1742,1.16828,1.15774,1.15862,1.18817,1.18783,1.24111,1.2695,1.261,1.26067,0.00335378,1.32386,0.00355199,1.30241,0.00336375,0.0035942,0.00357623,0.00349797,0.00387733,0.00339676,0.00363504,1.35885,1.362,1.36352,1.36365,1.36443,1.36154,1.36161,1.35945,1.3593,1.35917,1.36368,0.00334258,0.00351276,1.4915,0.00346112,0.00331823,0.00333559,1.48118,1.3883,1.56174,1.47697,1.39971,1.46806,1.4711,1.41244,1.41504,1.41324,1.41235,1.41555,1.4112,1.40911,1.41765,1.41664,1.42055,1.43756,1.43521,1.43649,1.53714,1.4501,1.44409,0.00341834,1.43978,1.43701,1.65504,0.00351232,0.00339796,0.00343701,0.00383175,0.00368556,0.00360587,0.00373125,1.52027,1.51998,1.51933,0.00344864,1.53004,1.53461,1.53405,1.53999,1.53974,1.54508,1.54758,1.54704,1.5561,1.54779,1.55019,1.54993,1.54653,1.54693,1.5467,1.54559,1.54665,1.54883,1.55261,1.55347,1.55565,1.55561,1.56454,1.56452,1.58679,1.59178,1.59062,1.5853,1.58299,1.58909,1.59759,1.60189,1.59941,1.5986,1.59434,1.59442
1.11198,1.1133,0.00355471,0.00339274,0.00328458,1.13579,1.13657,1.13323,1.1331,1.13543,1.13948,1.14049,0.00354222,1.15261,1.15279,1.15327,1.15099,0.00358394,1.14235,1.1409,1.13986,1.13957,1.13803,1.13871,1.13696,1.13881,1.13685,1.13747,1.13896,1.14274,1.14997,1.15239,1.15427,1.17099,1.17374,1.17482,0.00380706,1.35323,1.17752,1.17395,1.17252,1.1743,1.17397,1.17362,1.3227,1.1788,1.18137,1.18139,1.18614,1.18976,1.19087,1.19334,1.20388,1.20375,1.20328,1.20453,1.20783,1.20178,1.20317,1.20336,1.20219,1.19863,1.19772,1.196,1.1942,1.19035,1.18857,1.18928,1.18653,1.18699,1.18722,1.18649,1.18164,1.18282,1.18491,1.18569,1.18667,1.19138,1.17411,1.17391,0.00325998,0.00379829,0.00354759,0.00370631,1.1798,1.18109,1.17786,1.17663,1.17793,1.17871,1.18182,1.18839,1.1952,1.1987,1.19916,1.20198,1.20374,1.2035,1.20407,1.20544,1.20903,1.20907,1.20969,1.19849,1.19855,1.20189,1.20606,1.20693,1.20891,1.2078,1.20845,1.21101,1.1781,1.17843,1.16739,1.2473,1.24721,1.2427,1.15422,1.15456,1.17714,1.1745,1.17756,1.17583,1.17567,1.16726,1.19406,1.18683,1.18421,1.14387,1.16283,1.16414,1.1659,1.17159,1.12828,1.12881,1.11549,1.14295,1.13665,1.12319,1.11186,1.10953,1.11144,1.12763,1.14,1.16039,1.14559,1.1468,1.18484,1.1635,1.17826,1.16022,1.16053,1.22032,1.30324,1.24633,1.24708,1.24975,1.17917,1.17504,1.14614,1.14076,1.14994,1.14908,1.14956,1.16676,1.17339,1.18206,1.17091,1.23659,1.17458,1.16113,1.16805,1.17308,1.16419,1.16827,1.17537,1.17484,1.18578,1.16117,1.15411,1.17281,1.23371,1.169,1.15496,1.15189,1.16082,1.16816,1.19325,1.20803,1.21249,1.23077,1.25392,1.23701,1.2431,1.22349,1.22444,1.34384,1.25738,1.25818,1.26093,0.00376471,0.00352257,1.29933,1.29991,1.30436,0.003298,0.00359054,0.0033154,0.00379334,0.00341116,1.35072,1.35119,1.35457,1.36432,1.36391,1.36322,1.35827,1.3603,1.36182,1.36117,1.36756,1.36752,1.3753,1.38168,1.3812,1.38608,1.38553,1.38631,1.38748,1.39036,1.39388,1.39593,1.39956,1.40019,1.40291,1.40331,1.40524,1.40447,1.40592,1.40928,1.41548,1.41453,1.41553,1.41473,1.42529,1.42408,1.43067,1.4266,1.42718,1.42691,1.42764,1.42232,1.42197,1.42415,0.00341725,0.00326687,0.00396983,1.44779,1.44783,0.00328625,1.48174,1.48163,1.57123,0.00329147,0.0037553,1.5165,1.58465,1.51251,0.00334022,1.62018,0.00363907,1.54348,1.53648,1.53518,1.54019,1.53982,1.53842,1.53991,1.54399,1.55062,1.55147,1.55064,1.55251,1.55355,1.56072,1.55864,1.55874,1.54577,1.55109,1.55386,1.58275,1.58467,1.57999,0.00361108,1.58571,1.58471,1.59909,1.59678,1.59737
1.09655,1.09793,0.00374566,1.11783,1.11824,1.11969,1.13061,1.1358,1.13622,1.13785,1.14005,1.13856,1.1386,1.13637,1.1371,0.00361352,1.25081,1.1315,1.13199,1.13598,1.13356,1.13401,1.13511,1.13182,1.13226,1.13061,1.13301,1.13627,1.13678,1.14217,1.1424,1.1488,1.15143,1.15307,1.16315,1.16509,1.16447,1.16326,1.16692,1.17064,1.17061,1.16793,1.16936,1.17034,1.17178,1.17203,1.17157,1.17198,1.17298,0.00357372,1.39122,1.39082,0.0036836,1.27613,1.26622,0.00353916,1.20209,1.20481,1.20559,1.21108,1.21168,1.21132,1.21138,1.20763,1.20972,0.00347492,1.19622,1.19254,1.18773,1.18682,1.18424,1.18354,1.18231,1.18323,1.18188,1.18134,1.18134,1.17532,1.1711,1.16488,1.16478,1.16544,1.17005,0.00342753,1.18079,1.18289,1.18471,1.18463,1.18512,1.18512,1.19126,1.19127,1.19176,1.19239,1.19415,1.19698,1.20137,1.19999,1.20126,1.20245,1.20461,1.20657,1.20808,1.20388,1.20111,1.20155,1.20354,1.21089,1.21106,1.20847,1.20747,1.21068,1.21181,1.21067,1.19272,1.22706,1.15645,1.22685,1.2274,1.23913,1.23498,1.23328,1.21812,1.20931,1.21188,1.19534,1.19917,1.20171,1.15367,1.16837,1.17177,1.13904,1.15342,1.12128,1.12336,1.13379,1.13186,1.15486,1.12691,1.1395,1.12968,1.13708,1.13997,1.14102,1.18262,1.12846,1.13275,1.14194,1.12686,1.1272,1.1368,1.13986,1.12472,1.15858,1.15414,1.13233,1.13198,1.13391,1.15584,1.14329,1.14737,1.16039,1.19723,1.13985,1.12569,1.13317,1.15372,1.16854,1.1501,1.15007,1.14783,1.15114,1.1619,1.16465,1.14688,1.14802,1.14859,1.17549,1.1727,1.1751,1.19102,1.16712,1.17094,1.18053,1.18101,1.16743,1.16458,1.1613,1.16621,1.16697,1.17711,1.17814,0.00332751,1.29585,0.00371909,0.00354814,0.0036094,1.28181,1.27703,1.2794,1.27802,1.2728,1.27436,1.27581,0.0035925,0.0032839,0.00367367,0.0034158,1.31444,0.00338997,1.47198,0.00363057,0.00349791,1.34759,0.00385824,1.35747,1.35746,1.36199,1.35866,1.36115,1.36762,1.43137,0.00383832,1.3637,1.36389,1.36316,0.00368887,1.40925,0.00357838,1.44625,1.36847,1.37486,1.37538,0.00337577,1.36869,1.3706,1.46893,0.00345905,1.39189,1.39104,0.00358958,1.40298,1.40619,1.40248,1.40626,1.40362,1.4021,1.39097,1.39122,1.47546,1.42392,1.41533,1.41728,1.41911,1.41845,1.42135,1.44067,1.44379,1.44662,1.4466,0.00343654,1.48333,1.4839,1.48121,0.00358718,0.00357603,1.50177,1.50913,1.50928,0.00352324,0.00349721,0.00361377,0.00369212,1.5283,1.53009,1.52386,1.52309,1.52295,1.53419,1.53286,1.53239,0.00352913,0.00377954,0.00338391,1.54601,1.54619,1.53953,1.54508,1.5433,1.54232,0.00350842,0.00346339,1.56868,1.56843,1.56798,1.56465,0.0037929,1.58294,1.58242,0.00310623
1.0995,1.10124,1.1108,1.11575,1.11854,1.11867,1.11823,1.12221,1.12316,1.14292,1.13749,1.13236,1.132,1.1327,1.13333,1.13144,1.13048,1.12873,1.12256,1.12259,1.13311,1.1343,1.13409,1.13253,1.13031,1.1328,1.13456,1.13683,1.13595,1.13799,1.14075,1.14527,1.14684,1.14785,1.1572,1.15959,1.16562,1.16573,1.16589,1.16614,1.1657,1.16652,1.16601,1.16688,1.1676,1.16744,1.17381,1.17523,1.17333,1.16992,1.17001,1.16891,0.00340879,0.00352622,0.00344163,1.18777,1.18593,1.24719,0.00344813,1.20109,1.20393,1.20539,1.38822,0.00343485,1.20533,1.20547,1.20335,1.2018,1.19893,1.18723,1.1861,1.18759,1.1817,1.18516,1.17316,1.1729,1.17354,1.1691,1.16944,1.16525,1.16491,1.16708,1.16635,1.16711,1.17088,1.1729,1.17624,1.18463,1.18578,1.18898,1.18686,1.18656,1.18888,1.19017,1.19032,1.19103,1.19708,1.19733,1.19983,1.19922,1.19695,1.19867,1.20105,1.19942,1.19829,1.19841,1.20131,1.20262,1.20295,1.20573,1.20445,1.20614,1.20951,1.2118,1.2094,1.20907,1.20617,1.20743,1.2066,1.2044,1.20401,1.20285,1.20931,1.20565,1.21565,1.21294,1.21348,1.22202,1.16992,1.20419,1.1627,1.16343,1.15851,1.16751,1.13489,1.1378,1.13838,1.14171,1.13898,1.16402,1.15399,1.14314,1.13614,1.1355,1.16709,1.16254,1.15655,1.16437,1.16295,1.14887,1.14792,1.14731,1.12846,1.12083,1.12575,1.12205,1.13938,1.14647,1.15346,1.15396,1.15876,1.14898,1.20665,1.14668,1.13698,1.13746,1.14265,1.15552,1.15983,1.14474,1.14475,1.1629,1.16822,1.16788,1.16865,1.16849,1.18313,1.23667,1.23934,1.2469,1.23043,1.24306,1.19428,1.19779,1.19245,1.27724,1.27696,1.14912,1.15153,1.15283,1.19943,1.19777,1.19912,1.21807,1.22622,1.29093,1.29327,1.29429,1.29,1.28391,1.2789,1.27622,1.27588,1.27796,1.27719,1.2717,1.27665,1.27766,0.00364304,0.00389874,0.0034584,0.003562,1.33278,1.33521,1.33492,1.35737,1.35712,1.35717,1.35687,1.35824,1.35772,1.35374,1.35253,1.3503,1.34902,1.34527,1.34425,1.3449,1.34807,1.36791,1.36776,1.36713,1.35681,1.35155,1.35068,1.35142,1.36089,0.00383207,0.00363996,1.38956,1.39038,1.39414,1.40222,1.40112,1.40139,1.40128,1.39189,1.37998,1.38092,0.00366649,0.00335989,1.41196,1.41244,1.41162,1.41349,1.41277,0.00362934,0.00354963,0.00356548,0.00380036,0.00344233,0.00346598,1.47136,1.47178,1.47342,1.47485,1.48272,1.48173,1.47665,0.00350256,0.00352184,0.00362989,0.00334719,0.00355474,0.00357964,0.00345556,0.00356346,0.00366685,0.00374395,0.00374724,0.00331276,0.0038167,0.00351982,1.66825,1.66633,0.00343868,0.00350952,1.52887,1.52642,1.5268,0.00360695,0.00356481,0.00346709,0.0038124,0.00350132,1.55,1.56749,1.56708,1.56281,0.00336367
1.0995,1.15508,0.00375657,1.13058,1.23144,1.1169,1.11798,1.11007,1.11086,0.00336236,1.33638,1.135,1.1341,1.1342,1.13223,1.12649,1.12575,1.12349,1.1251,1.12724,1.13225,1.13305,1.12907,1.12836,1.12598,1.12887,1.13466,1.13582,1.13317,1.13875,1.14481,1.14772,1.14944,1.14969,1.1511,1.15315,1.15971,1.16701,1.16833,1.16461,1.16506,1.16478,1.1652,1.16627,1.16664,1.16506,1.17031,1.17135,0.00348393,0.00351966,1.16393,1.16297,1.15986,1.15989,0.00364949,0.00332752,0.00353751,1.17685,1.1777,0.00317916,0.00346037,1.18992,1.19107,1.18602,1.18823,1.19066,0.00368059,1.1925,1.19445,1.18922,1.18848,1.18727,1.18835,0.00325038,1.16814,1.16729,1.16269,1.16355,1.16051,1.16141,1.16207,1.16188,1.16167,1.16349,1.16721,1.17173,1.17387,1.18156,1.18782,1.18725,1.18655,1.18934,1.19197,1.18989,1.19184,1.19307,1.19563,1.19546,1.19466,1.19745,1.19843,1.19903,1.19967,1.19695,1.19577,1.19649,1.19697,1.1932,1.19605,1.19797,1.20109,1.20159,1.20228,1.20214,1.20447,1.20277,1.20233,1.20178,1.19875,1.19806,1.21208,1.21241,1.21283,1.21252,1.21402,1.21387,1.21416,1.2189,1.21924,1.21642,1.21638,1.21844,1.20568,1.20527,0.0036921,0.00347025,1.23245,1.18967,1.18115,1.19533,1.17458,1.1714,1.17132,1.15059,1.1742,1.15617,1.16723,1.15771,1.15956,1.14299,1.13191,1.12906,1.16731,1.1272,1.1277,1.12563,1.14336,1.14321,1.15856,1.1601,1.16075,1.15402,1.12396,1.125,1.14603,1.14554,1.1537,1.11256,1.11286,1.11886,1.12115,1.14385,1.14125,1.13597,1.1362,1.18111,1.19824,1.24712,1.27733,1.27044,1.27837,1.19412,1.21378,1.1884,1.17504,1.16019,1.24073,1.24185,1.2459,0.00329168,0.00370215,0.00333987,0.00379546,0.00349045,1.28612,1.29058,1.28933,1.2869,1.28798,1.28859,1.28283,1.28388,1.28297,1.2809,1.27864,1.28015,1.27978,0.00339573,0.00374094,1.31127,1.31437,1.31815,1.31659,1.32808,1.32971,1.48588,1.35287,1.3507,1.3515,1.35205,1.35399,1.35697,1.35667,1.35328,1.35611,1.35328,1.34929,1.3464,1.34745,1.35471,1.35707,1.35486,1.34421,1.34269,1.56087,1.56164,1.35987,1.36597,1.36751,1.36046,1.36416,1.48236,0.00341278,1.4014,1.40162,1.40516,1.40577,1.39691,1.3925,1.39337,0.00354279,0.00346784,1.40009,1.39623,1.3988,1.39954,1.40523,1.4066,1.40866,0.00357331,0.00368768,0.0037014,0.0036658,0.00356617,0.00387397,1.46798,1.47281,1.46211,1.46321,1.46662,1.47161,0.003352,0.0037847,0.00344047,0.00351744,1.49201,1.64182,0.0032103,1.48281,1.48019,1.47998,1.48141,1.47765,0.00345083,0.00376434,0.00361262,1.50056,1.50274,1.5026,1.50585,1.77195,0.0033329,1.51358,0.00336441,1.54117,1.54114,0.00328852,0.00337064,1.7679,0.00364272
1.10411,1.10495,1.1776,1.14025,1.14219,1.1426,1.14145,1.10675,1.10647,1.10552,1.1046,0.00348586,1.12681,1.12643,1.12779,1.12747,1.11947,1.11956,1.12681,1.13181,1.1328,1.13223,1.12646,1.127,1.1261,1.12817,1.12916,1.12687,1.12828,1.1279,1.33434,1.15326,1.14268,1.14886,1.15164,1.15159,1.15396,1.15678,1.16125,1.15542,1.1564,1.15665,1.16683,1.16408,1.16593,1.16391,1.16407,1.16465,1.16257,1.16078,1.16143,1.15353,1.15203,1.15192,0.00331627,1.17188,1.17047,1.17146,1.17591,1.17624,1.17657,1.31914,1.18883,1.19078,0.00319001,1.17963,1.18014,1.18341,1.18327,1.18423,1.18115,1.1804,1.17948,1.17595,1.1762,1.17631,1.17575,1.17199,1.17016,1.1677,0.0033713,1.16826,1.24609,1.1645,1.16527,1.17087,1.17916,1.17968,1.18424,1.28773,1.2845,1.1946,1.19599,1.19925,1.19904,1.19791,1.19913,1.19388,1.19547,1.19859,1.19692,1.19803,1.20135,1.20096,1.20032,1.19982,1.20014,1.20128,1.19246,1.19088,1.19114,1.1938,0.00367367,1.36436,1.36713,0.00379123,0.00332522,0.00368692,0.00354553,0.00358833,0.00345868,0.00367148,0.00348804,1.20256,1.35965,1.20026,1.20176,1.20235,1.20343,1.20374,1.20517,1.20658,1.2071,1.20823,1.20309,1.20463,1.19996,1.19658,1.19973,1.20154,1.17491,1.17372,1.17159,1.15502,1.14165,1.14893,1.14721,1.14056,1.22535,1.13595,1.133,1.10817,1.15114,1.12267,1.12341,1.1529,1.15707,1.14302,1.14048,1.14767,1.1638,1.15189,1.15423,1.14375,1.1458,1.14294,1.2696,1.10927,1.10818,1.10474,1.10606,1.09467,1.10633,1.14445,1.13391,1.24605,1.24809,1.24967,1.27452,1.27442,1.27631,1.25726,0.00347071,0.00342615,1.248,1.25148,1.25471,1.26219,1.26812,1.27034,1.27182,1.27287,1.27524,1.2805,1.28455,1.28645,1.28541,1.2918,1.2925,1.29412,1.28819,1.27767,1.27787,1.27976,1.28312,1.28948,1.29098,1.294,1.30707,1.30618,1.3063,1.30807,1.30822,1.32325,1.32852,1.33035,1.33411,1.33415,1.34491,1.34651,1.35342,1.36228,1.36195,1.36386,1.36567,1.3652,1.52775,1.36433,1.36396,1.36574,1.36776,1.36543,1.36454,1.50627,1.33779,1.33959,1.35504,1.35884,1.36344,1.36373,1.3615,1.36571,0.00355792,1.5325,1.41019,1.40965,1.40928,0.00335436,1.53395,1.53351,1.37114,1.37047,0.00335443,1.38041,1.38165,1.39053,1.39355,1.39113,1.4023,1.39533,1.39276,1.39834,0.003501,1.54041,1.5411,1.4284,1.42501,1.42983,1.43015,0.00368913,0.00337938,1.46207,1.46103,1.47303,1.47456,1.47965,0.00336742,0.00356069,0.00368778,0.00369667,1.46272,1.46534,1.46765,1.47924,1.47949,1.48845,0.00353447,1.49017,1.49018,1.49037,1.49044,0.00373379,0.00345847,0.00387391,0.00326759,0.00360651,0.00356675,0.00361884,1.5146,1.51339
1.10914,1.10951,1.1107,1.18155,0.00338779,0.00330898,0.00339972,1.12174,1.11907,1.11931,1.10356,1.10502,1.10618,1.12676,1.12889,1.13082,1.12101,1.12224,1.12371,1.12256,1.12433,1.13179,1.13269,1.13257,1.13275,1.13372,1.12881,1.12588,1.12504,1.12689,1.13535,1.13643,1.13998,1.14041,1.1434,1.14524,1.14932,1.14583,1.14988,1.15161,1.15622,1.16017,0.00357126,1.17063,1.17013,1.16969,1.16521,1.16562,1.16348,1.16132,1.15963,1.15959,1.15551,1.15492,1.15685,1.15863,1.1598,1.15971,1.16047,1.16098,1.29151,0.00327944,0.0035988,1.1723,1.17334,1.17634,1.17694,1.17805,1.17745,1.17117,1.17072,1.17104,1.17472,1.17605,1.1782,1.17596,1.17597,1.17424,1.17052,1.17189,1.17434,1.17711,1.18093,1.1841,1.25166,1.19296,1.19415,1.19578,1.20108,1.20148,1.20239,1.20487,1.20676,1.20256,1.19851,1.19841,1.19855,0.00336807,1.1841,1.17585,1.17743,1.18832,1.18874,1.19479,1.19564,1.19223,1.19247,1.19508,1.19536,1.19838,1.19906,1.19687,1.36548,1.18273,1.17226,1.17289,1.17326,1.17484,1.17607,1.17698,1.22945,0.00321682,1.18586,1.19218,1.18815,1.18794,1.19111,1.19305,1.19836,1.20013,1.20331,1.2053,1.20217,1.20248,1.20263,1.19971,1.20205,1.2007,1.19913,1.19966,1.20121,1.18494,1.17516,1.18091,1.17784,1.16562,0.00395458,1.22291,1.22435,1.22626,1.14312,1.134,1.1353,1.1171,1.14121,1.14285,1.14418,1.11506,1.09693,1.10171,1.10257,1.07681,1.07597,1.07775,1.13059,1.16878,1.15194,1.17696,1.10766,1.10898,1.09528,1.10416,1.2456,1.16715,1.25741,1.22004,1.21968,1.21986,1.24118,1.24623,0.00359247,1.23515,1.23568,1.23515,1.23661,0.00352213,1.24835,0.00349705,1.26069,1.26449,1.26771,1.26816,1.54713,1.54833,1.41009,1.54915,1.38975,1.26682,1.40673,1.26509,1.26651,1.27004,1.27098,1.26858,1.27203,0.00358358,1.30067,1.30677,1.30798,1.30296,1.3041,1.30731,1.30718,1.31715,1.31716,1.32379,1.32441,1.32659,1.33081,0.0036197,0.00364537,1.4475,1.44698,1.44857,1.44708,1.3742,1.37246,1.35892,1.35127,1.3561,1.36109,1.35977,1.35894,1.36037,1.35841,1.35962,1.3594,1.3559,1.35371,1.35432,0.00348,0.0034706,1.39192,1.39448,1.39405,1.39296,1.37428,1.37483,1.3753,1.3743,1.36872,0.00348645,1.38101,1.38213,1.38194,1.38079,1.38747,1.38921,1.39029,1.39638,1.40005,1.40333,1.40438,1.40511,1.58302,1.42154,1.42008,1.42693,1.43256,1.42741,0.00346108,0.00333308,1.44208,1.4437,1.43996,1.44457,1.4421,1.44202,1.44161,1.43944,0.00365986,0.0036095,1.46066,1.46446,1.47566,1.47812,1.47837,1.48865,1.48832,1.48712,1.48584,1.48749,0.00330311,1.49453,1.50193,0.00346313,1.50613,1.50703,1.50581,1.50777
1.10964,1.11101,1.10844,1.10857,1.10873,1.10845,1.10899,1.11224,1.1128,1.11186,1.11117,1.10648,1.10655,0.00368533,0.00331028,1.12193,1.12174,1.12502,1.12545,1.1251,1.12439,1.1226,1.12416,1.12666,1.1286,1.12559,1.12679,1.12903,1.13183,1.13261,1.13452,1.13639,1.13819,1.14131,1.14155,1.1363,1.13587,1.14068,1.13994,1.14036,1.1456,1.1457,1.14805,0.00368576,1.16428,1.1646,1.16636,1.1636,1.1637,1.16406,1.16435,1.16401,1.16408,1.1645,1.1597,1.16048,1.16039,1.16057,1.15416,1.14829,1.29199,1.15967,1.16189,1.1616,1.16843,1.17036,1.17233,1.17421,1.16696,1.16802,1.171,1.16338,1.16345,1.16472,1.16997,1.1694,1.16878,1.17005,1.17046,1.17311,1.17157,1.179,1.1832,1.18745,1.19078,1.19053,1.19204,1.1948,1.19568,1.19509,0.00353214,0.00321598,0.00354021,1.18913,1.18429,1.18348,1.18744,1.18781,1.18389,1.18171,1.18112,1.18304,1.18617,1.18763,1.18893,1.19004,1.19091,1.19252,1.18042,0.00377423,0.00342982,1.18807,1.18932,0.00377254,1.1711,1.25748,0.00328073,1.17485,1.17825,1.17807,1.1754,1.18363,1.18617,1.18757,1.18768,1.18759,1.18548,1.18391,1.25628,1.19021,0.00359975,0.00345623,0.00336276,1.19552,1.19177,1.19077,1.19274,1.19491,1.19499,1.19787,1.18443,1.18678,1.1862,1.1904,1.19513,1.20238,1.20696,1.20798,1.19657,1.19789,1.20809,1.2095,1.16814,1.16815,1.19652,1.19833,1.20242,1.20266,1.20478,1.19882,1.19428,1.19477,1.18672,1.18812,0.00324827,1.12179,1.11983,1.12749,1.13008,1.10224,1.10385,1.20526,1.1821,1.17609,1.21785,1.22062,1.24459,1.24825,1.24669,1.2436,1.23963,1.23413,1.23306,1.23193,1.23224,1.23392,1.23446,1.4483,1.44848,1.38246,0.00328393,1.25571,1.25747,1.26221,1.2628,1.2635,1.26363,1.26135,1.26017,1.25965,1.2622,1.26251,1.26836,1.26957,1.2845,1.2863,0.00334413,1.30914,1.31182,1.30279,1.30616,1.31443,1.31456,1.31487,1.31494,1.32214,1.32357,1.33037,1.33226,1.33096,1.33081,1.33606,1.33639,1.33624,1.36072,1.36058,1.36589,1.36536,1.36758,1.36705,1.36488,1.36027,1.36175,1.36486,1.36749,1.37696,1.37865,1.36807,1.36693,1.37071,1.3695,1.39493,1.39513,1.39346,1.36622,1.36589,1.36562,1.36861,1.36934,1.37605,1.37929,1.37968,1.38458,1.38231,1.38247,1.38518,1.38836,1.38954,1.38998,1.38963,1.39615,1.39926,1.39959,1.40026,1.40003,1.40314,1.41639,1.41944,1.41932,1.41802,1.42259,1.42342,1.43894,1.43921,1.43634,1.43672,0.00354918,1.43651,1.43565,1.4393,1.44189,1.45039,1.45332,0.00356059,0.00348069,1.79982,1.48199,1.48365,1.48528,1.48348,1.48428,1.48642,1.49487,1.49494,1.49613,0.00334035,1.49248,1.49899,1.49666,1.49325
1.10668,1.10658,1.10866,1.10801,1.10615,1.10785,1.10437,1.10781,1.10845,1.10828,0.00372051,1.10424,1.10415,1.10602,1.11509,1.11632,1.1167,1.11625,1.11715,1.11238,1.31543,1.27415,0.00346416,1.12229,1.1225,1.1277,1.13276,1.13566,1.13526,1.15356,1.15235,1.13969,1.13742,1.13662,1.13525,1.13536,1.13763,1.13864,1.14269,1.14572,1.14715,1.14337,1.14686,1.14761,1.14838,1.15973,1.16173,1.16396,1.16476,1.16184,1.16302,1.15752,1.15788,1.15795,1.1564,1.15728,1.1575,1.15883,1.1512,1.14483,1.14753,1.15423,1.1571,1.15896,1.16027,1.16226,1.16206,1.159,1.15852,1.16097,1.15973,1.15913,1.1717,1.17286,1.17316,1.1742,1.17477,1.17267,1.17289,1.17764,1.17779,1.17409,1.17162,0.00353524,0.00346635,1.28791,0.00363293,0.0035957,1.18181,1.18229,1.18129,1.1815,1.17881,1.17829,1.17848,1.17958,1.18066,1.17983,1.17942,1.17409,1.17349,1.1724,1.17568,1.17966,1.18102,1.18281,1.26536,1.17724,1.1748,1.17681,1.17723,1.17568,1.17228,1.1662,1.16755,1.15495,1.15487,1.15666,1.17242,1.17315,1.30595,0.00359451,1.17168,1.16831,1.16751,1.16913,1.17344,1.17643,1.1771,1.177,1.17683,1.17755,1.29091,1.18199,1.18604,0.00349956,1.17456,1.17692,1.17913,1.18284,1.18629,1.19148,1.19384,1.19611,1.20534,1.21059,1.21474,1.21392,1.21521,1.21524,1.21416,1.21345,1.21015,1.21174,1.17764,1.17829,1.20312,1.20348,1.20701,1.20632,1.21132,1.19534,1.19932,1.19031,1.18931,1.14854,1.18457,1.18671,1.18809,1.17615,1.17893,0.00350459,1.2146,1.20631,1.21659,1.37751,1.22357,1.22614,0.00343539,0.00336977,1.23919,1.2347,1.40564,1.22339,1.22271,1.2246,1.22608,1.2316,1.23263,1.23691,0.00356284,1.25126,1.25506,1.25905,1.26207,1.26476,1.25769,1.25753,1.25378,1.25744,1.4068,1.27186,1.27044,1.27654,1.28298,0.00360323,1.31109,1.30917,1.30591,1.30859,1.3092,1.30878,1.3098,1.31506,1.3131,1.31184,1.31453,1.32018,1.3227,1.32311,1.33322,1.34053,1.34553,1.3501,1.3453,1.34412,1.34511,1.49947,1.37111,1.37002,1.37009,1.36987,1.36863,1.36994,1.37537,1.38152,1.37805,1.37608,1.37643,1.35927,1.35966,1.37395,1.37626,1.37934,1.37901,1.38261,1.37164,1.37353,1.37962,1.37528,1.3777,1.38761,1.38633,1.38581,1.3807,1.38182,1.38464,1.38972,1.38887,1.38597,1.38654,1.39011,1.22517,1.21211,1.40047,1.40514,1.41196,1.41654,1.41896,1.41919,1.41839,0.00343947,0.00366251,0.0033637,1.44591,1.44831,0.00386819,1.42587,1.42732,1.43251,1.44632,1.44674,1.44929,1.44255,1.44349,0.00356764,0.00329359,1.73629,0.00356668,1.45865,1.45909,1.46135,1.59598,0.00337509,1.48022,1.47799,1.48099,1.4823,1.49245,1.49084
0.0034639,0.00352365,1.18777,1.18895,1.09433,1.09581,1.0959,1.09778,0.00361306,1.09151,1.09234,1.09494,1.09574,0.00365969,1.11473,1.11429,1.11886,1.11878,1.11792,1.10607,1.10765,0.00345429,1.12414,1.12214,1.11795,1.12628,1.12968,1.13289,1.13235,1.13301,0.00330566,1.14974,1.13668,1.13621,1.13757,1.13512,1.14297,1.14257,1.14365,1.1464,1.14675,1.14318,1.14244,1.14219,1.14295,1.14478,1.14701,1.2816,1.16019,1.16222,1.1617,1.15832,1.15362,1.15389,1.15303,1.15449,1.15283,0.00367305,0.00333269,0.00341274,0.00343195,0.00354918,1.15371,1.15558,1.15455,1.15118,1.15071,1.15283,1.15602,1.15717,1.16023,1.1673,0.00339699,1.1759,0.00316441,1.17681,0.00350884,0.00345706,0.00360434,0.00345975,0.00344347,1.16659,1.16222,1.16153,1.16183,1.16222,1.16035,1.16128,1.15746,1.15881,0.00325376,1.16876,0.00323045,0.00384641,1.17352,0.00330829,0.0034171,1.18234,1.16585,0.00346946,0.00352061,0.0033337,1.1709,1.17117,1.17322,1.17405,1.17388,1.17331,1.17499,1.17526,1.17066,1.16861,1.16366,1.16349,1.16318,1.16191,1.15895,1.16148,1.16739,1.16517,1.16431,1.1637,1.16759,1.16458,1.16752,1.17247,1.17544,1.1751,1.17264,1.17375,1.18015,1.17689,1.17518,1.17951,1.18604,1.18758,1.18741,1.18261,1.1844,1.18777,1.19269,1.19145,1.19267,1.19675,1.19665,1.20453,1.20452,1.25065,1.20829,1.21157,1.21481,1.21004,1.21018,0.00348998,1.19256,1.18874,1.18439,1.18441,1.19981,1.18429,1.19494,1.16879,1.16925,1.16797,1.20126,1.21409,1.21563,1.21659,1.21726,1.22636,1.22616,1.2194,1.21452,1.21582,1.21402,1.2163,1.21888,0.00369595,0.00365172,0.00359336,0.00347961,0.00354879,1.37407,1.21251,1.21817,1.22045,1.22063,1.22588,1.22855,1.24017,1.24369,1.25689,1.2574,1.26382,1.26754,1.26582,1.25945,1.2597,1.26341,1.26429,1.26882,1.27404,1.28132,1.28366,1.28702,1.30728,1.31794,1.31345,1.3127,1.31638,1.3156,1.31654,1.31314,1.3146,1.31226,1.31151,1.31162,1.31375,1.31937,1.33347,1.34414,1.34536,1.34686,1.34844,1.3401,1.34768,1.34728,1.35154,0.00340581,1.36836,1.36718,1.36278,1.36055,1.36627,1.36695,1.37724,1.37611,1.37666,1.37773,1.36346,1.36084,1.36361,1.33052,1.38422,1.3831,1.29616,1.28944,1.28368,1.35718,1.37174,1.3835,1.38057,1.38078,1.38135,1.37962,1.37629,1.37952,1.38326,1.39469,1.3931,1.39915,1.40956,1.40797,1.52813,1.39921,1.39889,1.19068,1.19339,1.41929,1.41904,1.41954,1.42495,1.42474,0.00392456,0.00347976,1.43359,1.4575,1.436,1.43492,1.59793,1.60241,1.4411,1.44135,1.43972,1.43939,1.44375,1.4516,1.45136,1.45286,1.73051,1.45436,1.46441,1.4643,1.46197,1.4638,1.47655,1.47779,1.48195,1.48684,1.49889
1.07093,1.06948,1.06933,1.07077,1.09207,1.09202,1.09378,1.08686,1.08696,1.07828,1.08026,1.08542,1.08739,0.00329986,1.12206,1.12202,1.12234,1.12308,1.12159,1.12098,1.11937,1.11966,1.12435,1.12882,1.13008,1.12887,1.12215,1.12235,1.12309,1.12175,1.12335,1.12886,1.12829,1.28571,1.13753,1.14373,1.14474,1.14282,1.14257,1.14381,1.14333,1.1397,1.13918,1.13366,1.13744,1.13764,1.14123,1.14214,1.25817,0.00334866,1.15038,1.1487,1.14923,1.22991,1.15028,1.14704,1.14844,1.13662,1.12981,1.12501,1.1265,0.0034568,0.00383134,1.15262,1.1515,1.15185,1.15077,1.1514,1.15402,1.15517,0.00338885,0.00350295,1.15882,1.29119,0.00365238,1.29949,1.14373,1.14072,1.14083,1.14687,1.14521,1.14834,1.35685,1.15751,1.15766,1.15883,1.15584,1.15508,1.1567,1.15861,1.15851,1.15391,1.15607,1.15666,1.15405,1.15366,1.1502,1.15185,1.15346,0.00354006,1.1547,1.15669,1.15953,0.00339054,1.26813,1.15794,1.1612,1.16616,1.16722,1.16021,1.16044,1.165,1.16463,1.16315,1.1634,1.16362,1.16597,1.16383,1.16329,1.16802,1.1684,1.17133,1.17181,1.17478,1.18547,1.18773,1.18821,1.18834,1.17364,1.17256,1.17566,1.18119,1.1801,1.18287,1.18415,1.184,1.18191,1.18178,1.18189,1.18361,1.1849,1.18239,1.18937,1.19486,1.20147,1.20416,1.19825,1.19909,1.20345,1.2011,0.00348475,0.00327107,0.00378304,1.19094,1.19288,1.19323,1.1915,1.19466,1.20138,1.20193,1.20251,1.19869,1.1992,1.19875,1.20818,1.21096,1.21282,1.21566,1.21558,1.21714,1.21681,1.21813,1.33561,1.21029,0.00386582,0.00351515,1.20535,1.20117,1.19591,1.19895,1.20237,1.19521,1.19625,1.1983,1.20302,1.20373,0.00371891,1.21694,0.00345435,0.00338758,0.00343797,1.25692,1.2575,1.26731,1.26582,1.26536,1.271,1.27014,1.2716,1.27173,1.27209,1.27609,1.28443,0.00338554,1.30674,1.30622,1.30909,1.31212,1.3147,1.31746,1.31498,1.31566,1.31604,1.31405,1.31547,1.32256,1.32336,1.33274,1.33997,1.341,1.34262,1.34874,1.34637,1.35391,1.35415,0.00347714,1.36507,1.36227,1.36653,1.36619,1.36524,1.36356,1.36199,1.36345,1.36423,1.36969,1.37154,0.00344776,1.35585,1.3598,1.3638,1.36818,1.37674,1.35818,1.35941,1.37234,1.3738,1.37143,1.37073,1.37888,1.37949,1.3809,1.37983,1.38038,1.38108,1.38091,1.38201,1.38896,1.38816,1.39252,1.40153,1.4056,1.40958,1.41624,1.4191,1.42254,1.42358,1.42695,1.15062,1.1381,1.13776,1.43013,1.42647,1.42247,1.42362,1.42743,1.42937,0.00346227,1.41985,1.41661,1.41552,1.41534,1.4225,1.42776,0.00401493,1.44227,1.44319,1.444,1.44781,1.44749,1.45153,1.45561,1.45602,1.45903,1.46006,1.7131,0.00331487,1.47823,1.47629,1.48767
1.20772,0.00354762,1.07911,1.07911,1.07554,1.08205,1.09119,1.09292,1.08221,1.07837,1.08644,1.08869,1.09053,0.00357648,1.12,1.1195,1.12028,1.12351,1.1223,1.11264,1.11351,1.11598,1.11672,0.003565,1.12578,1.12677,1.12622,1.12334,1.12062,1.12065,1.12311,1.127,1.12848,1.12373,1.12524,0.00359769,1.14411,1.14695,1.15028,1.15021,1.14941,1.13673,1.13703,1.13278,1.13465,1.1341,1.13624,1.13801,1.13767,1.13978,1.14112,1.14388,1.14338,1.14123,1.14133,1.13782,1.14012,1.137,1.13575,1.13718,1.13488,1.13911,1.1402,1.14206,0.00330839,1.15117,1.14846,1.14867,1.14221,1.14437,0.00370737,0.00354384,1.1361,1.13721,1.1375,1.13808,1.13947,1.13776,1.14071,1.14275,1.14411,1.1435,1.14431,1.14508,1.14975,1.14918,1.14989,1.15047,1.1513,1.15149,1.15264,1.15301,1.15458,1.15639,1.15284,1.15025,1.15299,1.14554,1.14022,1.14146,1.14249,1.35907,0.00346158,1.14764,1.14719,1.14955,1.3152,0.00356236,0.00332515,1.28456,1.15637,1.15725,0.00357999,0.00363979,1.15595,0.00343143,1.15554,1.15667,1.15761,0.00359016,0.0035607,0.00358171,0.00345196,0.0037088,0.00364626,2.00641,0.0033683,0.00369805,1.182,1.17413,1.17335,1.17564,1.18036,1.18173,1.18218,1.18575,1.18467,1.18429,1.18575,1.18555,1.18768,1.19509,1.18919,1.18958,1.18729,1.1892,1.18967,1.18946,1.19037,1.1886,1.19186,1.191,1.19219,1.18198,1.18807,1.19248,1.19498,1.19576,0.0035199,1.20252,1.20818,1.20797,1.19819,1.19948,1.44359,1.20942,1.21207,1.21313,1.21267,1.21301,1.21592,1.21205,1.21102,1.20718,1.20666,1.20142,1.19711,1.18952,1.18046,1.18806,1.18812,1.19033,1.18637,1.18771,1.18759,1.18962,0.0035679,1.29966,1.21023,1.21046,1.21269,0.00338643,0.00347128,0.00341921,1.3678,1.26208,1.2656,1.26803,1.27107,1.27429,1.27426,1.27561,1.28216,1.28607,1.28984,1.29564,1.298,1.30542,1.30596,1.30446,1.30469,1.30819,1.30999,1.31216,1.31893,1.31842,1.33506,1.33801,1.34049,1.34835,1.34531,1.34711,1.35233,1.35691,1.36432,1.36921,1.36978,1.35904,1.35717,1.35756,1.35805,1.35509,1.35528,1.35918,1.35695,1.35235,1.34778,1.34843,1.35054,1.35237,1.35404,1.3671,1.36866,1.36976,1.36588,1.3591,1.35779,1.35727,1.47592,1.4776,1.37599,1.38526,1.38933,1.39008,1.38862,1.37831,1.37175,1.37544,0.00349373,1.40694,1.40426,1.40495,1.40561,1.40437,1.41734,1.41539,1.41546,1.42002,0.00365506,1.41416,1.15076,1.16685,1.13733,1.42044,1.41705,1.4191,1.41306,1.41056,1.40612,1.40664,1.41218,1.41382,1.42311,1.43296,1.43372,1.43842,1.44155,1.44049,1.44046,1.42734,1.42836,1.42859,1.43135,1.44133,0.00324632,0.00363339,0.00364442,1.47414,1.47592,1.47587
1.08473,1.08355,1.08423,1.08362,1.08136,1.08448,1.0853,1.09719,1.09783,1.09273,1.09289,1.08913,1.09062,1.09112,1.19856,0.00338965,0.00353,1.11711,1.11789,1.11593,1.11037,1.10812,1.11191,1.11449,1.11487,1.1189,1.11989,1.12018,1.11853,1.1202,1.12541,1.12829,1.12573,1.12538,1.12844,1.12509,1.12575,1.13102,1.132,1.18098,0.00351464,1.12102,1.13266,1.1352,1.13553,1.12861,1.12967,1.12949,1.13274,1.1374,1.13694,1.13914,1.13957,1.14078,1.13848,1.13856,1.13718,1.1368,1.13755,1.13728,1.13568,1.13517,1.13687,1.13785,1.13231,1.13265,1.13286,1.13181,1.12999,1.13006,1.12765,1.12856,1.12679,1.12879,1.12738,1.13217,1.13143,1.13243,1.13459,1.13608,1.14021,1.14043,1.13593,1.13807,1.14109,1.14345,1.14852,1.14175,1.1424,1.14333,1.14764,1.14984,1.14696,1.15769,1.16228,1.16262,1.16374,1.15175,1.15288,1.30553,1.13179,1.1354,1.13725,1.14131,1.14236,1.14047,1.13973,1.13887,1.1398,1.14001,1.14059,0.0034744,1.13999,1.1447,1.14291,1.14252,1.14967,1.14257,1.14438,0.00344326,0.0035347,0.00348028,1.2622,0.00339209,0.00345113,0.00350882,0.00365846,0.0036331,1.17104,1.16959,1.17052,1.17213,1.1739,1.17411,1.18304,1.187,1.18705,1.18813,1.18663,1.18621,1.19195,1.19076,1.19236,1.19418,1.2003,1.20293,1.30846,1.3071,1.30867,1.19177,1.19066,1.19086,1.19148,1.18807,1.19087,1.1908,1.18527,1.18303,1.18248,1.18261,1.19002,0.00356826,1.1976,1.19998,1.20455,1.20345,1.20813,1.20875,1.21008,1.21095,1.21005,1.21167,1.21321,1.21244,1.20818,1.20233,1.20191,1.20234,1.28911,1.19103,1.18565,1.18587,1.18756,1.18457,1.1857,1.18303,1.18567,1.18812,1.19226,1.20243,1.20394,1.21392,1.21859,0.00336277,1.23966,0.00346952,1.26031,1.25932,1.25387,1.25642,1.2551,1.31643,1.28117,1.28134,1.28859,1.28943,1.29624,1.29864,1.30708,1.30662,1.2994,1.30595,0.00357906,0.0033739,1.32672,1.32577,1.3243,1.32472,1.33662,1.33979,1.34854,1.34798,1.40574,1.3598,1.36311,1.36426,1.35725,1.35849,1.36311,1.36207,1.35823,1.35765,1.3396,1.34205,1.34619,1.32051,1.35242,1.35429,1.36065,0.00362969,1.37382,1.37276,0.00354323,0.00344923,1.43244,1.34105,1.34606,1.34534,1.34721,1.35342,1.36415,1.37079,0.00351914,1.38887,1.38742,1.37773,1.37786,1.3757,1.37963,1.38275,1.38964,1.40289,1.40491,1.40577,1.40515,1.40843,1.41266,1.40881,1.40979,1.40616,1.4156,1.41572,1.15951,1.16079,1.41599,1.42072,1.41181,1.41285,1.41041,1.41126,1.55817,1.42129,1.42583,1.4256,1.43139,1.43216,1.4283,0.00338822,1.44114,1.44095,1.44396,0.00347326,0.00355987,0.00342807,1.44711,0.00338506,0.00338871,0.00368918,0.00345758,1.49698
1.07375,1.07722,1.07365,1.07372,1.07641,1.07816,1.08012,1.09526,1.09618,1.09634,1.09176,1.09157,1.09063,1.09135,1.09332,1.09345,1.0997,1.19798,1.11166,1.11042,1.10897,1.10965,1.10809,1.10521,1.1162,1.1139,1.11777,1.11515,1.11536,1.11619,1.11784,1.11578,1.11661,1.12186,1.1223,1.12362,1.12357,1.11695,1.11903,1.27333,1.11823,1.12518,1.12427,1.12659,1.12796,1.12983,1.13439,1.1326,1.13136,1.13362,1.1358,1.13644,1.14209,1.14333,1.14611,1.14705,1.14293,1.13871,1.13637,1.13496,1.13507,1.13604,1.13474,1.1324,1.13154,1.13022,1.1287,1.12204,1.12243,1.12327,1.12406,1.12083,1.1213,1.12151,1.12191,1.12387,1.1255,1.12678,1.12854,1.12889,1.13155,1.13204,1.13364,1.13251,1.13354,1.14329,1.14276,1.14471,1.14263,1.14298,1.14254,1.14103,1.14024,1.25989,1.24315,1.15014,0.00378688,1.1484,1.14734,1.14838,1.14884,1.19811,1.13334,1.13414,1.13421,1.1341,1.13847,1.1363,1.13683,1.12862,1.12969,1.13098,1.1406,1.13832,1.13823,1.30599,1.13949,1.13213,1.13293,1.12681,1.12867,0.00356616,1.11273,1.11162,1.29558,0.00370181,0.00343052,0.00360568,1.15222,1.15529,1.15656,0.00376355,0.00334595,1.17011,0.00336053,0.00355385,0.0035598,1.18875,1.1916,1.19117,1.19088,1.19301,1.19626,1.19742,1.19548,1.19866,1.19758,1.1993,1.20136,1.20145,1.20193,1.20225,1.1993,1.19117,1.18877,1.18632,1.18776,1.17888,1.18099,1.18431,1.19112,1.19197,1.2048,1.20687,1.20701,1.21215,1.21415,1.2116,1.21167,1.21256,1.2093,1.20697,1.20715,1.20668,1.21006,1.20978,1.20587,1.19525,1.19637,1.19778,1.19449,1.19516,1.19256,1.18615,1.18199,1.18626,1.1874,0.00353071,1.20507,1.21125,0.00344178,0.00339347,0.00343185,1.23662,1.23825,1.23934,1.23626,0.00357803,1.25156,1.25174,1.25295,1.2541,0.00341394,0.00343992,0.00339964,1.28486,1.28831,1.30056,1.30059,1.29095,1.29166,0.00387526,0.00328727,1.31975,1.31836,1.31442,1.32972,1.33292,1.34015,1.34336,1.34649,1.34072,1.34184,1.35236,1.35493,1.35382,1.35179,1.35675,1.34713,1.35033,1.34965,1.33561,1.33329,1.33393,1.33529,1.34153,1.34702,1.34853,0.00315913,1.362,1.35996,1.34989,1.45003,1.34964,1.57484,1.33558,1.33739,1.34118,1.34356,1.34649,1.3525,1.39932,1.37772,1.37869,1.37542,1.37534,1.37569,1.37943,1.38186,1.38319,1.38756,1.39834,1.40133,1.40163,1.40965,1.40864,1.4052,1.40562,1.40297,1.4039,1.4077,1.40987,1.55023,1.43641,1.43619,1.43474,1.42815,1.42376,0.00357879,1.42491,1.42272,1.42956,0.0032233,0.00366862,0.00334458,0.0037632,0.00319161,1.45495,1.46078,1.46362,0.00358844,0.0036493,0.00335647,0.00373792,0.00337675,1.48563,1.49318,1.4919,1.50109,1.50503
1.06277,0.00342179,0.00356835,1.07121,1.07261,1.07911,1.08311,1.08511,1.08652,1.08779,1.08733,1.08875,0.00353693,1.09214,1.10149,1.09858,1.0923,0.00338734,1.09795,1.25338,1.09554,1.09605,1.09915,1.10215,1.11129,1.11197,1.11321,1.1173,1.1171,1.11159,1.10427,1.10985,1.11055,1.11562,1.1168,1.11976,1.11722,1.11519,1.11469,1.11463,1.11444,1.11355,1.11364,1.11455,1.12149,1.12356,1.12368,1.12655,1.13849,1.14019,1.14059,1.14125,1.14169,1.14359,1.1425,1.14264,1.13575,1.13426,1.13272,1.12735,1.12688,1.12785,1.13023,1.12728,1.12812,1.1264,1.12599,1.12508,1.12524,1.12341,1.12353,1.11922,1.1191,1.12262,1.12299,1.12405,1.12343,1.12164,1.1235,1.12307,1.12712,1.12888,1.12626,1.1319,1.13642,1.13718,1.1398,1.13967,1.14226,1.13997,1.14091,1.14004,1.13896,1.13752,1.13943,0.00340768,0.00361623,0.00349592,1.13984,0.00351763,1.14758,1.1496,1.14956,1.1484,1.15111,1.14114,1.14108,1.14154,1.14211,1.13006,1.12917,1.12674,1.12778,1.12825,1.12489,1.12556,1.12907,1.13237,1.13597,0.00343371,1.12206,1.12231,1.11166,1.10724,1.10818,1.2944,0.0035878,0.00343086,1.14068,0.00335804,1.1527,1.15621,1.1558,1.1574,1.16235,1.16423,0.00360064,0.00353714,1.17723,1.17763,1.18314,1.18411,1.19461,1.18965,1.19457,1.19572,1.1953,1.1979,1.19604,1.19288,1.19477,0.00338576,1.19487,1.19349,1.26954,1.18235,1.18413,1.18236,1.1825,1.18695,1.18991,0.00334854,1.20232,1.2078,1.20874,1.20647,1.21097,1.21165,1.19734,1.1971,1.19442,1.20451,1.20523,1.20751,1.20903,1.20946,1.21216,1.20717,1.2086,1.21034,0.00347655,0.00353227,1.20101,1.1979,1.19907,0.00356598,0.00373837,0.00344668,0.00330815,1.22296,1.2244,1.22958,1.23621,1.23549,1.23893,1.24059,1.24376,1.24918,1.25,1.23782,1.23906,1.23951,1.24193,1.25309,1.36387,0.00335599,1.27704,1.27684,1.27719,1.2895,0.00364224,0.0035055,0.00366126,1.39854,1.31135,1.31284,0.00348221,0.00341247,0.00356867,1.38213,1.31621,1.32379,1.32494,0.00321372,1.38919,1.341,1.34037,1.3432,1.33745,1.33875,1.34236,1.33652,1.33372,1.33222,1.33153,1.33337,1.33208,1.33494,1.35096,1.34874,1.35243,1.34618,1.33939,1.33784,1.33564,1.33369,1.33379,1.33969,1.33652,1.34305,1.35042,1.35066,1.36143,1.36521,1.37158,1.37181,1.37121,1.37403,1.37766,1.37975,1.38551,1.41778,1.39909,1.39986,1.39768,1.39825,1.40447,1.40617,1.40383,1.4085,1.40889,1.42218,1.42099,1.42534,1.43017,1.43752,1.43756,1.44001,1.44653,1.5056,1.44778,0.00343211,1.44582,1.44635,1.44876,1.46536,1.46768,1.46954,1.46988,1.47388,1.48134,1.47994,1.48571,1.48583,1.48491,1.48525,1.48512,1.48605,1.49914,1.49614
1.05453,1.05509,1.06107,1.06503,1.06625,1.07969,1.08018,1.0805,1.08081,1.08125,1.0853,1.08747,1.0871,1.09069,1.09377,1.1429,1.14358,1.20842,0.00325393,1.09137,1.092,1.09912,1.1036,1.10489,1.10614,1.10874,1.10423,1.10347,1.10353,1.10037,1.10246,1.10315,1.10209,1.10322,1.112,1.11467,1.11479,1.11789,1.11877,1.11493,1.11476,1.11234,1.11392,1.11537,1.11528,1.12264,0.00362409,0.0035458,1.13793,1.13408,1.13597,1.13794,1.14103,1.14214,1.14229,1.13427,1.13386,1.13516,1.12543,1.12568,1.12064,1.12107,1.12156,1.12241,1.125,1.12644,1.12762,1.12963,1.12956,1.13142,1.13157,1.12909,1.12402,1.12509,1.12241,1.12268,1.11892,1.11893,1.11864,1.12371,1.12581,1.13283,1.13366,1.13422,1.13549,1.13715,1.1389,1.13787,1.14377,1.14655,1.14903,1.14777,1.14359,1.14298,1.1439,1.13032,1.13045,1.13285,1.13367,1.13575,1.14258,1.14599,1.15014,1.1515,1.15289,1.13664,1.13667,1.14145,1.1499,0.00344757,0.00352417,0.00355624,1.128,1.12727,1.13029,1.12994,1.13103,1.12973,1.12919,1.13144,1.11573,1.1146,1.11383,1.11197,1.11816,1.11996,1.12176,1.11836,0.00347946,0.00379754,1.14817,0.0034633,1.15128,1.15462,1.15587,1.1598,1.15852,1.16137,1.16695,0.00355261,1.2608,1.1682,0.00332178,0.00341067,1.1855,1.18638,0.00350006,0.00350371,0.0035931,1.20142,1.18152,1.18069,0.00342269,0.00373903,1.18155,1.18017,1.17855,1.18907,1.19165,1.27083,1.38169,1.19184,0.00343033,0.0037583,1.36497,1.29277,1.33198,1.19792,1.19761,1.19546,1.19419,1.19493,1.19497,1.19593,1.39792,1.20399,1.2038,1.20602,1.21503,1.214,1.21831,1.21729,1.21928,1.22178,1.22239,1.22575,1.2293,1.22955,1.23153,1.23318,1.23556,1.24037,1.24189,1.24343,1.24576,1.24661,1.24765,1.24938,1.25102,1.25264,1.24013,1.23902,1.23936,1.24275,1.24481,1.24875,1.30718,1.26643,1.27195,1.27798,1.28834,1.28838,0.00335255,1.40404,1.40587,1.35416,1.28732,1.28878,1.30211,1.30636,1.31732,1.31721,1.31676,1.32612,1.32697,0.00361266,1.32914,1.39159,1.33436,1.32886,1.32451,0.00354154,1.33764,1.3374,1.341,1.34017,1.33652,1.33453,1.3332,1.33426,1.33914,1.33888,1.32948,1.33411,1.32784,1.32567,1.33042,1.33089,1.33652,1.34354,1.34381,1.3686,1.36783,1.37078,1.38214,1.37986,1.37495,1.37565,1.38133,1.38194,1.3849,1.37887,1.37811,1.38341,1.38799,1.39757,1.40836,1.41165,1.40847,1.42053,1.41948,1.42678,1.42197,1.42221,1.42168,1.42803,1.43318,0.00329706,1.45463,1.45812,1.45631,1.45608,0.00333333,0.00369713,1.47309,1.46147,1.45973,1.46462,1.47502,1.48045,1.4805,1.48283,1.47169,1.47281,1.47454,1.4747,1.47752,1.47569,1.47758,0.00368997
1.06277,1.0593,1.05923,1.05994,1.07034,1.07361,1.08021,1.07847,1.08081,1.07473,1.07463,0.00353622,1.08044,1.07874,1.08129,0.00342641,1.06928,1.25739,0.00357287,0.00348856,1.08694,0.00325745,1.10232,1.09762,1.23115,1.10441,1.10281,1.10224,1.10316,1.10353,1.09552,1.09689,1.09766,1.10193,1.104,1.10147,1.10348,1.10415,1.10464,1.10774,1.10689,1.10602,1.10634,1.10791,1.10901,1.11013,1.28567,1.12308,1.12427,1.12975,1.12976,1.13229,1.12813,1.12829,1.13271,1.12897,1.12946,1.13238,1.12517,1.12425,1.12364,1.12282,1.12218,1.12222,1.12427,1.12524,1.12376,1.12385,1.12664,1.12931,1.13036,1.13367,1.13179,1.12874,1.13111,1.13027,1.12312,1.12041,1.12247,1.12496,1.1288,1.13119,1.13156,1.13128,1.12837,1.13014,1.1423,1.14281,1.14518,1.14644,1.14766,1.1498,1.14966,1.1515,1.14838,1.14349,1.14309,1.13772,1.13682,1.13645,1.13771,1.14028,1.14691,1.14308,1.13329,1.1335,1.13762,1.14271,1.1414,1.14553,1.14046,1.14302,1.13607,1.13294,1.12981,1.12775,1.12898,1.12776,1.12807,1.1222,1.12142,1.12119,1.11622,1.11667,1.11766,1.11926,1.117,1.11605,1.11906,1.12872,1.13328,1.13483,1.13579,0.00316398,1.35881,1.14788,1.14998,0.00327119,1.16394,1.168,1.1691,1.17132,1.16649,1.17229,1.17585,1.17557,1.17583,1.17647,1.17116,1.16828,1.1734,1.17835,1.17894,1.1762,1.17412,1.17774,1.17964,1.18467,1.18318,1.17688,1.17563,1.17754,0.00357006,0.0034777,1.18782,1.18742,1.18477,1.18651,1.19471,1.19543,1.19419,1.19459,1.30242,1.18745,1.18613,1.18746,1.19197,1.1968,1.2025,1.20792,1.20699,1.21626,1.21609,1.21937,1.22269,1.22286,1.22227,1.22044,1.22351,1.22524,1.22697,1.2307,1.23624,0.00342918,1.25094,1.24291,1.23646,1.23707,1.24115,1.24475,1.25104,1.24895,1.25379,1.25407,1.25486,1.25679,1.25735,0.00347284,1.27623,1.28254,1.28393,1.28273,1.28398,1.28457,1.27605,1.27517,1.27727,1.29016,1.29422,1.29475,1.30842,1.309,1.31102,0.00333069,1.32636,1.3216,1.32086,1.32333,1.32609,1.32324,1.32501,1.31704,1.32954,1.32886,1.33232,1.34198,1.33712,1.33462,1.3319,1.32975,1.33004,1.33239,1.32628,1.32347,1.3264,1.32724,1.3279,1.33118,1.33581,1.33909,1.33991,1.34983,0.00358871,1.37386,1.37373,1.37474,1.37488,1.37827,1.37774,1.37826,1.38195,1.38021,1.38148,0.00311582,1.39925,0.00338342,1.44774,1.41457,1.41505,1.41531,1.4145,1.41528,1.42836,1.42847,1.42575,1.42856,0.00380385,1.4912,1.48646,1.46417,1.4636,1.46291,1.48028,1.47998,1.46131,1.45947,1.46064,1.46236,1.46438,1.60237,1.603,0.00341379,0.00389648,0.00347072,0.00351253,0.00331056,1.60346,0.00333213,0.00348289,0.00329039
1.06646,1.06449,1.05994,1.06053,1.06795,1.06841,1.06919,1.07054,1.06947,1.06845,1.06771,1.06893,0.00350407,1.06943,1.07003,1.06394,1.06241,1.06312,1.06408,1.06581,1.06644,0.0035893,0.0034931,1.09244,1.09223,1.09367,1.09461,1.09413,1.09673,1.09513,1.097,1.09832,1.09789,1.09557,1.09775,1.0973,1.10177,1.09901,1.09908,1.10096,1.10657,1.10647,1.10826,1.10704,1.10757,1.1078,1.10776,1.10978,1.11229,1.12323,1.12403,1.12664,1.12669,1.12637,1.12453,1.12536,1.11878,1.11892,1.12392,1.12401,1.12376,1.11989,1.12018,1.12221,1.12209,1.12119,1.11873,1.1191,1.12136,1.12154,1.12308,1.12935,1.1319,1.1242,1.13315,1.12378,1.13631,1.13647,1.13819,1.13899,1.13881,1.14001,1.129,1.12659,1.12586,1.12576,1.12788,0.00388025,1.14385,1.15075,1.15224,1.15309,1.15228,1.15344,1.14829,1.14806,1.1472,1.138,1.1394,1.13559,1.14245,1.14293,1.14259,1.13992,1.13376,1.1368,1.14049,1.13967,1.14012,1.14214,1.13863,1.13234,1.13418,1.13393,1.13451,1.13592,1.13132,1.13303,1.12387,1.1244,1.12444,1.12427,1.12031,1.12055,1.12168,1.11711,1.11854,1.12293,1.12564,1.12906,1.13124,1.13351,1.13456,1.1349,1.13993,1.14438,1.14554,0.00357325,1.15774,1.16153,1.16248,1.16255,1.16851,1.16938,1.17082,1.17272,1.17518,1.1762,1.17358,1.17219,0.00326795,0.00364174,1.17139,1.1733,1.16773,1.17079,1.1758,1.17932,1.17277,1.17078,1.1715,1.16783,1.16637,1.16593,1.1705,1.17242,1.18629,1.1879,1.19071,1.19075,1.1948,1.31514,1.18491,1.18412,1.18343,1.18608,1.19069,1.19215,1.20215,1.20183,1.20275,1.20543,1.20599,1.20747,0.00378357,1.22053,1.22532,1.22437,1.21635,1.21978,1.22114,1.22727,1.23042,1.23243,1.24097,1.24247,1.24325,1.2404,1.24168,1.2439,1.24522,1.24825,1.24744,1.24872,1.3913,1.2667,1.26696,1.27429,1.27434,1.28245,1.28458,1.28807,0.00329985,1.37296,1.26162,1.26229,0.00358141,1.27901,1.28255,1.42938,0.00348597,1.42004,0.00347069,1.3007,1.30455,1.30607,0.00332491,0.00338623,0.00342239,0.00363945,1.31254,1.31771,1.31924,1.33228,1.33373,1.33218,1.33548,1.33192,1.33221,1.33028,1.3253,1.31998,1.31786,1.32065,1.32474,1.32708,1.32952,1.3356,1.33553,1.33825,1.34819,1.35452,1.35582,1.56075,1.37773,1.37525,1.38445,1.38303,1.38292,1.38321,1.55033,1.55325,0.00350853,1.54462,1.53755,1.53648,1.43294,1.43346,1.43655,1.43632,1.41944,1.42937,1.42877,1.42051,1.41962,1.4219,0.00355269,1.43999,1.45087,0.00367395,0.00320646,0.0035765,0.00343259,1.46475,1.43868,1.4387,1.43933,0.00351904,0.00340776,0.00337297,0.00358087,0.00326315,0.00331927,0.00337732,0.00335498,0.0036098,0.00356722,0.00362564,0.00337527,1.43221
1.05694,1.0584,1.0585,1.05921,1.05466,1.05898,1.05678,1.05912,1.05516,1.05374,1.05829,1.059,1.05449,1.05593,1.06073,1.20462,1.06046,1.06233,1.06778,1.06797,1.06852,1.07382,1.08788,1.09064,1.09217,1.09174,1.09296,1.0927,1.09223,1.09299,1.09381,1.0933,1.09421,1.09135,1.09183,1.10023,1.09431,1.09107,1.09388,1.09381,1.09547,1.10694,1.10684,1.10504,1.10592,1.1058,1.10474,1.10838,1.11365,1.11345,1.12326,1.122,1.12245,0.00334897,1.12178,1.11948,1.12158,1.1158,1.11855,1.11244,1.11329,1.1151,1.11639,1.12199,1.12281,1.12221,1.11929,1.11749,1.11644,1.12182,1.1206,1.1219,1.12654,1.12851,1.12213,1.12155,1.12229,0.00357161,1.1374,1.26731,1.12374,1.12665,1.12695,1.12741,1.12408,1.12494,1.12316,0.00364436,0.00375221,1.15287,1.15146,1.15053,1.15054,1.15075,1.15289,1.14982,1.14901,1.13708,1.13826,1.14067,1.13783,1.14019,1.14303,1.14656,1.14501,1.14431,1.1493,1.14527,1.14787,1.13578,1.13229,1.13289,1.1354,1.13624,1.14088,1.14153,1.14502,1.14889,1.14181,1.13102,1.12849,1.12585,1.12185,1.11593,1.11693,1.11475,1.1155,1.11931,1.12566,1.12757,1.13168,1.13169,1.13297,1.13817,1.13959,1.14585,1.14368,1.14457,1.14972,1.15153,1.15277,1.1487,1.27026,0.00372945,1.17247,1.17326,1.17677,1.16061,1.16292,1.16223,1.15345,1.15999,1.16006,1.16369,1.16725,1.17018,1.17029,1.16614,1.16976,1.16851,1.17122,1.17377,1.17716,1.17662,1.17548,1.17537,1.17603,1.18138,1.18543,1.18279,1.18148,1.18149,1.17528,1.17487,1.17747,1.18452,1.18441,1.1873,1.1881,1.19716,1.1976,1.19707,1.19879,1.19941,1.20248,1.20525,1.20702,1.20733,1.212,1.21186,1.22435,0.00350087,1.22698,1.22853,1.23009,1.23251,1.23738,1.23482,1.23982,1.24628,1.25222,1.25305,1.24751,1.24975,1.24998,1.25133,1.25687,1.25869,1.27547,1.27757,1.27027,1.26477,1.26643,1.25474,1.25668,1.26004,1.26704,1.26787,1.28109,1.28177,1.28338,1.64855,1.27317,0.00350167,1.29316,1.299,1.30234,0.00352596,1.2949,0.00348152,1.46091,0.00326062,1.31487,0.00352748,1.40668,1.37662,0.00385796,0.00353847,1.31518,1.31602,1.31652,1.3175,1.31382,1.31646,1.32285,1.32138,1.32373,1.33449,1.33829,1.34278,1.35472,1.35682,0.00373471,0.00341219,1.51397,0.0034408,0.00367824,1.39853,1.39563,1.39566,1.47351,1.41367,1.4104,0.00337494,1.46056,1.449,1.44565,1.44828,1.45149,1.39916,1.45181,1.41175,1.41292,1.41567,1.41702,1.4194,0.00375107,1.43587,0.00373387,0.00340654,0.00338998,1.40848,1.41592,1.41538,0.00340973,0.00340925,0.00369012,0.00335998,0.00357626,0.00336353,0.00354038,0.00359828,0.00363766,0.00370957,1.41073,1.41366,1.41447,0.00364131,1.4136,1.41587
1.05354,1.05271,1.05352,1.05473,1.05658,1.05492,1.05522,1.05657,1.05663,1.05492,1.0533,1.06194,1.06356,1.05944,1.05987,1.25536,1.04712,1.04939,1.05716,0.003673,0.00352659,1.08213,1.08342,1.08363,1.09123,1.09206,1.09398,1.09532,1.09831,1.09644,1.09658,1.09731,1.09397,1.08991,1.09869,1.0998,0.00367946,1.09132,1.08994,1.09052,1.09101,1.08884,0.00326179,1.1018,1.1031,1.10361,1.10416,1.09799,1.09919,1.10342,1.10521,1.27446,1.11539,1.11631,0.00344605,1.11152,1.10516,1.10517,1.1138,1.11342,1.11536,1.11515,1.11589,1.11445,1.11694,1.11715,1.12257,1.12057,1.11966,1.11374,1.11289,1.11335,1.1126,1.11326,1.10805,1.10918,1.11254,1.11941,1.12269,1.1231,1.12401,1.122,1.11819,1.11918,1.12088,1.12297,1.12298,1.25065,1.14134,1.15054,1.14959,1.14849,1.15107,1.15098,1.14954,1.14734,1.14413,1.14326,1.13859,1.13853,1.13871,1.14388,1.14618,1.14908,1.15103,1.15278,1.15108,1.14267,1.1421,1.14249,1.14355,1.1424,1.14201,1.14268,1.14261,1.14203,1.14577,1.14374,1.145,1.14811,1.15044,0.00370449,1.12587,1.12558,1.12389,1.11885,1.11565,1.12291,1.12404,1.12611,1.13016,1.12985,1.13033,1.13495,1.14028,1.14065,1.14132,1.13899,1.14248,1.13819,1.13798,1.14254,1.15072,1.15325,0.00348411,1.17516,1.16517,1.16781,1.16897,1.16107,1.16477,1.15737,1.16297,1.16467,1.16845,1.16648,1.16794,1.16829,1.17021,1.17584,1.1819,1.18339,1.18223,1.18394,1.18445,1.18439,1.1836,1.18459,1.18411,1.18388,1.18676,1.18608,1.1842,1.18286,1.18537,1.18505,1.19354,1.19608,1.18985,1.18522,1.18723,1.19572,1.199,1.19988,1.20026,1.20505,1.20752,1.20886,1.21229,1.21243,1.21699,1.22384,1.2259,1.22665,1.22994,1.23107,1.2329,1.23891,1.24327,1.24286,1.36754,0.00354556,1.24958,1.24794,1.24971,1.24636,1.24413,1.24671,1.25406,1.25668,1.26613,1.2669,1.2633,1.26292,1.25501,1.25568,1.26024,1.25855,1.4098,1.40802,1.26605,1.2658,1.26913,1.27409,1.2736,1.27746,1.27896,1.28211,1.28888,1.29173,1.29305,1.29678,1.301,1.30518,1.3039,1.30492,1.30289,1.30204,1.29868,1.29804,1.30208,1.30063,1.29937,1.29917,1.30403,1.30841,0.0033703,1.32274,1.32286,1.32575,1.32456,1.3301,0.00326487,0.00341438,1.34787,1.3495,1.34978,1.35008,0.00333477,0.00345891,0.00343362,0.00351777,1.37196,1.3757,0.00354081,1.44597,1.44697,1.43503,0.00342298,1.43679,1.43411,0.00345618,1.40852,1.40839,1.4102,1.41272,0.00332256,1.42012,1.42302,0.00402952,0.00339733,1.39351,1.39707,0.00329164,0.00332528,1.41573,1.40801,1.41243,1.41033,1.407,1.40471,1.40967,1.40744,1.40716,1.40716,1.40893,1.40996,1.40694,1.40651,1.40353
1.04691,1.04667,1.05175,1.05385,1.0582,1.06006,1.05976,1.05954,1.04899,1.04789,1.04345,0.00341408,0.00342038,1.06527,1.06737,1.06918,1.04736,1.053,1.0491,1.14564,0.00362273,1.08135,1.08317,1.08045,0.00372909,1.09442,1.09872,1.10152,1.1033,1.1035,1.0963,1.09581,1.09378,1.09473,1.09601,1.08607,1.08932,1.08637,1.08953,1.09094,1.08678,1.08814,1.0887,1.08902,1.09153,1.09788,1.09548,1.09781,1.10077,1.09786,1.10181,1.10162,1.10291,1.10554,1.10365,1.1015,1.103,1.10473,1.1095,1.10938,1.11058,1.10977,1.10918,1.10653,1.11144,1.11293,1.11246,1.11354,1.12149,1.1225,1.11305,1.1119,1.10855,1.1101,1.10958,1.11157,1.11013,1.10866,1.10957,1.11489,1.11361,1.11374,1.11483,1.11493,1.11691,1.12379,1.13016,1.13014,1.132,0.00366794,0.00356512,0.00340185,0.00358068,1.18904,1.14962,1.14812,1.15266,1.15336,1.15235,1.15146,1.14394,1.1431,1.14442,1.14573,1.14723,1.14414,1.14302,1.14125,1.14275,1.14327,1.14421,1.14431,1.14065,1.14206,1.14227,1.13592,1.1361,1.14488,1.14438,1.14627,1.14678,1.14881,1.1502,0.00355337,1.12644,1.12848,1.11851,1.1238,1.12297,1.12557,1.12703,1.12885,1.13401,1.13625,1.14085,1.14228,1.14379,1.13693,1.13624,1.13726,1.14117,1.15218,1.1514,1.15119,1.15543,1.15706,1.15877,1.16325,1.16178,1.16662,1.16173,1.16364,1.16447,1.16993,1.17052,1.17057,1.17055,1.1703,1.1718,0.00370109,1.18546,1.18799,1.18772,1.18473,1.18603,1.18737,1.1907,1.18784,1.18811,1.18247,1.1806,1.18292,1.18352,1.18776,1.1877,1.18929,1.19122,1.19212,1.19108,1.19489,1.19587,1.19474,1.20269,1.20572,1.20589,1.20902,1.21154,1.21074,1.20667,1.20555,1.21002,1.21948,1.22104,1.22217,1.22127,1.22162,1.22196,1.22322,1.22106,1.22386,1.22607,1.23258,1.23098,1.23572,1.24253,1.2454,1.24325,1.24391,1.24559,1.24583,1.25644,1.26244,1.26406,1.26133,1.2636,1.26727,1.27205,1.27075,1.2564,1.25387,1.25964,1.26242,1.26428,1.26578,1.27105,1.27302,1.27446,1.28347,1.28528,1.28421,1.28744,1.29919,1.30181,1.30513,0.0035028,0.00339391,1.29348,1.29882,1.29855,1.30009,1.29954,1.29345,1.29593,1.29806,1.30286,1.3038,1.30358,1.30633,1.309,0.0031435,1.42292,1.31375,1.31697,1.3223,1.32798,1.32971,1.32559,1.32819,1.33251,1.33707,1.33794,1.33669,1.34893,1.44401,0.00335602,0.00351204,0.00355013,1.42918,1.43001,0.00360411,0.00346674,0.00334055,0.00323322,0.00341304,1.36736,1.36668,1.36393,1.36879,1.37132,1.3778,1.37744,0.00329577,1.38949,1.39078,1.38699,1.38844,0.00368563,0.00333134,1.39204,0.00341416,0.00372406,0.00350384,0.00388348,0.00316953,1.39012,1.3901,1.39137,0.00338404,0.00360474,1.38559
1.04178,1.18702,1.0517,1.05433,1.05579,1.05713,1.05672,1.05269,1.0526,1.04354,1.04374,1.04699,1.04932,1.06158,1.06357,0.00359248,0.00354493,1.04047,1.04222,1.1409,0.00355177,1.08309,1.08481,1.07929,1.08478,1.08624,1.09129,1.09625,1.09789,1.09847,1.09694,1.09757,1.0957,1.0951,1.08567,1.08568,1.08641,1.08272,1.08577,1.08749,1.08471,1.08408,1.08417,1.08765,1.08789,1.08944,1.09136,1.09159,1.09235,1.09832,1.0985,1.0957,1.09493,1.0962,1.09751,1.09846,1.09736,1.09942,1.10034,1.10193,1.10264,1.10132,1.10233,1.10354,1.10455,1.10656,1.10466,1.1046,1.10542,1.11652,1.12186,1.12252,1.12317,1.11571,1.11575,1.10415,1.10632,1.10695,1.11046,1.11036,1.10971,1.113,1.12041,1.12102,1.12238,1.11779,1.11714,1.11756,0.00361212,1.25089,0.00352411,1.23351,0.00343719,0.00363487,0.00347986,0.00367381,1.26386,0.00339782,1.15102,1.14485,1.14791,1.15026,1.15422,1.15034,1.1533,1.15068,1.14208,1.14571,1.14294,1.13988,1.14103,1.14549,1.14708,1.14008,1.13161,1.14025,1.14037,1.14063,1.14316,1.14295,1.14844,1.15093,1.15286,1.15284,1.14048,0.00367917,1.12262,1.1227,1.11865,1.12179,0.0034315,0.00344562,1.14094,1.14275,1.14357,1.14646,1.1451,1.14589,1.14331,1.14437,1.14954,1.15394,1.15575,1.15559,1.15923,1.15528,1.15503,1.15729,1.15996,1.15483,1.16275,1.16292,1.16278,1.16508,1.17007,1.16942,1.17064,1.1705,1.17648,1.18045,1.18028,1.17954,1.17829,1.18058,1.18059,1.18154,1.18086,1.18114,1.18715,1.18763,1.1886,1.18809,1.1876,1.18955,1.1929,1.19124,1.19416,1.19029,1.19102,1.18839,1.1913,1.19308,1.19514,1.20204,1.20609,1.20515,1.20272,1.19958,1.19968,1.20137,1.20375,1.1956,1.19777,1.20097,1.20343,1.20373,1.21135,1.21682,1.22138,1.22358,1.22495,1.22883,1.22755,1.2349,1.23601,1.23369,1.24067,1.24395,1.23839,1.24135,1.24777,1.25409,1.26416,1.26139,1.2625,1.26241,1.26523,1.27281,1.27518,1.27541,1.27715,1.27405,1.27151,1.27338,1.2695,1.27393,1.28225,1.28257,1.28853,1.2877,1.28744,1.28484,1.28517,1.2843,1.28261,1.28106,1.28749,1.28559,1.29414,1.29728,1.29875,1.30559,1.29831,1.29662,1.30189,1.30478,1.3077,1.30764,1.30759,1.30492,1.30163,1.29975,1.30371,0.00330408,1.31471,1.31935,1.3192,1.31963,1.32531,1.32855,1.33121,0.00346299,1.43441,1.3416,1.34182,1.35994,1.32274,1.32686,1.32955,1.33268,1.34032,1.34058,1.42946,1.35367,1.36096,1.36109,1.36167,1.36379,0.00351501,0.00372305,0.00328959,1.38024,0.00333498,0.00359306,1.38627,1.38627,0.00348151,1.38638,0.00340988,1.37568,1.37812,1.38136,1.37446,1.37952,1.37616,0.00354088,0.00373603,0.00335557,0.00339574,0.00352952
1.04293,1.04536,1.04685,1.05124,1.0526,1.05175,1.05286,1.05148,1.0519,1.04426,1.04685,1.04879,1.0508,1.05991,1.062,1.06225,1.04164,1.04185,1.04222,0.00329362,0.00375972,0.00330611,1.08596,1.08734,1.087,1.08763,1.09073,1.09081,1.09239,1.09554,1.09638,1.09745,1.09718,1.0954,1.0966,1.08585,1.08418,1.08323,1.08356,1.08255,1.08446,1.08438,1.08554,1.08745,1.08898,1.08462,1.08622,1.08887,1.08884,1.09108,1.09462,1.09786,1.09773,1.09562,1.0939,1.09336,1.09466,1.09688,1.09714,1.09295,1.101,1.10151,1.09813,1.09997,1.10085,1.10028,1.1,1.09975,1.10142,1.1057,1.11221,1.12058,1.1208,1.12168,1.1147,1.11184,1.10584,1.10486,1.10683,1.10776,1.11164,1.11285,1.11234,1.11814,1.12151,1.11684,1.11647,1.10936,1.11013,1.10834,1.10223,1.10261,1.1035,1.15735,1.21881,1.12979,1.12862,1.12939,1.12887,0.00354144,1.1493,1.14986,1.14805,1.15021,1.15133,1.14649,1.14906,1.14597,1.14586,1.14125,1.14343,0.00332485,0.003399,1.13385,1.1339,1.13625,1.14207,1.14302,1.14233,1.1447,1.14921,1.14901,1.15096,1.13702,0.00360858,1.13634,1.1209,1.12466,1.12478,1.1234,1.12314,1.12744,0.00353425,1.13968,1.14116,1.15028,1.14151,1.14449,1.14507,1.15062,1.15155,1.15458,1.15723,1.15387,1.15472,1.15631,1.15694,1.15204,1.15278,1.1531,1.15703,1.15711,1.1619,1.16391,1.16858,1.16912,1.17077,1.17809,1.17746,1.17778,1.17504,1.17771,1.17851,1.17909,1.18207,1.18314,1.187,1.18746,1.18864,1.19598,1.19891,1.18962,1.1899,1.19033,1.19148,1.18757,1.18994,1.19612,1.19561,1.20069,1.19659,1.19625,1.1977,1.19492,1.19787,1.19611,1.19764,1.19737,1.19988,1.20067,1.20032,1.20031,1.19769,1.19735,1.19864,1.20503,1.20574,1.21398,1.2195,1.22114,1.22815,1.22353,1.22603,1.22842,1.23026,1.23242,1.24407,1.24559,1.2456,1.24513,1.2475,1.24974,1.25134,1.25729,1.25849,0.00327857,1.25929,1.25621,1.2572,1.25919,1.27098,1.27824,1.2795,1.27207,1.27854,1.27711,1.27897,1.28152,1.28342,1.28384,1.2855,1.27047,1.27226,1.2725,1.27752,1.27746,1.29445,1.29367,1.29374,1.29415,1.2894,1.28867,1.29489,1.29254,1.29465,1.29527,1.29995,1.29659,1.2959,1.29563,1.29648,1.29828,1.30059,1.29831,1.29895,1.30553,1.30626,1.30922,1.33725,0.00341322,1.42244,0.00351255,0.00380579,0.00370444,0.00370335,0.00324724,0.00373039,0.0035614,0.00350562,0.00343505,1.42327,0.00369663,0.00366452,0.00361125,1.34089,1.3426,1.3848,1.34698,1.34807,1.34306,1.34112,1.34311,1.45597,1.45589,1.36396,0.0033498,0.00356865,0.00328801,0.0036519,0.00320622,0.00373155,0.00353384,1.43357,0.00330483,1.42451,0.00332734,0.00372364,0.00347035,0.00364611,0.00333611
1.031,1.04071,1.04078,1.04235,1.0476,1.20603,1.15512,1.1572,1.11209,1.11186,0.00340648,1.05473,1.05612,1.05678,1.05972,0.00379866,1.03719,1.03893,1.03978,0.00369291,1.05618,1.06359,0.00346931,1.08373,1.0843,1.08387,1.08532,1.0894,1.0929,1.09287,1.09145,1.09172,1.09384,1.09498,1.08529,1.08415,1.08608,1.08609,1.08438,1.08394,1.08448,1.08514,1.08309,1.08605,1.08506,1.08595,1.08402,1.08583,1.08708,1.08998,1.09236,1.09569,1.097,1.09723,1.09416,1.09487,1.09319,1.09443,1.09465,1.09209,1.09182,1.09247,1.09576,1.09566,1.09841,1.09893,1.09752,1.09881,1.09791,1.10089,1.10518,1.1076,1.10862,1.10876,1.11169,1.10897,1.10811,1.10706,1.10718,1.1082,1.10639,1.10617,1.1068,1.11219,0.00341436,1.11419,1.11582,1.11563,1.10325,1.10381,1.10053,1.10355,1.10421,1.10466,1.10478,1.10511,1.11686,1.12504,1.12571,1.189,1.14439,1.14637,1.14804,1.14895,1.14854,1.1471,1.14877,1.14956,1.1403,1.1403,1.13661,1.13328,1.13367,1.13573,1.13608,1.14087,1.14149,1.14303,1.14902,1.14863,1.14438,1.14569,1.13698,1.13934,1.19897,1.25106,1.11678,1.1185,1.12454,1.1234,1.12507,1.12499,1.12999,1.1346,1.13473,1.13792,1.14488,1.14676,1.14965,1.14987,1.15049,1.15037,1.15275,1.151,1.15257,1.15277,1.15268,1.14472,1.14677,1.15404,1.15676,1.15335,1.15428,1.15844,1.15904,1.16831,1.16821,1.17092,1.17476,1.17201,1.17745,1.17723,1.17778,1.17908,1.18148,1.18283,1.18169,1.18216,1.18703,1.19111,1.19336,1.19507,1.19562,1.18823,1.18914,1.18925,1.19093,1.19044,1.19192,1.19712,1.19749,1.19834,1.19881,1.19891,1.19866,1.19909,1.1992,1.19926,1.20117,1.20167,1.2051,1.20554,1.19801,1.19496,1.19671,1.20972,1.21024,1.21228,1.21891,1.22192,1.22262,1.22261,1.22558,1.22308,1.22561,1.23047,1.23119,1.23383,1.23506,1.24656,1.24147,1.23362,1.23644,1.23309,1.24143,1.2445,1.24691,1.24483,1.25059,1.25688,1.26799,1.2689,0.00364256,1.26763,1.27225,1.27878,1.28161,1.2804,1.28062,1.28171,1.275,1.27536,1.2589,1.26074,1.25951,0.00364592,0.00340737,1.28837,1.29234,1.29396,1.2823,1.28187,1.28449,1.28614,1.30116,1.30233,1.3049,1.28246,1.27595,1.43871,0.00339432,0.00373104,1.28865,1.28599,0.00346801,1.43681,1.43721,1.44296,1.26999,0.00374805,0.00340107,1.30361,0.00352015,0.00350857,1.24537,1.24632,0.00347295,1.27188,1.27445,0.00364704,1.30809,1.3078,0.00344779,0.00374667,1.32104,1.31924,1.31926,1.32481,1.33698,0.00363477,1.3239,1.32462,1.32817,1.33115,1.33293,0.00366026,1.33336,1.33412,1.33742,1.33753,1.33667,1.34318,1.34638,0.0035652,1.33309,1.33539,0.00332358,1.33686,1.33535,1.33566
1.03055,1.0341,1.03812,1.03945,1.04007,1.03548,1.03572,1.02043,1.02563,1.02398,1.02343,1.05267,1.05383,1.05485,1.05544,1.11123,1.03093,1.03167,0.00367698,0.003433,1.17596,1.06692,1.06795,1.06912,1.06744,0.00346118,0.00373676,1.18884,0.00345616,0.00354927,0.003448,1.1834,0.00344345,0.00342019,1.18096,0.00343665,1.08397,1.08498,1.08314,1.08312,1.08088,1.08111,1.08196,1.08199,1.08391,1.08386,1.08296,1.08379,1.08344,1.08346,1.09456,1.09493,1.09665,1.08572,1.08741,1.08891,1.09145,1.09199,1.09068,1.09127,1.09341,1.09236,1.09328,1.09552,1.09616,1.0921,1.09209,1.09056,1.09399,1.09427,1.09733,0.00334453,1.10555,1.11034,1.10354,1.1038,1.10384,1.10509,1.1045,1.107,1.10852,1.10927,1.10881,1.10042,1.10086,1.10449,1.10928,1.10998,1.10945,1.10972,1.1016,1.10072,1.10005,1.10213,1.10691,1.10793,1.115,1.11981,1.12578,1.12848,1.13581,1.14328,1.14321,1.14485,1.14537,1.14538,1.1464,1.14321,1.14409,1.13362,1.13637,1.1372,1.13901,1.13875,1.13755,1.13781,1.25711,0.00353808,0.00371158,0.00328145,1.14055,0.00351575,1.13486,1.13321,1.13636,1.11722,1.1209,1.11488,1.11727,1.12251,1.12727,1.13006,1.13,1.13059,1.13241,1.14153,1.14289,1.14703,1.14927,1.15021,1.15353,1.15218,1.15356,1.155,1.15353,1.15312,1.15249,1.1515,1.1527,1.1541,1.15678,1.1521,1.16417,1.16515,1.1671,1.169,1.17162,1.17333,1.17505,1.17588,1.1739,1.18003,1.18089,1.17715,1.17593,1.17726,1.17729,1.17699,1.18125,1.18578,1.19085,1.19432,1.18506,1.18701,1.18889,1.19322,1.18957,1.19022,1.1925,1.19334,1.19469,1.19878,1.20189,1.20309,1.19664,1.19803,1.19812,1.19349,1.19484,1.19951,1.20008,1.20251,1.20216,1.1972,1.19857,1.21583,1.22157,1.22393,1.22487,1.22306,1.21864,1.22118,1.22619,1.22647,1.22921,1.22357,1.22381,1.22921,1.23107,1.23274,1.24344,1.23609,1.23761,1.23745,1.24332,1.24021,1.24362,1.24295,1.24562,1.24994,1.25258,1.25691,1.25719,1.27616,1.27742,1.27674,1.26258,1.26234,1.26665,1.2721,1.27134,1.26035,1.26227,1.25506,1.25288,1.25518,0.00365638,1.28402,1.29111,1.26962,1.27189,1.27751,1.2809,1.28199,1.28476,1.29244,1.29524,1.27083,1.26932,1.27457,1.27443,1.2709,1.26985,1.2741,1.27259,1.27669,0.00355763,1.44474,0.00347845,1.2367,1.23882,0.00353433,0.00329661,0.00350271,1.24241,1.23767,0.00332304,0.00359633,1.25551,1.25745,1.29448,1.29584,0.00346847,0.0035425,0.00367939,0.00343549,0.00372712,0.00343611,0.00351812,0.00352469,0.00354241,1.32304,1.32134,1.31795,1.32263,1.32343,1.32833,1.32771,1.3293,0.00343673,1.32351,1.32507,1.32678,0.0034902,1.32287,1.32369,1.32647,1.32664,1.32931,1.33098
1.02912,1.03363,1.03381,1.03485,1.04204,1.03634,1.03623,1.01757,1.02173,1.02386,1.02389,0.00351935,1.0556,1.05573,1.05623,1.11754,1.02655,1.02794,1.03016,0.0034138,1.06604,1.0674,1.06933,1.06735,1.06729,1.06669,1.06699,1.06824,1.06711,1.06727,1.0697,1.06995,1.0784,1.07112,1.07176,1.07317,1.07678,1.07757,1.08359,1.08677,1.086,1.08619,1.08533,1.08304,1.07844,1.0778,1.0823,1.08372,1.0821,1.08371,0.0035866,0.0038225,1.09165,1.0927,1.09076,1.09147,1.08768,1.08851,1.08694,1.0873,1.08968,1.09031,1.09398,1.09294,1.08485,1.08306,1.08815,1.0937,1.08973,1.09049,1.09355,1.09283,1.09484,1.10546,1.10508,1.10415,1.10356,1.10792,1.10581,1.10504,1.10329,1.10268,1.10376,1.10358,1.10461,1.10445,1.10508,1.10321,1.10267,1.10402,1.10447,1.09891,1.09975,1.10273,1.10434,1.1051,1.10515,1.10583,1.10949,1.11814,1.11897,1.12095,1.1227,0.00352787,1.13981,1.13915,1.13905,1.13728,1.13823,1.13962,1.13808,1.13604,1.13822,1.13387,1.13257,1.13257,1.13374,1.13066,1.12392,1.1253,1.11647,1.1219,1.12183,1.12936,1.11685,1.11767,1.12011,1.12096,1.11891,1.12176,1.12636,1.1371,1.13819,1.13075,1.13077,1.13336,0.0032912,0.00362592,1.13455,1.13487,1.13502,1.13732,1.13918,1.13623,1.13497,1.13694,1.13892,1.1426,1.14311,1.14188,1.14304,1.14462,1.15652,1.16194,1.16272,1.16677,1.17198,1.17833,1.17726,1.17697,1.1742,1.17579,1.17745,1.17804,1.17792,1.17539,1.1728,1.17749,1.17968,1.18254,1.18355,1.18526,1.18266,1.18387,1.1871,1.19153,1.19078,1.19158,1.19357,1.19605,1.20025,1.20175,1.20329,0.00373331,1.18905,1.18985,1.19267,1.19283,1.19038,1.18985,1.19197,1.20313,1.20509,1.2049,1.20562,1.20684,1.20903,1.21256,1.22809,1.22802,1.22084,1.2166,1.21034,1.21627,1.21933,1.21892,1.22134,1.22529,1.22686,1.2298,1.23322,1.23086,1.23131,1.23267,1.23336,1.24097,1.24137,1.23489,1.23304,1.23627,0.00344873,1.25014,1.25176,1.25425,1.25516,1.2522,1.26079,1.26194,1.26731,1.26618,1.26487,1.26751,1.25286,1.24973,1.25047,1.25398,1.26865,1.27049,1.26574,1.26523,1.26698,1.26656,1.28189,1.28402,1.28479,1.28527,0.0033974,1.27198,1.26872,1.27274,1.27387,1.26153,1.26354,1.26325,1.26411,1.26466,0.00338135,0.00346449,1.23251,1.23331,1.2345,1.23471,1.23371,1.23305,1.23198,1.22308,1.22235,1.22728,0.0034743,0.00344692,0.00334676,0.00344583,1.27563,0.00348257,0.00332696,0.00364741,1.28885,1.29084,0.00343808,0.00362496,1.29645,1.2956,1.30309,1.33615,1.39788,1.30117,1.30327,1.3051,0.00345974,1.30995,1.31657,1.31754,1.31864,1.31521,1.31319,1.31474,1.3169,1.32319,1.32433,1.32373
1.03072,1.03293,1.03212,1.03237,1.03551,1.03949,1.0396,1.01953,1.0207,1.02241,1.02264,1.02431,0.00365321,0.00319129,1.15583,1.02613,1.02678,1.02633,1.02534,0.00353324,1.0565,1.06016,1.06182,1.06444,1.06317,1.05967,1.06169,1.05856,1.06136,1.06375,1.0651,1.06676,1.08247,1.0836,1.08352,1.07206,1.07496,1.08092,1.08049,1.08694,1.08709,1.08123,1.08023,1.07986,1.08023,1.07883,1.07934,1.07756,1.07183,1.0678,1.0688,1.07069,0.00375274,1.07428,1.07753,1.08366,1.08481,1.08394,1.08387,1.08278,1.08468,1.08797,1.08964,1.0947,1.0872,1.08709,1.09115,1.09256,1.09219,1.08882,1.09271,1.09321,1.09508,1.10122,1.10106,1.10124,1.09676,1.09746,1.09557,1.09596,1.09825,1.09915,1.10554,1.10752,1.10739,1.10571,1.10276,1.10344,1.10217,1.1016,1.10395,1.10515,1.10783,1.10436,1.1069,1.113,1.10706,1.10867,1.11162,0.0031865,0.00355339,1.12462,1.12811,1.12839,1.12761,1.13286,0.0034802,1.13321,1.13367,1.12629,1.1328,1.13577,1.13054,1.12244,1.12424,1.12488,1.13141,1.13264,1.13126,1.12862,1.12239,1.11793,1.11609,1.12297,1.12408,1.11457,1.11571,1.11689,1.1124,1.11441,1.11443,1.11549,1.11935,1.11778,1.1183,1.11926,1.12087,1.12922,1.13177,1.13205,1.13272,1.1378,1.1301,1.13073,1.1344,1.13693,1.13845,1.13945,1.13737,1.14016,1.1455,1.1475,1.15033,1.15202,1.16397,1.1654,1.16797,1.17276,1.17361,1.17505,1.17613,1.17735,1.17829,1.17527,1.17423,1.17184,1.17436,1.16893,1.17224,1.17283,1.17935,1.18388,1.18128,1.18462,1.18311,1.18012,1.17871,1.18629,1.19576,1.20234,1.2033,1.19982,1.19852,1.19841,1.18379,1.18445,1.19067,1.19552,1.19741,1.19825,1.19766,1.20189,1.2023,1.20862,1.20541,1.20879,1.20886,1.21114,0.00349704,0.0033813,1.21982,1.214,1.21141,1.21568,1.22035,1.22388,1.22732,1.22482,1.22444,1.22921,1.23013,1.23108,1.23411,1.2361,1.23328,1.23392,1.23501,1.22658,1.22607,1.23428,1.23686,1.24247,1.2446,1.24228,1.24108,1.24237,1.24336,1.2483,1.26057,1.25816,1.25885,1.24631,1.24718,1.24727,1.2483,1.2571,1.26651,1.26905,1.26078,1.26222,1.2664,1.26548,1.26572,1.28205,1.28055,1.27827,1.2753,1.27063,1.2707,1.27145,1.25822,1.25695,1.25478,1.25374,1.25746,0.00347201,1.23059,1.21234,1.2167,1.21748,1.21685,1.22111,1.2207,1.21938,0.00358391,0.00340649,0.00359038,0.0035181,0.00359704,0.00344766,0.00352564,0.00328875,0.00370142,0.00333056,1.38715,0.0033762,0.00371296,0.0035773,0.00369935,0.00345696,0.00347217,0.00349795,1.29578,1.29628,1.29847,1.29918,1.30251,1.30328,1.30401,1.30504,1.31173,1.31604,1.31539,1.31323,1.3137,1.31735,1.31998,1.32219,1.3178,1.32318
1.0252,1.02936,1.02868,1.02961,1.03051,1.03413,1.0289,1.02969,1.02143,1.02227,1.02503,1.0266,0.00322549,0.00357866,0.00372677,0.00357978,1.02055,1.0251,0.00341953,1.05943,1.05986,1.0595,1.06014,1.05935,1.05388,1.05792,1.05421,1.05957,1.06059,1.06099,1.06111,0.00385921,1.08067,1.08428,0.00315709,1.06693,1.06802,1.07232,1.0718,0.00355735,1.07695,1.07724,1.07732,1.07526,1.07379,1.07267,1.07046,1.07232,1.07331,1.07328,1.06828,1.06887,1.06731,1.06796,1.07806,1.08121,1.08362,1.07911,1.08006,1.08315,1.0827,1.08471,1.08847,1.08933,1.08842,1.09063,1.0925,1.0939,1.09569,1.09756,1.0958,1.09996,1.10138,1.10267,1.1018,1.10096,1.09885,1.09744,1.09776,1.09698,1.09615,1.09429,1.09628,1.10434,1.10711,1.1038,1.10478,1.10423,1.10498,1.10472,1.10575,1.10559,1.10631,1.10911,1.11256,1.11343,1.11141,1.11095,1.11191,1.11235,1.10716,1.11108,1.11198,1.11174,1.11313,1.11979,1.11792,1.12336,1.12512,1.12673,1.12113,1.12022,1.1225,1.11959,1.11872,1.12405,1.12572,1.12861,1.11697,1.11486,1.11217,1.11472,1.11528,1.11574,1.1156,1.11247,1.11498,1.10556,1.10694,1.10666,1.11845,1.11968,1.11923,1.11892,1.11968,1.12014,1.12481,1.12687,1.12951,1.12444,1.12676,1.12906,1.12952,1.13203,1.13805,1.14032,1.14281,1.14301,1.13578,1.13432,1.13579,1.14957,1.15083,1.15389,1.15574,1.16315,1.16604,1.1642,1.16589,1.16938,1.17165,1.17449,1.17365,1.17477,1.17749,1.17609,1.16583,1.16271,1.16448,1.16452,1.16689,0.00337181,1.18352,1.18654,1.18593,1.16288,1.1624,1.16386,0.00354911,0.00362942,1.17487,1.17836,1.18089,1.18049,1.18083,1.18192,1.18194,1.18202,1.1839,1.19128,0.00346028,1.20332,1.20486,1.19938,1.20187,1.20169,1.20135,1.20748,1.20872,1.21172,1.21197,1.21259,1.22398,1.21967,1.22272,1.21967,1.22854,1.22948,1.21544,1.21512,1.21686,1.23008,1.23018,1.24109,1.23888,1.2377,1.23022,1.227,1.22741,0.00336629,0.00330159,1.25051,0.00335977,1.23177,1.23529,1.24472,1.24992,1.2506,1.25473,1.25675,1.25287,1.25422,1.25277,1.25035,1.25079,1.25367,1.2601,1.26499,1.2677,1.26719,1.27035,1.27081,1.27051,1.27047,1.27123,1.26558,1.26626,0.00344172,1.25034,1.25094,0.00336118,1.25304,1.25126,1.25221,1.2499,0.00351518,1.22473,1.22574,1.21513,1.21587,1.2148,1.21466,1.21435,1.21216,1.21533,1.20618,1.20484,1.19276,1.20206,1.20722,1.21451,1.21853,1.22201,1.22548,1.22838,1.23239,1.24235,1.24427,1.24452,1.24798,1.26458,1.26819,0.0034265,1.2852,1.28815,1.29663,1.29682,1.29769,1.29621,1.29906,1.30472,1.29984,1.30186,1.30561,1.30964,1.31523,1.31369,1.31603,1.3174,1.31295
1.02606,1.02795,1.02887,1.03124,1.03186,1.02869,1.02824,1.02908,1.03054,1.01914,1.02198,1.02438,1.02773,1.01788,1.01823,1.01843,1.01971,0.00334654,1.05616,1.0587,1.05952,1.05329,1.04821,1.04862,1.04541,1.04556,1.04563,1.04777,1.05449,1.058,1.0585,0.00349951,1.07243,1.07422,1.06111,1.06207,1.06202,1.06342,1.06472,1.0661,1.06823,1.07658,1.07629,1.0734,1.0749,1.07351,1.06987,1.07133,1.07655,1.07869,1.07447,1.075,1.0779,1.0803,1.07812,1.07943,1.07759,1.07831,1.07923,1.08083,1.07912,1.08193,1.08317,1.08539,1.08681,1.08993,1.08961,1.09295,1.09994,1.10166,1.10121,1.09984,1.09321,1.09195,1.08604,1.08356,1.08521,1.08981,1.09295,1.0941,1.09484,1.09541,1.09552,1.09562,1.09913,1.09939,1.10138,1.10137,1.10162,1.10581,1.10726,1.10889,1.10846,1.10851,1.10245,1.10312,1.10359,1.10269,1.10538,1.10656,1.10764,1.10813,1.11255,1.11262,1.11243,1.11685,1.11733,1.12046,1.12076,1.12117,1.11889,1.12233,1.13041,1.13276,1.12552,1.1166,1.11763,1.11983,1.12083,1.11364,1.11694,1.11799,1.11939,1.11864,1.11388,1.11574,1.11602,1.11552,1.1159,1.11589,1.26595,1.11572,1.11678,1.1186,1.11724,1.12066,1.12726,1.1273,1.12737,1.12766,1.12823,1.12938,1.13296,1.1342,1.13951,1.13979,1.14368,1.14468,1.13308,1.13467,1.14342,1.14268,1.15431,1.15532,1.15828,1.15959,1.1604,0.00356112,1.16173,1.16276,1.16484,1.16679,1.16651,1.1663,1.16875,1.16696,1.16658,1.1639,1.17002,1.16813,1.1695,1.17282,1.17617,1.1875,0.00351242,1.16215,1.16369,1.18398,1.18578,1.19317,1.18319,1.18442,1.18184,1.17933,1.1838,1.18461,1.18063,1.18009,1.1828,1.19076,1.19018,1.19123,1.18913,1.19016,1.19747,1.20318,1.20432,1.20378,1.20557,1.20673,1.20901,1.2139,1.22277,1.2238,1.22097,1.22064,1.48945,1.23685,1.24203,0.00347604,1.23984,1.23231,1.23926,1.24025,1.24896,1.2496,1.24892,1.25297,1.25646,1.2584,1.26033,1.26692,1.26064,1.26572,0.00374071,1.42839,1.27088,1.27576,1.27524,1.26521,1.2656,1.25085,1.25121,1.25181,1.25572,1.258,1.25847,1.25861,1.26141,1.26433,1.26057,0.0035854,1.3757,1.24868,1.2545,1.25446,1.2544,1.25366,1.2409,1.24324,1.24923,1.24758,1.25028,0.00362322,0.00352111,1.21548,1.21821,1.21981,1.21957,1.1887,1.19274,1.19457,1.19554,1.20831,1.21017,1.21003,1.21053,1.2135,1.20806,1.21268,1.21675,1.21843,1.2201,1.22641,1.23059,1.23285,1.23484,1.23678,1.23082,1.23991,0.00353742,0.00337011,1.26118,0.0034967,1.26832,0.00349174,1.28288,1.28519,1.28644,0.00348447,1.30042,1.30634,1.31133,1.3099,1.31016,1.31174,1.30808,1.31101,1.31494,1.31395
1.02066,1.02301,1.02623,1.02934,1.03589,1.02939,1.03156,1.03304,1.03282,1.03307,1.03013,1.03095,1.03053,1.02843,1.02596,1.02651,1.02477,0.0035438,1.05398,1.05506,1.05378,1.04689,1.04319,1.04812,1.04914,1.04832,1.05171,1.05329,1.05086,1.05297,1.05605,1.05986,1.06409,1.06703,1.06655,1.06224,1.06358,1.06031,1.06119,1.06359,1.06667,1.07261,1.07398,1.074,1.07564,1.06989,1.07051,1.07207,1.07714,1.0725,1.07124,1.07219,1.07506,1.0804,1.06893,1.07068,1.07248,0.00351036,1.0797,1.08197,1.08388,1.08411,1.08458,1.08984,1.09234,1.09415,1.09676,1.09826,1.09906,1.10887,1.10943,1.10048,1.10113,1.09019,1.08738,1.08437,1.08507,1.08691,0.00341748,1.10491,1.0905,1.09367,1.09292,1.09451,1.09395,1.09561,1.10359,1.10393,1.10428,1.1038,1.10325,1.10379,1.1072,1.11001,1.10813,1.10941,1.10296,1.10528,1.10782,1.11015,1.11078,1.10971,1.11108,1.11359,1.11424,1.1159,1.11606,1.1198,1.12,1.12251,1.12213,1.12412,1.12449,1.11858,1.11898,1.11278,1.11467,1.11473,1.1161,1.12235,1.12578,1.12228,1.12288,1.12455,1.12509,1.11625,1.1152,1.12173,1.12118,1.12292,1.12148,1.1228,1.6073,1.60719,1.1228,1.124,1.1271,1.13139,1.13264,1.13226,1.13232,1.13138,1.13101,1.13312,1.13552,1.14669,1.14566,1.14637,1.14984,1.15036,1.14987,1.14892,1.1518,1.14679,1.14885,1.14213,1.13759,1.1378,0.00342912,1.14644,0.00334193,1.15992,1.16095,1.16205,1.16147,1.16714,1.16708,1.16212,1.16339,1.16519,1.16449,1.16676,1.17612,1.18061,0.00337333,1.56484,0.00352901,1.1931,1.19544,1.19289,1.18725,1.18689,1.18834,1.18783,1.18695,1.18728,1.18947,1.19074,1.19012,1.19328,1.18862,1.19209,1.19552,1.19836,1.20049,1.20468,1.20485,1.20738,1.20732,1.21232,1.21571,1.21955,0.00341192,0.00371917,1.23721,1.23812,1.24357,1.24344,1.24754,1.24548,1.2423,1.24395,1.24655,1.24672,1.24859,1.25774,1.25806,1.2591,1.25991,1.26367,1.2653,1.26379,1.26568,1.27076,1.27504,1.27515,1.26134,1.25716,1.25555,1.25457,1.25349,1.26074,1.2573,1.26288,1.25155,1.25168,1.24781,1.2476,0.0035002,0.00351712,1.24251,1.23913,1.2394,1.24153,1.24448,1.23757,1.23772,1.23828,1.23112,1.23563,1.2308,1.23159,1.23284,1.23363,1.22417,1.22596,1.22361,1.22385,1.21172,1.21471,0.00333704,1.40428,1.20608,1.20609,1.21011,1.21357,1.2152,1.21425,1.21679,1.21836,1.2205,1.22354,1.22793,1.22905,1.2287,1.22815,1.23319,1.23546,1.23909,1.24107,1.24287,1.24127,1.2451,1.24995,1.25402,1.25967,0.00328021,1.28059,1.28153,0.00356068,0.00330997,0.00359457,0.00351306,1.30257,1.29979,1.29863,1.29959,1.34397,1.30111,1.30495
1.01913,1.02232,0.00355642,1.03757,1.03918,1.04275,1.04051,1.04511,1.04265,1.0435,1.03846,1.03836,1.03587,1.07861,1.02401,1.026,1.02379,1.02476,1.0353,1.04105,1.04449,1.04461,1.04409,1.04858,1.05097,1.05337,1.05161,1.05635,1.05632,1.05775,1.05948,1.0628,1.06317,1.06678,1.06693,1.06363,1.05719,1.05993,1.06009,1.06356,1.06817,1.06839,1.06899,1.06893,1.07131,1.06786,1.06543,1.06639,1.06831,1.07031,1.07377,1.07879,1.07983,1.07468,1.07286,1.07382,1.08082,1.07996,1.07894,1.08169,1.08489,1.08642,1.09036,1.09165,1.0924,1.0951,1.09863,1.09977,1.10164,1.10312,1.10373,1.10154,1.09534,1.09452,1.09414,1.09283,1.09397,1.09731,1.1015,1.10293,1.09591,1.09768,1.09827,1.09955,1.09869,1.09778,1.09738,1.09759,1.09767,1.09772,1.09859,1.10091,1.09886,1.09822,1.10001,1.10272,1.1047,1.10564,1.10645,1.106,1.10839,1.11034,1.11337,1.11289,1.11292,1.11608,1.11667,1.1157,1.11685,1.12036,1.11707,1.11839,1.1239,1.11961,1.12053,1.11527,1.11595,1.1168,1.11866,1.11777,1.12152,1.12384,1.12709,1.12771,1.12827,1.12289,1.12343,1.11623,1.11973,1.11943,1.11898,1.12714,1.12864,1.12837,1.12634,1.12906,1.12984,1.13032,1.13231,1.13445,1.13644,1.13583,1.13854,1.14122,1.1473,1.14848,1.15019,1.14808,1.14667,1.14801,1.15081,1.15298,1.14928,1.14696,1.14665,1.15003,1.14186,1.14343,1.14463,1.14635,1.1511,1.15212,1.15454,1.15925,1.15393,1.15664,1.15635,1.15873,1.15956,1.16479,1.16651,1.16868,0.00385224,1.5227,1.20027,1.20089,1.20597,1.20133,1.19984,1.19859,1.19733,1.19836,1.18965,1.18974,1.19345,1.19463,1.19431,1.19298,1.18958,1.18466,1.18403,0.00326469,0.00363779,1.64545,1.54544,1.44692,1.20732,1.20537,1.20899,1.46437,1.46554,1.24045,1.23963,1.23716,1.23683,1.24029,1.24745,1.24836,1.24931,1.24827,1.24739,1.24371,1.24605,1.25321,1.25266,1.25476,1.25613,1.2572,1.25408,1.25672,1.25427,1.25705,1.25787,1.25785,1.25321,1.25421,1.25429,1.25353,1.25231,1.24257,1.24276,1.24344,1.24382,1.24452,1.24294,1.23449,1.2387,1.23551,1.22869,1.23309,1.23629,1.2388,1.23382,1.22906,1.23057,1.23565,1.23346,1.23064,1.2304,1.22717,1.2266,1.22613,1.23136,1.23107,1.2234,1.22496,1.22348,1.22419,1.21679,1.22273,1.21963,1.21669,1.21628,1.21116,1.20994,1.21941,1.22213,1.2225,1.22296,1.22888,1.22948,1.23081,1.23141,1.2357,1.23702,1.23569,1.23572,1.23907,1.24013,1.24411,1.24452,1.24883,1.24974,1.25077,1.2581,1.26182,1.26329,1.26176,1.26755,1.26991,1.27444,0.0034535,0.00330507,1.28828,1.2917,1.29122,1.28821,1.28914,1.28968,1.29346
1.04103,1.04282,0.00354938,1.04,1.03915,1.04199,1.04542,1.04589,1.04626,1.04603,1.04651,1.04512,1.04261,1.04326,1.04568,1.04431,1.03757,1.03259,1.03439,1.0381,1.0497,1.05041,1.05136,1.05729,1.05709,1.05332,1.05128,1.06057,1.06349,1.06163,1.0633,1.06291,1.06442,1.06377,1.05814,1.05802,1.05768,1.05822,1.0616,1.06163,1.06262,1.06563,1.06815,1.06906,1.0707,1.07206,1.07075,1.06703,1.07046,1.07102,1.06899,1.06995,1.06829,1.06885,1.0707,1.07108,1.07359,1.07683,1.07764,1.08144,1.0855,1.08093,1.08152,1.08342,0.00336367,1.09778,1.09998,1.1002,1.09997,1.10256,1.09937,1.09995,1.09789,1.0957,1.09907,1.09668,1.1005,1.09761,1.10038,1.10171,1.10242,1.1036,1.1003,1.10381,1.10115,1.10067,1.09807,1.10019,1.10143,1.10094,1.10082,1.09537,1.09599,1.09831,1.10172,1.10246,1.1078,1.10577,1.1057,1.10735,1.10779,1.10868,1.10904,1.10958,1.11217,1.11301,1.10968,1.11242,1.11382,1.11566,1.11784,1.12178,1.1254,1.12424,1.11909,1.11649,1.12246,1.12181,1.12149,1.1219,1.12173,1.12202,1.12208,1.12544,1.12053,1.12147,1.12343,1.12432,1.1284,1.12318,1.12256,1.12773,1.12646,1.12932,1.13561,1.13507,1.13733,1.13807,1.14018,1.14291,1.14266,1.14265,1.14368,1.1461,1.14815,1.14921,1.15011,1.15025,1.1487,1.15013,1.15076,1.15343,1.15326,1.15269,1.14436,1.14918,1.15004,1.13976,1.13901,0.00356366,1.15028,1.15462,1.15544,1.15701,1.15196,1.15476,1.43986,1.36465,1.17358,0.00358821,0.00327361,1.19705,1.20117,1.2121,1.21791,1.21574,1.21766,1.21819,1.21265,1.20558,1.20518,1.19126,1.19183,1.19223,1.19077,1.1971,1.19834,1.18497,1.17773,1.1811,1.17448,1.17365,1.18117,1.18279,1.18781,1.54608,1.54404,1.65978,1.66252,1.22209,1.22304,1.22593,1.23137,1.23188,1.23485,1.27692,1.23002,1.23101,1.23328,1.23519,1.23547,1.23358,1.48335,1.53999,1.24102,1.23968,1.2409,1.24175,1.24573,1.24321,1.24269,1.2473,1.24433,1.25372,1.24807,1.24653,1.24339,1.24148,1.24362,1.22905,1.23237,1.23236,1.23267,1.23325,1.22842,1.22886,1.2176,1.21969,1.22745,1.228,1.23473,1.23353,1.22653,1.22502,1.23114,1.23129,1.23342,1.22948,1.23094,1.21984,1.22134,1.22043,1.22105,1.22045,1.22296,1.22075,1.22266,1.22048,1.22144,1.22101,1.21683,1.21531,1.21228,1.21618,1.21603,1.22171,1.22767,1.22812,1.2325,1.23218,1.231,1.23324,1.23534,1.23743,1.2307,1.23187,1.23102,1.23307,1.23389,1.23574,1.24037,1.24351,1.24627,1.24767,1.25511,1.25707,1.25756,1.25995,1.25936,1.25765,1.25614,1.25877,1.26104,1.27038,0.00341754,1.28176,1.28324,1.28436,1.28522,1.29201
