2.04149, 2.03811, 1.80989, 1.77549, 1.74016, 1.74412, 1.88842, 1.91288, 2.04211, 2.03815, 1.72773, 1.68935, 1.6484, 1.64877, 1.67045, 1.7831, 1.84574, 2.04919, 1.88234, 2.07565, 1.66804, 1.68358, 1.63688, 1.76343, 1.65819, 1.79634, 1.89227, 1.94411, 1.94579, 1.61741, 1.62654, 1.57094, 1.53748, 1.6614, 1.72152, 1.80407, 1.81935, 1.56133, 1.5044, 1.50515, 1.50154, 1.49817, 1.66655, 1.66595, 1.70338, 1.76858, 1.89813, 1.53006, 1.50755, 1.44985, 1.50691, 1.5046, 1.59131, 1.61665, 1.71678, 1.73507, 1.77507, 1.74244, 1.54532, 1.47045, 1.4859, 1.56422, 1.55546, 1.58511, 1.5717, 1.67696, 1.72973, 1.72408, 1.36853, 1.3533, 1.36506, 1.40481, 1.48171, 1.48116, 1.56429, 1.38188, 1.33378, 1.32322, 1.35514, 1.43874, 1.48851, 1.59509, 1.62364, 1.66896, 1.6577, 1.57987, 1.30978, 1.2565, 1.30866, 1.29928, 1.47834, 1.52652, 1.55473, 1.57878, 1.26717, 1.23716, 1.2158, 1.24788, 1.36362, 1.49045, 1.57584, 1.59996, 1.53447, 1.23311, 1.21302, 1.21923, 1.33325, 1.34784, 1.51354, 1.55093, 1.5514, 1.53027, 1.41629, 1.25319, 1.25335, 1.32656, 1.38935, 1.4755, 1.47552, 1.49493, 1.49341, 1.30916, 1.25496, 1.21105, 1.29532, 1.28124, 1.55578, 1.55693, 1.6816, 1.28728, 1.20694, 1.2048, 1.28993, 1.31732, 1.42421, 1.50634, 1.61773, 1.30302, 1.25804, 1.42979, 1.35127, 1.39982, 1.58079, 1.50608, 1.528, 1.52846, 1.52848, 1.4821, 1.3482, 1.45606, 1.50043, 1.56618, 1.62578, 1.62883, 1.63143, 1.63911, 1.60339, 1.42383, 1.40207, 1.46363, 1.48789, 1.54923, 1.69028, 1.5566, 1.55389, 1.6025, 1.5736, 1.57182, 1.51838, 1.56752, 1.37458, 1.37409, 1.54789, 1.67981, 1.62824, 1.63577, 1.57114, 1.59379, 1.58175, 0.995156, 1.01375, 1.03421, 0.921829, 0.898119, 0.906128, 0.897319, 1.23949, 1.03544, 1.03663, 0.877675, 0.773106, 0.772514, 0.97235, 0.971903, 0.972578, 0.897187, 0.786785, 0.768876, 0.76872, 0.825602, 0.832027, 1.06426, 1.1438, 1.11864, 1.11893, 1.13387, 0.858839, 0.880374, 0.880075, 0.899469, 0.993951, 1.08063, 1.04433, 1.06455, 0.839539, 0.856332, 0.85256, 0.89718, 0.898377, 0.959955, 1.05258, 1.06413, 0.883213, 0.772477, 0.773879, 0.830034, 0.863275, 0.956047, 0.980365, 1.0054, 1.06369, 1.07706, 0.884294, 0.857155, 0.911332, 0.929524, 0.973335, 1.0997, 1.086, 1.1464, 1.10897, 1.1128, 0.794845, 0.761355, 0.76222, 0.797861, 0.798975, 0.85994, 0.873622, 0.944262, 0.819216, 0.807894, 0.758176, 0.881899, 0.884198, 0.897355, 1.03023, 0.954455, 0.933029, 0.953581, 0.95751, 0.963103, 0.918948, 0.920453, 0.8904, 0.960256, 1.05147, 1.05286, 1.29132, 1.34781, 1.26994, 1.30538, 0.999019, 0.99525, 0.981648, 1.0076, 0.98874, 1.01163, 1.00298, 1.18181, 1.00372, 0.994212, 0.987443, 0.600727, 0.590984, 0.570087, 0.593682, 0.61952, 0.834074, 0.832628, 0.834093, 0.49064, 0.491208, 0.48982, 0.494711, 0.5249, 0.579515, 0.491085, 0.487297, 0.554214
2.04211, 1.82029, 1.80224, 1.78639, 1.74043, 1.74042, 1.94299, 1.90374, 2.03077, 2.0331, 1.74077, 1.69569, 1.66473, 1.66431, 1.69838, 1.80203, 1.8814, 1.90617, 1.98084, 2.03796, 1.96177, 1.66282, 1.61639, 1.72713, 1.68514, 1.78903, 1.95938, 1.9495, 1.96895, 1.6201, 1.63758, 1.52784, 1.57598, 1.66036, 1.73699, 1.81826, 1.80996, 1.56843, 1.55971, 1.52482, 1.50125, 1.51965, 1.67501, 1.68983, 1.73221, 1.78883, 1.78692, 1.55094, 1.52219, 1.44783, 1.44758, 1.57178, 1.61177, 1.61413, 1.76078, 1.73435, 1.72615, 1.74553, 1.51299, 1.49924, 1.51488, 1.50658, 1.53501, 1.61861, 1.59341, 1.69316, 1.72474, 1.73811, 1.46237, 1.34658, 1.36019, 1.40061, 1.53821, 1.60781, 1.6403, 1.70901, 1.36095, 1.29616, 1.33604, 1.40468, 1.46196, 1.47586, 1.52753, 1.61669, 1.59739, 1.60425, 1.33917, 1.25598, 1.25624, 1.38365, 1.51783, 1.54453, 1.56624, 1.55301, 1.30845, 1.21706, 1.21888, 1.26377, 1.29783, 1.46972, 1.51886, 1.54058, 1.23767, 1.21113, 1.2045, 1.19489, 1.31409, 1.32592, 1.51785, 1.51625, 1.55475, 1.57154, 1.358, 1.29281, 1.25249, 1.32781, 1.39645, 1.40948, 1.50603, 1.55809, 1.51533, 1.33415, 1.32614, 1.26158, 1.26016, 1.39722, 1.53541, 1.58918, 1.6487, 1.27871, 1.21325, 1.20771, 1.27222, 1.30655, 1.45547, 1.47551, 1.60991, 1.29956, 1.25858, 1.32816, 1.39443, 1.37949, 1.49264, 1.49314, 1.5483, 1.499, 1.38567, 1.34425, 1.33173, 1.32969, 1.60343, 1.58162, 1.66535, 1.64517, 1.63181, 1.63348, 1.61061, 1.57365, 1.57618, 1.57354, 1.48637, 1.49455, 1.55904, 1.58963, 1.554, 1.59596, 1.59067, 1.56279, 1.54731, 1.56906, 1.46463, 1.38269, 1.48471, 1.65867, 1.75548, 1.72108, 1.58988, 1.58935, 1.03373, 0.94225, 1.02436, 0.921334, 0.922046, 0.89694, 0.911305, 1.10315, 0.886101, 1.15805, 0.898889, 0.865993, 0.822745, 0.896808, 0.908067, 0.874676, 0.92185, 0.850708, 0.770063, 0.772673, 0.842764, 0.825049, 0.823744, 0.887468, 1.03235, 1.09248, 1.0943, 1.09531, 0.874304, 0.883143, 0.870894, 0.999129, 0.987851, 0.989555, 1.07368, 1.07452, 0.775989, 0.776428, 0.780612, 0.826727, 0.84155, 0.928555, 0.831188, 0.833106, 0.82951, 0.774549, 0.777389, 0.824724, 0.877715, 0.977065, 0.966549, 1.10977, 1.05766, 1.05107, 1.05135, 0.829937, 0.891841, 0.874021, 0.873379, 1.09143, 1.09129, 1.11413, 1.11499, 1.09037, 0.747728, 0.675956, 0.676557, 0.791398, 0.870356, 0.867313, 0.832979, 0.925122, 0.821818, 0.753338, 0.794321, 0.794787, 0.956655, 0.957978, 1.07148, 1.01608, 0.900263, 0.925621, 0.895643, 0.929423, 0.969949, 0.918938, 0.942728, 0.953047, 1.04179, 1.04256, 1.30259, 1.25627, 1.25759, 1.25917, 0.987478, 0.990845, 0.992292, 0.968383, 1.00971, 1.18061, 1.18498, 1.19529, 1.19711, 1.14977, 1.12204, 0.61507, 0.603752, 0.614219, 0.628718, 0.641502, 0.753031, 0.777616, 0.779949, 0.519151, 0.478855, 0.489549, 0.530873, 0.551663, 0.548982, 0.497526, 0.559717, 0.490435
1.9975, 1.88751, 1.80134, 1.74773, 1.73923, 1.79395, 1.89495, 1.89263, 2.03406, 2.03538, 2.02248, 1.70522, 1.65791, 1.69642, 1.7208, 1.76556, 1.90746, 1.8637, 1.92225, 2.02756, 1.94876, 1.64031, 1.64473, 1.67926, 1.69729, 1.75448, 1.89067, 1.95484, 1.94053, 1.61584, 1.6239, 1.54501, 1.60669, 1.681, 1.70002, 1.8108, 1.83196, 1.83398, 1.59933, 1.60345, 1.55015, 1.53071, 1.58211, 1.61438, 1.6962, 1.79318, 1.81412, 1.82724, 1.5446, 1.49179, 1.44066, 1.47233, 1.56228, 1.63722, 1.7278, 1.74125, 1.74931, 1.70918, 1.54541, 1.51915, 1.55253, 1.54671, 1.5391, 1.5729, 1.67826, 1.74069, 1.71215, 1.68546, 1.40181, 1.39755, 1.3957, 1.49043, 1.64794, 1.63287, 1.70357, 1.67927, 1.34007, 1.34846, 1.33163, 1.36854, 1.46087, 1.48002, 1.50346, 1.55791, 1.61816, 1.61219, 1.28145, 1.24438, 1.34772, 1.33651, 1.49231, 1.51047, 1.64417, 1.59662, 1.36356, 1.26212, 1.22617, 1.32079, 1.26111, 1.25285, 1.59329, 1.55476, 1.54946, 1.26727, 1.19019, 1.25373, 1.28456, 1.38796, 1.47084, 1.49634, 1.60614, 1.58954, 1.52358, 1.28778, 1.28932, 1.40371, 1.41261, 1.44725, 1.49608, 1.59876, 1.31598, 1.26319, 1.22063, 1.3833, 1.28342, 1.26853, 1.48021, 1.6065, 1.61135, 1.25514, 1.25673, 1.20246, 1.24995, 1.2501, 1.39135, 1.49173, 1.50633, 1.32257, 1.30724, 1.27585, 1.3539, 1.45148, 1.44401, 1.55445, 1.62637, 1.41985, 1.38663, 1.35425, 1.32582, 1.29931, 1.30523, 1.61279, 1.7102, 1.72639, 1.68984, 1.68169, 1.67306, 1.57239, 1.54279, 1.47854, 1.55323, 1.57566, 1.57493, 1.58946, 1.65946, 1.57995, 1.91366, 1.61592, 1.50303, 1.5478, 1.48774, 1.44452, 1.3881, 1.45887, 0.00459322, 1.58085, 1.26676, 1.26371, 0.901876, 0.916072, 0.89169, 1.02851, 1.01031, 1.08796, 1.10168, 1.1514, 1.11176, 0.874733, 0.874122, 0.82839, 0.822851, 0.894961, 0.866702, 0.853503, 0.852695, 0.850284, 0.767306, 0.773646, 0.84171, 0.85737, 0.904941, 0.90493, 1.04359, 1.06336, 1.12887, 1.06064, 0.877954, 0.864453, 0.877305, 0.971133, 1.01014, 1.04214, 1.06778, 1.07165, 0.775001, 0.778859, 0.775856, 0.826606, 0.879719, 0.994696, 1.03329, 1.09724, 0.85261, 0.795094, 0.778252, 0.778206, 0.884969, 0.928864, 0.930004, 1.04219, 1.05764, 0.985555, 1.05422, 0.82483, 0.825081, 0.965203, 0.895428, 1.05755, 1.05844, 1.16401, 1.02631, 1.10955, 0.763136, 0.675343, 0.675785, 0.716941, 0.75099, 0.853308, 0.853289, 0.883891, 0.832484, 0.838788, 0.79924, 0.800681, 0.888905, 0.887856, 1.02732, 1.00825, 0.869308, 0.870399, 0.971428, 1.02566, 0.973398, 0.920485, 0.939063, 0.919066, 0.952689, 1.07368, 1.30688, 1.33698, 1.28841, 1.34466, 0.975334, 0.977899, 0.960415, 0.999154, 0.975772, 1.15792, 1.19782, 1.18115, 1.18209, 1.18439, 1.14985, 0.611259, 0.548397, 0.548947, 0.684502, 0.721394, 0.686381, 0.783703, 0.777788, 0.560997, 0.478215, 0.479033, 0.444521, 0.445281, 0.520934, 0.522474, 0.496925, 0.495339
2.0119, 1.83102, 1.79096, 1.75792, 1.73682, 1.82375, 1.9339, 1.86518, 1.99559, 2.03532, 2.03638, 1.74804, 1.68151, 1.66521, 1.71035, 1.76196, 1.81543, 1.90767, 1.97331, 1.92838, 1.96481, 1.61473, 1.6105, 1.72053, 1.71517, 1.76762, 1.84744, 1.93252, 1.96628, 1.65892, 1.5479, 1.56533, 1.58521, 1.74873, 1.72132, 1.76455, 1.86939, 1.84433, 1.84446, 1.58527, 1.54256, 1.53012, 1.55789, 1.60917, 1.77655, 1.80198, 1.80297, 1.80233, 1.46137, 1.48183, 1.4321, 1.47385, 1.49136, 1.63084, 1.66912, 1.70647, 1.71437, 1.70818, 1.58868, 1.51932, 1.51847, 1.58949, 1.5299, 1.57239, 1.65605, 1.70069, 1.64071, 1.67546, 1.39576, 1.33779, 1.3984, 1.50177, 1.58501, 1.64218, 1.65111, 1.68487, 1.35387, 1.27985, 1.28271, 1.35453, 1.3665, 1.42908, 1.44269, 1.58524, 1.6005, 1.36148, 1.27473, 1.22212, 1.30307, 1.42847, 1.49644, 1.48187, 1.54025, 1.32032, 1.30607, 1.334, 1.33422, 1.2616, 1.43512, 1.51415, 1.52023, 1.56478, 1.56476, 1.24032, 1.18868, 1.19041, 1.21796, 1.32662, 1.48749, 1.53127, 1.60945, 1.59513, 1.30925, 1.25375, 1.25319, 1.28355, 1.41641, 1.46739, 1.49768, 1.36652, 1.26916, 1.26855, 1.21622, 1.32718, 1.31751, 1.41208, 1.53023, 1.63223, 1.63501, 1.25393, 1.20438, 1.20465, 1.25628, 1.481, 1.42209, 1.43256, 1.51433, 1.29519, 1.27256, 1.23749, 1.39612, 1.39969, 1.43606, 1.53734, 1.57814, 1.42663, 1.42655, 1.40192, 1.32318, 1.26252, 1.29695, 1.43375, 1.69992, 1.75119, 1.77781, 1.74058, 1.63132, 1.60251, 1.54155, 1.48554, 1.57213, 1.53963, 1.55891, 1.56078, 1.6465, 1.92677, 1.91768, 1.92423, 1.56398, 1.53529, 1.44146, 1.24247, 1.34962, 1.41716, 1.40885, 1.38232, 1.32572, 1.2256, 0.950849, 0.871054, 0.868356, 0.970504, 1.04414, 1.09144, 1.10851, 1.15841, 1.16348, 1.12609, 0.917007, 0.84706, 0.792912, 0.800923, 0.806455, 0.851947, 0.855732, 1.07928, 0.859725, 0.768886, 0.777383, 0.864776, 0.881468, 0.882223, 0.99922, 1.02529, 1.02851, 0.932622, 0.876449, 0.891376, 0.921212, 0.96668, 1.00869, 1.04259, 1.02367, 1.0795, 0.871348, 0.767618, 0.768874, 0.880632, 0.888427, 0.968385, 0.998376, 1.13996, 0.839872, 0.778987, 0.778999, 0.822442, 0.887738, 0.890404, 0.981411, 1.07306, 1.05858, 1.08765, 0.907684, 0.826547, 0.891766, 0.941045, 0.934916, 1.11634, 1.16157, 1.01812, 1.12295, 1.03881, 0.852278, 0.670741, 0.704203, 0.726161, 0.832279, 0.874505, 0.890948, 0.957536, 1.00589, 0.838459, 0.835712, 0.864946, 0.911187, 1.08645, 1.06315, 0.863703, 0.866296, 0.866343, 1.09292, 1.02608, 1.04572, 1.03912, 0.96297, 0.965014, 0.945766, 1.26435, 1.31779, 1.27704, 1.2782, 1.27745, 0.995437, 0.959412, 0.97766, 0.966288, 1.06449, 1.20902, 1.20091, 1.16348, 1.16141, 1.1054, 0.873988, 0.542932, 0.545185, 0.546269, 0.552635, 0.718814, 0.755526, 0.676611, 0.757986, 0.703602, 0.591135, 0.47838, 0.463116, 0.556122, 0.516969, 0.51836, 0.492228, 0.493539
2.18088, 0.00437829, 1.78671, 1.72027, 1.72172, 1.82734, 1.83435, 1.95707, 2.02363, 2.0312, 2.03374, 1.77284, 1.72653, 1.70582, 1.73072, 1.77397, 1.84353, 1.94502, 1.97431, 1.97641, 1.67844, 1.64695, 1.66547, 1.70583, 1.70695, 1.80112, 1.89534, 1.88691, 1.89583, 1.68839, 1.61981, 1.58423, 1.59068, 1.66459, 1.69706, 1.83451, 1.79543, 1.76012, 1.74651, 1.67107, 1.57767, 1.51534, 1.54774, 1.62292, 1.72795, 1.78361, 1.81654, 1.83075, 1.53137, 1.47887, 1.43459, 1.4701, 1.54377, 1.63348, 1.68439, 1.71893, 1.72457, 1.73389, 1.49757, 1.52025, 1.49223, 1.67532, 1.5297, 1.54328, 1.60247, 1.68212, 1.62978, 1.59082, 1.35486, 1.35131, 1.40635, 1.49899, 1.5823, 1.6006, 1.51719, 1.63405, 1.37133, 1.33033, 1.34777, 1.33226, 1.4182, 1.53524, 1.59545, 1.57917, 1.58047, 1.37751, 1.33554, 1.27531, 1.38164, 1.37782, 1.43085, 1.46879, 1.54133, 1.497, 1.33398, 1.22053, 1.26097, 1.26637, 1.38353, 1.5485, 1.52346, 1.61586, 1.54922, 1.208, 1.20816, 1.21933, 1.26337, 1.3238, 1.52549, 1.25644, 1.27368, 1.62116, 1.30113, 1.24959, 1.30729, 1.30664, 1.37493, 1.41054, 1.42328, 1.45949, 1.30236, 1.27424, 1.20615, 1.33928, 1.35487, 1.42922, 1.53346, 1.51716, 1.61683, 1.34002, 1.24457, 1.25394, 1.27415, 1.35766, 1.40347, 1.52608, 1.55332, 1.33311, 1.2953, 1.24513, 1.3121, 1.29975, 1.35134, 1.59865, 1.5733, 1.41357, 1.37819, 1.42394, 1.31693, 1.29939, 1.31945, 1.35388, 1.75418, 1.75449, 1.95978, 1.78991, 1.72291, 1.59343, 1.56206, 1.56287, 1.53855, 1.46533, 1.56832, 1.56969, 1.61123, 1.91117, 1.92815, 1.86693, 1.48447, 1.48573, 1.16011, 1.14629, 1.1515, 1.15243, 1.25044, 1.30923, 1.30171, 0.915401, 0.91695, 0.817702, 0.817414, 0.888719, 0.957229, 1.13591, 1.09113, 1.12104, 1.15284, 1.11636, 0.897565, 0.843679, 0.765156, 0.764697, 0.850517, 0.874702, 0.883803, 1.27202, 0.939642, 0.788117, 0.788763, 0.874315, 0.918789, 0.883899, 0.995939, 1.02644, 1.02966, 0.845534, 0.846163, 0.848839, 0.891761, 0.99744, 1.01998, 1.08705, 1.08479, 1.08029, 0.835953, 0.838, 0.770634, 0.817763, 0.899015, 0.952224, 0.975142, 1.08074, 0.863358, 0.837244, 0.792033, 0.85155, 0.83511, 0.897219, 1.06377, 1.04694, 1.05007, 0.891896, 0.880952, 0.824771, 0.845568, 0.887255, 0.888617, 1.0211, 1.07872, 1.06843, 1.1231, 1.12046, 0.742832, 0.710487, 0.71189, 0.744789, 0.830298, 0.833243, 0.877937, 0.976752, 0.866091, 0.857671, 0.791988, 0.836032, 0.953479, 0.980803, 1.03564, 0.918276, 0.868152, 0.869291, 0.984951, 0.988676, 0.990444, 0.92919, 0.97432, 0.988847, 0.991206, 1.33457, 1.29494, 1.42794, 1.39267, 1.34852, 0.977365, 0.939075, 0.963585, 0.924544, 1.15713, 1.18106, 1.08829, 1.09043, 1.08232, 1.09131, 1.07778, 0.600931, 0.597716, 0.572655, 0.601199, 0.686648, 0.77093, 0.677631, 0.684061, 0.583096, 0.664005, 0.53485, 0.462723, 0.527985, 0.528199, 0.535347, 0.493493, 0.531825
2.09471, 2.0966, 1.756, 1.71028, 1.72738, 1.72849, 1.84905, 1.87837, 2.00241, 2.02134, 2.02387, 1.72806, 1.7287, 1.73506, 1.72634, 1.75497, 1.86887, 1.92925, 1.98001, 1.94513, 1.7195, 1.62483, 1.63533, 1.6876, 1.72659, 1.74217, 1.94812, 1.94877, 1.63402, 1.8769, 1.67775, 1.56944, 1.59526, 1.61795, 1.68005, 1.77675, 1.90148, 1.85837, 1.86559, 1.58483, 1.58115, 1.50914, 1.55446, 1.69639, 1.79709, 1.80982, 1.82375, 1.89759, 1.54895, 1.46115, 1.42481, 1.48674, 1.52724, 1.50973, 1.64113, 1.70651, 1.72817, 1.57241, 1.49935, 1.46524, 1.50366, 1.52745, 1.56358, 1.56731, 1.55159, 1.56729, 1.62084, 1.37139, 1.33018, 1.33096, 1.37591, 1.47758, 1.53985, 1.51559, 1.63505, 1.77488, 1.40899, 1.38105, 1.39156, 1.36447, 1.42543, 1.52366, 1.53711, 1.57978, 1.57246, 1.55388, 1.31665, 1.27352, 1.27455, 1.37303, 1.39985, 1.30339, 1.31023, 1.30612, 1.29574, 1.29345, 1.27328, 1.34793, 1.34418, 1.36105, 1.45437, 1.45382, 1.47648, 1.2406, 1.18795, 1.25003, 1.20666, 1.25974, 1.25972, 1.54407, 1.57085, 1.57485, 1.33045, 1.2668, 1.2611, 1.33063, 1.33156, 1.36774, 1.63037, 1.53033, 1.32395, 1.29465, 1.2092, 1.26275, 1.32279, 1.37928, 1.51408, 1.60965, 1.58556, 1.35826, 1.25627, 1.21252, 1.42464, 1.35661, 1.6803, 1.52212, 1.56777, 1.5525, 1.3092, 1.28116, 1.29876, 1.31353, 1.41894, 1.58952, 1.61616, 1.42687, 1.37513, 1.34067, 1.33, 1.37504, 1.40295, 1.69265, 1.71663, 1.77519, 1.78206, 1.78165, 1.70569, 1.62125, 1.54918, 1.51595, 1.65418, 1.46303, 1.46277, 1.49526, 1.57184, 1.89337, 2.01706, 1.52324, 1.52244, 1.83522, 1.0879, 1.01489, 1.09724, 1.13648, 1.18218, 1.18011, 1.163, 1.16759, 0.930324, 0.817884, 0.820978, 0.895127, 0.927794, 1.08138, 1.12495, 1.12232, 1.08419, 1.08753, 0.871193, 0.776728, 0.766188, 0.765471, 0.818183, 1.0248, 1.09631, 1.19684, 0.880411, 0.786637, 0.787391, 0.869899, 0.909077, 0.865498, 1.00158, 1.1109, 0.907672, 0.843843, 0.840003, 0.860908, 0.976868, 0.94871, 0.994711, 1.07953, 1.08501, 1.0851, 0.848146, 0.943211, 0.856252, 0.79283, 0.845838, 0.883627, 0.998832, 1.0015, 0.855164, 0.828456, 0.792415, 0.792754, 0.893368, 0.94349, 0.941167, 0.969147, 1.00546, 0.975019, 0.81766, 0.818503, 0.818704, 1.01488, 1.02675, 1.02791, 1.02878, 1.0757, 1.03579, 0.977549, 0.977882, 0.729033, 0.693337, 0.691699, 0.826222, 0.849113, 0.836167, 0.955623, 1.02812, 0.870151, 0.834061, 0.830271, 0.8965, 0.943931, 0.95872, 0.936553, 0.931949, 1.01239, 1.01472, 0.977915, 0.991957, 0.97278, 0.926234, 0.955183, 0.956446, 1.28631, 1.31075, 1.32382, 1.32308, 1.29896, 0.94557, 0.901177, 0.895466, 0.873805, 1.01147, 1.15113, 1.15307, 1.13933, 1.21525, 1.10379, 1.05631, 1.05631, 0.49357, 0.621306, 0.60406, 0.688797, 0.681305, 0.701256, 0.693494, 0.579871, 0.551241, 0.493044, 0.46929, 0.528439, 0.471141, 0.473375, 0.474563, 0.508696
2.13276, 2.12584, 1.85094, 1.7523, 1.72835, 1.74079, 1.78703, 1.86615, 1.94848, 2.00123, 2.00445, 1.78268, 1.70253, 1.69697, 1.76777, 1.81022, 1.89253, 1.88464, 1.86668, 1.92658, 1.77247, 1.65817, 1.65399, 1.68188, 1.83205, 1.79683, 1.63248, 1.8823, 1.88432, 1.88303, 1.6203, 1.57219, 1.57253, 1.66916, 1.67037, 1.85435, 1.87451, 1.91324, 1.90268, 1.67146, 1.53903, 1.51216, 1.63415, 1.65677, 1.70999, 1.75752, 1.80328, 1.8277, 1.55335, 1.44322, 1.43064, 1.43147, 1.44049, 1.53073, 1.56268, 1.55331, 1.54134, 1.53422, 1.5113, 1.46061, 1.49929, 1.49934, 1.48896, 1.57109, 1.57, 1.58962, 1.56685, 1.35817, 1.36193, 1.36469, 1.46126, 1.46443, 1.49284, 1.56498, 1.67361, 1.71319, 1.71369, 1.39158, 1.35556, 1.38447, 1.44297, 1.47716, 1.50872, 1.50203, 1.56102, 1.49607, 1.29951, 1.27326, 1.28841, 1.27459, 1.29533, 1.46689, 1.59324, 1.36079, 1.31288, 1.23983, 1.24065, 1.31656, 1.36923, 1.40597, 1.47937, 1.59981, 1.3019, 1.28567, 1.24318, 1.22253, 1.33133, 1.3603, 1.53436, 1.56298, 1.64856, 1.59777, 1.33433, 1.28501, 1.25159, 1.28497, 1.31499, 1.61231, 1.53026, 1.55097, 1.30036, 1.29098, 1.24001, 1.26046, 1.33473, 1.34085, 1.53825, 1.6265, 1.62362, 1.30845, 1.25824, 1.23727, 1.24352, 1.42118, 1.43757, 1.51773, 1.54679, 1.46867, 1.43059, 1.36226, 1.34389, 1.39432, 1.34651, 1.58489, 1.61634, 1.49102, 1.40173, 1.38881, 1.3914, 1.37648, 1.44776, 1.67261, 1.72063, 1.89544, 1.90474, 1.85618, 1.69944, 1.61892, 1.57093, 1.52601, 1.62378, 1.5635, 1.54526, 1.49613, 1.58875, 1.77676, 2.03167, 1.82718, 1.84301, 1.07174, 1.00175, 1.00472, 1.08559, 1.15407, 1.24027, 1.23006, 1.22303, 1.24436, 0.894692, 0.821198, 0.821645, 0.950118, 0.953888, 1.01198, 1.08829, 1.08109, 1.11049, 1.06628, 1.06751, 0.776959, 0.777039, 0.856988, 0.838844, 0.987745, 1.09965, 1.1012, 0.902114, 0.852171, 0.846838, 0.866605, 0.944168, 0.911728, 1.0029, 1.0995, 0.874132, 0.871521, 0.845226, 0.878543, 0.925024, 0.970044, 1.01595, 1.11264, 1.09132, 1.11524, 0.863855, 0.80849, 0.889092, 0.831465, 0.874479, 1.0098, 0.968287, 1.07153, 0.987799, 0.838965, 0.798191, 0.870482, 0.886875, 0.960171, 0.960424, 1.08906, 1.09809, 1.0993, 0.957452, 0.818024, 0.818673, 0.983811, 1.00953, 1.01165, 1.11398, 1.11462, 1.09834, 0.735406, 0.705688, 0.681098, 0.693215, 0.690745, 0.78435, 0.8523, 0.855572, 0.962814, 0.990906, 0.993063, 0.822739, 0.881105, 0.981107, 0.958519, 0.933188, 0.931953, 0.860357, 0.866182, 0.919849, 0.974608, 0.973645, 0.940287, 0.923695, 1.04939, 1.04349, 1.10127, 1.30852, 1.29583, 1.41533, 1.33674, 1.24713, 0.900602, 0.877178, 0.873046, 0.950182, 1.0449, 1.15643, 1.15752, 1.13914, 1.17466, 1.0685, 0.490299, 0.495141, 0.496264, 0.496403, 0.69027, 0.722145, 0.71769, 0.49757, 0.534304, 0.453017, 0.518489, 0.568297, 0.622713, 0.468849, 0.471233, 0.531977, 0.503711
2.08625, 2.04092, 1.77374, 1.67478, 1.72794, 1.783, 1.77207, 1.79544, 1.93313, 2.0182, 2.05253, 1.74818, 1.70393, 1.77245, 1.72212, 1.77657, 1.83839, 1.93817, 1.97829, 1.97883, 1.7095, 1.68106, 1.6438, 1.69959, 1.64437, 1.6375, 1.65579, 1.85113, 1.93531, 1.9357, 1.63402, 1.58005, 1.60605, 1.63105, 1.65438, 1.80803, 1.86802, 1.63663, 1.61013, 1.57293, 1.50308, 1.53388, 1.58866, 1.61923, 1.69126, 1.79945, 1.8059, 1.77926, 1.74292, 1.46748, 1.46776, 1.43472, 1.47404, 1.49272, 1.57051, 1.54704, 1.51201, 1.55338, 1.48804, 1.42842, 1.51221, 1.48222, 1.52874, 1.53688, 1.53253, 1.55706, 1.56377, 1.34271, 1.33787, 1.33825, 1.39213, 1.50425, 1.57144, 1.58227, 1.5853, 1.58223, 1.35543, 1.44033, 1.32575, 1.38671, 1.40282, 1.48874, 1.47158, 1.50903, 1.58199, 1.33902, 1.31647, 1.28843, 1.31337, 1.35917, 1.37738, 1.30229, 1.31771, 1.34759, 1.26875, 1.23823, 1.23763, 1.2912, 1.40199, 1.44414, 1.51459, 1.55787, 1.35706, 1.29065, 1.24717, 1.35107, 1.30261, 1.36827, 1.52456, 1.65349, 1.57811, 1.58604, 1.29254, 1.25666, 1.26442, 1.30941, 1.31264, 1.51389, 1.51068, 1.51728, 1.51843, 1.2383, 1.19204, 1.22977, 1.33266, 1.45682, 1.53751, 1.59194, 1.75907, 1.31352, 1.2195, 1.21994, 1.33237, 1.36872, 1.53102, 1.53996, 1.67514, 1.49193, 1.44223, 1.43609, 1.3021, 1.42325, 1.56554, 1.62744, 1.59182, 1.46991, 1.49711, 1.42562, 1.39869, 1.4546, 1.68207, 1.67582, 1.71045, 1.77151, 1.75101, 1.74828, 1.76105, 1.64755, 1.60998, 1.54036, 1.4546, 1.45554, 1.53601, 1.44689, 1.44787, 1.57568, 1.64508, 1.83867, 1.03862, 0.988816, 0.984138, 0.983411, 1.3202, 1.22359, 1.21858, 1.19946, 1.19317, 1.12769, 0.886376, 0.887619, 0.842015, 0.880699, 0.932859, 0.97142, 0.935875, 1.07783, 1.09175, 1.09262, 0.859849, 0.812853, 0.777587, 0.842632, 0.846494, 1.00148, 1.05548, 1.06337, 0.847794, 0.88952, 0.865412, 0.866069, 0.898563, 0.923157, 1.09474, 1.13524, 1.13741, 0.878276, 0.863637, 0.88242, 0.943793, 0.966628, 1.00241, 1.06467, 1.08706, 1.11848, 0.819524, 0.743161, 0.78896, 0.79138, 0.870103, 0.908186, 0.992806, 1.08765, 1.08391, 0.852473, 0.799401, 0.79938, 0.953624, 0.968123, 1.04978, 1.09389, 1.07836, 1.03194, 0.926766, 0.93167, 0.835878, 0.883051, 0.922382, 1.03907, 1.10908, 1.15643, 1.13854, 0.721894, 0.680134, 0.684386, 0.683519, 0.767139, 0.767113, 0.842411, 0.887849, 0.885522, 0.991839, 0.911008, 0.943256, 0.892947, 0.93611, 1.02249, 0.96066, 0.898863, 0.858333, 0.866442, 0.919694, 1.1646, 1.16604, 0.872342, 0.873519, 1.00193, 0.974056, 0.974426, 1.23913, 1.26407, 1.32538, 1.28532, 1.212, 0.856694, 0.964041, 0.884157, 0.978748, 0.982191, 1.2053, 1.14051, 1.12402, 1.08434, 1.07129, 0.501442, 0.503502, 0.557082, 0.590253, 0.697061, 0.758633, 0.759943, 0.486162, 0.488169, 0.454397, 0.586817, 0.607511, 0.609467, 0.587447, 0.518666, 0.512602, 0.497927
2.11607, 1.76175, 1.7176, 1.71473, 1.70975, 1.71459, 1.7653, 1.79972, 1.92888, 2.04113, 2.03534, 1.77337, 1.70579, 1.75012, 1.70898, 1.75382, 1.88796, 1.93445, 1.99922, 2.00319, 1.73654, 1.69462, 1.66148, 1.63524, 1.70183, 1.79067, 1.86916, 1.86054, 1.95496, 1.92529, 1.59592, 1.5502, 1.57827, 1.62061, 1.65412, 1.67024, 1.6649, 1.83503, 1.82967, 1.56792, 1.59127, 1.50727, 1.53958, 1.60343, 1.69046, 1.7174, 1.75846, 1.75936, 1.49044, 1.4743, 1.44928, 1.42925, 1.4642, 1.49342, 1.50799, 1.52394, 1.56409, 1.45005, 1.45597, 1.45603, 1.44004, 1.54681, 1.47497, 1.53579, 1.53402, 1.60177, 1.54439, 1.37016, 1.37125, 1.40754, 1.40757, 1.45194, 1.5023, 1.57865, 1.65123, 1.60944, 1.43678, 1.36386, 1.34802, 1.36265, 1.41259, 1.49613, 1.56613, 1.56874, 1.57274, 1.30977, 1.36469, 1.28422, 1.35259, 1.34601, 1.37156, 1.36937, 1.36067, 1.39285, 1.33452, 1.23795, 1.26332, 1.29852, 1.41048, 1.42708, 1.52065, 1.50312, 1.31064, 1.2915, 1.25491, 1.24811, 1.24831, 1.37481, 1.53965, 1.55213, 1.62975, 1.59099, 1.28212, 1.27071, 1.26117, 1.41796, 1.44462, 1.48741, 1.52015, 1.5552, 1.30166, 1.25292, 1.19587, 1.19982, 1.30555, 1.4821, 1.44058, 1.62381, 1.55972, 1.27542, 1.2681, 1.25307, 1.32917, 1.43723, 1.43877, 1.59311, 1.61056, 1.5603, 1.4563, 1.36231, 1.34397, 1.58656, 1.58335, 1.7723, 1.68321, 1.5209, 1.5039, 1.47639, 1.50894, 1.61615, 1.67418, 1.70017, 1.78494, 1.7345, 1.7349, 1.73458, 1.73866, 1.67303, 1.60229, 1.53372, 1.50177, 1.56946, 1.55598, 1.49266, 1.53622, 1.45019, 1.48801, 1.44345, 1.01117, 0.985376, 0.968006, 0.999652, 0.963688, 1.15152, 1.14449, 1.19563, 1.19533, 1.1748, 1.11989, 0.877224, 0.878252, 0.929738, 0.932237, 0.978592, 1.04777, 1.03205, 1.01978, 1.02511, 1.05287, 0.784074, 0.809846, 0.810437, 0.888109, 0.966823, 0.985324, 1.06051, 0.872934, 0.866382, 0.76408, 0.8674, 0.891378, 0.945687, 1.06688, 1.06078, 1.07744, 0.876885, 0.884774, 0.870859, 0.97523, 0.961091, 1.00981, 1.04087, 1.05009, 1.02823, 0.770532, 0.81102, 0.793779, 0.821587, 0.880711, 0.907352, 0.912541, 1.04557, 1.11699, 0.871236, 0.79603, 0.796764, 0.96624, 1.07335, 1.0808, 1.07958, 1.11145, 1.11073, 0.963702, 0.964781, 0.834661, 0.835842, 0.907187, 1.03224, 1.1224, 1.1601, 1.09215, 0.708128, 0.71015, 0.682059, 0.681474, 0.763258, 0.796054, 0.788534, 0.870853, 0.90888, 0.914708, 0.977148, 1.13152, 0.900859, 0.926023, 1.0095, 1.00163, 0.912985, 0.93514, 0.922869, 0.991041, 1.15558, 1.1728, 0.871277, 0.901679, 1.00467, 0.998796, 1.06204, 1.21654, 1.268, 1.26853, 1.29222, 1.23543, 0.851221, 0.850557, 0.884139, 0.960918, 0.962134, 1.09546, 1.10907, 1.07157, 1.04756, 1.04537, 0.552102, 0.614163, 0.594267, 0.621272, 0.698381, 0.75784, 0.759796, 0.538977, 0.53911, 0.454698, 0.456493, 0.577569, 0.570547, 0.571298, 0.590665, 0.592529, 0.492091
2.19434, 2.06871, 1.73395, 1.73368, 1.6783, 1.73026, 1.83779, 1.81038, 1.84893, 1.81567, 1.79599, 1.79642, 1.71919, 1.68229, 1.72666, 1.75603, 1.88374, 1.92097, 1.96296, 2.00026, 1.75075, 1.65472, 1.6268, 1.68179, 1.71313, 1.82409, 1.8286, 1.86297, 1.89017, 1.90676, 1.58333, 1.58289, 1.58555, 1.58805, 1.62302, 1.67152, 1.69649, 1.69624, 1.72282, 1.60549, 1.50456, 1.5609, 1.58844, 1.62858, 1.72398, 1.72449, 1.74122, 1.75249, 1.50802, 1.45735, 1.42652, 1.48932, 1.49042, 1.50143, 1.52947, 1.56511, 1.71749, 1.4143, 1.4158, 1.43316, 1.49039, 1.48762, 1.54179, 1.58943, 1.61853, 1.62368, 1.66269, 1.38023, 1.33998, 1.38576, 1.42343, 1.43731, 1.53718, 1.58526, 1.56245, 1.59075, 1.47833, 1.36938, 1.32452, 1.36818, 1.43669, 1.44104, 1.55769, 1.56862, 1.55907, 1.30324, 1.2662, 1.35981, 1.35932, 1.44114, 1.39115, 1.51698, 1.53269, 1.61812, 1.34043, 1.24257, 1.2713, 1.27498, 1.3488, 1.48488, 1.53294, 1.54942, 1.52117, 1.2871, 1.25348, 1.25912, 1.30949, 1.34976, 1.47148, 1.56971, 1.61437, 1.6131, 1.2759, 1.29537, 1.36508, 1.41527, 1.45826, 1.46852, 1.48307, 1.52731, 1.24332, 1.19347, 1.19631, 1.35615, 1.34287, 1.47827, 1.59714, 1.69266, 1.49865, 1.3079, 1.25068, 1.25055, 1.32999, 1.31898, 1.47618, 1.61592, 1.57826, 1.59938, 1.47263, 1.37461, 1.40568, 1.60133, 1.60291, 1.77224, 1.77557, 1.56444, 1.55015, 1.51254, 1.60314, 1.66232, 1.71402, 1.75519, 2.02904, 2.02867, 1.85469, 1.78595, 1.7299, 1.69504, 1.69481, 1.63976, 1.61438, 1.64792, 1.5081, 1.50102, 1.58626, 1.50815, 1.43367, 1.4427, 1.41161, 0.964703, 0.922095, 0.985143, 0.978037, 0.952027, 0.952174, 1.1739, 1.1544, 1.14031, 0.94135, 0.835889, 0.875322, 0.830116, 0.921769, 0.957085, 1.01544, 1.09136, 1.03968, 1.0116, 0.783946, 0.784363, 0.839099, 0.846034, 0.831985, 0.831643, 0.823161, 1.121, 0.905517, 0.867272, 0.766477, 0.822784, 0.89895, 0.88923, 1.0505, 1.11262, 1.11556, 0.894291, 0.909431, 0.920198, 0.932928, 0.950936, 1.00595, 1.00838, 0.993519, 1.0752, 0.900749, 0.752364, 0.752717, 0.873561, 0.815397, 0.902124, 0.902933, 1.04787, 1.08844, 0.842798, 0.854286, 0.826538, 0.856486, 0.9338, 1.06978, 1.08435, 1.08412, 1.09336, 0.991657, 0.914434, 0.907943, 0.908173, 0.895877, 0.954603, 1.04018, 1.13309, 1.0844, 1.10877, 0.67994, 0.681313, 0.700464, 0.805492, 0.79047, 0.817293, 0.898114, 0.954009, 0.986329, 0.942461, 0.942705, 1.03523, 0.932582, 0.941875, 0.961235, 0.967923, 0.911523, 0.911564, 1.14704, 1.14959, 1.15147, 0.90316, 0.867732, 0.905218, 1.07905, 1.05971, 1.39612, 1.30916, 1.22777, 1.24138, 1.1873, 0.800494, 0.822682, 0.78467, 0.893933, 0.870295, 1.24992, 1.2461, 1.03667, 1.01879, 0.980305, 0.590502, 0.593031, 0.593776, 0.628294, 0.628735, 0.628524, 0.75979, 0.559792, 0.486711, 0.483546, 0.440609, 0.591197, 0.590872, 0.570802, 0.591949, 0.51044, 0.510507
2.072, 2.06812, 1.73833, 1.69965, 1.78887, 1.73533, 1.78354, 1.86128, 1.8739, 1.87386, 1.8688, 1.86871, 1.744, 1.74501, 1.70347, 1.73362, 1.91042, 1.90063, 1.93522, 1.89397, 1.69146, 1.65574, 1.69187, 1.67121, 1.75816, 1.78498, 1.81385, 1.87042, 1.91681, 1.90605, 1.59962, 1.58896, 1.55982, 1.58236, 1.61256, 1.63889, 1.76431, 1.79266, 1.59485, 1.57353, 1.65745, 1.55367, 1.60127, 1.58623, 1.72394, 1.70482, 1.77143, 1.74878, 1.5232, 1.44778, 1.41576, 1.46458, 1.46845, 1.74223, 1.72992, 1.70996, 1.73665, 1.75171, 1.38729, 1.38913, 1.51581, 1.51602, 1.48557, 1.60102, 1.65176, 1.63679, 1.66042, 1.37541, 1.32466, 1.38202, 1.4159, 1.44309, 1.47614, 1.53795, 1.54374, 1.63603, 1.39187, 1.355, 1.33066, 1.39782, 1.49718, 1.50527, 1.59306, 1.56766, 1.56715, 1.31314, 1.25241, 1.30853, 1.462, 1.46226, 1.50874, 1.59671, 1.5905, 1.63164, 1.29554, 1.28382, 1.26504, 1.30995, 1.31434, 1.42954, 1.5133, 1.49911, 1.52737, 1.29325, 1.2548, 1.27398, 1.27314, 1.41764, 1.44657, 1.49172, 1.62164, 1.26869, 1.25821, 1.25624, 1.4401, 1.46096, 1.43992, 1.46537, 1.52809, 1.26685, 1.23308, 1.21612, 1.21209, 1.32804, 1.40308, 1.59661, 1.61711, 1.73863, 1.57214, 1.35518, 1.30969, 1.28589, 1.34044, 1.485, 1.47391, 1.60578, 1.58713, 1.59386, 1.51167, 1.38135, 1.46329, 1.45421, 1.7453, 1.78638, 1.78365, 1.5796, 1.56014, 1.54341, 1.54098, 1.65448, 1.66319, 1.74238, 1.82462, 1.8485, 1.84387, 1.88608, 1.80012, 1.74485, 1.69108, 1.63341, 1.64109, 1.59006, 1.54106, 1.52116, 1.50833, 1.41871, 1.41996, 1.40892, 1.41275, 0.947433, 0.932132, 0.919519, 0.967084, 1.02916, 1.09258, 1.08413, 0.911016, 1.12321, 0.887036, 0.814203, 0.814534, 0.897647, 0.842502, 0.837921, 1.05611, 0.983079, 1.1049, 0.990805, 0.86699, 0.766487, 0.766147, 0.877772, 0.877617, 0.881301, 0.823017, 0.827041, 0.877984, 0.763114, 0.762475, 0.838153, 0.926914, 0.928229, 1.02234, 1.09003, 1.09429, 0.926308, 0.844923, 0.922385, 0.893058, 0.997286, 0.997621, 1.00218, 0.997316, 1.17099, 1.12955, 0.791951, 0.746238, 0.798582, 0.893192, 0.926317, 0.929002, 0.970819, 1.03712, 0.8111, 0.811404, 0.824832, 0.873491, 0.91025, 1.06562, 1.06273, 1.1505, 1.10831, 1.11113, 0.981116, 0.844173, 0.84718, 0.911976, 1.0025, 1.10847, 1.1265, 1.09002, 1.08089, 0.746718, 0.769967, 0.784508, 0.785836, 0.766496, 0.874853, 0.946315, 0.943404, 1.05717, 1.09644, 0.952317, 1.10414, 0.876393, 0.877704, 0.953932, 0.957335, 0.944436, 0.977681, 1.05616, 1.38457, 1.21509, 0.864234, 0.866605, 0.92457, 0.947738, 1.07124, 1.34001, 1.2396, 1.24199, 1.24283, 1.22195, 0.825781, 0.814811, 0.763727, 0.874129, 0.947524, 1.01516, 1.07023, 1.02201, 1.01923, 0.946381, 0.521205, 0.523833, 0.524979, 0.577609, 0.622515, 0.623844, 0.756149, 0.589977, 0.597641, 0.440351, 0.441611, 0.589974, 0.618288, 0.865966, 0.506505, 0.507867, 0.562029
2.12534, 1.79806, 1.80873, 1.73876, 1.74826, 1.74319, 1.8074, 1.80982, 0.00450379, 2.03825, 2.07174, 1.72095, 1.70006, 1.68548, 1.7485, 1.81191, 1.84545, 1.90654, 1.92478, 1.93591, 1.94842, 1.6874, 1.64084, 1.69844, 1.70669, 1.76854, 1.81025, 1.86424, 1.95216, 1.85374, 1.62672, 1.59476, 1.54929, 1.59117, 1.6733, 1.6446, 1.83082, 1.84848, 1.85179, 1.57266, 1.53082, 1.58571, 1.57411, 1.61931, 1.64139, 1.70634, 1.71394, 1.7464, 1.48766, 1.42934, 1.42593, 1.45061, 1.4498, 1.51054, 1.70686, 1.73365, 1.77866, 1.35149, 1.35141, 1.37912, 1.39009, 1.46182, 1.57775, 1.61503, 1.6968, 1.65082, 1.64709, 1.38927, 1.33022, 1.42617, 1.40548, 1.45156, 1.50429, 1.52004, 1.57917, 1.51635, 1.48651, 1.33336, 1.35871, 1.38498, 1.50729, 1.5074, 1.5194, 1.57506, 1.32029, 1.31058, 1.26726, 1.26658, 1.4709, 1.4954, 1.54498, 1.66098, 1.68292, 1.70923, 1.31325, 1.31271, 1.25688, 1.33298, 1.30157, 1.33421, 1.52952, 1.51803, 1.52034, 1.27936, 1.28695, 1.33033, 1.29233, 1.35761, 1.42718, 1.54763, 1.58614, 1.30356, 1.21502, 1.2602, 1.28276, 1.57819, 1.45127, 1.46194, 1.67667, 1.28454, 1.19631, 1.19607, 1.24802, 1.44095, 1.4008, 1.42292, 1.63418, 1.68356, 1.57517, 1.38006, 1.335, 1.3153, 1.44834, 1.50029, 1.5814, 1.68603, 1.58122, 1.52813, 1.52616, 1.39954, 1.48994, 1.58032, 1.71893, 1.69905, 1.80943, 1.76033, 1.57897, 1.57503, 1.56277, 1.61207, 1.62736, 1.76681, 1.76184, 1.83427, 2.00087, 1.91392, 1.91428, 1.83125, 1.69435, 1.68135, 1.61601, 1.57009, 1.6456, 1.69834, 1.36463, 1.40885, 1.40297, 1.30508, 0.956109, 0.93421, 0.841064, 0.84216, 0.910359, 1.02898, 1.00519, 1.09206, 1.11896, 0.90879, 1.07019, 0.811401, 0.807618, 0.857835, 0.91963, 0.837083, 0.828963, 1.02004, 1.1189, 0.836771, 0.835415, 0.771972, 0.77198, 0.892623, 0.946962, 0.988394, 0.824576, 0.825329, 0.852819, 0.8015, 0.801087, 0.799676, 0.931376, 0.998139, 0.997779, 1.09306, 1.10453, 0.935613, 0.845062, 1.00478, 0.879317, 1.07508, 0.994443, 0.994468, 1.03735, 1.02124, 0.890099, 0.74402, 0.745238, 0.866195, 0.939213, 0.925361, 0.914316, 0.954067, 1.03654, 0.821874, 0.763351, 0.835649, 0.886208, 0.885916, 1.10646, 1.09897, 1.07515, 1.07369, 1.07074, 0.925745, 0.842317, 0.842312, 0.917209, 1.00172, 1.0786, 1.10681, 1.10804, 1.03565, 0.686359, 0.686938, 0.684705, 0.780424, 0.803851, 0.873679, 0.864291, 1.03232, 1.03267, 1.07895, 1.0815, 0.972824, 0.974427, 0.889057, 0.832259, 0.8354, 0.904273, 0.974267, 1.29427, 1.19786, 1.31958, 0.924917, 0.895044, 0.883377, 0.991387, 0.987374, 1.03958, 1.22542, 1.4878, 1.34725, 1.18766, 0.807797, 0.739674, 0.841881, 0.859038, 0.860977, 0.954779, 1.0063, 1.00674, 1.00502, 0.944903, 0.520476, 0.522588, 0.523417, 0.683527, 0.658347, 0.654798, 0.711337, 0.535114, 0.504951, 0.451702, 0.448481, 0.448451, 0.619238, 0.608298, 0.544413, 0.524786, 0.483262
2.14699, 2.14961, 1.77276, 1.76527, 1.76876, 1.74489, 1.82379, 1.85574, 2.00213, 2.05716, 1.97861, 1.71476, 1.64487, 1.67891, 1.77294, 1.8623, 1.85939, 1.91107, 2.01561, 1.99211, 1.89016, 1.69104, 1.65021, 1.68915, 1.72032, 1.80242, 1.78474, 1.83905, 1.83132, 1.85505, 1.65047, 1.57509, 1.55448, 1.56335, 1.77171, 1.76893, 1.91335, 1.86465, 1.8645, 1.56104, 1.52007, 1.54669, 1.59715, 1.73027, 1.68465, 1.71125, 1.68493, 1.7473, 1.74955, 1.40271, 1.39837, 1.43339, 1.43167, 1.50301, 1.72676, 1.72422, 1.77546, 1.33197, 1.32622, 1.37404, 1.35846, 1.53352, 1.55085, 1.60318, 1.65819, 1.67439, 1.67354, 1.41281, 1.33066, 1.3902, 1.43292, 1.46805, 1.60029, 1.60102, 1.58949, 1.58417, 1.50543, 1.36451, 1.36765, 1.38176, 1.42992, 1.45312, 1.48694, 1.53327, 1.33642, 1.28241, 1.26706, 1.34998, 1.33351, 1.45535, 1.53164, 1.5361, 1.77429, 1.69699, 1.26481, 1.28743, 1.32186, 1.32476, 1.33397, 1.44845, 1.49187, 1.51879, 1.53964, 1.28454, 1.28401, 1.26182, 1.39606, 1.39662, 1.44095, 1.48841, 1.28985, 1.2312, 1.21734, 1.21729, 1.32312, 1.3861, 1.38908, 1.474, 1.45628, 1.28497, 1.20495, 1.20266, 1.20225, 1.43882, 1.40207, 1.40894, 1.46152, 1.80956, 1.64766, 1.36145, 1.4123, 1.35156, 1.39918, 1.54113, 1.65215, 1.70624, 1.70428, 1.63582, 1.49291, 1.50321, 1.50901, 1.55168, 1.85312, 1.83895, 1.74914, 1.74374, 1.76392, 1.60723, 1.6684, 1.66735, 1.63433, 1.7596, 1.8513, 1.98017, 1.90717, 2.02758, 1.9031, 1.80829, 1.84892, 1.6973, 1.71821, 1.62966, 1.62409, 1.31024, 1.25881, 1.30789, 1.39924, 1.40342, 0.93161, 0.922656, 0.89182, 0.839964, 0.83932, 0.923095, 0.989684, 1.09181, 1.08649, 1.08238, 1.12557, 0.860002, 0.932506, 0.835012, 0.934843, 0.98009, 0.98037, 1.1127, 1.10102, 0.856918, 0.75658, 0.750874, 0.750848, 0.843593, 0.843159, 0.973359, 1.04944, 1.17993, 0.828487, 0.82658, 0.802244, 0.894613, 0.926172, 1.01413, 1.17133, 1.09158, 1.07796, 0.892995, 0.908551, 0.809401, 0.879567, 0.963741, 0.943432, 0.951414, 0.978693, 1.02332, 1.025, 0.816207, 0.800493, 0.82011, 0.895942, 0.967937, 0.949224, 0.976314, 0.897474, 0.760156, 0.765736, 0.798582, 0.860524, 0.86032, 1.10589, 1.03418, 1.06061, 1.06462, 1.06126, 0.936222, 0.838282, 0.84, 0.839854, 0.950129, 1.01253, 1.05418, 1.06446, 1.05692, 0.686145, 0.768051, 0.683308, 0.7666, 0.793358, 0.854573, 0.914584, 0.959516, 1.08507, 1.17715, 1.1251, 0.970312, 0.970718, 0.987525, 0.825888, 0.823583, 0.898546, 1.11227, 1.22353, 1.30533, 1.18384, 0.949772, 0.94942, 0.860488, 1.01153, 0.928939, 1.02984, 1.31214, 1.35896, 1.26456, 1.19297, 0.806463, 0.815327, 0.828472, 0.828145, 0.842333, 0.977652, 1.06701, 1.06867, 1.01584, 1.02709, 0.593124, 0.519536, 0.576496, 0.635334, 0.652587, 0.62565, 0.649679, 0.648068, 0.506714, 0.508027, 0.510591, 0.521993, 0.523381, 0.639341, 0.478069, 0.479668, 0.480637
2.25489, 2.06571, 1.8018, 1.80056, 1.78301, 1.80038, 1.82124, 1.98727, 2.02048, 1.97987, 2.00583, 1.68593, 1.67901, 1.67803, 1.80551, 1.80654, 1.88082, 1.90286, 1.94789, 1.99527, 1.71902, 1.69034, 1.65064, 1.69935, 1.72015, 1.7378, 1.87764, 1.80101, 1.85941, 1.85941, 1.6436, 1.58047, 1.65673, 1.59961, 1.76509, 1.76623, 1.8308, 1.84784, 1.84907, 1.55141, 1.51293, 1.51319, 1.58149, 1.61708, 1.68164, 1.67943, 1.85453, 1.85638, 1.41918, 1.374, 1.40303, 1.41637, 1.50547, 1.48176, 1.49698, 1.90205, 1.8904, 1.35432, 1.2933, 1.35666, 1.37785, 1.50986, 1.57266, 1.61698, 1.69548, 1.68853, 1.68342, 1.36919, 1.36699, 1.38019, 1.43574, 1.41947, 1.56074, 1.59313, 1.5955, 1.62283, 1.41794, 1.31921, 1.38597, 1.4475, 1.43655, 1.49483, 1.5117, 1.51274, 1.30973, 1.28474, 1.26136, 1.50326, 1.34076, 1.41387, 1.48007, 1.55752, 1.55746, 1.34987, 1.25232, 1.25165, 1.2334, 1.27412, 1.34022, 1.45393, 1.4914, 1.51919, 1.51493, 1.27009, 1.20478, 1.3141, 1.3202, 1.37254, 1.40227, 1.43457, 1.43503, 1.30043, 1.21949, 1.2805, 1.33356, 1.41566, 1.41217, 1.45653, 1.4803, 1.46945, 1.28629, 1.24437, 1.24135, 1.29646, 1.34686, 1.45826, 1.48938, 1.51013, 1.43808, 1.49695, 1.35217, 1.3662, 1.445, 1.60984, 1.64021, 1.69026, 1.68453, 1.50611, 1.4501, 1.49157, 1.5092, 1.54747, 1.7199, 1.83081, 1.80287, 1.81578, 1.79561, 1.61024, 1.59165, 1.60318, 1.6614, 1.69648, 1.84109, 1.97909, 1.97308, 1.97061, 1.94606, 1.87562, 1.77546, 1.74387, 1.76511, 1.72139, 1.10666, 0.958912, 0.956464, 0.966571, 1.29893, 1.28243, 0.93313, 0.914723, 0.943973, 0.91257, 0.911761, 0.864209, 0.959902, 1.04439, 1.10008, 1.10152, 1.0746, 0.795145, 0.795375, 0.863923, 0.887527, 0.949459, 1.06843, 0.797194, 0.799526, 0.754748, 0.757059, 0.754427, 0.749231, 0.842567, 0.852207, 0.951452, 1.09637, 1.01458, 0.812538, 0.767005, 0.828976, 0.839548, 0.854972, 0.944999, 1.11823, 1.17112, 1.07458, 0.921597, 0.901894, 0.811274, 0.949522, 1.03388, 0.920352, 0.920469, 0.976416, 0.976682, 0.939914, 0.88116, 0.783784, 0.820242, 0.919297, 0.929362, 0.978785, 0.977997, 0.826912, 0.793682, 0.793528, 0.799176, 0.799524, 0.853745, 1.06391, 1.02528, 1.02673, 1.04819, 1.06744, 1.06903, 0.919999, 0.842511, 0.844197, 0.936214, 0.970713, 0.947434, 0.949266, 1.02382, 0.966817, 0.687301, 0.756507, 0.759955, 0.794412, 0.784447, 0.889561, 1.02519, 1.04317, 1.1187, 1.11723, 1.11472, 0.913068, 0.89603, 0.870531, 0.987356, 0.987577, 1.13396, 1.18233, 1.16063, 1.16191, 1.1936, 0.860725, 0.818809, 0.923477, 0.961891, 0.963578, 1.19511, 1.18562, 1.1869, 1.13912, 0.765992, 0.777525, 0.832862, 0.835464, 0.828183, 0.933107, 1.04549, 1.04823, 1.01551, 0.550317, 0.551928, 0.555096, 0.57759, 0.572976, 0.624878, 0.569919, 0.636375, 0.624605, 0.504057, 0.506755, 0.51902, 0.522456, 0.637693, 0.638031, 0.478118, 0.48, 0.481092
1.98084, 2.15612, 1.86831, 1.76122, 1.76192, 1.79643, 1.83391, 1.84778, 1.9568, 2.01766, 2.02448, 1.70059, 1.69319, 1.68239, 1.77257, 1.77366, 1.88967, 1.95463, 1.97651, 1.94922, 2.0005, 1.69636, 1.65286, 1.70075, 1.70121, 1.80686, 1.8684, 1.885, 2.15868, 0.00434689, 1.60366, 1.55666, 1.55296, 1.63749, 1.74601, 1.74742, 1.83032, 1.83136, 1.84494, 1.56529, 1.50854, 1.50929, 1.54782, 1.57235, 1.64488, 1.73163, 1.87786, 1.83984, 1.43912, 1.44077, 1.39348, 1.4072, 1.43679, 1.48484, 1.65757, 1.69241, 1.75805, 1.36136, 1.33372, 1.366, 1.39094, 1.42386, 1.52927, 1.71968, 1.68759, 1.53675, 1.54148, 1.38241, 1.32558, 1.36342, 1.38568, 1.45739, 1.58336, 1.59942, 1.5744, 1.5682, 1.39122, 1.30587, 1.36079, 1.40623, 1.465, 1.52274, 1.53702, 1.56474, 1.59898, 1.26619, 1.26586, 1.3348, 1.3159, 1.43012, 1.46708, 1.47991, 1.53145, 1.5169, 1.32799, 1.28528, 1.26744, 1.32923, 1.33966, 1.48812, 1.49538, 1.5433, 1.32968, 1.27368, 1.24968, 1.28931, 1.37522, 1.39177, 1.3746, 1.38513, 1.41953, 1.26258, 1.2346, 1.27196, 1.34322, 1.48444, 1.46396, 1.46676, 1.48546, 1.48788, 1.34685, 1.29657, 1.32139, 1.34024, 1.34387, 1.58819, 1.58858, 1.62659, 1.44837, 1.43054, 1.39446, 1.3927, 1.43335, 1.686, 1.71681, 1.69746, 1.71575, 1.55434, 1.54499, 1.5352, 1.56756, 1.74038, 1.83018, 1.8232, 1.90803, 1.8541, 1.72774, 1.62456, 1.66784, 1.76315, 1.77051, 1.76624, 1.80297, 1.89068, 1.99808, 1.93199, 1.84474, 1.91405, 1.85865, 1.83173, 1.80767, 1.81178, 1.05992, 0.971519, 0.91573, 0.966762, 0.891913, 0.988252, 0.915134, 0.926468, 0.938435, 0.823874, 0.897611, 0.864656, 0.863372, 1.05371, 1.17456, 1.12241, 1.12074, 0.845306, 0.783447, 0.78396, 0.971695, 0.979605, 1.05828, 0.797505, 1.14083, 1.09494, 0.816232, 0.754367, 0.748616, 0.887985, 0.842739, 0.830106, 0.824683, 1.0139, 1.09168, 0.788379, 0.755969, 0.835837, 0.84224, 0.899012, 1.1415, 1.08854, 1.11988, 0.863801, 0.860155, 0.836684, 0.837628, 1.03942, 0.995283, 1.03589, 0.977605, 0.965559, 0.870339, 0.870644, 0.862702, 0.901489, 0.880434, 0.962329, 1.07093, 0.816999, 0.751326, 0.764138, 0.841345, 0.798251, 0.839222, 0.978555, 1.02581, 1.03439, 1.05926, 1.06065, 1.09079, 1.06534, 0.926151, 0.892853, 0.921556, 0.988079, 0.96439, 0.973639, 1.04657, 0.98736, 0.686875, 0.690885, 0.687295, 0.736887, 0.759755, 0.829504, 0.867169, 0.881682, 1.08523, 1.11791, 1.12073, 1.11619, 1.01811, 0.873319, 0.84918, 1.10395, 1.10821, 1.32504, 1.29403, 1.16584, 1.16708, 1.15718, 0.874836, 0.806592, 0.806694, 0.965229, 0.966981, 1.2033, 1.17707, 1.21919, 1.14647, 1.05974, 0.694554, 0.714214, 0.755708, 0.805055, 0.858233, 1.00593, 0.994522, 0.997616, 0.962734, 0.552934, 0.596573, 0.574194, 0.568444, 0.569454, 0.57068, 0.579155, 0.501681, 0.50324, 0.432096, 0.434505, 0.535697, 0.551488, 0.642812, 0.475716, 0.477384, 0.479479
2.15448, 2.07791, 1.88508, 1.80383, 1.77303, 1.80369, 1.82707, 1.92862, 1.9651, 2.06656, 2.04548, 1.6986, 1.6961, 1.70507, 1.74224, 1.83167, 1.8278, 1.8693, 1.95422, 1.95538, 1.72727, 1.71028, 1.69986, 1.6703, 1.78167, 1.75944, 1.87763, 1.92826, 1.89153, 1.89313, 1.66031, 1.57167, 1.5777, 1.78586, 1.76572, 1.79313, 1.90042, 1.82193, 1.89686, 1.56806, 1.5582, 1.52675, 1.52119, 1.58085, 1.64818, 1.7401, 1.82771, 1.83325, 1.43709, 1.41705, 1.45841, 1.46039, 1.45193, 1.51614, 1.56138, 1.72425, 1.71626, 1.47202, 1.43417, 1.35051, 1.38958, 1.4163, 1.57132, 1.63002, 1.691, 1.73688, 1.67029, 1.40122, 1.34509, 1.40547, 1.40571, 1.46809, 1.51029, 1.59176, 1.57908, 1.50207, 1.36786, 1.33861, 1.36634, 1.40921, 1.40873, 1.55584, 1.62357, 1.62521, 1.36924, 1.26715, 1.26811, 1.35084, 1.34871, 1.34863, 1.48089, 1.47973, 1.49261, 1.49269, 1.33893, 1.30998, 1.27873, 1.3046, 1.33951, 1.47264, 1.50682, 1.52899, 1.33568, 1.21519, 1.2695, 1.33021, 1.38637, 1.36725, 1.37035, 1.36327, 1.33308, 1.32057, 1.25322, 1.31222, 1.31317, 1.44186, 1.45243, 1.47263, 1.46788, 1.46868, 1.33714, 1.30898, 1.30854, 1.46936, 1.46967, 1.5752, 1.67502, 1.86748, 1.4615, 1.40587, 1.39817, 1.51369, 1.50775, 1.60211, 1.77345, 1.81736, 1.7798, 1.51974, 1.47511, 1.5863, 1.52984, 1.69757, 1.7719, 1.86429, 1.91137, 1.88682, 1.78593, 1.62766, 1.61349, 1.66145, 1.72034, 1.71077, 1.88629, 1.82208, 1.86812, 1.8928, 1.95579, 2.08525, 1.93042, 2.0276, 1.81426, 1.81674, 1.85892, 0.947683, 0.925211, 0.877267, 0.966121, 0.960369, 0.998324, 0.932249, 0.811328, 0.82329, 0.863988, 0.898087, 0.923551, 1.05026, 1.06811, 1.11667, 1.11271, 0.859456, 0.78081, 0.843117, 0.795401, 0.800863, 1.11937, 1.12354, 1.15405, 1.14309, 0.829542, 0.759076, 0.801075, 0.825619, 0.8701, 1.01527, 1.00499, 1.09673, 0.841376, 0.763774, 0.763731, 0.837734, 0.873764, 0.898932, 1.06301, 1.08785, 1.12161, 0.823751, 0.770214, 0.770644, 0.838532, 1.0445, 0.95263, 0.952678, 0.958029, 0.966609, 0.956592, 0.881912, 0.797541, 0.797766, 0.949581, 0.945302, 0.949623, 0.817824, 0.760004, 0.760681, 0.845474, 0.831815, 0.846963, 0.954071, 1.02307, 1.07189, 1.12756, 1.06791, 1.07329, 1.08274, 0.987756, 0.920688, 0.939121, 0.950219, 1.00175, 1.01113, 0.973926, 0.985588, 0.767807, 0.763923, 0.771644, 0.737403, 0.75332, 0.753073, 0.874961, 0.93911, 1.25454, 1.11453, 1.11827, 1.21222, 0.96453, 0.926708, 0.908446, 1.04641, 1.00013, 1.11676, 1.11631, 1.26003, 1.16421, 1.16313, 0.880981, 0.807924, 0.808799, 0.964103, 0.949968, 1.05681, 1.10948, 1.14055, 1.06385, 1.09171, 0.721725, 0.681064, 0.681484, 0.711668, 0.801012, 0.969882, 0.946938, 0.974644, 0.976239, 0.574264, 0.500631, 0.55969, 0.569311, 0.617898, 0.611703, 0.594828, 0.501346, 0.486315, 0.431688, 0.432946, 0.597528, 0.629562, 0.720346, 0.472857, 0.473783, 0.473571
2.16056, 2.20783, 1.82626, 1.7372, 1.74897, 1.82448, 1.84422, 1.95887, 2.01083, 2.02446, 2.03523, 1.7459, 1.68454, 1.67527, 1.73868, 1.76836, 1.84204, 1.92137, 1.94886, 2.01262, 1.72372, 1.69974, 1.64464, 1.65969, 1.72818, 1.77659, 1.84831, 1.83375, 1.85092, 1.81701, 1.53982, 1.60215, 1.56295, 1.58983, 1.71133, 1.79688, 1.80161, 1.81134, 1.81703, 1.57338, 1.55414, 1.49945, 1.56525, 1.57065, 1.66833, 1.73921, 1.7819, 1.78871, 1.79076, 1.39806, 1.42107, 1.40326, 1.48164, 1.47573, 1.55717, 1.68328, 1.66135, 1.63257, 1.44379, 1.36689, 1.39286, 1.50849, 1.50887, 1.60343, 1.65502, 1.7074, 1.41113, 1.39035, 1.34291, 1.40109, 1.4513, 1.45346, 1.45593, 1.49988, 1.52434, 1.58377, 1.32726, 1.31502, 1.38397, 1.3638, 1.47869, 1.53212, 1.63325, 1.61227, 1.36445, 1.32629, 1.27107, 1.28133, 1.35425, 1.36008, 1.44055, 1.42395, 1.47081, 1.50321, 1.33041, 1.47102, 1.30801, 1.39981, 1.35083, 1.45925, 1.51211, 1.5412, 1.25709, 1.21146, 1.32492, 1.34044, 1.32742, 1.32749, 1.38775, 1.37049, 1.34147, 1.31667, 1.25859, 1.2606, 1.35751, 1.41613, 1.44467, 1.49814, 1.50723, 1.7047, 1.34818, 1.32079, 1.31756, 1.40227, 1.47978, 1.5545, 1.70429, 1.75774, 1.45544, 1.4588, 1.38581, 1.49997, 1.59673, 1.57567, 1.72851, 1.75732, 1.78203, 1.53722, 1.50005, 1.54146, 1.60963, 1.63748, 1.78865, 1.90048, 2.04849, 2.08946, 2.02764, 1.66041, 1.62585, 1.62412, 1.70553, 1.77184, 1.80378, 1.85873, 1.89608, 1.94568, 1.93296, 1.91838, 2.04172, 1.85314, 1.85818, 1.81515, 0.994294, 0.874153, 0.874325, 0.969801, 0.978803, 1.05641, 1.05656, 1.12555, 0.808728, 0.80648, 0.861457, 0.863316, 0.911057, 1.04322, 0.8407, 1.13302, 1.13227, 0.763246, 0.763571, 0.805188, 0.878309, 0.900546, 1.14359, 1.1007, 1.1462, 1.13675, 0.910975, 0.819434, 0.820604, 0.862859, 0.921756, 0.949993, 1.05317, 1.05825, 0.808082, 0.762244, 0.851272, 0.81761, 0.840859, 0.812918, 1.08638, 1.06962, 1.06684, 1.06682, 0.849401, 0.801371, 0.855273, 1.01847, 1.02415, 1.03647, 1.01076, 0.942914, 0.939146, 0.890578, 0.797768, 0.798449, 0.880729, 0.933064, 0.94949, 0.940167, 0.758045, 0.759115, 0.880906, 0.886764, 0.907087, 1.01176, 1.0883, 1.1211, 1.12896, 1.19376, 1.09609, 1.07894, 0.977847, 1.01183, 0.883514, 0.94222, 0.963828, 1.06634, 0.982881, 0.990462, 0.718644, 0.679226, 0.67857, 0.878234, 0.750968, 0.857074, 0.857146, 0.857465, 1.25702, 1.24165, 1.21689, 1.21537, 1.19046, 0.870726, 0.873681, 0.918519, 0.989245, 0.994297, 1.19086, 1.16119, 1.16391, 1.16487, 0.804466, 0.807815, 0.807772, 0.970104, 0.949913, 1.0819, 1.0566, 1.05974, 1.06174, 1.04296, 0.728438, 0.708688, 0.695846, 0.797875, 0.798323, 0.906099, 0.944445, 0.974077, 0.974259, 0.532185, 0.545149, 0.487206, 0.56462, 0.643872, 0.603935, 0.543011, 0.487022, 0.519331, 0.526066, 0.527448, 0.604077, 0.718412, 0.719302, 0.516024, 0.471494, 0.471229
2.04223, 2.20883, 1.75481, 1.74176, 1.7455, 1.8136, 1.80687, 1.91472, 1.92418, 2.03486, 2.02752, 2.03568, 1.70334, 1.64839, 1.79899, 1.72179, 1.88359, 1.90109, 1.9294, 2.01492, 1.72186, 1.67915, 1.63656, 1.66236, 1.68852, 1.71038, 1.73697, 1.82118, 1.82938, 1.83196, 1.55051, 1.55297, 1.5544, 1.58927, 1.62098, 1.66223, 1.81426, 1.84499, 1.81896, 1.59516, 1.54113, 1.64158, 1.57555, 1.62719, 1.65953, 1.7336, 1.74438, 1.78512, 1.41607, 1.4405, 1.36654, 1.39324, 1.42491, 1.51999, 1.59607, 1.62586, 1.63194, 1.59951, 1.50458, 1.42644, 1.37568, 1.4027, 1.39703, 1.39526, 1.42212, 1.41767, 1.37857, 1.33974, 1.34935, 1.5468, 1.42494, 1.48313, 1.48726, 1.58699, 1.56616, 1.61251, 1.32399, 1.31646, 1.33301, 1.41908, 1.44024, 1.50767, 1.54328, 1.3608, 1.34094, 1.30344, 1.27384, 1.33796, 1.32007, 1.33118, 1.42403, 1.42964, 1.48062, 1.57378, 1.33125, 1.30874, 1.31725, 1.31344, 1.35757, 1.45515, 1.5271, 1.53271, 1.20566, 1.20668, 1.2502, 1.31725, 1.3566, 1.28413, 1.2877, 1.42679, 1.37817, 1.33249, 1.33235, 1.32496, 1.32598, 1.45119, 1.49768, 1.66076, 1.62437, 1.61267, 1.39226, 1.41126, 1.34786, 1.46038, 1.53582, 1.5274, 1.72726, 1.83283, 1.49675, 1.4858, 1.45438, 1.45136, 1.53657, 1.58292, 1.62608, 1.76244, 1.60943, 1.68008, 1.55492, 1.55886, 1.61303, 1.6905, 1.73756, 1.82425, 2.03966, 1.98897, 1.98895, 1.66637, 1.61354, 1.62396, 1.67631, 1.78707, 1.81067, 1.88588, 1.89617, 1.94738, 1.88854, 1.88348, 2.06185, 2.11532, 1.86186, 1.94726, 0.894119, 0.871402, 0.872218, 0.972919, 1.02785, 1.10807, 1.11353, 1.07442, 0.771051, 0.840091, 0.831263, 0.849268, 0.912943, 1.05392, 1.07776, 1.10595, 0.83162, 0.831571, 0.757659, 0.758505, 0.879141, 0.897223, 1.04734, 1.14685, 1.14974, 1.13994, 0.907853, 0.875968, 0.794147, 0.943438, 0.918868, 0.955572, 1.05173, 1.05084, 0.84211, 0.769658, 0.769461, 0.87875, 0.877114, 0.812586, 0.906321, 0.984706, 0.957012, 0.963287, 0.760783, 0.760993, 0.858954, 0.860439, 0.997171, 0.99883, 1.06316, 1.03944, 0.919316, 0.871417, 0.795555, 0.907336, 0.905817, 0.95137, 0.951015, 0.983434, 0.814495, 0.773062, 0.82553, 0.880463, 0.912945, 1.03871, 1.13018, 1.11394, 1.21287, 1.17116, 1.14487, 1.01155, 1.08178, 0.93349, 0.883441, 0.925571, 0.984764, 0.987044, 1.07598, 0.892479, 0.825928, 0.680153, 0.68066, 0.736452, 0.788213, 0.8663, 0.858139, 0.90539, 1.24461, 1.18595, 1.32418, 1.38433, 1.19315, 1.19346, 0.871234, 0.908811, 1.00089, 1.00903, 1.06797, 1.06853, 1.16434, 1.17853, 0.802486, 0.804522, 0.805731, 0.856062, 0.859571, 0.998832, 1.04394, 1.04643, 1.01515, 1.01799, 0.743765, 0.745817, 0.700861, 0.84629, 0.834849, 0.918817, 0.887404, 0.903274, 0.902238, 0.601046, 0.597538, 0.620952, 0.532418, 0.6434, 0.652477, 0.528085, 0.487752, 0.501561, 0.504378, 0.429764, 0.525298, 0.535898, 0.536135, 0.533209, 0.454986, 0.464536
2.21092, 2.11201, 1.75336, 1.74544, 1.74754, 1.78537, 1.81902, 1.93915, 1.98286, 2.03537, 1.99581, 1.97687, 1.65088, 1.65108, 1.65293, 1.75771, 1.85083, 1.89413, 1.95796, 1.96003, 1.91531, 1.68287, 1.64282, 1.67321, 1.68594, 1.71157, 1.79108, 1.81077, 1.84963, 1.88195, 1.52324, 1.5104, 1.52641, 1.57069, 1.625, 1.66247, 1.68742, 1.61326, 1.58363, 1.58478, 1.55825, 1.53978, 1.54766, 1.60949, 1.61567, 1.67811, 1.70739, 1.69878, 1.44759, 1.36833, 1.42172, 1.39889, 1.4302, 1.49111, 1.60209, 1.63113, 1.65049, 1.61005, 1.38843, 1.39199, 1.42039, 1.45801, 1.45204, 1.57118, 1.47906, 1.48286, 1.37882, 1.33962, 1.38883, 1.38902, 1.41135, 1.42702, 1.53815, 1.55505, 1.58353, 1.60178, 1.33935, 1.29271, 1.32569, 1.42605, 1.36551, 1.44251, 1.47165, 1.5247, 1.35826, 1.29288, 1.29591, 1.31629, 1.30506, 1.37474, 1.46471, 1.44366, 1.44509, 1.40133, 1.32609, 1.29233, 1.31197, 1.30622, 1.45202, 1.46742, 1.46735, 1.49604, 1.20747, 1.21174, 1.21232, 1.37052, 1.38453, 1.38417, 1.33698, 1.34006, 1.36171, 1.35292, 1.32371, 1.30748, 1.38455, 1.50368, 1.60226, 1.8043, 1.80303, 1.70275, 1.4027, 1.36802, 1.37544, 1.39122, 1.49437, 1.62333, 1.77147, 1.73121, 1.70374, 1.48572, 1.45698, 1.49345, 1.57983, 1.60234, 1.80045, 1.76093, 1.75188, 1.62687, 1.5725, 1.58154, 1.64922, 1.66126, 1.83714, 1.82809, 2.04114, 1.96065, 1.94885, 1.76697, 1.70208, 1.78995, 1.72139, 1.85371, 1.85333, 1.86245, 1.88936, 1.9043, 1.87591, 1.87535, 1.88186, 2.07179, 1.84754, 1.82364, 0.877992, 0.925256, 0.889975, 0.96124, 1.02177, 1.10819, 1.15507, 1.11649, 0.768568, 0.831949, 0.838029, 0.919088, 0.912747, 0.963985, 1.10162, 1.07966, 1.15749, 0.808399, 0.801011, 0.818706, 0.867118, 0.901812, 1.04813, 1.11085, 1.14593, 1.12945, 1.10459, 0.863105, 0.847174, 0.897031, 0.897963, 0.978978, 0.980909, 0.982926, 0.98113, 0.76568, 0.766034, 0.829394, 0.839685, 0.919882, 0.947847, 1.07368, 0.805705, 0.755462, 0.75725, 0.762078, 0.735244, 0.859236, 0.949372, 1.02798, 1.03684, 1.03715, 1.04597, 0.823224, 0.875242, 0.884252, 0.918501, 0.88185, 0.880843, 1.00633, 0.892055, 0.856649, 0.846051, 0.979991, 0.999667, 1.04134, 1.22044, 1.12381, 1.15952, 1.16074, 1.16176, 1.11002, 1.18148, 0.936713, 0.920833, 1.02717, 1.04218, 0.988286, 1.00485, 0.829765, 0.676579, 0.676112, 0.675203, 0.784425, 0.821817, 0.806736, 0.807463, 0.957997, 1.14784, 1.2609, 1.31197, 1.20988, 1.21179, 0.933696, 0.902101, 0.868132, 0.942968, 0.998001, 1.08972, 1.0797, 1.08146, 1.07559, 0.863636, 0.888391, 0.804873, 0.80577, 0.863951, 0.911322, 1.04429, 1.08371, 1.07045, 1.03172, 0.767327, 0.706768, 0.662696, 0.793814, 0.839664, 0.86762, 0.935943, 0.861626, 0.839418, 0.886934, 0.657657, 0.56282, 0.601786, 0.493065, 0.522433, 0.529521, 0.588025, 0.486732, 0.429579, 0.430756, 0.531733, 0.647091, 0.652835, 0.492355, 0.463228, 0.465169
2.09173, 2.03715, 1.79544, 1.71046, 1.71382, 1.76931, 1.79812, 1.89099, 2.01164, 2.01713, 1.96555, 1.69619, 1.65448, 1.65086, 1.68268, 1.70344, 1.82394, 1.85824, 1.86875, 1.91556, 1.72083, 1.73128, 1.64485, 1.66164, 1.68358, 1.71028, 1.77307, 1.79816, 1.87223, 1.86198, 1.54937, 1.5524, 1.52564, 1.54454, 1.62516, 1.64284, 1.73149, 1.78971, 1.79035, 1.55793, 1.53085, 1.56089, 1.56345, 1.58131, 1.68837, 1.72699, 1.68134, 1.69023, 1.43282, 1.37246, 1.37164, 1.41602, 1.44454, 1.47628, 1.51624, 1.66337, 1.73426, 1.64059, 1.39853, 1.40635, 1.44874, 1.50028, 1.48884, 1.56921, 1.4946, 1.68954, 1.38509, 1.34858, 1.42594, 1.39617, 1.42557, 1.53372, 1.53259, 1.60241, 1.50528, 1.50518, 1.28872, 1.29641, 1.33889, 1.32889, 1.39375, 1.45022, 1.4662, 1.51335, 1.31264, 1.27793, 1.24746, 1.29122, 1.31364, 1.34383, 1.42637, 1.4675, 1.33287, 1.27728, 1.29034, 1.30828, 1.309, 1.30582, 1.44456, 1.48008, 1.52435, 1.32111, 1.26865, 1.20323, 1.28313, 1.37813, 1.3406, 1.42607, 1.59506, 1.60942, 1.6107, 1.35517, 1.29316, 1.37043, 1.3786, 1.39924, 1.53104, 1.64118, 1.72756, 1.57031, 1.41277, 1.39889, 1.3991, 1.40631, 1.54741, 1.54786, 1.7026, 1.67249, 1.6202, 1.5211, 1.46928, 1.49188, 1.63022, 1.64884, 1.76163, 1.77026, 1.76637, 1.64237, 1.70201, 1.57262, 1.69563, 1.70616, 1.78721, 1.81007, 1.99941, 2.12497, 1.89952, 1.7818, 1.85886, 1.73451, 1.85814, 1.93064, 1.9068, 1.92355, 1.92005, 1.99478, 1.87823, 1.87867, 1.89018, 1.86132, 1.85452, 1.85041, 0.903902, 0.885391, 0.897936, 1.08376, 1.08472, 1.05114, 1.05311, 1.07569, 0.819232, 0.842732, 0.776623, 0.885153, 0.847448, 0.964124, 0.946584, 0.978049, 1.06057, 0.860639, 0.815847, 0.838867, 0.867113, 0.847178, 0.990964, 1.11788, 1.14816, 1.16369, 1.09354, 0.860569, 0.853496, 0.908246, 0.917816, 0.935045, 0.981377, 0.983385, 0.982691, 0.845567, 0.83997, 0.815795, 0.812727, 0.886615, 0.898019, 0.932847, 1.00987, 0.752741, 0.743828, 0.743094, 0.733985, 0.767183, 0.872642, 1.10662, 1.05064, 1.05188, 0.970711, 0.828612, 0.829286, 0.91234, 0.873375, 0.881712, 0.881965, 0.880615, 0.92178, 0.854099, 0.855436, 0.828923, 0.920651, 1.06265, 1.13568, 1.17406, 1.1749, 1.17355, 1.14984, 1.16834, 1.04291, 0.99803, 0.92059, 0.986983, 1.01602, 1.08056, 1.12817, 1.0708, 0.766558, 0.764806, 0.714326, 0.763519, 0.849466, 0.85027, 0.871246, 1.17362, 1.17484, 1.21157, 1.18814, 1.19127, 1.19354, 1.33352, 0.881198, 0.856924, 0.896544, 0.979194, 1.09013, 1.08015, 1.05475, 1.05523, 1.0531, 0.8777, 0.864678, 0.823235, 0.819006, 0.932623, 1.00377, 1.04685, 1.06732, 1.00622, 0.802016, 0.753966, 0.66247, 0.81536, 0.820321, 0.86388, 0.879015, 0.880918, 0.885884, 0.88686, 0.64055, 0.554123, 0.490598, 0.486677, 0.486224, 0.580638, 0.431482, 0.434218, 0.434333, 0.436793, 0.593729, 0.607441, 0.640031, 0.812761, 0.442803, 0.54217
1.98919, 2.04467, 1.77657, 1.75262, 1.73755, 1.79106, 1.83443, 1.87537, 1.91552, 2.02828, 1.94718, 1.70993, 1.67618, 1.68712, 1.71302, 1.6992, 1.72725, 1.80224, 1.86502, 1.9335, 1.93228, 1.69184, 1.65245, 1.65354, 1.66909, 1.76542, 1.79826, 1.81994, 1.90039, 1.90365, 1.62243, 1.61989, 1.61926, 1.56099, 1.6114, 1.67226, 1.73896, 1.75432, 1.76581, 1.57464, 1.50962, 1.56733, 1.54757, 1.65823, 1.70828, 1.69182, 1.67349, 1.70285, 1.4499, 1.36425, 1.40194, 1.38467, 1.45735, 1.50536, 1.56539, 1.68284, 1.67962, 1.40533, 1.40967, 1.37422, 1.4229, 1.45912, 1.54169, 1.62183, 1.62904, 1.3577, 1.33988, 1.28989, 1.31281, 1.40808, 1.39502, 1.49126, 1.57968, 1.59004, 1.58141, 1.37853, 1.31189, 1.32813, 1.29388, 1.3886, 1.42746, 1.60285, 1.6026, 1.5555, 1.55851, 1.24523, 1.28964, 1.40251, 1.34415, 1.39382, 1.50544, 1.51996, 1.55101, 1.27889, 1.24873, 1.30263, 1.32625, 1.39819, 1.42267, 1.47943, 1.47481, 1.3223, 1.22949, 1.27543, 1.27443, 1.38249, 1.53682, 1.57367, 1.64058, 1.67861, 1.36658, 1.3612, 1.36429, 1.34363, 1.41557, 1.42407, 1.45509, 1.54882, 1.54656, 1.46844, 1.46721, 1.44661, 1.40623, 1.43425, 1.51778, 1.62112, 1.77983, 1.7644, 1.63029, 1.52441, 1.50692, 1.57782, 1.52257, 1.68561, 1.79262, 1.81053, 1.81272, 1.72616, 1.7856, 1.6689, 1.69779, 1.72298, 1.70798, 1.8785, 2.00699, 1.95278, 1.8827, 1.82836, 1.81567, 1.81409, 1.87696, 1.94129, 1.93424, 1.92501, 1.94758, 1.93194, 1.91965, 1.87856, 1.92118, 1.8797, 1.86216, 1.83072, 0.897922, 0.832316, 0.897877, 0.843529, 1.04122, 1.04705, 1.10912, 1.08787, 0.795009, 0.763861, 0.870077, 0.869863, 0.881372, 0.956784, 0.911298, 0.94538, 0.926549, 0.812954, 0.795042, 0.857729, 0.887575, 0.903179, 0.933608, 1.1119, 1.12203, 1.07439, 1.09104, 0.95616, 0.864484, 0.908624, 0.980959, 0.886734, 1.00078, 0.980756, 1.04389, 0.833017, 0.743265, 0.742728, 0.783448, 0.896691, 0.894526, 0.888463, 1.02674, 0.825487, 0.790612, 0.710247, 0.822343, 0.845691, 0.86971, 1.04306, 1.04301, 1.09822, 0.895174, 0.91421, 0.982037, 0.870615, 0.872648, 0.916605, 0.87878, 0.922831, 0.898334, 0.863619, 0.853415, 0.903869, 0.968408, 0.965942, 1.12315, 1.19074, 1.18728, 1.188, 1.17389, 1.10991, 1.07882, 0.953776, 0.951026, 0.959939, 0.967241, 0.992222, 1.03373, 1.00981, 0.762707, 0.765572, 0.714427, 0.717296, 0.756521, 0.933095, 0.929864, 1.19541, 1.07723, 1.18853, 1.18559, 1.18718, 1.19053, 1.14744, 0.85256, 0.850937, 0.829383, 0.982426, 1.06401, 1.04984, 1.05288, 1.05691, 1.05642, 0.896992, 0.854476, 0.838721, 0.812077, 0.768533, 1.07208, 1.07427, 1.0228, 1.02552, 1.02674, 0.750887, 0.65714, 0.672608, 0.742257, 0.69453, 0.887188, 0.887438, 0.86472, 0.63928, 0.637366, 0.639953, 0.485995, 0.484955, 0.485744, 0.486856, 0.517554, 0.434617, 0.42372, 0.423096, 0.555624, 0.549389, 0.819075, 0.814506, 0.481739, 0.44176
0.00400871, 1.84855, 1.773, 1.77385, 1.73387, 1.80372, 1.88953, 1.90933, 1.91179, 2.01848, 1.99786, 1.71075, 1.73771, 1.63692, 1.63725, 1.71058, 1.82883, 1.8293, 1.83822, 1.86933, 1.87897, 1.74174, 1.78303, 1.64393, 1.65172, 1.77334, 1.77957, 1.83244, 1.88786, 1.87881, 1.55544, 1.55293, 1.51223, 1.56643, 1.59695, 1.70406, 1.70039, 1.75772, 1.78436, 1.55404, 1.53421, 1.48436, 1.56363, 1.63522, 1.62167, 1.68532, 1.68934, 1.78128, 1.44486, 1.45514, 1.35075, 1.48973, 1.40817, 1.54778, 1.65835, 1.67227, 1.67069, 1.3981, 1.39891, 1.35782, 1.37799, 1.43388, 1.48603, 1.55665, 1.6088, 1.61036, 1.33345, 1.30499, 1.3197, 1.31893, 1.42155, 1.48589, 1.55669, 1.60384, 1.6168, 1.54707, 1.26523, 1.26486, 1.32579, 1.39828, 1.45383, 1.49508, 1.49439, 1.55911, 1.33048, 1.30989, 1.29125, 1.29598, 1.31965, 1.37037, 1.52627, 1.59132, 1.29208, 1.28638, 1.2923, 1.29193, 1.34045, 1.34946, 1.37051, 1.44635, 1.47791, 1.26592, 1.23379, 1.24745, 1.30483, 1.3096, 1.39929, 1.53068, 1.62518, 1.70382, 1.71771, 1.39252, 1.37982, 1.41555, 1.4248, 1.44207, 1.44538, 1.56777, 1.57286, 1.44001, 1.44133, 1.38293, 1.42351, 1.5335, 1.65496, 1.74565, 1.87664, 2.09783, 1.57077, 1.60299, 1.59564, 1.59955, 1.64414, 1.70259, 1.80673, 1.81351, 1.80818, 1.81946, 1.70104, 1.71043, 1.68624, 1.66929, 1.7693, 1.82771, 1.86031, 1.91976, 1.87956, 1.86524, 1.86371, 1.85524, 1.8808, 1.89476, 1.90127, 1.91433, 1.9172, 1.90942, 1.9318, 1.89707, 1.89393, 1.87065, 1.84131, 0.879691, 0.870293, 0.850999, 0.842481, 0.842221, 0.957098, 0.996595, 1.1051, 1.04199, 1.06856, 0.883653, 0.765493, 0.809216, 0.808731, 0.859192, 0.943999, 0.89451, 0.893878, 0.874906, 0.794476, 0.84122, 0.888364, 0.936284, 0.935515, 1.04822, 1.04684, 1.07399, 1.03199, 0.942678, 0.914753, 0.916292, 0.881672, 0.93526, 0.935358, 1.05664, 0.829698, 0.811533, 0.783807, 0.745443, 0.850232, 0.84238, 0.853287, 0.914746, 0.878001, 0.815128, 0.764018, 0.763462, 0.797899, 0.864594, 0.895177, 1.02143, 1.02153, 0.881222, 0.880228, 0.848057, 0.843269, 0.844866, 0.920528, 0.962743, 0.995496, 0.930295, 0.922515, 0.892163, 0.901909, 0.964886, 0.966709, 0.960189, 1.13071, 1.1531, 1.15135, 1.15314, 1.18551, 1.2038, 1.0085, 0.976092, 0.950255, 0.96036, 0.960296, 1.04073, 1.04321, 1.03298, 0.764152, 0.765154, 0.71476, 0.720458, 0.904908, 0.857197, 0.864835, 0.91948, 1.1733, 1.17454, 1.16777, 1.16051, 1.24409, 1.1462, 0.873683, 0.835082, 0.980829, 0.926527, 0.963552, 1.04118, 1.07129, 1.07262, 1.12288, 1.02304, 0.866542, 0.825627, 0.838944, 0.768962, 0.767593, 0.989701, 0.96347, 0.967175, 0.799941, 0.719478, 0.703493, 0.630067, 0.629445, 0.607476, 0.60884, 0.865555, 0.866716, 0.646128, 0.635822, 0.636938, 0.490077, 0.497569, 0.483972, 0.551739, 0.566788, 0.552255, 0.553947, 0.500463, 0.551943, 0.600023, 0.812952, 0.816728, 0.514662, 0.576166
2.24614, 1.85644, 1.79748, 1.72276, 1.73346, 1.75156, 1.82108, 1.98476, 2.0004, 0.00427439, 2.07973, 1.83432, 1.70913, 1.65108, 1.71013, 1.77881, 1.78566, 1.82827, 1.93083, 1.93171, 1.93385, 1.65111, 1.64178, 1.67894, 1.683, 1.68513, 1.79684, 1.82299, 1.86197, 1.86366, 1.57935, 1.48719, 1.49603, 1.55479, 1.58532, 1.76465, 1.76547, 1.7838, 1.80425, 1.82067, 1.54765, 1.51949, 1.54443, 1.59628, 1.64121, 1.67026, 1.74738, 1.67255, 1.39475, 1.35491, 1.34102, 1.38105, 1.42866, 1.47307, 1.6545, 1.64076, 1.36294, 1.41294, 1.35208, 1.35239, 1.38894, 1.4207, 1.46247, 1.54387, 1.61359, 1.61055, 1.37316, 1.28056, 1.31643, 1.32719, 1.42021, 1.47922, 1.49803, 1.54255, 1.56513, 1.31283, 1.30148, 1.35017, 1.30312, 1.38966, 1.46648, 1.51694, 1.51677, 1.5154, 1.54007, 1.30861, 1.23803, 1.3774, 1.33025, 1.47765, 1.38596, 1.36937, 1.30422, 1.22972, 1.22831, 1.26097, 1.2963, 1.34101, 1.41604, 1.46837, 1.5092, 1.24096, 1.31321, 1.3093, 1.29577, 1.36952, 1.52672, 1.55234, 1.63641, 1.64795, 1.66499, 1.37831, 1.30974, 1.35037, 1.42431, 1.64024, 1.48938, 1.62843, 1.63104, 1.48931, 1.41397, 1.41288, 1.4391, 1.59233, 1.61422, 1.79595, 1.85044, 1.99282, 1.59181, 1.56168, 1.50978, 1.65143, 1.60705, 1.65085, 1.9425, 1.9555, 1.99691, 1.81095, 1.80088, 1.75333, 1.75538, 1.74389, 1.78563, 1.82196, 1.86788, 1.84445, 1.84313, 1.86973, 1.88051, 1.88238, 1.90928, 1.93799, 1.9758, 2.01097, 1.96817, 1.96218, 1.9345, 1.91036, 1.88858, 1.89774, 1.30378, 0.880667, 0.804259, 0.871078, 0.870962, 0.867372, 0.929456, 1.01514, 1.06055, 1.02279, 1.04832, 0.856546, 0.835875, 0.835042, 0.89675, 0.896337, 0.908393, 0.922998, 0.919142, 0.818577, 0.786956, 0.840213, 0.851169, 0.881765, 0.941354, 1.13833, 1.0372, 1.0737, 1.13234, 0.838611, 0.837757, 0.884529, 0.984589, 0.983258, 0.980102, 1.09797, 0.821765, 0.80713, 0.809072, 0.741614, 0.815502, 0.814406, 0.944515, 0.851348, 0.892474, 0.82552, 0.834558, 0.81545, 0.809511, 0.829613, 0.898926, 0.987991, 1.0029, 0.912814, 0.798387, 0.798741, 0.894818, 0.885368, 0.928416, 0.970376, 0.991084, 0.991053, 1.03527, 1.0365, 0.911407, 0.867575, 1.05017, 1.08399, 1.07742, 1.17011, 1.22029, 1.22337, 1.17765, 1.10549, 1.07184, 0.980554, 0.879471, 0.923018, 0.95766, 1.06822, 1.10513, 0.995929, 0.837106, 0.773559, 0.887131, 0.901692, 0.85882, 0.860105, 0.841904, 0.935253, 1.13187, 1.13299, 1.14143, 1.14545, 1.16964, 1.13304, 0.815291, 0.77793, 0.825382, 0.955377, 1.00111, 1.00271, 1.0705, 1.09257, 0.97642, 0.978158, 0.998489, 0.827554, 0.833068, 0.764412, 0.76931, 0.816468, 0.781499, 0.781064, 0.777836, 0.739892, 0.718823, 0.784588, 0.682891, 0.608178, 0.607993, 0.824879, 0.82901, 0.619261, 0.612442, 0.684811, 0.612917, 0.617387, 0.608045, 0.562594, 0.497878, 0.457378, 0.47348, 0.47637, 0.476337, 0.624957, 0.606879, 0.696328, 0.594064, 0.476614
1.8443, 1.75771, 1.72476, 1.73382, 1.75064, 1.75201, 1.77509, 1.84661, 1.99361, 2.00266, 2.07333, 1.75551, 1.70229, 1.64677, 1.68163, 1.76119, 1.89835, 1.91658, 1.91103, 1.91418, 1.92024, 1.67976, 1.65967, 1.59537, 1.66456, 1.69706, 1.79586, 1.8749, 1.93578, 1.86508, 1.51204, 1.48452, 1.485, 1.50276, 1.75063, 1.75247, 1.86753, 1.77865, 1.77903, 1.76485, 1.50845, 1.49819, 1.51708, 1.60429, 1.66842, 1.67211, 1.702, 1.75986, 1.40064, 1.40378, 1.40193, 1.40157, 1.4313, 1.42382, 1.40589, 1.62067, 1.61987, 1.62194, 1.38974, 1.33424, 1.37935, 1.45401, 1.49175, 1.55434, 1.59204, 1.60239, 1.39356, 1.28448, 1.29082, 1.39499, 1.40472, 1.39399, 1.47042, 1.51694, 1.49823, 1.49163, 1.35478, 1.26371, 1.37549, 1.37584, 1.43282, 1.51034, 1.52665, 1.5352, 1.54681, 1.32633, 1.24047, 1.23954, 1.35817, 1.40648, 1.49805, 1.64321, 1.35518, 1.23233, 1.23216, 1.27476, 1.33329, 1.33105, 1.41853, 1.48091, 1.5121, 1.25347, 1.25265, 1.32073, 1.39137, 1.3981, 1.60304, 1.60777, 1.67159, 1.63355, 1.64708, 1.64687, 1.37867, 1.35681, 1.38535, 1.52211, 1.52242, 1.89388, 1.97267, 1.50779, 1.48565, 1.4713, 1.57141, 1.6824, 1.67612, 1.75612, 1.85513, 2.07646, 1.60711, 1.58888, 1.68699, 1.68683, 1.71421, 1.76597, 1.99043, 1.92007, 2.05493, 2.05492, 1.76147, 1.76221, 1.71961, 1.7712, 1.81114, 1.89876, 1.87479, 1.88934, 1.89369, 1.89033, 1.9799, 1.97309, 1.97147, 1.96187, 1.20949, 1.16074, 1.18519, 1.1884, 1.22707, 1.90782, 1.90327, 1.29286, 1.26838, 0.900582, 0.828046, 0.878816, 0.880127, 0.848745, 0.933862, 0.843121, 0.839456, 1.13985, 1.12496, 0.847084, 0.864601, 0.862585, 0.860298, 0.904858, 0.904919, 0.882616, 0.884824, 0.784325, 0.784956, 0.792473, 0.858714, 0.91289, 0.979237, 0.996681, 1.07745, 1.02589, 1.04694, 0.864802, 0.861524, 0.956851, 0.957518, 1.06736, 0.918047, 1.01936, 0.986031, 0.800027, 0.781689, 0.843533, 0.842996, 0.822824, 0.84635, 0.958947, 0.861368, 0.829668, 0.77732, 0.777965, 0.825677, 0.895428, 0.897794, 0.941436, 0.941012, 0.978344, 0.867338, 0.803495, 0.873697, 0.890137, 0.967418, 1.11402, 1.10645, 1.11707, 1.14583, 0.932536, 0.857203, 0.857954, 1.00781, 1.06713, 1.15014, 1.31568, 1.2392, 1.24425, 1.22224, 1.15408, 1.0367, 0.991461, 0.922605, 0.888245, 0.929999, 0.922797, 1.07638, 0.958719, 0.961515, 0.808771, 0.808724, 0.812349, 0.817159, 0.893982, 0.864199, 1.11954, 1.12327, 1.12531, 1.29095, 1.29983, 1.21249, 1.12011, 0.764675, 0.783775, 0.773265, 0.897776, 1.02219, 1.00874, 1.04613, 1.04634, 1.03128, 1.00551, 0.856084, 0.860246, 0.897862, 0.870656, 0.884828, 0.795686, 0.914512, 0.916987, 0.884207, 0.773802, 0.708351, 0.748303, 0.601467, 0.601792, 0.87824, 0.879839, 0.815737, 0.598857, 0.601614, 0.759925, 0.726861, 0.595929, 0.586957, 0.576619, 0.491121, 0.454033, 0.53193, 0.534206, 0.559014, 0.584191, 0.585176, 0.697945, 0.473847, 0.487903
1.90284, 1.78603, 1.73412, 1.73827, 1.77973, 1.80033, 1.76791, 1.79944, 2.01093, 2.05554, 2.04994, 1.73087, 1.72741, 1.6555, 1.70295, 1.77355, 1.80191, 1.90394, 1.90908, 1.89122, 1.89289, 1.64729, 1.59429, 1.59531, 1.65234, 1.7317, 1.86037, 1.8631, 1.90393, 1.55115, 1.5172, 1.52628, 1.5127, 1.51513, 1.70424, 1.76633, 1.78974, 1.78503, 1.81713, 1.49777, 1.49957, 1.49237, 1.60579, 1.58362, 1.6077, 1.72309, 1.72856, 1.73043, 1.39855, 1.39802, 1.34974, 1.40349, 1.44449, 1.441, 1.6368, 1.70215, 1.6795, 1.67938, 1.3634, 1.33042, 1.3735, 1.39174, 1.48982, 1.54636, 1.57647, 1.61153, 1.3375, 1.35038, 1.35009, 1.35743, 1.36401, 1.39459, 1.44428, 1.56242, 1.5052, 1.4184, 1.35134, 1.26689, 1.29893, 1.36482, 1.41178, 1.48988, 1.49161, 1.53758, 1.46463, 1.34039, 1.22397, 1.26686, 1.31253, 1.3238, 1.61848, 1.2977, 1.28566, 1.225, 1.27125, 1.42367, 1.3271, 1.3344, 1.47, 1.50907, 1.2567, 1.29561, 1.29564, 1.37996, 1.40604, 1.34483, 1.5854, 1.6017, 1.5975, 1.6308, 1.63084, 1.63326, 1.37949, 1.36846, 1.48093, 1.56501, 1.56583, 1.88636, 1.83393, 1.53751, 1.48927, 1.51273, 1.60969, 1.67878, 1.7721, 1.70556, 1.82081, 1.86947, 1.65837, 1.62632, 1.63412, 1.65909, 1.71283, 1.86707, 1.9857, 1.95913, 2.00473, 1.86381, 1.83147, 1.78875, 1.75718, 1.78441, 1.86222, 1.82353, 1.84478, 1.9567, 1.96298, 1.97346, 1.97885, 2.01147, 2.01197, 1.98532, 1.13709, 1.1146, 1.1193, 1.14215, 1.18296, 1.32537, 1.32109, 1.23373, 1.29615, 0.904052, 0.828579, 0.877973, 0.82659, 0.879698, 0.933422, 0.841784, 0.838779, 0.823799, 0.87307, 0.795234, 0.784672, 0.90712, 0.929152, 0.921727, 0.982242, 1.0601, 0.884195, 0.774473, 0.776317, 0.804289, 0.81197, 0.85929, 0.929727, 1.00175, 1.0235, 1.02486, 1.02921, 0.857385, 0.842925, 0.842458, 0.894076, 0.895389, 0.939306, 0.989008, 0.861047, 0.837298, 0.710612, 0.710653, 0.710624, 0.80373, 0.956068, 0.955864, 0.84219, 0.832863, 0.778201, 0.842409, 0.887739, 0.928641, 0.932258, 0.931881, 1.00004, 1.07347, 0.929554, 0.859203, 0.860483, 0.940787, 0.97442, 1.02959, 1.10658, 1.10783, 0.974434, 0.904891, 0.829417, 0.910224, 0.908578, 1.16823, 1.17795, 1.2131, 1.23909, 1.24044, 1.21228, 1.24175, 1.06404, 1.066, 0.962649, 0.955994, 0.940009, 1.02042, 1.01902, 1.07817, 0.805083, 0.807081, 0.814923, 0.819493, 0.819589, 0.819717, 0.90146, 0.905574, 1.16142, 1.28812, 1.28963, 1.30495, 1.33011, 1.10805, 0.765765, 0.766153, 0.775284, 0.846706, 0.848695, 1.04425, 1.02043, 1.00587, 1.04236, 0.865314, 0.838572, 0.882401, 0.904219, 0.874342, 0.852853, 0.755239, 0.931967, 0.933609, 0.864762, 0.713809, 0.690825, 0.750862, 0.600298, 0.642738, 0.709891, 0.690313, 0.691482, 0.662878, 0.595559, 0.743116, 0.753526, 0.771488, 0.589669, 0.524844, 0.521685, 0.452307, 0.458287, 0.458419, 0.460057, 0.584463, 0.585096, 0.679874, 0.730325, 0.730362
2.02158, 1.83117, 1.79936, 1.72416, 1.73773, 1.75369, 1.7843, 1.81647, 2.03952, 2.0398, 2.04283, 1.72284, 1.70682, 1.67797, 1.71701, 1.74888, 1.76481, 1.88991, 1.91574, 1.98568, 1.92361, 1.7312, 1.59334, 1.59558, 1.63468, 1.70929, 1.83971, 1.87032, 1.94169, 1.89953, 1.58801, 1.49536, 1.49668, 1.54762, 1.64502, 1.68082, 1.77497, 1.78237, 1.83126, 1.52393, 1.44417, 1.45044, 1.49048, 1.51025, 1.60775, 1.69158, 1.69062, 1.68093, 1.43094, 1.34741, 1.35851, 1.46104, 1.38051, 1.42413, 1.54063, 1.59295, 1.66059, 1.62094, 1.3563, 1.31486, 1.36995, 1.40818, 1.46038, 1.49567, 1.60581, 1.5771, 1.32794, 1.29978, 1.289, 1.35051, 1.36196, 1.41567, 1.59867, 1.53479, 1.55891, 1.3956, 1.3554, 1.33306, 1.27224, 1.44673, 1.41002, 1.54061, 1.53338, 1.55799, 1.31271, 1.30188, 1.23413, 1.34854, 1.35202, 1.43256, 1.53054, 1.38488, 1.22818, 1.22577, 1.23807, 1.38764, 1.33783, 1.49577, 1.47513, 1.54845, 1.26092, 1.26027, 1.35017, 1.39115, 1.38641, 1.3805, 1.61618, 1.599, 1.64192, 1.68616, 1.59384, 1.6159, 1.47678, 1.40827, 1.56193, 1.56852, 1.64721, 1.72772, 1.83165, 1.55787, 1.54508, 1.50896, 1.53563, 1.64156, 1.65778, 1.71084, 1.94594, 1.78236, 1.69192, 1.66513, 1.6588, 1.6861, 1.74625, 1.86334, 1.91396, 2.00252, 2.00672, 1.88567, 1.7875, 1.78271, 1.78218, 1.77946, 1.90292, 1.92098, 1.99454, 2.00022, 1.95796, 1.94469, 1.97586, 2.01857, 2.01626, 1.97921, 1.10283, 1.07116, 1.09451, 1.11472, 1.13659, 1.26037, 1.23252, 1.31824, 1.15701, 0.857339, 0.832461, 0.859823, 0.902567, 0.887364, 0.974305, 0.989024, 1.11266, 1.04276, 0.802972, 0.760186, 0.784032, 0.846115, 0.898773, 0.842835, 0.84191, 0.835232, 0.787137, 0.771825, 0.77268, 0.803495, 0.876565, 0.952975, 0.947214, 0.943484, 1.01866, 1.03197, 0.994372, 0.821844, 0.846196, 0.845989, 0.896091, 0.880843, 0.882384, 0.913075, 0.939497, 0.866115, 0.709746, 0.710565, 0.782466, 0.815444, 0.909244, 0.984463, 0.866695, 0.806298, 0.772878, 0.852373, 0.852264, 0.957392, 0.900745, 1.00347, 1.00384, 1.00154, 0.89546, 0.81284, 0.871476, 0.921094, 0.957938, 1.05489, 1.08105, 1.12881, 0.961326, 0.914994, 0.967518, 0.938099, 0.938864, 1.04652, 1.15027, 1.19986, 1.21906, 1.20499, 1.2055, 1.16938, 1.17945, 1.01226, 1.02544, 1.0324, 1.05003, 0.946384, 0.975843, 0.977829, 0.814819, 0.815574, 0.832846, 0.969863, 0.766381, 0.81471, 0.877469, 0.878282, 1.17271, 1.11804, 1.15027, 1.20306, 1.21256, 1.13251, 0.771144, 0.776529, 0.776201, 0.845326, 0.898274, 0.936806, 0.93885, 0.916025, 0.92652, 0.82217, 0.839905, 0.898678, 0.895737, 0.866941, 0.805768, 0.807059, 0.883785, 0.914162, 0.710592, 0.714675, 0.713328, 0.701415, 0.701658, 0.662828, 0.77697, 0.689159, 0.802503, 0.615352, 0.665774, 0.671874, 0.77697, 0.814936, 0.746716, 0.524979, 0.415939, 0.417337, 0.418821, 0.536977, 0.503811, 0.576816, 0.491349, 0.728832, 0.729288, 0.519133
2.10284, 1.99642, 1.7471, 1.71442, 1.7391, 1.74396, 1.75475, 1.79992, 2.031, 2.05255, 2.03145, 1.75941, 1.72854, 1.67928, 1.69539, 1.74135, 1.7824, 1.86649, 2.00107, 2.00026, 1.9395, 1.62124, 1.58134, 1.60969, 1.62272, 1.67269, 1.81804, 1.86914, 1.90326, 1.85272, 1.62988, 1.55205, 1.49633, 1.55418, 1.57128, 1.73644, 1.74169, 1.74764, 1.75496, 1.51013, 1.51276, 1.44422, 1.44307, 1.49445, 1.54673, 1.63927, 1.6685, 1.67184, 1.46434, 1.35115, 1.35167, 1.37475, 1.37395, 1.53185, 1.61097, 1.60988, 1.59301, 1.40834, 1.33079, 1.33237, 1.39261, 1.37412, 1.40231, 1.61139, 1.58402, 1.58471, 1.23596, 1.26331, 1.31081, 1.35069, 1.36392, 1.41619, 1.52678, 1.55584, 1.55411, 1.36387, 1.38461, 1.28164, 1.32708, 1.39267, 1.46104, 1.56999, 1.5437, 1.54402, 1.28117, 1.26842, 1.25842, 1.25879, 1.4051, 1.40425, 1.30561, 1.23738, 1.23385, 1.22605, 1.27832, 1.29623, 1.46855, 1.43318, 1.54703, 1.33081, 1.28524, 1.32167, 1.31873, 1.36911, 1.44418, 1.5366, 1.56979, 1.61754, 1.6313, 1.66096, 1.65907, 1.60997, 1.46583, 1.42642, 1.55187, 1.78671, 1.61408, 1.82838, 1.84145, 1.58945, 1.54554, 1.52398, 1.52437, 1.56749, 1.63114, 1.78688, 1.90029, 1.89029, 1.82879, 1.69708, 1.76874, 1.75252, 1.7571, 1.89017, 1.89523, 1.92712, 1.91076, 1.8705, 1.90981, 1.80008, 1.87673, 1.83389, 1.86532, 1.87174, 2.0266, 2.02242, 1.96644, 1.96814, 2.06614, 2.00596, 1.98197, 1.9863, 1.0714, 1.01785, 1.03672, 1.09491, 1.09839, 1.1428, 1.18877, 1.17815, 1.18911, 0.832796, 0.863175, 0.83508, 0.898637, 0.952327, 0.80519, 0.802929, 0.804823, 1.04047, 0.836296, 0.809506, 0.783892, 0.822981, 0.893662, 0.939645, 1.04209, 1.08218, 0.786942, 0.838235, 0.803483, 0.804679, 0.915662, 0.905735, 0.908639, 1.00809, 1.00841, 0.956009, 0.968511, 0.968302, 0.789131, 0.838497, 0.888064, 0.879789, 0.940343, 0.887138, 0.939239, 1.01584, 0.710626, 0.710638, 0.783392, 0.784583, 0.839973, 0.89622, 0.866285, 0.804168, 0.769918, 0.892362, 0.850302, 0.945348, 0.984502, 1.00102, 1.0368, 0.990739, 0.901412, 0.831634, 0.907416, 0.928734, 0.927347, 0.917099, 1.103, 1.10098, 1.10064, 0.990769, 0.852569, 0.852424, 1.00643, 1.08787, 1.06618, 1.16391, 1.20176, 1.21145, 1.20818, 1.21275, 1.1582, 1.09523, 1.05708, 1.01191, 1.03219, 1.04121, 0.958028, 0.904466, 0.816352, 0.786985, 0.795193, 0.691845, 0.751613, 0.752322, 0.894002, 0.8941, 1.17563, 1.15208, 1.15116, 1.11145, 1.17115, 1.19826, 0.769839, 0.710792, 0.740637, 0.850031, 0.850862, 0.925978, 1.0332, 0.953584, 0.808862, 0.814933, 0.80501, 0.814569, 0.858028, 0.867022, 0.863917, 0.857558, 0.873483, 0.777598, 0.687032, 0.629399, 0.681389, 0.68655, 0.704676, 0.632573, 0.773276, 0.832527, 0.822797, 0.614474, 0.614418, 0.703771, 0.764181, 0.813415, 0.762644, 0.559054, 0.414798, 0.417969, 0.418826, 0.473087, 0.503451, 0.479024, 0.410069, 0.680901, 0.683597, 0.449392
2.05224, 1.80972, 1.79709, 1.70238, 1.7292, 1.73055, 1.73753, 1.78033, 1.8227, 2.00241, 2.02468, 1.78475, 1.74468, 1.70362, 1.73325, 1.74497, 1.86801, 1.8433, 1.92336, 1.93012, 1.93224, 1.61251, 1.60589, 1.61195, 1.64792, 1.67247, 1.68119, 1.8355, 1.90456, 1.81786, 1.52624, 1.52643, 1.52996, 1.5711, 1.57894, 1.62834, 1.69306, 1.69886, 1.73915, 1.50954, 1.48864, 1.48926, 1.48901, 1.51475, 1.55173, 1.61083, 1.68508, 1.65937, 1.41326, 1.34701, 1.34861, 1.36197, 1.51105, 1.58408, 1.61007, 1.66463, 1.63058, 1.33736, 1.29881, 1.29486, 1.3171, 1.35742, 1.38258, 1.55183, 1.62757, 1.57257, 1.26567, 1.23202, 1.30465, 1.2687, 1.34406, 1.42945, 1.51445, 1.5445, 1.56825, 1.33417, 1.31708, 1.27823, 1.31111, 1.34927, 1.37533, 1.51413, 1.56422, 1.59068, 1.24759, 1.22582, 1.25171, 1.33851, 1.3789, 1.28308, 1.35868, 1.20722, 1.20576, 1.21074, 1.24684, 1.41251, 1.44582, 1.45166, 1.48949, 1.3317, 1.31317, 1.32718, 1.37781, 1.37923, 1.41476, 1.5001, 1.54153, 1.63327, 1.74502, 1.7418, 1.64403, 1.63921, 1.46844, 1.53173, 1.46697, 1.52444, 1.60299, 1.60415, 1.83079, 1.63851, 1.55925, 1.54274, 1.63254, 1.63321, 1.65264, 1.68478, 1.87382, 1.89126, 2.01807, 1.72103, 1.75762, 1.75299, 1.76096, 1.884, 1.91705, 1.92454, 1.9448, 1.95776, 1.94451, 1.90375, 1.87606, 1.87859, 1.89747, 1.91968, 2.04094, 2.02642, 2.0274, 2.03443, 2.02193, 1.98926, 1.99169, 1.97508, 1.00442, 0.988392, 0.940492, 0.976878, 1.08833, 1.13929, 1.22536, 1.14973, 0.842853, 0.761001, 0.761307, 0.816172, 0.836551, 0.840887, 0.840171, 0.800589, 1.01519, 1.02279, 1.02303, 0.779822, 0.779457, 0.825573, 0.891776, 0.938753, 1.01891, 1.08491, 0.859715, 0.843974, 0.777162, 0.864306, 0.867892, 0.879286, 1.00221, 0.989308, 1.01467, 1.03388, 0.967227, 0.848729, 0.766028, 0.7661, 0.836456, 0.883553, 0.924692, 1.02319, 1.01644, 1.01677, 0.775534, 0.787823, 0.800151, 0.801217, 0.829253, 0.883621, 0.834652, 0.823306, 0.822478, 0.878684, 0.883721, 0.884631, 0.964473, 0.997409, 1.00148, 0.938518, 0.894921, 0.833875, 0.834306, 0.929473, 0.921333, 0.922167, 0.921554, 1.2017, 1.04989, 0.971084, 0.852328, 0.880822, 0.987379, 1.08092, 1.08732, 1.1134, 1.18847, 1.18787, 1.17775, 1.12914, 1.13029, 1.08426, 1.03866, 1.02187, 1.00893, 1.05455, 1.07194, 0.857397, 0.812151, 0.798131, 0.709248, 0.689714, 0.750936, 0.751829, 0.870096, 0.88156, 1.08222, 1.19155, 1.20355, 1.20796, 1.20341, 1.0645, 0.706134, 0.709355, 0.720484, 0.75355, 0.851161, 0.912344, 0.90471, 1.01687, 1.01908, 0.836032, 0.79317, 0.858051, 0.820648, 0.859395, 0.825328, 0.842416, 0.76959, 0.77153, 0.688078, 0.676772, 0.677562, 0.846271, 0.762555, 0.764305, 0.756025, 0.812724, 0.643022, 0.691621, 0.712223, 0.69734, 0.697909, 0.735536, 0.737626, 0.532462, 0.51703, 0.532984, 0.563132, 0.532658, 0.530672, 0.411255, 0.621172, 0.681971, 0.684207, 0.516086
1.8083, 1.72415, 1.70591, 1.74825, 1.72749, 1.71912, 1.82424, 1.81377, 1.81731, 1.79084, 2.01215, 2.0266, 1.75349, 1.745, 1.73992, 1.74157, 1.75587, 1.85905, 1.91813, 1.94785, 1.92706, 1.62271, 1.56423, 1.56373, 1.60606, 1.68043, 1.69342, 1.76826, 1.86447, 1.8446, 1.81427, 1.58337, 1.55149, 1.56442, 1.60177, 1.60245, 1.65662, 1.65822, 1.75183, 1.52481, 1.44663, 1.41372, 1.42083, 1.54111, 1.56735, 1.65844, 1.65965, 1.6041, 1.39894, 1.34837, 1.38573, 1.40964, 1.53435, 1.58249, 1.65935, 1.66624, 1.62726, 1.59765, 1.39305, 1.35251, 1.31506, 1.37783, 1.44283, 1.44375, 1.57071, 1.57101, 1.44356, 1.23804, 1.27589, 1.3744, 1.33623, 1.44708, 1.48878, 1.51334, 1.49488, 1.3751, 1.37294, 1.27042, 1.26865, 1.34799, 1.37143, 1.55119, 1.54129, 1.56846, 1.3123, 1.28075, 1.22714, 1.27908, 1.3374, 1.4348, 1.52981, 1.31599, 1.20985, 1.20873, 1.25016, 1.37092, 1.5391, 1.44536, 1.49074, 1.36423, 1.33312, 1.33962, 1.34661, 1.3724, 1.45694, 1.45863, 1.61143, 1.64453, 1.73139, 1.73729, 1.65029, 1.63673, 1.58923, 1.58618, 1.48574, 1.74045, 1.63662, 1.61617, 1.97246, 1.753, 1.60292, 1.59588, 1.56006, 1.57854, 1.6243, 1.70963, 1.91334, 1.99629, 2.03085, 1.73925, 1.73274, 1.78481, 1.74534, 1.84095, 1.92231, 2.07261, 2.08562, 2.03128, 2.02789, 1.94281, 1.97385, 1.935, 1.99324, 2.00655, 2.05538, 2.03127, 2.03098, 2.03814, 2.02096, 2.29884, 2.00258, 1.344, 1.35409, 0.895402, 0.853498, 0.939533, 1.12014, 0.870363, 0.857947, 1.0569, 1.15194, 0.760812, 0.761038, 0.77275, 0.786315, 0.891766, 0.847358, 0.808526, 0.808311, 1.01901, 1.01922, 0.832897, 0.779738, 0.763274, 0.832238, 0.832343, 0.826059, 0.824309, 0.824684, 0.852323, 0.81807, 0.846929, 0.848305, 0.913031, 0.906343, 0.996053, 1.02204, 1.0236, 1.0135, 0.796039, 0.87026, 0.872498, 0.843392, 0.960442, 0.954955, 1.02213, 1.02983, 1.04776, 0.752488, 0.721399, 0.721357, 0.831161, 0.840368, 0.839054, 0.826353, 0.825551, 0.775227, 0.8148, 0.814441, 0.884188, 0.947873, 0.995073, 0.999123, 0.963712, 0.888354, 0.829956, 0.884321, 0.850028, 0.919984, 0.922686, 1.16214, 1.13338, 1.13576, 0.915444, 0.921838, 0.925074, 0.954237, 1.0806, 1.00272, 1.20682, 1.17522, 1.20348, 1.16529, 1.12148, 1.1207, 1.0824, 1.07512, 1.0672, 1.01073, 1.00797, 1.00861, 0.804427, 0.791763, 0.753416, 0.710382, 0.721691, 0.719924, 0.714076, 0.83179, 0.880305, 1.06069, 1.08724, 1.2048, 1.207, 1.23248, 0.62905, 0.628027, 0.62779, 0.702976, 0.705489, 0.873337, 0.943414, 0.945495, 0.967693, 0.890711, 0.915132, 0.78828, 0.856247, 0.815224, 0.816615, 0.815337, 0.780396, 0.776819, 0.712125, 0.684397, 0.674108, 0.728149, 0.839844, 0.761279, 0.744414, 0.819662, 0.721469, 0.66385, 0.641419, 0.745345, 0.650065, 0.852144, 0.854017, 0.776926, 0.777005, 0.571558, 0.533112, 0.543504, 0.421311, 0.42262, 0.404355, 0.490688, 0.621583, 0.501275, 0.52538
1.72423, 1.73318, 1.70085, 1.71388, 1.76262, 1.72234, 1.72287, 1.75254, 1.80583, 2.02024, 2.04506, 2.04684, 1.73739, 1.7523, 1.75154, 1.75183, 1.76908, 1.85517, 1.98267, 1.88617, 1.90174, 1.61976, 1.61154, 1.59198, 1.63503, 1.70051, 1.70569, 1.7249, 1.78549, 1.75561, 1.75531, 1.51976, 1.51827, 1.60599, 1.57514, 1.59447, 1.66621, 1.79941, 1.77893, 1.49483, 1.44637, 1.43092, 1.50181, 1.50575, 1.50688, 1.63965, 1.63967, 1.66456, 1.44396, 1.33927, 1.48926, 1.38302, 1.52973, 1.52998, 1.66309, 1.66137, 1.65283, 1.63802, 1.50605, 1.40673, 1.35522, 1.43021, 1.43071, 1.4457, 1.58569, 1.59553, 1.24285, 1.21516, 1.34276, 1.31839, 1.35694, 1.46144, 1.49625, 1.56855, 1.53405, 1.36353, 1.32626, 1.327, 1.30851, 1.37544, 1.40095, 1.51885, 1.49137, 1.54414, 1.28487, 1.2248, 1.22582, 1.35521, 1.32716, 1.44912, 1.29215, 1.28162, 1.27244, 1.24522, 1.27516, 1.30576, 1.48303, 1.50648, 1.56306, 1.61038, 1.62056, 1.40908, 1.3675, 1.36884, 1.44432, 1.54772, 1.61202, 1.62929, 1.80949, 1.86328, 1.72156, 1.57525, 1.4949, 1.48983, 1.6058, 1.5821, 1.58142, 1.77978, 1.89805, 1.75018, 1.65186, 1.60857, 1.58899, 1.66364, 1.71077, 1.79572, 1.92586, 1.92879, 1.91695, 1.95163, 1.98794, 1.88917, 1.75182, 1.79695, 1.85787, 2.03071, 2.01347, 2.01286, 2.02952, 2.01199, 2.0098, 1.97035, 2.01702, 2.03192, 2.05145, 2.05953, 2.06194, 2.01327, 2.01233, 2.01558, 2.01789, 1.33628, 1.16765, 0.849494, 0.884226, 0.908438, 0.911388, 1.03356, 1.11825, 1.0458, 1.02881, 0.998267, 0.757, 0.760004, 0.811137, 0.830776, 0.87546, 0.888067, 0.798601, 0.803758, 0.778071, 0.804931, 0.778138, 0.828211, 0.831518, 0.811536, 0.832612, 0.832164, 0.824874, 0.839859, 0.800252, 0.822708, 0.857211, 0.901888, 0.903218, 0.967501, 1.02655, 1.02913, 0.873661, 0.734451, 0.731753, 0.911841, 0.847173, 0.923529, 0.987769, 1.02854, 1.01966, 0.853377, 0.800861, 0.736606, 0.736921, 0.879469, 0.838454, 0.838885, 0.843843, 0.767906, 0.822604, 0.812381, 0.814741, 0.813371, 0.816077, 0.815885, 0.914368, 0.8157, 0.89142, 0.863856, 0.80878, 1.05897, 1.05566, 1.04868, 1.16139, 0.885596, 1.12489, 0.915168, 1.00944, 0.99383, 0.968686, 1.04891, 1.05032, 1.09807, 1.10646, 1.18984, 1.11681, 1.11263, 1.12637, 1.09617, 1.11583, 1.05728, 1.04276, 1.03622, 1.03796, 0.77049, 0.802628, 0.751345, 0.781925, 0.782876, 0.838925, 0.713658, 0.720925, 1.04787, 1.06869, 1.06974, 1.0621, 1.35406, 1.06363, 0.692302, 0.649763, 0.631034, 0.679486, 0.711376, 0.812171, 0.960309, 0.935707, 1.00448, 0.997162, 0.972846, 0.893904, 0.818875, 0.811714, 0.81441, 0.780444, 0.800675, 0.773768, 0.708729, 0.714991, 0.857665, 0.73317, 0.777469, 0.779076, 0.77874, 0.832902, 0.759866, 0.760132, 0.642, 0.647072, 0.645858, 0.680529, 0.763366, 0.802397, 0.725252, 0.524969, 0.48706, 0.47323, 0.429434, 0.458812, 0.459706, 0.415417, 0.608307, 0.470709, 0.492271
1.97766, 2.01758, 1.78093, 1.73536, 1.90737, 1.71775, 1.72668, 1.77149, 1.83839, 2.0341, 2.02818, 2.12166, 1.73568, 1.70469, 1.70266, 1.73742, 1.76968, 1.84009, 1.88191, 1.89588, 1.8831, 1.59922, 1.60535, 1.6191, 1.66114, 1.68545, 1.72399, 1.76436, 1.85959, 1.86851, 1.86906, 1.52348, 1.53723, 1.59641, 1.5691, 1.64012, 1.74851, 1.77159, 1.78157, 1.50429, 1.41738, 1.41189, 1.41066, 1.42976, 1.43394, 1.63341, 1.65852, 1.66124, 1.38221, 1.33622, 1.33302, 1.34614, 1.46697, 1.54739, 1.60256, 1.69849, 1.63474, 1.63879, 1.36198, 1.31243, 1.31291, 1.41617, 1.42653, 1.4711, 1.53457, 1.50417, 1.21933, 1.26543, 1.28831, 1.35778, 1.48241, 1.42732, 1.52941, 1.62759, 1.54195, 1.35507, 1.28083, 1.25738, 1.34321, 1.34516, 1.36665, 1.49477, 1.5072, 1.50649, 1.27094, 1.23901, 1.2469, 1.31294, 1.39235, 1.40872, 1.32751, 1.30464, 1.24424, 1.27174, 1.34446, 1.34266, 1.33731, 1.33412, 1.52331, 1.54285, 1.52325, 1.52547, 1.39893, 1.39868, 1.45409, 1.53059, 1.58113, 1.65485, 1.87199, 1.88568, 1.83327, 1.60303, 1.66747, 1.60995, 1.55874, 1.57317, 1.6378, 1.82736, 1.84815, 1.81729, 1.65726, 1.62861, 1.6314, 1.79948, 1.70298, 1.75105, 1.83041, 2.07518, 2.00669, 1.96626, 2.02321, 1.80256, 1.81377, 1.77592, 1.9342, 2.03163, 2.12972, 2.08346, 2.01434, 1.99371, 1.97173, 2.00361, 1.26774, 1.24372, 1.25255, 1.32761, 1.37557, 2.01402, 2.01484, 1.37905, 1.36955, 1.18086, 1.17499, 0.885247, 0.76908, 0.767026, 0.89534, 0.916521, 1.03624, 1.01443, 1.04575, 0.836165, 0.842647, 0.760705, 0.819113, 0.846579, 0.885125, 0.888594, 1.05212, 1.0391, 0.797133, 0.758408, 0.748823, 0.818968, 0.84285, 0.842903, 0.83035, 0.81545, 0.812986, 0.812209, 0.782202, 0.784133, 0.860326, 0.86303, 0.932079, 0.998263, 1.00574, 0.912917, 0.881101, 0.729478, 0.72894, 0.843401, 0.869321, 0.975372, 0.960358, 1.00556, 1.04841, 0.832896, 0.735156, 0.736099, 0.787553, 0.880119, 0.836017, 0.83505, 0.79401, 0.73855, 0.738566, 0.812115, 0.894925, 0.90099, 0.940996, 0.81381, 0.816016, 0.817561, 0.818388, 0.846323, 0.800353, 0.803808, 0.965242, 1.06342, 0.847611, 1.17144, 1.13294, 1.15366, 1.01004, 0.988862, 0.999031, 1.04981, 1.0501, 1.09532, 1.1742, 1.11136, 1.11302, 1.10119, 1.1969, 1.09487, 1.11669, 1.20596, 1.19763, 1.04697, 1.00885, 0.753929, 0.757354, 0.696794, 0.698072, 0.829899, 0.838811, 0.83941, 0.690122, 0.79028, 1.00065, 1.07182, 1.06183, 0.713562, 0.714964, 0.691477, 0.635413, 0.630958, 0.708564, 0.800995, 0.802361, 0.959646, 0.934463, 1.00302, 1.09134, 0.969405, 0.777299, 0.718779, 0.719539, 0.791272, 0.818167, 0.871367, 0.837358, 0.694079, 0.610211, 0.708507, 0.713446, 0.714883, 0.75025, 0.729237, 0.681767, 0.677897, 0.636902, 0.639055, 0.759314, 0.740099, 0.787363, 0.718848, 0.705777, 0.638826, 0.530132, 0.493504, 0.476224, 0.458666, 0.457457, 0.422725, 0.422822, 0.608471, 0.489618, 0.481736
2.03031, 2.03731, 1.91468, 1.79624, 1.76043, 1.74574, 1.74909, 1.76751, 1.79898, 1.82684, 1.85618, 2.1092, 1.69741, 1.72922, 1.68563, 1.71411, 1.75878, 1.84837, 1.86659, 2.05254, 1.61993, 1.602, 1.55797, 1.65543, 1.66518, 1.68118, 1.69076, 1.83822, 1.85282, 1.85986, 1.55119, 1.50995, 1.53105, 1.59084, 1.61866, 1.64734, 1.77546, 1.75437, 1.75657, 1.45442, 1.42755, 1.39534, 1.43309, 1.43403, 1.46478, 1.65799, 1.64074, 1.66805, 1.41238, 1.34018, 1.33782, 1.37176, 1.41919, 1.56267, 1.55962, 1.64644, 1.64993, 1.63001, 1.39287, 1.3256, 1.32268, 1.34676, 1.41615, 1.49554, 1.554, 1.555, 1.26364, 1.28799, 1.28535, 1.3203, 1.43355, 1.43443, 1.54471, 1.54803, 1.48562, 1.43542, 1.28292, 1.25171, 1.33661, 1.33543, 1.48799, 1.49557, 1.50339, 1.62117, 1.26464, 1.28289, 1.26844, 1.30868, 1.31462, 1.54022, 1.32245, 1.2918, 1.28538, 1.40351, 1.36102, 1.35755, 1.37743, 1.56446, 1.59927, 1.62623, 1.62794, 1.42712, 1.39278, 1.4202, 1.41945, 1.55428, 1.58681, 1.6523, 1.8164, 1.96886, 1.9002, 1.61401, 1.58298, 1.61919, 1.60402, 1.60914, 1.59895, 1.87001, 1.93414, 1.81616, 1.73011, 1.68783, 1.67558, 1.63481, 1.7407, 1.70377, 1.76838, 2.07965, 2.01757, 1.96575, 1.8716, 1.74345, 1.7428, 1.74226, 1.89696, 1.96495, 1.96214, 1.95901, 1.98591, 2.04985, 2.08782, 2.06484, 1.24666, 1.13279, 1.13695, 1.13778, 1.17755, 1.1684, 1.21367, 1.21534, 1.17917, 1.17805, 1.10881, 0.76569, 0.765982, 0.766447, 0.898215, 0.867984, 1.1116, 1.14115, 1.14245, 0.853496, 0.75608, 0.832383, 0.834748, 0.833372, 0.878128, 0.887522, 1.0378, 1.04938, 0.776225, 0.876912, 0.754729, 0.814, 0.870274, 0.842564, 0.877236, 1.06132, 0.811587, 0.81225, 0.774738, 0.777824, 0.821568, 0.878017, 0.91265, 0.901875, 0.933523, 0.913265, 0.785372, 0.778491, 0.731303, 0.780311, 0.864114, 0.922336, 1.00062, 1.08766, 0.900937, 0.804412, 0.777399, 0.785237, 0.770196, 0.848678, 0.919498, 0.994117, 0.743278, 0.741299, 0.742671, 0.825621, 0.902983, 0.888475, 1.00797, 1.04518, 1.0667, 1.07867, 0.948686, 0.824494, 0.839934, 0.803845, 0.828802, 1.08865, 1.17162, 1.13672, 1.13925, 1.09984, 1.07482, 1.05269, 1.06097, 1.01188, 1.20225, 1.17425, 1.22353, 1.21704, 1.15152, 1.14643, 1.09936, 1.09936, 1.13635, 1.1329, 1.08403, 1.09917, 1.01486, 0.763394, 0.679344, 0.692023, 0.693521, 0.827021, 0.831047, 0.788561, 0.718255, 0.790296, 0.730249, 1.01331, 1.03272, 1.03067, 1.02978, 0.692895, 0.665897, 0.631719, 0.631843, 0.733732, 0.926098, 0.935932, 0.905718, 0.967801, 0.998586, 0.970424, 0.77646, 0.770952, 0.718164, 0.719527, 0.884333, 0.78997, 0.683427, 0.607985, 0.666677, 0.669869, 0.714473, 0.715108, 0.715339, 0.715828, 0.71767, 0.70158, 0.680042, 0.755989, 0.721383, 0.766775, 0.708195, 0.78306, 0.706549, 0.77366, 0.549098, 0.414289, 0.414032, 0.545936, 0.549011, 0.42328, 0.493437, 0.452735, 0.417097, 0.485636
2.04339, 2.05152, 1.92077, 1.77149, 1.77212, 1.77406, 1.73431, 1.77694, 1.8524, 1.86993, 1.85134, 1.93847, 1.72744, 1.67983, 1.71631, 1.73328, 1.79618, 1.79772, 1.85567, 2.00471, 1.65776, 1.60614, 1.57984, 1.67496, 1.68675, 1.77028, 1.80366, 1.80741, 1.87379, 1.89347, 1.58232, 1.51575, 1.51355, 1.55435, 1.56874, 1.68547, 1.73133, 1.74503, 1.74492, 1.44877, 1.40355, 1.40006, 1.40007, 1.45489, 1.51654, 1.43277, 1.43904, 1.67297, 1.33596, 1.337, 1.32497, 1.33661, 1.33843, 1.34417, 1.35122, 1.3578, 1.36131, 1.3604, 1.36279, 1.29985, 1.29512, 1.32329, 1.55004, 1.55121, 1.57068, 1.5754, 1.25817, 1.25284, 1.27578, 1.34662, 1.38465, 1.40926, 1.51725, 1.58234, 1.46433, 1.33943, 1.32628, 1.24682, 1.29976, 1.36512, 1.36342, 1.57312, 1.54922, 1.5495, 1.26703, 1.26831, 1.28731, 1.32238, 1.32265, 1.51604, 1.47257, 1.38487, 1.31638, 1.32757, 1.44494, 1.49494, 1.35185, 1.5815, 1.57914, 1.76531, 1.74586, 1.64785, 1.42256, 1.41224, 1.49197, 1.4925, 1.55582, 1.81247, 1.82327, 2.00346, 1.89743, 1.66926, 1.62818, 1.59777, 1.62735, 1.64894, 1.69655, 1.71303, 2.01609, 2.09376, 1.81684, 1.75581, 1.74326, 1.74164, 1.69238, 1.78657, 1.78619, 1.92839, 1.95238, 1.77111, 1.82784, 1.85044, 1.86221, 1.82944, 1.91001, 1.98259, 2.01644, 1.99249, 2.02541, 2.03469, 2.03758, 2.11499, 2.0383, 1.08478, 1.07706, 1.108, 1.11222, 1.14345, 1.17094, 1.37598, 1.1757, 1.18099, 1.08515, 0.879479, 0.800302, 0.733058, 0.822527, 0.857035, 1.10898, 1.10816, 1.17413, 0.915405, 0.754027, 0.755323, 0.753236, 0.804646, 0.942132, 0.891296, 1.04693, 0.815103, 0.776184, 0.81181, 0.829996, 0.781263, 0.874633, 1.02423, 1.00759, 1.00946, 1.04114, 1.03884, 0.842695, 0.776507, 0.849497, 0.851132, 0.920132, 0.899163, 0.894681, 0.79496, 0.768666, 0.729178, 0.770454, 0.843354, 0.897954, 0.973329, 1.02732, 1.00149, 0.826322, 0.798724, 0.775865, 0.72853, 0.801247, 0.845062, 0.918701, 0.974435, 0.815647, 0.79803, 0.790526, 0.834823, 0.906147, 0.918713, 0.991012, 1.00558, 1.02419, 1.03597, 0.876736, 0.824784, 0.994699, 0.842155, 0.876491, 1.02779, 1.09535, 1.1111, 1.18467, 1.07668, 1.07734, 1.07781, 1.03724, 0.997948, 1.08795, 1.18, 1.18508, 1.18747, 1.10776, 1.13635, 1.18819, 1.18471, 1.17068, 1.13397, 1.06643, 1.05218, 0.765246, 0.735053, 0.728807, 0.693307, 0.693505, 0.690606, 0.907879, 0.713142, 0.719865, 0.729699, 0.73428, 0.734607, 1.07513, 1.03788, 1.0387, 0.617413, 0.708365, 0.745737, 0.648265, 0.766153, 0.866633, 0.894091, 0.929679, 0.898202, 0.871125, 0.87349, 0.774564, 0.792103, 0.808057, 0.792764, 0.793349, 0.684708, 0.695911, 0.620934, 0.61067, 0.670422, 0.719725, 0.810426, 0.809333, 0.759898, 0.659193, 0.707601, 0.677252, 0.743775, 0.72956, 0.752565, 0.755038, 0.753616, 0.763148, 0.735101, 0.600123, 0.390794, 0.392746, 0.393401, 0.465971, 0.393971, 0.435391, 0.621748, 0.622624, 0.406741
2.01257, 2.01473, 1.9996, 1.84312, 1.72117, 1.72592, 1.78399, 1.77177, 1.79318, 1.81331, 1.8176, 1.92637, 1.7217, 1.67782, 1.68444, 1.69343, 1.73227, 1.75547, 1.86665, 1.90043, 1.96198, 1.62083, 1.62157, 1.62183, 1.63368, 1.71442, 1.80324, 1.86607, 1.88022, 1.91792, 1.54312, 1.5205, 1.57621, 1.53599, 1.58473, 1.68611, 1.69629, 1.78928, 1.74797, 1.48379, 1.40855, 1.42303, 1.41956, 1.4492, 1.55336, 1.55643, 1.63864, 1.71691, 1.44095, 1.34427, 1.33375, 1.34795, 1.40872, 1.43201, 1.47295, 1.67531, 1.61004, 1.59463, 1.2951, 1.26666, 1.29894, 1.34086, 1.41273, 1.54845, 1.59146, 1.59931, 1.32081, 1.23096, 1.3227, 1.44826, 1.33759, 1.39813, 1.48612, 1.60303, 1.56878, 1.30853, 1.30199, 1.2821, 1.28431, 1.34309, 1.41181, 1.53483, 1.55205, 1.57579, 1.57907, 1.26564, 1.22657, 1.36433, 1.40977, 1.43183, 1.45819, 1.42969, 1.36252, 1.36619, 1.39281, 1.43197, 1.45791, 1.4357, 1.64236, 1.74086, 1.7422, 1.7745, 1.43486, 1.41103, 1.41256, 1.51068, 1.65086, 1.64555, 1.85666, 1.90445, 1.91465, 1.85959, 1.63183, 1.56107, 1.56057, 1.64727, 1.63805, 1.72853, 1.89285, 2.0937, 2.09374, 2.01464, 1.85534, 1.71326, 1.71181, 1.7104, 1.81244, 1.85874, 1.84782, 1.94423, 1.91437, 1.85574, 1.87353, 1.85212, 1.81259, 1.98509, 2.03413, 2.02841, 2.01117, 2.29841, 2.08153, 2.11046, 2.03502, 1.08518, 0.991552, 0.990906, 1.07811, 1.12928, 1.12702, 1.2311, 1.19076, 1.13045, 0.797201, 0.807667, 0.714405, 0.714, 0.792458, 0.792395, 0.911472, 1.0943, 1.11887, 0.836811, 0.797568, 0.750144, 0.809092, 0.880763, 0.920982, 0.894205, 1.00977, 0.834421, 0.834151, 0.821694, 0.825122, 0.901284, 0.786395, 0.789977, 1.04356, 1.06002, 1.03135, 1.03893, 0.922151, 0.818515, 0.770592, 0.870498, 0.976297, 1.02314, 1.02161, 1.0939, 0.767169, 0.783557, 0.783504, 0.81647, 0.866249, 0.881143, 1.01193, 0.962888, 0.824491, 0.773383, 0.767337, 0.729951, 0.867415, 0.871276, 0.909209, 1.03354, 1.04147, 0.815377, 0.737567, 0.79421, 0.880285, 0.954288, 0.954038, 0.982252, 1.00904, 1.04028, 0.907955, 0.822807, 0.877903, 0.871892, 0.870193, 1.12589, 1.04251, 1.08418, 1.07487, 1.19178, 1.08094, 1.09454, 1.12889, 0.994741, 0.99511, 1.1298, 1.21968, 1.20544, 1.09948, 1.06697, 1.19833, 1.24002, 1.20645, 1.17128, 1.06954, 0.81153, 0.759539, 0.682805, 0.704988, 0.710746, 0.710986, 0.695062, 0.781064, 0.663503, 0.657747, 0.66346, 0.948104, 0.947557, 1.10703, 1.03653, 0.652601, 0.601055, 0.597853, 0.61238, 0.732536, 0.734728, 0.915367, 0.943097, 1.07529, 0.897619, 1.00116, 1.00172, 0.766151, 0.767702, 0.807148, 0.860761, 0.707753, 0.646457, 0.585004, 0.584105, 0.657041, 0.63696, 0.683607, 0.795025, 0.794333, 0.687791, 0.663301, 0.617615, 0.616211, 0.705147, 0.749077, 0.738265, 0.748879, 0.737242, 0.745834, 0.685725, 0.687207, 0.433054, 0.394021, 0.395128, 0.385979, 0.388285, 0.512337, 0.400189, 0.40184, 0.408438
