1.92974, 1.75111, 1.74753, 1.66188, 1.66237, 1.75502, 1.76161, 1.78984, 1.87287, 1.66169, 1.59071, 1.60422, 1.67491, 1.71878, 1.7627, 1.89521, 1.56303, 1.47569, 1.48876, 1.54709, 1.61721, 1.65756, 1.66483, 1.67206, 1.47223, 1.45728, 1.58838, 1.60907, 1.63791, 1.61674, 1.43305, 1.40315, 1.40212, 1.38607, 1.45151, 1.51183, 1.68619, 1.5101, 1.38963, 1.41261, 1.30243, 1.40972, 1.39093, 1.39785, 1.39725, 1.3924, 1.32353, 1.29715, 1.52283, 1.57508, 1.61154, 1.46139, 1.47125, 1.47278, 1.60905, 1.51892, 1.72771, 1.7508, 1.80277, 1.80331, 1.52004, 1.49999, 1.53346, 1.55215, 1.61656, 1.79768, 1.7161, 1.68879, 1.73094, 1.81538, 1.83374, 2.0856, 2.25298, 2.14634, 2.06307, 2.00826, 2.02488, 2.0077, 2.02208, 0.00426265, 2.17105, 2.17048, 2.15117, 2.14096, 2.17326, 2.20031, 0.00447157, 2.30261, 2.24008, 2.1529, 2.13487, 2.13481, 1.59726, 1.572, 1.08141, 0.96956, 1.13065, 1.0635, 1.04881, 1.02206, 0.761084, 0.62589, 0.719106, 0.712147, 0.742457, 0.742698, 0.77772, 0.997936, 0.782765, 0.652362, 0.719005, 0.790383, 0.720218, 0.714357, 0.736281, 0.731061, 0.718853, 0.716658, 0.892356, 0.984778, 0.959915, 0.980936, 0.755768, 0.739488, 0.848837, 0.853135, 0.970957, 1.01466, 0.96467, 0.752436, 0.674414, 0.673301, 0.806575, 0.927782, 1.019, 1.01865, 0.804023, 0.800841, 0.862988, 0.891239, 0.89782, 0.981993, 0.962035, 0.935692, 0.793956, 0.795615, 0.774239, 0.786409, 0.773737, 0.735401, 0.729887, 0.721941, 0.79671, 1.02249, 1.05947, 1.10909, 1.09106, 0.999032, 0.985677, 0.96851, 0.957946, 0.895839, 0.943022, 1.16691, 1.161, 1.11321, 1.01954, 0.969703, 0.930756, 0.892163, 0.931444, 0.953713, 1.08119, 1.08042, 1.09486, 1.08257, 1.07424, 0.738036, 0.738646, 0.837569, 0.924688, 0.909202, 0.911311, 0.898799, 0.929735, 0.763907, 0.768566, 0.766141, 0.753053, 0.754528, 0.528601, 0.530624, 0.561882, 0.687721, 0.459511, 0.460338, 0.525203, 0.477147, 0.463436, 0.480992, 0.552692, 0.889339, 0.963603, 0.942793, 0.812048, 0.828893, 0.804827, 0.8286, 0.869665, 0.87307, 0.836033, 0.652228, 0.590086, 0.53191, 0.612604, 0.845697, 0.600392, 0.639295, 0.63889, 0.589195, 0.603559, 0.707894, 0.708472, 0.519272, 0.494762, 0.546671, 0.48992, 0.490447, 0.610501, 0.699451, 0.77971, 0.735343, 0.350345, 0.352084, 0.428336, 0.438674, 0.441721, 0.5049, 0.42336, 0.41327
1.77865, 1.99977, 1.76106, 1.69643, 1.72005, 1.75075, 1.74904, 1.81712, 1.89081, 1.67505, 1.61122, 1.62787, 1.62076, 1.68199, 1.75539, 1.78001, 1.54958, 1.47851, 1.47851, 1.54192, 1.60408, 1.63499, 1.67929, 1.66236, 1.47328, 1.44152, 1.47619, 1.584, 1.61468, 1.61818, 1.48476, 1.41618, 1.40421, 1.41895, 1.43647, 1.5309, 1.65248, 1.49549, 1.4306, 1.41466, 1.31608, 1.40853, 1.42414, 1.50864, 1.43024, 1.37168, 1.32007, 1.29209, 1.40577, 1.56544, 1.68822, 1.72137, 1.47781, 1.48628, 1.48934, 1.61558, 1.77615, 2.07338, 1.86095, 1.85252, 1.48639, 1.49065, 1.54477, 1.68179, 1.8652, 1.8481, 1.74889, 1.76917, 1.72482, 1.78603, 1.77344, 0.00449411, 0.00403261, 0.00422594, 2.21468, 0.00404844, 2.28601, 2.066, 2.08139, 0.00497363, 2.36324, 2.26298, 2.26501, 2.13693, 2.21545, 2.31136, 2.30381, 2.24824, 2.27886, 2.15205, 1.71049, 1.6133, 1.60283, 1.50717, 1.05845, 0.932651, 0.0042857, 1.02937, 1.10993, 1.0433, 0.979433, 0.634453, 0.627488, 0.698619, 0.808584, 0.894438, 0.988451, 1.00062, 0.782931, 0.636675, 0.705176, 0.75714, 0.90252, 0.951474, 0.748903, 0.740197, 0.718217, 0.716029, 0.923298, 0.946, 1.00517, 0.973763, 0.824551, 0.7383, 0.800724, 0.842304, 0.912467, 0.976201, 0.97354, 0.739334, 0.673756, 0.778807, 0.780413, 0.856815, 1.01482, 1.01535, 0.759029, 0.849865, 0.864735, 0.865266, 0.918906, 1.01886, 1.07692, 0.866043, 0.724275, 0.764577, 0.784117, 1.01511, 1.05876, 0.734546, 0.734786, 0.774498, 0.769804, 1.02176, 1.06762, 1.12102, 1.12252, 1.01902, 0.988528, 1.1155, 1.10982, 0.987454, 0.986611, 0.984827, 1.00091, 1.00245, 1.04344, 1.10803, 0.897519, 0.832571, 0.856355, 1.02532, 1.0424, 1.06459, 1.02547, 1.05229, 1.10012, 0.738132, 0.728122, 0.686211, 0.905309, 0.899139, 0.975141, 0.897513, 0.898741, 0.791003, 0.752409, 0.752932, 0.753602, 0.755718, 0.755248, 0.520569, 0.562717, 0.614752, 0.459508, 0.460752, 0.434135, 0.440319, 0.462126, 0.490138, 0.815075, 0.815393, 0.893281, 0.925903, 0.690784, 0.693111, 0.847187, 0.896812, 0.882082, 0.921312, 0.92041, 0.621174, 0.552843, 0.552442, 0.595908, 0.659693, 0.790668, 0.769838, 0.670163, 0.594231, 0.624752, 0.650154, 0.709322, 0.469747, 0.472057, 0.594207, 0.486984, 0.501092, 0.542487, 0.501468, 0.504949, 0.505926, 0.507076, 0.404141, 0.405514, 0.319498, 0.406921, 0.481506, 0.482192, 0.409186
2.01125, 1.98816, 1.72473, 1.70524, 1.69971, 1.73375, 1.84574, 1.79869, 1.91453, 1.63091, 1.58592, 1.60398, 1.60491, 1.66746, 1.7379, 1.76799, 1.76925, 1.48068, 1.47842, 1.58523, 1.57214, 1.74742, 1.79066, 1.65597, 1.48601, 1.57433, 1.50617, 1.45729, 1.45868, 1.72582, 1.46591, 1.37377, 1.37866, 1.3732, 1.43055, 1.45079, 1.45049, 1.75889, 1.40908, 1.31348, 1.35555, 1.40692, 1.41214, 1.53779, 1.46764, 1.37698, 1.3556, 1.38888, 1.44927, 1.60975, 1.75949, 1.55333, 1.65423, 1.55415, 1.63524, 1.63509, 1.80376, 1.87696, 1.9161, 1.93327, 1.52355, 1.55137, 1.53211, 1.60105, 1.80424, 1.88746, 1.78457, 1.7724, 1.74084, 1.75772, 1.82063, 0.00447638, 0.00462629, 0.0043533, 2.19037, 2.19752, 1.9833, 2.17929, 2.07249, 2.22531, 2.23608, 2.22474, 2.18402, 2.18326, 2.23588, 2.40758, 2.29098, 1.67559, 1.69505, 1.67552, 1.66095, 1.60536, 1.50569, 1.47725, 1.02585, 0.802351, 0.835502, 0.809791, 0.81155, 0.811809, 0.772466, 0.650944, 0.656995, 0.798979, 0.73834, 0.745645, 0.967482, 0.729698, 0.787191, 0.639129, 0.641393, 0.797472, 0.906632, 0.983311, 0.97012, 0.736843, 0.706173, 0.793602, 0.823341, 0.928962, 1.00291, 0.961617, 0.96771, 0.788513, 0.788323, 0.848439, 0.916462, 0.945933, 0.978498, 0.693074, 0.667044, 0.734347, 0.770983, 0.863882, 1.01854, 0.849525, 0.848996, 0.835475, 0.83656, 0.911849, 0.99783, 1.00872, 1.02201, 0.940367, 0.835328, 0.825406, 0.866935, 0.982398, 1.08932, 1.02683, 0.811746, 0.713675, 0.714511, 0.838876, 1.08144, 1.1188, 1.22647, 1.15464, 1.03615, 1.07564, 1.15123, 1.12539, 1.02635, 0.950786, 1.02588, 1.08784, 1.11304, 1.28122, 0.838749, 0.84071, 0.820246, 1.05637, 0.827497, 0.825396, 0.781159, 0.783743, 0.786373, 0.704601, 0.676711, 0.787461, 0.781413, 0.950837, 0.889941, 0.887584, 0.873419, 0.776832, 0.729987, 0.748811, 0.722405, 0.754849, 0.520585, 0.521893, 0.522383, 0.504565, 0.504898, 0.503169, 0.478238, 0.434789, 0.439087, 0.473498, 0.804942, 0.857646, 0.870329, 0.880029, 0.866778, 0.716533, 0.837752, 0.838112, 0.86266, 0.919329, 0.91366, 0.542193, 0.540965, 0.552564, 0.671295, 0.739382, 0.769999, 0.771674, 0.556344, 0.552301, 0.617536, 0.652405, 0.705125, 0.469058, 0.470627, 0.470587, 0.472015, 0.54979, 0.558038, 0.635216, 0.621293, 0.628173, 0.506733, 0.345503, 0.320163, 0.320447, 0.403767, 0.407464, 0.375566, 0.377105
2.01443, 2.01432, 1.70328, 1.68902, 1.69993, 1.73068, 1.7666, 1.91375, 1.89597, 1.64852, 1.58677, 1.62605, 1.66473, 1.71704, 1.76947, 1.79933, 1.54468, 1.52372, 1.49078, 1.57054, 1.57238, 1.78996, 1.78908, 1.7191, 1.50107, 1.42978, 1.42984, 1.47681, 1.66825, 1.60916, 1.47953, 1.39019, 1.33811, 1.34346, 1.40048, 1.58251, 1.703, 1.67139, 1.51271, 1.37183, 1.35215, 1.57564, 1.49551, 1.52072, 1.44094, 1.41051, 1.36194, 1.36833, 1.38525, 1.60167, 1.74403, 1.56806, 1.5441, 1.54523, 1.70253, 1.59051, 1.76024, 1.82477, 1.8518, 1.99352, 0.00419781, 1.56786, 1.57761, 1.80713, 1.78815, 2.23859, 1.8899, 1.79027, 1.77513, 1.95606, 1.83029, 2.12169, 2.13504, 2.2607, 2.42138, 2.20838, 2.00793, 2.22108, 2.1078, 2.21876, 2.18424, 2.28584, 0.00441618, 2.22763, 2.34855, 2.34253, 1.54812, 1.53772, 1.55171, 1.59755, 1.6019, 1.57436, 1.49143, 1.27486, 1.03026, 0.793235, 0.780972, 0.811646, 0.883198, 0.88406, 0.721086, 0.694669, 0.741976, 0.690045, 0.691474, 0.932393, 0.949081, 0.983629, 0.695055, 0.633159, 0.64191, 0.785352, 0.892576, 0.95628, 0.965357, 0.721317, 0.789891, 0.833019, 0.832518, 0.986862, 1.03048, 0.959694, 0.863366, 0.74281, 0.784433, 0.859323, 0.956958, 0.952645, 1.01141, 0.687566, 0.708475, 0.757375, 0.744808, 0.88148, 0.992224, 0.852416, 0.823013, 0.822327, 0.846047, 0.968042, 0.978244, 1.00935, 1.05043, 0.798382, 0.713368, 0.713711, 0.787851, 1.08243, 1.06431, 1.07017, 0.715431, 0.715189, 0.714935, 0.926817, 0.926995, 1.15461, 1.17618, 1.19832, 0.979892, 1.05227, 1.12935, 1.10364, 1.06723, 0.950024, 0.948942, 1.04029, 1.22251, 1.22456, 0.790334, 0.750034, 0.798922, 0.807281, 0.830813, 0.830156, 1.02299, 1.04801, 0.974321, 0.674594, 0.676746, 0.647684, 0.800624, 0.880297, 0.927187, 0.885548, 0.853969, 0.737624, 0.737579, 0.726058, 0.729487, 0.705309, 0.707779, 0.523811, 0.501939, 0.502944, 0.505815, 0.477276, 0.431633, 0.432821, 0.432627, 0.475493, 0.808357, 0.857239, 0.926378, 0.926578, 0.696897, 0.698751, 0.83566, 0.825923, 0.862589, 0.919632, 0.861092, 0.570088, 0.548175, 0.587037, 0.704454, 0.741794, 0.748259, 0.806838, 0.538461, 0.507947, 0.632363, 0.663126, 0.762849, 0.724735, 0.51597, 0.53206, 0.4744, 0.460317, 0.597888, 0.650929, 0.624662, 0.625569, 0.715171, 0.460591, 0.319032, 0.410761, 0.406427, 0.409651, 0.376578, 0.362721
1.97144, 1.95993, 1.71008, 1.69219, 1.7147, 1.76982, 1.772, 1.85086, 1.91604, 1.6512, 1.5632, 1.60355, 1.63335, 1.70141, 1.76337, 1.8044, 1.53617, 1.48718, 1.55385, 1.60843, 1.65799, 1.70571, 1.78059, 1.50719, 1.41529, 1.46518, 1.49886, 1.58957, 1.5939, 1.6116, 1.42575, 1.38629, 1.34082, 1.3294, 1.48614, 1.44881, 1.62589, 1.74451, 1.43295, 1.37356, 1.3442, 1.38462, 1.39518, 1.47874, 1.48255, 1.44721, 1.35466, 1.5811, 1.48597, 1.64695, 1.66498, 1.56839, 1.55917, 1.54481, 1.64429, 1.74548, 1.76549, 1.99335, 1.9861, 1.92756, 1.80121, 1.56908, 1.55726, 1.72494, 1.80711, 1.94952, 1.86614, 1.86057, 1.85868, 1.84489, 1.85803, 2.09434, 2.20351, 2.26303, 0.00517376, 2.25169, 2.26332, 2.27248, 2.10348, 2.13229, 2.22834, 2.26553, 2.26491, 2.38209, 2.21849, 2.21878, 1.50645, 1.45108, 1.53726, 1.61915, 1.63115, 1.51045, 1.44092, 1.25372, 0.816935, 0.769687, 0.749953, 0.712482, 0.893145, 0.887347, 0.751243, 0.750278, 0.684326, 0.777452, 0.694785, 0.681483, 0.949664, 0.905151, 0.749575, 0.636157, 0.81878, 0.819438, 0.811071, 0.963048, 0.764156, 0.710354, 0.770751, 0.825312, 0.832425, 1.00217, 1.01896, 1.02257, 0.75311, 0.793097, 0.812003, 0.922014, 0.915263, 0.954218, 0.974296, 0.763435, 0.774824, 0.75968, 0.760349, 0.847803, 0.964896, 1.03406, 0.868382, 0.760346, 0.907603, 0.87565, 1.00663, 1.04323, 1.0402, 0.867338, 0.718169, 0.729923, 0.943096, 1.03949, 1.00198, 1.07074, 0.712037, 0.715606, 0.763384, 0.888779, 0.995049, 1.20193, 1.13979, 1.141, 0.974082, 1.07775, 1.07658, 1.05351, 1.0363, 0.956136, 0.964205, 1.06711, 1.23273, 1.20887, 0.869963, 0.749572, 0.749539, 0.790214, 0.998417, 0.984627, 1.05329, 1.04837, 0.697404, 0.636528, 0.649423, 0.703336, 0.832279, 0.921548, 0.922228, 0.878729, 0.759615, 0.72089, 0.803932, 0.784757, 0.732655, 0.674823, 0.74552, 0.502441, 0.504504, 0.506827, 0.50178, 0.615764, 0.48266, 0.482436, 0.535033, 0.425481, 0.528684, 0.835952, 0.981457, 0.909128, 0.738869, 0.745184, 0.805798, 0.821678, 0.881846, 0.901027, 0.863933, 0.835378, 0.585836, 0.580922, 0.627654, 0.74521, 0.759933, 0.756311, 0.481932, 0.483064, 0.513972, 0.662784, 0.707177, 0.510314, 0.515, 0.476209, 0.478732, 0.522628, 0.5742, 0.586415, 0.82239, 0.822342, 0.718254, 0.527569, 0.489914, 0.331536, 0.332066, 0.370362, 0.414077, 0.417053
1.99698, 1.98669, 1.71855, 1.67994, 1.66558, 1.76156, 1.7957, 1.82072, 1.92641, 1.62012, 1.66114, 1.61069, 1.62489, 1.68839, 1.74087, 1.76836, 1.48746, 1.5351, 1.52282, 1.55064, 1.6828, 1.69882, 1.77347, 1.49143, 1.54887, 1.4462, 1.53308, 1.58481, 1.64342, 1.61103, 1.42681, 1.37395, 1.3604, 1.37466, 1.596, 1.44416, 1.68589, 1.43075, 1.40109, 1.39684, 1.35396, 1.47817, 1.43752, 1.51344, 1.49821, 1.48947, 1.50431, 1.41963, 1.59076, 1.73287, 1.68629, 1.62389, 1.57228, 1.57213, 1.69051, 1.70232, 1.72286, 1.92076, 2.06695, 0.00429929, 1.97193, 1.64828, 1.64779, 1.7161, 1.86841, 1.8967, 2.1423, 1.87664, 1.86616, 1.95366, 2.07998, 2.11114, 2.11898, 2.2698, 2.12563, 2.28992, 2.17765, 2.18066, 2.21412, 2.1115, 2.1727, 2.25839, 2.3815, 2.31343, 2.21741, 0.0043562, 1.44479, 1.40631, 1.36654, 1.41693, 1.62388, 1.47179, 1.41265, 1.33676, 0.779881, 0.75272, 0.734662, 0.714466, 0.688826, 0.910865, 0.663141, 0.611589, 0.622765, 0.693225, 0.692543, 0.680702, 0.681427, 0.90758, 0.906171, 0.694814, 0.677793, 0.778045, 0.870833, 0.93566, 0.77977, 0.748629, 0.743887, 0.826641, 0.826003, 0.932191, 1.00929, 0.997907, 0.712304, 0.709656, 0.831643, 0.878956, 0.868597, 1.04953, 1.05681, 0.751782, 0.68247, 0.808403, 0.795656, 0.856485, 0.977679, 0.789417, 0.855794, 0.865, 0.839438, 0.91545, 1.01698, 1.03864, 1.15116, 0.790236, 0.770014, 0.780506, 0.9493, 0.98029, 1.00788, 1.05461, 0.909284, 0.814343, 0.805894, 0.785225, 0.880955, 1.11964, 1.27797, 1.13924, 1.01524, 1.11616, 1.033, 1.21323, 0.993855, 1.00544, 0.989144, 1.05023, 1.15025, 1.16858, 0.783396, 0.769764, 0.711554, 0.872204, 0.938693, 0.965866, 1.03774, 1.02344, 0.643311, 0.574259, 0.531686, 0.531317, 0.815833, 0.894775, 0.88655, 0.885018, 0.676084, 0.677777, 0.82724, 0.788253, 0.760136, 0.667622, 0.723693, 0.723761, 0.502061, 0.426283, 0.429731, 0.443845, 0.432826, 0.484412, 0.428508, 0.466099, 0.467265, 0.804547, 0.854281, 0.876027, 0.83242, 0.711192, 0.803047, 0.813177, 0.882515, 0.817576, 0.782159, 0.530192, 0.610759, 0.58358, 0.688004, 0.732939, 0.7624, 0.817869, 0.480673, 0.479432, 0.508757, 0.51515, 0.516384, 0.511546, 0.543633, 0.4778, 0.479784, 0.480114, 0.622809, 0.633105, 0.654977, 0.573437, 0.566703, 0.604519, 0.329478, 0.330998, 0.331386, 0.448871, 0.413854, 0.417083
2.05256, 2.0447, 1.68283, 1.63292, 1.63464, 1.77301, 1.73898, 1.76507, 1.82542, 1.60788, 1.58168, 1.5609, 1.61144, 1.66811, 1.77953, 1.78116, 1.54118, 1.48651, 1.48646, 1.56489, 1.61903, 1.64606, 1.63994, 1.47164, 1.47859, 1.44719, 1.51264, 1.5679, 1.61, 1.61476, 1.43292, 1.37582, 1.37962, 1.3793, 1.42254, 1.49997, 1.55998, 1.43085, 1.37678, 1.33494, 1.32602, 1.47915, 1.47957, 1.45675, 1.51736, 1.52993, 1.48939, 1.65589, 1.57157, 1.59647, 1.76282, 1.62668, 1.64939, 1.65202, 1.57044, 1.63364, 1.6723, 1.88759, 2.06134, 2.11511, 0.00412087, 1.68982, 1.72549, 1.73444, 1.85923, 1.83455, 2.14392, 1.90702, 1.97407, 2.00631, 2.06564, 2.10065, 2.18044, 2.34709, 2.12451, 0.00458217, 2.17032, 2.17803, 2.1767, 2.12095, 2.15199, 2.25503, 0.00445552, 2.3669, 2.29073, 2.28816, 1.37985, 1.34445, 1.32963, 1.36477, 1.57518, 1.55688, 1.4188, 1.31283, 0.76635, 0.739686, 0.691777, 0.691561, 0.655807, 0.910812, 0.670188, 0.604231, 0.623244, 0.73277, 0.815423, 0.879794, 0.872279, 0.673465, 0.608112, 0.629689, 0.694123, 0.873184, 0.8743, 0.997305, 0.716584, 0.743574, 0.72095, 0.821362, 0.86169, 0.928441, 0.981195, 0.934483, 0.71461, 0.705642, 0.821712, 0.813509, 0.878011, 0.72873, 0.729242, 0.686374, 0.716563, 0.848081, 0.90295, 0.915739, 0.978285, 0.766158, 0.766841, 0.768162, 0.835022, 0.939371, 1.01041, 1.04008, 1.07206, 0.835395, 0.745584, 0.745154, 0.852369, 1.00663, 1.03419, 1.08203, 0.926344, 0.995825, 0.835863, 0.828992, 0.939571, 1.09828, 1.13335, 1.1283, 1.04319, 1.04596, 1.1939, 1.19332, 0.981607, 1.00234, 1.0024, 1.01541, 1.13322, 1.13546, 1.15336, 0.671627, 0.654626, 0.733233, 0.96423, 0.967832, 0.986356, 0.976932, 0.601977, 0.510475, 0.530748, 0.594497, 0.691449, 0.815073, 0.865004, 0.91515, 0.694155, 0.693556, 0.747716, 0.745651, 0.756774, 0.755766, 0.756131, 0.565563, 0.502006, 0.430127, 0.430812, 0.430004, 0.535545, 0.428429, 0.545658, 0.539723, 0.494945, 0.851096, 0.833572, 0.855684, 0.849958, 0.687932, 0.842112, 0.858953, 0.814737, 0.779585, 0.778171, 0.626293, 0.586375, 0.607052, 0.688498, 0.763412, 0.82172, 0.819295, 0.54883, 0.540877, 0.532049, 0.513838, 0.515179, 0.458572, 0.589998, 0.514944, 0.577569, 0.578395, 0.607935, 0.62028, 0.622317, 0.644485, 0.517852, 0.500436, 0.479513, 0.329022, 0.315987, 0.316865, 0.341168, 0.340833
2.05905, 2.06283, 1.70262, 1.66238, 1.61145, 1.61106, 1.69649, 1.7383, 1.76584, 1.75745, 1.5907, 1.52713, 1.63062, 1.71729, 1.75837, 1.80911, 1.52081, 1.53708, 1.51305, 1.51697, 1.62283, 1.65533, 1.82075, 1.43125, 1.38971, 1.42046, 1.51301, 1.58494, 1.64786, 1.60583, 1.43163, 1.39703, 1.35859, 1.48239, 1.40197, 1.58496, 1.70033, 1.33953, 1.27976, 1.38535, 1.3786, 1.48261, 1.49083, 1.47817, 1.45097, 1.45038, 1.54072, 1.53929, 1.51713, 1.58914, 1.63045, 1.63565, 1.62205, 1.57936, 1.63551, 1.70728, 1.69098, 2.03995, 2.08563, 2.08792, 0.00449507, 1.90527, 1.74536, 1.72355, 1.72501, 1.77955, 1.85582, 2.16674, 2.04509, 2.03173, 2.11331, 2.09394, 2.11479, 2.3503, 2.22125, 2.11821, 2.20912, 2.22159, 2.08224, 2.14613, 2.14922, 0.00420224, 0.00451989, 0.00450926, 0.00424987, 1.62019, 1.36588, 1.33141, 1.33258, 1.34114, 1.38648, 1.35778, 1.40823, 1.03766, 0.72547, 0.658612, 0.658976, 0.75418, 0.656495, 0.655711, 0.602333, 0.621235, 0.619894, 0.750155, 0.791652, 0.893099, 0.908162, 0.666883, 0.681149, 0.697966, 0.672528, 0.818439, 0.884498, 1.00755, 0.934173, 0.714321, 0.709549, 0.788309, 0.866663, 0.918563, 1.03924, 0.834625, 0.69529, 0.76291, 0.845535, 0.805494, 0.814706, 0.714393, 0.980769, 0.686853, 0.719233, 0.718446, 0.87406, 0.856024, 0.970431, 1.03196, 0.799128, 0.853835, 0.838337, 0.930431, 0.968925, 1.02954, 1.04499, 0.819529, 0.74363, 0.742725, 0.950097, 1.01317, 1.02888, 1.02813, 0.932998, 0.994634, 1.02311, 0.93352, 0.974353, 1.09625, 1.11926, 1.1269, 1.02348, 1.10409, 1.1982, 1.23807, 0.935671, 0.984712, 1.09841, 1.06778, 1.13435, 1.13438, 1.11838, 0.681222, 0.627267, 0.662701, 0.964355, 0.967031, 0.984762, 1.00926, 0.58943, 0.512478, 0.511628, 0.592983, 0.676351, 0.810807, 0.867722, 0.826793, 0.708191, 0.628308, 0.74299, 0.741761, 0.746343, 0.648428, 0.72613, 0.556255, 0.47936, 0.506433, 0.531658, 0.416188, 0.431305, 0.445886, 0.448281, 0.448766, 0.773307, 0.851611, 0.832155, 0.834253, 0.974823, 0.63515, 0.821383, 0.706868, 0.777417, 0.777937, 0.797953, 0.756709, 0.560331, 0.653031, 0.656448, 0.699528, 0.825428, 0.846682, 0.525548, 0.501568, 0.459585, 0.487571, 0.500126, 0.459545, 0.449873, 0.45079, 0.522102, 0.601619, 0.614855, 0.660095, 0.687275, 0.641587, 0.638444, 0.533472, 0.466069, 0.418115, 0.314176, 0.315103, 0.340925, 0.353068
1.96664, 1.96708, 1.68681, 1.63741, 1.63857, 1.62882, 1.76224, 1.77456, 1.72741, 1.7265, 1.54669, 1.49893, 1.60575, 1.63194, 1.7352, 1.81548, 1.50626, 1.48236, 1.48508, 1.54848, 1.60737, 1.69663, 1.81511, 1.50502, 1.38137, 1.40939, 1.46198, 1.59785, 1.60601, 1.47888, 1.45525, 1.44022, 1.35074, 1.42188, 1.39987, 1.41863, 1.41688, 1.31806, 1.29481, 1.30899, 1.33021, 1.4485, 1.46926, 1.49136, 1.47944, 1.45161, 1.45105, 1.51237, 1.5111, 1.60258, 1.62022, 1.89328, 1.63823, 1.59859, 1.72696, 1.72667, 1.73027, 2.0244, 2.11476, 2.09723, 2.07774, 0.00453115, 1.8075, 1.76276, 1.78379, 1.78032, 1.795, 1.9381, 2.02706, 2.04604, 2.1178, 2.12027, 2.12823, 2.18101, 2.10477, 2.11065, 2.11202, 2.26693, 2.07985, 2.08427, 2.09828, 2.10558, 2.07236, 2.08525, 0.00435637, 1.67622, 1.35858, 1.34605, 1.26228, 1.30974, 1.337, 1.33695, 1.38326, 1.31011, 0.725008, 0.615016, 0.719766, 0.755856, 0.874387, 0.874442, 0.620954, 0.619434, 0.618515, 0.76967, 0.843136, 0.674821, 0.691269, 0.909258, 0.752791, 0.62977, 0.694857, 0.763137, 0.912182, 0.947107, 0.947791, 0.717293, 0.766471, 0.805596, 0.861513, 0.869946, 0.896937, 0.897256, 0.76619, 0.715447, 0.819632, 0.870921, 0.888313, 0.96409, 0.984882, 0.787203, 0.71648, 0.821708, 0.818845, 0.922078, 0.960337, 0.982192, 0.784611, 0.876169, 0.902827, 0.96388, 0.969683, 1.05638, 1.04221, 0.838787, 0.742567, 0.810229, 0.981699, 0.928723, 0.998829, 0.949566, 0.930691, 1.00486, 1.06878, 1.02951, 1.00245, 1.13275, 1.10935, 1.16024, 1.04566, 1.12766, 1.19709, 1.18138, 0.923002, 0.897685, 0.998242, 1.0397, 1.16803, 1.18484, 1.11585, 0.725251, 0.670407, 0.643382, 0.887985, 0.983333, 1.01889, 0.981949, 0.608841, 0.525897, 0.524508, 0.561796, 0.728214, 0.843214, 0.870195, 0.855998, 0.708676, 0.708134, 0.742436, 0.828148, 0.829859, 0.648412, 0.648514, 0.673808, 0.479672, 0.696499, 0.696118, 0.41593, 0.414984, 0.403587, 0.408303, 0.451149, 0.742988, 0.845057, 0.843215, 0.978812, 0.976825, 0.635925, 0.635416, 0.753083, 0.862825, 0.963281, 0.828088, 0.877661, 0.593492, 0.636079, 0.617659, 0.700795, 0.72001, 0.721967, 0.553008, 0.490305, 0.50155, 0.562196, 0.498772, 0.744411, 0.451241, 0.458741, 0.570791, 0.613735, 0.671903, 0.682497, 0.693679, 0.694474, 0.49414, 0.573125, 0.574762, 0.306584, 0.31435, 0.315097, 0.431459, 0.371631
2.02136, 2.00551, 1.69453, 1.67502, 1.62443, 1.64823, 1.77528, 1.77682, 1.82604, 1.57882, 1.52737, 1.53106, 1.56169, 1.62467, 1.73045, 1.7404, 1.55507, 1.49517, 1.47836, 1.55442, 1.58108, 1.59676, 1.69586, 1.47278, 1.43756, 1.45975, 1.45436, 1.4793, 1.53285, 1.58652, 1.49495, 1.40027, 1.36052, 1.44342, 1.39783, 1.47209, 1.67257, 1.32604, 1.31279, 1.27249, 1.27456, 1.34576, 1.49497, 1.53084, 1.53634, 1.49911, 1.56213, 1.53108, 1.58827, 1.6099, 0.00402612, 0.004344, 1.63728, 1.6335, 1.71057, 1.71395, 1.80611, 2.07696, 2.1077, 2.15163, 2.0781, 2.10019, 1.85031, 1.81451, 1.82064, 1.81595, 1.80963, 1.82247, 2.16386, 2.1072, 2.10089, 2.18037, 2.30779, 0.00444259, 0.00442196, 2.11087, 2.11165, 2.21467, 1.7557, 1.78514, 1.8724, 2.0509, 2.05379, 2.10484, 1.76191, 1.58174, 1.51362, 1.34977, 1.27043, 1.34426, 1.33999, 1.34464, 1.34328, 1.36085, 0.715945, 0.617318, 0.63553, 0.674411, 0.909371, 0.959241, 0.662165, 0.573003, 0.638258, 0.756176, 0.873205, 0.677532, 0.952768, 0.966593, 0.694316, 0.641451, 0.681261, 0.835131, 0.873839, 0.963156, 0.960849, 0.76775, 0.75293, 0.887797, 0.892352, 0.888617, 0.886895, 0.898063, 0.728979, 0.701452, 0.720406, 0.819038, 0.955081, 0.735902, 1.02918, 0.752115, 0.7259, 0.726161, 0.821849, 0.855527, 0.959908, 0.741465, 0.721369, 0.836042, 0.835543, 0.928738, 1.03566, 1.07792, 1.04273, 0.847176, 0.833211, 0.8082, 0.998589, 0.984943, 1.01587, 0.981055, 0.941204, 1.02424, 1.03295, 1.05997, 1.10025, 1.15807, 1.17062, 1.05991, 1.04527, 1.19437, 1.19828, 1.24346, 0.915716, 0.860861, 1.00953, 0.95931, 0.955779, 0.956776, 0.998885, 0.732536, 0.718145, 0.6215, 0.784552, 1.01134, 1.01238, 1.01523, 0.553257, 0.528771, 0.528803, 0.529373, 0.808318, 0.815772, 0.807531, 0.631218, 0.643576, 0.754671, 0.812594, 0.831068, 0.832056, 0.647949, 0.711886, 0.462959, 0.462928, 0.69873, 0.560061, 0.406879, 0.402145, 0.406649, 0.408235, 0.451828, 0.742825, 0.740214, 0.848283, 0.84851, 0.850477, 0.635208, 0.635659, 0.693394, 1.03414, 0.936341, 0.891885, 0.826509, 0.614771, 0.608603, 0.584506, 0.562959, 0.756655, 0.626263, 0.519493, 0.43264, 0.436556, 0.435987, 0.496834, 0.745988, 0.448618, 0.49778, 0.570417, 0.565128, 0.669363, 0.635823, 0.694009, 0.589033, 0.539024, 0.576679, 0.577829, 0.3089, 0.310472, 0.424411, 0.366444, 0.372551
2.02596, 2.13436, 1.73176, 1.72068, 1.60884, 1.681, 1.75309, 1.80178, 1.87933, 1.58232, 1.51797, 1.53328, 1.55709, 1.54797, 1.66131, 1.6337, 1.53401, 1.47918, 1.48736, 1.518, 1.60776, 1.59061, 1.74894, 1.51292, 1.42726, 1.43635, 1.49916, 1.46631, 1.47253, 1.71627, 1.46099, 1.36178, 1.36056, 1.54615, 1.45074, 1.45058, 1.74248, 1.36406, 1.3133, 1.31311, 1.49203, 1.42047, 1.50116, 1.60417, 1.54749, 1.5594, 1.53473, 1.60528, 1.59502, 1.58857, 1.92713, 2.03118, 0.00477118, 1.69674, 1.66814, 1.74052, 1.84861, 2.06659, 2.08023, 2.10221, 2.18093, 0.00458364, 2.08677, 1.88367, 1.81483, 1.84485, 1.84315, 1.88563, 2.08624, 2.07447, 2.14558, 2.13502, 0.00436164, 2.12583, 2.37001, 0.00429404, 0.00437234, 0.00438174, 1.62963, 1.62999, 1.72453, 1.77523, 1.85953, 1.76857, 1.7619, 1.67184, 1.34776, 1.28499, 1.25723, 1.25647, 1.34724, 1.35579, 1.35647, 1.30558, 0.684454, 0.618875, 0.70654, 0.697823, 0.697044, 0.693818, 0.69485, 0.632426, 0.656262, 0.690419, 0.674514, 0.96012, 1.06731, 0.968804, 0.780951, 0.788983, 0.687912, 0.779829, 0.839584, 0.961845, 1.02594, 0.802549, 0.704276, 0.787256, 0.820085, 0.968248, 0.96865, 0.766238, 0.767276, 0.665603, 0.65262, 0.82784, 0.977912, 1.0049, 0.984675, 0.714995, 0.72583, 0.855863, 0.833636, 0.880994, 0.978247, 0.763051, 0.694056, 0.686891, 0.904432, 0.86478, 1.04964, 1.07703, 1.04709, 0.803746, 0.803152, 0.808338, 0.894243, 0.984127, 1.07148, 1.02338, 0.982036, 1.00452, 1.00669, 1.06889, 1.15827, 1.10189, 1.16876, 1.05744, 0.967824, 0.990529, 1.22899, 1.22573, 0.839757, 0.848874, 0.938747, 1.01429, 1.02179, 1.01069, 0.99834, 0.670115, 0.642098, 0.63278, 0.575744, 0.843572, 1.08266, 0.964046, 0.617909, 0.58053, 0.531625, 0.539584, 0.748619, 0.860113, 0.777709, 0.574328, 0.592143, 0.68089, 0.76003, 0.773147, 0.786092, 0.765358, 0.714129, 0.52468, 0.464756, 0.460757, 0.56375, 0.407704, 0.407799, 0.423726, 0.435504, 0.552573, 0.511884, 0.675436, 0.807799, 0.815269, 0.881881, 0.625868, 0.636953, 0.74644, 0.747096, 0.866351, 0.901245, 0.911348, 0.589716, 0.542392, 0.610615, 0.612891, 0.759511, 0.628299, 0.535664, 0.436365, 0.438282, 0.438224, 0.745317, 0.45212, 0.544327, 0.432422, 0.55495, 0.557096, 0.610687, 0.634252, 0.613225, 0.601541, 0.517824, 0.425245, 0.448613, 0.418742, 0.397257, 0.422569, 0.422233, 0.370378
2.03156, 2.03063, 1.91821, 1.66326, 1.6063, 1.68638, 1.68168, 1.86249, 1.87794, 1.53727, 1.56497, 1.52987, 1.59485, 1.62221, 1.54115, 1.50957, 1.54209, 1.52057, 1.4784, 1.54749, 1.57494, 1.58627, 1.55621, 1.56738, 1.41242, 1.45712, 1.43388, 1.49958, 1.59454, 1.6151, 1.43101, 1.35856, 1.36138, 1.41493, 1.41457, 1.57128, 1.77951, 1.41993, 1.38748, 1.33588, 1.43048, 1.40903, 1.5583, 1.65484, 1.58761, 1.5724, 1.58984, 1.55939, 1.60264, 1.86178, 1.91987, 1.97053, 2.12745, 1.71456, 1.81442, 1.81737, 1.85166, 1.91144, 2.08767, 2.13448, 2.15553, 2.07559, 2.09369, 1.88582, 1.88651, 1.85474, 1.86881, 1.90665, 2.08235, 2.08216, 2.06082, 2.22515, 2.19867, 2.32672, 2.33595, 2.14179, 2.14232, 1.64556, 1.56897, 1.60446, 1.63506, 1.78466, 1.71527, 1.701, 1.68749, 1.56918, 1.40268, 1.29485, 1.27107, 1.25855, 1.30513, 1.30671, 1.27841, 1.27785, 0.652632, 0.617986, 0.662518, 0.660893, 0.697293, 0.69705, 0.618413, 0.652471, 0.650815, 0.749707, 0.860747, 1.03897, 0.99835, 1.0879, 0.791138, 0.789294, 0.801926, 0.728387, 0.850695, 1.00454, 1.01219, 0.740812, 0.739584, 0.794726, 0.828717, 0.846683, 0.952258, 0.980916, 0.720658, 0.666803, 0.743038, 0.717761, 0.939173, 1.02429, 0.781222, 0.708845, 0.707588, 0.850436, 0.829017, 1.00648, 1.0062, 0.675853, 0.695391, 0.692048, 0.852785, 0.853736, 1.00174, 1.09686, 1.1011, 0.905836, 0.842568, 0.851136, 0.852352, 1.00581, 1.09957, 1.03989, 1.00919, 1.00085, 1.01332, 1.26572, 1.13315, 1.17853, 1.12003, 0.997101, 1.10939, 1.24725, 1.25408, 1.23583, 0.857021, 0.906083, 0.954076, 0.983584, 1.05304, 1.1608, 0.794472, 0.671537, 0.557816, 0.571066, 0.57955, 0.537721, 0.997824, 0.926736, 0.619109, 0.532992, 0.572833, 0.536814, 0.711393, 0.855327, 0.912751, 0.578811, 0.590695, 0.656333, 0.782642, 0.816219, 0.818789, 0.79491, 0.632716, 0.462391, 0.464254, 0.480274, 0.509523, 0.570635, 0.422248, 0.422715, 0.438182, 0.591622, 0.513815, 0.748628, 0.823388, 0.882324, 0.884554, 0.645073, 0.646243, 0.725521, 0.654577, 0.687713, 0.920949, 0.679432, 0.529835, 0.473335, 0.576417, 0.621512, 0.738512, 0.740575, 0.509835, 0.443146, 0.442865, 0.616519, 0.489611, 0.535906, 0.428894, 0.432317, 0.473493, 0.557858, 0.581049, 0.503736, 0.663753, 0.445411, 0.446807, 0.518547, 0.434099, 0.373951, 0.374603, 0.369277, 0.358069, 0.358895
1.92612, 1.93456, 1.93701, 1.59821, 1.6142, 1.68909, 1.76787, 1.77634, 1.86833, 1.55397, 1.50267, 1.58046, 1.58355, 1.66586, 1.76342, 1.85152, 1.45767, 1.45707, 1.48539, 1.56459, 1.53362, 1.60348, 1.59653, 1.54496, 1.45086, 1.40279, 1.42558, 1.46111, 1.46139, 1.55403, 1.3997, 1.39946, 1.39205, 1.43291, 1.57559, 1.60616, 1.73369, 1.45182, 1.41924, 1.36803, 1.42379, 1.47637, 1.60451, 1.65902, 1.66523, 1.59717, 1.57483, 1.65863, 1.65979, 1.92779, 1.95811, 2.03478, 0.00443008, 0.00456183, 1.8268, 1.74159, 1.75107, 1.86021, 2.14491, 2.16183, 2.18004, 2.08408, 2.09446, 1.96404, 2.01032, 2.00084, 1.97219, 1.93522, 2.33039, 2.19401, 2.22793, 2.24189, 2.24303, 2.12892, 0.0128319, 2.1389, 0.00385741, 0.00404081, 1.50946, 1.5044, 1.6063, 1.65788, 1.67954, 1.72107, 1.64359, 1.57126, 1.416, 1.27074, 1.23101, 1.23627, 1.24687, 1.32899, 1.26132, 1.23754, 0.688702, 0.618837, 0.661973, 0.661487, 0.660401, 0.890308, 0.618512, 0.618692, 0.618934, 0.672652, 0.748851, 0.981004, 0.981596, 0.986888, 0.7215, 0.707877, 0.700419, 0.731332, 0.70751, 0.952228, 0.748232, 0.658993, 0.683015, 0.794488, 0.829523, 0.936973, 0.924635, 1.04268, 0.714878, 0.660097, 0.701997, 0.750147, 0.936538, 0.994421, 0.964244, 0.68266, 0.70658, 0.808966, 0.808836, 1.00517, 1.02225, 0.675479, 0.675876, 0.69364, 0.852371, 0.853003, 0.961066, 1.07043, 1.10507, 0.936059, 0.862975, 0.894939, 0.942149, 1.07348, 1.09883, 1.09507, 1.02269, 1.03003, 1.04642, 1.13942, 1.07456, 1.13622, 0.992054, 1.11932, 1.10527, 1.15632, 1.28735, 0.874534, 0.896798, 0.855857, 0.918403, 0.808202, 0.804276, 0.804228, 0.696688, 0.695144, 0.558786, 0.636499, 0.649113, 0.655411, 0.933361, 0.959169, 0.957647, 0.59036, 0.580263, 0.616358, 0.68619, 0.857136, 0.97114, 0.606634, 0.597749, 0.708162, 0.743681, 0.812701, 0.815498, 0.729, 0.736618, 0.490113, 0.424887, 0.424975, 0.483493, 0.572942, 0.418966, 0.423768, 0.455179, 0.563129, 0.731637, 0.819259, 0.821936, 0.853506, 0.886565, 0.638701, 0.64977, 0.709551, 0.700746, 0.656216, 0.783687, 0.787514, 0.47659, 0.474627, 0.581711, 0.584554, 0.752596, 0.730609, 0.732786, 0.443602, 0.443881, 0.563075, 0.490463, 0.756161, 0.497495, 0.432042, 0.490794, 0.587194, 0.568431, 0.498885, 0.644253, 0.554731, 0.446002, 0.443796, 0.369295, 0.372996, 0.487617, 0.363799, 0.361549, 0.365095
2.0274, 2.06398, 1.65447, 1.62734, 1.60307, 1.68348, 1.74447, 1.69922, 1.93229, 1.53035, 1.50558, 1.5389, 1.55173, 1.72044, 1.7235, 1.77108, 1.51248, 1.45107, 1.45817, 1.49979, 1.6093, 1.67203, 1.66298, 1.75181, 1.438, 1.44415, 1.44188, 1.45812, 1.46029, 1.54095, 1.48317, 1.34069, 1.34331, 1.40789, 1.53002, 1.56129, 1.72456, 1.45902, 1.41637, 1.36473, 1.39303, 1.60629, 1.8177, 1.69213, 1.70138, 1.61503, 1.69584, 1.67805, 1.71932, 1.77223, 2.08042, 2.14358, 2.19808, 1.82854, 1.80069, 1.7592, 1.79882, 1.86546, 2.17707, 2.17931, 2.15961, 2.1825, 2.08113, 2.00889, 1.99868, 2.14074, 2.1425, 1.94236, 1.91399, 2.27662, 2.23942, 2.06587, 2.25684, 2.11164, 2.12346, 0.00422864, 0.00445465, 1.50226, 1.4581, 1.45606, 1.50483, 1.71024, 1.70924, 1.68197, 1.65213, 1.54353, 1.32712, 1.22604, 1.24444, 1.23616, 1.25112, 1.25025, 1.23831, 1.23962, 0.725006, 0.596868, 0.709184, 0.661678, 0.662166, 0.906087, 0.662654, 0.662872, 0.667113, 0.665925, 0.728992, 0.880404, 0.841819, 0.928838, 0.719656, 0.691064, 0.783052, 0.802134, 0.676678, 0.677023, 0.9637, 0.658754, 0.651878, 0.776699, 0.797799, 0.878407, 1.00921, 0.980733, 0.731893, 0.65674, 0.678396, 0.735786, 0.950549, 0.956188, 0.747422, 0.694044, 0.82873, 0.77376, 0.880635, 1.02001, 1.01958, 0.678838, 0.676444, 0.786706, 0.786622, 0.850099, 1.09247, 1.0641, 1.04955, 0.967743, 0.866989, 0.821441, 1.01864, 1.05408, 1.13504, 1.07017, 1.00806, 1.0651, 1.03611, 1.3014, 1.06349, 1.01291, 0.993942, 1.10185, 1.18086, 1.1547, 1.26409, 1.23806, 0.808491, 0.827998, 0.888298, 0.809985, 0.813994, 0.804681, 0.758602, 0.560126, 0.560747, 0.55655, 0.644359, 0.846289, 0.902, 0.913621, 0.893904, 0.560152, 0.525059, 0.525173, 0.636925, 0.621343, 0.966004, 0.612184, 0.652519, 0.758602, 0.784227, 0.808426, 0.72411, 0.776224, 0.738849, 0.479772, 0.47905, 0.425772, 0.601008, 0.625335, 0.473832, 0.445305, 0.423984, 0.53277, 0.714726, 0.77763, 0.822023, 0.8079, 0.59008, 0.592011, 0.762761, 0.839631, 0.835275, 0.811311, 0.814538, 0.817745, 0.576697, 0.478893, 0.618983, 0.590701, 0.742871, 0.741755, 0.734641, 0.445614, 0.446666, 0.579706, 0.673469, 0.470137, 0.436075, 0.480531, 0.434949, 0.580503, 0.62514, 0.563168, 0.560039, 0.586654, 0.587492, 0.430748, 0.368598, 0.480438, 0.511546, 0.491155, 0.576743, 0.366012
2.00094, 2.02665, 1.69019, 1.6893, 1.61648, 1.66896, 1.69272, 1.82308, 1.88276, 1.51754, 1.51891, 1.49029, 1.60482, 1.66851, 1.7381, 1.78682, 1.53538, 1.53023, 1.4654, 1.50356, 1.62035, 1.77242, 1.84092, 1.85903, 1.44981, 1.39997, 1.44375, 1.50685, 1.46015, 1.51261, 1.31048, 1.28439, 1.33372, 1.3784, 1.40865, 1.47924, 1.74144, 1.50889, 1.44669, 1.42291, 1.56869, 1.52337, 1.73682, 1.80601, 1.81652, 1.6204, 1.74915, 1.63441, 1.67754, 1.9428, 2.07688, 2.18733, 2.13548, 2.10224, 1.80669, 1.79245, 1.7892, 1.96227, 1.94504, 2.23475, 2.1893, 2.24935, 2.17429, 2.20014, 2.19228, 2.14915, 2.15782, 2.19571, 1.87666, 1.91506, 2.2524, 2.05891, 2.12507, 2.1396, 2.09314, 0.00422053, 0.00438895, 1.46591, 1.45651, 1.44933, 1.45503, 1.63018, 1.61972, 1.6202, 1.57844, 1.5213, 1.35729, 1.26402, 1.34285, 1.33713, 1.25175, 1.25053, 1.25135, 0.687037, 0.673702, 0.702775, 0.724709, 0.77766, 0.67697, 0.675961, 0.662243, 0.663771, 0.677452, 0.642462, 0.838596, 0.867206, 0.966709, 0.966343, 0.639921, 0.640359, 0.689669, 0.787197, 0.891867, 0.968075, 0.69128, 0.647757, 0.653999, 0.694176, 0.851514, 0.886512, 1.01878, 0.789694, 0.743785, 0.668532, 0.680304, 0.746386, 0.749535, 0.809695, 0.781936, 0.696271, 0.824876, 0.74004, 0.886399, 0.989118, 0.963877, 0.680918, 0.676815, 0.700353, 0.780373, 0.914608, 0.963272, 1.0455, 1.05823, 1.15059, 0.950524, 0.91177, 0.961276, 1.04645, 1.0943, 1.05804, 1.00964, 1.02844, 1.05689, 1.05429, 0.987585, 0.988834, 1.04348, 1.09613, 1.16463, 1.15878, 1.20506, 1.19184, 0.816008, 0.787429, 0.859841, 0.951289, 1.04817, 1.0501, 0.705242, 0.618844, 0.610097, 0.612117, 0.789923, 0.902453, 0.882445, 0.902859, 0.895697, 0.560615, 0.528478, 0.526166, 0.564883, 0.704879, 0.673297, 0.595166, 0.598317, 0.63591, 0.797048, 0.811828, 0.726265, 0.777594, 0.708976, 0.445842, 0.478218, 0.43138, 0.509792, 0.627616, 0.56441, 0.425875, 0.445922, 0.530566, 0.706415, 0.738498, 0.825705, 0.832198, 0.643019, 0.632734, 0.684724, 0.741874, 0.836851, 0.834192, 0.881248, 0.576849, 0.48207, 0.483291, 0.645641, 0.592032, 0.72792, 0.706232, 0.487712, 0.442907, 0.444322, 0.589934, 0.590832, 0.696833, 0.462333, 0.448238, 0.442906, 0.553587, 0.566435, 0.615279, 0.651703, 0.72454, 0.585212, 0.390854, 0.37285, 0.455437, 0.504774, 0.544863, 0.518915, 0.367137
2.01816, 1.84883, 1.85516, 1.68154, 1.60926, 1.64824, 1.68231, 1.80307, 1.89183, 1.55404, 1.50733, 1.50813, 1.53352, 1.67424, 1.67321, 1.77829, 1.52849, 1.4482, 1.44926, 1.5721, 1.60167, 1.77152, 1.85845, 1.45274, 1.39691, 1.35438, 1.45436, 1.4939, 1.46034, 1.46004, 1.35038, 1.29321, 1.32174, 1.37376, 1.41176, 1.57191, 1.63048, 1.48788, 1.48104, 1.66283, 1.63811, 1.68551, 1.81392, 1.8278, 1.90365, 1.70654, 1.72686, 1.69997, 1.6998, 1.93961, 2.11423, 2.20042, 2.26653, 2.25299, 1.90373, 1.84768, 1.82494, 1.97082, 1.98987, 2.445, 2.3695, 2.32596, 2.23139, 0.00459088, 2.26631, 2.1424, 2.178, 2.16637, 0.00402709, 1.90876, 2.29464, 2.09958, 1.933, 1.96395, 2.13232, 0.00459474, 0.00456159, 1.47048, 1.4135, 1.38256, 1.40688, 1.42588, 1.64322, 1.60332, 1.57213, 1.55212, 1.44146, 1.31202, 1.2474, 1.33695, 1.33143, 1.25292, 1.48684, 0.620949, 0.580559, 0.615059, 0.701588, 0.883903, 0.943297, 0.665013, 0.663771, 0.649777, 0.68421, 0.731581, 0.794963, 0.761262, 0.917029, 0.970125, 0.688849, 0.688442, 0.701352, 0.815604, 0.916668, 0.965472, 0.738904, 0.647018, 0.71841, 0.777067, 0.89497, 0.994225, 0.997496, 0.995426, 0.742493, 0.671511, 0.736272, 0.704315, 0.794333, 0.801011, 0.8289, 0.835972, 0.833996, 0.793387, 0.819259, 0.976582, 0.969329, 0.676518, 0.67803, 0.730656, 0.849416, 0.972941, 0.974473, 1.06447, 1.07062, 1.07031, 0.954839, 0.939431, 1.01196, 0.987406, 1.00893, 0.912829, 0.914138, 1.03113, 1.05995, 1.03969, 1.02531, 0.990602, 1.07555, 1.03648, 1.07035, 1.15061, 1.18174, 0.840238, 0.789947, 0.789931, 0.854246, 0.859132, 0.977592, 1.0459, 0.670166, 0.635425, 0.62859, 0.630129, 0.696621, 0.69709, 0.905734, 0.833915, 0.83899, 0.55285, 0.505777, 0.506406, 0.646973, 0.649137, 0.649424, 0.587248, 0.591278, 0.633714, 0.799793, 0.807435, 0.745448, 0.703781, 0.654925, 0.514776, 0.432601, 0.432468, 0.456219, 0.602082, 0.622481, 0.423958, 0.431983, 0.43912, 0.740525, 0.797746, 0.832925, 0.834645, 0.825674, 0.700321, 0.704121, 0.757168, 0.865602, 0.863972, 0.883561, 0.816686, 0.549196, 0.644931, 0.528144, 0.508617, 0.728524, 0.769876, 0.442508, 0.448457, 0.490494, 0.605042, 0.605125, 0.690414, 0.469737, 0.468203, 0.473613, 0.507356, 0.577154, 0.43217, 0.659805, 0.674053, 0.408986, 0.326061, 0.40764, 0.419222, 0.511723, 0.362529, 0.519818, 0.318233
2.04902, 2.02888, 1.97353, 1.6152, 1.63366, 1.62128, 1.66155, 1.77077, 1.94705, 1.55362, 1.53957, 1.55079, 1.49818, 1.53541, 1.58966, 1.6039, 1.54113, 1.45695, 1.46093, 1.57921, 1.57574, 1.69251, 1.77014, 1.47115, 1.42056, 1.38109, 1.39162, 1.53139, 1.46018, 1.4599, 1.43071, 1.33678, 1.34775, 1.42364, 1.47853, 1.45532, 1.66339, 1.507, 1.54076, 1.59348, 1.72417, 1.6851, 1.99602, 1.83201, 1.87692, 1.73099, 1.72665, 1.75842, 1.84415, 1.92684, 2.16841, 2.24853, 0.00453604, 0.00435197, 1.95536, 1.91444, 1.91005, 2.03629, 2.0089, 2.46893, 0.00453192, 0.00366294, 2.21287, 2.15154, 2.29441, 2.1662, 2.19412, 2.33274, 2.36449, 1.92163, 1.87902, 1.8084, 1.78975, 1.81025, 1.88943, 1.93127, 1.85231, 1.57094, 1.3788, 1.37481, 1.37088, 1.4111, 1.47829, 1.69597, 1.53682, 1.48808, 1.3931, 1.28919, 1.25072, 1.25029, 1.26124, 1.29321, 1.22295, 0.592909, 0.586289, 0.585774, 0.659908, 0.662862, 0.851154, 0.973336, 0.679563, 0.675083, 0.624408, 0.686931, 0.712934, 0.801382, 1.14952, 0.985728, 0.656121, 0.706958, 0.846361, 0.874466, 0.918896, 0.968321, 0.738565, 0.649601, 0.773206, 0.764902, 0.847892, 0.922233, 0.946245, 0.920955, 0.736892, 0.731666, 0.73482, 0.732734, 1.0202, 1.01908, 0.997434, 0.839329, 0.763404, 0.802917, 0.852564, 1.00284, 1.00157, 0.811662, 0.677111, 0.776672, 0.777083, 0.893798, 1.02116, 1.03626, 1.036, 1.03707, 1.00263, 0.988115, 1.00283, 1.03373, 1.04961, 0.981666, 0.915264, 1.1026, 1.32639, 1.3748, 0.992113, 1.09084, 1.14304, 1.14076, 1.14508, 1.11574, 1.09165, 1.08119, 0.79077, 0.791234, 0.876454, 0.929218, 1.00284, 1.05027, 0.704417, 0.638836, 0.566341, 0.631887, 0.69762, 0.697136, 0.919696, 0.835853, 0.833939, 0.505622, 0.508105, 0.505381, 0.544771, 0.662972, 0.740758, 0.548878, 0.550013, 0.727902, 0.688281, 0.781897, 0.725458, 0.722881, 0.724442, 0.48318, 0.461001, 0.434328, 0.458536, 0.45896, 0.595355, 0.426503, 0.428297, 0.557303, 0.738143, 0.775745, 0.776302, 0.616109, 0.720919, 0.718612, 0.723603, 0.75623, 0.840595, 0.843402, 0.837496, 0.77531, 0.597212, 0.564369, 0.674195, 0.708242, 0.511466, 0.511858, 0.549367, 0.444916, 0.445211, 0.604399, 0.605882, 0.659844, 0.367204, 0.369233, 0.370054, 0.524791, 0.431683, 0.434298, 0.670934, 0.766529, 0.422018, 0.327991, 0.330895, 0.553384, 0.580753, 0.57237, 0.31847, 0.320877
2.0015, 2.05054, 1.99573, 1.66223, 1.65785, 1.62097, 1.63096, 1.6823, 1.70815, 1.87498, 1.52382, 1.52946, 1.55911, 1.5396, 1.61265, 1.61308, 1.49337, 1.46224, 1.55046, 1.48907, 1.5997, 1.59995, 1.70536, 1.70946, 1.46397, 1.40332, 1.37205, 1.44519, 1.45968, 1.45944, 1.45438, 1.55713, 1.37169, 1.39921, 1.40396, 1.54051, 1.81395, 1.49599, 1.49571, 1.66806, 1.5959, 1.67098, 1.75745, 1.88538, 1.99968, 1.75105, 1.74099, 1.72963, 1.87733, 1.92979, 2.25535, 2.2044, 2.27327, 2.28214, 1.97922, 1.9695, 1.96888, 1.98606, 2.24298, 2.37342, 2.22693, 0.0049298, 0.00454171, 2.17614, 2.2976, 2.20432, 2.1625, 0.00432162, 2.15735, 1.94918, 1.94517, 1.74801, 1.72707, 1.75709, 2.05929, 1.87576, 1.60948, 1.82655, 1.38513, 1.36698, 1.35229, 1.42441, 1.54818, 1.55561, 1.49912, 1.48225, 1.43794, 1.25484, 1.25381, 1.30206, 1.33666, 1.36686, 1.08786, 0.649775, 0.613854, 0.583351, 0.659966, 0.663852, 0.673383, 0.952861, 0.680797, 0.651462, 0.600356, 0.737773, 0.749573, 0.980997, 0.988358, 0.774608, 0.725221, 0.691411, 0.712173, 0.893071, 0.949279, 0.976656, 1.03709, 0.709198, 0.712189, 0.7647, 0.833163, 0.916057, 0.916804, 0.926308, 0.700318, 0.700861, 0.839091, 0.750792, 0.966024, 1.02238, 1.02615, 0.843412, 0.738858, 0.860798, 0.860473, 0.96653, 0.966626, 0.985155, 0.808583, 0.842208, 0.915865, 0.949389, 0.963678, 1.02997, 1.02041, 1.0225, 1.04301, 0.96965, 1.01961, 1.0388, 1.03661, 1.04446, 1.06776, 1.27626, 1.29494, 1.29939, 0.955829, 0.898789, 1.14183, 1.14733, 1.16511, 1.08351, 1.09722, 1.1583, 0.839204, 0.785068, 0.865875, 0.90639, 1.01217, 0.991215, 0.990362, 0.643807, 0.574046, 0.67655, 0.767479, 0.78492, 0.829588, 0.839348, 0.86745, 0.587992, 0.503725, 0.50405, 0.583837, 0.691168, 0.628383, 0.579522, 0.556789, 0.561985, 0.718259, 0.775312, 0.722521, 0.769803, 0.54563, 0.509385, 0.490965, 0.430404, 0.429197, 0.375821, 0.377538, 0.494538, 0.505502, 0.507883, 0.708999, 0.776747, 0.803829, 0.770736, 0.559591, 0.560038, 0.524613, 0.78067, 0.816726, 0.837284, 0.83821, 0.859629, 0.525752, 0.563162, 0.560504, 0.685458, 0.714571, 0.501662, 0.443884, 0.444731, 0.517506, 0.594955, 0.66588, 0.729086, 0.460959, 0.368879, 0.36977, 0.534888, 0.537688, 0.700424, 0.702807, 0.67715, 0.41815, 0.405992, 0.332577, 0.32983, 0.481565, 0.598311, 0.320937, 0.32185
2.02087, 2.04741, 1.9783, 1.70888, 1.70345, 1.68289, 1.68198, 1.64174, 1.65105, 1.66198, 1.49215, 1.59835, 1.59919, 1.59476, 1.67563, 1.73814, 1.54722, 1.51009, 1.53857, 1.52125, 1.59538, 1.46888, 1.72034, 1.7523, 1.41544, 1.38615, 1.40179, 1.45457, 1.45946, 1.45923, 1.54577, 1.40676, 1.36914, 1.43754, 1.46003, 1.78861, 1.53847, 1.54906, 1.57858, 1.55939, 1.7374, 1.69363, 1.78655, 1.90306, 1.94915, 1.80478, 1.74512, 1.80721, 1.96957, 1.90071, 0.00437324, 2.26266, 2.27464, 0.00394905, 2.25671, 2.06581, 2.09805, 2.10532, 2.1281, 2.25493, 2.22715, 2.22837, 2.27028, 2.32621, 2.20144, 2.12137, 2.12209, 2.28698, 2.1546, 1.94961, 1.94912, 1.72598, 1.67528, 1.68182, 1.75956, 1.62767, 1.80711, 1.77867, 1.39088, 1.33724, 1.3443, 1.43637, 1.44962, 1.5204, 1.56508, 1.5368, 1.29881, 1.24126, 1.24033, 1.23394, 1.16435, 1.15315, 1.04299, 0.662638, 0.638471, 0.588468, 0.670304, 0.786141, 0.847326, 0.971747, 0.68304, 0.609114, 0.611207, 0.691953, 0.756328, 0.970574, 0.983125, 0.770912, 0.698341, 0.696749, 0.768542, 0.846244, 0.876905, 1.00797, 1.00896, 0.680224, 0.726025, 0.741127, 0.807597, 0.836163, 0.991499, 0.882326, 0.703496, 0.766559, 0.773778, 0.775872, 0.902156, 0.998416, 1.0054, 1.03365, 0.746537, 0.74724, 0.862751, 0.96043, 1.08665, 1.07779, 0.715612, 0.849447, 0.847457, 0.931102, 0.980925, 1.02685, 1.00067, 1.00123, 0.981524, 1.00797, 1.06978, 1.0345, 1.01241, 0.99044, 1.30775, 1.30577, 1.256, 1.25284, 0.868438, 0.877922, 0.965872, 1.15426, 1.14605, 1.12696, 1.2259, 1.09633, 0.788997, 0.790304, 0.801953, 0.969442, 1.00848, 1.00363, 1.01594, 0.645925, 0.575078, 0.645536, 0.787185, 0.788252, 0.845486, 0.873191, 0.840081, 0.6775, 0.57775, 0.527992, 0.620084, 0.712234, 0.816076, 0.636512, 0.521711, 0.587565, 0.650189, 0.778546, 0.763447, 0.724286, 0.462191, 0.463197, 0.3909, 0.392765, 0.392721, 0.377703, 0.380218, 0.381093, 0.429617, 0.567461, 0.73551, 0.795647, 0.783468, 0.614897, 0.615595, 0.545382, 0.767109, 0.718809, 0.807761, 0.781918, 0.777111, 0.647662, 0.648851, 0.56039, 0.562266, 0.563518, 0.716171, 0.71743, 0.444893, 0.445565, 0.615507, 0.629456, 0.694726, 0.71138, 0.725391, 0.368811, 0.458583, 0.508144, 0.53917, 0.66944, 0.726942, 0.729169, 0.392101, 0.348218, 0.331664, 0.33157, 0.359463, 0.36103, 0.320234, 0.322421
2.00815, 2.01825, 2.0263, 1.91353, 1.69963, 1.65761, 1.64006, 1.64403, 1.63641, 1.63772, 1.48555, 1.50953, 1.5451, 1.60225, 1.62679, 1.72119, 1.72927, 1.47611, 1.4768, 1.56447, 1.60169, 1.68606, 1.46112, 1.47011, 1.44684, 1.44356, 1.40959, 1.48271, 1.46016, 1.45994, 1.48518, 1.42579, 1.37115, 1.43307, 1.45904, 1.83197, 1.576, 1.52803, 1.52702, 1.6102, 1.72236, 1.74901, 1.78371, 1.97611, 1.86253, 1.83413, 1.86143, 1.86205, 1.85201, 1.94532, 2.19069, 2.10086, 2.09387, 2.07259, 2.09142, 2.21807, 2.09306, 2.1947, 2.1452, 2.24862, 2.36445, 0.0046647, 2.22975, 2.33493, 2.26978, 2.15994, 2.18818, 2.27714, 0.00481972, 0.137739, 1.95766, 1.6598, 1.61807, 1.63072, 1.66502, 1.85352, 1.94221, 1.72958, 1.41117, 1.53418, 1.33658, 1.3877, 1.53145, 1.52633, 1.52742, 1.44091, 1.4099, 1.27443, 1.11949, 1.1014, 1.15439, 1.07882, 1.06964, 1.05708, 0.65077, 0.650535, 0.589465, 0.828625, 0.82761, 0.911253, 0.710969, 0.608736, 0.606882, 0.695279, 0.79951, 0.915103, 0.962726, 0.816416, 0.648301, 0.795302, 0.756356, 0.825341, 0.916216, 0.921929, 0.968205, 0.683474, 0.780049, 0.807804, 0.857257, 0.956514, 0.980833, 0.74813, 0.706344, 0.715555, 0.905122, 0.871685, 0.853387, 1.01691, 1.03898, 0.815365, 0.762827, 0.738323, 0.730137, 0.894515, 1.00131, 1.00908, 0.820781, 0.738281, 0.833329, 0.977859, 0.957999, 1.02194, 1.03041, 1.03961, 0.966243, 1.07773, 1.03348, 0.991467, 0.984119, 1.12886, 1.25743, 1.29254, 1.32834, 0.888634, 0.852892, 0.828398, 0.855482, 1.07407, 1.08719, 1.14328, 1.10218, 1.10809, 0.795613, 0.795105, 0.910917, 0.916434, 0.936739, 0.947662, 0.948481, 0.613837, 0.580192, 0.645208, 0.654759, 0.799735, 0.798979, 0.825389, 0.85966, 0.626661, 0.5838, 0.600887, 0.548437, 0.766502, 0.635712, 0.615851, 0.597421, 0.549084, 0.789688, 0.778039, 0.711791, 0.726207, 0.54929, 0.464073, 0.399213, 0.438527, 0.428707, 0.418391, 0.380004, 0.39621, 0.445559, 0.479325, 0.709404, 0.794794, 0.76095, 0.59509, 0.607839, 0.547652, 0.619748, 0.7604, 0.81056, 0.867942, 0.842094, 0.660329, 0.506995, 0.591141, 0.581181, 0.6428, 0.721575, 0.721637, 0.511766, 0.438998, 0.439253, 0.497171, 0.652536, 0.704388, 0.435927, 0.434814, 0.378722, 0.518995, 0.5465, 0.562914, 0.72804, 0.729354, 0.350347, 0.352802, 0.353842, 0.331357, 0.359981, 0.36238, 0.320421, 0.321959
1.98784, 1.97537, 1.97647, 1.74456, 1.69392, 1.64747, 1.64841, 1.631, 1.63028, 1.56404, 1.49203, 1.53532, 1.5271, 1.56496, 1.70338, 1.74107, 1.56603, 1.52288, 1.46764, 1.55906, 1.60621, 1.91379, 1.89992, 1.6315, 1.46882, 1.39407, 1.43248, 1.45686, 1.46057, 1.45996, 1.53342, 1.41817, 1.44141, 1.42641, 1.61842, 1.85058, 1.6136, 1.56966, 1.68397, 1.70344, 1.70424, 1.72078, 1.88335, 1.87594, 1.86303, 1.86119, 1.84474, 1.90297, 1.97318, 2.04584, 2.19662, 2.10049, 2.09327, 2.40546, 2.33663, 0.00432017, 2.19007, 2.24717, 2.18049, 2.24647, 2.2881, 0.00458668, 2.26539, 2.17517, 2.15422, 2.10814, 2.2325, 0.00394589, 0.00484142, 0.00472221, 1.95788, 1.66792, 1.64096, 1.60575, 1.70734, 1.78945, 1.69627, 1.67135, 1.66936, 1.34515, 1.30192, 1.34191, 1.37435, 1.52821, 1.4463, 1.39848, 1.36779, 1.32728, 1.07414, 1.04702, 1.06781, 1.05601, 1.05682, 1.0417, 0.698175, 0.596955, 0.595455, 0.779156, 0.895747, 0.850162, 0.719086, 0.614097, 0.669882, 0.714389, 0.691966, 0.807564, 0.940309, 0.712439, 0.649952, 0.694453, 0.7573, 0.874025, 0.935393, 0.926526, 0.970923, 0.686753, 0.721285, 0.767243, 0.779033, 0.764858, 0.989041, 0.991834, 0.71026, 0.708909, 0.82446, 0.874465, 0.984377, 1.00399, 1.00468, 0.895234, 0.76273, 0.811883, 0.811924, 0.885643, 1.01431, 1.04521, 0.797944, 0.748448, 0.918552, 0.899573, 0.979152, 1.09929, 1.0499, 1.07118, 1.02349, 1.01793, 1.01465, 0.964826, 1.05458, 1.15304, 1.24483, 1.29974, 1.33258, 0.888202, 0.803482, 0.803952, 0.866761, 0.864656, 0.83844, 0.839653, 0.815753, 1.14554, 0.816386, 0.79746, 0.810688, 0.904461, 0.939071, 0.977349, 0.98622, 0.673818, 0.663198, 0.63243, 0.69372, 0.776959, 0.828215, 0.822081, 0.819137, 0.588264, 0.744076, 0.718791, 0.626335, 0.56034, 0.624841, 0.593438, 0.574298, 0.552627, 0.814122, 0.834576, 0.778177, 0.71779, 0.519199, 0.459145, 0.460044, 0.429296, 0.429033, 0.450199, 0.436406, 0.393439, 0.396398, 0.523433, 0.743247, 0.725737, 0.767167, 0.526028, 0.526006, 0.618156, 0.618457, 0.73556, 0.790123, 0.905606, 0.902294, 0.86788, 0.588689, 0.508972, 0.613977, 0.582681, 0.753731, 0.763287, 0.486929, 0.438057, 0.439323, 0.500105, 0.620005, 0.70476, 0.739963, 0.37933, 0.381097, 0.452206, 0.559538, 0.563766, 0.638802, 0.639274, 0.35318, 0.35595, 0.356261, 0.528619, 0.491255, 0.53292, 0.58606, 0.322044
2.01342, 2.01265, 2.00261, 1.75185, 1.72453, 1.66258, 1.72717, 1.6518, 1.63863, 1.4855, 1.48147, 1.46701, 1.51262, 1.55673, 1.71979, 1.70838, 1.57908, 1.48061, 1.4969, 1.56801, 1.68231, 1.92489, 1.7759, 1.73495, 1.53016, 1.38702, 1.41662, 1.4584, 1.46197, 1.5164, 1.49654, 1.43493, 1.44652, 1.43969, 1.59235, 1.84222, 1.60024, 1.5961, 1.69597, 1.65308, 1.783, 1.78071, 1.78525, 2.0164, 1.89427, 1.89554, 1.96308, 1.96478, 1.93092, 2.14139, 2.3571, 0.00464712, 2.35361, 0.0046461, 2.36541, 2.35784, 2.24264, 2.32581, 2.24966, 2.27247, 2.19303, 2.30799, 2.35904, 2.36745, 2.16308, 2.10997, 2.20368, 2.12155, 0.00412787, 0.00485898, 0.00454222, 1.63675, 1.5914, 1.57335, 1.60249, 1.77267, 1.68114, 1.68548, 1.64427, 1.34678, 1.28764, 1.44102, 1.43921, 1.47481, 1.44328, 1.395, 1.3483, 1.03336, 1.0058, 1.03572, 1.26782, 1.06057, 1.06866, 0.687611, 0.664444, 0.608824, 0.615022, 0.708967, 0.88041, 0.648993, 0.703429, 0.608241, 0.622258, 0.704197, 0.725538, 0.724647, 0.949109, 0.776383, 0.6302, 0.774977, 0.777659, 0.765107, 0.930869, 0.977858, 0.965577, 0.749649, 0.757611, 0.756758, 0.89118, 0.918746, 0.931025, 0.932201, 0.690968, 0.697785, 0.833954, 0.832097, 0.901134, 1.02226, 1.02104, 0.881381, 0.78128, 0.781823, 0.861073, 0.898794, 1.06468, 1.01625, 0.788622, 0.786906, 0.880948, 0.93712, 1.08048, 1.07465, 1.05768, 1.05354, 1.01877, 1.04484, 1.01292, 1.01853, 1.0183, 0.946453, 0.925801, 0.92817, 1.27557, 0.86694, 0.855723, 0.829348, 0.901348, 0.86079, 0.837771, 0.840476, 0.818793, 0.810954, 0.750464, 0.750895, 0.74949, 0.839242, 0.900764, 1.00526, 1.00439, 0.673979, 0.60806, 0.683462, 0.71793, 0.777246, 0.781789, 0.764154, 0.584445, 0.585509, 0.667842, 0.788252, 0.789193, 0.557386, 0.558675, 0.673636, 0.551794, 0.512758, 0.812436, 0.972708, 0.736769, 0.737856, 0.628264, 0.443626, 0.444689, 0.462084, 0.396809, 0.428263, 0.393618, 0.392485, 0.393032, 0.6156, 0.617551, 0.721058, 0.57084, 0.563085, 0.651716, 0.646898, 0.669717, 0.790314, 0.792409, 0.906223, 0.905326, 0.577246, 0.578216, 0.597591, 0.611071, 0.732985, 0.733525, 0.76, 0.491226, 0.492061, 0.418582, 0.513482, 0.621492, 0.686756, 0.687595, 0.379717, 0.383299, 0.383953, 0.509189, 0.526578, 0.636719, 0.407119, 0.351722, 0.353321, 0.353411, 0.512023, 0.501065, 0.53878, 0.486714, 0.586597
2.0792, 2.01398, 1.99509, 1.70668, 1.69741, 1.7063, 1.75186, 1.65509, 1.63758, 1.53007, 1.51055, 1.46929, 1.55451, 1.54077, 1.62786, 1.76166, 1.50577, 1.46921, 1.5281, 1.53339, 1.66674, 1.95647, 1.79901, 1.57811, 1.48872, 1.39488, 1.40123, 1.42356, 1.4774, 1.51576, 1.53374, 1.52616, 1.49121, 1.56701, 1.64025, 1.82368, 2.01295, 1.60964, 1.62345, 1.71135, 1.71391, 1.8134, 1.78903, 2.14901, 1.90847, 2.00455, 1.9629, 1.90619, 2.10187, 2.20406, 0.00460802, 2.40729, 2.32779, 2.37721, 2.32852, 2.32082, 2.2897, 2.29389, 2.33878, 2.3341, 2.21513, 2.18636, 2.1203, 2.29034, 2.1917, 2.08645, 2.16789, 0.0043849, 0.00402485, 0.00399326, 1.89605, 1.56948, 1.54837, 1.58111, 1.59358, 1.67005, 1.74494, 1.68916, 1.59134, 1.32713, 1.33249, 1.34514, 1.36843, 1.41388, 1.36883, 1.36828, 1.34076, 1.06799, 1.19206, 1.07542, 1.32429, 1.26175, 1.13019, 1.11602, 0.711007, 0.618323, 0.620084, 0.620099, 0.8127, 0.82526, 0.719146, 0.608397, 0.783457, 0.700944, 0.751695, 0.825555, 0.952561, 1.07613, 0.648924, 0.736471, 0.756528, 0.812523, 1.00844, 0.973135, 0.700694, 0.704871, 0.694223, 0.743305, 0.855794, 0.934511, 0.994076, 0.992112, 0.78514, 0.69374, 0.886145, 0.925345, 0.953354, 1.02946, 1.05629, 0.873457, 0.866221, 0.835342, 0.882473, 0.914662, 0.953239, 0.95283, 0.785996, 0.752828, 0.780374, 0.936011, 0.94854, 1.07837, 1.05003, 1.05163, 1.01925, 1.02829, 0.99361, 0.960674, 1.01806, 1.15754, 1.20599, 1.24662, 1.31146, 0.887586, 0.867701, 0.850529, 0.88435, 1.01157, 1.20631, 1.20696, 1.19579, 1.17079, 0.83146, 0.75997, 0.971294, 0.929206, 0.935269, 0.901038, 0.897555, 0.641898, 0.608581, 0.600108, 0.649674, 0.726673, 0.722593, 0.720286, 0.766608, 0.580856, 0.652534, 0.787217, 0.78892, 0.556099, 0.617742, 0.575182, 0.582382, 0.497083, 0.808071, 0.874238, 0.873386, 0.739088, 0.409255, 0.409193, 0.470992, 0.463501, 0.46394, 0.421494, 0.399269, 0.392054, 0.392987, 0.4876, 0.721852, 0.694632, 0.69241, 0.690208, 0.595142, 0.625535, 0.678542, 0.796651, 0.796599, 0.83468, 0.928594, 0.578596, 0.497267, 0.556668, 0.639564, 0.639353, 0.733277, 0.734602, 0.524525, 0.525167, 0.420496, 0.462228, 0.522447, 0.693637, 0.703981, 0.521248, 0.383609, 0.465629, 0.459921, 0.531867, 0.54246, 0.436289, 0.410343, 0.3541, 0.474296, 0.488594, 0.486542, 0.625721, 0.588187, 0.363384
2.0201, 2.03857, 2.01704, 1.67841, 1.70418, 1.7967, 1.77597, 1.81494, 1.81252, 1.8103, 1.46588, 1.51487, 1.53948, 1.57577, 1.64471, 1.77228, 1.50626, 1.43845, 1.55354, 1.52628, 1.6169, 1.66829, 1.71258, 1.48236, 1.4559, 1.39498, 1.43036, 1.46859, 1.49367, 1.59683, 1.51282, 1.45444, 1.60955, 1.63349, 1.60009, 1.74095, 2.15228, 1.66886, 1.62964, 1.69332, 1.72721, 1.81994, 1.82079, 2.14095, 1.95328, 1.95178, 1.88698, 1.94892, 1.94976, 2.20373, 0.0044634, 0.00398057, 2.53287, 0.00383763, 0.00472775, 2.40443, 2.29333, 2.35835, 2.34303, 2.33198, 2.34589, 2.3286, 2.34654, 2.13349, 1.9947, 2.02805, 2.03345, 2.01544, 2.0461, 2.02232, 1.92102, 1.5299, 1.48445, 1.49257, 1.63121, 1.72945, 1.71728, 1.63731, 1.58313, 1.35098, 1.34176, 1.34322, 1.36034, 1.37479, 1.3578, 1.43324, 1.01766, 0.971854, 0.976464, 1.01206, 1.22965, 1.1754, 1.27904, 1.20614, 0.733302, 0.626107, 0.627371, 0.687666, 0.776461, 0.770524, 0.606776, 0.606306, 0.779604, 0.703545, 0.888978, 0.889385, 0.890228, 0.612181, 0.611952, 0.743181, 0.724137, 0.824854, 0.890392, 1.0085, 0.701718, 0.694764, 0.755612, 0.743516, 0.727207, 0.750779, 0.950567, 0.998784, 0.703516, 0.70303, 0.844709, 0.813074, 0.902979, 1.03531, 0.764697, 0.783969, 0.835489, 0.850938, 0.829928, 0.933606, 1.00146, 0.897677, 0.898629, 0.834169, 0.833095, 0.923444, 0.995181, 1.02907, 1.05, 1.07723, 1.03236, 0.990625, 0.975146, 0.961021, 1.05532, 1.15361, 1.18565, 1.25351, 1.22614, 0.937936, 0.853987, 0.860299, 0.895132, 1.09131, 1.19873, 1.20301, 1.14108, 1.10648, 0.815089, 0.761409, 0.951448, 0.896395, 0.921995, 0.903707, 0.928716, 0.70173, 0.629444, 0.604656, 0.677303, 0.737571, 0.846679, 0.866881, 0.789988, 0.578804, 0.651492, 0.731108, 0.978256, 0.659341, 0.614752, 0.644364, 0.645518, 0.499092, 0.499363, 0.805195, 0.904029, 0.475347, 0.410566, 0.411682, 0.52134, 0.61456, 0.460924, 0.40821, 0.394959, 0.417628, 0.400298, 0.528144, 0.669881, 0.670917, 0.688931, 0.733387, 0.563841, 0.680451, 0.677861, 0.72456, 0.847618, 0.914744, 0.92145, 0.662409, 0.543384, 0.491942, 0.635433, 0.493748, 0.515724, 0.728903, 0.528349, 0.506955, 0.4223, 0.468703, 0.642945, 0.618723, 0.550143, 0.461926, 0.384126, 0.383482, 0.430829, 0.406918, 0.408206, 0.436388, 0.420344, 0.385803, 0.337029, 0.466174, 0.615619, 0.604189, 0.40355, 0.391304
1.97721, 1.96686, 1.69266, 1.66539, 1.65454, 1.67989, 1.80242, 1.80963, 1.79958, 1.56515, 1.46121, 1.55382, 1.57821, 1.61301, 1.72264, 1.73583, 1.50827, 1.46367, 1.477, 1.491, 1.54589, 1.7276, 1.53366, 1.48913, 1.41293, 1.41137, 1.43744, 1.53394, 1.61469, 1.58104, 1.57869, 1.51251, 1.62894, 1.55993, 1.6238, 1.89658, 1.98026, 1.75846, 1.66127, 1.66217, 1.81726, 1.78054, 1.95549, 2.1371, 1.95916, 1.93585, 2.1082, 1.9553, 0.00420348, 0.00442389, 2.37333, 0.00440925, 0.00513141, 0.00445098, 0.00498847, 2.41457, 2.29207, 2.35584, 2.3536, 2.43559, 2.33902, 2.42667, 2.46048, 1.97942, 2.00436, 2.01275, 2.06988, 1.99031, 1.96892, 1.97369, 1.93174, 1.48979, 1.47169, 1.48385, 1.7127, 1.71588, 1.6415, 1.59656, 1.54128, 1.38402, 1.31054, 1.32529, 1.36111, 1.34544, 1.51756, 1.32456, 0.981834, 0.995302, 0.959603, 1.01616, 1.23236, 1.35162, 1.1502, 1.23999, 0.735339, 0.626908, 0.614972, 0.717566, 0.80039, 0.793626, 0.610697, 0.621611, 0.659726, 0.79132, 0.859789, 0.891705, 0.980978, 0.981793, 0.703043, 0.74701, 0.720159, 0.697789, 0.7404, 0.732136, 0.70755, 0.778042, 0.756883, 0.757345, 0.840522, 0.961127, 0.959576, 0.919585, 0.790094, 0.769912, 0.794337, 0.861158, 0.904871, 0.921055, 0.727588, 0.727617, 0.818546, 0.865322, 0.817479, 0.889228, 0.920262, 0.92517, 0.843168, 0.814652, 0.821173, 0.878208, 1.06075, 1.02903, 1.14528, 1.05652, 1.06923, 1.06361, 0.96651, 0.993586, 1.01034, 1.14565, 1.16416, 1.16359, 1.1935, 0.911105, 0.839082, 0.937234, 0.944332, 1.19227, 1.14689, 1.14781, 1.25624, 1.18165, 0.791582, 0.804326, 0.791198, 0.899599, 0.907681, 0.93588, 0.963141, 0.677537, 0.703664, 0.631905, 0.751005, 0.742555, 0.808329, 0.78657, 0.771851, 0.632807, 0.670165, 0.727117, 0.939081, 0.98155, 0.621534, 0.644418, 0.645352, 0.498797, 0.493637, 0.494409, 0.556507, 0.51339, 0.486267, 0.500068, 0.417272, 0.427875, 0.428157, 0.428189, 0.393805, 0.420731, 0.420461, 0.52803, 0.683812, 0.674205, 0.754855, 0.748996, 0.568121, 0.571085, 0.697992, 0.840704, 0.844071, 0.884208, 0.857059, 0.598312, 0.576022, 0.580471, 0.639552, 0.497538, 0.520456, 0.728254, 0.483243, 0.487733, 0.415085, 0.46233, 0.552491, 0.627999, 0.531579, 0.528099, 0.43521, 0.433825, 0.431331, 0.406832, 0.407666, 0.559249, 0.448108, 0.350408, 0.455888, 0.476412, 0.478454, 0.593665, 0.501229, 0.329195
1.96478, 1.94506, 1.71029, 1.59405, 1.59502, 1.65114, 1.69043, 1.79157, 1.7074, 1.55128, 1.46889, 1.49036, 1.54368, 1.52933, 1.53079, 1.53396, 1.50504, 1.52326, 1.47484, 1.52761, 1.51606, 1.52511, 1.57432, 1.59134, 1.48152, 1.44069, 1.49317, 1.53707, 1.54673, 1.54869, 1.54058, 1.55754, 1.50404, 1.67266, 1.78891, 1.85298, 1.86258, 2.06991, 1.78581, 1.81424, 1.82779, 1.83005, 1.83089, 2.12981, 2.00639, 2.06031, 2.02766, 2.05302, 2.24197, 2.29891, 2.4673, 2.39741, 2.398, 2.44182, 0.00393891, 2.44097, 2.30078, 2.41575, 0.00461603, 2.33901, 2.36273, 0.00400724, 0.0042853, 1.89764, 1.89656, 1.94208, 0.0045157, 1.94871, 1.96157, 1.87478, 1.56244, 1.49273, 1.64638, 1.47213, 1.64398, 1.88119, 1.6059, 1.56746, 1.51662, 1.49628, 1.26209, 1.31627, 1.34429, 1.3412, 1.31646, 1.27223, 0.955909, 0.913064, 0.947029, 0.96971, 1.09574, 1.10239, 1.10223, 1.05215, 0.741784, 0.621887, 0.620394, 0.718817, 0.898284, 0.677376, 0.607115, 0.604112, 0.674228, 0.73631, 0.808174, 0.919373, 0.981059, 0.877507, 0.676943, 0.655044, 0.724726, 0.700682, 0.743008, 0.742878, 0.715264, 0.703624, 0.780458, 0.835818, 0.888141, 0.998314, 1.01324, 1.02243, 0.779197, 0.726328, 0.777336, 0.873578, 0.937849, 0.953361, 0.983796, 0.778171, 0.769597, 0.850741, 0.874743, 0.897436, 0.987991, 0.891762, 0.881646, 0.84768, 0.852566, 0.839566, 1.01798, 1.03212, 1.12617, 1.13551, 1.0628, 0.966152, 0.93345, 0.949426, 1.05392, 1.13871, 1.13907, 1.20184, 1.23743, 0.902245, 0.869695, 1.03985, 0.945793, 1.14097, 1.1367, 1.18486, 1.24739, 1.14994, 1.12227, 0.740698, 0.860555, 0.801323, 0.910685, 1.00509, 0.947075, 0.707019, 0.68096, 0.673901, 0.74613, 0.74186, 0.716409, 0.868086, 0.595388, 0.599705, 0.627667, 0.938677, 0.940435, 1.16002, 0.87034, 0.64259, 0.581163, 0.562244, 0.610898, 0.610568, 0.557087, 0.55903, 0.528724, 0.412115, 0.413512, 0.562678, 0.430313, 0.42757, 0.38361, 0.382559, 0.404715, 0.39276, 0.673235, 0.738953, 0.747354, 0.74991, 0.648881, 0.629533, 0.729665, 0.787425, 0.852003, 0.884935, 0.856244, 0.628765, 0.595319, 0.508207, 0.546213, 0.66342, 0.669287, 0.638951, 0.640958, 0.42184, 0.417691, 0.456912, 0.583797, 0.622029, 0.739668, 0.46748, 0.436125, 0.435934, 0.43976, 0.514859, 0.536225, 0.537954, 0.49125, 0.493522, 0.456988, 0.482231, 0.481335, 0.480104, 0.597726, 0.270339
2.03671, 2.03949, 1.69235, 1.64153, 1.61726, 1.67163, 1.74657, 1.5504, 1.77973, 1.82363, 1.47079, 1.47214, 1.51837, 1.63113, 1.71733, 1.69411, 1.7024, 1.50229, 1.47168, 1.62113, 1.52829, 1.59187, 1.71762, 1.62498, 1.63127, 1.46759, 1.43208, 1.52801, 1.566, 1.58225, 1.57426, 1.5647, 1.59156, 1.58831, 1.73107, 1.97205, 1.94482, 2.01169, 1.75598, 1.74396, 1.74296, 1.85475, 2.21275, 2.09419, 2.04736, 2.05536, 2.03136, 2.04785, 2.23969, 2.32077, 0.0049837, 2.4984, 0.0046918, 2.40496, 2.53301, 2.33871, 2.33124, 2.38701, 2.36104, 0.0522668, 2.40207, 2.40787, 0.00442685, 1.84187, 1.83802, 1.89309, 2.20418, 1.99954, 1.94816, 1.81343, 1.83095, 1.45371, 1.6486, 1.58783, 1.6309, 1.64655, 1.61841, 1.55732, 1.52645, 1.49349, 1.28378, 1.27143, 1.32454, 1.12841, 1.14278, 1.12148, 0.924256, 0.901614, 0.963045, 0.963192, 1.09984, 1.10092, 1.15367, 1.16445, 0.697835, 0.619154, 0.644687, 0.846577, 0.86649, 0.663487, 0.67792, 0.606263, 0.676256, 0.759498, 0.790455, 0.912757, 0.86947, 0.676295, 0.586851, 0.68648, 0.735636, 0.834989, 0.930337, 1.00649, 0.7379, 0.750414, 0.763101, 0.852455, 0.852724, 0.987776, 1.0879, 1.03668, 0.794499, 0.730275, 0.762975, 0.770091, 0.860657, 0.950431, 0.935258, 0.936107, 0.758959, 0.759954, 0.894404, 0.885002, 1.03575, 0.881203, 0.930426, 0.948391, 0.918669, 0.90445, 1.01842, 1.09293, 1.0677, 1.1233, 1.15715, 0.972313, 0.931434, 0.918433, 1.03161, 1.09416, 1.09425, 1.20091, 1.23107, 1.23004, 0.842926, 0.784687, 0.00423841, 1.10762, 1.17632, 1.19963, 1.20533, 1.15513, 0.735163, 0.679162, 0.7213, 0.801595, 1.02192, 0.943166, 0.919341, 0.732424, 0.652185, 0.650786, 0.736929, 0.812025, 0.723455, 0.884868, 0.888581, 0.596848, 0.596841, 0.973452, 0.967432, 0.895346, 0.793445, 0.79171, 0.582481, 0.587413, 0.609599, 0.791939, 0.548119, 0.795866, 0.536504, 0.505402, 0.431346, 0.473814, 0.48796, 0.389238, 0.382743, 0.384266, 0.425772, 0.411829, 0.71195, 0.719355, 0.759477, 0.781381, 0.782947, 0.581194, 0.717925, 0.790617, 0.814978, 0.90359, 0.893354, 0.917328, 0.581291, 0.566026, 0.576549, 0.646703, 0.639194, 0.714048, 0.715049, 0.418523, 0.418952, 0.531933, 0.582833, 0.64938, 0.735614, 0.491236, 0.351574, 0.359213, 0.452405, 0.550308, 0.541655, 0.600718, 0.432283, 0.300922, 0.337614, 0.351572, 0.332204, 0.329522, 0.330455, 0.361504
1.99628, 2.00566, 1.65793, 1.57892, 1.58487, 1.59072, 1.594, 1.75666, 1.75874, 1.76313, 1.50339, 1.52639, 1.52592, 1.52775, 1.62379, 1.77632, 1.64872, 1.52837, 1.53126, 1.50941, 1.53357, 1.65223, 1.67289, 1.59179, 1.51438, 1.48958, 1.41585, 1.51287, 1.69311, 1.74513, 1.56165, 1.61086, 1.62366, 1.7018, 1.74495, 2.04946, 1.89246, 2.07205, 1.79116, 1.76862, 1.76274, 1.81269, 1.97327, 2.24979, 0.00424371, 2.16775, 2.09418, 2.15208, 2.18249, 2.35862, 2.46365, 2.51657, 2.41816, 0.00413458, 2.39427, 2.43571, 2.32988, 2.33209, 2.48806, 2.38715, 2.36598, 2.36744, 0.00437888, 1.80701, 1.78025, 1.82489, 1.88186, 2.08906, 1.86224, 1.81059, 1.82169, 1.4128, 1.37969, 1.42547, 1.58209, 1.63603, 1.61704, 1.5367, 1.50081, 1.12184, 1.16631, 1.1497, 1.33131, 1.25467, 1.24126, 1.20251, 0.976703, 0.915014, 0.962809, 1.01605, 1.06867, 1.20194, 1.14967, 1.2057, 0.658095, 0.636333, 0.66733, 0.668734, 0.889828, 0.68463, 0.600331, 0.629947, 0.696186, 0.736516, 0.811652, 0.900591, 0.918825, 0.639361, 0.643129, 0.648951, 0.765028, 0.831209, 0.901111, 0.945747, 0.731743, 0.735691, 0.735608, 0.764283, 0.887522, 0.988461, 1.0339, 1.02769, 0.717745, 0.721922, 0.77085, 0.835589, 0.969809, 1.03305, 1.00891, 0.849538, 0.762904, 0.765683, 0.91348, 0.935364, 1.01143, 0.842535, 0.841665, 0.883117, 0.987786, 0.916729, 1.00883, 1.07109, 1.06854, 1.1052, 1.06243, 0.959901, 0.922836, 0.885608, 0.983212, 1.08774, 1.09436, 1.16083, 1.14098, 1.03399, 0.826237, 0.7598, 0.771918, 1.11962, 1.22286, 1.1892, 1.19199, 1.11196, 1.09943, 0.701806, 0.691611, 0.900708, 0.905101, 1.01927, 1.0173, 0.721887, 0.726583, 0.777248, 0.725069, 0.909748, 0.87622, 0.877622, 0.59463, 0.595261, 0.835917, 0.798831, 0.968729, 0.851714, 0.815835, 0.763163, 0.681091, 0.571077, 0.742704, 0.562109, 0.563368, 0.544869, 0.543651, 0.52441, 0.432908, 0.469019, 0.401763, 0.39007, 0.382632, 0.377096, 0.426638, 0.408029, 0.484699, 0.726184, 0.790964, 0.791292, 0.789988, 0.651161, 0.576194, 0.701049, 0.878306, 0.87503, 0.84929, 0.901611, 0.573918, 0.604238, 0.60759, 0.715763, 0.675538, 0.695451, 0.446148, 0.388922, 0.418164, 0.448451, 0.578276, 0.652219, 0.697682, 0.514202, 0.359605, 0.40442, 0.452992, 0.540522, 0.522172, 0.548976, 0.529497, 0.305156, 0.304868, 0.352412, 0.331832, 0.330539, 0.330331, 0.352375
1.97661, 1.98653, 1.65104, 1.59071, 1.63064, 1.6382, 1.74815, 1.72775, 1.73273, 1.50365, 1.4617, 1.56642, 1.56074, 1.57869, 1.76595, 1.76229, 1.78178, 1.45, 1.45764, 1.55773, 1.5257, 1.53838, 1.53876, 1.61335, 1.49239, 1.47555, 1.58313, 1.76449, 1.72447, 1.64515, 1.57389, 1.74505, 1.68986, 1.80241, 1.79843, 2.07184, 1.93458, 1.91333, 1.8389, 1.79946, 1.87978, 1.83694, 2.03, 2.25781, 0.00439104, 2.50904, 2.06573, 2.06707, 2.14725, 0.00394578, 0.00383952, 2.51693, 2.41961, 2.42144, 2.50808, 2.36633, 2.348, 2.3322, 2.36808, 2.36977, 2.36664, 2.36579, 1.80771, 1.77831, 1.75867, 1.78983, 1.86121, 2.00266, 1.95238, 1.80733, 1.76542, 1.39553, 1.38248, 1.55116, 1.55272, 1.61587, 1.67124, 1.50713, 1.50598, 1.11125, 1.06563, 1.12166, 1.30967, 1.24761, 1.25005, 1.22929, 0.936397, 0.947813, 1.02512, 1.03313, 1.10557, 1.17437, 1.1237, 0.698979, 0.669497, 0.690696, 0.623245, 0.640181, 0.703781, 0.930179, 0.667207, 0.612822, 0.671049, 0.701733, 0.799343, 0.916546, 0.970934, 0.639327, 0.600054, 0.663971, 0.767357, 0.853846, 0.989022, 1.03872, 1.05052, 0.745197, 0.715615, 0.780675, 0.886963, 0.982096, 0.975904, 1.02862, 0.717858, 0.71375, 0.81164, 0.862849, 0.991876, 1.00935, 1.05167, 0.866855, 0.769287, 0.769433, 0.86984, 0.914575, 1.01888, 0.877584, 0.839383, 0.961314, 1.07359, 1.07393, 0.98696, 1.0571, 1.039, 1.08875, 1.00465, 1.00913, 0.887144, 0.888553, 0.895272, 0.922293, 1.0959, 1.13348, 1.12446, 1.12717, 0.752553, 0.790471, 0.746033, 0.974204, 1.12111, 1.17167, 1.15623, 1.12268, 0.717186, 0.652734, 0.660199, 0.787012, 0.936345, 1.02215, 1.01866, 0.701127, 0.728416, 0.652387, 0.732875, 0.880531, 0.861937, 0.871596, 0.60769, 0.690734, 0.692744, 0.755197, 0.842073, 0.802612, 0.732573, 0.735442, 0.61079, 0.573742, 0.61188, 0.565424, 0.566217, 0.546197, 0.546599, 0.463509, 0.524307, 0.449093, 0.384532, 0.388484, 0.376924, 0.379443, 0.477714, 0.541716, 0.548487, 0.730237, 0.803345, 0.800214, 0.821622, 0.811919, 0.578594, 0.670329, 0.87745, 0.880432, 0.910657, 0.904651, 0.597986, 0.567109, 0.677355, 0.638363, 0.68135, 0.691627, 0.394782, 0.396656, 0.421177, 0.480796, 0.58734, 0.626162, 0.627982, 0.438077, 0.448965, 0.435957, 0.370769, 0.458652, 0.529092, 0.504249, 0.303641, 0.306979, 0.31946, 0.443046, 0.479601, 0.51277, 0.408353, 0.277637
1.92595, 2.00365, 1.64162, 1.60597, 1.5654, 1.60856, 1.78229, 1.77024, 1.67589, 1.46767, 1.48997, 1.49044, 1.59296, 1.61116, 1.70578, 1.77728, 1.51317, 1.50891, 1.55915, 1.53325, 1.53992, 1.73035, 1.66537, 1.51618, 1.53619, 1.43291, 1.56659, 1.54252, 1.83689, 1.65549, 1.5683, 1.56925, 1.59992, 1.72951, 1.78268, 2.06032, 2.3772, 1.95624, 1.92374, 1.85525, 1.86772, 1.9721, 2.06712, 2.04216, 2.46596, 2.11404, 2.06397, 2.12618, 2.16068, 2.33294, 0.00382966, 0.00448965, 2.41932, 0.00443721, 2.41162, 2.3745, 2.36452, 2.37091, 2.37009, 2.37038, 2.37126, 2.37007, 1.78931, 1.74317, 1.72685, 1.75408, 1.79998, 1.82236, 1.86824, 1.82295, 1.72769, 1.3768, 1.38467, 1.44325, 1.44766, 1.53828, 1.60386, 1.49251, 1.46487, 1.0713, 1.00692, 1.13943, 1.25407, 1.27294, 1.27219, 1.2083, 0.842903, 0.907827, 0.994252, 1.00287, 1.09958, 1.0525, 1.06431, 0.728037, 0.631245, 0.62769, 0.610279, 0.773577, 0.707263, 0.6661, 0.715576, 0.647397, 0.616092, 0.768396, 0.915281, 0.902183, 0.970191, 0.748987, 0.601261, 0.715822, 0.714595, 0.843714, 0.952702, 0.998371, 0.720721, 0.720896, 0.760507, 0.826581, 0.901338, 0.984629, 1.01716, 0.797015, 0.785879, 0.784949, 0.861207, 1.0027, 0.994369, 0.991303, 1.04737, 0.915049, 0.802634, 0.773458, 0.847636, 0.925143, 0.911377, 0.950881, 0.873352, 0.936969, 1.12016, 1.0671, 0.990071, 0.97401, 0.999424, 0.992951, 1.09538, 1.16158, 0.897021, 0.841807, 0.884946, 0.923151, 0.902827, 0.890957, 0.872115, 1.01807, 0.753057, 0.715162, 0.766748, 0.763685, 1.14755, 1.14294, 1.09569, 1.09721, 1.07616, 0.592647, 0.747241, 0.760035, 0.897683, 0.919635, 0.925091, 0.865019, 0.681886, 0.656956, 0.628696, 0.56201, 0.884466, 0.644398, 0.563632, 0.615369, 0.676127, 0.821371, 0.834224, 0.832335, 0.68006, 0.599706, 0.611776, 0.649123, 0.541583, 0.571727, 0.616108, 0.660898, 0.589025, 0.465517, 0.467024, 0.3844, 0.38661, 0.385147, 0.424705, 0.438945, 0.494141, 0.44471, 0.624324, 0.524766, 0.526564, 0.811675, 0.855356, 0.653361, 0.687514, 0.698463, 0.853324, 0.878026, 0.843265, 0.818534, 0.603773, 0.569919, 0.638472, 0.652845, 0.681583, 0.691867, 0.432663, 0.399282, 0.400497, 0.507267, 0.504478, 0.64181, 0.630021, 0.635092, 0.448841, 0.462558, 0.370641, 0.445673, 0.517862, 0.424481, 0.425427, 0.321451, 0.322909, 0.323653, 0.456392, 0.45831, 0.481595, 0.259551
1.96962, 1.94414, 1.64737, 1.56486, 1.56447, 1.67842, 1.69018, 1.7796, 1.52003, 1.5133, 1.50382, 1.52312, 1.62354, 1.59536, 1.66024, 1.74532, 1.53829, 1.44954, 1.46983, 1.56679, 1.65296, 1.64309, 1.62118, 1.50762, 1.49659, 1.48534, 1.49633, 1.51568, 1.83386, 1.78592, 1.57072, 1.57394, 1.75625, 1.69043, 1.72887, 2.07188, 0.00454621, 2.00184, 1.9537, 1.95117, 1.87739, 1.88076, 1.95442, 1.99513, 2.13651, 2.12263, 2.07303, 2.11914, 2.27779, 2.30285, 2.36662, 2.37913, 0.00526919, 2.61178, 0.00461204, 2.37228, 2.37964, 2.46657, 2.37065, 2.37055, 2.3876, 0.00457273, 1.79893, 1.73745, 1.72583, 1.80264, 1.81109, 1.81255, 1.79771, 1.81312, 1.8221, 1.3755, 1.37249, 1.4503, 1.56404, 1.53683, 1.58945, 1.471, 1.0367, 1.0125, 1.00872, 1.09094, 1.155, 1.27359, 1.28832, 0.915414, 0.832685, 0.933017, 0.939546, 0.979881, 1.02591, 1.03934, 1.27884, 0.592112, 0.632497, 0.628545, 0.756771, 0.877869, 0.915395, 0.963686, 0.707828, 0.704928, 0.741637, 0.741912, 0.963012, 1.03255, 0.974879, 0.957434, 0.719362, 0.716771, 0.715587, 0.70821, 0.929187, 0.935953, 0.774652, 0.67873, 0.705813, 0.814996, 0.854446, 0.784782, 0.793174, 0.792669, 0.737041, 0.737893, 0.939188, 0.987614, 0.956184, 1.02202, 1.08135, 1.03366, 0.909738, 0.844688, 0.83683, 0.881557, 0.936641, 0.928381, 0.873607, 0.943629, 0.960287, 1.14029, 1.00944, 0.954544, 0.975902, 1.02748, 1.05372, 1.16673, 0.88771, 0.841726, 0.946713, 0.98506, 1.21177, 1.07503, 1.05978, 1.05314, 0.684213, 0.767726, 0.725938, 0.792615, 1.00178, 1.05496, 1.07687, 1.04006, 0.674809, 0.670048, 0.600782, 0.74232, 0.911948, 0.912844, 0.894436, 0.901147, 0.664606, 0.663743, 0.614961, 0.616129, 0.841161, 0.555945, 0.645453, 0.568882, 0.692034, 0.774077, 0.764009, 0.757257, 0.681144, 0.61088, 0.556341, 0.596505, 0.54429, 0.706067, 0.687351, 0.685007, 0.451873, 0.487165, 0.528716, 0.572983, 0.456597, 0.451613, 0.483948, 0.418715, 0.494277, 0.571296, 0.73591, 0.72827, 0.528412, 0.512516, 0.84679, 0.628809, 0.735488, 0.753497, 0.860326, 0.865285, 0.8457, 0.835968, 0.569382, 0.604258, 0.60639, 0.655647, 0.637257, 0.639759, 0.435163, 0.39973, 0.402714, 0.548915, 0.583941, 0.642272, 0.45126, 0.63246, 0.442275, 0.375569, 0.377181, 0.447854, 0.481364, 0.424181, 0.426726, 0.320522, 0.32298, 0.506153, 0.70613, 0.506, 0.484613, 0.261962
1.86945, 1.92048, 1.74705, 1.62924, 1.61771, 1.62082, 1.68032, 1.84227, 1.81739, 1.51962, 1.4499, 1.44897, 1.53325, 1.57442, 1.6543, 1.76779, 1.54147, 1.49727, 1.49007, 1.56471, 1.63193, 1.88633, 1.59672, 1.54271, 1.46486, 1.43126, 1.4725, 1.58217, 1.8095, 1.70567, 1.60728, 1.57365, 1.57342, 1.65202, 0.00426907, 2.07724, 2.1239, 2.0452, 2.12091, 1.93928, 2.031, 2.02838, 1.96216, 2.00203, 2.1315, 2.12742, 2.07454, 2.22436, 2.27638, 2.31731, 2.38013, 2.37999, 2.58421, 2.41587, 0.00459448, 2.36958, 1.91316, 2.09099, 0.00374687, 0.00429458, 0.00436625, 2.38305, 1.75947, 1.71287, 1.71477, 1.73931, 1.75361, 1.83563, 1.86425, 1.81372, 1.39473, 1.3402, 1.28587, 1.35059, 1.40173, 1.49604, 1.52657, 1.41494, 1.01977, 0.994797, 0.994948, 1.13084, 1.13098, 1.27757, 1.27487, 0.854284, 0.808388, 0.863781, 0.919878, 0.977369, 0.981115, 1.11905, 1.17403, 0.622789, 0.783488, 0.629893, 0.656985, 0.842216, 0.946182, 0.948706, 0.701074, 0.700884, 0.743627, 0.800049, 0.800366, 0.977731, 0.971592, 1.00668, 0.729708, 0.690644, 0.753545, 0.756911, 0.992062, 0.953283, 0.757482, 0.681641, 0.747633, 0.749027, 0.884462, 0.91179, 0.962401, 0.963123, 0.736392, 0.737028, 0.92177, 0.979162, 1.01216, 1.00218, 1.03916, 0.988407, 0.895331, 0.892326, 0.899091, 0.884585, 0.91233, 0.914193, 0.867554, 0.939211, 1.19523, 1.14589, 1.0048, 0.967381, 0.987863, 1.06422, 1.12959, 1.1313, 1.10472, 0.840141, 0.840093, 0.842975, 0.989724, 1.05092, 1.06143, 1.05236, 0.648627, 0.648769, 0.712911, 0.897874, 0.989212, 1.00172, 1.00253, 1.00219, 0.604473, 0.616571, 0.742216, 0.690311, 0.868517, 0.96118, 0.969646, 0.885613, 0.659534, 0.60062, 0.588371, 0.672867, 0.671153, 0.555626, 0.556051, 0.64734, 0.693915, 0.739397, 0.721403, 0.722482, 0.587828, 0.555085, 0.597108, 0.598102, 0.632513, 0.707116, 0.716682, 0.85906, 0.453889, 0.454742, 0.535018, 0.574495, 0.574718, 0.458427, 0.454198, 0.441576, 0.44311, 0.605139, 0.645284, 0.730192, 0.705253, 0.5042, 0.828747, 0.629011, 0.756288, 0.767901, 0.797656, 0.818387, 0.821667, 0.805038, 0.608832, 0.573509, 0.504104, 0.676767, 0.669421, 0.640119, 0.483922, 0.408998, 0.389487, 0.503374, 0.549579, 0.444596, 0.445384, 0.524541, 0.444917, 0.452714, 0.381348, 0.497775, 0.549838, 0.547425, 0.563826, 0.358633, 0.30618, 0.308748, 0.370445, 0.338053, 0.261546, 0.247729
1.82816, 1.93684, 1.74874, 1.54072, 1.56566, 1.66462, 1.66045, 1.79444, 1.78991, 1.47966, 1.44812, 1.48826, 1.54002, 1.63855, 1.62741, 1.65524, 1.506, 1.45037, 1.44619, 1.58557, 1.5343, 1.89563, 1.55397, 1.48924, 1.4259, 1.42387, 1.50237, 1.6385, 1.71872, 1.8926, 1.67949, 1.59033, 1.65742, 1.71381, 1.96178, 2.09636, 2.0678, 2.41209, 2.23726, 2.20076, 1.99613, 2.03356, 2.03143, 2.10887, 2.26681, 2.14499, 2.1329, 2.21334, 2.311, 2.3261, 2.37618, 2.39964, 2.3858, 2.38814, 2.44596, 1.88673, 1.87345, 1.98308, 2.23003, 0.00462739, 2.37245, 0.00393272, 2.09594, 1.70064, 1.68144, 1.72503, 1.74409, 1.84903, 1.82661, 1.90143, 1.36183, 1.33052, 1.26062, 1.28983, 1.38678, 1.47006, 1.49713, 1.02369, 1.02953, 0.926775, 0.977076, 1.09691, 1.18213, 1.25287, 1.2531, 0.901271, 0.860312, 0.853735, 0.86343, 0.995213, 0.985065, 1.12249, 1.20218, 0.852247, 0.773227, 0.714835, 0.658977, 0.660551, 0.953887, 0.947794, 0.704058, 0.792393, 0.777745, 0.778041, 0.82493, 0.949296, 0.948145, 0.977381, 0.773721, 0.729579, 0.714411, 0.819644, 0.99603, 0.970676, 0.740835, 0.685399, 0.687291, 0.793498, 0.805883, 0.909466, 0.972397, 0.76968, 0.773158, 0.790434, 0.867955, 0.949896, 1.01976, 1.00797, 1.08756, 1.0589, 0.980507, 0.922419, 0.863793, 0.870357, 0.971628, 0.904703, 0.858572, 0.895883, 1.18382, 1.18341, 0.974849, 0.984273, 1.00498, 1.08109, 1.11893, 1.11961, 1.10803, 0.787657, 0.762308, 0.853525, 0.954473, 1.01558, 1.0048, 1.0081, 0.6779, 0.648214, 0.681646, 0.721318, 0.95005, 1.00459, 0.996952, 1.00595, 0.513504, 0.518683, 0.647439, 0.649909, 0.870507, 0.889421, 0.866505, 0.865974, 0.65283, 0.625291, 0.530984, 0.53204, 0.591208, 0.572495, 0.588131, 0.605197, 0.665456, 0.745505, 0.722651, 0.72109, 0.593614, 0.560281, 0.551651, 0.601023, 0.688235, 0.704382, 0.717078, 0.76409, 0.453536, 0.455015, 0.513153, 0.560581, 0.563155, 0.473777, 0.446046, 0.443376, 0.444916, 0.445272, 0.663016, 0.809824, 0.724743, 0.725395, 0.619455, 0.632652, 0.728309, 0.746761, 0.812147, 0.810529, 0.811345, 0.832674, 0.607775, 0.525197, 0.531157, 0.628211, 0.732109, 0.74581, 0.456295, 0.394014, 0.389116, 0.487714, 0.552504, 0.444388, 0.570746, 0.525283, 0.43435, 0.439819, 0.382742, 0.555635, 0.541647, 0.532507, 0.549586, 0.53503, 0.306685, 0.310769, 0.311172, 0.353923, 0.352206, 0.262736
1.87621, 1.95463, 1.60442, 1.54358, 1.56534, 1.58349, 1.64587, 1.80969, 1.53381, 1.46888, 1.45768, 1.49606, 1.54661, 1.52569, 1.53739, 1.65958, 1.56549, 1.46425, 1.45154, 1.61868, 1.58041, 1.5861, 1.51535, 1.49167, 1.47121, 1.47893, 1.6275, 1.62819, 1.84418, 1.8474, 1.63037, 1.63058, 1.69519, 1.69706, 1.86248, 0.00510639, 0.0048228, 0.00478354, 0.00421417, 2.12441, 2.04466, 2.03636, 2.074, 2.26329, 2.3007, 2.16142, 2.15638, 2.15573, 2.30874, 2.33034, 0.00497795, 2.38186, 2.37677, 2.47654, 2.41206, 1.85469, 1.82966, 1.87333, 1.96328, 2.16959, 2.10683, 2.10825, 2.05329, 1.66126, 1.62548, 1.63819, 1.72489, 1.853, 1.83369, 1.84765, 1.62422, 1.25691, 1.24445, 1.40348, 1.33028, 1.36579, 1.36783, 1.33558, 0.933544, 0.94939, 0.983181, 1.0827, 1.25836, 1.38889, 1.32948, 0.87984, 0.869315, 0.819114, 0.853487, 0.957667, 1.15164, 1.22132, 1.20255, 0.863412, 0.771332, 0.726178, 0.822058, 0.687055, 0.677941, 0.980578, 0.704343, 0.646912, 0.732906, 0.779237, 0.810696, 0.949261, 0.939714, 0.95373, 0.696982, 0.705333, 0.715859, 0.810283, 0.916642, 0.970992, 0.755713, 0.694133, 0.68996, 0.687519, 0.912093, 0.787153, 0.793531, 0.796457, 0.758869, 0.77031, 0.894519, 0.833396, 1.07046, 1.07393, 1.0846, 1.10109, 1.02698, 0.929872, 0.906211, 0.890033, 0.894001, 0.963631, 0.912537, 0.915092, 0.950167, 1.22331, 1.24065, 0.953288, 0.930305, 1.03081, 1.10811, 1.1332, 1.15767, 0.746109, 0.784445, 0.779956, 1.01863, 1.01372, 0.989949, 0.95568, 0.650019, 0.653103, 0.729087, 0.734496, 0.890097, 1.00906, 0.976405, 0.520787, 0.518601, 0.560686, 0.576418, 0.579676, 0.740451, 0.734875, 0.810308, 0.832895, 0.627424, 0.630542, 0.53303, 0.583451, 0.521871, 0.52526, 0.669149, 0.66419, 0.657476, 0.761974, 0.757639, 0.76548, 0.611994, 0.573945, 0.573953, 0.688094, 0.665572, 0.759783, 0.709376, 0.712239, 0.563269, 0.578555, 0.515443, 0.495715, 0.564138, 0.445271, 0.390887, 0.40601, 0.445369, 0.445517, 0.73957, 0.698001, 0.734311, 0.745855, 0.5732, 0.541521, 0.748313, 0.747969, 0.735221, 0.813532, 0.883521, 0.884321, 0.78316, 0.586466, 0.531923, 0.566658, 0.732501, 0.731933, 0.462878, 0.372201, 0.373052, 0.49128, 0.528825, 0.710352, 0.573351, 0.435104, 0.424794, 0.434375, 0.380914, 0.552519, 0.554776, 0.556005, 0.656903, 0.505712, 0.376184, 0.311147, 0.354608, 0.354382, 0.354735, 0.261596
1.83817, 1.92802, 1.61031, 1.5294, 1.52867, 1.5645, 1.71046, 1.81265, 1.81424, 1.53225, 1.47223, 1.51077, 1.51448, 1.51387, 1.53733, 1.58186, 1.70295, 1.55813, 1.46151, 1.4604, 1.49038, 1.53118, 1.51476, 1.51292, 1.48519, 1.46184, 1.66538, 1.77917, 1.88712, 1.93188, 1.76635, 1.665, 1.66537, 1.73133, 1.86515, 2.0696, 2.09484, 2.42221, 2.3647, 2.31644, 2.287, 2.10074, 2.07445, 2.13696, 2.30824, 2.15808, 2.11752, 2.11798, 0.00430268, 0.00450013, 0.00461047, 0.00425681, 0.00466741, 0.00448666, 2.38324, 1.82074, 1.78333, 1.8173, 1.96861, 1.94288, 2.07656, 2.11795, 1.9909, 1.67271, 1.62308, 1.6508, 1.70819, 1.73061, 1.83366, 1.85623, 1.61412, 1.264, 1.22286, 1.24805, 1.31666, 1.45797, 1.43347, 1.3496, 0.995735, 0.961444, 0.970238, 1.09867, 1.09436, 1.21991, 1.20013, 0.915586, 0.867526, 0.822124, 0.874748, 0.958739, 1.15321, 1.16051, 1.1781, 1.1127, 0.723015, 0.72259, 0.788481, 0.887016, 0.676405, 0.673432, 0.648784, 0.648754, 0.782889, 0.783917, 0.752079, 0.964862, 0.909676, 0.904781, 0.693321, 0.697458, 0.777454, 0.815425, 0.816484, 1.00133, 1.00127, 0.703577, 0.811528, 0.818985, 0.947158, 1.0181, 1.01833, 0.795554, 0.776751, 0.760976, 0.933246, 0.968385, 1.06731, 1.15512, 1.11192, 1.10604, 0.974705, 1.00488, 0.901721, 0.864314, 0.894404, 0.894177, 0.89571, 1.00628, 1.01463, 1.15999, 0.927303, 0.930713, 0.935374, 0.980361, 1.0636, 1.06732, 1.09268, 0.737069, 0.750501, 0.800893, 0.862427, 0.862874, 0.912894, 0.600263, 0.526325, 0.655658, 0.738121, 0.74413, 0.870278, 0.966358, 0.978554, 0.591209, 0.524655, 0.553034, 0.635338, 0.628738, 0.72172, 0.739625, 0.746026, 0.658404, 0.672368, 0.722222, 0.729979, 0.626031, 0.608353, 0.527302, 0.551543, 0.616293, 0.756714, 0.755092, 0.870412, 0.58385, 0.593132, 0.53577, 0.574478, 0.688012, 0.651878, 0.794055, 0.778036, 0.779348, 0.446925, 0.478875, 0.47755, 0.441707, 0.440181, 0.370317, 0.370426, 0.369544, 0.43291, 0.632927, 0.639307, 0.756351, 0.791802, 0.859523, 0.580539, 0.523466, 0.523806, 0.731305, 0.732091, 0.823682, 0.823179, 0.818097, 0.721656, 0.687519, 0.571157, 0.572359, 0.513019, 0.513125, 0.517774, 0.41436, 0.53443, 0.525283, 0.524347, 0.678491, 0.685912, 0.731648, 0.434427, 0.362486, 0.445965, 0.49076, 0.558186, 0.558391, 0.408253, 0.400467, 0.355696, 0.397701, 0.454302, 0.456497, 0.416946, 0.255722
1.96313, 1.89975, 1.6112, 1.6057, 1.52938, 1.60966, 1.72643, 1.80273, 1.79887, 1.86672, 1.52343, 1.48842, 1.52427, 1.56615, 1.62726, 1.61999, 1.69368, 1.51021, 1.47174, 1.46482, 1.49403, 1.51768, 1.58347, 1.57467, 1.49512, 1.4983, 1.55509, 1.61067, 1.86799, 1.98232, 1.81991, 1.69312, 1.83746, 1.83516, 1.8154, 1.76787, 0.00447516, 2.27957, 2.30547, 2.32436, 2.21465, 2.21063, 2.14928, 2.09708, 2.20578, 2.25284, 2.17121, 2.15513, 2.16664, 2.04461, 0.00411149, 2.16943, 0.00430261, 0.00407756, 1.90572, 1.76867, 1.75879, 1.77468, 1.84874, 2.13933, 2.05872, 2.03258, 1.98178, 1.66814, 1.65251, 1.63042, 1.65583, 1.73504, 1.72095, 1.65221, 1.56214, 1.28145, 1.2124, 1.28552, 1.35995, 1.40466, 1.40716, 1.3269, 1.00199, 0.908512, 1.10823, 1.09977, 1.1945, 1.19931, 1.35186, 0.92862, 0.934746, 0.850893, 0.907987, 0.891616, 1.18544, 1.16784, 1.165, 1.14469, 0.694549, 0.787343, 0.851696, 0.868384, 0.894104, 0.880942, 0.670321, 0.670607, 0.720984, 0.795165, 0.809308, 0.941913, 0.977038, 0.977184, 0.706246, 0.718563, 0.792014, 0.814444, 0.89497, 0.918396, 0.692478, 0.70543, 0.746886, 0.902442, 0.903991, 1.01, 1.00108, 0.740624, 0.740078, 0.77782, 0.969752, 0.970174, 1.06717, 1.16018, 1.12703, 1.14432, 1.01643, 1.01768, 0.949817, 0.866442, 0.857632, 0.889529, 0.926897, 0.946044, 1.15879, 1.15759, 0.940855, 0.935822, 0.880668, 0.987332, 1.08691, 1.09104, 1.06198, 0.709908, 0.688402, 0.795507, 0.901912, 0.90698, 0.868039, 0.597825, 0.529542, 0.583853, 0.566311, 0.69328, 0.878027, 0.956965, 0.921599, 0.918804, 0.563257, 0.542669, 0.508779, 0.632174, 0.707372, 0.826499, 0.826942, 0.660457, 0.664404, 0.728998, 0.715186, 0.620033, 0.607788, 0.507318, 0.582795, 0.625181, 0.7782, 0.795184, 0.797062, 0.832279, 0.555979, 0.556522, 0.608242, 0.656769, 0.683877, 0.745387, 0.752197, 0.722161, 0.496233, 0.46526, 0.441773, 0.442926, 0.434881, 0.372253, 0.370752, 0.37232, 0.392295, 0.631476, 0.639514, 0.798638, 0.797003, 0.760169, 0.613199, 0.638578, 0.528664, 0.727378, 0.777514, 0.807861, 0.80921, 0.818992, 0.723865, 0.728867, 0.504569, 0.506701, 0.514731, 0.516975, 0.469075, 0.468996, 0.427622, 0.475561, 0.527347, 0.611552, 0.701439, 0.652498, 0.380533, 0.382027, 0.397355, 0.498502, 0.525983, 0.603478, 0.623948, 0.362523, 0.341714, 0.338853, 0.408003, 0.467606, 0.435051, 0.256072
1.84034, 1.90036, 1.67148, 1.54023, 1.55454, 1.62873, 1.6298, 1.79162, 1.79598, 1.79821, 1.53678, 1.49182, 1.55668, 1.55836, 1.68917, 1.70074, 1.72407, 1.50267, 1.43848, 1.48168, 1.50633, 1.64229, 1.72394, 1.58682, 1.55003, 1.48176, 1.60868, 1.59327, 1.85468, 1.88245, 0.00467585, 1.74124, 1.72692, 1.76781, 1.80751, 1.80943, 2.34564, 2.32829, 0.00448306, 0.00442617, 2.22077, 2.27213, 2.11499, 2.11745, 2.19042, 2.12154, 2.12276, 2.12094, 2.05659, 1.98821, 2.15184, 2.04601, 0.00432757, 1.94095, 1.96312, 1.73714, 1.73807, 1.75593, 1.78952, 2.00771, 2.05879, 1.95136, 1.81022, 1.77258, 1.69886, 1.63438, 1.65126, 1.67597, 1.6726, 1.66098, 1.5565, 1.19224, 1.14288, 1.21731, 1.29773, 1.42379, 1.40152, 1.32739, 1.01879, 0.940915, 1.01473, 1.01465, 1.22902, 1.12665, 1.32534, 0.922498, 0.928554, 0.840674, 0.919134, 0.906498, 0.905639, 1.14401, 1.15764, 1.17799, 0.838093, 0.766256, 0.836057, 0.904855, 0.919233, 0.900925, 0.671073, 0.679793, 0.688962, 0.850173, 0.99238, 0.949143, 1.01391, 0.680524, 0.680855, 0.659676, 0.762927, 0.765328, 0.891931, 1.00336, 0.693771, 0.693021, 0.762563, 0.83199, 0.843133, 0.997592, 0.779776, 0.780489, 0.700545, 0.698442, 0.878697, 1.00255, 1.05922, 1.10214, 1.09651, 1.09155, 1.03556, 1.01968, 0.944097, 0.85371, 0.854086, 1.04274, 1.09624, 1.2337, 1.23391, 1.12106, 0.949869, 0.913632, 0.847597, 0.905284, 1.00366, 1.04977, 1.04668, 0.686296, 0.695991, 0.665502, 0.677513, 0.683471, 0.662594, 0.662784, 0.514994, 0.587424, 0.624124, 0.671363, 0.891776, 0.894428, 0.898084, 0.850557, 0.573568, 0.52397, 0.533334, 0.521277, 0.691859, 0.780213, 0.824837, 0.628524, 0.662493, 0.730775, 0.718152, 0.783263, 0.598205, 0.503111, 0.50262, 0.578891, 0.724801, 0.797177, 0.798246, 0.542377, 0.501149, 0.51851, 0.552508, 0.590226, 0.591128, 0.752606, 0.71195, 0.756748, 0.44296, 0.46024, 0.396046, 0.653387, 0.414647, 0.372849, 0.37286, 0.370273, 0.453864, 0.600956, 0.657852, 0.792967, 0.790488, 0.728125, 0.631738, 0.622659, 0.685936, 0.530235, 0.804919, 0.779166, 0.875678, 0.751419, 0.798735, 0.591192, 0.554909, 0.584205, 0.610408, 0.657764, 0.658028, 0.48764, 0.407187, 0.446158, 0.541852, 0.642094, 0.63522, 0.65219, 0.383131, 0.384421, 0.517355, 0.401994, 0.400414, 0.53515, 0.469675, 0.460363, 0.339425, 0.344479, 0.477392, 0.444591, 0.528754, 0.325624
1.8333, 1.93256, 1.60693, 1.55572, 1.55772, 1.59323, 1.65018, 1.79272, 1.82459, 1.54701, 1.49125, 1.48522, 1.51779, 1.56456, 1.61679, 1.72933, 1.76565, 1.5125, 1.43248, 1.4975, 1.51636, 1.52784, 1.59974, 1.56744, 1.53734, 1.54764, 1.53014, 1.73743, 1.82641, 2.12877, 2.18331, 1.79345, 1.9081, 1.90773, 1.86274, 2.2245, 2.36478, 2.39938, 2.41895, 0.00412281, 2.33604, 2.33329, 2.19725, 2.12864, 2.13401, 2.12071, 2.12119, 2.12061, 2.0278, 1.91037, 2.00708, 2.14498, 1.98971, 2.00056, 1.90648, 1.72108, 1.70991, 1.74694, 1.76976, 1.91979, 2.00837, 0.00431647, 1.7587, 1.77189, 1.71614, 1.61432, 1.61555, 1.63802, 1.73606, 1.58791, 1.53125, 1.22614, 1.152, 1.1887, 1.23617, 1.30489, 1.38541, 1.39588, 0.95397, 0.918177, 1.04686, 1.05695, 1.20483, 1.32972, 1.17838, 1.17173, 0.926114, 0.888578, 0.983651, 0.992114, 1.07466, 0.865542, 0.833584, 0.832805, 0.80974, 0.727903, 0.851715, 0.88071, 0.928032, 0.911786, 0.668797, 0.669353, 0.728163, 0.880199, 0.96325, 0.986019, 1.04757, 1.02317, 0.681355, 0.686457, 0.749727, 0.859013, 1.03118, 0.729802, 0.749089, 0.694066, 0.855796, 0.793877, 0.736804, 0.738055, 0.952834, 0.736159, 0.732637, 0.713048, 0.768633, 1.01944, 1.05696, 1.04943, 1.10186, 1.07404, 1.07051, 1.01553, 0.998512, 0.893682, 0.854903, 1.01439, 1.16668, 1.17639, 1.24271, 1.14313, 0.897884, 0.845312, 0.846269, 0.946574, 0.954103, 1.00212, 0.61225, 0.690765, 0.696623, 0.666171, 0.680446, 0.863395, 0.881277, 0.588076, 0.605793, 0.554255, 0.660844, 0.74708, 0.801976, 0.859935, 0.856827, 0.873818, 0.62211, 0.542071, 0.501723, 0.501433, 0.552415, 0.705511, 0.63139, 0.607567, 0.646192, 0.668543, 0.716121, 0.718645, 0.552802, 0.503941, 0.569654, 0.590342, 0.58059, 0.782854, 0.783888, 0.532565, 0.531216, 0.521099, 0.59501, 0.565915, 0.610445, 0.694509, 0.70809, 0.643767, 0.452779, 0.456594, 0.456856, 0.663559, 0.444227, 0.431659, 0.406095, 0.404678, 0.366372, 0.547671, 0.604999, 0.729163, 0.800111, 0.662562, 0.580855, 0.5972, 0.662981, 0.549055, 0.549973, 0.816344, 0.843066, 0.843089, 0.639383, 0.545769, 0.550937, 0.584726, 0.610981, 0.673746, 0.668683, 0.490456, 0.491778, 0.448242, 0.614535, 0.615522, 0.710889, 0.418655, 0.382936, 0.384183, 0.487199, 0.482944, 0.396085, 0.396797, 0.387129, 0.345098, 0.339681, 0.344147, 0.373502, 0.443817, 0.434619, 0.259852
1.90729, 2.00121, 1.64754, 1.57347, 1.61397, 1.6034, 1.76196, 1.75043, 1.83063, 1.54098, 1.55761, 1.53355, 1.53583, 1.59516, 1.62156, 1.73214, 1.74752, 1.48126, 1.46057, 1.5963, 1.50987, 1.51609, 1.77631, 1.58648, 1.55898, 1.74312, 1.68593, 1.7309, 1.88933, 1.94497, 2.16364, 1.80988, 1.90696, 1.90146, 1.87054, 2.27599, 2.48802, 2.45002, 2.21929, 2.22233, 2.43169, 2.39807, 2.25058, 2.17438, 2.15784, 2.17399, 2.17516, 2.17339, 1.99445, 1.8389, 1.85174, 1.86814, 1.88511, 1.94557, 1.94449, 1.76096, 1.32717, 1.34918, 1.71595, 1.74245, 1.76972, 1.77605, 1.7707, 1.67105, 1.64595, 1.65519, 1.58837, 1.59089, 1.69731, 1.65877, 1.53303, 1.13887, 1.1222, 1.23015, 1.25057, 1.32483, 1.32267, 1.30883, 0.987562, 0.919009, 1.06359, 1.07193, 1.16376, 1.28223, 1.30679, 1.20239, 1.00807, 0.946511, 0.95431, 1.002, 1.15021, 1.13989, 0.842945, 1.14961, 0.782156, 0.737409, 0.778735, 0.857331, 0.953147, 0.944466, 0.668102, 0.66835, 0.680928, 0.759706, 0.902171, 0.984225, 0.94943, 0.73524, 0.690016, 0.674698, 0.750632, 0.741972, 0.738996, 1.01617, 0.674283, 0.673407, 0.782668, 0.858012, 0.865806, 0.977987, 0.984414, 0.686991, 0.688281, 0.772949, 0.861414, 1.01493, 1.01565, 1.06316, 1.06345, 1.06761, 1.07905, 0.990807, 1.0405, 0.921978, 0.86373, 0.898586, 1.1802, 1.23313, 1.18248, 1.13613, 0.89397, 0.843928, 0.940606, 0.987914, 0.928322, 0.959252, 0.66301, 0.661111, 0.630108, 0.689451, 0.781996, 0.818049, 0.809599, 0.616027, 0.549632, 0.593732, 0.634636, 0.721833, 0.781021, 0.855022, 0.832154, 0.904268, 0.906614, 0.581328, 0.504327, 0.506069, 0.594659, 0.541591, 0.528713, 0.526566, 0.601393, 0.672529, 0.686682, 0.749589, 0.75403, 0.538025, 0.504365, 0.577062, 0.576922, 0.783612, 0.769913, 0.77353, 0.542279, 0.446684, 0.539577, 0.56713, 0.653415, 0.748429, 0.746393, 0.748317, 0.493181, 0.42565, 0.393908, 0.353166, 0.354983, 0.38042, 0.356334, 0.401063, 0.432298, 0.551489, 0.62481, 0.76841, 0.645197, 0.839461, 0.649766, 0.555123, 0.635759, 0.713869, 0.54456, 0.54663, 0.881551, 0.848491, 0.642788, 0.514934, 0.442032, 0.443602, 0.522529, 0.7026, 0.668683, 0.493207, 0.493653, 0.549011, 0.624948, 0.657187, 0.677809, 0.619719, 0.37695, 0.379555, 0.483921, 0.489184, 0.396791, 0.386624, 0.383422, 0.347554, 0.348699, 0.343021, 0.445399, 0.445632, 0.339012, 0.269015
1.91417, 1.98924, 1.56861, 1.52528, 1.57602, 1.65286, 1.74711, 1.77606, 1.80253, 1.93203, 1.59976, 1.49831, 1.63166, 1.62512, 1.60551, 1.75997, 1.54742, 1.45563, 1.45589, 1.79622, 1.51689, 1.5901, 1.56918, 1.5723, 1.57246, 1.55535, 1.7271, 1.75902, 1.85068, 2.18421, 2.00381, 1.9514, 1.79093, 1.96671, 1.88721, 0.00465427, 2.25887, 0.947511, 2.22031, 2.22049, 0.0042929, 2.35037, 0.00446951, 2.24183, 2.16639, 2.14606, 2.14271, 2.25742, 1.82169, 1.80035, 1.82113, 1.85545, 1.8579, 1.92387, 1.93134, 1.32909, 1.25735, 1.36742, 1.73042, 1.70718, 1.7063, 1.77009, 1.92033, 1.56635, 1.51265, 1.52819, 1.5643, 1.55478, 1.59514, 1.68601, 1.15688, 1.09678, 1.12914, 1.25371, 1.25991, 1.364, 1.48137, 1.35218, 0.96747, 0.93643, 1.02964, 1.08893, 1.25713, 1.33949, 1.31665, 1.32032, 1.01545, 0.978791, 0.976038, 1.09269, 1.093, 1.14319, 0.865071, 0.842684, 0.772123, 0.781743, 0.853031, 0.889341, 0.980786, 0.886998, 0.672492, 0.683433, 0.81108, 0.81982, 0.925721, 0.966982, 0.954102, 0.822847, 0.677343, 0.678076, 0.729833, 0.795923, 0.937001, 1.01392, 0.67306, 0.729221, 0.787587, 0.887622, 0.915399, 1.03151, 1.02554, 0.782948, 0.693899, 0.766191, 1.02046, 1.02796, 1.09115, 1.16524, 1.13751, 1.09389, 1.11288, 1.04632, 1.0453, 0.845214, 0.845312, 0.924078, 1.18559, 1.27244, 1.32348, 1.12083, 0.870071, 0.848862, 0.802926, 0.990818, 0.970404, 0.971406, 0.642596, 0.64459, 0.594225, 0.630005, 0.852579, 0.820495, 1.02952, 0.926396, 0.553195, 0.625701, 0.604522, 0.707662, 0.769683, 0.770603, 0.906599, 0.894641, 0.910916, 0.543007, 0.468291, 0.468442, 0.545644, 0.545598, 0.569888, 0.560221, 0.576145, 0.673632, 0.702197, 0.751431, 0.812588, 0.531617, 0.480274, 0.557439, 0.535763, 0.745395, 0.805326, 0.777194, 0.525299, 0.450782, 0.566871, 0.624092, 0.670132, 0.728725, 0.749887, 0.750887, 0.46309, 0.399174, 0.400109, 0.356936, 0.358379, 0.342794, 0.343117, 0.343908, 0.458791, 0.530688, 0.641201, 0.639317, 0.704809, 0.670831, 0.672181, 0.538444, 0.638531, 0.696689, 0.766175, 0.726146, 0.541148, 0.840321, 0.744088, 0.516847, 0.446209, 0.448175, 0.54525, 0.461543, 0.578762, 0.577968, 0.510587, 0.597509, 0.575939, 0.716997, 0.776497, 0.431062, 0.380001, 0.381642, 0.509371, 0.567257, 0.568626, 0.625598, 0.37238, 0.352007, 0.354331, 0.366051, 0.33155, 0.501087, 0.321023, 0.346051
1.90343, 1.93196, 1.63435, 1.5662, 1.59083, 1.66132, 1.6873, 1.76091, 1.87549, 1.8585, 1.62104, 1.5814, 1.56161, 1.63422, 1.64412, 1.64793, 1.54671, 1.45493, 1.45617, 1.50336, 1.53718, 1.61023, 1.61219, 1.63235, 1.60892, 1.59661, 1.59344, 1.79697, 2.03915, 2.14145, 2.03731, 2.07887, 1.80981, 1.79848, 1.87951, 2.10953, 0.00456773, 0.00420588, 2.49159, 0.0042765, 0.00434858, 2.3379, 2.29823, 0.00468793, 0.00468648, 2.13354, 2.11536, 2.06217, 1.85372, 1.51992, 1.4813, 1.51998, 1.56495, 1.94878, 1.73337, 1.26073, 1.22651, 1.28905, 1.33332, 1.64839, 1.67453, 1.67666, 1.60187, 1.60964, 1.58894, 1.47969, 1.54343, 1.53121, 1.57573, 1.5651, 1.14594, 1.10521, 1.13577, 1.26191, 1.32756, 1.39848, 1.36381, 1.08656, 0.984895, 0.974277, 1.08892, 1.09968, 1.25404, 1.34525, 1.33987, 1.31641, 1.02003, 1.0046, 0.997649, 1.02858, 1.1535, 0.91161, 1.12027, 0.846332, 0.852271, 0.79919, 0.78392, 0.915467, 1.02151, 0.889995, 0.673533, 0.719148, 0.811022, 0.822997, 0.903539, 0.957204, 0.947624, 0.736483, 0.808565, 0.726499, 0.746284, 0.855949, 0.976458, 1.01241, 0.752761, 0.749816, 0.74798, 0.852948, 0.886319, 1.05257, 0.948177, 0.795668, 0.762351, 0.769559, 0.802673, 1.11906, 1.09459, 1.11173, 1.11739, 1.19817, 1.10164, 1.04891, 1.08432, 0.882254, 0.894715, 0.889964, 1.10712, 1.20653, 1.20897, 1.16463, 0.781865, 0.798712, 0.794534, 0.815631, 0.971145, 0.977812, 0.639552, 0.594282, 0.59507, 0.631429, 0.650411, 0.652223, 0.852899, 0.928022, 0.608572, 0.610761, 0.58276, 0.670705, 0.759441, 0.828752, 0.780519, 0.76968, 0.818174, 0.590392, 0.468768, 0.469641, 0.46886, 0.609736, 0.618549, 0.593304, 0.572803, 0.617577, 0.568112, 0.781771, 0.50177, 0.501138, 0.503564, 0.631529, 0.663283, 0.670838, 0.715047, 0.81154, 0.445527, 0.44617, 0.589895, 0.587405, 0.617507, 0.657212, 0.686385, 0.687351, 0.477647, 0.403281, 0.403497, 0.402995, 0.381203, 0.391575, 0.382758, 0.384775, 0.435355, 0.499646, 0.642342, 0.643035, 0.709168, 0.733037, 0.542266, 0.52608, 0.583657, 0.658508, 0.80177, 0.779757, 0.780536, 0.721649, 0.781138, 0.529553, 0.474309, 0.537265, 0.62109, 0.622738, 0.62386, 0.45209, 0.528985, 0.528569, 0.577039, 0.687807, 0.7785, 0.693991, 0.484368, 0.518614, 0.537117, 0.527716, 0.610608, 0.501032, 0.553142, 0.411257, 0.355827, 0.339516, 0.338742, 0.310039, 0.311477, 0.272131
1.82878, 1.61881, 1.62004, 1.55689, 1.55817, 1.64801, 1.65731, 1.76909, 1.93377, 1.85272, 1.58138, 1.5369, 1.63164, 1.59916, 1.66196, 1.80985, 1.53118, 1.51626, 1.47161, 1.54627, 1.80901, 1.75558, 1.83059, 1.78466, 1.64159, 1.60918, 1.64651, 1.74777, 2.08831, 2.13863, 2.23064, 2.09266, 1.83531, 1.82859, 1.90403, 2.10039, 2.16553, 0.00445753, 0.00405411, 0.0043849, 2.22563, 2.197, 2.17978, 0.00476618, 0.00413968, 2.09438, 2.16005, 1.96258, 1.46402, 1.4081, 1.34089, 1.52599, 1.52453, 1.54209, 0.00463654, 1.17387, 1.13522, 1.22303, 1.29389, 1.31765, 1.5908, 1.71204, 1.58537, 1.63382, 1.5096, 1.47163, 1.3473, 1.33789, 1.38554, 1.36171, 1.15034, 1.06046, 1.14093, 1.26671, 1.34025, 1.33415, 1.35754, 1.03958, 1.01381, 0.970552, 1.09087, 1.13954, 1.2445, 1.24114, 1.28242, 1.24077, 1.02575, 0.959763, 1.01476, 0.942515, 0.920042, 1.15979, 1.26729, 1.08646, 1.03358, 0.804909, 0.750737, 0.87033, 0.828294, 0.687338, 0.688181, 0.687542, 0.78382, 0.84318, 0.894484, 0.987578, 1.0498, 0.824135, 0.824305, 0.743105, 0.813009, 0.823941, 0.994371, 1.06234, 0.698033, 0.696554, 0.740013, 0.854943, 1.00911, 1.00914, 1.03755, 0.832888, 0.842857, 0.872289, 1.01525, 1.10819, 1.1395, 1.1067, 1.10814, 1.11238, 1.09546, 1.07148, 1.03626, 0.93174, 0.943963, 0.945216, 1.15768, 1.15801, 0.844033, 0.815194, 0.813455, 0.751151, 0.770362, 0.776684, 0.855848, 0.875393, 0.632921, 0.593278, 0.594016, 0.706344, 0.717225, 0.755575, 0.756378, 0.639507, 0.572575, 0.511051, 0.589141, 0.670337, 0.739157, 0.827751, 0.825969, 0.781035, 0.870218, 0.572445, 0.51756, 0.460728, 0.556732, 0.562677, 0.527976, 0.529682, 0.683558, 0.642188, 0.756818, 0.658588, 0.769756, 0.502372, 0.479631, 0.520671, 0.633219, 0.677712, 0.809144, 0.811132, 0.44572, 0.447947, 0.559543, 0.560469, 0.566819, 0.713126, 0.656119, 0.679727, 0.507838, 0.408854, 0.432394, 0.443171, 0.458564, 0.384443, 0.386628, 0.359969, 0.366332, 0.366412, 0.494347, 0.661286, 0.773913, 0.749118, 0.590803, 0.525728, 0.525257, 0.641285, 0.722618, 0.780191, 0.783338, 0.546584, 0.545426, 0.531812, 0.528311, 0.579989, 0.581905, 0.621885, 0.623388, 0.459525, 0.501025, 0.571777, 0.684138, 0.687326, 0.688516, 0.759591, 0.3892, 0.505997, 0.49703, 0.543252, 0.641997, 0.562671, 0.563664, 0.390486, 0.35527, 0.417674, 0.344681, 0.38595, 0.309741, 0.322376
