0.963193068860389,0.965104711528809,0.799298434334916,0.00372835000030768,0.0784297774491203,0.00345770000026079,0.24670736391573,0.988576152423192,0.99072147576838,0.992422532363511,0.993457389886991,0.993751055469514,0.515676447571062,0.00350545000020984,0.0798118819293747,0.00348385000021005,0.877025971616355,1.01343721101039,1.01608017794588,1.01786264582715,1.01846319878671,1.01903677491336,0.557360443095035,0.00329166000088434,0.0298501476861604,0.00322046000073444,0.0273186497192172,0.00329962000060665,0.0273806934004079,0.00325080000079516,0.0300137346515316,0.00351682000090266,0.955873465974602,1.0486430816905,1.04836841041583,1.04916152823442,1.04962256444665,1.05072710502444,1.05174774778923,1.05395723040478,1.05529354760577,1.05836746447006,1.05922408125551,1.06209869853847,1.06267064564527,1.06501281536607,1.06616376574091,1.07178486619279,1.07414146222859,1.08058587857777,1.08007503582395,1.08269903836321,1.08240978232012,1.08927058184521,0.982219823682396,1.09357000000005,0.800758052292201,1.09731761162038,1.09980738474445,1.10357285133816,1.10487145484566,1.10693168282423,1.10707749207274,1.1077731045617,1.10995409213897,1.11203430335793,1.11323686843097,1.11421510938962,1.11625367373094,0.00340817000021078,1.12552357125441,1.12719985131555,1.12829678661616,1.13006031596613,1.13085340231639,1.13234292756365,1.13224737928942,1.13787626884061,1.13741426485978,1.13949925029568,1.14011201563238,1.14254341597878,1.14338278911818,1.14553188834573,1.14608425622917,1.15430844855688,1.15398279261139,1.15906008516305,1.1603018897691,1.1606526264439,1.16216163451918,1.16365045833262,0.151583307029485,0.00290821269507778,0.00199993163082093,0.00286110882471345,0.244114611312826,1.18215675348928,1.18478593555088,1.18608622645408,1.18864872583926,1.19054988874483,1.19247656998914,1.19438877865078,1.19591410278533,1.19784934196737,1.19940417500004,1.20180865151359,1.20271143916,1.20486785948487,1.20527025612685,1.20691009610681,1.20686801074673,1.20771716803509,1.20762933813942,1.20608810962301,1.2176480248004,1.21941244093569,1.22072799256381,1.22370642977441,1.22272217392367,1.22473045806411,1.22391644231041,1.22496789385909,1.23025432054911,1.2318550549338,1.23611674556817,1.23469730201049,1.24127428712506,1.2448863947298,1.24522450221216,1.2460183074534,1.24805564966946,1.24816012587804,1.25432608712515,1.25661645165121,1.25816580077139,1.2594833133023,1.26163842740639,1.26354177190721,1.26457194056047,1.26522478341493,1.26819553127892,1.27054349113042,1.27187120485014,1.2728862497712,1.27561013103842,1.27920107817826,1.27915947253629,1.28104126844035,1.2812270790393,1.28199060144423,1.28084701199154,1.28154345860918,1.28085709620533,1.28151203374911,1.28160366630851,1.28238639738996,1.28346536032946,1.2933778972711,1.29208798094163,1.29712541914775,1.29590138809116,1.30019527507308,1.29878801819814,1.30628246327383,1.30503558781855,1.30680309059599,1.31050836252026,1.31586374821476,1.31642400826903,1.32017198567962
0.963067823324276,0.96445801700254,0.799594972034617,0.0784368345919774,0.114801892367284,0.150872103956738,0.245789163722849,0.243660651046531,0.242252278057909,0.258981331106309,0.289252557051283,0.323395454758623,0.51622182912713,0.516241166571406,0.516439326217333,0.516613800615209,0.877065351040248,0.915146305075426,0.915336446445818,0.913095511134216,0.911360194535293,0.910413558344512,0.557773644269387,0.0298476586068017,0.0295097020604245,0.0285970936866602,0.0277297698957144,0.0275777292390682,0.0277878794326239,0.0287051468145004,0.0296589397048835,0.0300109547445617,0.955873465974724,1.04728526509844,1.04740705409501,1.04820134362419,1.04889444943883,1.05028597105835,1.05105829241807,1.05321148712569,1.05504851663911,1.058526245137,1.05970385069749,1.06270348963933,1.06246229005258,1.06325992882667,1.06396323099554,1.07573061292323,1.07704113748057,1.0793772532928,1.08076694040358,1.08245928270911,0.799676667326207,0.799905851756366,0.800219849051613,0.800419211979267,0.800363870784815,1.10059847559891,1.10208724343742,1.104017825584,1.10561678981765,1.10708278029283,1.10839920337799,1.10977474319786,1.11184019443586,1.11303432041966,1.11505115287146,1.11608159499472,1.11948873715633,1.12430902445016,1.12693957599396,1.1289897768439,1.13047426914923,1.13185145698885,1.13270408667989,1.13364860040629,0.442347495299852,0.44293810749106,0.443927586910556,0.444955507276889,0.445608130971474,0.445604832096426,0.444952802723324,0.443941303190178,0.442978916578533,0.442409374459081,0.992298306137846,1.16156690530712,1.16243925730931,1.16200991201764,0.985707723703937,0.151583307029485,0.113671734002972,0.00195775832354872,0.000647696952026607,0.00191933493373593,0.212677674262507,1.18512697788081,1.18694690738622,1.18828618477757,1.19030361859365,1.1917596460907,1.1937213665791,1.19517016341301,1.19738154875671,1.19916176195048,1.20099309983346,1.20251199250269,1.20423592629016,1.20574817698217,1.2068540395934,1.20777994120883,1.20878879058424,1.20976416078354,1.21150284030335,1.21493532880683,1.21808154185248,1.22047565578933,1.22217276479623,1.22345477525975,1.22302684220426,1.22267994949594,1.22432920895595,1.22729463317568,1.2347448601507,1.23925667994817,1.24164065052746,1.24113535272824,1.24341180429735,1.24539563347436,1.24653050104986,1.24788356378353,1.24987727807727,1.25225685512077,1.25511729909241,1.25752046718326,1.25915084534959,1.26089763483529,1.26331137534076,1.26492053006652,1.26676353199429,1.26839992836377,1.27042856106781,1.2727073779623,1.27418007975353,1.27596963250258,1.2775026585466,1.27941480597512,1.28051864590812,1.28297235422881,1.28363459773548,1.2826252942594,0.393154141017104,0.394625980351493,0.394880534213029,0.395387730252965,0.39601043927291,0.396467498651614,0.396540508196957,0.396273083464213,0.395910419778955,0.395551160058341,0.394470935237799,0.391885035214397,1.25805906413558,1.3049378667046,1.30591703610427,1.30532071272967,1.31683890453402,1.31810172086487,1.31979442853559,1.3218654468388
0.963100342088237,0.965436199832978,0.799771015820225,0.0034824000002612,0.152195891429679,0.979778000000047,0.246825811239432,0.00293687137130778,0.00199714197056219,0.00302460935525462,0.0792410141849359,0.00328915000022413,0.517058588185896,1.00298088465462,1.00505916440125,1.00732701339571,1.00811869080843,1.00949922669706,0.917918360251629,0.00355016000020942,0.156187544474896,1.02162000000005,0.558529175338228,0.00337396000061266,0.129212898288768,1.02826635127363,1.02907049050981,1.03017311767052,1.03151838737842,1.03292525802832,0.129015771587326,0.00317293000061028,0.9558734724704,1.0459943282026,1.04635074198403,1.04728408886669,1.04840058827394,1.05044551808164,1.05020365832037,0.00349277000020997,1.05415615018566,1.06205780998919,1.05954243478788,1.06884618164726,0.153802493611817,0.00350811000027149,0.153491207344458,1.07947622057515,1.07869642388569,1.08169297167569,1.08255267804955,1.08474506207899,0.28261442072439,0.00352565000020984,0.0797965258832872,0.00322736000021251,0.79964295062401,1.10256182954704,1.10410038201838,1.1054374025918,1.10691589443077,1.1085203380194,1.10986291135982,1.11236820652084,1.11370092301448,1.12096385959504,1.11800456397311,0.00340472000021081,1.12267665141569,1.12932765443845,1.12924416596437,1.1318496542547,1.13276374657833,1.13450119737424,1.13437718947881,1.13599726863647,0.132330171481547,0.00335485681251505,0.00311523556814601,0.0031668680877408,0.00282804733494674,0.00291530299807952,0.00203576243403898,0.00314128587260388,0.0798876600082331,0.0036139100002088,0.992298299642058,1.16587808436001,1.16536710846139,1.16683955076941,0.985707717208312,0.00310894000033273,0.076198771566468,0.0027379841400084,0.00148906891558032,0.00266832817086863,0.183129766888791,1.18628029789856,1.18936965731904,1.19031036395158,1.19228590096529,1.19339567773522,1.19515498077274,1.19622794706309,1.19885807898318,1.20140262691396,1.20249167077626,1.20391547882818,1.2056367839197,1.20797348913578,1.20833854840007,1.20963568376681,1.21054248074423,1.21221470824552,1.21371351677149,1.21618055826178,1.21887166501798,1.2239808492295,1.22376501934198,1.22631663150791,1.22298545956831,1.21963455612321,1.222573436114,1.22277708958912,0.219658855628937,0.00340110000021084,0.216603340211307,1.24702077089615,1.24654919971716,1.24732045136849,1.24819012744586,1.24889096633301,1.25185560146643,1.25523441591672,1.25736871025011,1.25910226392867,1.26095458563869,1.2623970322883,1.26726375651311,1.26726488257266,1.2710277512678,1.27227991931083,1.27313519288737,1.27586784729728,1.2764375268205,1.27946425560455,1.27922477156136,1.2808901303414,1.28047570527176,1.28880146081392,1.28707761076872,1.29268339263733,0.14135320508352,0.00344359000074989,0.0719283801915282,0.00334089000049692,0.0798118329204634,0.00350287000020986,0.0797790385156065,0.00341871000021067,0.0798748400851978,0.00360109000020893,0.0799735214006697,0.00331893000021163,1.25805906413559,1.31753423283967,1.31048691876151,0.00324042000021238,1.32209096713374,1.32722688337818,1.32919721941106,1.33155490107166
0.963076896364329,0.964267729743451,0.799689535052824,0.798943794023762,0.798145513045553,0.797847026737292,0.247793947361022,0.00201052431113451,0,0.00200858843084786,0.117161460683901,0.155223119092778,0.51796218041719,0.51830092761261,1.00499270254309,1.00582523524136,1.00704078295819,1.00765483356702,0.920244423708133,0.07983102461489,0.118056092514616,0.156187544474895,0.559584817976099,0.561071680787605,0.562022608996842,1.02815510746457,1.02903419533259,1.03030075241222,1.03179105154709,1.03346368521288,1.03477200353385,1.03611184601201,1.03695557135283,1.04439481774993,1.04500805187068,1.04605582802939,1.04733175700899,1.04904816485932,1.04995777248232,1.05178270984139,1.05345454100728,1.05498151111597,1.0552195922391,0.153802493611817,0.115820533593206,0.0781378579124322,0.115531757891258,0.153268184496046,0.19119760535736,1.08236287126271,1.08406658649847,1.08447514711122,0.245918433668567,0.0797965259344492,0.117932048289008,0.156067962295023,0.79886574810386,0.798574596585745,1.10678048784239,1.10697642458678,1.10899872854247,1.1104097029537,1.11141915483769,1.11277951783026,1.11514236011297,1.11795537539783,1.11986135259719,1.12296686567059,1.12493754861439,1.12797518662423,1.12996609899334,1.13328448810759,1.1344625961001,1.13540424814439,0.679630068218948,0.132337233747314,0.094150958618086,0.0030491080741331,0.0028958461327377,0.0028648685846444,0.00250840763184907,0.00202065251566403,0.000361969461536096,0.10620532387138,0.144349161494372,0.182588889182673,0.992298299641778,1.16676986375104,1.1667028461291,1.16677901234834,0.985707717208263,0.150483427786587,0.112637497882098,0.00195663808389482,0.000621534797936559,0.00190697765369293,0.155191716742553,1.19035085723354,1.19387094531302,1.19452110936107,1.19582840715211,1.19670259295029,1.19829678448807,1.19949758519985,1.20143682767609,1.20287764327272,1.20458991931441,1.20588078938415,1.20734928521693,1.20856571804564,1.2099502272164,1.2111282926578,1.21271928196671,1.21406840426578,1.2162794141262,1.21869988737009,1.22093262778189,1.22310038201601,1.22425545947317,1.2250391281975,1.22397835046843,1.22291624435403,1.22379382432052,1.22433773576981,0.182138988450212,0.0796748500024515,0.179141310982547,1.24892622862955,1.24869580420393,1.24924202210439,1.24990653939141,1.25122775544929,1.25272315058276,1.25696623740374,1.25981618591016,1.26202488204553,1.26375433631973,1.26739846684368,1.27394052246352,1.2772628289217,1.277515757621,1.27531663752517,1.2744433823132,1.27482310242456,0.990295195031887,0.316708102214391,0.280821570870385,0.247108628075469,0.215418595655648,0.185532367524798,0.157170285990416,0.130002039317995,0.103658185201445,0.070068440787095,0.0992358947232574,0.118452203372517,0.138519118905464,0.159835473037116,0.182774947838657,0.207677875369705,0.234843314070058,0.264521619914496,0.296907688060915,0.33213515560281,1.25805906413558,1.32425319272085,1.32939570156879,1.33235855996519,1.3306544603532,1.33093139774295,1.33268869648635,1.33489621932009
0.963335465034624,0.964499090879271,0.800082982716736,0.968657000000047,0.797847026737292,0.975602000000047,0.248775912862908,0.00306221047443628,0.00202197077142018,0.00296875997769715,0.155223119092778,0.99509047525461,0.51830092761261,0.00330209000021179,1.00420922053251,1.00395949514287,1.00586478826529,1.00588932904069,0.92197812495143,0.00334046000021143,0.0799348219590116,0.00368428000020901,0.559230694707296,1.02342557274942,1.025015488973,1.02774925975565,1.02888916752253,1.0306541070742,1.03226277496221,1.0349140353872,1.03545844301218,1.03751897287234,1.03841074054872,1.04304254705299,1.0437730874675,1.04514500126192,1.04664549206117,1.0492290833893,1.04997646557197,1.05314381480647,1.05345763313419,1.0557165953836,1.05485028944215,0.00337555000075139,0.0650624282538098,0.00332924926392272,0.00295659886579676,0.00322363657549227,0.114938660878694,1.26690000000005,1.08732493913172,1.09130630607175,0.210631738653206,0.0035200800002097,0.156067962295022,1.27479000000005,0.798574596585745,0.00336891000021115,1.10987390512438,1.11330071243598,1.11200227950204,1.11380827271238,1.11288634148245,1.1133703100015,1.11570623515202,1.11779654338172,1.12097105485191,1.12467525046781,1.12613298405164,1.12875133404125,1.12966317004255,1.13707163189911,1.13648271925585,1.13731909373856,0.679694438384718,0.00308756190890141,0.00264499389840576,0.00307520330847468,0.00266821010758668,0.00307588919803918,0.00249423107851767,0.00259899150924818,0,1.16539381363265,1.1663081666924,1.16720762021973,0.992298306137168,1.16783979519045,1.16755025992163,1.17334090774607,0.985707723703818,1.17989000000005,0.149641726786165,0.00291309352623448,0.00198924329934614,0.00283211692110027,0.12853578694057,1.19629112178624,1.20008015565107,1.19703154879131,1.19913559103035,1.19987227115467,1.20145238071286,1.2030086564889,1.20399077378486,1.20498586692182,1.206594342383,1.20850220931974,1.20892737851868,1.20994759940755,1.21149297611009,1.21326058268655,1.21483070479251,1.21621329421769,1.21791188629453,1.22312879884139,1.22239554192513,1.2247032964804,1.22495034973847,1.22636263882356,1.22494416044788,1.22480615325705,1.2252303397032,1.22758741464497,0.14520329523636,0.00343566000044191,0.142320362811493,1.25110869410701,1.25026983035265,1.25104653078583,1.2512502973788,1.25285750090075,1.25297877711722,1.26495440735057,1.26332202906026,1.26571251508965,1.26537216463362,1.26734871896119,0.680620171932714,0.00322480000021255,1.25401563248585,1.28108346381049,1.28032297491976,1.28292396308365,0.990295188536213,0.00327684000021203,0.0797947910120997,0.0035210400002097,0.0797947910123245,0.0034995600002099,0.079773372428727,0.00340599000043553,0.0736375918656543,0.00348068000069917,0.136929420962164,1.32092983650007,1.32399630724823,1.32587691614726,1.32662003865682,1.32496428789346,1.32660871950382,1.32849037476864,1.32937800600044,1.33074449541508,1.33173778682639,1.33392167892281,1.33538506165541,1.34064170338332,1.34313351022599,1.34378990145018,1.34841262537301,1.35015387666876
0.298226790397156,0.267181306574044,0.244268082820365,0.247075974876053,0.249227412864799,0.249899069600568,0.249524771977831,0.24906501698697,0.247584246426448,0.247595028614005,0.270263416947378,0.998238271917579,1.0007071769264,1.00256646813635,1.00418100727145,1.00532398654023,1.00652713880218,1.00702453091018,0.922897415069849,0.909577842138234,0.909645347460625,0.909740815740647,0.90980832295576,1.02396461453683,1.02530857732535,1.02698585364673,1.02890362804323,1.03071683188191,1.03228945042437,1.03384376985298,1.03531435313749,1.0371858228108,1.03899578716401,1.04137673345319,1.04302441275712,1.04421435593052,1.04575388759457,1.04731605344337,1.04870938684701,1.05101384140872,1.05265916117692,1.05435558180276,1.05454071707555,0.1269733883486,0.0892650673767314,0.00293865459726971,0.0027492217471351,0.00286143655597874,0.0677066778477342,0.0939383610442358,0.120669716334752,0.148169042016578,0.176689851501126,0.210652132635799,0.245955182355384,1.10744285730489,1.10819463500005,1.10975462289404,1.11069984798113,1.11247406863707,1.11291486576677,1.11385668989412,1.11409253679545,1.11466960795456,1.1175949655088,1.11978003910519,1.12236095820986,1.12463571113422,1.12665478787926,1.1283605217297,1.13078578213193,1.1348644948704,1.1373903578073,1.13711256655366,0.679758808269602,0.00270181680505232,0.00237000652993161,0.00240701841109089,0.00211414619736692,0.00229521802134265,0.00195823889051597,0.00165707593437444,0,1.16687848527648,1.16670589144557,1.16667518054792,0.685749782324748,0.685814151973562,0.685878520964049,0.685878519164454,0.685814147055241,0.685749775603821,0.186985343612196,0.143030867391501,0.105587890602927,0.069514914391711,0.102799859711229,0.140397263936903,1.21016360061222,1.20561799073329,1.20328947239375,1.20370639135978,1.20522528537333,1.20622461786748,1.20734864914925,1.20805684988713,1.20906101131272,1.20963184045798,1.21076677777826,1.21200237582319,1.21377265224678,1.21564042084156,1.21786585910743,1.21841486025271,1.21957924709668,1.22119674354011,1.22216240696465,1.22309187876411,0.500433889266978,0.281193399792696,0.244435621048694,0.208985164203428,0.174702278874279,0.141386690668944,0.108788248748694,0.0735064137287553,0.106074981110922,0.135349573564861,0.165469757795736,0.196762918410832,0.229507882734567,0.263923893276569,0.300161903165487,0.690522643824593,0.689414782382829,0.687490253672469,0.68519794855993,0.682946967886146,0.680958563136606,0.680620171932714,1.25401563097761,1.27982644251026,1.27969374956745,1.28075950956479,0.990295188536093,0.448043157424707,0.448556493187741,0.449446609520022,0.450414318722291,0.451064798563435,0.451085750005186,0.450431580727806,0.449359852759388,0.448298056562802,0.447651194640713,1.32330591324687,1.32516333580902,1.32682762836391,1.32911246309198,1.33053893931735,1.33228344851133,1.33440749736458,1.33677306310765,1.33905025458973,1.34094694416428,1.34230760949882,1.34308616948276,1.34336277220234,1.34628650067554,1.34897060098632,1.35079625100854,1.35218018969833
0.00246337330904205,0.00307622661498088,0.00275804138043959,0.00307857783787876,0.00287395683666115,0.00325700579169719,0.113655103121392,0.988470000000047,0.246082640165288,0.993565000000047,0.305709691259771,0.99915425621502,1.00174000345179,1.00346566721253,1.00497600792292,1.00726701366216,1.00757998399203,1.00962904457705,1.01004113470631,1.01187751862774,1.01453688253461,1.01724462677214,1.02002100760325,1.02398905206842,1.02526987836651,1.02680549848623,1.02930200805527,1.03165254236221,1.03270750594213,1.03347872788731,1.03527080222438,1.03752193592776,1.03919065394951,1.04156319052805,1.04346604198299,1.04386945335539,1.04574953624441,1.04670432697402,1.04785166220925,0.00343891000021048,1.05329122413698,1.0556822356774,1.05580494292956,1.05779237436418,0.114312748018777,0.00326194822203693,0.00287507006329376,0.00323992041391275,0.00305047940825449,0.00344538048262493,0.00332223260628104,0.00333999213566532,0.119737237454069,1.16869000000005,0.282660245587315,1.10889691043077,1.1096833688299,1.11225190032556,1.11213663502464,1.1141104994761,1.1141328276892,1.11566110824892,1.11562610251104,0.00321230000021265,1.12070119000214,1.12227402628527,1.12412707916026,1.12547619062802,1.12748005335696,1.12776550431795,1.1307392007483,0.0034685700002102,1.14189505462691,1.14663160473266,0.679758807502193,0.00315037066571969,0.00259887673301674,0.00284996152093347,0.00174433492803532,0.00241648209846087,0.00160171461405742,0.00214082737923168,0,1.16891858294258,1.16753064649738,1.20902999999989,0.121398777501504,0.0027413235788991,0.00237172581675343,0.00297940319225339,0.11787986764577,1.18930000000005,0.22471385873459,1.19165000000005,0.142995447875643,0.00335766000072195,0.0732877019129272,0.00362217000045479,1.21974720147039,1.31027000000005,1.21145611025817,1.20832336912703,1.20873222229065,1.20994732997553,1.21057078143113,1.21126365859658,1.21100620790603,1.2107497668971,1.21227923501756,1.21429454576648,1.21603627241619,1.21774911279719,1.22171011542924,1.22018992992535,1.22023383520574,1.22095931543105,1.22189324152219,1.22275041846449,0.499624699999112,0.00330289000021179,0.0798336161370282,0.00355985000020932,0.0798336161638478,0.00330642000036456,0.0754868757698315,0.00328419000063912,0.0736060807861314,0.00340405000091822,0.0625243536127983,0.00301743748413487,0.00204102899910925,0.00286518769995609,0.119872215127968,1.28555000000005,0.11999982952035,0.00271665836258113,0.00186904719698663,0.00286068599324138,0.679951727214583,1.29919000000005,1.25401562946935,1.30166004736167,1.29489524191105,1.3039899979452,0.990295195031598,1.30328000000005,0.992287907220953,1.30988294599511,1.31185397283536,1.31229028845423,1.31688598179335,1.31968337581742,1.321636861752,1.32143990407025,1.32315762202567,1.32379337988153,1.32585250649052,1.32659079199026,1.33250192194641,1.33695220576995,1.34007879512424,1.3409945623659,1.34443231395049,1.34568935053198,1.34793970397644,1.34786421182317,1.35060476569052,1.35112691532799,1.35121064198014,1.35055421943926,1.35374434784935,1.3560543827184
0.0021507914858846,0.00245681611435628,0.0025209808447101,0.00265380608623197,0.00250294836524646,0.00270277644471815,0.075781246249642,0.111817516775165,0.148221511552183,0.185143541942232,0.222657993338931,1.00209668309522,1.00388114991884,1.00509229499556,1.00585878946699,1.00666377069752,1.00815215942999,1.00961750803054,1.01029718955919,1.01131540996466,1.01617047653069,1.01891264814897,1.02139590410674,1.02392454636323,1.02603485237162,1.02815624969396,1.03047628888817,1.03257819595587,1.03401325768724,1.03507490502408,0.961221575520975,0.961221569025592,0.961221569025883,0.961221575521679,1.0463602218761,1.04556573190307,1.04773674348168,1.04866735562572,1.04942657844375,1.05100402763319,1.0529044320998,1.05505201576608,1.0561114836189,1.05744463417039,0.140011408758591,0.00308949556456795,0.0029329846578114,0.00294048451649294,0.00280572220903954,0.00312228276280144,0.00320589936627479,0.00331372298460061,0.0790341884642113,0.11993770952634,0.212454960405883,1.1104134828092,1.11084142240246,1.112163869554,1.1127097657957,1.11404554362497,1.11489918429621,1.11651020686315,1.11814792622067,1.12135652793013,1.1230445656659,1.1249471980639,1.12705061980499,1.12851413805276,1.13043890034351,1.13072161972799,1.13431294016531,1.14020014316822,1.14304521690454,1.14621175504372,0.679694436287376,0.168726503151111,0.130506204217935,0.0921596547260583,0,0.00106766033273122,0,0,0,0,0,0,0.000436575231431709,0.00173228699788646,0.0017899575496853,0.00222639924260851,0.0765085987106304,0.101796997458813,0.127597235924875,0.154197948358393,0.181870699139271,0.215439554887737,0.250454989010035,0.287006779763524,1.22045231147189,1.21794598326901,1.21452706188217,1.21231430238114,1.2119956811604,1.21283210030921,1.21394830974633,1.21485623693285,1.21492818581129,1.21487055068657,1.21446674091557,1.2155595639717,1.21830478298292,1.22258453059047,1.22883035805202,0.495076833926234,0.495099289795019,0.495323316306931,0.495942350860256,0.49699140912816,0.498299018699671,0.300066790313718,0.265341709005689,0.23392873336319,0.205636212785895,0.180193557153896,0.157266664222134,0.137224730589471,0.119027446254153,0.100053201067554,0.0801355510769364,0.00203034817747142,0.000704506298306888,0.00148942037305744,0,0,0,0.00136281352979617,0,0.00195645200051218,0.679161534116103,0.834930485456563,0.834941245237611,0.77053877658805,0.770544705996048,0.770548370582148,0.770544706022098,0.770538776630199,0.992287900725416,1.31156574425919,1.31338816396314,1.31694665838132,1.31904235816526,1.32122224661263,1.32356191462878,1.32612865955941,1.32937264006204,1.33205773507064,1.33396543481163,1.33613585058171,1.33767407143574,1.33967022126055,1.34238054554542,1.3441852000399,1.34640307655278,1.34813917121603,1.34987578017604,1.35090135640776,1.35265849966953,1.3537239603904,1.35512470326306,1.3567240823351,1.35755160753399,1.35835065859553
0.00244804228853098,0.00310650714727799,0.00261172123105984,0.00298090089897272,0.00191082535251912,0.00248942377294641,0.00173999370960724,0.00281466731553941,0.00280085893775562,0.00292005159143788,0.12757280160173,1.0074532132288,1.00625222411557,1.00764451491859,1.00745064917767,0.00343387000021053,1.0101752617651,1.01237021786683,1.01171995446613,0.0033321800002115,1.01875669209406,1.02236769972723,1.02310696688394,1.02548608296949,1.02717248535409,1.02994574080686,1.03211630103448,1.03474179292095,1.03599152092413,1.03813271096315,0.192484692468126,0.0029358202163528,0.00189361947368507,0.00293537277173606,1.05129587224563,1.05442851100659,1.05197396394681,1.05179723272655,1.05123421115142,1.05178323545067,1.05342277683025,1.05639530325538,1.0569681934119,1.05896246374981,0.166578640662328,0.00337765980881169,0.0030860819917738,0.00321888031658218,0.00231126653765003,0.00308663225327023,0.00311241490073854,0.00330065658916512,0.00330984771451366,0.00334222787226975,0.174425955156275,1.11231292336994,1.11214742914975,1.11391897843384,1.11359419271169,1.1156032201382,1.11585811278533,1.11836121147235,1.11990064554183,1.12367038551404,1.12482046684899,1.13003269234303,1.12979723097309,1.13383346432688,1.13440430405658,1.13814795528109,1.13613942631145,1.14457656096093,1.14551865984577,1.15023998198746,0.679630065352912,1.15596000000005,0.168726503152003,1.15615000000005,0,0.00187062664305131,0,1.19805000000005,0,0.00217327972372984,0.00158184561172747,0.00239786409739387,0.00170892485676284,0.00262020962379599,0.00158194897741194,0.00229514076501565,0.00167568366335628,0.00273185946366055,0.00199468705626664,0.00294429952771718,0.215441693055304,1.20802919052502,1.21143888084191,1.21406376260279,1.21737468104424,1.21535007386533,1.21540912408616,1.21320635381513,1.21382172827826,1.21549473066188,1.21655176538279,1.21849558913063,1.22099208421649,1.22303596886637,1.2266908440051,1.42777000000005,1.23296630676034,1.23075903528941,1.23590781046972,0.00349207000020999,0.079829360087799,0.00355561000020936,0.0798293600878064,0.00325470000021224,0.498229012341731,1.24641408706115,1.25090049582641,1.44970000000005,1.26426823587843,1.25825502640717,1.26539721658301,1.50009000000005,1.35671965422859,1.49316000000005,0.130366043188537,0.00282833169003532,0.00195184388954347,0.00276663741057002,0.00179827169184001,0.00258449857598776,0.001777391144888,0.00269943011137194,0.00190682293004858,0.00297427850712027,0.678568312515025,1.41014000000005,0.834952732089324,0.00338557000021099,0.0815001479586713,0.0034791800002101,0.0806684074265233,0.00336637000021118,0.99228790072549,1.49586000000005,1.3252422791052,1.31863997357873,1.32142459605256,1.32601857392771,1.32849674952896,1.33124696160583,1.33311722759664,1.33401586450589,1.33602122247087,1.33742233246977,1.34048914718114,1.34326385486289,1.34514831445552,1.34696075017014,1.3484526560796,1.35023019614893,1.35248426579717,1.35563846904411,1.35688336520685,1.35842838673332,1.35861582065025,1.35860944574752,1.36132952413388,1.36389282963151
0.0908290118960635,0.00276927294778908,0.00231990669159183,0.00187544120680373,0,0,0,0.00200499754170239,0.00265192131670485,0.00296339328307588,0.0893364352568043,0.127572806149933,0.208624852381227,1.01001879982069,1.01011151471093,1.01204766871915,1.01233020607997,1.01373917491241,1.01500960840837,1.01827346580804,1.02000658935852,1.02272966916325,1.0241483795978,1.02611039496097,1.02794161661951,1.03172493562498,1.0338085103709,1.03588678553094,1.0374705045558,1.03914681604108,0.154767248118152,0.00152048443761086,0,0.12370535080446,1.05367810163356,1.05518927543059,1.05466927194183,1.05284735450115,1.05225822033919,1.05199817360382,0.328762447132469,0.292532586238047,0.258136374159967,0.22543045842471,0.194207502307483,0.156319676248132,0.119429817736944,0.0832727761108857,0.000766319111425354,0.00217281661323441,0.00272471425267952,0.00312133386740461,0.00313922720451657,0.00320707718581477,0.136500502236568,1.11182678519366,1.11218114038611,1.11302049092199,1.11325019047866,1.11438767157193,1.11573974572789,1.11834480481966,1.1202910982042,1.12406521043852,1.12597222536135,1.12809420928411,1.13002624242358,1.13383369162102,1.13573773657739,1.13755401186318,0.301870365241923,0.265623726299451,0.231206173311107,0.19849943811296,0.167334494810161,0.137498278017759,0.108739929973198,0.0807757851865939,0,0.00101609662347377,0,0.123304647440318,0,0.00155024076525202,0.00187104828761492,0.00223606965288385,0.00198126063916143,0.00183880256052113,0,0,0,0.00147090863900109,0.000877239989095675,0.00205819598067454,0.25045884185486,1.20999122773378,1.21199066593789,1.21451449769655,1.21693636962513,1.21782421027304,1.21810301649241,1.2196628040076,1.22115221579443,1.22260742177538,1.22287347392493,1.22396611136016,1.22561933119682,1.2273478275862,1.22966935858922,1.23299330531846,1.23464458822034,1.23615780789102,1.23956823185675,0.56876732413964,0.568762237745076,0.568952634000046,0.569560545684158,0.570607658656874,0.571822503254033,0.572289477449815,1.25101458403315,1.27079054376233,1.27105235448334,1.27286412676252,1.27412294431596,1.27693083998096,1.27767677856115,1.27802224606669,0.445248689039871,0.445902621564584,0.446973484405676,0.448050658339508,0.44870493843811,0.4486816666454,0.448031211763838,0.447068704687086,0.446187281618466,0.445680720725836,0.678235135834022,0.834955811997817,0.834956897900923,0.774187168013364,0.774201362944228,0.774218411622016,0.774228143755243,0.774230500275833,0.992287907221132,1.3343769305313,1.33520330088436,1.33555379279803,1.33571960755258,1.33570597090503,1.33594912922268,1.33512532268363,1.33604047156819,1.33705203874006,1.33941917178241,1.34136344075109,1.34398863893786,1.34632427561341,1.34847701607354,1.34974660155539,1.3502164354176,1.35177768752279,1.35401434138128,1.35734140594894,1.35967921408442,1.36110398106963,1.36190150793581,1.3635155959031,1.36464344275244,1.36668644476575
0.129030554967541,0.00305736184038108,0.00181818567850443,0.00232848263893239,0,0.986242000000047,0,0.00254254434220612,0.00286105433788305,0.00325669596623897,0.0034137830059563,0.00344878769170099,0.170529812607777,1.01344055083927,1.01250602464916,1.01621285967879,1.01504405000015,1.02053532500769,1.01828181034068,1.02199459388315,1.02210123983106,1.02561877705236,1.02555667039288,1.02765711600877,1.02738217518054,1.03569738131794,1.035720389943,1.03785187636641,1.03891276759753,1.04219420310396,0.117478733472158,0.00222243554771561,0,1.05597737400972,1.05722767096303,1.05813511053954,1.05922801010546,1.06289724679655,1.06349887647602,1.06469874080551,0.181803246934784,0.00242600941748273,0.000943579701200174,0.00290599754085893,0.229721131416703,1.09915000679278,1.08658325231273,1.08937200375431,4.47530350212337e-05,0.00252535272322883,0.00266029177994266,0.0031194614555043,0.00289618230948037,0.00309785902807699,0.0986695496038456,1.11128554394229,1.11221368002841,1.11343968180283,0.122542521672572,0.0029417836175415,0.152022166091986,1.11997237925874,1.1196820812143,1.1269022253544,1.12672646881658,1.12760880307042,1.1285666060629,1.13639143393539,1.13696575599053,1.13864270158991,0.147113400008045,0.00274194783725385,0.00192932852393319,0.00261562708528293,0.00168831112618013,0.00241134772036704,0.00167860347746195,0.00261613332864117,0.00149943717353269,0.00214028236049697,0,1.22357000000005,0,0.00227239102089433,0.00236983490758983,0.00301487801390568,0.00266482008649373,0.00305014515250028,0.0976448160625957,1.38652000000005,0.117771263793137,0.00275803249084261,0.00199518805944398,0.0029264587915061,0.287011584182436,1.38675000000005,1.31008352881648,1.38831000000005,1.22695451100273,1.21998823142494,1.22209243687573,1.22512761011416,1.22545078423701,1.22461514459861,1.22711671677376,1.2296957890622,1.22839828563344,1.22874168070083,1.23161932947223,1.23462466762157,1.23535389869421,1.2359699658197,1.23832995925414,1.23656893076737,1.23743090059246,1.2384963707877,1.24268339601748,1.25515267244584,0.572289477449815,0.00343834000021049,1.25101458517876,1.27181280721503,1.27216360093519,1.27423887914462,1.27500445574056,1.27604692580326,1.27756073736174,1.27809982568436,1.27949254086564,1.2928857266968,1.29205070578409,1.29734587992299,1.29732396185601,1.29881678191633,1.29802202744567,1.31035996554114,1.24551635825321,1.31572000000005,1.24592029388951,1.31860630656048,1.32136467145358,1.32726482686966,1.32905943042916,1.32785268204568,1.33058958875057,1.32977360039079,1.33289129305005,1.33355939755007,1.33556333583633,1.48385000000005,1.33918469520257,1.33794155533391,1.33806548857931,1.33777115379674,1.3386344793453,1.33959041603592,1.34260329715239,1.3465103658677,1.34811640803435,1.35026038249347,1.35214566033217,1.35501871761467,1.35721574437856,1.48320000000005,1.36422690929368,1.36347516133996,1.36346800211205,1.36421353159094,1.3654532584056,1.36613903320338,1.3682533181332,1.36961358825227
0.167250405141857,0.113865993420831,0,0.000995423199323494,0,0,0.000553476057584008,0.00220740649558813,0.00288440070693464,0.00324697550717682,0.00339093552110827,0.0034143286847889,0.132466673806783,0.591159156600199,0.590904593440354,0.590587371485122,0.59044674962311,0.590589098069354,0.590907704700179,0.591163036344848,0.898878532951433,0.898989941000859,0.899138259141777,0.298772041477214,0.262668286191675,0.228527327858889,0.196212346324969,0.165528065614915,0.136230744334754,0.108037163647716,0.0806338682144917,0.00117301648086618,0,1.0574201172708,1.05916671850767,1.06054664744977,1.06158562862667,1.06354572771132,1.06437097090215,1.06459660062441,0.143617901928472,0.000647697843317217,0,0.125390370851309,0.266528917180895,1.08454653399358,1.08521454753006,1.08663483288512,0,0.00173872674022116,0.00212937930726647,0.00248804011449569,0.00218242620665671,0.00183225964876555,0,0,0,0,0,0.00129415682229993,0.11413779477889,0.151243421183542,0.188652717025132,0.226413453698414,0.984676786786727,0.984677921814688,0.984678690845575,0.220751539088575,0.183141538083185,0.146033694104442,0.109379753749283,0.0019121531876401,0.00125155875354476,0.0014240127227863,0,0,0,0.00169431304367886,0.00156189900448629,0.00154401272744242,0,0,0,0.00190201118279336,0.00247675257156354,0.00288449823904681,0.00293180703965588,0.00307715452500249,0.135947098547676,0.69653309348543,0.696597463116773,0.696661832077034,0.696661830242558,0.696597458103119,0.696533086634229,1.23817682397093,1.2386670240571,1.23921168700889,1.23878890894756,1.23786340911553,1.2358292346019,1.23333756325028,1.23270900174079,1.23275086229604,1.23272745365373,1.23278101993805,1.23575647990968,1.23770103910557,1.23716979905517,1.2374897938992,1.24068646548887,1.24418519828663,1.24553786361555,1.24596988820826,1.24603472057931,1.24694151588388,1.25067250428305,1.25895051227612,1.27017285826521,1.2766942528964,1.27790701762759,1.27429056740209,1.27327576933323,1.27409935305549,1.27591969267696,1.27749140818649,1.27860451266718,1.27922175621025,1.28037492300099,1.28911233735328,1.29016496778773,1.29653803610362,1.29641467569784,1.29712777788532,1.29773959951068,1.29868017390008,1.24588702923753,1.2459286905336,1.24623615998458,1.32268331550858,1.32551228797765,1.32833419678987,1.33171200819483,1.33137442040116,1.33396024549336,1.3339877075559,1.33543933221331,1.33648744372454,1.33804671857429,1.33987580206507,1.34041824820035,1.34031343181317,1.34101089089406,1.34199893839982,1.34432228472606,1.34663220138798,1.34769400803592,1.34823627435611,1.35124735820919,1.35336271051927,1.35560999646611,1.35787030397372,1.36005990034343,1.36356487573824,1.36517112551914,1.36602105970848,1.36647633204063,1.36740298622097,1.36838417646427,1.36993371550561,1.37111488387107,1.37283660287629
0.216920894011032,0.974735000000047,0,0.00182363520470965,0.00103546981892529,0.00228160672240882,0.0021120816323483,0.00307960331807416,0.00316372908163214,0.00328606634701742,0.00327520170470963,0.00324697906440411,0.094393417938891,1.01861000000005,0.109543473085826,0.00299437368357085,0.00199301217557908,0.00286958005356378,0.0794804077592293,0.00347298000022028,0.898865916195456,1.04217000000005,0.899250984132225,0.0036044100002089,0.0798781601932589,0.00334285000091665,0.00943881036405643,0.00324096005147387,0.00299565739072235,0.00304791020606651,0.00241340143936736,0.00261809351957633,0,1.06385840421032,1.06212802174657,1.06358557191839,1.06349404184246,1.06558419026193,1.06613304825728,1.07057187753545,0.105297154074857,0.00205345318901386,0.000142766663116485,1.08032608902215,1.08161875938093,1.08505521120086,1.08454771214244,1.28353000000005,0,0.00222180863025392,0.00171158737163232,0.0024671219734149,0.00169636327449384,0.00220201561826166,0.000974185447128359,0.001917165363195,0.000516300009241787,0.00214777846714219,0.00086376637075094,0.00258003497357384,0.0775206404079401,0.00332377000028944,0.0797730500235111,0.00349930000020991,0.984675970300891,1.17044000000005,0.984678663108568,0.00351421000020976,0.0800814017907349,0.00324126000043639,0.0735134572399524,0.00258448093755426,0.00150259695199402,0.00251938129884655,0.105335235411242,1.37434000000005,0.113399561809778,0.00292617052674413,0.00229206271754868,0.00281725979470288,0.00171569180931193,0.00236607592792193,0.00176132210361595,0.00295339700005715,0.0028712734185717,0.0032526664276379,0.00314922571164081,0.00330536054239036,0.174110003335021,1.22605912304717,1.22699320332136,1.22818176832346,1.22934080678719,1.23459670724255,1.23533467643402,1.23735056545013,1.23822937292235,1.23918350762785,1.23897075659133,1.23861894517713,1.23651919973083,1.23375513701895,1.23402644753838,1.23360752533367,1.236449971126,1.23921057773871,1.24041484641148,1.24073988586817,1.24436511509636,1.24734317705676,1.24767141526131,1.24586636331377,1.24947295162057,1.25124393383222,1.25555787383553,1.25777116853759,1.25995300547236,1.26107503767715,1.26666827741205,1.27027563689309,1.27340702825723,1.2725168406461,1.27295603037496,1.27398288623042,1.27651653065847,1.28000148400153,1.27940583823672,1.28005218656181,1.28161944695059,1.28447505834214,1.28919928861329,1.49316000000005,1.29513621345219,1.29594539015018,1.29766858782844,1.30020728332816,1.24646864720918,0.00338259000021101,1.24706171845668,1.32530200335868,1.33059555528078,1.3293993387648,1.33598641726482,1.33879545180427,1.33885764228462,1.33657003497511,1.33804473378397,1.33920062109337,1.34015199457161,1.34147223798048,1.34213065097553,1.34223939167828,1.34368072821136,1.34505188036423,1.3470747341421,1.3499347135544,1.35226559055206,1.35578128718521,1.35550949224621,1.3564764907206,1.3589308043085,1.36109182692171,1.36295928636289,1.36426649340061,1.36707549252739,1.36896053215313,1.36942859924968,1.36944105907426,1.37157918773314,1.37264314057843,1.37451883913939,1.37506362818431
0.178838764139928,0.138467195683414,0,0,0,0.00192024047772891,0.0024913112355392,0.00302538684729195,0.00320133054931674,0.00322558726697169,0.00300209921867053,0.00227719501724028,0,0,0,0.00144867991997545,0.000286851157779618,0.0019517490226686,0.11743821390728,0.155512856121138,0.898964716173492,0.899129587439518,0.899284503383003,0.191324441401073,0.153288105480945,0.1153439520403,0.00939226140666383,0.00309951362442149,0.0029380668631579,0.00275021532218861,0.00212585304646753,0.00165935464967156,0,0,0,0,0,0,0,0,0,0.000768241679616749,8.61127613255101e-05,1.08252384111001,1.08326586163169,1.08472903554336,0.379685977126769,0.11756761973468,0,0.00108362955179069,0,0,0,0,0,0.0013626061133079,0.082299899169191,0.108955037138704,0.136444604395902,0.165117016532119,0.195280826176728,0.227196315427279,0.261067642357057,0.297035727741736,0.984675970339278,0.984676767245521,0.984677874485564,0.220828225772131,0.183209529089959,0.14608527984135,0.10940908493692,0.00192462132161229,0.000865861644742466,0.00195209737065125,0.143459213833627,0.373462349323749,0.346313889033789,0.349739366215789,0.352355030382601,0.353346949209276,0.35360054099868,0.353683800551269,0.353738295494509,0.353739533103722,0.353466975700211,0.352302619561299,0.349570307612995,0.346380331249053,0.37186296537034,1.22346099902924,1.22654056045342,1.22844191633044,1.23025712401473,1.23295853662161,1.23442072310814,1.23589693324105,1.23731532021919,1.23850639562366,1.2387738648568,1.23855461581109,1.23770568427424,1.23680902716486,1.23821280365582,1.23992640793739,1.24068150099707,1.24076635556272,1.24278095250008,1.24421661161234,1.24630935836501,1.24854990679112,1.25035704631626,1.25272900239312,1.25390079699569,1.25446089000521,1.25745358132046,1.25941961995659,1.26129397215871,1.26277382000785,1.2664551559331,1.26960009893019,1.27160156903147,1.27225918257077,1.27360898489182,1.27478178400481,1.27707573181432,1.27883087066406,1.27976092453988,1.28018407410645,1.28195472965405,1.28332072814174,1.28863598216689,1.29138673224209,1.29340570401515,1.2950849130878,1.29713884960749,1.29923696354808,1.24710354846747,1.24760180527501,1.24784474505437,1.24821759536606,1.34106316977111,1.33710274516385,1.34231005106413,1.34428612829562,1.34362705356301,1.34084605987767,1.3408720611862,1.34113040588884,1.34246603943291,1.34392230790613,1.34499632322194,1.34580313283972,1.34711741697867,1.34860209740609,1.35045037411729,1.35255223102995,1.3544571764533,1.35670359920236,1.35840579993371,1.36048677710545,1.36246392586415,1.36388208288104,1.36599449624714,1.36752046151031,1.36926570296231,1.37105333650655,1.37184413099674,1.3731121272276,1.3745434333776,1.37621707600903,1.37763679305077,1.37939147613077
0.140807097120661,0.0018599863737046,0,0.985168000000047,0.102955057407819,0.00309363224921174,0.0024966150907457,0.00313085029038761,0.0031381595760191,0.00334901602669461,0.00298058939538073,0.00284340694198277,0.00128645816871921,0.00234798784967442,0.00167608798252567,0.00265496540217166,0.00188262512672746,0.00286427931243588,0.155512856121138,1.04101372655929,1.04194736087189,1.04140539180856,0.899395015464116,1.04661000000005,0.215818862739271,1.05241000000005,0.00915513745982573,0.00325401620691137,0.00307762526975446,0.00326472701397856,0.00186990163977878,0.00243083604200701,0.00102374677162221,0.00190118212450887,0.000759426955262034,0.00181150578559861,0.000974415653764571,0.00243856869154733,0.0016715778002114,0.00260693110684312,0.0019104330958315,0.00263219799721017,0.00138909212074707,1.08416320031584,1.08447446146315,1.08614845842837,0.38071033553759,0.00289162532389691,0.0012436788921919,0.00204619284774075,0,1.31181000000005,0.130928465053781,1.26066000000005,0,0.00229955355223517,0.115798786257798,1.12401000000005,0.748412521587009,1.12694000000005,0.587063384857655,1.14370000000005,0.587063473629545,1.14757000000005,1.00836408267235,1.14749159735759,1.15152266619508,1.33530000000005,1.24716112462893,1.33702000000005,0.147146482095967,0.0029013252425734,0.00208005207307871,0.00304749338505239,0.181628716195684,1.18668546894956,1.18964339139767,1.19137567864393,1.19336881139587,1.19945672329709,1.20083085903545,1.20149430538047,1.20466799495878,1.20665628950889,1.2096371215471,1.2108345384794,1.21272749530471,1.21197308432932,1.2161636343844,1.21707115418142,1.22711393047503,1.22842750897483,1.23024586730642,1.23224606085529,1.23353430516852,1.23416243459942,1.23684348987423,1.23821308987047,1.23929722477027,1.23888763880519,1.23918236175652,1.23801117186553,1.24055170890525,1.24353464083363,1.24448784628486,1.24734446184845,1.24625421874101,1.24727024647398,1.24840610174777,1.2509961127591,1.2526177969014,1.25494365809859,1.25724861565671,1.26021689773995,1.26028881114176,1.26163108237952,1.26267251142761,1.26245605477568,1.26704515229795,1.27224602840621,1.27201741345341,1.27294906831562,1.27422071450218,1.27541417444691,1.27749635773608,1.27946993055236,1.27984556719285,1.27982093056428,1.28149011716194,1.28156233872409,1.2892478903123,1.29139618985504,1.29257007073453,1.29412350287986,1.29680888682817,1.3006090517312,1.30118117803941,1.31064527281932,1.24821759536606,0.00335260000021131,1.34202072513208,1.33334585949751,1.34281634172434,0.00345252000021037,1.34451785470429,1.34054500985401,1.34173002026217,1.34224882618692,1.34359016633992,1.3490379981377,1.34756430923086,1.34959838299734,1.34999344077809,1.35246709946409,1.35334932928379,1.35597220624193,1.35681928487306,1.35806883654391,1.36105697541355,1.36436405601928,1.36600359281303,1.36971304589392,1.36917012656812,1.37000092917148,1.37172274634834,1.37323491342331,1.37440715599763,1.37536590640435,1.37776961657334,1.38080000147788,1.38120185058835,1.38199641875644
0.102818480513498,0.000111444959178219,0,0.179398058108657,0.141243308506355,0.0989692600418794,0.00145734333704279,0.00244729485694738,0.00294397111680782,0.00306176118335778,0.00279926006285903,0.00202538640740568,0,0.0779290398859551,0.10865440368198,0.140470940894286,0.173089885850674,0.207759618765294,0.243541492195643,1.04304868964152,1.04330167499329,1.04331735561929,0.6363332284011,0.215818862739271,0.17798426512607,0.140730594695311,0.00859604613289706,0.00896207653576987,0.0090452407491045,0.0090069457565577,0,0.00107287791918057,0,0,0,0,0,0.00172124196700981,0.00213847169724342,0.00266061794613611,0.00279115829850223,0.00299498874562557,0.00281057211288642,0.397527723444023,0.382578100492487,0.382502735703827,0.382270033738298,0.107759918663012,0,0.00105754375284185,0,0,0,0,0,0.00161578856909007,0.149955830115616,0.748412521587009,0.748637728852071,0.587063384857655,0.587064082081854,0.587065083930416,0.587064147067386,0.587063473629545,1.00836317660748,1.15150449671779,1.15390860312406,1.17237402642662,1.17297485576195,1.17362018171497,0.800895617464472,0.800901546863948,0.80090521143626,0.800901546862421,0.800895617462001,1.18934933372979,1.19073558116956,1.19263114271777,1.19521514076221,1.19925680678977,1.20130081531816,1.2032510941124,1.20555401158158,1.20876951828174,1.21120704645558,1.21288063507692,1.21490167529345,1.2174753639939,1.2195701844843,1.22188955428446,1.22601445050019,1.22792599733056,1.22958424989863,1.23104161396638,1.23287152484276,1.23470667248076,1.23718792859134,1.23997282753907,1.24093486261014,1.24184341546736,1.24217969254049,1.24349265532098,1.24349425230437,1.24483981774222,1.24574144197479,1.24750702405116,1.24796835109581,1.24901099814344,1.24985182836693,1.25120322527932,1.25560610617652,1.25692921608053,1.25954000217696,1.26120686139796,1.26253088421114,1.26349615289331,1.26540204664192,1.2673190415931,1.26927447964342,1.27135598882106,1.27293763585762,1.27407866170929,1.2757990884819,1.27713895847192,1.27900817447933,1.28022849224289,1.28124975243647,1.28165167363409,1.2832932867067,1.28477237988056,1.28809156981287,1.29002160362465,1.29166576249542,1.29320747545665,1.2956311866932,1.29859693857349,1.302233424503,1.31284924423392,1.32206338532814,1.33030971276821,1.33948701349358,1.33813892071262,1.34356371254256,1.3441884466002,1.34492116289156,1.34277931913789,1.34296608006579,1.34325958502666,1.34455494253472,1.34634833069902,1.34808661482224,1.34999464542336,1.351470580341,1.35310647308618,1.35494294438508,1.35702279872874,1.35883670821339,1.36096909003812,1.3632338810123,1.36589478880628,1.3678347270079,1.37016383244985,1.37103831785585,1.3723670000383,1.37351388425304,1.37504903972376,1.3759817792697,1.3775194770032,1.37942688632508,1.38210154586851,1.38313069347288,1.3849855014543
0.00180237598117985,0.0020333456327496,0,0.983587000000047,0.179398058108621,0.984703000000047,0.000716541498374553,0.00280792356537897,0.00290458742102936,0.0033489953277585,0.00282418914596543,0.00256629553672313,0,1.02575000000005,0.146099460906111,1.03238000000005,0.210191508880888,1.03878000000005,0.28048854957065,1.04534407603446,1.04457735054471,1.04512374526225,0.635906650203691,0.00304984562847351,0.00200949677798745,0.00293559562974306,0.00740468762007688,1.06292000000005,0.173889548874709,1.06539000000005,0,0.00196470609541897,0,1.07851000000005,0.123893848359721,1.29079000000005,0,0.00252069700151988,0.00260949741644891,0.00318362004834368,0.00316186628383572,0.00331585938447013,0.00379984699628865,1.10214000000005,0.382514181501618,0.00332070000021161,0.383465815972665,1.10794000000005,0,0.00214123055854746,0.00124578912797262,0.00210496055005769,0.000806016183282253,0.00189393349696151,0.00109340417197813,0.00251923439663231,0.184944829912821,1.31051000000005,0.749237382984628,0.00341605000021071,0.0797770200117004,0.00350327000020988,0.0798631427352123,0.00331021000021173,1.00836190453361,1.1615273969583,1.16189710178089,1.1716199859299,1.17274306446313,1.1740638960104,1.17610871488766,1.17805719953847,1.17995469403558,1.18147996629869,1.18319160270113,1.19049389199036,1.19148452702565,1.19272122570223,1.19529775468731,1.2010588577645,1.20199563120119,1.20407905342444,1.20493665415023,1.21292803199876,1.21316464647207,1.21435232321066,1.21680176650684,1.21940854969436,1.22138460483873,1.22776377902876,1.22736708251577,1.22724916715444,1.22937273088904,1.22896997720487,1.232667042608,1.23433654791707,1.23736079488559,1.24475711205499,1.24327446974388,1.24559224545216,1.2445813619967,1.24736281545672,1.24541743766621,1.24741209136853,1.24713938466175,1.24920623261628,1.24942843714479,1.25141880421017,1.25047159763404,0.0035723300002092,1.25841124004561,1.26241032547251,1.26228151353977,1.26286475043045,1.26459347369992,1.26515183729533,1.26787468523337,1.27070206694931,1.27125120029775,1.27213168601324,1.27403174581035,1.27533633563976,1.27731514325049,1.27911181692101,1.28060354851256,1.28205022308819,1.28266154488839,1.28306339133031,1.28476160490754,1.28668307561255,1.2880847504834,1.28934141591607,1.29076716481006,1.29174847633512,1.29413082139167,1.29603730579329,1.29831620273154,1.31245946199408,1.31587936555414,1.31816436789824,1.33238550778365,1.33206956411522,1.33952557582801,1.33696193636126,1.3414649647992,1.34093938201035,1.34242948285895,1.34362019602866,1.34424204024565,1.34519635714551,1.3481827940082,1.35155622487263,1.35251884084502,1.35399463050608,1.35622962954892,1.358442997551,1.36069159367419,1.36349909608888,1.36530082791347,1.36776187737916,1.36962576365756,1.37205076624947,1.37290191333816,1.37403411278478,1.37553173247759,1.37632233675904,1.37781716943283,1.37780213023922,1.38138028948446,1.383781232574,1.38555192451368,1.38632146039736
0.00135416231841383,0.00129636381718683,0,0,0,0,0.000891434742710525,0.00216729345296172,0.00277124725723159,0.00296825921991351,0.00276104390558395,0.00217353364599944,0.00104750232815577,0.0733211497248694,0.104519111498087,0.136074261242143,0.168610541709582,0.202437844711068,0.23766816904207,0.274341185183407,0.580575379215318,0.634919783946608,0.635271377469538,0.00199910281184166,0,0.00192970649189494,0.00624038836924048,0.173889548874712,0.135736374290961,0.0975821311829864,0,0.00118075312127113,0,0,0,0,0,0.00203627176891448,0.002662047630962,0.00306994541563544,0.00325099454896266,0.00337819115771127,0.004273236262058,0.112241837662486,0.382277994221905,0.383476883227888,0.384035036162007,0.108198829386486,0,0.00142680633845533,0.00128289469950984,0.00137811731710783,0,0,0,0.00185918732844504,0.220903294386098,0.750111710679281,0.749787150464607,0.73547561774099,0.735939540772793,0.736684009731287,0.737420846854129,0.737872421328332,1.00836101161434,1.1624783936157,1.16289676193476,1.17074653367562,1.17225013264576,1.17404981537929,1.17616183946781,1.17841351378763,1.18035791902361,1.18258095412295,1.18487879912009,1.18966633275061,1.19147962809588,1.19377293282929,1.19614372931319,1.19925185057411,1.20119259416099,1.2031174893227,1.20404984968024,1.21353718379995,1.2142400000966,1.21574885486357,1.21837195489393,1.22095584266986,1.22344971135926,1.22770570437952,1.22905441717114,1.23039135149661,1.23120450248472,1.23228571346694,1.2337863985238,1.23555150207252,1.23725293984943,1.241772870843,1.24257567845714,1.24374706580974,1.2444906108263,1.24484831569604,1.24480526441089,1.24587862701434,1.24687497064219,1.24890681357328,1.25149039640493,1.25462607653869,1.25807293508452,1.26141732195812,1.26348334082052,1.26406102604922,1.26504518995809,1.26690901372879,1.26773516846771,1.2689789387385,1.27101775719377,1.27245721224078,1.27378074242642,1.27482849405431,1.27635733573213,1.27768897838597,1.27957526742052,1.28130607030011,1.28287491587029,1.28412899216681,1.28499944725269,1.28558598947281,1.28673022138068,1.28767394844675,1.28880371847248,1.28950317062422,1.29078020761406,1.29166781947545,1.29348834382069,1.29507766055583,1.29726166826532,1.30055895461128,1.30861929767347,1.31560095684357,1.329115715183,1.33862891536115,1.34481189040468,1.34032919310465,1.34148694518921,1.34141969107683,1.34215117075306,1.34302291435488,1.34436420140035,1.34600649314478,1.34863646028103,1.35144822483435,1.35355367475448,1.35575590939642,1.35768854045239,1.35979761924057,1.36177041282941,1.36411577030278,1.36618869148804,1.36863218925297,1.37009801346909,1.37192542554459,1.37353773616939,1.37565866052302,1.37709798858038,1.37906132291832,1.37971545294259,1.3811500922485,1.38271811258645,1.38530719838752,1.38686601733655,1.38952388644652
0.0018990040311566,0.00259400864468484,0.00164244040175925,0.00229289874327533,0.00114336528185284,0.00226869040871532,0.00192062558067715,0.00293870682134737,0.00283680509731389,0.00319977745864352,0.0028735312769351,0.00299387963444797,0.00230059771989445,0.00321444982858543,0.00320291146709842,0.00330483363914987,0.00307585829544673,0.00327752585003339,0.00304802305354054,0.00333018791320749,0.580190831090019,1.29495000000005,0.635093810005256,0.00290283600851112,0.00191933238934793,0.00279631039589445,0.00551081369582412,1.06722000000005,0.0975852166192231,0.00300749029760695,0.00204553562747949,0.00272287894866404,0.00195392929469072,0.00251006409796545,0.00189416335246838,0.00256540211141738,0.00182741757313918,0.00298973095598826,0.00294566973442752,0.00320487676190401,0.0033242639252666,0.00352402496930404,0.00442448391012694,0.00349340000052832,0.380697850669333,1.15344000000005,0.384497794896711,0.00310355507000307,0.00193598232677391,0.00271725894127962,0.0020476326780957,0.00267205810867166,0.118786743935986,1.30780000000005,0.112414075099409,0.00304118870264404,0.257926547741765,1.1435000487926,1.14482020466937,1.14501797967599,1.14702756651407,1.15305782886922,1.15429784618872,1.15588646807384,1.15670666406917,1.16308302338667,1.1643328151911,1.168720524417,1.17156832540884,1.17365102819778,1.17623217493888,1.17892684351522,1.18081150631889,1.18313889656625,1.1858181723219,1.19021186834339,1.19197460301016,1.19373733293414,1.19645281226665,1.19803106278448,1.20084293233278,1.20226044455325,1.20382884936549,1.37959000000005,1.29208244492585,1.37842000000005,1.21986968659545,1.22252837004764,1.22328562624166,1.23137124197101,1.23094091548299,1.23372770063999,1.23319328689724,1.23491066037634,1.23519741853203,1.23651560169072,1.23727664465568,1.41217000000005,1.24375247044685,0.00338236000021103,1.2468180574155,1.34524000000005,1.2572534721798,0.00332720000021155,1.26230254411233,1.43018000000005,1.26743467501348,1.2654424338981,1.26527897235923,1.26561699804564,1.26487192990355,1.2661726672945,1.2671222995668,1.26999929375861,1.27295465887709,1.27637209180067,1.27470959596137,1.27522313310313,1.27617442548456,1.27760707840436,1.27863831151067,1.27982653851946,1.28179078840493,1.28400199774318,1.2851489535417,1.28708959220615,1.28716654806384,1.28820755170101,1.28840812759671,1.28918779355031,1.28953923215059,1.28972272877714,1.2909561449203,1.29113845759281,1.2931934361383,1.29414776414355,1.29632093245888,1.29786404575171,1.30411469809216,1.30781800938109,1.32040968837576,0.0035206100002097,1.03651961388968,1.48182000000005,1.34118174330846,1.34096601584291,1.34174594136244,1.3425428061901,1.34418600000809,1.34655891874161,1.3487808400439,1.35258414606355,1.35442962414069,1.35801116368743,1.35914322378945,1.36114164609791,1.36287018645553,1.36447756037745,1.36726093938746,1.36966923573881,1.3708754627721,1.37099231012338,1.37443208442067,1.37675306191741,1.37904384254264,1.381656321968,1.38194017481506,1.38261194577301,1.3843913865205,1.38578844270319,1.38866220585706,1.39147854512238
0.0918438283658245,0.0786494822561547,0.0657421546964725,0.0557816558954721,0,0.001676809916,0.00214339592844815,0.00263411514391737,0.00259789670303523,0.00271432780904213,0.00261867644477653,0.00271399674942048,0.00251019943250659,0.00293008455334693,0.00302102601447994,0.0030380655730094,0.00273379298245663,0.00277104643227507,0.00267057450489168,0.00297970711641951,0.57963760486235,0.634991411877,0.635014659912992,0.130465691577073,0.0923268329173467,0.00192988130628257,0,0,0,0.00209049308883793,0.00241004107962542,0.00274563513947521,0.00257197078340139,0.00272132655586063,0.00257579855282744,0.00281682396545606,0.072110523564437,0.0999347817311557,0.128418730792599,0.157917773204476,0.188748794396239,0.221170878431207,0.255384112803675,0.291524700117223,0.379655255707437,0.55673826898613,0.5560913280647,0.55518104477567,0.554548371443345,0.554572632512352,0.555248173236912,0.556187642071096,0.556848416908859,0.989575217241247,0.989575210745841,0.989575210746102,0.989575217241876,1.14508152096452,1.1460522630145,1.14704136107574,1.14914251946989,1.15200673183196,1.15415650696063,1.15582710626426,1.15777964124276,1.16063039283257,1.16271922807901,1.17017248268913,1.17174439457795,1.17374283485332,1.17600682472534,1.17860164043405,1.18044617655994,1.18296804403897,1.18593608149475,1.18937005608293,1.19177144182808,1.19459737530628,1.19656967403287,1.19906472061512,1.20070407099858,1.2025538947089,1.20389616179537,1.21113792755092,1.21254162643931,1.21473487665925,1.21868461288741,1.22169674671003,1.2239476442668,1.22758037726956,1.22940284161001,1.23167845411564,1.23277548339816,1.23440654462587,1.23568676994153,1.23722483673096,1.23757710138574,1.24753609604782,1.24706591567733,1.2513275583947,1.25099221749245,1.25719256119483,1.26036585258733,1.26470203972715,1.26707416408103,1.26875610594329,1.26963271252726,1.27146414302257,1.27325026661502,1.27462664181315,1.27532381899356,1.27529970189011,1.27472870299017,1.27422923591147,1.27549609467457,1.27639457147655,1.27678391215752,1.27726231171375,1.27862971943802,1.27985734373043,1.28098845853539,1.28204638236783,1.28385514456905,1.28562206247601,1.28683743786974,1.28784177679592,1.28882036453514,1.28952210624091,1.29017711095551,1.29042525204557,1.29119154540065,1.29152957157491,1.29282270586722,1.2936652439277,1.29445142800181,1.2949527378378,1.29676961080243,1.29903805287395,1.30333691598893,1.30833969698983,1.31520568290601,1.03651961388968,1.03714815984596,1.03942153847912,1.0414842982902,1.04271252824063,1.25842379999477,1.34253494846854,1.34384559251952,1.34557843382444,1.3478937860281,1.35147953527478,1.35380574787544,1.35788665129118,1.35967914629451,1.36163520376721,1.36365313324563,1.36613354290815,1.36789926971477,1.37017980694542,1.37166318886424,1.37372844554254,1.37515442866002,1.37731670473898,1.37916303984661,1.38174092826717,1.38201799516608,1.38327292748432,1.38440675325527,1.38675480220812,1.38821822215856,1.39093897572832
0.234445579424734,0.990451000000047,0.163682892359487,0.991412000000047,0,0.00234359436419938,0.0023961494185676,0.00298012906716235,0.0020382554358919,0.00249564941556576,0.00195980553683435,0.00268657753951779,0.00208589335766256,0.00287207090462576,0.00285522709839168,0.00306710417639954,0.00206086069171133,0.00256339566655981,0.00203185688066848,0.0030444015213523,0.57919953488226,1.06615179356648,1.06525547277576,1.06498040379791,0.130465690135915,0.0029662165932933,0.00183006381871528,0.00252393290654079,0.00204551651211546,0.00296554346236336,0.00290928573988123,0.0031331393569104,0.00307333696388394,0.00320811232463944,0.00304003294439359,0.00337083647190812,0.113433840501233,1.11422867821934,1.11564279734106,1.11643790311027,1.11899640076718,1.12091927808423,1.12278309632193,1.12417033951933,1.12618068635716,1.12777517277494,1.12919958309111,1.12990062014318,1.13230364365517,1.13420368661945,1.1352488939393,1.13602168685909,1.13725845010778,1.13761298243542,1.14043610179841,1.1423804246612,1.14438260459006,1.14602687058626,1.14694859772635,1.14858414530478,1.15004167315395,1.15241478914245,1.15404927219593,1.15623286086683,1.15767283882225,1.15931662127913,1.16306533312449,1.29155000000005,1.17157645965596,1.17355415049479,1.175665588506,1.17871568269638,1.1798562623247,1.18185986828471,1.18612131502551,1.18907356980399,1.19223366017478,1.19490542580985,1.19727109568856,1.19944364815651,1.20116488928057,1.202236571518,1.20553307328359,1.2092207888031,1.21155259930212,1.21270695920939,1.21442070223776,0.00346223000021026,1.22337244763666,1.22552005476025,1.22760253570116,1.23074879882201,1.23217192353612,1.23425180324394,1.23649900388193,1.23951330459675,1.2390648920759,1.24972822159372,1.24758514500256,1.25703274861439,1.25462661604287,1.25903188720896,1.2621384887026,1.26782799659065,1.26840222009274,1.26999696327494,1.27109401452443,1.39551000000005,1.28091186221927,1.28126384292927,1.28201347296137,1.28178825026584,1.28260337506964,1.28241966579912,1.27917065898408,1.27736097986102,1.27850875290319,1.27847909203473,1.28098599997453,1.28241707283317,1.28335671770637,1.2834645050682,1.28597016808678,1.28777254745373,1.28861372525516,1.28886261723177,1.29039603130974,1.29146608594412,1.2918170032398,1.29196120114631,1.29272086934897,1.29320544453092,1.2947650085088,1.2968247851695,1.29595678424445,1.29478342874441,1.29737826021406,1.29870480994462,1.30232211616401,1.30394327583984,1.30912973409142,1.30700146411859,1.03657382040887,0.00341998000021066,0.0916359002015695,0.00337334000021111,1.25842388585166,1.34149844320297,1.34319581129208,1.34443934357437,1.34593705507343,1.35220917512417,1.35149996508913,1.36011057569437,1.36040420100482,1.36181581600444,1.36455319405564,1.3678151638082,1.36879799942799,1.3704357391135,1.3727970822605,1.37578702235939,1.37619413369225,1.37664781810101,1.37974196779537,1.3823428099419,1.3824825870495,1.3820175077098,1.38476670096948,1.38633523868749,1.38822532609797,1.38869735658164
0.197094896074432,0.161285249815221,0.126124881793464,0.0920090157392708,0,0.00182021701205481,0.00222323840476616,0.00206848431674852,0.000472812697273768,0,0,0,0.00054964422408754,0.0021250672069128,0.0023770038858508,0.002001858323159,0,0,0,0.00203342927053459,0.57904100464167,1.06534665966125,1.06494853051588,1.064731247361,0.170449889513551,0.132303435304365,0.0939619745020301,0.00280692130886314,0.00268192250744067,0.00299703880031326,0.00308512803587353,0.00325988207805271,0.00329083480467248,0.00336822717683382,0.087734065634635,0.12592381567588,0.164126095627594,1.11518301383503,1.11656135569384,1.11802182530204,1.11985362006654,1.12189826152651,1.12343294322363,1.12506302269269,1.12676317526612,1.12854228406285,1.13011086726042,1.13161058200447,1.13302397173169,1.13422638117098,1.13576232015485,1.13700797180511,1.13840225284441,1.13956761772083,1.14162002370838,1.1434019637571,1.14526792383705,1.14664749672518,1.14815090219651,1.14925096144486,1.15128443203014,1.15278057820026,1.15470750641712,1.15587279078137,1.15836985678654,1.16033245019778,1.16330591991877,1.16592264856916,1.16955269094697,1.17203844297645,1.17425593788938,1.17634581718769,1.1779991663907,1.18000054363912,1.18676394927358,1.19038270922025,1.19199705430428,1.19471807569238,1.19651496153556,1.19912066600938,1.20073556984423,1.20312715233297,1.2057003144297,1.20902705458111,1.21100100194571,1.21296938021545,1.21513851123529,1.21802389957969,1.220675855552,1.2225488028841,1.22473156866832,1.22843075428553,1.23089641681476,1.23428037713544,1.23669071002553,1.23920494780349,1.24084136446044,1.24476962123797,1.24765770159745,1.25180158608889,1.25240604809621,1.25747689776271,1.26253059797037,1.26748140644071,1.26914592871673,1.27156269311476,1.27356135108292,1.27796296580922,1.28029424089224,1.28180302145982,1.28293076870251,1.2837111413645,1.28387972662125,1.28366890233402,1.28183372120305,1.28058312208489,1.28140770012658,1.28191413189031,1.2841972556478,1.28536519757959,1.28649600775117,1.2872105180949,1.28863532586362,1.29005198378612,1.29101933967635,1.29180080838948,1.29284207080316,1.29359690060489,1.29442902545359,1.29481700340276,1.29544869575042,1.29571907812379,1.29698215698762,1.29798933063926,1.29814627175953,1.29828736249,1.29933871356703,1.30081997978664,1.30304911288199,1.30562254918382,1.30750793007467,1.30693911580676,1.0405897115328,1.04048837743311,1.04034509294973,1.04024379218434,1.25842397170852,1.28606570185543,1.28595938053472,1.28589012695172,1.28583697280821,1.34728600773948,1.34870178600787,1.35883959514203,1.35993695298042,1.36284055893332,1.36446843435207,1.36655200827409,1.36811800155039,1.37050616252657,1.37202875741864,1.3744121892159,1.37564160287847,1.37777085810723,1.37899943197883,1.38113328325507,1.38149722865092,1.38290555803253,1.38405106640416,1.38637150607897,1.38734087170415,1.3895258295907
0.0797119101060847,0.00337094000021115,0.0798510429171895,0.00303370310637636,0.00193691044623682,0.00281263307818773,0.00265805098193207,0.0029649212945025,0.102695895288934,1.02528000000005,0.800996256203022,1.02730000000005,0.085560436064983,0.00307633426490623,0.00263813697430009,0.00264475255810975,0,1.05391000000005,0.1018480226279,0.00311903553609559,0.579115898572352,1.19105000000005,1.07138532770291,1.07114623763784,1.07272309662137,1.17841000000005,0.132395778173578,0.00321757306979725,0.00304212592202392,0.00328753024609408,0.00326225066334226,0.00344542763610621,0.00345669848860663,0.00358060130644075,0.12673348687917,1.22364000000005,0.832035033596322,1.20181000000005,1.11783065150198,1.11955537050176,1.12075150234992,1.12365998781365,1.12409107163548,1.12620220612494,1.12722581783318,1.1299494239635,1.13092119055432,1.13396980190136,1.13369445107011,1.13458161090056,1.13625697091393,1.13857576184808,1.13943808391154,1.14143147958902,1.14268822737203,1.14528427592982,1.1460788656219,1.14851722740296,1.14886441002575,1.15073109668738,1.15190886955879,1.15464977782917,1.15488591578534,1.15607253083596,1.1585044679966,1.16157093578769,1.16323079620722,1.16541137660795,1.16843668192484,1.17106532789026,1.17297765778074,1.17428447783867,1.17599822261557,0.00352770000020963,1.18632588631904,1.1911501759773,1.19216825428008,1.19389016817248,1.19627846724292,1.19794523154012,1.20063346587199,1.20226998503773,1.20579813833432,1.20910389614336,1.21070696726833,1.21226582579874,1.21489402828993,1.21788462447084,1.21871668040083,1.21920820742484,1.22080078399301,1.22032829930003,1.22915475004824,1.23527646352069,1.23723220999128,1.24013453484474,1.24083700069954,1.24324518774805,1.2421298359342,0.00325007000021229,1.24802393302877,1.38438000000005,1.26413027868925,1.27096282375102,1.26961779875292,1.27339992522258,1.27498655616499,1.27906133041328,1.28058607071401,1.28262005644596,1.28400085944996,1.28636847892462,1.28555460533341,1.28687510796733,1.28376299362215,1.28218848466423,1.28438362516067,1.29005918650357,1.28847338735127,1.29040251101293,1.28968706691741,1.29009116621682,1.29137801815073,1.29271439542324,1.29351384344016,1.29475416785128,1.29519520957903,1.29635274442047,1.29686295895433,1.29841723197689,1.29786789807559,1.29819344607794,1.29900746200611,1.30056036210277,1.30033547828455,1.300867518727,1.30139424369349,1.30178041629036,1.30463108763354,1.30723366673764,1.30884433002166,1.31028696058993,1.31348268473529,1.31564818903968,1.31744155341745,1.3231479212902,1.32421038795588,1.32920301320172,1.28589012695167,0.00336335000021119,1.041366036252,1.34439365327192,1.3467301655241,1.35657762691769,1.35809943522101,1.36501278490015,1.3645234926318,1.36515841430679,1.36747091174504,1.37033781150372,1.37150183612894,1.37271119597642,1.37551156938171,1.3780600977327,1.37878280332234,1.37965653185725,1.38105383284516,1.3818097485039,1.38388904158929,1.38542598862241,1.38699542639975,1.38800395053949
0.312767345613843,0.313943638517952,0.314388963077176,0.314370898213494,0.313828498157728,0.312473955650961,0.310153943097696,0.307378971767961,0.305415402083462,0.323945172684749,0.80130693117945,0.800996256203022,0.123182477809589,0.00292424097557438,0.00258280486900869,0.00200162347498877,0,0.101877333629646,0.140016907338092,0.178173525001671,0.579235063531229,1.07082007074586,1.07175805858982,1.07279144295503,1.07458512585279,1.0768696255586,0.483259822109743,0.48311746586355,0.482933699862334,0.482809811833839,0.48278224195682,0.482852453968492,0.48301900786285,0.483240064897449,0.483404751165205,0.832035033596322,0.832109484044787,0.832294210255626,0.832418924898941,1.11890198571148,1.12025581228174,1.12213602536564,1.12345089913092,1.12496083503998,1.12653915871486,1.12825344412793,1.13043542630805,1.13251740081763,1.13419718207967,1.13555354272,1.13724925407747,1.13864901171939,1.14058759805981,1.14222568366354,1.14381025878664,1.14503877202866,1.14693400700483,1.14831819716126,1.15014855367247,1.15125503504513,1.1533833633406,1.15463070723276,1.15662453839313,1.15762904116458,1.16024729388043,1.1618288403241,1.16417455958464,1.16562322730002,1.1685880917166,1.17073796360717,1.17257768727994,1.17387596940729,1.17582565564239,1.17744528203504,1.18584082484729,1.18942276572449,1.19060444703167,1.19293189047976,1.19493669640422,1.19788731578493,1.1996997029679,1.20234159157324,1.20460500105738,1.20742594275231,1.20940173884249,1.21154441498959,1.21364084619009,1.21570550325924,1.21687409633207,1.21763762355089,1.21865915571559,1.21892919790147,1.22725332965443,1.23621527332966,1.2368942280269,1.23852774000116,1.23966505875997,1.24118713466693,1.24212266459845,1.24420288107936,1.24680014008851,1.25213153276027,1.25936827682397,1.26289512694375,1.26519759793534,1.26551557588392,1.27138063189891,1.27178218447287,1.27178218447286,1.28296666576242,1.28411273775305,1.28538492813044,1.28536749945763,1.28535327438403,1.28455184787072,1.28443900194975,1.28645952833654,1.28923440130849,1.29011077147492,1.29143803920492,1.292108881447,1.29320032704729,1.29402048664264,1.29500467070148,1.29575610719484,1.29645354650313,1.29742654635334,1.29816168413254,1.29920749242863,1.29980810158123,1.30045655964144,1.30064439599836,1.30103705102595,1.30123839163092,1.3018839242794,1.3027266748903,1.30306875182311,1.30414717776971,1.30562135770724,1.30811587967374,1.3098237763856,1.31243415030222,1.3143067465207,1.31660989114208,1.31886886680392,1.32214146185075,1.32416718483459,1.32624340124439,1.28583697280813,1.041366036252,1.04199600209905,1.04427498265682,1.04634295341765,1.04757436229518,1.28043560427514,1.36329170542386,1.36315352136376,1.3640657624682,1.36541053598259,1.3676841309418,1.36964164091588,1.37275512340751,1.37394340086059,1.37593546031242,1.37648815105876,1.37811003219682,1.37903934488457,1.38114449784914,1.3819734937801,1.38408199955743,1.38513124430605,1.38772278243499
1.00854363266134,1.01002737762663,1.00952650757807,1.01008500460541,1.02645954983412,1.15148000000005,1.07420523548937,1.15841000000005,0.323945172684748,0.00338631000021098,0.802101376424517,1.16150000000005,0.160837391012073,0.0032320268097068,0.00288257665155952,0.00291170110420913,0.00194860385906603,0.00298222016122913,0.17817352499864,1.06899681180371,1.0700425236031,1.07013394269358,1.07223465504906,1.07389753834978,1.07620310838845,1.07945722076762,1.08170547090754,1.08395805139048,1.08562956237853,1.08740774977198,1.08763227168172,1.22512000000004,1.1637125599294,1.23391000000005,1.15830352370915,1.23453000000005,0.682541924018864,0.00313603000021338,0.596959242168848,1.11714972316622,1.119444815228,1.12152743896867,1.12264657869255,1.12416740899259,1.12550791124032,1.12687829180815,1.12958833341933,1.13256894033434,1.1343692434943,1.13753600276042,1.1377771647489,1.13969053017493,1.14121320266312,1.14471929168685,1.14436805338759,1.14600443897794,1.14718367408645,1.14993856973528,1.15073908685752,1.1534458023838,1.15399891212044,1.15684457415032,1.15740465437356,1.16052391874067,1.16114526345443,1.16382108713051,1.16454513308428,1.16600337112444,1.16870418284853,1.17155995430427,1.17250908513749,1.17302297152622,1.17636372527984,1.17903521320445,1.18409739182516,1.18798842570382,1.18935877178569,1.19053765803074,1.19412520504215,1.19694116664135,1.19924685490657,1.20097608043039,1.20379358021381,1.20526645404408,1.20845777854027,1.21005295758397,1.21260898877754,1.21404786335861,1.21549374465658,1.21582436074276,1.21739690878807,1.21761187293739,1.22517418273358,1.23641016276337,1.23599368227098,1.23764068533004,1.23866687640593,1.24043630640955,1.24219010811128,1.24541298732644,1.2452352688518,0.0033476200002113,1.25924162920355,1.26381930107444,1.26338451610001,1.26514641363249,0.769824074051746,0.00335989000021122,0.231030083044262,1.28212823248623,1.28401929681066,1.28581140215043,1.28512751856182,1.28491465677837,1.28453624487705,1.28487427444473,1.28725968319994,1.29088961608911,1.29134374346233,1.29360945423295,1.29416852716623,1.29661995674892,1.29652601108378,1.29769227254748,1.29789183844364,1.29838272527832,1.29945360754796,1.30055244345777,1.30132757715818,1.30224348355904,1.30283956190469,1.30377514967058,1.30290928538178,1.30174713825253,1.30344122533464,1.30453440471166,1.30480858738573,1.30493261476604,1.30681199381379,1.30844483158156,1.31110149273767,1.31441310832707,1.31544250366633,1.31703706005602,1.31961743386817,1.32229114177797,1.32403419154889,1.3257280645201,1.32813403919525,1.33055891276794,1.04142002358719,0.0033217500002116,0.092576185435549,0.00351709000020971,1.28043560427515,1.36175072501085,1.36117965606663,1.36201515160816,1.36323973967842,1.36435017517808,1.36715819379625,1.37442779600076,1.37285661204898,1.37346407641812,1.37474838861185,1.37519356566764,1.37757551662886,1.37966064233113,1.38042496667679,1.38246264803983,1.38359967662807,1.38644090725385
1.00781071807973,1.00864407409228,1.00904901575747,1.00909902975282,1.02680046338647,1.02959343316646,1.02890378517107,0.801096219755179,0.801392980478215,0.802147619592018,0.802720976268042,0.80347778887849,0.198631785208947,0.07541199585286,0.110261533161865,0.145896652379111,0.182039215421688,0.218788622587388,0.256214031672321,1.07027832431884,1.07108176626371,1.07196264240824,1.07332813536085,1.07483169306902,1.07711758272644,1.07956090910242,1.08177312648247,1.08355809927602,1.0854389915599,1.08679121238649,1.08751158823298,1.16182792171778,1.15787624328457,1.15124383269274,1.14054579050202,1.12757376745469,0.682606266309126,0.0800140670606111,0.596078459896527,1.11801153593446,1.11914774655401,1.12046149815829,1.12187929540991,1.12331387318534,1.12513799891685,1.12687647806108,1.12950748962991,1.13168035779288,1.13456564223376,1.13679582339318,1.13828328552413,1.1392828220076,1.14168821205089,1.14367029093887,1.14498010050016,1.14583786216874,1.14823224645783,1.15013935780248,1.15223740789265,1.15357107655134,1.15554778925005,1.15664842502082,1.15905124532715,1.16043684553423,1.1632216632138,1.16478131270759,1.16677411305619,1.16768921110909,1.17030458096015,1.17208050148173,1.17353617189652,1.17465786947107,1.17723896754377,1.18026058027932,1.18294619469584,1.1856619971389,1.18733033835319,1.18957976633678,1.19208185775992,1.1953672589301,1.19738956098313,1.20007108577164,1.20272826388067,1.20578419035087,1.20804419806677,1.21043823315515,1.21215872359883,1.21375772593175,1.21506650132863,1.21622696476278,1.21760490673469,1.21919939529361,1.2232239232595,1.22636740652071,1.2322284264289,1.23563878440709,1.23737410778202,1.23986469533823,1.24157918975562,1.24378886067542,1.24502546440008,1.24678880608167,1.25517813336367,1.25554542278997,1.25878093897491,1.26180711868697,0.769830003441348,0.0796336400256734,0.193047461065753,1.28310739793705,1.2840063443708,1.28479799569344,1.28454567227325,1.2836469657722,1.28408012475456,1.28479904228212,1.28709510514234,1.28968921713316,1.2909834061887,1.29256645594851,1.29453559242835,1.2969614553646,1.29800867921772,1.29943300141187,1.30020493089891,1.30126887770808,1.30225595936394,1.30333065944906,1.30435345970644,1.30478543276874,1.30583717393252,1.30617537807979,1.30550153802013,1.30486882097181,1.30518545151993,1.30588498803817,1.30543233580597,1.305745590622,1.30652881321822,1.30838611533303,1.310101164235,1.31286287768568,1.31489028084935,1.31788649789513,1.31962946943086,1.32191635286388,1.32378069841166,1.326416467694,1.3283402284651,1.32924024191351,1.04552691574816,1.04542611413792,1.04528358263288,1.04518281425028,1.28043560427514,1.35567063587891,1.35768126356333,1.3589603530788,1.36059109361123,1.36404032159803,1.36583594979463,1.36691815717361,1.369298247369,1.37111323105412,1.37199483193157,1.37378160849613,1.37440443954641,1.37598616962382,1.37653447241166,1.37794007089523,1.37772721927645,1.37764940169232
1.02080395977354,1.02326234058235,1.01611386956727,0.00325814000021221,1.02881692390173,1.03218375671048,1.0300913028229,0.00327189000021208,0.801096219755179,1.05087190567686,1.05126351039965,1.05207978213193,0.236595838201946,0.00353216000037372,0.147995586128478,1.06307666557505,1.06477199078831,1.06612607199468,1.06887432219778,1.0708351898816,1.07210978907534,1.07344094774467,1.07436293070259,1.0751979582781,1.07783986244136,1.08016894796051,1.08201403854978,1.08323804506212,1.08535932946939,1.08673925692952,1.08758594266327,1.22536000000005,1.13541305864413,0.00343328000021054,1.10108815577267,1.10342271189543,0.682670587966038,0.00348465000021004,0.594640230969967,1.23380000000005,1.11887113291689,1.11960754059119,1.12109046412603,1.12255331870681,1.12459787074661,1.12673869179965,1.12932062699324,1.13124281979179,1.13461194839508,1.13831799292181,1.13833571701216,1.13923190288096,1.14156333948956,1.14525731451651,1.14490141364205,1.14638177228682,1.14840400795408,1.1528260882287,1.15280032379863,1.15623246527929,1.15588861852006,1.15873991685441,1.15933564085161,1.1626587683925,1.16412343615634,1.1686638411207,1.16805807204917,1.17019074346147,1.17143532171024,1.17431687101394,1.17444087633229,1.17516631706684,1.17803326586534,1.18105554058336,1.18260566970122,1.18369229503193,1.18599771819752,1.18648507735796,1.19076314719283,1.19305467083789,1.1963232540073,1.19706978633011,1.20225988739073,1.20626708202944,1.2080846026228,1.21080190145445,1.21211367791568,1.21357841813251,1.21486111117651,1.21647487314215,1.21754203806938,1.21913845127075,1.22181828113185,1.22401805540142,1.22422482843344,0.00332458000021159,1.23580716273139,1.24049461809567,1.24102597085545,1.24377368578343,1.24488753834402,1.24930608072935,1.25133438223259,1.25304808751698,1.25572149847077,1.35333000000005,0.769833667997682,0.00336581000021417,0.155200442528063,1.3642599999992,1.31799760524406,1.36532999999816,1.30329221416901,1.28116046022105,1.28326385433761,1.2834318597362,1.28657177440912,1.2901034989236,1.29032447384838,1.29144077311284,1.293837560775,1.29962576830674,1.29910285967839,1.30225573273224,1.30204021039472,1.30492506165102,1.30455627756544,1.30710614497925,1.30692108408195,1.31028702113057,1.30860904227012,1.31012690070416,1.30802383675906,1.30677134413941,1.30714641862892,1.30715860003481,1.30653010809875,1.30412753310007,1.30681227699204,1.30634766850793,1.30970697094377,1.3104381523625,1.31398120290284,1.31987068174104,1.31984062837743,1.32169315652017,1.32317212424102,1.32818237362007,1.33004387389477,1.33341522392508,1.33532632262524,1.33640080596971,1.33843664480064,1.34099165910449,1.34004338128881,1.35404432661975,1.35558000492531,1.35562555972304,1.35664269319566,1.36508322601899,1.36547724427121,1.36504052749127,1.36735354383038,1.36835047960365,1.3699316738927,1.3722502716335,1.37176547091676,1.37209298617751,1.37273385282633,1.37197259545844,1.37357461329934,1.37412560516413
1.02461206125175,1.02761233628658,1.03101135507394,1.03502883106576,1.03678438476185,1.03760947287745,1.04142843860056,1.04566756084775,1.04782484924607,1.05037093642721,1.05130474454267,1.05281364946146,1.05550734318833,1.05956792289945,1.06161050075234,1.06325356086826,1.06540867148541,1.06750973982462,1.06982381622839,1.07180120378796,1.07320333042503,1.07441455008704,1.07566307805627,1.07698726221017,1.07917681347832,1.08120770870589,1.08325079977569,1.08477279890076,1.08625910825143,1.08706325318584,1.08829624576312,1.08934014836644,1.09140958420737,1.09400963431707,1.09924311237587,1.10152163784501,0.682670531540832,0.0818858281441741,0.593140155960043,1.11709471572333,1.11808691412324,1.11905655799089,1.12063707979223,1.12234850414234,1.12444212707178,1.12717494449606,1.13057916818839,1.13310926176115,1.13555428810385,1.13778929936296,1.13907151422396,1.13997932695523,1.14188331426409,1.14346677136913,1.14504641464977,1.14620115968509,1.14863097981142,1.15051932558442,1.15287268086946,1.15435467882412,1.15653044387591,1.15770543274221,1.16074547232362,1.16267359289257,1.1657791698375,1.16767594904818,1.16988792897731,1.17115999564417,1.17319745519625,1.17458505011787,1.17579312304441,1.17681466255726,1.17862317442786,1.18061416993491,1.18177869519506,1.18307942310963,1.18478099401952,1.18670321745662,1.18948020982223,1.19242315006002,1.19564585489087,1.19863561228317,1.20123216608536,1.20421161849241,1.2067575681406,1.21011911299644,1.21156697146229,1.21315667885773,1.21440019422133,1.21580681772779,1.21716419692237,1.21868482806194,1.22128034532097,1.22358327157565,1.2247861319995,1.2260340557598,1.23471469322975,1.23702020868211,1.23861545105527,1.24059503264753,1.24303178556289,1.24622816289966,1.24846338614389,1.24957468520858,1.24874567627749,1.24872029284128,0.769830003407867,0.0795638245959227,0.117453983050992,0.15553016303301,1.0687437994583,1.3297346780776,1.3159279692985,1.29854231326061,1.284502294022,1.28493698654367,1.28593252154429,1.28764863625121,1.28910768449791,1.29106269652863,1.29348654056719,1.2960284295204,1.29762023669489,1.29957400761021,1.30139296533843,1.30362487710297,1.30475145109927,1.30623046298368,1.30732014205358,1.30878684412706,1.30927260801451,1.31011095125862,1.30956273288366,1.3095263073736,1.30838435272772,1.30805987650757,1.30744489636683,1.30787283962006,1.30786747272682,1.30917056339186,1.30981888243316,1.31193327090955,1.31426951931687,1.31753282420355,1.31839676451017,1.31992364143287,1.31992254889412,1.32999060624624,1.33053622312961,1.33370440101916,1.33658652967355,1.33690703988663,1.33816419869022,1.33929770521869,1.33960568257897,1.34194063333456,1.34641877217628,1.35146767402442,1.35369236215158,1.36660320418388,1.3656864018692,1.3655605844435,1.36606108823266,1.36626770027658,1.36643123275969,1.36652886628539,1.36731948036229,1.36861641791322,1.36909763471492,1.36960868650392,1.37047292330136,1.37140050384587
1.03345054073531,1.03560712849772,1.03702191993358,1.03792566922386,1.03936718340456,1.04133340357643,1.04256634148269,1.04942986298244,1.04936926511657,1.0513189431844,1.05174793634244,1.05307722407901,1.05524273927319,1.06261643385286,1.06287327673622,1.06358703027461,1.0663655484516,1.0690861415564,1.07114453216107,1.07358169604885,1.07443708514456,1.0755167065138,1.07678695765207,1.07813522700422,1.08037386322538,1.08269530245901,1.08441819217152,1.08689287071541,1.08704174041159,1.08733665676661,1.08868971179045,1.08883260858037,1.09133498326631,1.09179693071404,1.10028502413417,1.21909000000005,0.68260611209809,0.00334769000021137,0.592023806515452,1.11619540275612,1.11741977795827,1.11806506565741,1.12004016786029,1.12199708329645,1.12348103714241,1.19293999999782,1.13227728243516,1.13580545038092,1.1360754819615,1.13934746853607,1.13939823819177,1.14113832099143,1.14163672965869,1.1433018123147,1.14459734130692,1.14667143431913,1.14817538314237,1.15020614580543,1.15220504783464,1.15483864541698,1.15614269843767,1.15840523055886,1.16087874556575,1.16542604206427,1.16613780511508,1.1701369425462,1.17043471442056,1.17439312499038,1.17406943841831,1.17689546750332,1.17669721581153,1.17829545242083,1.17924508643757,1.180543257051,1.18152401550839,1.18072250873483,1.18421032555385,1.18406263600849,1.18903868864739,1.18979459319063,1.19621501259963,1.19922694941498,1.20067214057701,1.20204311234101,1.20473961430387,1.21127096927484,1.21111439238894,1.21310522164381,1.21379637625641,1.21545896828502,1.21658576593733,1.21721112637068,1.22140196278138,1.22456862999623,1.22566641586216,1.22781394735322,1.23169787271907,1.23455466877624,1.23619291959547,1.23733742276123,1.24053305849729,1.24465004155507,1.24711443488506,1.24852990311116,1.24874647837916,1.24951468349057,0.769824073997572,0.00360415000022817,0.079574858881637,0.00340443000021482,1.06886228584908,1.34337000010909,1.33281560020153,1.34303000006094,1.28526376112754,1.28601217963329,1.28452383922145,1.28574738297552,1.28737946251499,1.29061928359146,1.29245937431767,1.29448085915188,1.29582140333829,1.29753857837218,1.30022825208478,1.30408904520536,1.30434229020054,1.3064933750681,1.30705525444747,1.30936330901403,1.30952285585037,1.31149429514966,1.31102378653074,1.31250267368048,1.30985561784748,1.30741570709596,1.30893951779788,1.30957873933667,1.30958976605915,1.31014876039978,1.31030087949611,1.31158121498473,1.31412946067126,1.31781809391752,1.31697599554371,0.00350316000020987,1.31736616375383,1.33157344445792,1.3308245531257,1.34705990071915,1.34131983292891,1.36085000001774,1.33835490979702,1.33878424205542,1.33809085756045,1.33815373902667,1.33784527694823,1.33909890179655,1.35067009708968,1.369171885504,1.35602277662559,0.00317998000021296,1.35858557992323,1.36407415593128,1.36405854360654,1.36181459054914,1.36334699990222,1.36500854945067,1.36646190288274,1.36626968281127,1.36776251971773,1.36768015208401
1.03449369779854,1.03619628892371,1.03803995599275,1.03975795399446,1.04129453050603,1.04315569034289,1.04508634219206,1.0480595666897,1.04975423917101,1.05141386985736,1.05195586245752,1.0520244724721,1.05767001826346,1.06392798223834,1.06451553102113,1.06588681612202,1.06807684710304,1.07046324082514,1.07253007283135,1.07442918158273,1.075715282008,1.07678986652287,1.07803774084466,1.07932687915453,1.08187890254555,1.08365981622809,1.08553085902766,1.08702816123949,1.08837351196038,1.08924798057456,1.09080337452696,1.0919960776676,1.09380193710071,1.09584272940252,1.09987613723632,1.1018173842439,0.682541713288165,0.590747239147493,0.591511560629346,0.591621746192094,0.591839297655968,1.11817341764484,1.11921135836409,1.12225334510345,1.12399703267217,1.12740464250923,1.13056998205245,1.13315720053468,1.13435953394272,1.13740020298923,1.13898531127292,1.13994762265683,1.14137255827153,1.14271511367121,1.14472217871105,1.14704520045954,1.14901009435797,1.15060797243818,1.15337292495552,1.15548385334315,1.15789382983429,1.15952960144859,1.16255962095682,1.16467202321462,1.16704309544571,1.16842027369793,1.17082637610756,1.17243262242711,1.17439454134828,1.17583652796887,1.17719704027079,1.17842630505897,1.17972097100178,1.18110921900027,1.18217030864707,1.18323057330468,1.18538979255594,1.18725950311726,1.19003887193325,1.19243919667964,1.19545794797253,1.19784632173288,1.19958203509693,1.20152914473759,1.20393728541524,1.20702577176857,1.20880727174494,1.21058294041621,1.21249724975328,1.21448698501982,1.21662163636258,1.21898886399531,1.22160611604849,1.22463933288648,1.22590335788025,1.22792828719202,1.23010694554348,1.23272667707656,1.23466842541719,1.23627841370211,1.23750427540103,1.23695205030414,1.01776353645907,1.01776854825712,1.01777564357064,1.01778066606104,0.953080841989035,0.953080835494477,0.953080835495935,0.953080841992556,1.06902987704336,1.26424679288644,1.26629909826264,1.26906157936142,1.2723571120249,1.27614561603817,1.28061876287777,1.28288203102043,1.28431061450074,1.29094917904604,1.29175205641949,1.29278024103821,1.2941188286323,1.29583873662858,1.29839792449518,1.3008156546916,1.30260632921842,1.30414425777816,1.30552184007158,1.30685172368392,1.30802347743963,1.30946054342354,1.30983767538621,1.3106908192812,1.3095085291546,1.30926985588285,1.30895439973759,1.30978500322086,1.30813034588587,1.3080443928568,1.30763758722552,1.31015575124546,1.31222132826225,1.3133791570927,1.31491163946578,1.31497316853578,1.31581996397257,1.31792465685362,1.3208058188835,1.32416439672431,1.32758462188402,1.33070979776584,1.33342520011961,1.33596306297297,1.33600414494606,1.33674911047869,1.33664856764407,1.33778347735942,1.33864672512196,1.34016471197464,1.34150722648301,1.34303207647244,1.34771139466091,1.34986640595849,1.35325349361452,1.35795174964024,1.35873325390947,1.36485063900316,1.36526927711246,1.36577313886575,1.36660824031791,1.36744373908435
1.0355784884394,1.03729840992825,1.03929565801718,1.04248112027304,1.04354507839439,1.04558599683715,1.04703719873135,1.0488287312482,1.05111299102936,1.05321014304404,1.05361542386884,0.00340225000021083,1.05936476451048,1.06652178760508,1.06632954691013,1.06828558370402,1.06970334936974,1.07291170341703,1.07392283817777,1.07638934701976,1.07696808367935,1.07817549659007,1.07903452896956,1.20247000000005,1.08372327461514,1.08519117830051,1.08617088620962,1.08829354708275,1.08908269968137,1.09131923562081,1.09224615479165,1.09509687016773,1.09547903907542,1.09769481990434,1.10029655484014,1.10287645220936,1.10508545578644,1.10825023580565,0.592210411598301,0.00321874000021259,0.230895451453996,1.11691583993131,1.11821894903054,1.20119999999955,1.12303497031874,0.00343869000021048,1.12911216247546,1.13243290921357,1.13153318958104,1.20957999999945,1.13889596722353,1.13888844351492,1.14075206068493,1.14213512947246,1.14381608349941,1.14887305971295,1.14952110312967,1.15144984181132,1.15381449431701,1.15838644691056,1.15880345420088,1.16212842909771,1.16325373678951,1.16709908376724,1.16679296026882,1.16923895286503,1.17000047876482,1.17316751038061,1.17377186485534,1.17686623649095,1.17715022517883,1.17929032004542,1.18002769351088,1.18166320000766,1.18274575186239,1.18328101912741,1.1864316162652,1.18756515394898,1.1907978416313,1.19342717772095,1.19541672368953,1.19661029373512,1.19880288910162,1.20001600270106,1.2024177891122,1.2043544895647,1.20662827758336,1.20818455077365,1.21108230095425,1.21379195663957,1.21597902374199,1.22106589419921,1.22110906334654,1.22792255016087,1.22576405394079,1.22839723914295,1.22862885910173,1.23232094312598,1.234096835497,1.23606625281351,1.23667530032493,1.23681345987542,0.155939615271912,0.00327358000021207,0.964037891461373,1.24867000000005,1.11866267878911,1.25748000000005,1.1187025710002,1.26004000000005,1.06914840040008,1.2623086791159,1.265740833298,1.26880878401817,1.27222006743248,1.2757706429179,1.27908214797197,1.28102235656692,1.28267645587072,1.31299000011388,1.29122189642178,1.29123580547317,1.29230225052243,1.29388800994667,1.29680143929148,1.29854275021184,1.30110123445967,1.3023443760453,1.30406995848862,1.30463085301939,1.30659177369257,1.30803524311282,1.30898494692151,1.30964491249329,1.30956087635795,1.30912053174242,1.30961143360686,1.30992019622338,1.30725607974358,1.30268939104746,1.30415829112538,1.30198656272307,1.29991600836465,1.29220749303793,1.30533786532927,1.35998999999944,1.3139033610076,1.31253195845179,1.31322538384863,1.3133921694782,1.31772563597738,1.3224368746926,1.32253284234416,1.32089612080339,1.33409391092493,1.35741999385543,1.33533405994993,0.00351651000020974,1.33920140545084,1.34122764238035,1.34216530193317,1.34458942984471,1.34655671449781,1.34854493207521,1.34965189254951,1.3504529315614,1.35519199248307,1.39291998163301,1.38266820066332,1.39568997248688,1.38677018329611,1.39451999759487
1.03597833822482,1.03779834373058,1.04004687519108,1.04348627209072,1.04544528008119,1.04746323317374,1.04914832388772,1.05118205008863,1.05306293889373,1.05517695971281,1.05645523987972,1.05914158076149,1.06144294831441,1.06517615769435,1.06683908774587,1.06860590464865,1.0705185529356,1.07251297633285,1.07462846571629,1.07654576509007,1.07810728146377,1.07947287613998,1.08101985837561,1.08309303447464,1.08436977805045,1.08534256161087,1.08667541992454,1.08767895198523,1.08953573005247,1.0909676012792,1.09265231902688,1.09402032947732,1.09568484787801,1.09797537885656,1.10036678902048,1.10237183195164,1.1040311969899,1.10558358942357,0.593495771820361,0.0795538952567379,0.192912150635807,1.11689412451629,1.11813489930617,1.12018793806803,1.12197321121859,1.12319593717339,1.12515205962227,1.12508037659996,1.12541440339087,0.538490948263941,0.53783470217986,0.536904774658145,0.53624322809755,0.536234786361506,0.536881417041398,0.537801189335789,0.538452621853235,1.15330819539402,1.15497335556848,1.15694743463965,1.15901710918647,1.1618113516222,1.16380858787589,1.16523301819917,1.16693789956785,1.16819350105953,1.16987069972698,1.1710439779333,1.17308118273863,1.17477083592552,1.17661204750563,1.17816548584518,1.17972420426622,1.18128590693568,1.18303811107694,1.18522917318194,1.18779305232954,1.18989459583116,1.19228489404464,1.19426418290985,1.19574327385468,1.19734438378429,1.19858084214042,1.19988752666124,1.20126207377326,1.20279185874189,1.20538730529151,1.20787556567487,1.21030421960608,1.21266398130719,1.21498875325126,1.21744156479028,1.21918800391215,1.22044677464663,1.22245855106218,1.22389860372296,1.22456516656563,1.22397037206134,1.22362304163858,1.22415052137309,0.943408378001633,0.155939615271912,0.117803596651007,0.0796611403528775,0.964073714199987,1.11866267878911,1.11859961840386,1.11864603086438,1.11862847315829,1.11870255414849,1.06101858681744,1.06062917153004,1.06022854625051,1.05997287832049,1.0345029995021,0.784904639134151,0.78491056853675,0.784914233114115,0.78491056854533,0.784904639148033,1.02011993425909,1.29062472130899,1.29057001335595,1.29003458475387,1.27827963951978,1.27827963951979,1.27827963951978,1.30345061285051,1.30386863262817,1.3043170842999,1.30535702939656,1.30683399559235,1.30746075636339,1.30848506971525,1.30826715591213,1.3086802871935,1.3081707762966,1.30831254188361,1.30571620513673,1.30374508739449,1.30240528551543,1.30096654610801,1.29755673314563,1.29227623320263,1.29012378317359,1.28973120275071,0.805287153610319,0.805293083006182,0.805296747572646,0.805293082992961,0.805287153588927,1.32417855437799,1.32437766767701,1.3263436729709,1.33354431499701,1.33443349419103,1.33542144736206,1.33717690456426,1.33859732526463,1.34043458167277,1.34161226616327,1.34360916022739,1.34525066058006,1.34730101286814,1.34860684049207,1.35003883380151,1.35197548039234,1.35227674843061,1.35239226160129,1.35289558803811,1.35412167011834,1.35607437035667
