1.40025678566195,1.39751785096032,1.39606166382107,1.39402495031293,1.38626010220626,1.39341913550892,1.40399822120714,1.38689859716289,1.35641218038376,1.35795791223325,1.35714470273639,1.36042885171417,1.36226733703273,1.3629418537905,1.36285312573267,1.37364682600324,1.37695277732495,1.37553101918081,1.34941948928538,1.35268434412182,1.35010736014434,1.35078060912855,1.3492519982117,1.36512703311611,1.36510955743646,1.36550138900819,1.38795924381457,1.39075629113042,1.37398999998766,1.42051130143161,1.46159999921162,1.45696248834276,1.47950000000038,1.41596016471751,1.41250121418368,1.40946563912091,1.39713747262597,1.41210706176603,1.41314128970016,1.41253613922699,1.41537771227122,1.41929916659524,1.42968499379714,1.42150770351333,1.41417776056517,1.41479327290124,1.41411118165947,1.41722278830727,1.41881166101661,1.41856179389082,1.42073039121345,1.42274976299428,1.46729999999673,1.44368024563409,1.44579094750427,1.44613779583496,1.4474530528247,1.4297279036557,1.41929820710155,1.41595216163771,1.41333915312468,1.41159027768466,1.4118471719753,1.41399206042275,1.41323783522769,1.4157581697749,1.41559624723915,1.41763953593093,1.41903296956868,1.41939964571686,1.41798782443172,1.4208660042687,1.42152904208869,1.42367177875305,1.42396283874381,1.42634516127611,1.42625417078453,1.42984203550863,1.43381585337731,1.4321808706592,1.43078525861301,1.43420986246897,1.43891538060235,1.35398499262087,0.00356287999999995,0.0944839987397715,0.00408990999999995,1.44513133203747,1.44745151732392,1.44972477237448,1.46037051255408,1.45700880331069,1.45586628554712,1.45697005357766,1.4578013516401,1.4557101926146,1.49157000000001,1.2540293472577,0.00367256999999995,1.28098491471707,1.48930494707381,1.48800256529045,1.48485926034434,1.4887661664501,1.49045416466002,1.49113368495184,1.49018551382004,1.39566134443099,1.50407,0.183775770827736,0.00340545155917211,0.00235374035150521,0.00293722424091942,0.163052643985768,1.50703103512046,1.50205238104655,1.51347000021946,0.145923465438581,0.00364370043006728,0.145025432747505,1.51949,1.38226565860834,1.52917,0.132269549916114,0.0036511801665431,0.00372307526039546,0.00384143115408246,0.00379281651069369,0.00367125766794574,0.00373948169059001,0.00342127001836474,0.00377396729373746,1.58499,0.00381694254786965,0.00364496747424019,0.122908559876326,1.69338,1.55830758740895,1.56587172181699,1.56341252401155,1.56675202711206,1.56397366517004,1.56964212670915,1.56632408353859,1.5783100001513,1.22233246795472,1.57787,0.00355956184792584,0.00364382018999602,0.00374986811574631,0.00341412394028649,0.00383512244737346,0.00388720945967756,0.00397605707940977,0.00378913110048767,0.00400780719906947,0.00377905295069453,0.00406759654143786,0.00382618286704808,0.00398747787745286,0.00370677201717483,0.00386148864941174,0.00353163887881576,0.00379574833280641,0.00333540514487693,0.00385628572993991,0.00352324375697453,0.00388253088179645,0.00342459943193845,0.00385297558224804
1.39905452815966,1.39646965260981,1.39426544236887,1.39203483545852,1.38697453336338,1.38240860256609,1.38020585697643,1.37792462400913,1.35956711195913,1.36027079210792,1.36033501644703,1.3617079533189,1.36293968739158,1.36370581139055,1.36542982586055,1.36968722176967,1.37104371093944,1.37139197213708,1.35235300168918,1.35331910237005,1.35371977739011,1.35566892164742,1.36091915463922,1.36515380588226,1.36675845302528,1.36681409338818,1.3907564640333,1.3925605383566,1.39381115087508,1.40817424079679,1.42007741559231,1.43072956209045,1.44528941357261,1.41411368017422,1.41126902076594,1.40664423887031,1.40345219366391,1.40724077906676,1.41043854994162,1.41014320236022,1.41644547412507,1.41706687100387,1.4165992968861,1.4179787014223,1.41658889520429,1.41583026777667,1.41575618313374,1.4170497563226,1.41806101271383,1.41847765890261,1.41922275153578,1.41874772172741,1.41663612072084,1.41441272282701,1.41223329732024,1.41091634322699,1.40973687281153,1.4088618626836,1.40850942052302,1.40870041726616,1.41009259300588,1.40989829299752,1.41069249003397,1.41292691768643,1.41338004549904,1.41698669354063,1.41650457855772,1.41742837730883,1.41887786689048,1.42096358817542,1.42047689845283,1.42268870580919,1.42312170826312,1.4247929638799,1.426402165447,1.42807921089033,1.42720358775909,1.42807145126428,1.43047066215608,1.43005141376949,1.43063130882008,1.43084230227401,1.42977617721919,1.3539719380654,0.0945148199046247,0.139701500327256,0.184894826186882,1.44172127848403,1.4436221139305,1.4458517111713,1.44961442826382,1.45255586296447,1.4540421307014,1.4546952151572,1.45442802971751,1.45331182733102,1.45241126478873,1.39780567083369,1.39780174832357,1.39779582438904,1.46740093968457,1.46736924777112,1.46753924106619,1.39842388642421,1.39798371304778,1.39706384044269,1.39565104171601,1.39383121345351,0.738813990677673,0.738812590021654,0.738810475041851,0.73881306566809,0.738819777997895,0.738825556626469,1.49513338342787,1.49764034467039,1.49763646934093,1.3822534190691,1.38225536976022,1.38225853256905,1.38226189574773,1.38226470132019,0.331177735229634,0.288259266324658,0.249826336167419,0.213389252484046,0.178696918522836,0.145417622012363,0.113049326430986,0.081271198756765,0.00352548375605538,0.00362565125920153,0.00365631609136436,0.0037102720259704,0.00366735951212425,0.168107567112657,1.54991831450292,1.55250699436985,1.55538688341169,1.55848681758991,1.55833329296767,1.56031814199059,1.5603515858747,1.56280460258171,1.56308221795696,1.22233246805211,0.140722334570738,0.0038430892118361,0.00385088636339518,0.00380894356191144,0.00374006606968873,0.00387797447560473,0.00398804063267088,0.00396758685855725,0.00392759806768795,0.00413097989159977,0.0042217371691173,0.00431099726150719,0.0042031359115263,0.00404306781664033,0.00391625888230125,0.00376494163197034,0.00381726167671758,0.00367178988383688,0.00385229585352667,0.00367755492139987,0.00389957732770449,0.00373895360591157,0.00396924415342787,0.00374477671583766
1.38445249742854,1.38787646588774,1.39245202162676,1.3925840073321,1.48094999999996,1.37984396687881,1.37365083621549,1.37535167103691,1.36202692509155,1.36319737249162,1.36201809169866,1.36310597068076,1.36386937327838,1.36354787627679,1.36531178687862,1.36845963901042,1.37194358670856,1.36724400167945,1.35440672946707,1.35464355306435,1.35546620599958,1.35677641840014,1.42612999999994,1.36705751921173,1.36971828245661,1.36821216270435,1.42776000000053,1.3938125299385,1.39412738763428,1.38653591435601,1.3839193746393,1.41867220387561,1.46595999999635,1.40464528551676,1.39992715400334,1.40223091894287,1.40258357793379,1.40226067375276,1.39694524624499,1.40656348518621,1.42664761525209,1.41569983686223,1.41452510682712,1.41692807703524,1.41807438058422,1.40185040745123,1.39230758925674,1.39194861529309,1.39014246214809,1.39750488168238,1.43348933158085,1.41254928867684,1.40675746551888,1.4089920494555,1.41150298830011,1.40605604107933,1.40287605840755,1.4032448984261,1.4032831558781,1.40474775118194,1.40534960049719,1.40704306084756,1.40868715120161,1.41313788879366,1.41044077188883,1.4219493913965,1.43765605594195,1.43619072248883,1.4359776932761,1.42556442658999,0.00354846999999999,1.42611871813501,1.44246334350991,1.4376547973907,1.44035823997925,1.43309057581512,1.447568967262,1.42514839733933,1.42338840884624,1.42715529367005,1.43112220763516,1.42907450997541,1.42920289959513,1.35396545074045,0.00413623999999996,0.184894826186882,1.43509629241178,1.43758427919556,1.44020405363036,1.4434412583055,1.4430684269733,1.44874319762506,1.45308521726738,1.45318502136138,1.45210989088087,1.45067856656111,1.45167621439344,1.44704670607226,1.47154874028837,1.39779049898955,1.46791975292278,1.46771166504057,1.46819614479067,0.183725211418852,0.00396794000000029,1.10066682946336,1.48423,1.3899775267932,0.00364034999999993,0.738813990677673,1.48386769740346,1.48184935563227,1.49261869913329,1.48781727857949,1.49314443894941,1.49628112155616,1.49825968158069,1.49332367826511,1.50603613191863,1.502388990772,1.50817685985523,1.38226565860834,0.00347860999999997,0.331177735229634,1.51249438239684,1.5112955156057,1.52550992876185,1.52247892193427,1.52529460683173,0.14195762548873,0.00331793330044389,0.00351598448445917,0.00352107809016585,0.003618611447108,0.00355085913392539,0.213368050583485,1.54643862855618,1.55092683620008,1.55457607066788,1.55648306120995,1.5559881661113,1.55814915546091,1.55775313355644,1.5613043554507,1.56324459602206,1.22233246805211,0.00359132496370425,0.00380100405192599,0.0038158021099574,0.00380452848156627,0.0036074915548682,0.00384265091014428,1.60518,0.00385910068732474,0.00351422463411782,0.00405618537600217,1.58508064756976,1.58377270392778,1.60228000013901,0.00395072998872819,0.003621894302374,0.00378678761219669,0.00342792120053443,0.00382039852927959,0.00344893179537266,0.00386556385293936,0.00322564360596817,0.00398515306652307,0.00365849607916828,0.00400227695153025
1.38491278144753,1.38485019293219,1.38176091432028,1.37866919803978,1.37768669288749,1.37701682227438,1.37384346036008,1.37393489912652,1.37195625742511,1.36813200490439,1.36552380996058,1.36446586944578,1.36322845757633,1.3608841477512,1.36261859491812,1.3606272692973,1.36219563298984,1.36274112495951,1.35874455224912,1.35535286830474,1.35658026972202,1.35873936723234,1.36251625843044,1.36581259586242,1.36734823608335,1.36829604578905,1.37047339887482,1.37303124870958,1.3768494180428,1.38154808694053,1.38496706870389,1.38882783232118,1.39135700222341,1.39459683154675,1.39742775256747,1.39974081686045,1.40148773874353,1.40205853018526,1.40225722263583,1.40235795551801,1.40190246894687,1.4019986169458,1.40291200132001,1.40087681669375,1.39910812965179,1.39704668553005,1.39432514243703,1.39303964585286,1.39227460465439,1.39316518911575,1.39360687146687,1.39392876394537,1.39466036855957,1.39629006630925,1.39893819943309,1.40224306139777,1.40288623225779,1.40383408747042,1.40418576843783,1.4050035634924,1.40490574926567,1.40522488178901,1.40507118349396,1.42058534512446,1.42404039317199,1.42599340256334,1.43458654130666,1.43457070479123,1.43368486224124,1.4306821851944,1.43102388991764,1.42957858161941,1.430327086665,1.431666956838,1.42948022951991,1.42814494910665,1.42633323426805,1.42403822567678,1.42355719858607,1.42414182319035,1.42461253474898,1.42546319519317,1.42715909866812,1.39836147263433,1.39835091324478,1.39833280913479,1.43283322942066,1.43391990024502,1.44366551623305,1.44449631658212,1.44468308694371,1.44572571156195,1.44604221264553,1.44519482956795,1.44596345442346,1.44608155717205,1.44701178422365,1.44473717405326,1.44349291308571,1.39778746165102,0.272926024104807,0.227966945762375,0.183216913858448,0.13862190392931,0.0938458641290956,1.10069099866636,1.385566779106,1.3864013298588,1.3843809152428,1.38331250922332,1.48086133260229,1.48021381355676,1.47997755355518,1.48277375493596,1.48295728088124,1.48402211459938,1.48613227754052,1.48902157953599,1.49165091377419,1.49623541668191,1.49741709802762,1.49861561886986,1.50231665165066,1.50396635248435,1.50740300104126,1.509474087346,1.51207132893387,1.51682426078367,1.52114578589745,0.731423538257634,0.73143831411281,0.731456874761064,0.731465487970673,0.731457972691122,0.731440292943977,0.731426006249302,1.53350178843141,1.53512487572413,1.53737729150735,1.53800629647603,1.53819371044718,1.53885224350894,1.53973840658146,1.53985531051021,1.54015298032234,1.22233246795472,0.162730022165949,0.116862856540742,0.00379556956944727,0.0038033618237568,0.00378354130134657,0.00385965688728469,0.00389694231919202,0.00390494246022266,0.00388219074590933,0.00409541704982417,1.58019497260131,1.58212612832624,1.58378740817085,0.00378397072098938,0.00373580590202232,0.00364043890386712,0.00373182047051084,0.00361492885634281,0.00378776765194739,0.00367593245659672,0.00393219771823426,0.00381315480764678,0.00408295884132567,0.00384275204757851
1.38528564109971,1.38425410710297,1.37451180850276,1.37659847925432,1.37501475175271,1.37627263068213,1.37021651202346,1.3737688679888,1.37575010009226,1.37119302510704,1.36702267797956,1.36582542483439,1.34919934619051,1.35366079714056,1.35059609380097,1.35407471071236,1.35012496089379,1.36276326798138,1.36264530864653,1.35157873842815,1.32991174346122,1.33001384804958,1.33046142671651,1.32856664243561,1.3261754270566,1.33304659867677,1.33477549378392,1.336719655273,1.33614725271954,1.37876515656455,1.44613000000023,1.3897569671759,1.39022492419551,1.39287584113379,1.39525093551501,1.39761674972445,1.46624000000023,1.44277241994713,1.46836000000016,1.39868129441379,1.39509221643532,1.40055315005883,1.40641676637876,1.39146317388515,1.36806015027181,1.37099099089061,1.37375184255087,1.37145389305067,1.36916793680236,1.37869014576482,1.38278104285622,1.38000910951393,1.38043161212175,1.38943705985804,1.39220483619193,1.40255884397162,1.40316541683062,1.40422638218772,1.40558605712716,1.40538630539519,1.40477706707725,1.40386561268919,1.40219453105707,1.42338476527682,1.4279779128,1.4297138309,1.432591457288,1.43345293432868,1.43357534205035,1.43246183723653,1.43304011714561,1.43095293068699,1.43052221214823,1.42983794392584,1.42902631546812,1.42737141307063,1.41800526316691,1.42089236614743,1.42251146223145,1.42121912224195,1.41803986686537,1.42147180911385,1.44331000018822,1.42398784502922,1.42657266451003,1.39831189565426,1.42971204822409,1.43170877594479,1.4460329825479,1.44557744257869,1.48571000000015,1.44242017108688,1.43832741451852,1.43760208790728,1.43786053358165,1.44129072064526,0.00356408999999999,1.44365196086116,1.44459789310329,1.39778667894216,0.00374848999999995,0.0941422796617852,0.00374400000000019,0.0937818812719528,0.00353840000000009,1.10072557377386,1.46737526390062,1.46323149878775,1.47378182538018,1.4695911864706,1.4788515709633,1.47865952734153,1.47734305954217,1.47626387412786,1.47564592427567,1.47802570303264,1.48182496399288,1.48572892819304,1.48905591596788,1.49314938018977,1.49693929120123,1.49617547448576,1.50466464832943,1.5025464069976,1.50345975624086,1.50697891391182,1.50984742332985,1.51191797715453,1.52267646642446,1.51868803607333,1.5213620328007,1.51818344149642,1.52719915173865,1.52417391154956,1.52518507452515,1.52265534231793,1.53237459850019,1.53498574896805,1.53955483596676,1.5391529278703,1.53958266388731,1.53982569662973,1.5413579195069,1.54013203824054,1.54077175400901,1.54089571773566,1.54646233845794,0.162730035407662,0.00366155222294262,0.00375828728851332,0.00372744087534859,0.00382904612418365,0.0038183552817969,0.00386420216287405,0.00371005409267974,0.003928250315702,1.57650607945871,1.58016325406028,1.58511367265839,0.00354404031314266,0.00344756459444482,0.00363190571229307,0.00349107362519768,0.00368130265793001,0.00327131906787755,0.00383255639302736,0.00366906657444947,0.00402405094661612,0.00368087820573377,0.00403840605647571
1.38290446806174,1.38183652194219,1.37873511622885,1.37794399045529,1.37659561253166,1.37611489245431,1.37478472917276,1.37460232106792,1.37488241150308,1.37393085443952,1.37464362115404,1.37469120433752,1.37351157751695,1.37194861883027,1.37024263152922,1.36863282420517,1.36654714938211,1.3644988313993,1.36443341251408,1.34789842694744,1.32929034193713,1.32965359625169,1.32972727422335,1.32903883198706,1.32869618876244,1.33044873422456,1.33644705083006,1.33814237180611,1.36328690003291,1.37653761222797,1.37558532405507,1.37566515677954,1.37604734134212,1.37577486268613,1.37571704132915,1.37561525211207,1.37521196382464,1.37443710580828,1.37347339007778,1.37263791328173,1.37218088359216,1.37209255825391,1.37206439830884,1.37159940557278,1.37048556758141,1.37094934040636,1.37171161096538,1.37124008116215,1.37113647451711,1.37415242306038,1.37538542586079,1.3768195455923,1.37805487849154,1.38675746131358,1.39749980730458,1.40217229548069,1.40504618313119,1.40556524744264,1.40543984554164,1.40730047548455,1.41345526683518,1.41796790957148,1.42178756611608,1.42528331981958,1.42855159830508,1.43184500563829,1.43262500981157,1.43320283059685,1.43319994789899,1.43275579874773,1.43230079628147,1.4309870095394,1.42997716552601,1.42866354916896,1.42675567023144,1.42443911996582,1.41996125951717,1.41898322055801,1.41959922808931,1.41999758649092,1.41885339847274,1.41842998805273,1.41809038597957,1.42112412230329,1.42398794845797,1.3982928245177,0.729782842470518,0.729797402911897,0.729815575633791,0.729823705343031,0.729815706563111,0.729797638889605,0.729783136781133,1.43428488535166,1.43904978856391,1.44039857273456,1.44135156108665,1.44284793131008,1.44342100078998,1.39778687937423,0.960412261428292,0.96041229432542,0.960412314688921,0.960412294428836,0.960412261595622,1.10074982792576,1.45590599602923,1.45924150292812,1.46111397309663,1.46535789479853,1.46812588981791,1.47051360196151,1.47261141194513,1.47347866784248,1.47440218772525,1.47648173341303,1.47933057513767,1.48216430823751,1.48525116576272,1.48691857586137,1.48924345812278,1.49281957593433,1.49575682310441,1.49795247026077,1.50222219490525,1.50470915129236,1.50707554852558,1.50778458197711,1.50924595801825,1.512432165499,1.51245143648541,1.51517803346332,1.51724777430183,1.52018626056472,1.52164184657503,1.52101929832744,1.53303996031116,1.53285608560811,1.53160135777268,1.53147791439833,1.53287135882941,1.53541653374811,1.53846237400666,1.5388404967757,1.53790088805373,1.53848222195355,1.53813170378779,0.270763537572597,0.225758482435264,0.180938961130107,0.136236986537488,0.0916055758943074,0.00381570455942278,0.00388290484740191,0.00384976190430112,0.00361048246926907,0.00278969809734842,0.00166685442750978,0.00250790282421324,0.00317718781031038,0.00347948068792863,0.00354293352438443,0.00363016220380032,0.00361384831606324,0.00368520381139394,0.00369446327243327,0.00386046509652639,0.00381445657995758,0.00394342393051655,0.00387175841150928
1.38002261283398,1.38074805101418,1.38018461101748,1.37930642764473,1.50557999999998,1.42798485893518,1.46892000000043,1.4282395124899,1.50255999999997,1.44044955318889,1.49772999999997,1.37541994601014,1.37519027924616,1.37357903041335,1.37148647000997,1.36934969757047,1.36713003660446,1.36520003731135,1.36686424892994,1.34427263456226,1.32828339528235,1.32954872672609,1.29838999990682,1.30964205014551,1.30010999989267,1.32863628964003,1.33823378759409,1.33964216525897,1.41661000000036,1.37570375218813,1.37499141651305,1.37581490917163,1.37702520869051,1.36948355905943,1.36287476346041,1.36325515240143,1.36357065665172,1.35576341314606,1.34391747666142,1.34511500307454,1.34383964721741,1.36305396666864,1.37221149513154,1.37174270617564,1.37102508981404,1.37024483584166,1.37076162157528,1.37029690434569,1.36993332801148,1.37117260824369,1.37024407432037,1.37399215067014,1.37437180370331,1.38455951110264,1.40629528108893,1.40266500475859,1.40963514036212,1.40654548281641,1.40469742378687,1.4046430006904,1.41549463102587,1.41893623497348,1.43268068723315,1.43085479149412,1.44437120422806,1.44108171109115,1.44421003380869,1.4162752881273,1.39239651467315,1.39277353626093,1.39711163767928,1.43030787179418,1.42990926689521,1.42768971927679,1.42474000670528,1.42301440638169,1.41830474347176,1.41552031030007,1.40534523824211,1.40447186425505,1.40579722456237,1.40814321599919,1.41460424803152,1.41809683524173,1.46235000000003,1.39827886011642,0.00321662999999994,0.0948002112968271,0.00357283999999997,0.0939665981462012,0.00343180999999996,0.0956041462840243,0.00369842999999989,1.43118234287238,1.47836000000018,1.4685635600789,1.47159780637768,1.44321074395315,1.44293783236962,1.44298205484916,1.47489999999696,1.44392024980608,1.4489184324874,1.10055131837104,1.44918,1.10074633224075,1.45270835603151,1.45685385869517,1.45873991924274,1.46228581500511,1.46790837162895,1.46647536425201,1.46363335109888,1.4674959817532,1.47137122667334,1.47451119046698,1.47577252294885,1.47934624048631,1.48090714096353,1.48335178480239,1.48346210367626,1.48525687972175,1.48601098852802,1.49084585003948,1.50230525219006,1.50260622900298,1.50033114409478,1.50528718980923,1.5078626653177,1.50938150220764,1.50938771617824,1.51253600993457,1.51600709243652,1.51757049509115,1.52053048141467,1.51966657629531,1.55969999999576,1.53135344659086,1.52891062208686,1.52733101917983,1.52766878013972,1.52594898771298,0.00341658999999995,1.53019284837782,1.53344650731805,1.53671886003342,1.53794264671042,1.53699705213663,1.53838826802317,1.5383056689092,1.53968918436205,0.136974091482094,0.00368246722128814,0.00391217432127741,0.00401659838616395,0.00373525057270321,0.00341268026617934,0.00270751057880492,0.0031410138380912,0.00328230256692711,0.00362921578131793,0.120397112740375,1.58578,0.145962029949428,0.00364281569193335,0.00370487971456975,0.0035953109429597,0.0037850320843148,0.00372803715539172,0.00386547744608044
1.38089236281954,1.3805315943325,1.37993458452101,1.3795108903501,1.3876089634833,1.38430575202582,1.37854836626622,1.37464065541217,1.37292834613934,1.37342766962736,1.3756825735009,1.37585001158791,1.37502280527665,1.3736718779914,1.37189390001806,1.37009907245847,1.36870169818976,1.35646069325603,1.35296034569172,1.34068053741144,1.33096056111669,1.33061691555628,1.32933463863778,1.32731521288417,1.32577823795634,1.32572161690026,1.33170460199022,1.3412703991659,1.3644138268598,1.36603361973786,1.37002788238122,1.36893456524401,1.36728636770034,1.36497532995174,1.36216614154025,1.3583184877963,1.35411243838114,1.34977086420962,1.34555980811837,1.3476021346835,1.35393946437038,1.35459123148162,1.35616089515082,1.36031192992401,1.36435947650265,1.36810181657561,1.36941114227976,1.36932982888846,1.36947633172645,1.37050495437671,1.37218081911142,1.37454925099314,1.37669463089093,1.38329970779202,1.39043566479139,1.3991646157084,1.40847243516674,1.40674937030589,1.40460221293022,1.40282463937948,1.41958374329095,1.42262674435145,1.42864606388229,1.43116699226001,1.43477013908117,1.43872348275402,1.44037592063794,1.40572833919549,1.39037976054268,1.38913979889645,1.41291391313218,1.42984989780551,1.42888973498263,1.4274093939117,1.42559995180958,1.42417424684161,1.41375588444686,1.40961091100971,1.40535716635569,1.40291908638518,1.40312029953015,1.40383386955697,1.40296203489955,1.40286614287738,1.40331926885687,1.39827162051491,0.73227730187504,0.732291841268504,0.732309976086414,0.732318058553209,0.732310012530843,0.732291906953354,0.732277383796967,1.42829799645037,1.43327048456071,1.43641561155871,1.43735916734098,1.44024508123909,1.44207306465985,1.44266049188417,1.45898393865508,1.43916590272387,1.43698261396349,1.10058946349235,1.1006502611586,1.10070977810635,1.45138692441293,1.45345562540619,1.45468988129061,1.45538976672005,1.45639157353588,1.45844908928079,1.46178585621675,1.46416277484541,1.4728740396928,1.47306830597189,1.47551671363697,1.47645316794215,1.47880165876571,1.47988631639873,1.48138996279721,1.48226427908811,1.48407412692766,1.48592803378535,1.48807394509294,1.49094740394834,1.49552789680145,1.49878491591826,1.50167254238507,1.50455936586128,1.50650249439402,1.50941935360552,1.51174835653767,1.51334388683146,1.51473641997651,1.51501942693071,1.51589058987602,1.51653144013817,1.51825072618525,1.52145983818149,1.52432280622568,1.52388246420693,1.52376578847922,1.5265622157549,1.53018082893481,1.53039924702517,1.53297105421482,1.53445492796301,1.53597032400427,1.53670422581803,1.53760260847294,0.182295174996606,0.00375842137283015,0.00394038964524677,0.00398036313291204,0.00376200304043335,0.00336228078369256,0.00301467041111391,0.0030962640102727,0.00324949145693525,0.00340589824870628,0.165607694785066,0.516397673148137,0.516052550051613,0.515541930759368,0.51508762172154,0.514812638992924,0.514723605115905,0.514799481596451,0.515051837579451
1.37979109537411,1.38019425962417,1.37944398398061,1.37931114684936,1.39155314261211,1.38789622459383,1.36226592731632,1.36081434169668,1.36050140381852,1.36567321669922,1.37845194843601,1.37717689352997,1.51216999999999,1.4418890628032,1.51311999999998,1.43365925465527,1.50617999999999,1.35295792285442,1.34794303483318,1.33716167271227,1.33392338276837,1.33238042227234,1.35560000000054,1.32591087715915,1.32350934930748,1.32185107994267,1.31557810678135,1.34324598387925,1.36289306131025,1.3637671183872,1.39948000001383,1.36115737232493,1.33851232647227,1.34072970796277,1.34011775062283,1.33999966122579,1.33969681436947,1.3403578404095,1.34102032051718,1.3456926730912,1.35952132044004,1.35385689946855,1.35375394914441,1.34930853425208,1.34722201914289,1.3469922049976,1.34735612081232,1.36807207245222,1.36848633006252,1.3692542476288,1.37362529921662,1.37515882805203,1.38048944212928,1.38345447988907,1.36820000129046,1.39549589154456,1.42820000000267,1.38971083480968,1.37513431328117,1.39967791397983,1.44453940888012,1.43906246475822,1.44474961926589,1.41807305986949,0.00357993999999994,1.42027869451144,1.44186919565054,1.40061786968372,0.00354921999999995,1.38523910980282,1.43358355690599,1.42997176917699,1.42831265218409,1.42698295081394,1.44306999915071,1.42312643842543,1.40087181973716,1.40437481353804,1.39983566617172,1.39989218225753,1.40030243483467,1.40137776540527,1.40226358486984,1.40242857277736,1.40371470375017,1.40271599870809,1.40304038232042,1.40319656318879,1.404828174485,1.4032959658791,1.43254999907193,1.41866952602426,1.41644765790884,1.41977798980934,1.41511792882288,1.42989442662681,1.43395859845629,1.43094342983311,1.42752072669564,1.43436973916537,1.47368000000583,1.43700621153884,1.43522020038012,0.18378395822866,0.00353460000000013,0.324360589141434,1.44762297329987,1.44196864873067,0.00357954999999987,1.44687077989905,1.4490672756847,1.44885972690613,1.45051868081703,1.45780044478724,1.50947000000042,1.46871747214585,1.46327478797407,1.47084974722942,1.476156889747,1.47709909118293,1.47773919790633,1.47953557384208,1.47973673531447,1.48309463349683,1.48483954062666,1.48899897107811,1.49193899467849,1.49179313810427,1.49214965813035,1.49708131206579,1.50279110383429,1.50357938994479,1.50313632188932,1.50835223308009,1.51232334516613,1.51263768443603,1.5121551370381,1.51390865194612,1.51694595609335,1.51961220852567,1.52413334451197,1.52111181735994,1.5205052717995,1.52180631106796,0.00328713999999995,1.52827036831872,1.52992419269194,1.53211701440759,1.53369495687566,1.53513673291105,1.53623140322299,0.228724531566374,0.00355816559562254,0.138688988440358,1.62159,0.137431148183752,0.00324873875843557,0.138214272194141,1.56848,0.139538283372155,0.00335799350432967,0.210869254718397,1.57145840584957,1.57104630686037,1.57840608726211,1.57728971384937,1.58365041142363,1.58303566894489,1.5840289263079,1.58383642344514
1.38202427499568,1.38086040926206,1.3796214910022,1.37927696454956,1.3898686819079,1.38857111044846,1.37357248514582,1.35986612140374,1.35922873088521,1.35751831464354,1.35586332157495,1.35406689839415,1.35204103267992,1.34986959425862,1.34907256048541,1.3472659016457,1.34500034846783,1.34236071952697,1.3396169955076,1.33701362901039,1.33445630340383,1.33253136331512,1.33067607802885,1.32624842252093,1.32364253117277,1.32222395091482,1.32214595022608,1.34583260469871,1.36175093946469,1.36062675105845,1.3567362442448,1.35296217495039,1.34562771091283,1.34380787038343,1.34131675285439,1.34055730647021,1.34019808095633,1.34059591171726,1.3410690397944,1.34366194442832,1.3448485820793,1.34791215385603,1.34832579475564,1.3472463918997,1.34630880085024,1.34651422519693,1.34694029334317,1.36689075532936,1.36650412926927,1.36528022887671,1.3700254804952,1.37226795149318,1.38390059010907,1.38688922760572,1.38940339664161,1.39187990330562,1.38805442752038,1.3841137957829,1.37981746039841,1.39734531544557,1.44011722549096,1.4375565778652,1.41819445979619,1.40594134625662,1.38693252167701,1.38644203813202,1.38625025016897,1.38435812084484,1.38283339250002,1.38249126600225,1.43092500589582,1.42796469438583,1.42614686009889,1.4250424406044,1.42331921048171,1.42145436517926,1.41792892940135,1.40725552948231,1.39754166477345,1.39780197619242,1.39861494877584,1.39943977561465,1.40034897891085,1.40090251381723,1.40158582274977,1.40144921206685,1.40157179163287,1.40188078806981,1.40241035823274,1.40204696035086,1.42206032490667,1.42047812982072,1.41873036100037,1.41872895898127,1.41719371920579,1.41738139726903,1.4168719536106,1.4145307686359,1.41304921540947,1.41210548421526,1.41188982699047,0.513435039128569,0.18378395822866,0.138653057394119,0.0936460167048884,0.280762778992287,1.43449803509299,1.43635329357698,1.43573559311102,1.44439714896612,1.4456584763364,1.44709344187802,1.44890035126167,1.45138313163734,1.45363765378039,1.45647592658721,1.46166138353251,1.46498930764519,1.46667545667374,1.47025096101371,1.47421828040509,1.47530830724537,1.47771408738221,1.47957011201182,1.48241067148045,1.48605420406665,1.48890860765224,1.49104183130397,1.49192939658066,1.49421663262391,1.49507293527228,1.49887119069648,1.50167878101025,1.50350337071206,1.51172289113336,1.51083136798555,1.510255780541,1.51158941885548,1.51282295647349,1.5133528078803,1.51325085262186,1.5158089853582,1.51684893044461,1.51837333802784,1.5208679139314,1.52458857247959,1.52743801941321,1.52942734021999,1.53175098320082,1.5331454319678,1.53440567053589,1.3284430223859,1.32827548443466,1.32799294224608,1.32768451310084,1.32744821302957,1.32735962147241,1.32744710565703,1.32768239274504,1.32798998678506,1.32827193660701,1.32843916786784,1.56906323090587,1.57054416779767,1.57493940040645,1.57654936632899,1.57953091798988,1.58135181943914,1.58334475877627,1.58406863364387
1.38424294023642,1.38140619129932,1.37896768509151,1.37909423249929,1.48554999999997,1.4471535738055,1.48834999999998,1.34979154919687,1.34526333874141,1.34566507622221,1.34603094357546,1.34419641854214,1.342344174255,1.34700994074505,1.34983799354613,1.33102957979223,1.31356845249872,1.30876392869548,1.28668218156872,1.28712508790987,1.28546975832446,1.32322741992254,1.33299874479569,1.32434768514844,1.3223644074016,1.3210822533587,1.32309235531858,1.34911880317442,1.39250999999906,1.3621756860254,1.34386134889373,1.34910983609559,1.3476763767204,1.34786349563686,1.35624628716172,1.34118733713198,1.34037122723314,1.34098400071488,1.33921305874591,1.34336394394278,1.34357345487136,1.34526319067081,1.34485848394658,1.34542390805508,1.34446954987209,1.34596797915387,1.3470386501861,1.37965040614763,1.41240000010624,1.3570698368235,0.00327896999999995,1.33953262555715,1.40936000001184,1.39391959849144,1.3980485870279,1.39463838533821,1.36450085120998,1.37223598659971,1.36831444351727,1.39563932028597,1.44242453955581,1.43431872446237,1.3848506740972,1.3841450436592,1.38741218097424,1.38617863539349,1.38796060460344,1.38386021212273,1.38113499367433,1.38076488190036,1.55567999999999,1.42447834797708,1.42314149473429,1.42350659860528,1.42344828165563,1.42168679088419,1.49575999999999,1.40896899590153,0.00342438999999999,0.100018142577852,0.00355337999999995,1.39858020945196,1.39912640278072,1.39948001248051,1.40038113898582,1.39999610505525,1.40012102930007,1.40052370037263,1.40115711282909,1.4007572232517,1.42347681750266,1.42209640456175,1.51330999999999,1.41845669155718,1.41710166828457,1.41782464678335,1.41872888722815,1.41405112596124,1.4119764126381,1.41174228602192,1.41182564304859,0.51306931362199,0.00366824139810242,0.00372424495349761,0.0038950136685811,0.238695791740475,1.43268093744607,1.43449405776248,1.4353602078191,1.44019428336583,1.44232773777782,1.4445469118602,1.44514698713838,1.44962341098539,1.45252659306467,1.45398122712973,1.45470222376095,1.46183159602087,1.46422006235517,1.46655266248392,1.46661718454692,1.47120573274989,1.47298272951114,1.47665360641129,1.47807951119754,1.4731705142878,0.00359881999999995,1.48491264819628,1.48986480324333,1.4922395165489,1.49205286565369,1.49239493625291,1.49332735949303,1.49973579892955,1.57148999999994,1.50838155939526,1.50622152345613,1.50903501165095,1.50940977099924,1.51024278485221,1.51066833141048,1.51215179217675,1.51276699959209,1.51455453133308,1.53899930183972,1.52300316595412,1.52491691961677,1.52743884305228,1.52923132880088,1.5321154188935,1.53293109689016,1.53581459815522,1.53879829030269,1.53908338038374,1.54746493894496,1.54756177934513,1.54991315553209,1.54942359963628,1.55745824080991,1.55705519850889,1.56314308079212,1.5634468042337,1.56509319101687,1.56701186730496,1.57428879968916,1.57454788709303,1.57656327105018,1.57935387092449,1.58399463146887,1.58292549051929
1.36985626543626,1.36696757312176,1.36448513616838,1.36228180359709,1.36010255066269,1.35759183561583,1.3543782071669,1.35033401149828,1.34650221474925,1.34350055905945,1.34020245221495,1.33692154243274,1.333786502644,1.33073732126485,1.32958616728769,1.32930336927717,1.30876762974162,1.30534876988327,1.28790262293847,1.28930892032378,1.2939394267857,1.29810635187737,1.30228975741222,1.30691704389458,1.31170121288711,1.31654796501946,1.31992630273028,1.35289014725502,1.36753582878938,1.36347733874171,1.36005584053162,1.35173557360801,1.34937214674775,1.34845299034765,1.34957051983874,1.34325454610386,1.34139510867274,1.34419086167665,1.3477614090638,1.35234462882335,1.35769136987965,1.36129000813482,1.3649299341653,1.36759582051197,1.36973290010669,1.37218352740952,1.37557703537064,1.39166360661134,1.40200716026824,1.35272570345111,1.33953262555715,1.34030414623462,1.3395297262553,1.40106053249557,1.39761624197685,1.39703837704598,1.38538806678803,1.37491043941197,1.37206555390319,1.39417052183943,1.43139232450847,1.42973881050999,1.39913105840893,1.38081705949437,1.38352470228986,1.38344967825042,1.38418752011883,1.38207591041687,1.38103341785046,1.37990158681063,1.47622242820336,1.42207445315845,1.4213898288035,1.42232608319963,1.42197701913527,1.42053322137256,1.41875882423267,1.4097702100257,1.40225200772806,1.40033920530412,1.39878577256214,1.39803797413391,1.39805910361322,1.39767173598693,1.39758883770136,1.39830051776583,1.39944130977921,1.39929697208773,1.39950750370076,1.39945283890515,1.40029944299099,1.40153145395179,1.40427158237292,1.40625708085727,1.40838168023434,1.40984359836802,1.41060854927964,1.41097961961633,1.41129071498987,1.41108352981808,1.41121909660396,0.51252340549457,0.00354765470419988,0.00361401255969581,0.00368576832706927,0.198027964707354,1.43204966530397,1.43367025273319,1.43592902204078,1.43897194192674,1.44106310215889,1.44400401852494,1.44613951829953,1.44845209181426,1.45028048255837,1.45268209160646,1.45493332387224,1.45886986959033,1.46162621987117,1.46356563189436,1.46578470358377,1.46730899672013,1.46924974774757,1.46797417721877,1.46785489895533,1.46821015386159,1.46681156363907,1.47246974507154,1.47563365659883,1.48086605699392,1.48613519727694,1.49089001021537,1.49323740321927,1.49829107027444,1.5015889862424,1.5036691631029,1.50777262043763,1.50865174797865,1.50859832660073,1.50756169418071,1.50774802891034,1.50925430151786,1.5109502949034,1.51257970274552,1.51464338973162,1.51830806499918,1.52206299581146,1.52454683657138,1.52961664453111,1.53117902254315,1.53338482561181,1.53494088408595,1.5378552220897,1.53940241717928,1.54367576242903,1.54489342475061,1.54720302193024,1.54903820034607,1.55370435145084,1.55659952972289,1.55996733776816,1.56182256588337,1.5635965681763,1.56566783107432,1.56804206493898,1.570982193099,1.57413542740921,1.57621733477529,1.57682507856374,1.57976066470015
1.33587974520553,1.33322629998992,1.3323788659981,1.32829086505666,1.32064498256294,1.3205992326981,1.31911203206406,1.32650530515883,1.33151320955651,1.32764557192585,1.32423962879947,1.32608012071222,1.32824000825576,1.32882791090097,1.32854085123289,1.32867067428867,1.29288818140858,1.29484111762781,1.2743900000059,1.29237102002637,1.37532999999995,1.29688994746222,1.2848401843459,1.29548788147361,1.29896411499938,1.31138402096495,1.30423986929061,1.35669814679776,1.37111764355296,1.36287545417587,1.3643993861462,1.3530200107976,1.32959999997942,1.34726430793677,1.39589000000056,1.34258051280543,1.33824198614969,1.34748682439855,1.36299774082375,1.36087978259723,1.35942500557327,1.36064772471866,1.3836325391741,1.37687194818821,1.40847182850218,1.39711158115305,1.3798806292476,1.39695533320398,1.46730999999998,1.35340495315286,1.35623519410139,1.34328044916478,0.00329715999999995,1.39609482076015,1.4025586012002,1.39969556497432,1.47958999999998,1.37917127287432,0.00387207999999995,1.39256979613268,1.43482951040484,1.42227144133668,1.41299036291241,1.3761846425379,1.36863042954912,1.38123792826369,1.40211822195286,1.37938054466961,1.37302040430395,1.37859438621034,1.55738999999999,1.42008298554073,1.41787825982059,1.40602483349185,1.38323676419939,1.40368811088775,1.41948144422339,1.40836470102191,1.40621300630189,1.40207802812164,1.3994259362963,1.39777512358788,1.39775656272957,1.39580014427407,1.39424644328145,1.39636807589334,1.40046943129634,1.39805027104492,1.39848901650022,1.39767677236874,1.39767434160763,1.40029460313557,1.4050757843297,1.40238506998464,1.40210571119646,1.40321437022697,1.40466179056887,1.40830936008231,1.41063707404956,1.41042906030718,1.41066106228638,0.512029413717015,0.00336553829233899,0.00350458605974092,0.00355310689047103,0.158571811552468,1.42963368079867,1.43185574009672,1.43581321600039,1.43816641880843,1.43938324608139,1.44362019478012,1.44729832280071,1.44741490992593,1.4479537068474,0.90831079505456,0.00345666999999992,0.18435036073093,1.45966412730755,1.46186551693874,1.46326767361818,1.464445639459,1.46225805446087,1.46576349611767,1.46545733222068,1.46664055667504,1.46488472477807,1.47024236891429,1.47320902069477,1.47231272386103,1.47331139845407,1.48239564378466,1.48993133970075,1.48798389176167,1.48682212372459,1.48927140968197,1.56103999999845,1.54093162581525,1.56139999999872,1.5037238834051,1.50341084326141,1.50650983225286,1.50867186076032,1.51081782013997,1.51189162508043,1.51592183616512,1.5188295811838,1.5205830545749,1.53219614763061,1.53095809933453,1.53186433264399,1.53456163717093,1.53608929370415,1.53890126659791,1.54078279115232,1.54271519103037,1.54337226125945,1.54678372035324,1.55135986239088,1.5554673810857,1.55797288250316,1.5601459668899,1.5627347187895,1.56594633816955,1.56282974613478,1.56539424995898,1.57294591109325,1.57458326805514,1.57460713291838,1.57851645769944
1.33321272786892,1.32937941928577,1.32760785564958,1.32634008844713,1.3230453783752,1.32197289558652,1.3221193976493,1.3249829336037,1.32585556186117,1.32565372557561,1.32525991038786,1.32604233903965,1.32704285475146,1.32784136906025,1.32770176975881,1.32788674536939,1.31217662784827,1.29515836215662,1.29518990502644,1.29561825829895,1.29760860350569,1.29645080005744,1.2922931439456,1.29230333683698,1.31470860932279,1.32915537774014,1.3416212630391,1.36010925221571,1.36081710504301,1.36071565805163,1.35720080228612,1.35396473770079,1.34997882155934,1.34697430105056,1.34475424706756,1.34329506090871,1.343036378842,1.35242772449098,1.35894354627092,1.35994140861248,1.35991217108878,1.36090533371808,1.36709047820059,1.37048046594967,1.41359691615319,1.41780773104683,1.41980527942039,1.42028519042252,1.41998387694632,1.35997033562674,1.34685947565386,1.34647887663081,1.34685947565386,1.38070839044171,1.37721049093073,1.37605644950205,1.41210095390724,1.38239131986865,1.38371147462591,1.39075238483277,1.39970017459675,1.40846008697905,1.41065402685505,1.3737381924449,1.37038166986619,1.37238692782056,1.37448952842372,1.37654300960865,1.37576794760324,1.37810947158133,1.38171317708618,1.38613421151845,1.39142862304772,1.39086655636034,1.38994425786912,1.39518002059437,1.39947289685409,1.40270277206245,1.40497595360173,1.40305204275455,1.40103791285666,1.39626432803921,1.39584872964811,1.39364403256962,1.39256515963861,1.39270690072794,1.39245617959808,1.39425225612463,1.39516229909007,1.39534619849472,1.39580397391704,1.39696519378335,1.39803654087336,1.39919419613133,1.40033846049306,1.40204718336049,1.40443720930402,1.40608386256619,1.40786749508635,1.40869509062039,1.40963690632995,0.511719996206631,0.00348169853105457,0.00349115124454284,0.00348552509510089,0.120093528571255,0.164558759045622,1.11176356787956,1.4368954429073,1.43874339254804,1.44217103895397,1.44415311446675,1.44541065858799,1.44620015725251,1.4464754209293,0.908352355644667,0.0939624894769094,0.139155927724936,0.18435036073093,1.45993816946807,1.46167124892279,1.46186025480733,1.46277159627784,1.4632758347785,1.46495766673589,1.46423756062501,1.46556767653024,1.46677507646237,1.4691795122465,1.46993393528787,1.47311715689788,1.47594777374267,1.47869247513451,1.48115817850084,1.48435289338748,1.48548140003881,1.48855113675204,1.49162208857987,1.49465487678246,1.49864007483457,1.50209219221995,1.50424530947979,1.50739700322034,1.5088488990291,1.51108690771513,1.51273174853349,1.51581760953065,1.51788899080591,1.52220467007402,1.52657589203237,1.53034941741173,1.53199871766011,1.53494397829605,1.53561750837113,1.53800403810408,1.53839433315094,1.54058261606595,1.54191144471924,1.54422686046985,1.54660819755611,1.55067171162314,1.558794547973,1.57427774149984,1.57883735031108,1.57800950046879,0.577521749876484,0.577727070419456,0.57818104287822,0.578928033477257,0.579952176845927
1.31542758333382,1.32318087741082,1.30745024405119,1.31639836558174,1.28481999978678,1.29509377624672,1.28771117597874,1.31405417732356,1.32663140311904,1.30941178228359,1.27239508721313,1.27283989557747,1.27404108095801,1.30653947595232,1.32646158640633,1.32706878961243,1.32672419092132,1.29454423432034,1.29453160557983,1.29738677862481,1.30088578285635,1.29921788443359,1.28834753974396,1.28951212963988,1.36539999999649,1.34427913166909,1.36513981966186,1.36229408740799,1.3612616913039,1.36186248590837,1.33403999987945,1.35590483309624,1.37815999999502,1.33069713990287,1.31848072422809,1.32804724289535,1.38794520264889,1.36923396221219,1.36078639305005,1.36000749623996,1.35933732374774,1.36219570062731,1.36494195028529,1.36745691497189,1.42859999999803,1.41874807546926,1.41954851235713,1.41973522994011,1.41867743664635,1.36037096780212,0.00350139999999995,1.34868359530802,1.34766487860807,1.36108635308247,1.35183713221294,1.36913533397616,1.44803000000017,1.38382360048123,1.38499784596457,1.38888099457591,1.38639547103092,1.40656752313733,1.42145999960796,1.20768720601031,0.00353053000000024,0.18334579769141,1.36390999963218,1.37510780973007,1.40259000005165,1.37476690782223,1.37169749613262,1.38489948113649,1.39737927341961,1.3814018539178,1.37493885145079,1.37500263482754,0.00358265999999995,1.39311133615865,1.41400171596045,1.40428692317478,1.40552344733549,1.39073314524462,0.00310663999999995,1.39047451724539,1.38980907249817,1.3894175195219,1.38941305173878,1.39149542380884,1.39277839364308,1.39333012385241,1.39329232074343,1.39423760987369,1.3933709873034,1.39643786344597,1.39640132688965,1.40083915147097,1.40316132035891,1.40474041913989,1.4045678546215,1.40739378096137,1.40924360642926,0.511604330632413,0.0035932344209602,0.00349899937419186,0.00341714551496633,0.0830586115593184,0.00338974999999268,1.11216119708026,1.43613172433336,1.43747793305246,1.44659308743197,1.44498573354376,1.44415911699649,1.44523155116972,1.44526949244769,0.908425575758682,0.00357603999999996,0.0939624894765513,0.00314654999999995,1.4584255707391,1.45950541216396,1.46101086282895,1.45950324036432,1.46275484302267,1.46068740099133,1.46381550307647,1.46084551120331,1.46545963019357,1.46393561847107,1.46696589398615,1.4651104814794,1.4668456783744,1.46751985262367,1.48006008760217,1.48384837289192,1.4835533186434,1.48453437858866,1.48928441682917,1.49375670810715,1.49596895962523,1.55998000000002,1.50128963054113,0.00343733999999995,1.50728067694626,1.50830048245196,1.5102798478888,1.51015253749902,1.51323351111869,1.51369214370528,1.52328814946669,1.52886357279993,1.53002763165214,1.5333070983058,1.53319373383732,1.53312198381437,1.53523573257701,1.53460872110925,1.53787459972928,1.53746347873505,1.54365001945988,1.54521784999575,1.55126951986118,0.00352560999999992,0.995717419854899,1.57199496444039,0.183679650829379,0.00335453014931524,0.00347371628722821,0.00351561308502286,0.00355146294360011
1.33402667577554,1.33048812537568,1.32755830540221,1.32239648635095,1.30658175314839,1.30619113288813,1.30571981458058,1.3053150643481,1.29342107188758,1.28430850927209,1.27183421103739,1.27194240798339,1.27203862471895,1.27255702401833,1.2754946461684,1.27921729534334,1.28595148356801,1.29376658175109,1.29676103208445,1.29854100970525,1.29994182732127,1.29996942776998,1.28713195885175,1.28743835007556,1.31328359238771,1.32550090637064,1.33569120614863,1.34840032782238,1.36370548911317,1.36318731134114,1.36087467714122,1.35774163097151,1.35682832953669,1.32508900040269,1.32190989206508,1.32289800495932,1.38348609123534,1.37904308071955,1.37470092981066,1.37061987735668,1.36697140186494,1.36383891346998,1.36420210394735,1.36507922465628,1.38804343404031,1.3902209464655,1.39438069134624,1.37682786709738,1.36373575004848,1.35876885115129,1.34961958734602,1.35039631154038,1.35091921834531,1.35840993323539,1.35384177813507,1.35966695770321,1.3680393520118,1.37702390707828,1.38903350816612,1.39345592360594,1.39920435695619,1.4049650701183,1.40658613351264,1.2076872061077,0.0934931811320574,0.138253966344455,0.182784560695716,0.227487354679783,0.272421468561568,1.20506556515887,1.36501091167736,1.36677136343347,1.36937433502413,1.37266628945714,1.37481799565088,1.37542920755898,1.37602969809991,1.37855035207295,1.37971888197223,1.38062974828749,1.38271605311598,1.38550684775955,1.38665746823323,1.38820441878309,1.38786634175358,1.38622017591447,1.38773232090532,1.38993253199512,1.39138442168667,1.39217327069119,1.39272595410944,1.39321382793995,1.39422355839699,1.39531839235312,1.39703791262172,1.39909215927328,1.40186349889566,1.40282639119041,1.40438959167376,1.40589038161336,1.40752922851923,0.511655636406977,0.0828682962017332,0.119586346642677,0.16154240096933,0.204539701531522,0.248626039487701,1.11290089285334,1.11415784973341,1.11547554405978,1.11666832533784,1.11756922380096,1.11805307834131,0.908640060745998,0.908592683984551,0.908511800396839,0.908425569373948,0.908352344139892,0.908310780708459,1.45622128909562,1.45872829270679,1.45970106228677,1.46147763755499,1.46124807526476,1.46261166289507,1.46175969790895,1.463726349846,1.4632852123207,1.46558540274889,1.46497292930459,1.46632883630981,1.46708054130553,1.4702619731488,1.47452724053645,1.47644230098554,1.47997086265245,1.48318424077012,1.48677485876757,1.49089597886625,1.49204176671684,1.49462954172694,1.49828911882235,1.50041841079148,1.50308350729642,1.50556766678461,1.50649492233395,1.5091224738323,1.51071362514715,1.51417964147938,1.51878188416475,1.5227227550376,1.52483077911611,1.52494315011714,1.52727331334228,1.52979441100548,1.53066837460801,1.53292545695861,1.53498585944521,1.53956472757267,1.5433316695461,1.54600525881312,1.54841457478802,0.995717419854899,0.995724892012473,0.183679650829379,0.138563658606482,0.00354763370709948,0.00355582795475946,0.00356860061679912,0.0035778228653246
1.34867807402927,1.33603136286163,1.33440174048703,1.32729105395418,1.30704003452205,1.30635407130493,1.30587296983714,1.30537530408534,1.27038000039885,1.27685432228775,1.27102196357363,1.27088035942026,1.26953215501548,1.27027675286624,1.26870642312189,1.276629934787,1.2629000000012,1.29820207430788,1.30033617943648,1.3000422616913,1.36494575685628,1.33057884421876,1.28570373802186,1.28619027192735,1.285675971704,1.31411266013649,1.29215000000229,1.3399949489186,1.36618025237544,1.36559246539305,1.36951329597776,1.35683247727097,1.35543953095668,1.3241212017389,1.3092603254171,1.31734866995272,1.53429,1.39369019626464,1.44302000000029,1.41672982849648,1.42324880428308,1.36242639048161,1.36330334684942,1.36402973529699,1.38570393939912,1.38801639549667,1.3982583791428,1.36390764652093,1.33991341342565,1.35155952504186,1.34264465645852,1.35021139617305,0.00363628999999995,1.35340305520732,1.34655509272948,1.34600140083421,1.34546614401452,1.36762545783072,1.40022922536606,1.39684880450236,1.40950402930495,1.40755367441814,1.40817872333383,1.2076872061077,0.00330388000000019,0.0934848003603916,0.00355907000000042,0.0935983493847105,0.00351024000000025,1.20506556525626,1.36362754333376,1.3664366358113,0.00337752999999995,1.37429137325864,1.37675502093206,1.37614115149802,1.37716470415854,1.37828249268821,1.38084890212468,1.38020034813322,1.38105641655893,1.38237742228255,1.43109000001394,1.41701203374941,1.43152000002212,1.3809238312837,1.38613947557953,1.14550576533349,0.00353141999999995,1.14383825663693,1.44814999999998,1.39284138353078,1.39427526469998,1.39493855822155,1.39479587786489,1.39825625926603,1.39943087435551,1.40181170710933,1.40220325060283,1.40491062292633,1.40705346126126,0.511878214604652,0.00378499999999258,0.160505062678036,1.42439,0.353856459123718,1.42428,1.11262209203712,1.43001,0.172599447546208,0.00362980999999742,0.175847898721073,1.43977,0.832420310680599,0.00386838999999998,0.908592683983868,1.4505435053056,1.45063133293287,1.45082945337402,1.45309289103565,1.45838714255129,1.45949848799399,1.46184891332706,1.4615729587305,1.45933982951312,1.46235110026255,1.46019768091712,1.46404875971945,1.46236639232515,1.4654220375599,1.46342287441927,1.46766148441427,1.46907126108829,1.47206100035021,1.4727003284123,1.47668570774673,1.48067290950714,1.48376308023577,1.48325860424298,1.49049341227984,1.49312105489553,1.49719425710715,1.49876565655095,1.50098991030396,1.50013498915492,1.50430209886342,1.50469801556037,1.50888153327489,1.51096414620862,1.51543138141591,1.52132852360515,1.52274379933451,1.52223638423851,1.52361822191774,1.52354842666455,1.52740645556259,1.52725158102266,1.53094237501477,1.5411642175686,1.54348655936429,1.5454680180153,1.54627620724459,1.54416847614477,0.995743431887249,0.00355190000000018,0.0935995160122516,0.00373707035822385,0.00363955754066295,0.0036305966364271,0.00360946654997676
1.34818543702209,1.34332646853397,1.33833747631442,1.33095838905398,1.31776712124982,1.31423151303668,1.31229372227519,1.31186702846121,1.30578750687528,1.30475259677137,1.30351750670259,1.30263794497317,1.30273813648764,1.30235156160431,1.30174733999603,1.30119299197458,1.30085016420863,1.3007759423824,1.30234781460175,1.30133984631838,1.36321448858576,1.36131339366504,1.358844575261,1.35596266920274,1.35275375597778,1.34872303273914,1.34381259883823,1.33832012113647,1.33266502931889,1.32720802773897,1.32222449373358,1.31794070063857,1.3145255217064,1.31203789945024,1.31037708692544,1.31433081793624,1.35525888009662,1.37854150774186,1.40689389160973,1.40674664313011,1.40671872218646,1.36058693686795,1.35989133265565,1.35220838227577,1.3462771755923,1.3411887764696,1.33783880177704,1.33644510827602,1.34065597180956,1.35148510787051,1.35078905213556,1.3519541080563,1.35232626227801,1.34956324295297,1.34591244882295,1.34455615806043,1.34363718151898,1.3502967668309,1.35570388512721,1.36254170300497,1.36967639675889,1.37616036864113,1.38363469379809,1.20768720601031,0.272590807785186,0.227653706570846,0.182945303946539,0.138407166849664,0.0936763295010549,1.20506556525626,1.36775875770342,1.36920646747831,1.37215820270942,1.37394625549302,1.37533651739446,1.37582178096032,1.37640427095617,1.37731892010053,1.37846939240551,1.37883342824109,1.38013957517995,1.38099895163066,1.39616547223534,1.40655398224653,1.41556117728583,1.37250982847257,1.14550576533349,1.14465315170886,1.14432383490756,1.1434048485418,1.14383825663693,1.39152436823135,1.39307765227204,1.39360245570596,1.39523171089564,1.39677065796788,1.39917422706775,1.40016880914068,1.40176036169237,1.40325281376289,1.40529159273888,0.512264749049973,0.0939689272930574,0.202670469130138,0.353856459123718,0.31102149092472,0.257826008204303,0.21366087193094,0.17045489874045,0.12806964199253,0.0869813687103042,0.131033598249315,0.175847898721072,0.83248746877977,0.832420310680599,0.908640060744892,1.45015078127509,1.45034210591257,1.45111325466938,1.45252959299671,1.45507849689387,1.45664350346618,1.45842057475629,1.45912334562881,1.4604683719187,1.45969631720794,1.46186663695626,1.46082444770404,1.46327647982261,1.46248515484546,1.46505377767324,1.46498215306727,1.4677585355264,1.46841569312146,1.47032215647211,1.47197472992486,1.48277402009485,1.48328383754762,1.48332709946093,1.48623013228207,1.49565123571697,1.49699943573982,1.49807563346323,1.49837317651381,1.4999588551456,1.50047408686866,1.50315188997682,1.50435377988535,1.50779885808296,1.50942806525956,1.51141069586756,1.51411959666971,1.51842021641187,1.51918225430301,1.52151553965463,1.52451935365048,1.52676934184073,1.52834972349095,1.52911360272313,1.53056536474483,1.5314355043599,1.53161507456232,1.53089816616471,0.995755948728995,0.363498820677891,0.321316847290168,0.282048594915788,0.24549487567872,0.211364829406021,0.179286010034255
1.48528999999997,1.44994435644058,1.46140999832456,1.4330975210972,1.41829836530659,1.42008527201563,1.42242930900581,1.35852035622579,1.30677533946896,1.30480815390319,1.30281096353545,1.30111522784251,1.3233994073518,1.31055445218849,1.33692999999808,1.31342551880558,1.32827999896019,1.30193277255764,1.30711448665741,1.30184523625258,1.40027999999997,1.36174310099228,1.3832599999989,1.35589152917533,1.38501000000055,1.35301236334016,1.39583,1.31914334708341,1.30074383976391,1.30201038223004,1.30454910713812,1.30413082514895,1.30473119634743,1.3061455982322,1.30457647533111,1.31074619614378,1.30629120190413,1.36555038552168,1.40731687709503,1.40693948381872,1.40696763898051,1.35991945480911,1.3596194178033,1.34909191791862,1.32622547988382,1.32733922546135,1.33035112112543,1.33462025385367,1.33707737015068,1.35060714741132,0.00322508999999995,1.35232030038598,1.35000370350763,1.34504903488236,1.34058311679861,1.34131378765713,1.34034847990406,1.33971497656938,0.00319902999999995,1.02899460613851,1.34455999999983,1.36797066229266,1.3934882783053,1.35369792787354,1.35107805938539,1.35122026303327,1.39669999999998,0.183500149142566,0.00374568000000026,1.20506556515887,1.37057339845761,1.37055168939977,1.37360179616978,1.3739430420009,1.37546995563874,1.37524512395552,1.37598356881163,1.37623238913047,1.37740369483033,1.37578508023678,0.00364414999999995,1.37475372155372,1.37967616099519,1.39257164874267,1.48013999999999,1.36788999005211,0.00365997999999995,1.14258017378168,1.40334,1.14122353238674,0.00338221999999995,1.39058705551258,1.39261626409103,1.39299603834276,1.39355846288193,1.39619384624908,1.39761677773763,1.39941788954141,1.3995680047967,1.40164109289965,1.43981000000036,0.512709764159589,0.00354653999999995,0.246295153972496,1.42095,0.272863082244281,0.00348909999999995,0.0939112486959633,0.0036276399999828,0.0473272335114242,0.0035678499999566,0.0690469903554611,0.00396401999998774,0.832667072252561,1.44215516304185,1.44250834563007,1.44939174064864,1.44936973246637,1.450404145894,1.45114194786202,1.45186249176389,1.4536627551956,0.00350790999999995,1.45801607600075,1.45703702078241,1.45956747230827,1.45729966751029,1.46082525706482,1.45753205260451,1.46250954638688,1.46085300319959,1.46432850648851,1.46257033493992,1.46600935210907,1.46544026944942,1.4693075572276,1.50964999999455,1.48217866104603,1.47970182406131,1.48442931375185,1.53053000000003,1.49704797597445,1.49621933843935,1.496214796541,1.49703747066163,1.4976430071031,1.49636396724069,1.50068351729174,1.50191575036003,1.50651528674064,1.50994357927071,1.51011549719503,1.51096335304492,1.51413254532553,1.51670684430341,1.52408715594505,1.5239914007833,1.52753097455772,1.52709686235061,1.52993141332307,1.53003585471328,1.53024216875758,1.52831336236682,1.52922454898326,1.53177336601592,1.53370285421419,1.54328915360338,1.55721153066968,1.56733579131109,1.57495728612557
1.43610178797218,1.4425028807155,1.44766561716662,1.44269323646803,1.43706811746156,1.42741770158717,1.42479329574809,1.38235547617907,1.35734079203522,1.31103939439868,1.30034958975383,1.29747513331718,1.29565355869372,1.29396800274838,1.2929240741663,1.29291478750412,1.29518087673875,1.29801056273521,1.2996267260621,1.29736123073118,1.29392745120906,1.29159430128656,1.29082880334579,1.29191071068322,1.2936571210942,1.29554433737028,1.29747122201431,1.29828183804869,1.29939776304962,1.30090854842548,1.30240218962756,1.30309142508296,1.30373270685239,1.3092303098874,1.30977834864717,1.31085607102128,1.31267392612371,1.31566994927167,1.31756482608981,1.31901162893658,1.32142948860504,1.32449776848441,1.32754136645259,1.32685487982126,1.32574473370085,1.32636969721186,1.33058992262721,1.33672092031863,1.3444239154332,1.35224094966283,1.35211548087535,1.35602209239828,1.3485881183067,1.34284035344639,1.33967907863442,1.33922802357941,1.33961439057283,1.33944100066892,1.02899460613851,1.02900351002787,1.02902560230739,1.02904051748721,1.35973212232232,1.35631293934342,1.35403932046193,1.35163502246495,1.34883657498908,1.34786877191795,1.34712431469271,1.34693063896411,1.36741330681741,1.36907714175111,1.3726856156282,1.37330371171519,1.37390424000745,1.37440637218735,1.3750455142726,1.37476386754861,1.3742981070987,1.37251523372747,1.37009846469031,1.36998685938289,1.36795185293546,1.36721985087206,1.36746034920358,1.3671838457783,1.1401288576278,1.14012972703638,1.13947987126086,1.13895430874137,1.13874705245063,1.38924344653807,1.39063167119877,1.39142898402898,1.39348585005458,1.39470826465956,1.39668277416797,1.39835095852492,1.4004560241491,1.40145414987479,1.40244421489387,0.513014620290117,0.337805014869568,0.295384727271695,0.264941701491278,0.238545774540095,0.198068849705148,0.160952453616635,0.126590441443604,0.0688411329794817,0.0514285757267464,0.0860950287253787,0.148990040154334,0.832833533442598,1.44177431228623,1.44270607651625,1.44475970075346,1.44700359682582,1.44852870899104,1.44917951360963,1.45050908750079,1.45168710638891,1.45330844440079,1.45482777371528,1.45679676038033,1.45629686069014,1.45847012650984,1.45771671062392,1.46044460037651,1.45935440927037,1.46171120630275,1.46077569361312,1.4627207541358,1.46293720476098,1.46482769557063,1.46745365625117,1.4714296299115,1.4741507932755,1.47789462579963,1.4816791467434,1.48604473095367,1.48803563966104,1.48891852786496,1.49118141420142,1.49249027350036,1.49329230959899,1.49516022950346,1.49640327909853,1.49940391141595,1.50042623243917,1.50304404965756,1.50532016989309,1.50857363161083,1.50892012785688,1.51957679098062,1.52278914000135,1.52544659416768,1.52883318555139,1.53034974437083,1.53037485828487,1.53033058485302,1.52948007476001,1.52713289014237,1.52767827635192,1.53056426465881,1.53559884219099,1.54628746336591,1.55966480749762,1.57321505446241,1.57427278586069
1.42617000035942,1.43610210828332,1.46832000001627,1.45747312911414,1.4710799999983,1.42996429711095,1.43207884129696,1.4286245594588,1.42799480099394,1.31503223267388,1.28924437230124,1.29258252113635,1.28769913774393,1.29179827444648,1.28739070287603,1.29168405329802,1.28957123180716,1.29529008091226,1.29223832138888,1.29433033324281,1.29206182408115,1.29128430504994,1.29012742604319,1.29265955983427,1.29469629964739,1.29652408119382,1.29928904910687,1.29833038336564,1.29806558120431,1.29982155733195,1.30134569833407,1.30190450107286,1.30213468534308,1.31318717584725,1.3321050700103,1.32925588595715,1.34427000063199,1.31799690426456,1.31900787478663,1.31871121187994,1.3204514783526,1.32423597249931,1.33106805988846,1.32732141050797,1.32403548952681,1.3231887795447,1.36274613528375,1.35455351280613,0.00327283999999995,1.35006313759433,1.33759984549804,1.3509032793517,1.39729000000026,1.33797360322222,1.33576332314752,1.33603437297836,1.42084999999997,1.37562626056613,1.40962999999999,0.946501753217497,0.00358106000000012,0.183877657271432,1.3632134877137,1.35769821635001,1.35720221142902,1.35274656831327,1.34759388706281,1.34849820984185,1.34767125451857,1.34808819380111,1.36277994883024,1.36565303558115,1.37501323698592,1.37237833852884,1.37308106030732,1.37306889455483,1.37558908983196,1.37330740376068,1.37270150583027,1.37009489057123,1.36803813437818,1.36777582653529,1.36738083354597,1.36758922100221,1.36946642699169,1.36873175371166,1.37045593407532,1.13831530667878,0.00331148999999995,1.13657282902944,1.4325999998839,1.42728420127599,1.45159999999998,1.39053929644668,1.39332298775148,1.39398079947899,1.3944364811818,1.39808711379712,1.40131430426989,1.40193032251606,1.40346138355826,1.40576565538112,1.40900026094609,0.331324932764211,0.00350791999999995,0.217496088674515,1.42224,0.204758134259192,1.42395,0.088097637473487,0.00381828999997813,0.111701810061131,1.43933,0.832932836533459,1.44034377499148,1.44160376489209,1.44161731782877,1.44533716039765,1.44724723442079,1.44729594163,1.44831426064694,1.45011211814041,1.45179070680817,1.45352064590242,1.45289097285214,1.45558677472603,1.45338077146398,1.457855114431,1.45706052716781,1.45952438268363,1.45652852042884,1.45997246707144,1.45739178404166,1.46115614814691,1.45920032633497,1.46441991650058,1.46492826594947,1.47237829249907,1.47544797471621,1.47727848244501,0.00331041999999995,1.48470646422916,1.48544842334171,1.48784776553852,1.48674692634304,1.49021450805062,1.48890849608284,1.49303536031823,1.49244544195707,1.49623415362197,1.49664432848799,1.50041826558885,1.50056222821764,1.50427981109145,1.54682986215301,1.53491535393939,1.55749999999572,1.53251119782451,1.53595950386818,1.51695563326891,0.00332901999999995,1.51958259487375,1.52266679930484,1.52433539584275,1.52740976467473,1.53104135896798,1.54122606126778,1.54936846378543,0.00351096999999998,1.56218543878402
1.35915443443134,1.38299054087104,1.41022068494075,1.42672603120646,1.44265461480402,1.43025793042922,1.43052438010357,1.42925250306438,1.42862341922171,1.3466962507326,1.34512171333116,1.34320321719977,1.33907442947106,1.33416746713602,1.33040788482909,1.32636799678511,1.32185748681396,1.31677326832772,1.31122958110525,1.30557356519807,1.30031845662269,1.29605201152294,1.29334088459383,1.29259931653311,1.29386308084331,1.29573039282476,1.29791655932616,1.29824650768711,1.2984926803335,1.29954003527239,1.30051791532831,1.30130804796233,1.30172089541903,1.31718769044099,1.32846505403161,1.32669057187641,1.32366280549695,1.32007030025097,1.31852866406285,1.31679866658671,1.31780717515895,1.3165132823581,1.3166902134105,1.3178711578838,1.3203662773748,1.32058196599207,1.36884382431225,1.37439115715622,1.37896490424075,1.38255424667254,1.38398979142169,1.38504453125386,1.38540993733958,1.33506734199283,1.33373563220162,1.33297666285399,1.33093316638931,1.32993551156286,1.3294233755173,0.946501454323094,0.0937172604241883,0.13874096510718,0.183877657271432,0.274116334512276,1.35697898513484,1.35475609242969,1.35258621718741,1.35137712464511,1.35073830828267,1.35062817185779,1.35702899613256,1.36525522322641,1.36604461776112,1.36852284711559,1.36902176814205,1.36982306860951,1.37182979990927,1.37031538873166,1.37011959534902,1.36707070595158,1.36581587605309,1.36579693416022,1.36640826903556,1.36670316936582,1.36784086799976,1.36871833636684,1.37016067832834,1.13668002749718,1.13541499618163,1.1347222230391,1.13382610313485,1.38240400815014,1.38470633521045,1.38767423380437,1.3903752539081,1.39275020382538,1.39486557689431,1.39737006439712,1.39986672583644,1.40101946499778,1.4025175427053,1.40456488607727,1.40710577565252,0.370215942457429,0.235900617946109,0.195729577632078,0.175327498096191,0.154340400498465,0.132373147623311,0.104015193100724,0.119608935412576,0.134713223408579,0.162808606122301,0.191544525528385,0.222378587393553,0.255648250711476,0.291637670442814,0.33056879962606,0.372594022730723,1.44442890998952,1.44606685044743,1.44686016855105,1.44900712168153,1.45018208505868,1.45277493675122,1.45229551130724,1.45411962215192,1.45378009400145,1.45655205392602,1.45550363371095,1.45754465294614,1.45676179914736,1.45872353289806,1.45948189651126,1.46180484624116,1.4634880233272,1.46555377798525,1.46904487051826,1.47278306058013,1.4750137681821,1.47714742404939,1.48084618775655,1.48319573126982,1.48429059500855,1.48594414658399,1.48707123306523,1.48957178912953,1.48999994200375,1.49163173997951,1.4934219089741,1.49635059564142,1.49848835101909,1.49959093869224,1.50030150036508,1.49981897980262,1.49965433733911,1.50032374662129,1.50106518029279,1.50223843620585,1.50210844704856,1.50217672307758,1.51715387787745,1.51871077808327,1.51974405351329,1.52004467286718,1.52355496893297,1.52903006825224,1.53822050683899,1.53981344662028,1.54777161315986
1.31565000000027,1.34979658847764,1.39322000000008,1.4115977410648,1.48344000000001,1.40735038569405,1.38507999999772,1.4049398775621,1.48205999999999,1.34607355104174,1.34378465267474,1.34406442552094,1.44733,1.33281262678165,1.33502279652372,1.33391084800083,1.36939515580488,1.36195436825542,1.43615000000004,1.40341772578805,1.43120000000019,1.35522693525995,1.35558922033531,1.34972374227054,1.34788740937625,1.32373742291974,1.29903655298587,1.29852964428195,1.2986190128776,1.29939380128127,1.30048483868834,1.30106897259633,1.30184514990019,1.3209803215462,1.32694105242829,1.32577637042812,1.32456432725919,1.32050716093301,1.31158275020178,1.31243863377266,1.31029747384543,1.3117190789903,1.31386309724472,1.31160852820298,0.00341447999999995,1.31185855626816,1.3956200000002,1.37470040471391,1.38698000000423,1.38381505599245,1.38767524284414,1.38574366111793,1.38598045043946,1.33327554260965,1.33100109823242,1.33098070550406,1.32955639416881,1.32898247443629,1.32845471432106,0.946500922952925,0.00301856360667415,0.00229613805338911,0.00305748296605288,0.229745408573409,1.35903867312376,1.35683759159978,1.35681794604694,1.35392126863654,1.35370860699966,1.34907441707356,1.34521426720326,1.36420579283166,1.36457550745326,1.36654987116023,1.3652687087751,1.36537363830149,1.38652810424676,1.36577562185261,1.35943252665239,1.36248116336021,1.36228669697925,1.3639039017179,1.36572269474604,1.36575396280085,1.36664049811306,1.36888899382755,1.37161541882885,1.37483561816864,1.37940941182966,1.13382610313485,0.00329714999999995,1.38348786378975,1.3864235665107,1.38685987366033,1.3880865429674,1.21375789069088,0.00359240999999991,0.847450142557882,1.39947198324171,1.40026815907823,1.40081506063944,1.40271817938362,1.4141487903575,0.41221813810567,1.41255,0.149951254693146,0.00341334717672412,0.00347760302797259,0.00349299517861104,0.0865953515149913,1.43423,0.154845321123379,0.00336279999999994,0.09422213678254,0.00356128999999995,0.0943036780196172,0.00390952999999995,0.0947175167655535,0.00348901999999996,1.44192246427427,1.44456319544045,1.44436309095028,1.44449908266853,1.447981068017,1.45137501670222,1.45094657842326,1.44894444673985,1.45261035471792,1.45069483698233,1.45459303504416,1.45270491866978,1.45609249673999,1.45408301744088,1.4594508059293,1.46073880196988,1.46339332840152,1.46353050993139,1.46645696563163,0.00313063999999993,1.47411716007344,1.47560157673879,1.47861735149092,1.47863320944543,1.48214117514286,1.4804093741865,1.48601720256698,1.48636290447134,1.48883543033704,1.48713305634654,1.4906145357852,1.5454200000004,1.49828665652958,1.49777215305754,1.49844389686134,1.49778572367233,1.4988964433711,1.49869621234839,1.50109278220832,1.50242508055907,1.50282223789323,1.50276542379536,1.51388902947925,1.51512977898856,1.51637650379595,1.51604197185481,1.52002515733195,1.52160344927173,1.5278713228902,1.52575614745276,1.53451744740833
1.27798084140735,1.27972200474607,1.28185609035565,1.28452729666416,1.2877817261088,1.29157692157697,1.29579342932308,1.30026663893086,1.30483805992884,1.30940560085146,1.31396851350204,1.31866938250839,1.32376773387606,1.3294268796491,1.33210713066104,1.3327266620343,1.35189206955503,1.35519663494101,1.37997399440352,1.37227281345858,1.36878691670514,1.35456572243097,1.35397218046256,1.35164431130581,1.34981094014447,1.33580383870805,1.32928657950692,1.32347030110394,1.31840697568352,1.31362618536112,1.30088168504984,1.30114608982356,1.3015508087415,1.32440938874962,1.32582865172906,1.32493715922198,1.32222382568205,1.31682105660695,1.31243127235192,1.31122064484736,1.30978744638031,1.31012913189699,1.31015503052784,1.30930859876146,1.30781279407205,1.30900247517702,1.33333785326801,1.34290932579166,1.3423476927697,1.34150849668828,1.34062141116423,1.33711851279171,1.33550408457515,1.33357901893826,1.33167301596503,1.33018341393152,1.32760673607877,1.32763943465053,1.3282354331342,0.946500332561926,0.144334280734413,0.00106451422454955,0.00228777699640823,0.186176414204572,1.3355023011815,1.33674549254625,1.3400664167955,1.34384437328474,1.34810061828466,1.34703891718152,1.35643153224318,1.36324378517673,1.36639867420894,1.36817232760282,1.36485774224006,1.36167583054226,1.36105667684311,1.36131828271263,1.36085747445936,1.3613414525255,1.36162319320317,1.3617583225458,1.36279809580431,1.36383245553825,1.36634632598627,1.36869713125334,1.37123991450269,1.37361210527817,1.37630805963783,1.37805256947113,1.38305809334787,1.3839149338673,1.3856523861049,1.38620167818452,1.38696911897489,1.21375789078827,0.0939936861581352,0.847640896798625,1.39963188349992,1.39978231165739,1.39992037209574,0.281838317975971,0.23744417921829,0.193837044819486,0.150985714775033,0.108844058642984,0.00341091627850095,0.00347675334813855,0.00351373896285081,0.0621124276703038,0.107504414427489,0.174100347070773,0.183783440280925,0.198862100870707,0.226745111654207,0.259247864039594,0.294678274698711,0.333244803413812,0.375090224570352,1.43813212550578,1.4384067681141,1.44021239896612,1.44193638830087,1.44321676336322,1.44394983335206,1.44621981201134,1.4486475601198,1.44913942136689,1.45166864239717,1.45131987273546,1.45312706080762,1.45352655705241,1.45593744489684,1.45773173059558,1.46071718255772,1.46227962687517,1.4640765900237,1.46629338990598,1.46862884536884,1.47215179700317,1.47458441022104,1.47674603651581,1.47870966492032,1.48014893932261,1.48261369759277,1.48397818881112,1.48709666895384,1.48667883134489,1.48792369088881,1.48849900152553,1.48981771582244,1.4914339037762,1.49481683260471,1.49556689053732,1.49700527003962,1.49707328004259,1.49855713485338,1.49923865454253,1.5015030374372,1.5022598171332,1.50497821167176,1.50896935317658,1.51177800219154,1.5137075314851,1.51591741075683,1.51787654595821,1.51979732882798,1.52262091888677,1.52329451162813,1.52597985882243
1.25968199680602,1.25598458178928,1.24956547157075,1.25101451359122,1.25234622162191,1.24844121871926,1.24451299756613,1.24062318925194,1.23067133828446,1.23313389547699,1.23502403215116,1.28157799841066,1.31629118737183,1.3226794455007,1.33136231912367,1.33209951856394,1.34805614817114,1.35189042655166,1.38992810647331,1.36878914582712,1.3641140172998,1.35420289820161,1.3538831081992,1.35291979064281,1.39207000000019,1.34862360404755,1.34665321106577,1.34309493481203,1.33881094309645,1.31978914861662,1.30169648778759,1.30147448447079,1.30194322755077,1.32610945858526,1.32685255058085,1.32570981269601,1.3093182686887,1.3120670209491,1.31016606812796,1.31042753047324,1.30745698928311,1.30874058114404,1.30712084357502,1.30766002709861,1.30629879505727,1.30734966765917,1.30616603032275,1.3428969173356,1.34210840661805,1.34101332575051,1.34282607792916,1.33514004740576,1.32343848409448,1.31923520147965,1.31513104029063,1.31897914918987,1.32278294502974,1.32536284179783,1.37540999999998,0.946499938169814,1.38504,0.000824851754310714,0.00299956451573682,0.143361879038042,1.33428260531074,1.33483648781591,1.33351855894379,0.299978553649381,0.00355623999999995,1.34433800199441,1.36415732878011,1.36321769200452,1.49847,1.37496731960285,1.38153714865616,1.35625471161998,1.35055036863538,1.35817686365761,1.39533000008672,1.38577803889658,1.39625000021504,1.35943396673075,1.35978337289848,1.36095553171639,1.40456000012528,1.39086821372311,1.40836999999985,1.37232635493555,1.37440633401755,1.37528989082959,1.38793600245639,1.38474875416816,1.38699455837068,1.38612199389315,1.3870725159222,1.21375789078827,0.00351864999999995,0.848008376608537,1.39973198581979,1.39954947004257,1.39924624556402,0.233611571527158,0.00339742046369906,0.0024905056917863,0.00281109503605153,0.0020199288483731,0.00325492986070371,0.00338702820113413,0.00349886268660838,0.00360356679532569,0.00368183898614735,0.186881719619944,1.42544008544824,1.42706823399708,1.42880828520093,1.42956532474427,1.43435245976,1.43357984239646,1.4342820846315,1.43558466136213,1.4361894676553,1.43767217613203,1.43734627364191,1.4405341720636,1.44037386689006,1.44412233830216,1.44417396240525,1.44815811765962,1.4486269371134,1.45053041525991,1.44843596464344,1.45286126579693,1.45282202566236,1.45728862646573,1.45789136899773,1.46179127409653,1.46188501464465,1.46609374501244,1.46653926791146,1.47131608688,1.47225383211669,1.47548243405713,1.47513754257883,1.4794295670612,1.48002141988172,1.48399649468137,1.48509950916735,1.48644422932095,1.48487675795255,1.48749098135001,1.48671612661137,1.49048223699793,1.49077758767291,1.49438929453473,1.49352008319257,1.49649420626785,1.49474828197281,1.49862064979158,1.49791970522329,1.50214969893071,1.50343223435079,1.50696058286226,1.5075438680747,1.51194147198763,1.51520403184827,1.51593956535119,1.51634137265656,1.51824492996202,1.51755922536328,1.52150903506901
1.26026272293643,1.25184205866988,1.24939898183333,1.24966035931454,1.24867066037499,1.24643541002421,1.24330251377491,1.23966912678427,1.23471256297887,1.2339748458386,1.23440374899743,1.24229290108576,1.25326232851543,1.26658848673914,1.28076925789464,1.29490200639948,1.30828775038512,1.32071222100081,1.3323466489698,1.34381555608565,1.3613986951102,1.35398775821254,1.35367117887282,1.35289439115416,1.35158435251665,1.34951476395385,1.34742638183587,1.34563525641628,1.34229656853333,1.33381541225409,1.33278017921125,1.33098040964788,1.32919501973151,1.32751623323962,1.32653108371081,1.3250903981253,1.32272849972607,1.31989135163308,1.31656354930778,1.31291581821984,1.31160703793162,1.30987755817036,1.30812442909377,1.30775858894516,1.30743922580278,1.30782928540124,1.32585459733401,1.34327367423126,1.34208991383677,1.33745153716672,1.3338070860478,1.33364875878944,0.595145720347823,0.594657667515465,0.593909247388038,0.593249099125858,0.592983756477717,0.593234720945463,0.593882120795715,0.594620959923902,0.595103859232739,0,0.0020053243810597,0.101231711216244,0.138454757268483,0.176552842937179,0.215778232812651,0.256344048887356,0.299978553649381,1.33814762002624,1.33974482594137,1.34183098009604,1.34474921641002,1.34506640601612,1.34756129583913,1.35231893132723,1.35473171601314,1.35542915447997,1.3551257687396,1.35518550939627,1.35581067992161,1.35699605589124,1.35812500633526,1.35933569609402,1.36060128772038,1.36243108914916,1.36569647654255,1.36918910283942,1.37208039817739,1.37386013934566,1.37619071988994,1.3808545368454,1.38360639978602,1.38462524466921,1.38519358397789,1.21375789069088,0.848395067943317,0.8485200458082,0.848009391564878,0.847642725649702,0.847452423060819,0.188656475823422,0.0025248716114991,0.00165611972188157,0.000998887714041614,0,0.00220138626357962,0.00312826460465195,0.00348077729043313,0.0035784403309168,0.00360022586498871,0.197124216647847,1.42552445833285,1.42680958882614,1.42893754864344,1.42992311318882,1.43130565029008,1.43214932400827,1.43296070112137,1.43381529409044,1.43473242421569,1.4357009334174,1.4376189088084,1.43880440946343,1.44089276803788,1.4418476323272,1.44394917483914,1.4455122418439,1.44779558895629,1.44859175350106,1.45023055387763,1.45202784529143,1.45464681781441,1.45680387525233,1.46033208062927,1.46184667590699,1.46349988700252,1.46723418192015,1.46969753642411,1.47215899362722,1.47290940419168,1.47433830884722,1.47588040061539,1.47739358066052,1.48016826587048,1.48097175097307,1.48355470175854,1.48331894766656,1.48497899965411,1.48538894997206,1.48756393227585,1.48862480981101,1.49134842435296,1.49235907111993,1.49511364474343,1.49490773709187,1.49676360575586,1.49690334423792,1.4992524988101,1.50021219328525,1.50312694153238,1.50468002526199,1.50744454723545,1.50957422400261,1.51228073433844,1.51376400955665,1.51524822507158,1.51612499525223,1.5163790259778,1.40900592681759
1.26384173622508,1.24926670902934,1.24577333201955,1.23373038078745,1.21999630129735,1.22173517449273,1.22355102564948,1.20954636578832,1.2033653701941,1.20443303066991,1.20435060357355,1.20355556006705,1.20358675763544,1.20376267556111,1.20522760130398,1.24649964407697,1.24048126253694,1.25346391377787,1.24064999998894,1.32006361859639,1.39255000000018,1.31945111602394,1.2740500000019,1.31344157970761,1.31251370176354,1.3189064412002,1.39661999999994,1.34943270430979,1.35314486930476,1.33388347398351,1.33310572208684,1.33100217354828,1.34566848295345,1.348749688659,1.34275647854415,1.36505313378758,1.39289000000001,1.41498433628544,1.64889,1.39663759311537,1.32321861926081,1.31659682656653,0.00360357999999995,1.30779245917605,1.30778235698928,1.30864134461226,1.34466130383949,1.34453882710138,1.34548702643901,1.33322823309202,1.33070246708329,1.33239472433254,0.00330222999999995,0.0936959894778756,0.00364856000000172,0.0905916338626526,0.0034993582353334,0.00350045455878986,0.00345779447376457,0.131466107122024,1.36435,0.00208716073900742,0.00301007491988137,0.0035527785625824,0.00389704274115011,0.00387467753077943,0.00367806496036226,0.151704660461697,1.33399735693359,1.33604225802748,1.33588161494716,1.3425078932722,1.34872787964251,0.982756422095622,0.00341153999999995,0.82523724830814,1.36116208266174,1.35382283349944,1.35020665180151,1.35200871074468,1.35351796989106,1.3550733854965,1.35634075684029,1.35800160641519,1.36010714584275,1.36122230216302,1.36284280347251,1.36690300447171,1.37115767352901,1.37236063814711,1.3745288705867,1.37941577220078,1.38234270960811,1.38375062951987,1.38399933739118,1.38603203381963,1.38768713110343,0.849755388714988,0.00311402666985207,0.145189636226626,1.85395,0.143910509149575,0.00288734605223884,0.14451852103092,1.40049216329802,1.39876601114567,1.4084499857523,0.122080442121163,0.00355231352907622,0.00356172995020417,0.0035185459632533,0.213653393416549,1.42422457045566,1.42555345760907,1.43001633328496,1.42960728045018,1.42870369024622,1.43083121185336,1.43157914272201,1.43249973611225,1.43271990173678,1.43336659842211,0.00333592999999996,1.43676829205052,1.44073382500143,1.44004937551472,1.44133228575688,1.44434168476868,1.4453501024556,1.44790030784387,1.44894567483028,1.45203479795912,1.45438150737616,1.45576747622404,1.46230049096922,1.46102189951884,1.46042561562303,1.30926031548714,0.00342584999999995,1.30927698937341,1.47017559312646,1.47265723813889,1.47251334485662,1.47621036417972,1.47702594779958,1.47977483400584,1.47901968752994,1.48213799473335,1.480748413646,1.48489545501092,1.48463375798806,1.48840358707646,1.48791237437548,1.49254701379572,1.49347354121469,1.49553435954147,1.49415898979632,1.49718790502405,1.49612867776858,1.49992439348897,1.49972174967732,1.50380111353473,1.50525051504611,1.5080927097671,1.50947654814403,1.51221252761305,1.51465330568256,1.51487763231943,1.51562821417282,1.40873935700476
1.23810925652694,1.23738979566986,1.2300600180605,1.22600739643168,1.2170878042912,1.21432939837092,1.21169352703119,1.20901181958639,1.206003201899,1.20510255132804,1.20419344978164,1.20270353032934,1.20205775446235,1.20275722212501,1.23864861876034,1.25222202992828,1.25611529366712,1.26780659204659,1.28263268568856,1.31160845760611,1.31383634965354,1.31452713931565,1.31430077471793,1.31372935905882,1.31351640630822,1.31770877106963,1.32147142353003,1.32435846347946,1.32618241828423,1.32720102825917,1.32800703929761,1.32919717667349,1.33981805498463,1.35728694185977,1.37362134855581,1.39460467952505,1.41283897317404,1.43392083004967,1.44774802000015,1.43392924116645,1.41089996154844,1.3839636469521,1.36064515640586,1.34028159775599,1.30911630575458,1.31003928839905,1.31471982831625,1.31896814095552,1.32346504800401,1.33230906920789,1.33223092131543,1.33282414038082,0.265307480684244,0.220735444698548,0.176747245313902,0.133263568960046,0.00347718491446883,0.0035148759308181,0.00353034504440221,0.00350624375002019,0.00338234681587197,0.00310927907398895,0.00335708908017473,0.00365503144608322,0.00385068280269778,0.0039398160262108,0.00388079100236665,0.10661721579117,0.151314088755127,0.196155654875964,0.24116679161416,0.982545815129974,0.982628014458007,0.982687575803839,0.0941066319986576,0.825121133669472,1.33599493137554,1.33783701090281,1.34077761409917,1.34568715541478,1.35084839631698,1.35343026920023,1.35455387460284,1.35620169502457,1.35798821010593,1.35956296204411,1.36150158655503,1.36459703994174,1.36764354213495,1.37023053621658,1.37732247785277,1.38035866136721,1.38277994151458,1.38415157273329,1.38520747451467,1.38645422374481,1.38748510141595,0.850906009482857,0.00221423913007291,0.000403378996435042,0.000554610082949931,6.00435224774349e-06,0.001998959283279,0.189413252078202,1.39758335214468,1.39755927465841,1.39797896618236,0.167827466560486,0.0892826480917371,0.131579064341416,0.175766847346897,0.231690457477286,0.253341302870913,0.284804651972947,0.319410286518767,0.357397776142714,0.398943518793691,1.01381994710302,1.43177078828815,1.43164720852324,1.43144112951996,1.43151562968379,1.43181163944109,1.43298915790883,1.43304876038403,1.43529952217767,1.43555698100826,1.00250419461451,0.957784337728785,0.95778423418729,0.957784025962927,0.95778376744209,0.957783582519194,1.22924922813709,1.45629044089684,1.45821097804766,1.45886734882375,1.30958907613308,0.0960537939338109,1.3096038703478,1.46943847626943,1.47087854442112,1.47254490669907,1.47383990677086,1.47608936400716,1.47700783758632,1.47921512561165,1.47990080765895,1.48220839103443,1.48316882508497,1.48593833427032,1.48651535206632,1.48910960437157,1.49006740601802,1.49313134060794,1.49298871614506,1.4949078338899,1.49521879521945,1.49758828094879,1.49828112441944,1.50059919376709,1.50184178196594,1.50418302415042,1.50611264436674,1.50848791812254,1.51034686636802,1.51214629721609,1.5131254787581,1.51369601421797,1.40827623509273
1.2380326775118,1.23632044765378,1.22667048559542,1.21953777384782,1.20119776971594,1.19920114225829,1.18246137717819,1.18211770038891,1.18330245907153,1.19461070691156,1.18568253930964,1.20087109630958,1.1993437841339,1.2029618136923,1.26267104070961,1.25757835392794,1.30185000001149,1.280872928122,1.30359956333634,1.30812177960583,1.24179999999985,1.31412484323699,1.31364936875845,1.31284414141302,1.30955118179167,1.31253551961767,1.27995570492695,1.28341986896198,1.28392731048992,1.28659046421836,1.28745229509956,1.29549862866287,1.29702166090895,1.36456208171888,1.49038000000013,1.46246495058659,1.49183000000033,1.46670485206359,1.49249000000843,1.47561124559634,1.58216124165343,1.56708566650113,1.56533545546561,1.3664000476504,1.28418999998441,1.29882912839252,0.00358361999999995,1.31096441027617,1.29561999997743,1.33240945766532,1.33330674823968,1.3335510269037,1.3338228981648,1.33337111417539,1.33527668362983,0.178040806609366,0.00338840855526308,0.00351111054660497,0.00359885978349089,0.00351452786334171,0.00338521216720165,0.00338844584359394,0.00353628101240578,0.00369309028806611,0.0037888003447753,0.00398026195180417,0.00388528225740974,0.00395570151054673,0.00372684563273074,0.00369702369216516,0.00358207830288459,0.982468600228838,1.3277,0.982634148976309,0.00371287999999997,0.824926496623924,1.33446598635907,1.33705731952079,1.33907153723735,0.18299007237557,0.00365500000000039,1.20707000217136,1.35236985972703,1.35485630518836,1.35625442443049,1.35811021632129,1.35926897293756,1.36288107483853,1.36482978118975,1.36655008744894,1.3817241764522,1.38211399898889,1.38440909550603,1.38504761070421,1.38681835761283,1.38781268414909,1.38870891694223,0.851797450290707,0.00322165668896964,0.00207157848073825,0.00269655454269252,0.0019387387866317,0.00312835866259791,0.234452147863964,1.39499198901904,1.39635763288629,1.3988668265498,0.213049925597129,0.00320297999999985,0.175768429997337,1.40707,0.267383955242877,0.00363401999999996,0.0940326196320213,0.00363884999999996,0.0940326383225988,0.00348566999999997,1.01380743026126,2.02799,1.43078284647851,1.42966592469688,1.42963414892592,1.43065357620041,1.43004805010353,1.43002318366622,1.43245491024595,1.43535407719505,1.00250436388471,0.0036103471927553,0.00370083205901988,0.00378703219266998,0.092885871269492,0.00343101000000059,1.22924922823449,1.45416691829779,1.45622077706185,1.45739730052027,1.31013049951216,0.00388436999999995,1.31014174162654,1.46630284739141,1.46912482931917,1.47027945021064,1.47245792771408,1.47261144470272,1.47591456691462,1.47615103352598,1.47943769566261,1.47980456194112,1.48321478526243,1.48398339282137,1.48640352836633,1.48610722961443,1.48951679813709,1.49000074210918,1.49246841067301,1.49141868693037,1.49504392518677,1.49549417636409,1.49823477956276,1.49855148689019,1.50102347197007,1.50110617030043,1.50487914164213,1.50699738754664,1.5089984014054,1.51026950965629,1.51193914358201,1.51238640543818,1.40837665065084
1.23564321818255,1.2332443993695,1.2179519954442,1.20736973237389,1.19920266717106,1.19681145494281,1.18040992864055,1.1806527289853,1.18198289509043,1.19630344639247,1.19834509466023,1.20026823352446,1.20186841217663,1.20390834465581,1.23198407113386,1.24379993215164,1.25562442211483,1.26584007870217,1.30617529165271,1.30853132702677,1.31047073007298,1.31314714176228,1.31383107725805,1.31355514174344,1.31270863557513,1.31360120048123,1.28569107532667,1.28551242898855,1.28614049964881,1.28789067296124,1.2901865345422,1.29380586187937,1.29549613453194,1.37012399943129,1.43184513539613,1.43867216063715,1.44638368332932,1.45433716543964,1.4613564864488,1.46918227913622,1.57552532589932,1.5696006124272,1.5670841439448,1.39222948831689,1.38393337110353,1.37377841123293,1.35988482211735,1.35637435213744,1.35339395957263,1.35028723447561,1.34555755178473,1.3406340442144,1.33248311387032,1.33070373617918,1.32824303714383,0.365590135713461,0.32320293854768,0.283540997594874,0.246439227095141,0.211658119861405,0.178892069220833,0.147779393456175,0.117914473882996,0.0888629528986262,0.00393496905740215,0.00411088074535754,0.0041182896971867,0.00405673408304275,0.00381639659653991,0.00370600005204823,0.00359670713434205,0.982420475655562,0.982474730945238,0.982554487960605,0.824638824858426,0.824716498736273,0.271409195752059,0.226605930274821,0.18214865895671,0.137947947460035,0.0933936335202844,1.20707000226876,1.35363217996544,1.35552076456774,1.35612920223694,1.358338997295,1.36020705081437,1.36407435450098,1.36407233948442,1.36507558347617,1.36581051513981,1.3673722517286,1.37318847635944,1.38771546738102,1.39358430959539,1.39440617124618,1.39272738283503,0.852284703847575,0.807865302502814,0.807971392614251,0.80815664649449,0.808372925490538,0.808562277377608,0.808672465495863,1.39246336986459,1.39416871651252,1.39654191755588,1.21234296144682,1.21234149771,1.21233942754247,1.21233796362031,0.81671839975387,0.81671503276323,0.816711566373547,0.816711294810593,0.816714290839707,0.81671738626785,1.01378889038647,1.01378141822889,1.41600494364376,1.41805845277561,1.42145552552507,1.42431975568695,1.42581586961858,1.42683437595948,1.42868581757901,1.43173687568173,1.00250461273,0.00370018705901988,0.00370037852541806,0.00369749705901974,0.13745145942468,0.182428939824226,1.22924922823449,1.45331276997781,1.45491370109508,1.45615313833562,1.31069340128583,1.31080446074075,1.31069981307079,1.4666635058505,1.46776460920108,1.46899980059942,1.47065644351853,1.47266576692026,1.47435798899474,1.47653324735535,1.47751909752815,1.47969489156659,1.48104739177661,1.48359693664576,1.48382486864227,1.48540718322157,1.48665649098981,1.48928793387094,1.49049381228674,1.49244580147177,1.49351970476259,1.49543621125988,1.49689749311544,1.49898062263546,1.50004303317462,1.50155225652077,1.50395383856155,1.50642869489706,1.50791250922219,1.50886019256891,0.646612106175804,0.646569373602672,0.646508960565383
1.2219961654277,1.22765089945309,1.18505999973288,1.1956715503256,1.18597073182889,1.19157234845771,1.17823165512564,1.17818550416255,1.17576034275956,1.20594893423009,1.21231963772833,1.23511411718918,1.30030000000032,1.20745331253594,1.20914981407821,1.21015484245432,1.21057452371579,1.24479713078249,1.37943999999999,1.30897281787112,1.30920720635316,1.25779687084774,1.22095673526537,1.27104234368611,1.3745200000001,1.34105578710961,1.37441000000009,1.2733547727426,1.26122873049336,1.27244627057415,1.29125828605851,1.2753243173373,1.2614972530905,1.37385416203663,1.42422335620928,1.42453094137127,1.42428036618635,1.42731510195096,1.42905880213657,1.44243043156665,1.59414000011431,1.58630731529153,1.59293983182343,1.41152833359952,1.41434243985934,1.38010539884446,1.36438710483449,1.38023011230187,1.43609999999946,1.42274136603413,1.43656999999973,1.35429957118929,1.30668999996553,1.32818293452957,1.32516674106469,1.31971350451399,1.31315102214725,1.02551283105406,1.34298,1.02551166705659,1.32970999966877,1.31915225723317,1.33207000006025,0.143772915140884,0.00372333189917405,0.139550900645729,1.32902,0.133870794029966,0.00363301449234954,0.00361578625892361,0.0034454789531322,0.982360695625678,1.32032459001691,1.32119963497311,1.32196544360598,0.824637127800376,0.00347943999999996,0.093907414381533,0.00366494000000041,0.0933954850011439,0.00327317000000026,1.20707000226876,1.35400048251266,1.35916309515853,1.35593726504496,1.36170698741881,1.36171458250673,1.37260791840688,0.00344523999999995,0.603147273672913,1.36670648433501,1.3668504172464,1.36838025442446,0.603139643319012,0.00346776999999995,1.39236285888332,1.3811077463534,1.37796255864702,1.38403298403825,1.38284587131662,1.38314111782188,1.38389322673126,1.38958282733333,1.38801400781544,1.3881760573362,1.3912516003071,1.43338999999998,1.25735660114072,1.39360702538318,1.39404200095993,1.3953647146505,1.39434798779923,1.40953873614532,1.39920355968483,1.40205306162589,1.39983411130749,1.41619000026136,1.01378141822889,0.00361354999999996,1.41448434867723,1.41692608627982,1.41900745313163,1.42227323340129,1.42208489163137,1.42227613266,1.42415465376555,1.44398943003698,1.0025048306246,0.00378509719266997,0.00369685205901974,0.00360034219275519,0.182428939824442,1.44708,1.22924922813709,1.45088353033924,1.45396549716589,1.45612498453472,1.31096803026017,1.46513,1.31097528633244,1.46572147230762,1.46663022030969,1.46624764904708,1.46950368318896,1.47120757991405,1.47391278485478,1.47513937312104,1.47664099212702,1.47669581829481,1.48030899138246,1.48144429010049,1.48270603339366,1.48089980666115,1.4849502084917,1.4867522133509,1.48988173332097,1.49147543675015,1.49302837589574,1.49334638446504,1.49646467744489,1.49855466195641,1.499660566181,1.49997725520628,1.50350491166603,1.50636819000154,1.50755452655686,1.5083090032742,0.178115355381823,0.00364603970919302,0.00361976748263388
1.24052262029304,1.2361679285639,1.19449591124822,1.19961123947739,1.20716893393347,1.21713567704142,1.22833941580664,1.23965563735011,1.25008452968378,1.25809561591913,1.2668932356021,1.27205214921187,1.27301183717752,1.20956798151588,1.20999246392583,1.21072069742141,1.21135207799622,1.21271537180672,1.21375182119722,1.21464699335616,1.21579009771167,1.21806982976823,1.21973211541473,1.25424606473878,1.27432864683813,1.29334877222139,1.31381527363371,1.27017858212142,1.26124923518962,1.26116247383138,1.26076909038741,1.2600336073006,1.26087065497136,1.37597970190624,1.42430777452376,1.42498278307497,1.42593634441519,1.42815660826851,1.43048774322424,1.43318261686061,1.43404176042017,1.43283165733526,1.42986344585054,1.40807699604687,1.40478801647159,1.40380076000105,1.40397391413028,1.40293184685549,1.40276064177594,1.41341993417119,1.41819074886406,1.36152189720054,1.35350669557081,1.34566183481449,1.33642992774171,1.32776159976791,1.32137702403263,1.02551264430836,1.02551230658945,1.02551192491837,1.30247455429582,1.30182829368814,1.30178670640085,1.18991625385657,1.18991665053872,1.18991721138963,1.18991760787045,1.01502227828941,1.01502203655498,1.01502172688811,1.01502151792094,1.01502143912203,1.3214002699328,1.32108809318797,1.32084312029941,0.852273870853575,0.852223899367791,0.852140050580418,0.852047496268579,0.851971036482693,0.851928453998381,1.20707000217136,1.36619404182002,1.36866526566746,1.3693826600328,1.37092119005922,1.36898392266051,1.37427585720406,0.603147273672913,0.603161382944858,0.603193576967574,0.603206452073124,0.603190046741086,0.603154814485021,0.603139643319012,1.3911519921414,1.38011090694691,1.37793409653195,1.37980020555397,1.38138915861014,1.38413027784603,1.38467188328133,1.385759133455,1.38618250240514,1.38634922237233,1.25736158260187,1.25736012366911,1.25735806028034,1.39294898510642,1.39323346109236,1.39357094641094,1.39360148756185,1.39447662894781,1.39623946825049,1.39748696262638,1.39758165022075,1.3978167045675,1.39951375858777,1.4035554398595,1.41076238167071,1.41056139011353,1.41307407322217,1.41437718300615,1.41748709718264,1.41915575411505,1.42133017461114,1.4236966982103,1.00250494981551,0.529124944960658,0.528864429722375,0.528427000434891,0.527937258773895,0.52701590861394,0.526301306921946,0.525849129543254,0.525640146343087,0.843920694973236,0.843917410473335,0.843914086961962,0.843913980380762,0.843917119288184,0.843920297207065,1.22999672147194,1.22999672156934,1.22999672156934,1.22999672147194,1.47371078166259,1.47493523814008,1.47768005175771,1.47914660906987,1.48068041932187,1.48164041527344,1.48280808019559,1.48333264621821,1.48295340483139,0.734057149573155,0.734071837205149,0.734090238977331,0.734098654168327,0.734090940870163,0.734073102246945,0.734058727329087,1.02291344501278,1.02291347788167,0.265228261145781,0.220686950386759,0.176758184627821,0.13335874928333,0.00364512748263441,0.00362664583219934
