1.80269580499892,1.7315874182049,1.56896999980679,1.55436740586559,1.49719902905357,1.51021139427015,1.52090399445121,1.61401136721567,1.92430999996056,1.7298298449027,1.60781999999943,1.78136415517972,1.78238266972868,1.6988078633384,1.67803623217765,1.67165960254802,1.66063088012415,1.69108529911099,1.69778941089983,1.64347460460351,1.60297000078756,1.63251407473912,1.67726489035471,1.6807991658154,1.69718987122999,1.59326045138972,1.57431041015013,1.57039830399508,1.5337978561643,1.52607714830063,1.49839971479452,1.51198710621454,1.51438895629432,1.5451321943258,1.50998000050772,1.59405038049962,1.98772000000097,1.71892160474724,1.75423999963529,1.64353188323894,1.6364856018475,1.65002983652025,1.52890999999925,1.62221313985338,1.53792999999941,1.93747989184225,2.00440622029345,1.54977998361077,1.53068970057491,1.57566860359136,1.89980000000097,1.76189089021026,1.76321689297504,1.79205076842895,1.98303,1.78606461344144,1.7447099223676,1.72880175375088,1.70034587681627,1.68511326367365,1.67774726490351,1.67696041543325,1.67583512874708,1.69007971407883,0.00407630000282129,1.72190211739087,1.73025639794168,1.70921821948512,1.68937325227749,1.72309626615337,1.96636180649573,1.99999382172086,2.12264000010423,1.71635339333755,1.64122010480121,1.62561528396169,1.60198435035714,1.61583921597513,1.63144054699228,1.63316291077293,2.02222000000048,1.95286230867851,1.9185849419389,1.64039317560404,1.55257581419698,1.55628029281401,1.55990115002564,1.62537312868511,1.67151000004866,1.70507549592143,1.93143803714129,1.92035615928411,1.92663462409513,1.60827511566115,1.54395809700565,1.53113080029006,1.5189547731537,1.52478554015973,1.5297523320835,1.60281221470729,1.81028999979349,1.7818871284734,1.79664999948678,1.51869632746812,1.46421816448307,1.44792530666118,1.42128235094762,1.42707612240698,1.41039095570198,1.47800681590776,1.40930000000489,1.65875680661763,1.75653000000097,1.40199432555799,1.32928999984946,1.31581709158506,1.30351076041774,1.29525189998723,1.28420508159021,1.29628562905476,1.29883001556478,1.32338185155007,1.34673718275685,1.336360495075,1.32577609951083,1.34434459414029,1.34944417900875,1.50478007967963,1.65851676306514,1.65771247974026,1.35000914436716,1.38855619728055,1.38857093265305,1.38854753103375,1.37053487995634,1.40671559377919,1.45449500091783,1.49199181813687,1.72916558822149,1.57286062225027,1.55823000015525,1.43715947223332,1.37408305585368,1.43408497190908,1.48140097903758,1.52193254782638,1.74824999967253,1.73223987501111,1.76143512804181,1.58325981538221,1.4919800002685,1.44109920831532,1.401819999954,1.44557352609003,1.51054999999952,1.60640301111852,1.71237039302525,1.70912039621298,1.78677999994697,1.57780382617294,1.54133000000004,1.47094315321233,1.42128000008826,1.44300823741615,1.63164769982052,1.63500804666511,1.73160709910552,1.63699324606034,1.54736999999958,1.3689319934082,1.33796308785402,1.34033916403175,1.33111788370659,1.38214125627479
1.9097207231129,1.73309620824922,1.54337603143276,1.53982943880605,1.50348554457439,1.50264772795436,1.48659079706191,1.59678769310444,1.58942651151147,1.70104432627463,1.8408099998663,1.78999087244145,1.7932688483322,1.72256605253011,1.72103012006568,1.70236259591964,1.72873999948081,1.70577451869893,1.72662999948631,1.62114068904805,1.50549000046642,1.53519240276148,1.53401767982041,1.62234723579258,1.67209819940928,1.59524651512498,1.60816890377525,1.55969832397167,1.55304567943931,1.52232151430282,1.50658397403793,1.51125420504057,1.60879999943372,1.55550136786884,1.54710043516242,1.57785507890048,1.5305400002756,1.59509850004115,1.50174999999916,1.6381954677757,1.67487381991724,1.66135326262993,1.72194999962826,1.68946134003701,1.99290000000097,1.94020390849177,2.014673779708,1.55909606458575,1.50245175140404,1.56603515877108,1.75160949539091,1.73478885347035,1.71748035504259,1.76544122483352,2.10092197994558,1.80715631342248,1.77823000007073,1.73675144460976,1.72310484024507,1.73389222987494,1.77551173120983,1.77763040451447,2.03328444907305,2.0404165566034,2.0423352170863,1.78149432889605,1.77481618881006,1.73163566069256,1.68666674814163,1.7267729397031,2.17335623874349,2.15288541823868,2.15557036888201,1.8042937435353,1.77036000001404,1.68921942820853,1.66097450585561,1.63631104351497,1.62992585832257,1.63275470703256,2.17185000000097,2.0177799030241,2.00082701679715,1.66789900081975,1.62050999992286,1.60510384812151,1.58599000013408,1.65047979249317,1.67174999979708,1.73355148321022,1.90851132505612,1.90906594373381,1.9115671065166,1.65485096135685,1.63439000033163,1.57111388664494,1.52309411275306,1.56527088166568,1.66061999977423,1.6358128774613,1.67456000023509,1.77119296244718,1.77429859058024,1.53944359148412,1.48279999975571,1.46565018969425,1.44063487849733,1.44827809861832,1.45878570979678,1.51237511313941,1.7593799997561,1.67008155282838,1.42504999992669,1.41803329233456,1.38554966971947,1.34965661553779,1.32739000005031,1.3093371381937,1.27840295905983,1.30756454485958,1.32378323013073,1.32570780129683,1.3450699813424,1.34803400251594,1.3468741195634,1.39266026004095,1.48877999999998,1.52835794009318,1.66265323681514,1.65420337094131,1.35847085599447,1.40570099573794,1.41883331832715,1.40995661094321,1.42027055317698,1.41321873281429,1.45883499897905,1.49518010829368,1.71508000007815,1.55977354144428,1.50364561461885,1.44743883513843,1.45116516409086,1.44296163016327,1.4679761413302,1.51544796400169,1.50641557620036,1.5769768188043,1.51308000015967,1.53614765855622,1.53315589564552,1.44702123020695,1.43954509703702,1.4504441267973,1.61889003284971,1.61038381187549,1.61322999990552,1.66890201032693,1.61977087300534,1.61433689924896,1.64111780213557,1.47734571753084,1.46488044688985,1.46011771426349,1.46153865277399,1.57359321900896,1.7285791918255,1.63789915462085,1.63219877130752,1.3732249779389,1.34107238433244,1.36063310855836,1.38548245026578,1.38677225421064
1.91631045290638,1.73432770303218,1.73614076865306,1.53693240170071,1.50568910570323,1.50344435544951,1.50141787879601,1.59801290396386,1.60371004449175,1.67800980358119,1.78838364044483,1.78863025825176,1.80310624792207,1.72245458838094,1.68580163947373,1.68251110361904,1.6601585296187,1.66056686199127,1.66167720537576,1.59824092612234,1.53416105248916,1.53508640947379,1.53515786636424,1.58928340697333,1.68707180069991,1.56337937482415,1.45264880068653,1.50795086791924,1.5080368044802,1.52225719805001,1.51623647713991,1.51212324519229,1.57887499998732,1.56486795935509,1.64715999975946,1.59712308823349,1.82983000000097,1.63714157937678,1.73004999991904,1.62893915337713,1.61664732122119,1.60917055869984,1.60229390374305,1.67053196501153,1.85533966209228,1.86691769559722,1.87558914098612,1.57001802573162,1.50213824902981,1.55709629470091,1.701009186221,1.68254547527241,1.66814458081702,1.74083695713464,2.09324802002381,1.82299516634449,1.79968999957434,1.75904204803455,1.75589551783076,1.74246978988143,1.78065647552071,1.77917921269054,2.03542439214696,2.0408006449098,2.06296999986367,1.79045644918426,1.78704285989465,1.73459080404505,1.73066614352756,1.73428290689956,2.1615845740899,2.15322927970332,2.15234905289973,2.0578429705482,2.04546091151948,1.72240501727402,1.65198856645804,1.6438203234775,0.00407329000282174,0.0735894900003843,0.00450074000275814,2.02839427831271,2.15106491876776,1.6968042983476,1.65906384481119,1.64676997991636,1.63564495659993,1.68179515448805,1.72330000003014,1.7637834012831,1.78090000000554,1.85446070944306,1.80837000006267,1.68080796579047,1.65273000008758,1.60153615929294,1.56805422271643,1.57416774384207,1.60131690962197,1.6182331023041,1.70405999977971,1.76582163505208,1.74760996389792,1.56103127450388,1.51668925601488,1.49562863134262,1.46222000023883,1.50201484370445,1.60031903613816,1.60737978455116,1.72075140681262,1.71713752130836,1.72052575090873,1.43271678528068,1.38594077839024,1.36783135637088,1.34761135343253,1.35665961576518,1.36517269738202,1.35031629857955,1.33279414848953,1.32942846040388,1.33059307780209,1.35087286065496,1.35094240353631,1.41368083108678,1.5750799166984,1.57600815477105,1.59960000035136,1.65215428512109,1.72534500051028,1.45801194626696,1.45055923335147,1.40000352605068,1.389928739288,1.40691101296521,1.42942999988012,1.49909586525928,1.66811000000048,1.53978084823562,1.50696677005389,1.44282438269115,1.38604333318972,1.43504644191991,1.44740664650696,1.52411856995557,1.65507433645231,1.65948639176498,1.66567080358291,1.53888706266961,1.49925337978883,1.45463373119148,1.4438849032458,1.45888208697569,1.49010000012363,1.60625941994121,1.79922422007551,1.77432338676658,1.765431922976,1.60951941394806,1.58229030249137,1.48695378448563,1.50348916272431,1.45705129760783,1.45169641704671,1.54585366305042,1.74422370898546,1.6409866814724,1.61365012920962,1.37751293589102,1.38085920311858,1.36867200805012,1.40072102106583,1.39958435157465
1.92439882398266,1.6165199843828,1.54767795538955,1.53458798793631,1.5260552130177,1.51658221521361,1.51196857575717,1.61250071733939,1.6213599998763,1.65734402001709,1.64425799213333,1.73494998623436,1.77874000003283,1.72028216616806,1.70279109553185,1.67999394319287,1.67234135115337,1.65573861077463,1.57521068212565,1.57065233395803,1.54669842705743,1.54558967526959,1.54472901716548,1.54872934538119,1.53823985193404,1.52992748438756,1.46149119969871,1.50841897602575,1.51677634934255,1.52690081076462,1.67586663448915,1.50944537477176,1.51009483003619,1.50219828450085,1.47468557089114,1.49043434559516,1.50579677998377,1.60650422108215,1.6853200000619,1.62090579145086,1.5955159406943,1.59924422468297,1.63522774728326,1.65398014409985,1.72821000000995,1.76232152468019,1.84811884706455,1.58032114401204,1.52338005493788,1.54817904666608,1.66575079609868,1.67712665481094,1.70327999973449,1.71757288559192,2.05440000003255,1.84170404443571,1.79873000028226,1.76088984615936,1.69903954192211,1.70586734954202,1.69688328413697,1.74993978693179,2.06620999973279,1.97966446242981,1.93951593811124,1.79295285908145,1.79000501134384,1.74892513962418,1.74578312283522,1.7494938720384,2.1428480652205,2.13758161244139,2.06591571780242,2.06394195724044,2.06843849039966,1.87738774730051,1.85502000021161,1.89128460205626,2.12908916510393,2.09770413445645,2.20959000000097,2.09448132794717,2.1309850812332,1.72581723679586,1.68266881751039,1.68127845802748,1.6797968175148,1.71383235283495,1.75503999997159,1.7958386577971,1.93788158023522,1.95817082237953,1.98968854966927,1.6996377813121,1.67870827325884,1.62402202149299,1.58407039749279,1.5841291645223,1.5831102152351,1.60735308367065,1.87237000000097,1.76703809554811,1.80789999986692,1.58363650022869,1.52340890009879,1.50849563235397,1.4987320409688,1.52544166312413,1.58542590686725,1.61460169136383,1.70406694897233,1.71313802991542,1.68889977168164,1.45175369712149,1.38915351792979,1.37753147144931,1.37085679619207,1.37068202098219,1.37049996291453,1.36978146754626,1.36901516818352,1.38365144285097,1.40155892112396,1.39335474370687,1.38455327027512,1.43194111889803,1.47192000021921,1.57593838302132,1.6367199999516,1.66713979126185,1.72788499923929,1.46364286973323,1.37027609991039,1.37382243624457,1.37691251995132,1.37127549520843,1.36416684251442,1.50365355317477,1.50530901929092,1.51963934939708,1.49735761518066,1.43832690349918,1.38517666718048,1.43006321582338,1.4851857783186,1.53097460967504,1.6683731269619,1.68540522395648,1.69475815509471,1.55160775290099,1.5048547525277,1.46192018836186,1.40143699353583,1.46719748516697,1.52615000001015,1.60389335855473,1.78243543145128,1.77650031578733,1.81564999975831,1.59905485340299,1.596569697614,1.48316365473919,1.48035668528809,1.44537469084681,1.41101000015323,1.54025384228443,1.70555999996143,1.64305288476796,1.64423856665516,1.36898892270772,1.3585103557939,1.36386130612455,1.38620394369266,1.39834712685713
1.53236000064093,1.54966369276915,1.52871169807841,1.53203342019297,1.5274671718786,1.5193421038644,1.49869645899205,1.6164640284421,1.6923999996329,1.66698633427606,1.6416329091253,1.71208843826043,1.71169107055381,1.71620494505227,1.69989341126571,1.67878287304741,1.64138613262122,1.63990506122111,1.56523645916988,1.56793758644758,1.53723561955249,1.54497904252699,1.55147106131955,1.55157140096954,1.51348385388031,1.51835422897236,1.48007012840461,1.50872409821298,1.53952645610794,1.52891841028292,1.6822933655123,1.5051729479683,1.50045438885571,1.49961698650313,1.47685809750269,1.48395843436617,1.50863551505871,1.57907008639282,1.60972244352242,1.59364277107804,1.5723228233659,1.59811609098601,1.63689375471126,1.64840553726151,1.65752999982765,1.70171263521515,1.85891115304726,1.58864366201026,1.52421994482423,1.54155388849248,1.6813623412415,1.6631060089058,1.64028000012422,1.68354597886514,1.8102100000871,1.85739347772788,1.99123999991297,1.76101751774074,1.73209517189829,1.71379733735666,1.72719800605873,1.70631477598996,1.69852384899881,1.80654755049597,1.81066449720295,1.8009990474664,1.78920050937749,1.75004071202305,1.75041977968871,1.75063513166123,2.17435999975455,2.13523263141888,2.13521116703376,2.06699338252166,2.07376372419846,1.93800902878879,1.91600175614008,1.93775124995823,2.11146085198395,2.08923374866837,2.07219536970446,2.08628249818571,2.20514000000097,1.75636587233983,1.73804521597599,1.72288628908117,1.69724000019816,1.74174811226787,1.82167000010091,1.85182374368458,1.9678463402106,1.96473513046405,1.97083622815227,1.71739380199412,1.67566145323581,1.64166595777782,1.60387332246756,1.62763361869393,1.6527899997096,1.32750983112511,0.00480272000271316,0.176952857236271,1.94898000000097,1.60679656249503,1.65808999957507,1.54831421421134,1.49897908371301,1.52862063791451,1.59295681274778,1.62333960486302,1.7210257738357,1.71702721102166,1.70205772078187,1.47099560032205,1.4511599995683,1.41197664471326,1.39349840875258,1.38606476045474,1.37903365247009,1.42968360780009,1.66546000019186,1.48281511242988,1.44019387515592,1.42909209426162,1.43459662479893,1.437419311382,1.49398000004431,1.5744841469668,1.72950157950337,1.70507107695132,1.68477676557192,1.46661197858751,1.38579160454071,1.36757381735517,1.33723680283168,1.36547334356518,1.47393000014851,1.50671875649085,1.54246305761434,1.53011654754274,1.46388000021353,1.43480813047157,1.42101999987664,1.42607560645024,1.47036422119461,1.53727205966428,1.71034392049025,1.70888794466427,1.73408999943687,1.56399496738192,1.49529632325545,1.46728147396676,1.41005300689182,1.47207835502072,1.55775999966346,1.60264769317601,1.77966834012193,1.74007050795049,1.7205833473132,1.58974127883796,1.56799876538784,1.47110263579927,1.41912202501572,1.41100042370354,1.37357666675115,1.54013534609006,1.6768537042921,1.60074360377522,1.34847656777063,1.34657745261133,1.33834627071151,1.35505561804139,1.36134771965547,1.39890378737946
1.55774814015939,1.56253026513429,1.57703621759951,1.57840584003787,1.57943014929706,1.58234574021148,1.58478403929386,1.61902958447286,1.64519247791672,1.67521981851337,1.75178999939796,1.71269598954098,1.71459842526749,1.71521183055779,1.71610166566916,1.67838430978181,1.67015840976262,1.63899888448204,1.60934999978952,1.56872745570913,1.52137700838517,1.54453237708779,1.60170999940005,1.55338856248897,1.54756195717928,1.52306205379788,1.47838987235912,1.50851667843462,1.50600589819343,1.50417430439565,1.50322660918274,1.50261121022378,1.50161193326557,1.49831211291732,1.4446500007334,1.46391544463985,1.46596416843077,1.55484828056545,1.77984000000097,1.58454273215197,1.57450398411484,1.56650883731236,1.54269378196376,1.61067642390082,1.633846096594,1.63043844949916,1.62658298784598,1.59621775491814,1.49565000044216,1.53679128215702,1.50673628276524,1.50656304124943,1.50826859287456,1.61367078929007,1.9208599997615,1.87504569654545,1.94785000008848,1.76034809584964,1.70652035266971,1.69619089369925,1.6549100004065,1.69895131533685,1.79327644480236,1.80375543434691,1.81038687793902,1.82088009254323,1.84554938997201,1.67791771256678,1.57146000037874,1.64935002540278,1.67585999991262,1.73595326511621,2.16609999978118,2.0646378313581,2.01948908514645,1.94681986355171,1.89002115184282,1.95029064009901,2.10486998291406,2.08617193083134,2.06777102136837,2.06480570333474,2.03126463287142,1.77981188576968,1.7257056073354,1.73283876083276,1.73788066168909,1.76939370837197,1.95067607396163,1.94762878462296,1.96425654271587,1.96088515163065,2.06648000000097,1.73305274814505,1.67486027326056,1.6602352953956,1.60248667782436,1.64713439281638,1.69825342951077,1.32750983112511,1.90543000000097,0.142469315711513,0.00421702000280034,0.883284990790542,1.63001000003029,1.56528148164872,1.54404214873355,1.54013023434313,1.53441038099723,1.63463904238002,1.75690174518799,1.75486496986894,1.75126261154242,1.48891342617737,1.40989508725882,1.42272054497997,1.43921359439497,1.4259968523034,1.41614819826075,1.46295949560224,1.69894999980959,1.54597699427218,1.53349325395895,1.42327536802935,1.40337000059404,1.44090084090236,1.51675131605338,1.57127822312613,1.71344325381227,1.71361489284865,1.72717038815771,1.46730506431922,1.37044779651494,1.36040100826851,1.3271888543065,1.35996060896207,1.49363999995334,1.50947223187027,1.59538315590866,1.598402572827,1.65120000000097,1.43312038249538,1.39164000057577,1.42504358847711,1.42377395914829,1.54380579268671,1.66438321723039,1.7085130074854,1.70864599380481,1.57498652319513,1.48619708863751,1.4704165702386,1.43439000019851,1.47220281009229,1.50830499175841,1.60087463191438,1.72180523601603,1.7210489935009,1.72023501217843,1.58336619027636,1.55720123459098,1.46755398088849,1.45476999969998,1.40588367541992,1.37280333360067,1.53997918816806,1.66860629583334,1.59933682968387,1.50502000000052,1.34431231872564,1.34167111126947,1.35192297957438,1.35463343726817,1.40137754237314
1.57932112279286,1.58545985109669,1.5922667690695,1.59888941661441,1.60579625160575,1.61216825073363,1.61908634265351,1.62075407419481,1.63539585499239,1.68260964324109,1.7238601446208,1.71298286023624,1.71378846920191,1.71481107024615,1.71477999729674,1.67773652030808,1.66289067802911,1.63856793408844,1.59101370905827,1.56763781420164,1.53973727013201,1.54322546093148,1.56951757680149,1.55526039507857,1.53899951905189,1.52722386972784,1.50375287552442,1.50991543569757,1.50657111965117,1.50381980312026,1.50193490875289,1.50106090337264,1.49680532156232,1.49596363235271,1.46049649361533,1.46186382130683,1.47253825477993,1.53254526522981,1.62183982759199,1.57900410040398,1.5667729427457,1.56184126772516,1.55303551284572,1.59169223480606,1.62511180928049,1.6180060405392,1.61040822547295,1.60293980443644,1.58527442129761,1.57173042708296,1.55419803004286,1.50566971246426,1.50619400196549,1.58050059662321,1.61440357244059,1.65783943318172,1.78071659923695,1.76028951456487,1.70869447231869,1.68637886569426,1.68108934590045,1.69530394484726,1.72329197654523,1.75193146863573,1.82157904921087,1.8267040828984,1.83603675389885,1.64605856193491,1.60783835505397,1.62981079489973,1.64585084432118,1.67468205480322,2.07504300045698,2.07045705604033,2.04439449625913,1.99346567431579,1.99596590215577,1.99545012364302,2.08009923801363,2.08131292453845,2.07069755143452,2.06631282426654,2.0561381944883,1.81392421257696,1.79751251147299,1.78823226144108,1.77221912975805,1.79113286445896,1.95299894385456,1.95054056776194,1.96175699838377,1.9575907570378,2.01461920849923,1.74316019544729,1.71626553947735,1.68437690735939,1.66407711614563,1.67682557163217,1.68752874970805,1.29296545596674,0.142539518565584,0.108038422796109,0.073591196755345,0.883285099157798,1.60543447257887,1.5845539445016,1.56203297901597,1.56357938027699,1.56459179457588,1.64519469574007,1.75782580444682,1.75788681115483,1.72488984141641,1.50643689327478,1.4470453108819,1.44632454540589,1.44378930002365,1.44880811241625,1.45567247564717,1.49554128913588,1.59761892079437,1.56686623848154,1.52365767380887,1.41735572517964,1.41486185545228,1.4493262110739,1.5107357165199,1.56666963666628,1.71172070575664,1.71528319289522,1.72164762122688,1.46708611496239,1.3552816552397,1.34621556153549,1.33606233710316,1.35608117782604,1.42132755643715,1.51121111863728,1.59840283646601,1.60089105905399,1.50010602639392,1.43307706877072,1.41304773662067,1.42625935879923,1.42560197421441,1.55067409436383,1.68928819526508,1.70895173854291,1.70889093365366,1.58295689452749,1.48401521337892,1.47258145702971,1.46110437157045,1.47397825185119,1.52070931770877,1.59842822785588,1.66629795345148,1.6695911568459,1.67644369174281,1.576144522237,1.53802353643577,1.46597507551261,1.43516850339611,1.40347397634183,1.40295251179085,1.53985514121969,1.60035820044612,1.59695351951357,1.4431797738601,1.34430410278083,1.34417496185866,1.34631730387487,1.36263209257358,1.40474269865898
1.92144833368999,1.86275289707592,1.84738000008913,1.65851358030413,1.61917805234133,1.61365011679232,1.62416824913971,1.62457485097312,1.62883385403969,1.68986761568609,1.73282149723721,1.70122762327874,1.68156516553665,1.69997431068239,1.71314372488522,1.67607370714092,1.6546870557281,1.63767616265063,1.58039129025314,1.56571738306278,1.52134955809954,1.54141161914969,1.66268000000097,1.55704289816533,1.53061612531405,1.53049174587295,1.496349689993,1.51308471606752,1.51639408656426,1.51943531291283,1.54600471738329,1.53128259244821,1.48637293352289,1.49212730587757,1.45912918353975,1.46069020024667,1.48257735275372,1.51175435630774,1.83392000000097,1.5503976967454,1.49003161105847,1.52207449040943,1.53553777968193,1.57152147506655,1.68201999989666,1.59515890661052,1.53078999975534,1.62375927250802,1.90713000000097,1.59037278359183,1.61743999970402,1.4960721739656,1.49319557925325,1.54918496407812,1.57890999994768,1.62540716037968,1.97778000000097,1.76162194362041,1.71048835302647,1.67930747251382,1.659485310337,1.66561738236099,1.67250967831168,1.71778897190393,2.03765000022653,1.92842000867741,1.90244386834535,1.61648865281958,1.56827489927316,1.55884658234571,1.51689000053729,1.61610307553905,2.06551585114403,2.06380253971087,2.0582931474887,1.99163472187187,2.01461000000097,1.99103985602015,2.05750783490702,2.06687896287579,2.05626588850184,2.05820543410423,2.05663155239051,1.8749517047815,1.8555626920615,1.79851530160718,1.74799166081025,1.80976347208017,1.95697187877792,1.95782151771472,1.95906523316414,1.95781582860507,2.14844000000097,1.74944023231794,1.75779670807678,1.7004540556536,1.6473744607126,1.68749062170559,1.71427999966526,1.29296545596674,0.00430253000278791,0.0735911840687719,0.00468715000687761,0.883284990790542,1.62425999957862,1.59888735794268,1.55898189269926,1.56264356754296,1.56444790789696,1.65789829397803,1.78252999989953,1.76104652674241,1.69874000018294,1.52619321456727,1.4540668387936,1.44705527283867,1.40863000046035,1.45582225417531,1.46870532153014,1.5269494759638,1.68719000000048,1.59761929132872,1.51348871060846,1.41533428765911,1.39541166662391,1.45749773011243,1.50387556611165,1.56158033029971,1.70864531555352,1.71991047032781,1.77628000010175,1.46996238388734,1.3198000003737,1.33613490998133,1.31950000058207,1.35502162330894,1.35636721071142,1.5114515351723,1.65901285714242,1.60501332338094,1.43442724442937,1.43374450249731,1.40813649041595,1.42688769546515,1.42591402910423,1.56350897244313,1.69936934356096,1.70973056370824,1.70946193033676,1.59093338678744,1.48181322870998,1.47649460427908,1.40196000008405,1.47895515270893,1.53651753126106,1.59631527599165,1.66074195409164,1.66570426950037,1.68385806123882,1.56789790511986,1.515913456554,1.45561608513005,1.37821000057401,1.40289529898074,1.3989743944287,1.53976376785247,1.606039999546,1.58860228093941,1.38907999999954,1.33507438815722,1.32132000035528,1.3398446525459,1.36775037431131,1.40807859768229
1.91922837664613,1.87884745755421,1.90605999949205,1.69307736327732,1.603542934883,1.61086118752272,1.60708945493014,1.63851745839075,1.6554990209866,1.69696748818709,1.75883961593402,1.69182484451629,1.65917975533025,1.69420832856291,1.72430370482419,1.67307806465067,1.66485796023012,1.63536263594712,1.56176166655757,1.56433570511276,1.51342247326573,1.54115117438854,1.57162992136936,1.56206100198857,1.57136812668541,1.53701633120951,1.47853278418837,1.51477189398098,1.52006162695221,1.52617759728348,1.54467980223772,1.54570213861808,1.56292969583215,1.49442338672178,1.42901000049225,1.43997199840535,1.43685118421228,1.48645371381057,1.51785586097975,1.51728184641085,1.51702880135797,1.51667773742307,1.51647357884211,1.53345208720558,1.54427606274851,1.57799066715356,1.5023700002435,1.65304684324497,1.70026350480302,1.58171139409812,1.4900532050382,1.48819291293206,1.48500015300343,1.50030139362441,1.51000341599136,1.59479710712623,1.91749000000048,1.76432424483213,1.76789302064475,1.6716743955163,1.65772473316972,1.64757316805729,1.63313486207386,1.68825300361787,2.06781999977492,1.94049779051479,1.94506999987098,1.58909167190834,1.54870051340712,1.55113592390544,1.55426051884279,1.58309274343838,2.03732759242861,2.04718945858529,2.03966984773479,1.64286383936913,1.58005999989091,1.63347496654597,2.05099927102914,2.06028728993001,2.050500370707,2.05479857281103,2.06205680176591,1.88477625421636,1.89486999959968,1.82415322510872,1.90406000000097,1.83386396530131,1.96293380638117,1.95769997590075,1.96210347889653,1.95902437791331,2.05835999993279,1.74361447619866,1.72928895297771,1.71529799448752,1.68732000023344,1.74222283334433,1.97585252403845,2.01335175749377,2.18939000000097,1.89502416883615,1.87588000030618,1.68484174653066,1.67511999986929,1.6486233886841,1.67349999960414,1.61221032180269,1.61078064070715,1.67137628383932,1.80265025064947,1.80427906992511,1.80586608428433,1.54781067541132,1.50056652299247,1.47678165538318,1.46434578448193,1.48785869429019,1.51079804923473,1.55878128085375,1.76061666673385,1.69700162980014,1.69063634242756,1.41519156269878,1.3926183337469,1.46237798737385,1.49078000504389,1.55703662120224,1.57747999974741,1.7234597948362,1.79023655166039,1.47599199494693,1.37287994891013,1.34976446018603,1.35436132662634,1.36771272029131,1.49987166669675,1.51058518514501,1.65878428571477,1.60799424506634,1.53138000000006,1.47188072140767,1.46711684388677,1.44820275067331,1.43902984746742,1.58522898761179,1.73488263587263,1.71692108170487,1.71949867520961,1.59860489870743,1.56707000010182,1.49651560388934,1.49417451559265,1.48633570433958,1.52450862698872,1.59507536745421,1.64510905127079,1.64763478305649,1.65147102311508,1.55984370520981,1.51752654389541,1.43877889193928,1.41005319703794,1.40972225215585,1.42323301421392,1.53964453466121,1.58459474541006,1.57829521761168,1.57103934472769,1.33378247446242,1.28520000023688,1.31701850606136,1.32588000005826,1.41060570486933
1.61697999999943,1.86466123675318,1.87190629505801,1.85835079193897,1.90586999988934,1.73206879949023,1.70858674612423,1.70486923446167,1.72006678132996,1.70366456391214,1.74179038346525,1.68473138896913,1.67881621352663,1.68751356483634,1.70081999973815,1.66898914957809,1.66686962431033,1.63166331252646,1.56917462877584,1.56643299951544,1.51407796983461,1.54394183494649,1.5493583027429,1.54907372009762,1.54692908867816,1.53995844767176,1.51386100260639,1.515671523597,1.51818781567847,1.53290532573648,1.545171398679,1.54221260255624,1.53029977801212,1.49760172600396,1.4839284299738,1.44142491244749,1.4265175029677,1.45469729623267,1.45739336176235,1.47887143594227,1.47543915548427,1.49176660418543,1.49031256630935,1.52710725387516,1.59238999999598,1.62477661092851,1.74139999976409,1.72157590417093,1.70222899063223,1.5751843907234,1.51284443837842,1.48110819064241,1.47700920270062,1.49481156030226,1.53109000002062,1.5414999420453,1.5268600003325,1.6304632679396,1.63050563047833,1.60973440238691,1.58874545756088,1.59676600592843,1.60647439462307,1.66189316784392,2.00021000010887,1.83128519581478,1.80385000016343,1.56328429223438,1.47244641370762,1.47699959178488,1.49163753234965,1.50542847822207,1.51942929496884,1.59901668637077,1.61289273954278,1.60682069032603,1.56116172018476,1.54716848293862,1.51902000009957,1.59213537164527,2.04907070089766,2.05276779531181,2.07711000011115,1.81285260909183,1.77941999993488,1.75600006508878,1.71758000020558,1.76523349426077,1.9697554125942,1.96009252623316,1.95541439317937,1.96084507944354,2.04568000006818,1.74034310066428,1.72713762696976,1.73200526522399,1.73168279467189,1.77797216092482,2.04552999990282,2.01996746681012,2.02830000000048,1.92615426561416,1.91133945404918,1.71138683849753,1.62247368379129,1.62042673013184,1.61231031139449,1.6130769343579,1.60053237446626,1.6928095685393,1.81864175835519,1.81695650852821,1.81522592472096,1.57131797320874,1.49716760717969,1.48406174093883,1.47449481939274,1.50091908916124,1.51713195045254,1.59203864000537,1.76192333326712,1.70309920326953,1.41772500105851,1.41634846759488,1.41649237035232,1.46669082990697,1.47364993314386,1.55359878504073,1.55110120925275,1.72491543693579,1.79834344847028,1.48284378229419,1.34100127141505,1.34453793335705,1.34154982212426,1.37140939724256,1.50223833341592,1.50975498197993,1.65841285714426,1.60977887793375,1.63683999961444,1.47402085966903,1.4279966674076,1.48893326454617,1.56124000000007,1.61363167063677,1.71651872122646,1.71488243309267,1.70595817980376,1.61044653081548,1.5850729633679,1.49855803974438,1.42914006777627,1.48032559636222,1.5255984526751,1.59456513021029,1.63868438117142,1.6404626998619,1.64017700009104,1.55204250053295,1.54355634830598,1.42430051089047,1.38954528113524,1.41273575110402,1.48497440158494,1.53921337262385,1.56407151529714,1.57222677476681,1.57787257182759,1.31418059161757,1.24808999997877,1.29346456030091,1.41213710818589,1.41189010682328
1.94289999968314,1.85994515237064,1.83477197890002,1.83588756869297,1.83630136963076,1.75809458208671,1.69842664296897,1.70105470801502,1.68212490720425,1.69490840294259,1.69307138685548,1.6627583797036,1.61193779414862,1.66194945154716,1.6731531830927,1.66633220834503,1.62090829056538,1.62730317313307,1.58932401021787,1.58364847750209,1.5788103367641,1.56507215798288,1.55113928408204,1.54961393440999,1.545984976687,1.54270837847013,1.52444000022457,1.55340578918688,1.57870999959515,1.55059385373757,1.53203039549488,1.53747399176858,1.51653999980933,1.50053295571536,1.47960157005902,1.45036910853897,1.45096212089335,1.45224956327666,1.50907932424945,1.48413614669203,1.48982204848073,1.49075543423059,1.46502718811553,1.51268874154614,1.70247999970735,1.66843564754155,1.80992999982415,1.73544993205136,1.70300750480612,1.56906781575599,1.46680185146978,1.47348665728243,1.48023355682143,1.49130915600783,1.56335934794525,1.56948973025184,1.86224514997894,1.62974073030767,1.54932368759549,1.55760965645652,1.56577721277484,1.57582982530196,1.58334809035127,1.63752213734934,2.02446999989209,1.75898836964661,1.57224999999278,1.53842483134532,1.45200000043345,1.47079354524383,1.49004950183815,1.49791793427822,1.52777646294385,1.58680142884608,2.07900000000097,1.60376731941155,1.57249827982737,1.5339787449675,1.485485075507,1.50563543104332,1.52154313431038,1.59354796075322,2.10117999975236,1.59775801303201,1.53338569109927,1.53604970038014,1.53957853609033,1.59131635371901,2.01098999978107,1.95997332308608,1.96321694964595,1.95482987987049,1.9344900001072,1.73889333710593,1.72254317974791,1.7365423432328,1.8854388586488,1.88711116020599,1.99679840661533,1.98821502230763,1.97069788527486,1.9449615443527,1.8971605461654,1.74170678690986,1.61756961522725,1.61914183433403,1.55911000016624,1.61429863073261,1.61541724616793,1.72144560821505,1.85191948086676,1.84922514199821,1.86051515918766,1.59624899826592,1.54025999981348,1.52032906398942,1.44986000019496,1.55185102716767,1.62435000015359,1.65582680555586,1.81906500006718,1.70797945387818,1.53780999988726,1.51227033672612,1.47610997416562,1.4768225675792,1.47702816550788,1.5727092930024,1.68322056733241,1.72480155564931,1.83379999977001,1.49585086152031,1.43427999999838,1.39647753358872,1.34616698418115,1.37742180418215,1.38661228764576,1.5101070149979,1.73320000000097,1.57182298708404,1.48132644833589,1.4739775293856,1.42746333316267,1.51728697653505,1.65880999975069,1.66662899272415,1.70620985216444,1.71184956977861,1.741059474472,1.62503565080148,1.56791908104136,1.50018981821837,1.42921993248611,1.47550489525476,1.54162486145456,1.59431800009178,1.64385259209319,1.6425708698971,1.64331794078875,1.48815417921282,1.34854020150494,1.38906901094551,1.41325164015004,1.41403720450331,1.48948559877187,1.53779360851496,1.5620796840214,1.56567237529528,1.64042999998456,1.29109105655193,1.22412147370045,1.26116309434944,1.28049999981151,1.32160772844015
1.91544996395743,1.85510719717869,1.84503402711217,1.83039334923861,1.81693116091353,1.78246142140283,1.76567000016427,1.73477111905482,1.69960995539254,1.69668526353263,1.64118846816291,1.64197373602598,1.60993864886802,1.65263689370341,1.67223089177647,1.66387687196957,1.6613821532764,1.62905016400424,1.58850374738047,1.58598447263831,1.55736241946208,1.57354995145191,1.60018999978779,1.56855902785051,1.56583187622174,1.57413552262338,1.65926135772441,1.66336919402853,1.66907300986446,1.62902308119882,1.60326000010883,1.5632255083142,1.482490600055,1.50195678173197,1.50705909746508,1.4508047664733,1.44922139999597,1.45080235941349,1.4472464783229,1.4724445917907,1.47043275096467,1.48848208769551,1.48485148724439,1.49130069634594,1.4884573945238,1.66734082536492,1.78993999988695,1.77285035642477,1.77439385602346,1.56247432299603,1.46944033012728,1.46439867761765,1.45952714865976,1.48676077490566,1.54810182224379,1.57309427685953,1.84336330255205,1.62804479168562,1.62554163315415,1.54664330127542,1.48312369866505,1.54581837609458,1.60615908778986,1.61795157081274,1.74239937535352,1.75519579170053,1.48283000025106,1.50448821611851,1.47760749522604,1.46048843157463,1.44844000021618,1.47435583872451,1.48919999983324,1.57516833761532,1.60554954742594,1.59916499302793,1.50284918232687,1.49291694844304,1.48752883183863,1.49801012924521,1.52625189661193,1.52485101473389,1.52360481341308,1.52819984076003,1.54874753687095,1.52583401434209,1.4988768318475,1.5374435799288,1.54735920664675,1.66091268609899,2.07347000000097,1.9217317390265,1.78625000000063,1.73933114935434,1.74090910344473,1.73889672878692,1.89608310636623,1.89056624283764,1.98572839525602,1.98484214203037,1.9728607589243,1.99870605612405,2.04818897545835,1.78953476337068,1.81441999974775,1.69412033453837,1.64244000000397,1.69411976518491,1.75006000000975,1.78418043492332,1.83074305659912,1.8462424928711,1.84324432130017,1.62204911721281,1.588750000017,1.57184065316192,1.54828000029628,1.60096583277256,1.6405299998466,1.69205510786945,1.81452499993379,1.71039091523905,1.58334000004041,1.55298045023557,1.51693209018186,1.52558198944344,1.53348324870916,1.59751865433598,1.69525943268203,1.72370905482295,1.72350070393688,1.51774285061611,1.51893826251287,1.4160806972973,1.37666000008487,1.42315069827296,1.48865954499134,1.51211306705956,1.51538302310675,1.54801689352579,1.48866535360098,1.47844338365698,1.46114000014807,1.54716234425592,1.61776000033662,1.67984732967412,1.7591999993872,1.71109875146239,1.71217979511227,1.6390502304632,1.57408795554307,1.50164430024071,1.45567999976746,1.47077974426042,1.54728513869462,1.5938945135456,1.65325200112275,1.654689616503,1.66371127364864,1.45925682316565,1.37367041856932,1.37098135591898,1.36825434319842,1.39393290035173,1.53084025337096,1.53487948446458,1.55842569554294,1.56167818478472,1.55415818230346,1.26841310116093,1.22336329449078,1.2134211353261,1.20443485389473,1.25372484303278
1.87616058911347,1.84952358349278,1.81761519990364,1.81716842485034,1.80641559644015,1.80429527701651,1.80291000787955,1.75373882236758,1.74455000020372,1.70841073039722,1.64182798287322,1.64304105401554,1.59275355812694,1.64034717027887,1.61753460357486,1.63978514596505,1.61435742869291,1.63040257390296,1.63154325100068,1.63263956888311,1.63353080322917,1.5805460235856,1.53900000062065,1.57108015456855,1.5749588533372,1.57946140867416,1.68695806411742,1.67797068719646,1.67010899946464,1.69040653227204,1.70324495640466,1.58190341555138,1.56137000022936,1.51463917206494,1.41100000013726,1.45429421395899,1.45993898502094,1.45534501433473,1.44689778651131,1.47535727908023,1.50396129294748,1.48722805043697,1.45761655971565,1.49265070942438,1.48770186772912,1.66580720664974,1.70971000004481,1.77476910606548,1.77946734165729,1.55480382931142,1.45552416976262,1.45467674490946,1.45412413909785,1.48113900481232,1.57239508946924,1.57396876135835,1.85800154747095,1.57966722166959,1.49972470092485,1.49310678740766,1.47615532340515,1.49107753221189,1.50721440737119,1.501911850981,1.48820000027424,1.76163319492855,1.78040000000097,1.51465672477208,1.53753838915605,1.44839370959185,1.42515366777222,1.45711598083935,1.46367668444583,1.56282955939532,1.58606567361661,1.58292376674265,1.48825653525259,1.47932155011638,1.45474000039852,1.48380836465382,1.49397961824398,1.52454521151752,1.99939000000048,1.52712873476705,1.52358138565678,1.51378255392646,1.49658316860627,1.52799267055588,1.61361379681685,1.61521691657165,1.61653835129927,1.91506764492432,1.89228546971075,1.73191404780918,1.69081443883285,1.70626813434467,1.72010356063794,1.76052680845343,1.98531797605379,1.98486273134517,2.03316999972178,2.00873238073233,2.03151102444949,1.7739521706966,1.7215711095872,1.72511716204958,1.85105999961491,1.82020269861889,1.88969380751203,1.89117677067923,1.89275795392248,1.8944772944858,1.89622230552361,1.6452310985197,1.60570045875929,1.61200856283434,1.6188601670265,1.65282797573169,1.86123350345877,1.85810044853437,1.88121999973161,1.71061305658518,1.62202999968825,1.59805518688225,1.62093999972612,1.56392788907678,1.50871376555871,1.6252878356445,1.67051185411682,1.722486146878,1.72125290373193,1.51635995338124,1.44199000002967,1.42997762889866,1.40845000042758,1.43970275846643,1.5010004547418,1.54174612949368,1.59931589181586,1.56338396318029,1.54145999997161,1.52396611327042,1.49190000016219,1.57914626698077,1.69525051597788,1.70763571887798,1.71105289409222,1.71132942458954,1.71293594869016,1.65291226133106,1.62528639214362,1.50338198140821,1.41010000041546,1.46624266128617,1.59195184690982,1.59308583731784,1.66135764245254,1.65656170457799,1.67938492563783,1.43863101448548,1.31572179579814,1.31448985533966,1.31234086117861,1.39198442609407,1.46125999993307,1.51161356927829,1.56869713532236,1.56509773683337,1.24270960454649,1.24144513069327,1.18130399302832,1.18065621524549,1.13725000069186,1.15880922043566
1.89028690268747,1.84382787358151,1.81913232692977,1.81901611947834,1.82250532527518,1.82290501309513,1.83467858356314,1.77084566429901,1.77919089455759,1.71396480798706,1.60183000060295,1.64554661053424,1.64813207080737,1.65557184728018,1.77101000000036,1.65193593915022,1.65560837875757,1.65120254028891,1.67164778252504,1.64138830139062,1.59213115901079,1.59345751319358,1.59310723408749,1.57282467870143,1.57259385031561,1.58601116061512,1.70021235877603,1.71764798503054,1.72779176559044,1.71158596591793,1.70450961996705,1.59098173833053,1.57860509690146,1.51605127437724,1.51411366185211,1.50047380581732,1.47834792796286,1.47913063703208,1.48027822117054,1.47982893546383,1.48455886514639,1.4853017261482,1.46333483477647,1.4965282485073,1.49551104017788,1.66216234943808,1.82436999970014,1.80163918928536,1.80019622528628,1.5461731421982,1.45796481090936,1.45490676445347,1.44377987055692,1.47043261351109,1.47751768428612,1.52221368747002,1.48974000039988,1.56082535051173,1.57392186525313,1.49203543083254,1.47598784762952,1.48027780107572,1.48427505341491,1.49740612227663,1.88227999996581,1.76503465704625,1.48963346951417,1.50702976977993,1.44339354041482,1.43507720967867,1.42343281400021,1.4528430195826,1.46137939437026,1.54964084225905,1.90362000000097,1.58220942746233,1.58317158075872,1.46763647572648,1.43850157550619,1.47449205913715,1.4949049795216,1.52376352641435,2.05333000000097,1.51531135245862,1.4037000003107,1.45693082075977,1.47151000010024,1.50145824868112,1.58931000032296,1.60382454613395,2.01367000000097,1.92165335275157,2.08314631573953,1.73113909378099,1.72418999991426,1.66405743773004,1.61001999999962,1.67243109148921,1.98650692215448,1.98058955805583,1.95050247567189,1.96240087329907,1.95204469827312,1.75905770954693,1.73225455950258,1.72789677024665,1.76776779870006,1.79989417692011,1.93632154839948,1.93263227246154,1.93120466534146,1.93163000712467,1.93071901436064,1.66675067487249,1.61987572573587,1.62561606554122,1.68336245515627,1.6935919292137,1.69604999995998,1.85444244048063,1.83111136617812,1.71047221974904,1.54911000025278,1.57225721241493,1.53045000019002,1.60405774093772,1.65794230932691,1.65727576121688,1.65662968191421,1.72802553136562,1.74331999960522,1.51447499204979,1.46923345718365,1.43571024360128,1.43282741441679,1.44630470797726,1.45822651146269,1.56266312950486,1.58362746193123,1.58521495541927,1.58733981328975,1.58801559043357,1.58878290303521,1.6240255549792,1.68585263134341,1.7154261386996,1.73088702993963,1.72071042672499,1.71851531526567,1.66839901788466,1.62951360813539,1.5055757488505,1.46556763504653,1.45915136511749,1.45400466829944,1.58405511032828,1.64709375196363,1.6534537295431,1.63860920256338,1.44034209878339,1.31765588641167,1.30422572648776,1.27196542004869,1.37601561265435,1.42569990912705,1.5057678887739,1.57967975633301,1.57479256197369,1.60700999954601,1.24061043007765,1.16623253261755,1.17662797787207,1.18144017994982,1.15935470614025
1.87502296387034,1.83944013500212,1.83602733218609,1.83415040585516,1.85442798600454,1.82478542878909,1.75452324592603,1.76540073560047,1.75313981910067,1.71725414423673,1.65908818359697,1.65226504083426,1.57537000007624,1.66563401734171,1.67833999992794,1.64873978750046,1.650235096864,1.64880460796562,1.67252100373249,1.67565526452799,1.67870431431928,1.59488494091372,1.56756588824821,1.56768112911097,1.52264000023885,1.5849158910995,1.74673809967851,1.73911362164441,1.73895215009021,1.71766857987051,1.70818081063652,1.59902839384395,1.5760649032233,1.52783422746749,1.52743983995445,1.52585754005169,1.52515649317188,1.52521714109839,1.52592724331017,1.49724397858173,1.49933352444635,1.49288233066277,1.46331860654745,1.49972306135809,1.6459540864746,1.65623966340762,1.66368999999978,1.80549452476231,1.81214304703187,1.53690759019605,1.51745550187512,1.45216659552075,1.4009983330771,1.46042413234041,1.56933999972651,1.5387821169999,1.79465334038582,1.54753623326898,1.4927135670374,1.48879313693547,1.47462562075536,1.47782223833912,1.49591027942754,1.49350538351663,1.81715765161075,1.83955735252379,1.86330166668071,1.52150952573507,1.42337140153749,1.42100852713552,1.4191718950047,1.44467362819827,1.5160050441524,1.5356672651567,1.8333213334392,1.58216384772985,1.58304092690357,1.46133318418581,1.43978842503324,1.46058123798922,1.52065045596604,1.52238417864237,1.90363000000048,1.5105698065005,1.42852958538203,1.43550189268493,1.39960000058652,1.4380787977867,1.44523921446329,1.50839700898779,1.5729000000001,1.63095783725162,2.09354368426192,1.66752144948307,1.58836912246356,1.5785201821819,1.55821918340462,1.56160617631678,1.56394565768776,1.65697534117277,1.99592999992047,1.96993943721987,1.95057848390916,1.74624371395929,1.72216148336508,1.72553061263948,1.75990945055747,1.7847951680643,2.0013399999947,1.93176053517799,1.93600669391772,1.93315391741027,1.93674875496949,1.67311122938346,1.64813507808558,1.63359152344052,1.61620000043766,1.70210012424832,1.80263000012084,1.86090760435725,1.86542999978687,1.74704227539495,1.71316000001523,1.67745745106727,1.64804684745919,1.64276333357783,1.63798335743876,1.68322547979058,1.76862542492052,1.77474313253975,1.78220214467019,1.5117964720921,1.45284223882637,1.44322503075919,1.41989894196928,1.4830019422888,1.52836000000019,1.59625053712391,1.73078000000048,1.65308772009937,1.61445957167217,1.61535257181503,1.61615556790779,1.6535503754935,1.72862051953434,1.74340268401426,1.74880968663341,1.73783838992532,1.7094321692797,1.68438384244329,1.65308717615695,1.50788979177321,1.40552582415683,1.40537281334322,1.38173999992192,1.58456488769325,1.68027164524895,1.66292856674386,1.62333403855588,1.44179411546814,1.34127999960284,1.29487958325335,1.28499829026104,1.35921350994712,1.42938420624352,1.50145041912421,1.56369511039662,1.56989605785576,1.55482807238042,1.24028220724339,1.15467013564757,1.15242597471139,1.14980318613014,1.15431666882474
1.87943497212467,1.83658800843082,1.8332928274998,1.83234338637912,1.73312000005334,1.82771461906991,1.8419399994617,1.76597200945655,1.75550611985,1.71949285619575,1.66897015747006,1.66945114616713,1.66962900207834,1.67529630862929,1.70997999918999,1.64446008172504,1.63673662399098,1.64657449919816,1.74918397117304,1.73231681710223,1.71713633531477,1.59576134883179,1.5667808312668,1.56681109226727,1.5196000004143,1.58338638465893,1.7245017666711,1.73948022163903,1.73897688112457,1.72615376645391,1.68942888718084,1.60965468803422,1.60269999958514,1.52764274890688,1.48609000072466,1.5255517306874,1.5369554008367,1.52515768800403,1.51931237066506,1.49531374251899,1.49709552255477,1.49620258615001,1.5074652886869,1.50463511660044,1.50172184594343,1.5975753027576,1.86001999991656,1.84088209143009,1.82016580438335,1.52746303842366,1.50028184790936,1.44872754570619,1.40059166739761,1.44277940659291,1.44739800338971,1.51899457690569,1.78612665961563,1.53290525315796,1.47973407931341,1.48538308584275,1.47927603700355,1.47736961413268,1.4681041169397,1.48773850765348,1.8531064055372,1.84930511160683,1.86474833323503,1.5291235460868,1.52705986173536,1.42008020993954,1.4105816246788,1.43698471789483,1.51610495578984,1.52212402184513,1.84241866656177,1.54679451736619,1.41933368944131,1.4195429811229,1.4179124224651,1.44464262793295,1.4565964412972,1.45175743798347,1.45143593700408,1.48385861335294,1.50307349852519,1.45454363437984,1.45248213735184,1.43375248921956,1.3854800004479,1.45332265269204,1.46470161995442,1.60029811049295,1.91904000000048,1.63638228088459,1.58564474050408,1.57696862333051,1.56146321705487,1.5608302856388,1.56158627285974,1.6249448825792,2.03067999977988,1.97463260998136,1.9843679633231,1.73466966884523,1.68501110891232,1.72117741933643,1.76085275066543,1.77391972301365,1.93365380969478,1.931910194412,1.93247605551911,1.93366875078095,1.93441291403807,1.68638786034805,1.68253990479137,1.66086414120436,1.63485000020887,1.71591063939724,1.85090929090804,1.86275287458424,1.88617931052234,1.87170111036658,1.85992852143805,1.70482917499069,1.6733900000246,1.65599566424952,1.6236995452645,1.71419906461309,1.81012667804785,1.80882127688133,1.81120018538301,1.5084597758344,1.46889365332909,1.47042352734703,1.48470041660383,1.48258770917846,1.7404277894572,1.75652559436269,1.80267999968703,1.68493481282738,1.63977219946405,1.63588452541014,1.63168156469187,1.68180949963766,1.74034800432062,1.74682292434645,1.7548829957041,1.75289983018621,1.7530096007297,1.69961179254566,1.64594282371209,1.50973849345519,1.39909609349029,1.40287970607473,1.35701000030878,1.58522623542105,1.6678604563835,1.66363451538421,1.67435941909193,1.4435684201534,1.29984511527104,1.28995623693767,1.27167809273164,1.34228138994182,1.42595588487469,1.50488063395275,1.56649119888299,1.57182113168149,1.58476646755644,1.24018863380025,1.15959261408073,1.14605319296886,1.11859472345226,1.11871887460999
1.84244330530251,1.83566523545063,1.83185845501534,1.83074154279071,1.83140425260948,1.83070148820248,1.80450515492368,1.77428963011766,1.76836288961528,1.72206252251477,1.70496227175192,1.69839966527846,1.68898725762999,1.6792077820461,1.6648654780819,1.64080034841169,1.63824979222064,1.6456821263249,1.7438126398219,1.73796082620044,1.73233954411045,1.59673582687321,1.56649608404489,1.56542818105547,1.54263228649294,1.58159534843087,1.69600284274113,1.74005363874614,1.73997498478471,1.73420830937782,1.68916422099772,1.62187521986136,1.57636571268801,1.52722690992307,1.5276828254539,1.5264847761729,1.52586975257906,1.5249961198077,1.52318374587283,1.49436049988272,1.49468844070854,1.49758366452799,1.50147340505692,1.5039187040878,1.50295175465697,1.57062653249263,1.85842984155643,1.85119247786707,1.84098485116093,1.51894750965483,1.50170805539296,1.44437039141732,1.42658970394348,1.43935391416766,1.45116852241464,1.4958393761692,1.51816144761091,1.52023906031823,1.51339555615292,1.4871985418756,1.48456121610119,1.47224184651537,1.46940037467478,1.48434402911444,1.81312455064139,1.80310341849706,1.79365916009376,1.53035028735484,1.525790824504,1.41890726831547,1.41855093014153,1.43030690243738,1.48154617778687,1.51056199288837,1.54972561443304,1.51776807389723,1.42060151779142,1.41991212714177,1.41977462960232,1.43337686872548,1.44274554410182,1.4473520795174,1.46131476309816,1.47156022874838,1.47023564804103,1.45422606480988,1.43573236626383,1.42882522282029,1.42580676200282,1.44644005810016,1.49965842311753,1.57317074233225,1.63983133380291,1.60863396811146,1.57934393716691,1.5735935722844,1.55953237947487,1.55966198910036,1.56020031467994,1.59539197934856,1.90557358979695,1.91462309637873,1.92224992217351,1.71788205855165,1.70952966846228,1.72082270565478,1.72977317244798,1.73892632449504,1.92817718590605,1.92749157494391,1.92873618312147,1.92974071123564,1.93140974050971,1.68720893965996,1.68576478956218,1.68685607610012,1.71207154140125,1.72576465155407,1.86272354243198,1.86859417082952,1.88006516865227,1.87722419300443,1.83811876512946,1.72302299666915,1.69410482073577,1.71823733632344,1.72933424589654,1.75565728980243,1.80702958224536,1.80730931590316,1.8092983721709,1.50525308431711,1.47061790794742,1.47093300536524,1.47821957594501,1.47896996648675,1.75641527076196,1.76425908386458,1.77730634843891,1.72692684365135,1.7240738442093,1.72456051481149,1.73025348995831,1.73168202083396,1.74124445250012,1.74963965712809,1.7526517164892,1.75201341149899,1.75193810459766,1.71589012765924,1.68341374103439,1.51067368133765,1.45085135983491,1.45026038816982,1.44910553652629,1.58563866937524,1.66121544265848,1.66149436645475,1.65721391891853,1.44526282790374,1.28798608437451,1.28557431108062,1.28022828746849,1.3247805847539,1.44589488256074,1.50822806008147,1.5725285341555,1.57372155503329,1.57820571381788,1.23977351060964,1.14305428652787,1.13976849569454,1.11875282000764,1.11848257800789
1.74792000046535,1.80851505840633,1.82212947382757,1.82714426632319,1.9392799997377,1.83185004261767,1.79024233252027,1.78253781844378,1.77851194357397,1.72554241104795,1.71612378569967,1.70373541593648,1.69774065947266,1.68218565134743,1.6203456088821,1.62512151563431,1.61681990096783,1.64551092519176,1.8137900002069,1.74614881517209,1.74517419058573,1.59901124805796,1.55613473446491,1.56138850105432,1.53525220559656,1.5811396824894,1.66748000030594,1.74064703690805,1.80691999978108,1.73791090995858,1.68868493735548,1.63434333435732,1.52295096748148,1.52698729145505,1.52930114278855,1.52721443039683,1.5255536567127,1.52560886364144,1.52617889904397,1.49378795163753,1.49494685715365,1.49530787555101,1.46397000048551,1.48858327700295,1.50181460825102,1.54475076814735,1.92473000000097,1.85824531626475,1.91735643494958,1.51112939316134,1.50298863233285,1.44003180455358,1.41368936730094,1.43588955033131,1.45448062022972,1.45386899695041,1.45461675416514,1.5757298665609,1.69964000000048,1.49309117991128,1.49799440344037,1.46747568827619,1.4626009151049,1.48417489727971,1.83586999986297,1.79366130814978,1.76833746168211,1.5305123063624,1.52409413763066,1.41899798904432,1.42020789015956,1.42526219882667,1.42482054459691,1.492292573999,1.65626000000097,1.49370689074794,1.41274304941357,1.41784136745361,1.41989610189578,1.42228054370198,1.42398295333887,1.44293301824801,1.6243699996539,1.53280348983369,1.44941000338252,1.45195283623274,1.39380968214653,1.40370926783553,1.41859260168734,1.44256312454864,1.52884999974968,1.54874137398259,1.89480999983702,1.5873698039237,1.50510071482868,1.49338146980306,1.48955050945837,1.48940906371957,1.48947027123927,1.56802337389902,1.87885338888668,1.90557399470113,1.92352487999503,1.69116990297717,1.62037259705172,1.60469809952199,1.57796339097637,1.67256543371582,1.99155345601249,1.98541483397432,2.01026999974027,1.96314696226376,2.00464999984483,1.68744508261567,1.66128000069803,1.69115680322767,1.76185282949204,1.74027451166892,1.89631485132763,1.90205330715066,1.90863552358202,1.88173445689624,1.80867000025737,1.73806463783687,1.66467000034149,1.72872043641787,1.8034100000393,1.83624989916418,1.96223000000097,1.82247528291789,1.81126185225476,1.50320284748764,1.47202488422369,1.47117863577796,1.46183820726451,1.47492715505998,1.84581409119327,1.82487189177358,1.80620000017943,1.73392044548066,1.71999522858455,1.72284530883669,1.77556999975574,1.73279744454514,1.74325572413993,1.75840307959435,1.76883094562957,1.7692303395467,1.79071622439773,1.73100665675651,1.72634999994208,1.51060678796976,1.45183201659148,1.45037845049744,1.44788266805655,1.58557011061183,1.66275442800602,1.66112436753253,1.64566588214291,1.44604665323173,1.26147087438271,1.26509229024705,1.25901632174211,1.30152607094269,1.46802999978749,1.51080256046926,1.59007321669862,1.58468575110534,1.59304532128326,1.2383947264332,1.12220250511172,1.12900145974618,1.11223904493368,1.11516593166041
1.78748619608666,1.78385105662804,1.78297391903571,1.80833198460961,1.91267000026367,1.83101147384068,1.79271638772356,1.78621328906488,1.73739331839135,1.72989376378917,1.7209096662262,1.71008566608621,1.68813926742277,1.68480556955596,1.67509396447223,1.63061366401505,1.613700099959,1.64619073172958,1.84583999979455,1.74697895339124,1.74766498844056,1.60368170666608,1.56783920634735,1.56894095377314,1.56867622582037,1.58240259111452,1.76051572186041,1.75159299874178,1.74315607102167,1.74345045888808,1.75580665825266,1.64543885852236,1.61381999992556,1.56407423239701,1.55913828733506,1.55503900903008,1.5510877239996,1.53810865197548,1.52392323763427,1.49576942598423,1.49611866607725,1.49595311199726,1.4917995889452,1.48510971743106,1.47582068189428,1.51702233417514,1.6286100000042,1.66297160967235,1.92556356505139,1.50506052142388,1.49768894680389,1.43704637163848,1.41513694114457,1.43227351722344,1.43131707336104,1.45244925120158,1.79760000012889,1.7481684175029,1.74882891308715,1.47763019952227,1.45336983058871,1.46687143138083,1.47966944616323,1.48556320415095,1.59601000000211,1.63046254019609,1.80946999996442,1.54731254119511,1.54557298665945,1.41884280123039,1.41679723480275,1.42666830629052,1.43547652747223,1.47310461558548,1.43301000064549,1.47357787181714,1.40075770541585,1.39811882254728,1.38807543696458,1.41448596409892,1.42300612471084,1.43931184726933,1.58544000034662,1.6336175930179,1.80718999983078,1.45868520673214,1.40901363693778,1.39784563041516,1.38142073946674,1.43539062979887,1.47150999993025,1.52413900180346,1.87396000006057,1.56970686247771,1.51199933814637,1.48622864314685,1.45475000035122,1.48252736306336,1.51290659195104,1.54218247446755,1.7443199999986,1.78910741228437,1.83558999977375,1.66657131710093,1.62262527693106,1.59811265984335,1.57802060312087,1.63779030275431,1.98886139348232,1.98330627788728,1.96480345132654,1.9557272529254,1.9067800003459,1.6939816354183,1.70883687517296,1.69719412037507,1.72509739135278,1.7330546877993,1.97178809396676,1.91419613435695,1.91015314038722,1.89134110882314,1.88463326308249,1.75474033434232,1.75044751526362,1.75388405653446,1.93446166701559,1.879389516182,1.85798000025986,1.83968667181239,1.50338776940524,1.5027355608482,1.47402683251735,1.46970230092917,1.46721308982338,1.4717188506623,1.85883845440478,1.84083963767008,1.82340256957448,1.75146076898026,1.66689385027069,1.65655233636695,1.65164241567888,1.70544887979057,1.78218168352161,1.77910040755399,1.77718589859924,1.77279751373395,1.77262003353404,1.75240221530775,1.70240000011901,1.50981884915706,1.482449999471,1.45274556713769,1.4364221938489,1.58505567700269,1.66102852627919,1.6598865385624,1.65805753497266,1.44545904940266,1.27210377540453,1.26862691168125,1.22839000062771,1.27541642838825,1.23024000027041,1.5120543452837,1.56009245831244,1.57544671728878,1.52697000017484,1.23559097146928,1.16460131698067,1.1346055493497,1.06710000062485,1.10926349407472
1.75462554100008,1.77704206478022,1.80317245197115,1.80715029303436,1.86596999972601,1.82804945028109,1.82568563744734,1.80781088192879,1.79008000011326,1.77791698283487,1.7630599999935,1.7410143990203,1.72289000000985,1.68752111759791,1.69123745308728,1.63784464219103,1.65064879147273,1.64812110573792,1.63277810273944,1.64837282318441,1.61240146215256,1.60911026077588,1.57432916602973,1.57016289493266,1.56582145708496,1.58425823350569,1.88276000000048,1.84372435209931,1.95107000000097,1.74286899780503,1.65229940318438,1.64999699639294,1.52428000033889,1.56284266640765,1.56784250196381,1.55610413637889,1.55722975519796,1.54586644087947,1.49675388866901,1.49574079152251,1.49586222514499,1.49537595671835,1.4893884383637,1.47446040043764,1.45397509614242,1.46865901772523,1.47918391314523,1.54310259179648,2.00292000000097,1.49976073197799,1.46475999980929,1.43594924734636,1.39920022258485,1.43088887491164,1.44934221188489,1.4514872366259,1.83711999987256,1.74914244644929,1.75175091992071,1.47426582626405,1.4505017948522,1.43708395427187,1.42660542568409,1.47075487922727,1.53985000000002,1.57770952698362,1.82173000003095,1.54666052958796,1.54586405845742,1.42233549578539,1.39785041954759,1.42609090016638,1.42310856771274,1.49568885645512,1.76917002205434,1.5008965588795,1.39504237265926,1.39591197890135,1.39566719162436,1.40512824666918,1.42580858108194,1.43766218933825,1.77106999979467,1.74043263064054,1.7636420175543,1.46659925089329,1.43370999963422,1.38680620756861,1.38403504093124,1.42211816011999,1.4365499997278,1.50101984752463,1.83883799093253,1.5518967428415,1.52026788761929,1.48001127783089,1.42024895386042,1.42061336444562,1.42058146668379,1.51803549653973,1.69995000019177,1.7598212623721,1.81147000022673,1.64400321690848,1.57870857483681,1.57547633047459,1.57253112360117,1.60741911673712,1.69041000000814,1.72460040885035,2.00422999970463,1.94522792683037,1.93068218650224,1.62741444290533,1.55268000026773,1.57895968932278,1.59624999983258,1.64017304077688,1.95562190558526,1.91832683731887,1.90900762033622,1.89448347830289,1.89371215284029,1.7574881714669,1.758360200647,1.75662203333359,1.9376683327057,1.90369179947842,1.90962827794413,1.89080979891128,1.89481881404242,1.52510742075352,1.39966000006079,1.46028320266627,1.45361649210112,1.47098023678664,1.84772168668516,1.85222860722408,1.85593903390929,1.76535181473733,1.7213299999804,1.65593962817587,1.64924808253686,1.683076528732,1.87588000000097,1.79104833203937,1.80020773029314,1.7942190442578,1.78827750148953,1.77119587185973,1.78834743864501,1.50882046124243,1.44431173602335,1.45496637320367,1.51717999985099,1.58434698922832,1.70211999993236,1.68182856817816,1.66862000001158,1.44377179800732,1.28821690699406,1.28658734421927,1.2846167036749,1.29580317614976,1.30497155136071,1.51161657431945,1.63475033588428,1.63465595078989,1.63776633587685,1.23145334344407,1.18110868242212,1.1402695840494,1.09627725984875,1.10224419948337
1.76742918123075,1.77518340077115,1.80425872521432,1.80516007996175,1.80391655484018,1.8265303508765,1.82598072001999,1.82381803977608,1.82153725433861,1.80254473992582,1.78846641640821,1.78249198445198,1.76603283611437,1.68703964189235,1.63329903980805,1.6330563993514,1.59592333391885,1.65911915766224,1.67787359692417,1.6599320567459,1.61946276189953,1.61412210472611,1.57229253721918,1.57227103899177,1.53716000054491,1.58540468369272,1.94869000000097,1.8454865722586,1.71469223039382,1.74014520448477,1.73519940120743,1.66283351953864,1.58633046593511,1.57345677298146,1.56006403878069,1.56057126524271,1.55516402314993,1.55740950582638,1.55730048281113,1.53371024433117,1.51964838962511,1.50875773801692,1.43211000046461,1.46483109448926,1.45392702862089,1.46290754730976,1.45672074804966,1.49572485734243,1.48915607835104,1.4869694503752,1.43274508381693,1.43594996570301,1.40950739236206,1.42996536757432,1.44375307673778,1.45198016231939,1.65209999988169,1.60976644544884,1.56959000025347,1.47305655950931,1.42881652138737,1.42240709234577,1.38854000001221,1.44187151606027,1.45383999992332,1.54077982584115,1.84142999986443,1.53386743125482,1.52354000030709,1.42886068856605,1.43646415061925,1.4298259286986,1.53407897666731,1.51551164253544,1.77737997794711,1.53247757926681,1.45431999996437,1.40576845281654,1.38893499051179,1.3740718758965,1.36642417034282,1.43796021909551,1.52849999999952,1.74053930315236,1.75841798279771,1.47386967503396,1.36354000027607,1.38184901395345,1.37175291264468,1.40619026877096,1.41043226832808,1.47928128316814,1.8265374084324,1.534404766978,1.50205999993391,1.46379008396645,1.43344302539968,1.41410547079347,1.4069449860755,1.49470229352859,1.72625000001087,1.73773518214817,1.90971000000097,1.62249102462933,1.54990852496127,1.55186911339212,1.50872000063452,1.53242496458773,1.5378783245266,1.61524155009925,1.90034000009853,1.91916302569322,1.94622584241249,1.59713406675337,1.51885999992901,1.50085745095046,1.48254107830305,1.55929476311358,1.93088138698468,1.92238532042867,1.92768491356741,1.89740505840611,1.90192225702883,1.67780526057748,1.6034700001213,1.67402722176306,1.89681361039311,1.89486243995399,1.8931322098894,1.89042765049987,1.92368999953086,1.53597914217865,1.51321999963975,1.47913662535994,1.47899759505876,1.47418048387874,1.85698854162933,1.85790911851201,1.85861834315608,1.77436120449681,1.76550000034586,1.65510719065209,1.65229624766129,1.6401588520951,1.6298496772625,1.69296506889597,1.81697423582389,1.80385016816081,1.80623076952927,1.76095864861455,1.74933788784375,1.50814033171311,1.48224267596958,1.45759982145334,1.425710000389,1.58381457774091,1.72198135020249,1.71936357001672,1.71768967381102,1.44109293332278,1.33283999980473,1.31047343466575,1.26789940241361,1.30249845240891,1.31478516126591,1.51014697344251,1.65818143812637,1.65352171291925,1.22262000926387,1.22684923288508,1.14747296698616,1.14465335540286,1.12915612641382,1.13732412080661
1.76828289346952,1.77040475117078,1.74502000066091,1.79476266665775,1.79692474611368,1.82551896796051,1.85538824544983,1.84291192076975,1.83194191544602,1.81438242655494,1.7932398746092,1.78788161242857,1.776190746318,1.68720312503648,1.6343635154352,1.63354830138689,1.59409666654983,1.66406215748925,1.91240666666739,1.73537313325613,1.70963000010883,1.65061825518019,1.62380000003272,1.60259229288046,1.58638999995786,1.58583583557915,1.73609999999925,1.84843213959736,1.97973999979992,1.77176575825636,1.76415875309326,1.67614102774327,1.59213915669115,1.57951418712199,1.56484219155815,1.56194201991867,1.53703301020496,1.56559309535866,1.58219926656118,1.58472915037815,1.5954856817544,1.53003196248232,1.50963694330861,1.4828193112285,1.47138215552091,1.48496038647513,1.50339225183709,1.49978079744661,1.48324761493689,1.48479583559592,1.47700999990933,1.46086223909293,1.42075765070815,1.42924188694512,1.42861072758144,1.45433016661001,1.45499658187051,1.51826266400047,1.64111999986592,1.4696970650897,1.46402229287955,1.41744547243484,1.36927000017005,1.41647096915776,1.76947000000097,1.50926961926446,1.41075000023289,1.42201027564089,1.42040437494787,1.41986309779943,1.42011310979408,1.42667072361302,1.49846206072854,1.50322092149519,1.57237513350317,1.59049427951897,1.76606000000048,1.41482980528735,1.35798192148443,1.36458003531645,1.36692786403954,1.43883673743241,1.64755000000058,1.74068831194391,1.79138176439447,1.48177452591183,1.41981410830559,1.39399692691248,1.37840436728443,1.40274561752465,1.41908725734119,1.45776878430992,1.82432460074038,1.51889742750221,1.47068000023774,1.44877205794898,1.43056187895643,1.41008763374855,1.40554296530285,1.47744044303485,1.49099055838288,1.6507283174426,1.82329999992011,1.61301443644672,1.58188999971172,1.5545449302759,1.55796153970071,1.52837821600298,1.52309930558445,1.58489298104649,1.79358021838738,1.79474623079392,1.78228288324336,1.57089774670582,1.46149618166174,1.47209552062622,1.48168003059746,1.5242947039791,1.5445733331086,1.66479677749383,1.9519899999774,1.69698862160015,1.64828710256823,1.63630080859886,1.63006978774445,1.63053959197818,1.63111784156276,1.68058835507545,1.94283999977024,1.82836500756096,1.7776900000259,1.54748324333751,1.48934332046063,1.47819933111635,1.46803886286421,1.47577404665238,1.86393042376063,1.85998665426661,1.86141642524613,1.78573018579028,1.7620999997677,1.64560643575645,1.60689297370071,1.60818490634039,1.60947697370363,1.65781768924379,1.81168594494652,1.8016745559411,1.80040568886352,1.73611601768408,1.64636000012022,1.50808956817036,1.46485400495639,1.46302562793929,1.46390993276312,1.58538997436797,1.72806472574286,1.72727676958147,1.72558040213528,1.43788722605577,1.42874037237005,1.3203221390219,1.3021033125632,1.31843435990871,1.35075790794474,1.50846664422557,1.67247103098023,1.6765724052961,1.67297077286117,1.23235038086927,1.15291648023053,1.14852937301768,1.12727798702639,1.1599245099025
1.82033999957016,1.7725063771621,1.7721804113353,1.79168457105118,1.78783141624455,1.82516481852192,1.84116663015352,1.85117041890719,1.86157356645199,1.83827246154177,1.80754000004279,1.79809327316855,1.77864367598543,1.6882667480991,1.6488779355356,1.64662110603794,1.64433390511269,1.6675254710149,1.91227333333406,1.76288112062923,1.82303999988917,1.66916030681812,1.64796999995542,1.61999255834462,1.53836000037517,1.58623039309335,1.58301442506187,1.85040525991423,1.95169000020522,1.78917257888471,1.74471034297131,1.69674791697985,1.62621869411189,1.62895526467387,1.63283821526735,1.5917215376016,1.58563663253495,1.58833786797454,1.59086162017227,1.58767244312216,1.55735000041831,1.54784976976443,1.48496730592179,1.49170985422293,1.49607535707334,1.49831424045711,1.54968999930328,1.52487330981933,1.5248486914124,1.52395247913821,1.53740677622053,1.49746466140666,1.48945487396186,1.45569417561262,1.3620800000128,1.45726703525236,1.50581999921349,1.47186460825346,1.44692005929321,1.43484457006945,1.39428339548731,1.41078278070476,1.35069342465193,1.37162205576267,1.38952808620652,1.4807198523517,1.79945000000097,1.4488150111963,1.44785292048813,1.41978407342036,1.40643134183522,1.41104288082166,1.41348951797228,1.49520144063239,1.62121999963714,1.60408221256918,1.82223000000097,1.42541996249472,1.3989999994512,1.3628137481963,1.32876000067857,1.4349424714435,1.58551677043984,1.74049350731821,1.79612823516849,1.48982418542629,1.42060351971981,1.40672697566056,1.38049090646694,1.39998266939077,1.39270967539828,1.43638542575636,1.73200000000048,1.50576787744748,1.49652999995439,1.42627119810783,1.38263471618369,1.38358914255878,1.38140566112502,1.46148997435247,1.47861944147303,1.62207117085313,1.79006000049511,1.61309358614003,1.47662287815776,1.46031237117236,1.44495446007138,1.45249978872217,1.46360727649455,1.55876171345406,1.78596934149381,1.79487644208651,2.02159000000097,1.55283501729561,1.48107161491586,1.46045210920726,1.44034000016305,1.49466928010558,1.54418666681608,1.63345228176585,1.9835799997405,1.65885860764861,1.6229000000412,1.57996989599568,1.52461456636108,1.53139605279698,1.5375879431621,1.59023076387309,1.753490000018,1.78725558186061,1.87657000000097,1.5592567769461,1.48193283999514,1.47667996665142,1.47605466708847,1.47901708222274,1.84597585907781,1.85724993754503,1.85312267857519,1.79856320974061,1.63390239651771,1.62486796047964,1.57957578239623,1.57960031414728,1.57991179924353,1.6226248244001,1.78446572018933,1.78113099983569,1.77766541492246,1.71620214653151,1.70618000001695,1.50853265940639,1.48836024433986,1.49277258291199,1.51011362241958,1.6140516804018,1.76255041118553,1.76295349704927,1.78218772192527,1.43976365407837,1.3641822805748,1.32870849091593,1.3019566881498,1.32424382339148,1.35699103379738,1.50710572188216,1.67003272409315,1.68008563837427,1.24067174537823,1.23594111055802,1.1847134965668,1.17804282754274,1.17154205892185,1.16743792644665
1.77562926589586,1.77457494924557,1.78937071245089,1.79836179737217,1.82537441821332,1.8257969267778,1.87163247281502,1.8799165924974,1.91344999985707,1.8677236938523,1.84059999999406,1.81167427433477,1.66381000028298,1.6899545923564,1.6918824460128,1.69194887818062,1.69152743389433,1.67071961906333,1.66766935776846,1.69234742776588,1.71297934897203,1.68783821793607,1.69773352644759,1.64051884960839,1.57760000006265,1.59723436924916,1.60930260163087,1.85090465394084,2.01354999999679,1.8049715184187,1.7441909038758,1.72332067873254,1.62652955263074,1.62793333059259,1.58711659421189,1.59688769901125,1.61181321363343,1.61486501376048,1.64666999955354,1.61385260481483,1.59584999994482,1.57808502520025,1.55898999995719,1.54025950664875,1.51302282946511,1.50194607074397,1.4967999627544,1.52550661330596,1.5259961852415,1.5251200188728,1.51903426616744,1.50828317378735,1.46716767084038,1.46675051926692,1.46632990251985,1.46138250694495,1.44158459198017,1.46470664831552,1.40882218043462,1.4241763160925,1.41742556921433,1.41195405453108,1.35447325079178,1.36071983589099,1.34381245092272,1.45451042390793,1.73498000033183,1.44734331519719,1.42165666352402,1.41940577582595,1.37855512613943,1.40941860748408,1.41662252973637,1.48824741463454,1.55889087909982,1.56878910342907,1.4578295176767,1.43235525491176,1.30381000008186,1.36307494085856,1.36548809819655,1.42620647240324,1.59268322956012,1.73917401119301,1.77342000011844,1.49855461068604,1.41501186629979,1.41092992605439,1.44669999931294,1.40122857640901,1.36117000053316,1.41493602916698,1.37317137557453,1.38841108834087,1.3891681909214,1.38948773852533,1.39009267290307,1.38530196728837,1.38526937717892,1.44537862324776,1.55895614103925,1.59854833553101,1.79209999942803,1.61382983761932,1.47547575269404,1.45411203334776,1.42399413165419,1.42977732070248,1.44730285653911,1.53727647827467,1.79301205649407,1.79463621240575,1.96328000000048,1.55622459250082,1.46402936954701,1.44927258968088,1.41659000026938,1.46397717105993,1.62181474699163,1.61140522514144,1.60317609877325,1.62276352564898,1.5834,1.54551018057923,1.50538794840734,1.4986380529521,1.49142970297004,1.55639999335604,1.62684000000015,1.67790320547284,1.74358350827218,1.5721151776911,1.44102000039613,1.46460694676109,1.47496206947862,1.4819602254789,1.87732999964139,1.85938522826636,1.86197825442474,1.8130218022708,1.82747819543086,1.61710324512222,1.59305422278748,1.55688205636148,1.51422000020484,1.53240605612125,1.5463099999486,1.62272531278881,1.79942384042806,1.71866641415256,1.6355600000001,1.50902082250576,1.49287150561832,1.49483687683087,1.76406000000097,1.69372182950301,1.76723207519468,1.76463532994572,1.75168150533411,1.44706118730947,1.35552771935695,1.33861234706173,1.32161000029369,1.33247451778987,1.34449157613684,1.50640936950328,1.68812347200843,1.68916726604244,1.33331,1.26826872785491,1.20695780753149,1.20314475867523,1.20039037145535,1.20609808572058
1.77499843523035,1.77512587094215,1.76264315733233,1.80087543753099,1.83276365157989,1.827791596136,1.82847760198221,1.89352284679488,1.94897000013456,1.90811573228625,1.90039348915564,1.83285382790551,1.79838000001372,1.76170361174429,1.72722999997349,1.70943598963104,1.68229974453306,1.67779250731453,1.66447432626263,1.68409403031635,1.68115636145045,1.68234453072537,1.68222001108111,1.65673113718395,1.65716889652144,1.66335458808024,1.6698489001631,1.85085288623996,1.8812700000568,1.81742731830081,1.79075000005589,1.77634625928378,1.76712349238676,1.68285192043128,1.64116646163701,1.63323095516863,1.62814777097033,1.61792459846036,1.61135607506774,1.62728018575332,1.64221168772387,1.61651744931403,1.59626999999523,1.57659545886744,1.55734524953095,1.54578608865987,1.53303467876302,1.54665696129808,1.56517824466792,1.56643816262056,1.56779419339076,1.53720092591855,1.50245297399355,1.49768260422605,1.49232350985355,1.49433763001229,1.49422241242896,1.47264924705527,1.44366651721593,1.44885150836331,1.45387578249327,1.42724889666903,1.35988331908037,1.36319639171626,1.37013651056322,1.42949083747232,1.77223999966913,1.44372598527587,1.43817054246389,1.41899877619831,1.38615978143109,1.40621662965317,1.40023202457149,1.47927005786404,1.5781060212346,1.57125276941153,1.43975639981593,1.43406991258549,1.3722683673793,1.37869622740332,1.38547332814245,1.41754209147317,1.69379000005274,1.7358618060265,1.7405999997351,1.50891944768427,1.38380000058652,1.40689965209028,1.4067233568279,1.40335547268637,1.53266000000081,1.44386087792297,1.37693020416352,1.38425750826578,1.3728879323541,1.36608730569815,1.34758392984423,1.38400104035662,1.39185315333619,1.42914372197491,1.57266385908894,1.58402762829764,1.75832811813935,1.61457766810839,1.44849164275208,1.43694506154742,1.41077493438431,1.42002942519291,1.42205608532963,1.52292017600243,1.7955424927107,1.79562751151674,1.88892000000048,1.5587288602611,1.46948142526723,1.43415715213015,1.38253999994323,1.43372680164642,1.49800000000003,1.53526025521531,1.70624500000073,1.63579618645301,1.47837553256313,1.47412185729807,1.46907610453106,1.46821240157849,1.46756060886314,1.52300583307699,1.53272000004507,1.58807763536492,1.76457649172879,1.58801863953354,1.62330999966438,1.45452046968077,1.44881935951489,1.48096479715147,1.62371000000019,1.67651630443043,1.83095999991188,1.80497282316948,1.79450044645849,1.60759952840708,1.59919887974495,1.51067409614936,1.42620999994495,1.48123529486179,1.48902000018491,1.59216035770739,1.73352999985413,1.71764854831329,1.52221238011084,1.50967582079743,1.5052421013858,1.50012123231793,1.6239099999998,1.66134807380948,1.76301782021987,1.77574899250844,1.79530999987939,1.45500644866295,1.37942999962133,1.34390185321011,1.33385000040357,1.37584300238241,1.71316000000097,1.53373484672056,1.70450856065164,1.69405017136228,1.74079000000097,1.29499178563342,1.15088000022633,1.21164469052265,1.21968611488512,1.24768820110152
1.83737883201481,1.82332663536942,1.82567754605339,1.80398471640954,1.78198000059223,1.82460121650641,1.92121357853162,1.93229706389846,1.98277999972619,1.91323531925384,1.86160924140674,1.86673318580061,1.87512538373942,1.79427305653477,1.74321000005684,1.79086280969233,1.8437114332841,1.86441601259664,1.97857000000097,1.73879051874289,1.65818102323816,1.66498413399962,1.65821581552155,1.65709074369726,1.6533601565023,1.70443634755453,1.92016522102048,1.91896432650041,1.94491999994417,1.83302740845055,1.82980155181818,1.78273846908447,1.75829787865434,1.73617421313598,1.72039139413763,1.68473776364194,1.65728125158617,1.65753699193322,1.65768920314934,1.67744889628455,1.69625282367912,1.66207864451308,1.64489000015805,1.60605434217854,1.56439000011082,1.57888161952304,1.59554731104462,1.59276152667163,1.59014239990799,1.5879492202377,1.58551360900977,1.57972314362957,1.57503774149194,1.52723689814113,1.49685535201991,1.49662868397374,1.50120012283681,1.47815626376607,1.46676248417036,1.47142821764686,1.47747168594318,1.43238262697806,1.36591933817389,1.36609603507109,1.36858747945396,1.40619634815826,1.41762968638304,1.42686902356249,1.46315999948034,1.418426570495,1.41778559805072,1.41309466847307,1.38463031305125,1.46827138991272,1.72253000000097,1.58655139201019,1.467219999637,1.45138426362907,1.42815423372271,1.37976733513698,1.36597471970998,1.40660909843503,1.78206000000069,1.73012509614291,1.72247122176132,1.52252449668884,1.44021999992835,1.40391203383914,1.40509377752654,1.40225882103147,1.46019483129044,1.45186658445957,1.56605999990273,1.43427598188422,1.36211886048446,1.36176580357426,1.33383607132017,1.38258731877586,1.4086270362015,1.40519334942095,1.40309852248199,1.54781275461174,1.76868188201982,1.61528848562597,1.42590212001736,1.42565696321165,1.41470827300677,1.41721346238077,1.40919365413736,1.50861713891538,1.69067437621672,1.74057753216169,1.77837999982502,1.55996665627687,1.46150158327431,1.41770940296213,1.35897388801993,1.38398449655139,1.39576047776085,1.46247723384829,1.70890500000073,1.65167017886908,1.67929999965796,1.46439227554558,1.4037136476453,1.43777232540043,1.4502111541026,1.49825148824035,1.60374999977995,1.54121432883679,1.47212410250373,1.47647364639821,1.47919517724758,1.45016820179149,1.3599500002521,1.45660100339518,1.48494999983498,1.53878191628,1.55298000016267,1.57583357871831,1.58477964521146,1.59382763822816,1.60625157537108,1.47978199781234,1.38442000035884,1.46803168443428,1.51896147241998,1.5652899745555,1.71781000011541,1.71558476255335,1.55416772270629,1.51088839964187,1.49196880661944,1.49650822859271,1.57799999987249,1.63088023675607,1.80070067162117,1.78477249020916,1.83349999959053,1.46171000806491,1.3494290007678,1.35346614313788,1.35608504892304,1.39167191712519,1.51555932692588,1.51617669581725,1.33319000008351,1.39616181819128,1.32544607686257,1.32240351674777,1.31958287975891,1.25241914694326,1.21727835866332,1.27327533537557
1.82377137435319,1.82083289374285,1.81925580082366,1.80723746740333,1.80361412127067,1.82256232826026,1.86926318232427,1.93906644932836,1.94241959979172,1.91742434658581,1.88782823360358,1.88409392390298,1.87720851041789,1.88073041151895,1.88698116897221,1.89188062961131,1.89507848574518,1.89676432288374,1.89748839717968,1.77919302881623,1.75010686679924,1.7241925578066,1.69607488603564,1.71075221043293,1.71894336545068,1.74407765018841,1.91896433592129,1.9204641730129,1.91776703168703,1.83512335985971,1.83281760798006,1.78786863880813,1.76763146851661,1.74687278587432,1.73080042975207,1.72637284954207,1.7217313717852,1.7148436160954,1.71111032331463,1.70926294367497,1.70498489824247,1.67244701703181,1.66020734151474,1.63769935025194,1.60251306524871,1.59730207295574,1.59452653221906,1.59417328106057,1.5949908524802,1.59515608191815,1.59126251849707,1.58809280276692,1.58510495450028,1.54962841863524,1.49419652235913,1.49241996617249,1.48899749068073,1.4878046061975,1.48540326111801,1.48213347477691,1.47919316674452,1.44262866034714,1.41380833819221,1.40208387075455,1.38347957438893,1.38863280194702,1.39426792910205,1.40028595715868,1.40633864482858,1.41173222095435,1.42074803442636,1.42137746587179,1.42306295163235,1.45597029744457,1.61531119056727,1.5892374759923,1.50913847442499,1.4549651189861,1.43868976812622,1.38007640134501,1.37875638694181,1.39686052788604,1.44443035464727,1.50471086122116,1.57397859041285,1.54509786525317,1.48380053423799,1.40077801824176,1.40134784999247,1.40003592129975,1.44300853037412,1.4480874924333,1.50470788065949,1.46522071828725,1.36073372553377,1.36027097367298,1.35885064110776,1.38109856639558,1.38909357646095,1.40405355832251,1.41132514115189,1.51945470949942,1.61679227590843,1.61613571361866,1.42568250611391,1.42562846346158,1.41944019554609,1.41876511286245,1.41891892953058,1.49696227360591,1.7031608445382,1.71325386838219,1.70324188243699,1.56036714188567,1.43344022317104,1.40049463969563,1.36877452118998,1.37819780804338,1.38398539391103,1.39732399605379,1.39580135350991,1.3936430875925,1.3928688692285,1.39416762213691,1.39807966870491,1.43143709959396,1.43867289935994,1.47374704948464,1.49280961489607,1.49319255558949,1.46415365342508,1.45962622712988,1.45535979864448,1.44616838518579,1.40872964008802,1.43280368127651,1.46016273453291,1.5133585259925,1.56267479377288,1.57167255589316,1.566926456681,1.5624428463336,1.48381558343437,1.45164991448701,1.42929463666487,1.45168360403782,1.50873220963055,1.54170349036269,1.71514759187465,1.71292544553214,1.55541223493517,1.51147427175204,1.49600571648383,1.49515161748197,1.56205382631447,1.60180833649025,1.77020367450312,1.77793594520591,1.78759833842369,1.46814438360539,1.36677548195552,1.36824323935562,1.36895149319208,1.39408582530895,1.51662343319081,1.51749922300062,1.45812287946961,1.42658823739973,1.37990259617804,1.34293177378652,1.29002744051347,1.25425677812491,1.25462300036406,1.29668544261576
1.79317006125768,1.81840585537294,1.81551839771203,1.81111727946955,1.80096149255049,1.82179682506263,1.82177804506345,1.94298285535614,1.99450104096143,1.92165506663738,1.89600657222453,1.88709527702429,1.8766349688948,1.87851724281408,1.88801374031293,1.89256523290191,1.92483153457065,1.94058862869429,1.98359333356104,1.89873876240215,1.88916755636022,1.75841980540375,1.67732312685825,1.71711362476976,1.72900389865416,1.77319358551412,2.01095999990995,1.9256812481089,1.89610678933647,1.83815451889141,1.83977981911202,1.79157797951727,1.77595287282896,1.75890838149174,1.74018517691712,1.73545587524108,1.73025548772367,1.72178156226675,1.71361875410011,1.71594824156942,1.71875467285438,1.69811609954791,1.67682999979746,1.65953055431693,1.60923996072659,1.64810540112778,1.67298180747809,1.6577105566661,1.64229410627441,1.66656072895186,1.69614999972649,1.64122351303527,1.61315464263263,1.57086781870059,1.48875985427585,1.4899226289207,1.48622958244326,1.49263606618037,1.50515810528774,1.48780265272764,1.47856836425539,1.45683255171968,1.4264100000092,1.41226601447042,1.37833943582028,1.38339207895392,1.36566945395245,1.36580446139073,1.36415746902055,1.38967977323946,1.4219521449412,1.42156479328012,1.43626355084083,1.44056258223365,1.75566000000097,1.67732209999377,1.68065389106214,1.45934887437666,1.44711581301875,1.38124449841221,1.33747666617437,1.37711849928174,1.39044517382561,1.47250202826229,1.82471999978183,1.74407312807978,1.75027095876053,1.39897138982325,1.40008233778155,1.39891039910936,1.42743017687339,1.44606670092381,1.56325291629343,1.49749856574632,1.35856997458351,1.35878927757669,1.35539098281726,1.37946205981116,1.37786774726992,1.40312603694428,1.42290651645817,1.49366442899936,1.77922000020105,1.6151300110561,1.42595379165161,1.42574478555935,1.42154342005499,1.41978541682976,1.41894625258406,1.48415968753052,1.76146899460004,1.73187239642684,1.69021378973445,1.55987233613201,1.39212000022815,1.3849219156957,1.3190500000145,1.34173736136019,1.35373619813065,1.39799014883468,1.36911000033099,1.39289898075542,1.39094670650974,1.39394232442981,1.39579739453621,1.39070614925587,1.3853138567383,1.45027745096774,1.49181306050273,1.49280974745276,1.45250661378223,1.45676544902012,1.44767729903176,1.44066523654452,1.31643999999903,1.39973236063306,1.39938554893946,1.4889587397866,1.68812764483675,1.61253053548602,1.55634794270561,1.55438781806074,1.31956999999907,1.38979300406553,1.38402657604303,1.42463837925251,1.49809945229775,1.52078016312478,1.71626507379178,1.7080419909564,1.55684772271536,1.51105401820439,1.49966764268849,1.49600682380946,1.5493600001336,1.57361472379529,1.75357239053273,1.76909571221432,1.83086999957196,1.47767686457653,1.36389472138979,1.36721553132465,1.36803738709144,1.39675158239291,1.5216289335962,1.52003017400403,1.73316999973964,1.70383399072827,1.70258235499295,1.36466699586687,1.2602784222191,1.25675101029148,1.25535754957818,1.3113149159255
1.79304993968875,1.83305531906414,1.85584999969178,1.83096892818156,1.80731137112465,1.84620726058455,2.00236000000097,1.94452949533862,2.01116895902975,1.92617770381566,1.92026801490565,1.88983777495808,1.84652696727183,1.86568053032379,1.79859828491918,1.89671131233997,1.97915999958842,1.95244727722878,1.9850866661232,1.91175904381156,1.91146903288017,1.81213110819309,1.78163630463646,1.76763664058634,1.75586254195847,1.80532124803855,1.98535000039568,1.93069769271621,1.77738000047475,1.82292147605806,1.83847301332598,1.79590719211926,1.7726030568474,1.7710891776307,1.76934862523067,1.75874201256893,1.75113700497649,1.74829445478202,1.74576886180953,1.7797785860356,1.96021999986107,1.83486289818121,1.82026818336806,1.76299348311246,1.73422000003934,1.71147571386399,1.67283417781299,1.73197313839423,1.86877000020818,1.76021385254877,1.7171399999917,1.6759192667203,1.59323535716016,1.58183637273861,1.56280425143706,1.55449286512281,1.54502511972492,1.52713947996909,1.50622989331797,1.51621579063996,1.52710423116342,1.46647444541676,1.45323000011712,1.42456287798566,1.38990017607424,1.38671836410779,1.34696618378922,1.355426131304,1.34657694363942,1.36018732204221,1.37298289070535,1.36696607966374,1.36497461386255,1.40654586011409,1.40664773729677,1.67415243241333,1.67252074730427,1.46731335042239,1.46478000001266,1.38235587364397,1.3390633345679,1.37351785234628,1.37853135322165,1.44328030430074,1.80091000021962,1.73546157906114,1.72033168584911,1.39700093192113,1.39935034589199,1.39813240902988,1.4441171017027,1.44486659104194,1.56595708372878,1.60082840698654,1.73447740102796,1.43655234153878,1.42016000006726,1.38641567250153,1.37785179466002,1.40234895357355,1.44765999959159,1.46858561086958,1.8118299998004,1.61234226098529,1.66745999986495,1.43093140878413,1.38594000082761,1.42015172782082,1.42981695891638,1.47021497829906,1.75220100494278,1.74589190550669,1.75383777317475,1.5587015711358,1.43638999969259,1.36603702039342,1.29642000041276,1.3365737435992,1.61310000000097,1.44736633995733,1.72716000013654,1.69177375601362,1.69222304122397,1.38437672934839,1.37189289643022,1.37933476647181,1.38774133481031,1.42684504968157,1.71090000000097,1.60623976211287,1.82460999990723,1.51259498249288,1.45524301086686,1.43376509492829,1.40198457431892,1.40060261972328,1.46030999993586,1.4692577645081,1.67659235493781,1.63876557937489,1.70556358551993,1.55629977711592,1.55775346066275,1.39469095292007,1.39857511765648,1.37746475694496,1.36150279901314,1.49699468333403,1.6967405082472,1.70254818097825,1.68489508744991,1.51019914854412,1.41902537438746,1.42216811156142,1.42545739721738,1.48104183630014,1.72029000028885,1.73851748378812,1.80445000009389,1.49593732895946,1.37116256750414,1.3775631934292,1.39245117312742,1.4023782433873,1.47894045785214,1.50956924679989,1.71120022324118,1.70644692591313,1.70060238167279,1.38767085377346,1.28187469418065,1.28325990558671,1.28481066670934,1.34357658678445
1.84415000008605,1.86088121901061,1.88565289840408,1.87607008518569,1.86782313255518,1.86007092056281,1.85844980098364,1.91925983349688,1.92342428489778,1.9351624908755,1.94826765325237,1.8960455412391,1.8994529721658,1.87071748274633,1.8113017153825,1.89889625908915,1.92465956176919,1.94427571312381,1.93542901068645,1.91100145360125,1.9088235695408,1.83331270069884,1.83652055756876,1.83253741861063,1.90622000009285,1.8935241125239,2.01823999969631,1.93307089991459,1.80452804686386,1.81023546760001,1.80169786308867,1.80636517050976,1.80903275758044,1.80902593416857,1.80919158291876,1.80802045376329,1.80686762765433,1.82958650163339,2.01500000000097,1.9032092336425,1.92180000014038,1.8410985241847,1.82801181706486,1.79283721272359,1.7545689976408,1.7412690660948,1.72475000014043,1.76988869837078,1.89266999971152,1.80085297812787,1.78949406113487,1.72355583816185,1.71447999995562,1.62336670482946,1.60105724054197,1.58189332598167,1.57128176635559,1.55557392806255,1.54036000002851,1.52584959221109,1.50793429875127,1.47692974468757,1.47213757156481,1.43437662119958,1.39764454982283,1.39383064844675,1.38293663782893,1.37501714863433,1.34618987309936,1.349810026383,1.35010316600354,1.36359628037771,1.39080290641677,1.4062104785258,1.7795799995478,1.76172761819537,1.76850465395689,1.48977506410616,1.48622987250415,1.38417345879901,1.37202243409552,1.37171528217471,1.34478358100332,1.41601981718143,1.63130220866764,1.6375086960919,1.64404489551824,1.39365615345135,1.38125034306315,1.39744646490356,1.41327700405799,1.43547744136165,1.61376000018372,1.63388268296189,1.72301259891921,1.4479103223447,1.46714393621665,1.39307972933408,1.37178127915814,1.40209177367258,1.40257953383127,1.43625779893232,1.390456667116,1.58646392578923,1.55381000025642,1.43914647524231,1.42110965099857,1.42049447758944,1.43849451656974,1.45676046469933,1.56433000000548,1.67316954362434,1.71608999991172,1.55737854454705,1.37649000005312,1.34752473304989,1.32610350098626,1.30916004441752,1.29751583125666,1.35931474449816,1.75187999957311,1.6909865286126,1.68988004432998,1.38452978720446,1.36513131773658,1.35452054188541,1.33728000004573,1.4038485448539,1.46579197171922,1.5780498552717,1.78177000009422,1.5451840815064,1.50518000000002,1.42772399271716,1.27902000025883,1.32247193818369,1.32337342669512,1.39485576117796,1.43676,1.627288295253,1.69526641433021,1.55936290794339,1.34682999991944,1.32974592448435,1.29311729050085,1.36653154987262,1.4054999995416,1.47670225641027,1.7224099996292,1.70735629594724,1.77832000000097,1.50949764080407,1.3817687113347,1.39943444442045,1.41616749104593,1.41963454788244,1.43159305083816,1.57851497180835,1.78872000019078,1.52411036078317,1.37431728475306,1.38237692528207,1.42862956833671,1.41286352237189,1.49940297838149,1.50888877022013,1.71323141000375,1.70911818344847,1.75601999983673,1.41215579197785,1.32422337960811,1.32164642112882,1.31910337960753,1.37163196045453
1.92447797290925,1.92651182312083,1.94206614216001,1.87971466590708,1.84220714150992,1.86042300393356,1.85910039798011,1.90519277302842,1.98976999974982,1.94530244006926,1.89002387926894,1.89265784644062,1.83831000050028,1.87525739065626,1.89740396990715,1.89892375900456,1.95533700258106,1.94812059097766,1.82287000017273,1.87905835144994,1.82361733275165,1.829046461333,1.7964700009138,1.82919116585743,1.93926999974447,1.8833013773843,1.81730000038082,1.93166777673826,1.93777649012831,1.88101356209314,1.86579000011307,1.85121026581254,1.82973000016917,1.87502988970195,2.10311000000097,2.03183453005909,2.10020000000097,1.84000515521666,0.00457392000274722,1.88714956671597,1.85512296481857,1.85436092631355,1.85439574446894,1.82241418575339,1.76843002484832,1.76628015742966,1.76416602453782,1.80382999062798,1.83207999984597,1.80919407327836,1.80456687365958,1.73877124405768,1.6483300000515,1.63934452266966,1.60241103563438,1.58826149717032,1.57628033030856,1.56802942212253,1.56107955712107,1.54130677670291,1.50637738912325,1.48760712372698,1.4863262108876,1.44017336594644,1.43727590056926,1.41762848207293,1.4020900000509,1.38979860048133,1.34446966964414,1.35047023448786,1.35195325517946,1.36134585807975,1.40633816479734,1.40571077869905,1.75253965608886,1.75793934388918,1.77119430646859,1.49280833164542,1.40634415909684,1.38700192699922,1.37510097652376,1.3705471913514,1.34692404779121,1.38546080603919,1.40626999986014,1.43365361424817,1.4733799998509,1.39173815508041,1.38110903973149,1.39058286327123,1.39913668556141,1.43429819795838,1.69918999969219,1.66313336399035,1.66578173897415,1.43522848418819,1.4157895247848,1.40226854287252,1.43887580400046,1.41324085298157,1.51642999964862,1.4527028413157,1.38844333303325,1.6182148914721,1.75550999985059,1.44872985592453,1.39588611203369,1.40906588099546,1.43065221707103,1.44375230901921,1.63443000009252,1.64426922605556,1.69943465732425,1.55649019081649,1.43386,1.33316587213234,1.28109619290821,1.27686134208678,1.27191068146373,1.3247304547289,1.72712000020625,1.66767208195699,1.65267158466976,1.38344201108032,1.38146315113096,1.34270034683349,1.31246000018673,1.38095586904796,1.47020802846914,1.55790952815856,1.58987092169122,1.58589444383534,1.58224828679248,1.42270570985335,1.34499999950846,1.32036474160372,1.27408284086236,1.31370282255539,1.31921043861422,1.62387611515037,1.67337113939318,1.5594248703437,1.29912878462916,1.3198759780283,1.31468346321049,1.34348990255315,1.34743662674749,1.46273393791904,1.52231999999966,1.58927901791766,1.53746999999969,1.50928311525279,1.40286484091191,1.39849939728803,1.37338000013592,1.41354179006708,1.44023888609736,1.54966250359004,1.69970000000025,1.63561596852544,1.64584702847388,1.39195319974811,1.40839648879387,1.41157936316143,1.50023358504538,1.50587710996421,1.63119511278716,1.65702058666483,1.6717697481305,1.43797024291001,1.41752963682966,1.38302430968565,1.35516000034649,1.39963280040976
1.91905575458919,1.93060192205799,1.93536374343701,1.88137100219899,1.87353008601358,1.87793321661576,1.89317840434938,1.89083221043739,1.85898000036494,1.94865157012539,2.00439999972751,1.91824601086417,1.9048700000637,1.87808290275156,1.82407000041248,1.86916451386302,1.84097000032193,1.95003440593373,1.99615000000048,1.91428437335631,1.90945732468712,1.84795698175876,1.82551468643821,1.8264852233953,1.82496270685149,1.8636208564959,1.86535512530387,1.92657319714441,1.9188535678259,1.90075460316851,1.89514103803115,1.88624525528973,1.95445999968517,1.93296415634272,1.98800000012844,2.01214142834211,1.97907752047948,1.97164410178547,1.96955258449138,1.89269333949813,1.88386462653843,1.90528019540413,1.92022000012407,1.94081691854384,2.14484000000097,2.06893259892398,2.03953855436664,1.99409101293289,2.00697999968028,1.81630717193637,1.80610432417727,1.76253045335868,1.71720999998383,1.68380887970788,1.64379829270427,1.64291902350154,1.64212003693577,1.60606425451823,1.57247999983111,1.55630482105424,1.5024367167112,1.49692167750598,1.47763380869496,1.45153441868738,1.45068838000002,1.43342858742785,1.42841108555027,1.41182330927955,1.39727191179528,1.37300610484733,1.35059535787058,1.36000387450597,1.35904516863078,1.40545585220544,1.63844948925497,1.65734096496469,1.4135400001223,1.49500088016837,1.49668299630823,1.39067244676168,1.35918823243039,1.36696176254952,1.34743421799522,1.35897147609935,1.37379885616429,1.37436172017851,1.3748087712263,1.37790718646312,1.38063070727365,1.37762445044383,1.37367627677231,1.42470525721072,1.52748999999952,1.66095493811264,1.72243999963947,1.42628919231136,1.37978885967824,1.39880416722847,1.40358093642562,1.4048029112533,1.48994000002883,1.46505883607733,1.70175424349885,1.69535924335014,1.71262999980905,1.458672867424,1.41954999993563,1.40482378521761,1.38098000024304,1.42315335417043,1.54770000000006,1.58854251223413,1.69100534291867,1.56500747058297,1.68933000000097,1.3156959972295,1.25101263824832,1.24214595060343,1.23469991911102,1.29015365527453,1.49264000000004,1.53105150680991,1.65731841556891,1.36063741972338,1.30369941525527,1.30073257999632,1.29755248723859,1.35823157018253,1.51270999981138,1.54398539673417,1.70571999969219,1.61217944179278,1.41706999994434,1.41673534420853,1.31711514014334,1.31689794370943,1.28231715987183,1.30911861983248,1.37388999988575,1.6165310805044,1.69573886075911,1.55802124546285,1.32640178622723,1.32355754619602,1.2669500004327,1.34204944468804,1.37082812102242,1.4516629290862,1.70937000000097,1.638854344263,1.6911699996069,1.50956942628758,1.38779384289695,1.38616337002754,1.33655666674405,1.40773615692644,1.4784499997459,1.52801769722858,1.63714999958158,1.62626338269592,1.60460113580635,1.39070778702313,1.34332000006432,1.35712989825277,1.37353980222743,1.48194295125875,1.64867306227948,1.64717364480657,1.64528074884014,1.45901263387825,1.40978251037419,1.39761879065552,1.39713302564218,1.41827266525709
