0.611875935908029,0.00388892098714689,1.10490530895643,0.738855820002365,0.00383937281581514,0.654259507864049,0.646680859155777,0.646290829164869,0.00376649231387513,0.87438720844243,0.565279051766571,0.613035577254186,0.451345418541265,0.449936714793824,0.449050492747588,0.449675536499192,0.450086328339134,0.447497393707441,0.452062662014242,0.450252594403646,0.452111187570829,0.444729367600238,0.432690540856364,0.431402390044965,0.40751373460192,0.407117106272966,0.406948977285322,0.405394968086182,0.405248177282511,0.404441941698247,0.402431158569625,0.403305043811291,0.403150496413063,0.403234921270151,0.40267307294719,0.396965893290916,0.387771362066337,0.386972954321735,0.38720962785004,0.385098660506118,0.385343249228739,0.384414304053915,0.368810829614937,0.369405778553017,0.359201241921896,0.359293246294607,0.359652065011418,0.360161748570875,0.358733895393729,0.358250859323877,0.356402452972484,0.353568663682517,0.353517822225414,0.351022457536345,0.353635152317835,0.354136977509753,0.354420764419704,0.347091568992969,0.345614842133687,0.344681157560745,0.345170253534969,0.344683266969679,0.344421369142685,0.341401937228888,0.341321043030762,0.341778497869154,0.341576026117955,0.343216300519428,0.341019270438115,0.335222628507389,0.334774662377602,0.334741492617961,0.333032162621217,0.335341129250024,0.335881893067841,0.335700047589368,0.335189150555243,0.341040435455798,0.347529490546688,0.353072228228862,0.355883364111958,0.358976445911375,0.35957935291615,0.359288940075445,0.351160978946749,0.352465141509925,0.354265032105063,0.36214036926511,0.361824519962928,0.361426907861659,0.369446806794926,0.370475123467874,0.371466105751241,0.374964336945861,0.38432753513448,0.38583357451373,0.384983776732016,0.386222199999734,0.387137784751181,0.388345479481714,0.388242014711346,0.38793404473158,0.785698372268147,0.408599020518948,0.410785121748586,0.417844801059615,0.421711915966406,0.424312759294582,0.42263801626334,0.423859808906126,0.423041797913623,0.423489164171618,0.422833228001501,0.422268442896944,0.414946821161265,0.408472539596996,0.396496215470076,0.395021271908097,0.608501505594471,0.377789723855658,0.377120685443388,0.369676412122088,0.36648080156971,0.361296551508516,0.36042193515983,0.353237091524902,0.347441671460758,0.346793790257366,0.344814102410801,0.33690123192848,0.337349904558739,0.336959868196766,0.331450903196832,0.331789480257706,0.331086564593104,0.331012523583864,0.331364813303231,0.329129675490333,0.329905894368286,0.328636843849783,0.329283189101279,0.329285644391845,0.330301712551308,0.332059613121298,0.333024262142846,0.333565068901112,0.33431975333269,0.342904624532671,0.34429026251494,0.346522439220447,0.347689702684978,0.349868095148864,0.349945575279431,0.349854253613733,0.351328166532213,0.351294583095352,0.366114415333651,0.367697351167743,0.375864928126915,0.377357094074104,0.377617950055664,0.378407364822964,0.379667802711708,0.381766808261174,0.382990460015319,0.381832134878923,0.382946366847203,0.382984511825422
0.620400145691888,0.62311790177099,0.726981637643058,0.710586173589029,0.673236582610192,0.667534541078009,0.660365947247691,0.0926223123228309,0.0630005481165042,0.0926223123228309,0.449618147016358,0.449568789645828,0.450175510016535,0.450501663761299,0.449586756415001,0.449940936997991,0.449982168167664,0.45010717510483,0.450307791251337,0.450787561110296,0.451647430852024,0.443231759454138,0.426720688220085,0.423288902648671,0.40773622341466,0.407345733801125,0.406465676851723,0.404350539869454,0.404168200626524,0.403861600555252,0.40256413056886,0.402953304472356,0.403617341854045,0.403944591779517,0.403444596054892,0.393495774212718,0.386575683232477,0.386666798531298,0.386479333003258,0.384472099470104,0.380008063547398,0.378704191589088,0.369957516697182,0.369911765796248,0.358577856589497,0.358637365898472,0.35926199835574,0.359045299700632,0.358316762606719,0.356213054664879,0.354838834159018,0.353643922373231,0.353715307976095,0.353130389688603,0.354681633104523,0.354359178213095,0.354525384268532,0.349870210435032,0.345720899446147,0.34551092100901,0.34517026985361,0.345292459149948,0.344749707152105,0.342157272285007,0.341522647917744,0.342084542556175,0.342513990895829,0.342120283364322,0.342551754064846,0.334734448463515,0.335142474043978,0.334442381146935,0.334680255318358,0.335209962560955,0.336439316115098,0.336232859537543,0.335527801851257,0.343215892153725,0.348623678422303,0.350717304628701,0.34940082246706,0.350249924048615,0.351479164033607,0.352374460689237,0.352150705123004,0.352375219191862,0.353816139148139,0.358280120855559,0.361344386916119,0.360260050034218,0.367896668212998,0.372095624825916,0.372135707105032,0.373325788033249,0.38490877351737,0.385449242944457,0.386166535405373,0.386808617512242,0.388351441243652,0.388884570449786,0.39033489014696,0.393837176869361,0.406024310065434,0.411280750362075,0.409895235104924,0.421398112833902,0.423502448314865,0.423536384459077,0.423792672067015,0.423609337061658,0.423477988480637,0.422861609541845,0.422508614393077,0.421633836510562,0.408566784732091,0.405473926412554,0.395899508107479,0.394870121630746,0.380348944078325,0.375173501817811,0.374524256706154,0.372638304565835,0.364024431018602,0.363575517706879,0.363188541247304,0.352746394103827,0.346779346132855,0.347036524187029,0.346184554808134,0.337000786136947,0.33756108338061,0.33712248326707,0.334481593009047,0.333372632643749,0.332709183155521,0.332353143732134,0.331480857878969,0.33089974140755,0.33008379651625,0.330778518240604,0.330870960217682,0.331290277930371,0.332052326526734,0.333165088715939,0.333982474565365,0.33465585720693,0.334604934629164,0.340267546438894,0.345504813204854,0.347866551225759,0.349262338167917,0.34992118855674,0.349787407364894,0.349967067548763,0.349888146566428,0.352385999449618,0.363583667243061,0.37023046227503,0.376873330481408,0.37732143466406,0.378126289904142,0.379664711864928,0.381011458002975,0.382714930808494,0.382768766096329,0.383037649076572,0.383183273723477,0.384059606901077
0.62311790177099,0.747928059650653,0.758070888905978,0.681133953693198,0.681655470667351,0.715816304716484,0.804546697387431,0.00410738888376039,0.00387398311677183,0.00416952587715294,0.44931114514763,0.448700873691284,0.449335838063227,0.452030892804392,0.448979236633416,0.449982007345834,0.450396920308253,0.450100429567592,0.449023039180515,0.448783557202917,0.451210649919388,0.435042497560096,0.419901795055952,0.419467681456017,0.409079825918296,0.408664503857831,0.407811672504673,0.40111574820646,0.405064924397684,0.403152593286799,0.402561820387602,0.401235145773734,0.404183397739774,0.403055101143418,0.403083988031181,0.390666905377396,0.386942539599584,0.387862426343663,0.378272649061576,0.377144093302087,0.37837581121634,0.376740887503001,0.371005881881305,0.36967300617872,0.3604635949341,0.359110553628783,0.360657167030698,0.358100625827381,0.359628024388631,0.352380400878904,0.353242033798835,0.354084492472779,0.352660991422061,0.355297589679873,0.355655486283381,0.355378508412275,0.355545078441753,0.351726827935453,0.3457885895315,0.344922694928779,0.345055038555577,0.346097017010912,0.347289268690683,0.341544090457782,0.342016740686986,0.34296661993208,0.343706351169898,0.343230774142035,0.34211352113224,0.335344152763918,0.33478247741716,0.334442569719105,0.334369490817439,0.335328699618603,0.337261682108152,0.337213288961532,0.337400742416719,0.345760375073239,0.347539104322914,0.348972725085639,0.348846324906577,0.349277894680284,0.349395541662757,0.354750914258628,0.351959664087838,0.352568213847684,0.352542153206481,0.353020551120157,0.361277545556799,0.361402879996519,0.369154582264298,0.372887145266567,0.373287843115224,0.373679414570393,0.383644016378346,0.384324072873044,0.385309278877573,0.387871099680051,0.388255361427266,0.388401713729431,0.39218710593162,0.855980642842469,0.402409332315024,0.869587639618032,0.410821969311388,0.423361954024933,0.423492956429563,0.423220530344386,0.424965579028352,0.423677897965281,0.423552211000009,0.422619983951114,0.421940732526291,0.422000185005414,0.399815656930282,0.397988649405583,0.397225202719586,0.395933788977182,0.373515233797578,0.372266245409175,0.372181337383615,0.371501226151118,0.364600051042256,0.363383927360036,0.363501165948118,0.351962456985214,0.348816755043123,0.348456989649434,0.345325976499521,0.338499986054407,0.338730535160263,0.337311793463125,0.337597008799748,0.332928144202116,0.333817304400223,0.333514536286386,0.333043831007045,0.330583235377652,0.3310682041368,0.331666786791583,0.332466398145447,0.331842014371523,0.334209429414611,0.333629559576935,0.335418801161265,0.335824447948832,0.336655968909484,0.338127738731445,0.344339123954238,0.352250766197395,0.351027793477947,0.350617608993854,0.351377143801739,0.350491376927004,0.350769409601687,0.35362924403263,0.36278833970492,0.373142607563072,0.374630437931484,0.376824184535644,0.377925718036597,0.378975355115034,0.384696516935743,0.383504305439472,0.384651102952044,0.383589014549856,0.384160299351905,0.38368027388413
0.747883714093118,0.749131048374378,0.746564034728513,1.12943126561676,1.12953475708051,0.738769443354609,0.778459379220062,0.00400249910015807,0.00418559800870703,0.448551984509532,0.448953871693157,0.448950754840345,0.448189611830022,0.447595614729691,0.447918254102023,0.449842131689775,0.449011460978357,0.448948846041985,0.449191796515635,0.611094876548001,0.491533767335791,0.653417105245475,0.415538742045598,0.412793730997887,0.399947824703691,0.399128888982781,0.399227715138278,0.401710620134679,0.401644880579764,0.402901319851828,0.400985871663303,0.401263915853443,0.398288692790219,0.401568977574646,0.401344536048163,0.389446154717408,0.388234559715407,0.387634706725808,0.379014550385931,0.377518144618375,0.377202030719223,0.376583435671277,0.370537706423914,0.366179952048761,0.358205457213693,0.357103641370396,0.355834814266102,0.354976504949807,0.353944446881469,0.352391698786615,0.353156401041967,0.352008594243232,0.354310560479992,0.35230113979106,0.356264111231739,0.354932858477673,0.355670604259418,0.350976558408484,0.344073090069629,0.343757651321661,0.344047280616871,0.344891477546057,0.349457503625514,0.337363812785572,0.335537475895925,0.333676735977677,0.332799165502961,0.332609086945341,0.341893806825234,0.334062991315707,0.334583624541286,0.334048948120383,0.334112624358786,0.335380853027685,0.337286397437654,0.337316724283405,0.337518999754598,0.335770891600968,0.347974981348398,0.348262381245032,0.348845101666775,0.348743370018199,0.350940785815933,0.350603803447578,0.344936591117042,0.344437395080774,0.346027957012476,0.353240400900991,0.352701957170504,0.359518851249512,0.370934173035749,0.374867766967561,0.374082101688651,0.374456536739353,0.391804705774712,0.394819907871682,0.393891729993185,0.395203742625212,0.394260043705392,0.390808823918668,0.392215430330864,0.394041782128982,0.768961059727824,0.41627462146763,0.425137295797444,0.426002026107368,0.424239656299155,0.425219071027112,0.423151808169182,0.424835019598564,0.423549618701685,0.422931484870367,0.421965138269936,0.421104253321276,0.401370060283224,0.399112971206278,0.397900118303032,0.37565921068302,0.370446024727807,0.370526483055748,0.369731570680809,0.369234012955716,0.36355574942206,0.364348137158651,0.363391256107695,0.351922086447202,0.347594821719112,0.348244671556279,0.34583404871915,0.339888142793387,0.339656736744112,0.340551885071668,0.336555433913792,0.339263815159991,0.338359638526288,0.335924225093685,0.332370778615044,0.33130556115286,0.32897487516445,0.3355025769247,0.333713893067515,0.334701751227006,0.333905804634877,0.336193061379213,0.336145593956485,0.337050556984389,0.337208303658416,0.344371016444703,0.350627660723465,0.351152929148029,0.351664305193389,0.352659153158159,0.351591769202544,0.351341703702508,0.358541941424349,0.357233433768924,0.372818803611197,0.37288307792602,0.37502914124092,0.374562912770195,0.375575415920116,0.383508875353976,0.382492470258251,0.385373411253359,0.384579849754078,0.384453257140629,0.382184551834016,0.382782034121877
0.749073820605676,0.753840386295164,0.744611047795562,0.75528111772779,0.661859872340988,0.662483802559257,0.662087074442245,0.667662638521628,0.668666512950818,0.899419662815191,0.484689209536601,0.448869456754334,0.448595821329315,0.440221852051951,0.438904426965064,0.441047733910272,0.444144869479857,0.430478120620312,0.443872139019529,0.670621952319389,0.461881461722421,0.412989014790706,0.414382427414397,0.411866655403424,0.40039181236392,0.399255638749019,0.399485955023318,0.399770471980909,0.403218683718729,0.401016822269205,0.400599766808171,0.397737113416438,0.398922243213281,0.397963603118599,0.38917876303815,0.389221138310354,0.387959147994964,0.380368281244762,0.379297507428548,0.374761517361142,0.37605047135556,0.376873793075186,0.369019651897743,0.366660232595772,0.358186775290011,0.356201939696672,0.354480183108161,0.353777857993313,0.352155302407557,0.352776612612454,0.352481087183043,0.353570889387177,0.351658138618321,0.354164223961664,0.35271582008104,0.353677433868469,0.353123024684077,0.352217106316858,0.342986872467467,0.341438221883006,0.341306717298392,0.340292157955055,0.334823292309551,0.3366361819034,0.335817626294166,0.33380128276726,0.332895891659417,0.331777254549684,0.332022720441912,0.33392669170512,0.333498882489717,0.333873201180663,0.320190105845009,0.31952851080307,0.325069031070855,0.325083274525986,0.326787163124441,0.327225991258148,0.348200086714972,0.349074765659907,0.348411541467942,0.351064065910438,0.35023889302278,0.351327911785076,0.34388614254991,0.344750017559273,0.345578172792587,0.346292719459811,0.347253410094079,0.349393510180281,0.372444952839068,0.36959204920692,0.372117373438348,0.374074308189801,0.548448453051144,0.39619903828391,0.394177639213635,0.395366944678653,0.393312778655867,0.392184519731698,0.397341091019153,0.402596601604403,0.839332823352818,0.416909624301054,0.42545721079245,0.425612019914061,0.425890278401718,0.424278208556726,0.425249385072847,0.423636423571073,0.4238662022999,0.42365093046699,0.423347925276947,0.692320459626343,0.367179485635329,0.367591807661128,0.367238441034293,0.375591088291456,0.368699388310768,0.370007547374008,0.369063317245388,0.367739274182793,0.361283618023459,0.360868151329002,0.362881472055385,0.353385232194135,0.348797487896735,0.346553905366716,0.347842269089853,0.342975340766258,0.342205881563282,0.339551426972365,0.341534038992822,0.33824014256839,0.340316782374853,0.338297416527231,0.338666309105207,0.338005209038507,0.336894753087943,0.33512609664607,0.335403886253592,0.334253736199487,0.336590673955448,0.335377809456055,0.337502853345306,0.338160560738766,0.33878443209697,0.342099529867843,0.351485840994271,0.35213382695243,0.352303813867731,0.35237354347703,0.353099248372097,0.359423816798776,0.359982645339024,0.359645176229855,0.3729660970154,0.374540597974161,0.373769257966634,0.375221873239329,0.374564114491329,0.383707746088456,0.384996892661701,0.383706642525877,0.387340562195822,0.384750298333176,0.38264187670171,0.383245666137651
0.754196534805805,0.755143673669614,0.798403978712139,0.662503354071617,0.662836019510522,0.662955289249509,0.662841869772111,0.662873141937581,0.669641544943484,0.647456822735958,0.514077675442689,0.449422517201735,0.450381865938794,0.441594709512586,0.439714984361746,0.437562800077215,0.430837701174255,0.429617063287176,0.428869505087437,0.415605733646668,0.415205823179972,0.415296035597189,0.411064662195955,0.41198218749511,0.399592338966098,0.398942731266631,0.397931358116525,0.399572809674647,0.39952589192494,0.402091580292296,0.39947857316073,0.398289364523071,0.396674618536129,0.391367180337322,0.37771263210169,0.376629353616681,0.378239997851447,0.380385669610612,0.375547397822167,0.374254649979803,0.37514840628321,0.375316641992728,0.370070211615678,0.368272913736934,0.35763516529198,0.354862191326953,0.353541708155481,0.3520670408145,0.35331813234005,0.352162354243299,0.353346049822904,0.352794479929096,0.354591779908475,0.35268383598644,0.353393432339192,0.351980670335145,0.351506486877064,0.351152303475844,0.342440842692946,0.340801527517406,0.340412939648594,0.3308596591781,0.33000107577884,0.330035672684431,0.330604348660111,0.331470476792233,0.33181832691412,0.328813724951361,0.333540558451152,0.332975796757606,0.333180165081309,0.316229299194851,0.317290333647392,0.32294473725107,0.323787776029652,0.324541454021951,0.325255233165083,0.325721745040962,0.342647078042796,0.343605160508148,0.345922675103566,0.344311714304336,0.350942463301268,0.350761792349763,0.342780053348934,0.344144482929732,0.344946645325318,0.345898341467423,0.34596845990249,0.350528907830526,0.373253463398444,0.371815739360543,0.371099307969359,0.369405473759784,0.368749299713101,0.397421576958712,0.395545043958202,0.395059560053482,0.394877760157997,0.393929857916187,0.398920914537863,0.845598013935809,0.417117942984124,0.418831757515865,0.426359518808436,0.426347663669553,0.425738902467339,0.426506830086322,0.42440346671319,0.424487761251444,0.423159169658117,0.423782006360046,1.01468510687861,0.402963977851467,0.368738318138345,0.368770627845266,0.368379438100844,0.378187263613022,0.36917150253789,0.369223111398268,0.367551367918711,0.366698107163511,0.360480409065562,0.360929504598613,0.356083852133534,0.355349250897481,0.348483273794682,0.349489854894586,0.346673408836499,0.346502970070105,0.342981535821092,0.342496835109323,0.339608779690529,0.342706364504483,0.340469857363962,0.340304911146231,0.339555139639537,0.3395778430704,0.337365336131805,0.336900998657101,0.336338692728979,0.33646658350878,0.337175800777343,0.339767512000489,0.337613588489011,0.340920204238474,0.343892139055093,0.344008410932391,0.350427112337843,0.351463802261829,0.352512327274191,0.353191069188331,0.353880136637603,0.359829881812519,0.360953165170946,0.361131288824067,0.362067147964628,0.374767649538134,0.374805556048301,0.374302621943635,0.374516742638154,0.373634302631871,0.384690646306403,0.386360175250667,0.386554491635986,0.386325253667752,0.38660198610698,0.386723948683903
0.75173244642555,0.752960980031753,0.704024071959216,0.66361770490774,0.663787402735219,0.66380792567256,0.663873936150387,0.664897839703682,0.668813432968689,0.634089330705052,0.543151080885217,0.499387651588329,0.452548605683921,0.444779130660096,0.440068687925264,0.435604398813364,0.430583043651995,0.430632552611192,0.424032231784795,0.415659121150075,0.415327676548358,0.414568424343333,0.413800056531467,0.410589431117532,0.39845500442942,0.398201730824976,0.398245275609944,0.398462175193028,0.399403415300839,0.39965178783644,0.398826010093715,0.396712894639285,0.395176166339752,0.392433294148973,0.37686245208886,0.376274253835869,0.377095885188621,0.377232732616379,0.37652981735615,0.374999733066499,0.374951551697832,0.374255836010505,0.372793006781882,0.367091670156822,0.355110847334826,0.353581601162763,0.352435792324372,0.352572939930478,0.352349697802658,0.353387072199492,0.353395658984631,0.354461109334058,0.354733691897986,0.354989965252909,0.352919377817362,0.35001424399401,0.346877898530945,0.343151018849184,0.341307201708142,0.341389139987843,0.336263307017262,0.332176538083865,0.330634635844873,0.330238372289933,0.329920502602823,0.330426188028532,0.330358682886665,0.330723235923459,0.331293705748125,0.332691348928354,0.333414420646064,0.325158180618539,0.31886220600566,0.321456733202937,0.3240546855115,0.324383721989449,0.325477300624762,0.326173414221097,0.342857230264667,0.344256581070133,0.346416443755329,0.348104353966717,0.349278614087177,0.346415729573404,0.34420566683916,0.344629117944711,0.345364821920306,0.346160922645502,0.347273876007551,0.350270394064487,0.373540870467195,0.372242207532991,0.371830471564043,0.371778296515808,0.373599625218474,0.398843778098953,0.397120029698384,0.396260745283524,0.395405832042787,0.395114204393718,0.402689191765379,0.419142120332073,0.419019103019799,0.419061982363195,0.427026415917992,0.426674051897523,0.426715587579066,0.426501534062451,0.425667795791689,0.424098028339544,0.421100107353933,0.419107703919267,0.412802710386137,0.388707628729268,0.37038739983623,0.370123368929148,0.370067585677763,0.369669906148546,0.369888845437221,0.368216820244053,0.366638467775878,0.364112864418746,0.36182209326917,0.359243989177007,0.357183652918433,0.354394948404554,0.351463266179118,0.349005073433406,0.348132307588854,0.345373740480944,0.344212256521184,0.342426915279381,0.342404169854717,0.341692253029772,0.341861412542365,0.340664135144305,0.340167928319439,0.339497592213199,0.338522059856969,0.338072918563363,0.33812073178939,0.338226788504798,0.340103855044317,0.34127601134624,0.343009629574862,0.343788566820673,0.344871662229112,0.344846123928384,0.351778289593519,0.352330588118294,0.353397779346441,0.354513856293047,0.35608460486737,0.35897840351193,0.360419752488043,0.36150670356126,0.362134943098058,0.369915070682863,0.371644479612229,0.373854257594233,0.375909301342879,0.380409852185719,0.386067122697301,0.385990798698875,0.386551184058542,0.386423502703598,0.386658236143699,0.386387910126477
0.748578382581114,0.762071752993886,0.00414517251385377,0.6645392853067,0.664755366222009,0.664264884837715,0.664204611252486,0.663242807642834,0.671185340083133,0.611407169653691,0.572533390240177,0.651152468509458,0.452890503017162,0.447171192800194,0.439569728617866,0.433212602983787,0.431523009485203,0.43062194367362,0.419753725331178,0.415610681951876,0.415704232359858,0.41492665802742,0.412882598907759,0.406505086332762,0.399509830384659,0.398488357112455,0.398433597141585,0.397204071236069,0.400031585304198,0.399850406805266,0.398341294282515,0.395012730829546,0.394011566573271,0.391498129090536,0.37678281253633,0.376800408091099,0.377229364978645,0.377664289911021,0.377276801019995,0.375380064619382,0.374066707916907,0.373564264910212,0.373497314420867,0.36725995325173,0.354090042979886,0.352801966716293,0.352231090005314,0.352579334844804,0.352770701870082,0.353810777520382,0.352827405974203,0.35466149499372,0.356856866081882,0.357404033078053,0.353264801280736,0.347347661545899,0.344550067142078,0.341844945815866,0.341173663638588,0.340469978783594,0.334613738223582,0.33233710768449,0.331124299456482,0.330112353885078,0.330120209263571,0.329247784802538,0.330290423957694,0.329240741301259,0.331145312570912,0.330645290105831,0.332266286626264,0.331634860515878,0.318661558721627,0.317970124720974,0.326365473726193,0.324554647561097,0.326028321896185,0.325910495334467,0.343120745147089,0.344173375048257,0.346116495780083,0.351000378013934,0.351038846726527,0.343079258511244,0.343246857292283,0.344727495513514,0.346484005554716,0.346438230384624,0.346647759011136,0.35057225621595,0.373780173089623,0.371776848045618,0.371669322023416,0.37099980102218,0.379964119876988,0.399233064862342,0.396766088145377,0.39569516526224,0.395169127485452,0.394897669470744,0.409596084091864,0.417593554100378,0.419554629585285,0.419388795099666,0.426647740868789,0.427203613187191,0.427710265907379,0.4270894188043,0.426957193367963,0.425127883362812,0.417925947710367,0.41701591549948,0.40435685196475,0.372374293986859,0.371261127562239,0.37085094619132,0.369490001227636,0.370754008573545,0.36944858940692,0.369076535969257,0.365312372962071,0.364323346131593,0.359345376156812,0.361167942414403,0.357643839569631,0.354126388232842,0.351143302352526,0.351723665031676,0.346866081327414,0.346358164102689,0.344129856561565,0.343748622405728,0.341898447817309,0.343552651414258,0.342202014360926,0.341082405511524,0.340704879574555,0.339455221779398,0.339306544713511,0.338781898253881,0.339360108715931,0.339905558629405,0.341549718375084,0.343918771501479,0.346595411931227,0.345790725796013,0.346575379589284,0.345548390807502,0.352632741141526,0.3526556248172,0.354569462629481,0.355051621727554,0.358402488770704,0.358419039930375,0.359914160392989,0.363688834316327,0.366350864596176,0.367155872092754,0.368169843085361,0.373074797410606,0.375301968658566,0.383945935239333,0.385774923678033,0.386321877803213,0.386702991707379,0.386789815809746,0.386866469859523,0.387557437657623
0.746402477116351,0.745057511781648,0.744942180814413,0.664047395156715,0.664041303432251,0.664079020633667,0.664043348595491,0.00400528522365269,0.654709195145518,0.650574063554225,0.505220885173679,0.455751474867925,0.455260241418474,0.448317654755494,0.683190762093183,0.433409286441227,0.431541105713027,0.430370377272077,0.421667061636301,0.41651012360594,0.416134369374518,0.416334246358419,0.404327082633237,0.40304024613648,0.401852719204326,0.398875546869828,0.397810001543093,0.396828537388671,0.39441005542521,0.395159023345271,0.3927156815047,0.385363136692764,0.385250765970262,0.385167718496366,0.379309666802182,0.377481793834243,0.378663684404971,0.376812358016992,0.373598753991626,0.373550087674206,0.373212981657759,0.372647345978518,0.373180637060988,0.353907671433447,0.353072973977195,0.352448378506236,0.34938291619095,0.347886697424672,0.346640364606973,0.346305659523416,0.349134668840126,0.356244031761957,0.356040868403156,0.356235929708254,0.346870083291108,0.346695868709018,0.346997445563958,0.340829771843377,0.340727167697318,0.330412393040947,0.330867266760928,0.330580176518177,0.330180323663247,0.331894630113077,0.325093032280649,0.328321426565611,0.327879735302783,0.328959631363049,0.326963652137903,0.331654365798108,0.330244588723133,0.318441522788825,0.317982474886343,0.318708721117202,0.319706214626659,0.322318297643939,0.325069422098561,0.327653152731234,0.340782931839635,0.346065629326521,0.346977940400246,0.34957980865324,0.350062656565364,0.344078252062667,0.343446228919731,0.345302077949715,0.346704992731073,0.346999028450541,0.346814202438174,0.376904175598697,0.376822263984362,0.376265923173396,0.374775519427301,0.374116918254188,0.376497198446221,0.399343813928005,0.39728261543744,0.394978002072126,0.404576341196478,0.83810279686757,0.419915032707957,0.419871137535208,0.420594604460021,0.421517154601221,0.427928081944874,0.427940681316565,0.427298728617948,0.428593237931029,0.425945423878304,0.425383181011099,0.416885066701624,0.415809888784571,0.415260061042515,0.372100417559854,0.372121753000425,0.370412259595179,0.371426593754941,0.36780113267175,0.369578726283813,0.364953592995917,0.364805128500825,0.360218589143977,0.363280477826858,0.359219027082808,0.354486586938821,0.35380882479392,0.354406292106096,0.352743748212315,0.347818357671741,0.344578304294599,0.345464258234388,0.344131853211175,0.344774218028504,0.341645248256156,0.343156028978107,0.340337662004864,0.337113508184828,0.338928834689663,0.33832649018249,0.340563368717274,0.340794081873976,0.340888904929288,0.344327913429727,0.345260900019737,0.347834277462964,0.3474973692499,0.347348427954263,0.347726250700847,0.353251564655086,0.355098614227446,0.355065156123538,0.356950942641712,0.356515885016042,0.358491425943317,0.360065856628086,0.36464868717542,0.36774445359927,0.36879089039477,0.368358055968815,0.374520300254967,0.37630729405688,0.3852549596703,0.386182202203599,0.387228972531259,0.386482393739338,0.386885463756656,0.387340872418706,0.386981333577331
0.746461028243005,0.746529384788668,0.00426213943729431,0.66249595889055,0.662679322169475,0.663356921725421,0.821269605903157,0.535732134173896,0.510855162620698,0.45776973177497,0.457085962129876,0.456750022362564,0.455920397785653,0.669649797440461,0.685371885623657,0.422043284961975,0.421658861125729,0.407632426018206,0.41474427177133,0.416255015151519,0.415577079409637,0.415410622675799,0.40342437448353,0.402027616279876,0.400056828627983,0.399101865637729,0.392054501897847,0.393880447422908,0.395437636312075,0.393724124634134,0.389694147067755,0.386248649827991,0.385540463559578,0.37750986288072,0.377904577426129,0.376931376665546,0.376006717467805,0.377685895743232,0.371581643263071,0.372490007029649,0.371289397459373,0.371381720324388,0.357572231900174,0.354696272047028,0.343092567786602,0.343692824830372,0.347471257325961,0.346045523874648,0.346010318905054,0.345552767671176,0.34736220101741,0.355325049811043,0.351304168411752,0.336914237294027,0.335619064064425,0.334244582256748,0.331574143561982,0.339831004902356,0.339273520331908,0.322304572972055,0.32157972815302,0.322622736237882,0.322255393213269,0.322413828755807,0.325135677987176,0.327340086876023,0.326810085684796,0.324613884226395,0.326499967049184,0.324617713302096,0.326974332997405,0.325038227838462,0.317884159889433,0.317224134878537,0.317497212773357,0.319713095013125,0.325457363236236,0.326299743397095,0.335582747686265,0.343103148430294,0.345199717506676,0.34946217575367,0.349522918485897,0.342937927926478,0.343663646857597,0.345354793314169,0.347423846484423,0.347613735203451,0.348499460820401,0.377208069596183,0.377173584744316,0.377277095063432,0.373756479500348,0.37445636124493,0.376581568533513,0.398959727211902,0.397048326737087,0.395256212771913,0.40989690265712,0.416412486994728,0.419037636102268,0.418203012368005,0.421885977114452,0.421139897733051,0.428099854658634,0.427569243145784,0.428100427247217,0.42671667743823,0.426221009248024,0.423809692671222,0.410532479697598,0.00416295177842858,0.365589348561598,0.36753642497725,0.366477580638117,0.368442818582953,0.36790643497676,0.369446812067347,0.366088956395466,0.366550965573502,0.363830584121577,0.363946596484001,0.35954520500723,0.3610668099801,0.353518626717992,0.354615107503729,0.354351556707065,0.35570525174729,0.347206373560576,0.348084951041821,0.345289024052796,0.345076888508064,0.342433452300549,0.343431761963969,0.341645259728953,0.340281584523956,0.338250412610477,0.337591994388226,0.339459332129561,0.340858582037806,0.342463974222726,0.34428679106415,0.345328881728303,0.347490926211857,0.347740606757774,0.348265596080298,0.347895990544376,0.347553155691851,0.355623829131906,0.355149681571292,0.356557536537827,0.355670034325296,0.357600582589511,0.356596861303745,0.363596444377896,0.365366456167537,0.368176130195422,0.367157952805836,0.368616658185755,0.375259777322765,0.377212080002289,0.386307741869271,0.38691980375862,0.385679993825071,0.387187926556942,0.38697610237451,0.387227647205669,0.387749708132896
0.747297880285464,0.915442880882489,0.751306937946605,0.00340213257628201,0.659080580558364,0.54177260742123,0.00446147357496642,0.571658200311687,0.00419122327464,0.457954874879476,0.457539229783636,0.457080326338694,0.45665931787978,0.608414748650522,0.687516218258976,0.418241863940889,0.404317083891068,0.405018126815353,0.409522025138885,0.400518273653412,0.399725192101575,0.39854577722542,0.39831121532349,0.400963068941047,0.401307605182683,0.396113508176296,0.393929738369057,0.394188493187447,0.393037178950641,0.393545382862355,0.382692869668385,0.376551844702879,0.37775148403162,0.377154243019359,0.373378309006302,0.375367474721385,0.374935443663784,0.371030429878523,0.371476816276119,0.370546028138928,0.370192981923912,0.370252017485312,0.357464820675766,0.342301994272125,0.341826793300055,0.342792513482745,0.344446392563903,0.344516192170573,0.343781683397718,0.343997710306243,0.342390968571852,0.342777363499877,0.341202036892287,0.337284809225433,0.336765276263921,0.335222639453138,0.333779008735286,0.33162171000922,0.322978915003678,0.323445612117648,0.322093150419515,0.32313962929386,0.322458417065588,0.323275625874128,0.315221684094623,0.314608187457926,0.315718444348749,0.324384127446789,0.32376362509952,0.325265288043398,0.325394220098997,0.32395008820158,0.316831514251612,0.31745274862031,0.315610576678659,0.313078115460722,0.313273542966094,0.312785997061129,0.328085845421913,0.327779737932676,0.335928192902148,0.336863577503001,0.336535331536397,0.344561872519913,0.345530348685505,0.346360904742249,0.346936626868707,0.347431632594149,0.37644926931213,0.377564820581933,0.378052155967555,0.377621612177159,0.379330524346089,0.380858850708468,0.406239875780646,0.402948380907911,0.39798935525721,0.408074013881454,0.416683804822669,0.417798955550798,0.419471483533474,0.420125396216988,0.420806242588046,0.421055543510542,0.426534782702941,0.426866375674112,0.42614281225936,0.426156542544729,0.424942613806538,0.406987771682957,0.398388969208669,0.363271299373485,0.363511325963927,0.362742642725859,0.367087073574046,0.367153401937047,0.368498680330688,0.367170339113588,0.367252273989627,0.365159406770447,0.364976441353602,0.362529314359362,0.36291781587404,0.360823273193305,0.354971091887018,0.354736607954671,0.355678037014329,0.347951473668529,0.348972072092054,0.346627522226918,0.346249387724331,0.343543708162484,0.343858529054987,0.342165363533317,0.34211867860957,0.340714978295166,0.338678923243999,0.339458524317568,0.339266273436902,0.342404597073802,0.343679706586609,0.345048439524754,0.346994289811566,0.347540859069338,0.348216417558717,0.350080841494187,0.352563401757621,0.354477359206261,0.354306880746259,0.35780885285531,0.356866306763025,0.35772027387104,0.357830607801811,0.357321087616879,0.365653749230142,0.366825387811811,0.36698008386535,0.368987638087655,0.367121931881365,0.367350864857298,0.377654574736864,0.386925659446077,0.386179215468888,0.385406821851112,0.385541137979923,0.38700919994094,0.387898092646307,0.389486483212299
0.675665664069679,0.675776088555835,0.685627831548664,0.680195476234525,0.671541329758348,0.542035130427069,0.0637175964053168,0.0933456407903419,0.0634518835237348,0.459293189691362,0.458475640691651,0.457708984848143,0.48919540852527,0.503094438707481,0.467247165227586,0.41643386623381,0.404561865175666,0.404175950118908,0.402411940851934,0.400753766890517,0.399575597937402,0.398610233575607,0.39843686065913,0.399652809876404,0.398128585699712,0.396571350801647,0.394814771544428,0.393618007122876,0.393337590570651,0.384193342516706,0.38060470533011,0.377405636104268,0.378707109065449,0.378441075947659,0.376221487401297,0.375846678258225,0.375490455115161,0.369403850429445,0.363847335674533,0.358838974123557,0.354799827064726,0.350624537316945,0.345686479578434,0.340730006198328,0.340511498753479,0.340954720623307,0.341164616329508,0.341549157356521,0.342988595208107,0.342660301085586,0.342517046948085,0.342250881097593,0.33954022257148,0.3374809097776,0.336547855113638,0.335805509973615,0.335076558080484,0.327393302578534,0.323211887173078,0.322701755866345,0.321596895523908,0.321040620144733,0.320768574707651,0.319814828310425,0.317450570155802,0.316464786614615,0.317732188424545,0.321003675629057,0.324227895264983,0.324775185776903,0.325543145330551,0.325642064090029,0.315308006207998,0.316091120072067,0.315924525763896,0.314224301137856,0.313409187563832,0.32204853230946,0.328656031149311,0.327831175077929,0.337003862959702,0.337350588969175,0.338593442542016,0.340097709095787,0.346978490945381,0.346718791482929,0.347630684570008,0.348104629685953,0.360903673910395,0.37856224340612,0.378922930053828,0.379667438618216,0.380293375944894,0.380917763945437,0.407170413833482,0.408424661426718,0.40858388712966,0.408918510226519,0.418717357612891,0.419546979287703,0.420948650094577,0.421439153071359,0.42295687223824,0.423181844959819,0.425327041893034,0.426271950418238,0.426689161021213,0.426254088599528,0.426005546776691,0.416890714688246,0.383630622193766,0.364062400550463,0.36421025234056,0.365016336378341,0.365669949593793,0.366641690740059,0.366600033643707,0.366535979319939,0.365232077161155,0.365390128651398,0.364700262864848,0.364907096193619,0.363498803769627,0.363739059063279,0.35363307351795,0.35418993973113,0.35328510373238,0.350759255672559,0.348675373790335,0.348474957800393,0.346676663559642,0.345480580196559,0.343876831800446,0.343741623430485,0.342625227415123,0.3419825054897,0.34108599897781,0.341199815491859,0.342596636845522,0.343983114636585,0.3450489849745,0.345959258113857,0.347124706614941,0.34784465838286,0.348879837790215,0.351096789489625,0.353586532050599,0.354449775885321,0.356523160929174,0.356977195839815,0.358326527551624,0.358653404036721,0.360953242131068,0.362879311200892,0.368099834505421,0.367808077420908,0.36871739069246,0.368239819149999,0.368236654541762,0.367706403135729,0.378952483902066,0.386807159144089,0.386916130783863,0.386060940488655,0.386590732235974,0.387515871213932,0.389202463894561,0.390630926248122
0.0637720479329285,0.004514007786294,1.14369634803367,0.710311113778544,0.757764312410476,0.542035130423387,0.00420488417849408,0.555173872887931,0.00404596659174758,0.461449755770251,0.459333658996229,0.457884603934909,0.739036809059871,0.517739101659655,0.408044686989494,0.406347443025236,0.404133908429027,0.405389061562126,0.402877818710496,0.401104498175183,0.39914816976681,0.3984209417395,0.398236004610902,0.40038310308612,0.395412291808809,0.39566693908993,0.393560200469642,0.391994895351779,0.392413457283899,0.374131366633569,0.368027496561805,0.365468962019783,0.365437035794549,0.364948912183603,0.374811288388307,0.37487032871737,0.373894897700474,0.358211266524297,0.35728975279426,0.343506892336963,0.342822336667525,0.342954859814823,0.341506505659027,0.340459031192194,0.339943526617788,0.339180253623876,0.33902818970315,0.338850974893227,0.337058569323065,0.343515329151435,0.342549131815216,0.34271009925594,0.337229046349644,0.335840187276764,0.335589530786299,0.335952739510021,0.335105335392869,0.318998923965003,0.318983586658685,0.322474800992309,0.320511946033221,0.320002377027454,0.317961397054273,0.319044611980415,0.317659900459695,0.3174966196885,0.317292199514229,0.318439944930026,0.325724593749327,0.32531376150724,0.325134856677473,0.325314775326211,0.31228595002863,0.307700014570172,0.307546721036975,0.306332209778425,0.30660347398779,0.329218752192682,0.329911809424347,0.328525345121152,0.337633304250723,0.337996586762309,0.338651575892311,0.338614088228874,0.347370919287471,0.347155127384758,0.347972667902765,0.348210243918815,0.346603731251998,0.379587832955847,0.379651722730996,0.38066834927426,0.380892155715087,0.380664033912845,0.406909242486249,0.408494648185044,0.408365652502516,0.409926362236129,0.418265873268484,0.420452961402718,0.421707428702642,0.421934221593464,0.423772545882959,0.425561827168439,0.424062926549224,0.426356101603119,0.426782081895202,0.427070845387664,0.426885631931021,0.510719422397098,0.371714563268887,0.363940678861689,0.365243437855138,0.363844854508331,0.366694357061565,0.365587241113319,0.367462164296478,0.36337337636438,0.365619994806091,0.363467468473639,0.365251323698407,0.366188614767708,0.365644729136539,0.364110673927849,0.354225423920489,0.353604821839349,0.355025660640879,0.34963138025552,0.351865409455152,0.347837306869034,0.348167443245963,0.345651516759729,0.344846604138832,0.344164214897158,0.344007320001696,0.343153044228582,0.342124627696624,0.341486472211292,0.346024416772552,0.346157098980067,0.346383053804738,0.347040472310135,0.34695473889437,0.348574145099336,0.347274680171128,0.353808299709678,0.35404964807883,0.357075518478381,0.355395109056237,0.359200202853138,0.358914940023737,0.360968647919835,0.360712633402033,0.364841580816301,0.368785158429159,0.369763536503908,0.369605962803079,0.371238302731423,0.367722890829291,0.36825910482211,0.380546605208898,0.387615619680488,0.386498973254121,0.386834587712566,0.385792983757279,0.388078124114661,0.390256761724562,0.391611687530821
0.601989926936605,0.602772204462791,0.602850590136923,0.00393249707885259,0.628625721732704,0.541772607412344,0.668362363748278,0.660628756983476,0.539838264281207,0.475312811208788,0.441145593013732,0.00418972568892333,0.736249844818611,0.621514945013604,0.406607250146802,0.405804183830064,0.40331888405286,0.401898145209282,0.404758115586094,0.398415352930935,0.398466252500383,0.397968557620246,0.398240237248171,0.399066220043377,0.385434917742045,0.38426111525361,0.385165582845967,0.384849440678795,0.383335885465674,0.366399018836466,0.366199454700904,0.365936524907955,0.364508684198478,0.366504724087271,0.365511737592077,0.364841633380959,0.350238924000708,0.34979503601362,0.339416138941067,0.339141158116923,0.341317831654844,0.341397024071988,0.342120400506494,0.341697153242411,0.334629483771111,0.338190032634745,0.338834526335512,0.337766878004126,0.329123432721233,0.327687270235627,0.328804939663269,0.329897415179521,0.331902454819747,0.335910116431467,0.336111604720672,0.336347363294962,0.335565931538949,0.317985688125204,0.318008985888727,0.319008099684158,0.319328184602522,0.319388426870485,0.319332339535854,0.317162808508793,0.319007432793761,0.317352852047599,0.317330365393223,0.317866218994133,0.326081379110106,0.325854342974501,0.324817562951506,0.324175585538213,0.311442453603748,0.309575045468692,0.308190928651726,0.306849187118317,0.307139389263703,0.330372292972801,0.329745639006923,0.33760664188721,0.337948899896751,0.336429238370823,0.338823996882317,0.33809684203624,0.346453989865854,0.346599577968504,0.348154256344935,0.348035283693856,0.556172873272906,0.380473907041399,0.379362605704449,0.379948937238836,0.380139377027732,0.380619064680636,0.627539064736605,0.410111185993219,0.410171928077025,0.410407445307521,0.416599427074239,0.417540801143094,0.423885445877754,0.427253873248705,0.428852556526093,0.426321408677178,0.428034262196057,0.426935796353607,0.427909965131978,0.381664163786641,0.382972069612517,0.358437474358945,0.358651393067272,0.358455377757841,0.358232381527941,0.366683943898137,0.364702336969361,0.365050020279507,0.362714961987741,0.365090696393993,0.361369215968513,0.364821621283087,0.36395130646493,0.366359636155687,0.365833748555782,0.351561983119585,0.351562310616111,0.35306409139896,0.350555052014176,0.355052323455738,0.349457797336463,0.352630205853688,0.34911658480468,0.348749138371312,0.345889016624583,0.346363338718285,0.344965770058562,0.345277530312412,0.345148390302871,0.345498719840006,0.346171192352261,0.348130652777507,0.347715720659447,0.347311172238092,0.348586717874189,0.348708379095608,0.349456066631241,0.354467406881997,0.357648986378011,0.355305838095012,0.360843821364846,0.358327173806774,0.361451041678105,0.360409251768523,0.365236972237939,0.363425625260547,0.371704463170959,0.370089094451266,0.372657896058826,0.36700083200044,0.369108005599464,0.367845530533186,0.380341744451022,0.387896029805465,0.387946207773839,0.386146240880855,0.387108907577999,0.389234167060224,0.392324901093167,0.393752320858732
0.601461129785376,0.602653846822028,0.602515622172661,0.601988145221862,0.011533032361582,0.0635273123842554,0.00434215657649649,0.454767364551506,0.0039745653041185,0.00392608258666882,0.432223233023969,0.467726137777685,0.530394363828024,0.399547413146627,0.398016169319873,0.398549861830355,0.39944871386701,0.4022999722436,0.401200533771986,0.399518560705821,0.39795496262844,0.397869963959875,0.397288784790122,0.387520254789995,0.385626962431175,0.383904092747753,0.384402415786294,0.374603576246811,0.364854512234139,0.365040277934571,0.365517652825147,0.364529717718558,0.366636672840276,0.364241932399343,0.364583702959649,0.364147601975908,0.351767145177686,0.35044658377792,0.349843085498743,0.340806681465293,0.3407222191559,0.340387661713994,0.333614814831539,0.33263871132206,0.331141585535214,0.329281063952069,0.329723902830204,0.327244253608397,0.325192013131244,0.328195058566147,0.32788721966902,0.329416284301121,0.333183102698854,0.331404894090244,0.324815252648343,0.324206521888852,0.324145955706262,0.318514971165897,0.316281359048449,0.316198355563056,0.317298753745832,0.318313725920974,0.317625692578837,0.320280136585465,0.317597215904811,0.31736999013003,0.315539190654546,0.316876549380075,0.316219220872388,0.325155564160101,0.324638622525595,0.323567251767805,0.303789358610164,0.304059898856693,0.304129027367397,0.305398855695519,0.307058550723478,0.328875835868361,0.327217588890572,0.326285056119469,0.337938447330787,0.337391252765125,0.335882609151189,0.336917911437155,0.344192606504269,0.344950427603525,0.34535125420683,0.346878243214467,0.372316122565696,0.373617342780863,0.377474965481627,0.38120332634458,0.380725072859452,0.380238258438356,0.409955746388445,0.411163690577352,0.410711587321382,0.412455292080458,0.413060706448082,0.417989145642119,0.426219712224051,0.427950695379202,0.427761196804355,0.430296647163681,0.429546408072277,0.420599569909777,0.380957849699673,0.380722562025146,0.360778620245503,0.360700268845442,0.360117176614128,0.358592397563633,0.360905868466246,0.357657916188239,0.366817321319989,0.363149358620173,0.364216896292627,0.361668809583208,0.363658913290272,0.360688534605806,0.361704253892168,0.361272881142972,0.364955268233445,0.350915741888531,0.352359454949023,0.351852211867479,0.354082757067873,0.35013913750072,0.35529106892122,0.350538574361457,0.351374384344898,0.349485590647219,0.348720442043333,0.345712347703767,0.346840513368746,0.346539918749378,0.347408888182689,0.345905158767312,0.348055831643434,0.347561744376054,0.34859081372182,0.349573380431761,0.34872174371325,0.352152552732627,0.355128977120459,0.35679346700124,0.357223079349115,0.360825326453314,0.357688350380587,0.363032684113882,0.361781314800697,0.36467664385095,0.363591523438952,0.371993073478013,0.370028440180082,0.371572080011492,0.371385451474073,0.369095946865464,0.367359886805434,0.36852994662872,0.378845192031622,0.385999629400268,0.385362788917934,0.388014916555286,0.388678767947536,0.389413248766358,0.400635175438953,0.402343263611823
0.600673926028309,0.601081761917799,0.00430246436172138,0.00434250869052742,0.00438189582586565,0.0931113777761661,0.605988485972271,0.67793088137969,0.878985882072505,0.454179162990465,0.425270292702001,0.00434338346242122,0.467276746411279,0.38828239639714,0.398097310291275,0.39885734264924,0.399655134042381,0.399570706566566,0.390807219912261,0.398197832417245,0.397027253319916,0.396852956583648,0.371545611803022,0.371330709811365,0.369072442955992,0.369906324619435,0.369990332317351,0.374509476781416,0.366143870489441,0.365485375122675,0.365147719228759,0.365636585007576,0.364060748553932,0.364938823425855,0.362048182153544,0.363339408241784,0.352654441235234,0.352374163488577,0.342064063761372,0.341828512882139,0.338817453551966,0.331806399205144,0.331729152688398,0.333201735910005,0.329942716626918,0.328956871447192,0.32776434257494,0.325919966233161,0.323590122468482,0.322783421362141,0.326262900564305,0.328418698254732,0.328553119061332,0.329041185490503,0.326793251089723,0.325206063260578,0.324250410160942,0.316027635569713,0.315111038892384,0.31503360698044,0.31592783861461,0.315477695294689,0.318548800901957,0.31882080783956,0.318906679928504,0.317115283513572,0.316140933074296,0.316817896286294,0.316643537951581,0.324677589508444,0.325143489206255,0.323363105153204,0.303693675178805,0.303822702660206,0.303551223579871,0.304223648445684,0.303613551959801,0.325856622257143,0.326656395653939,0.337169336479333,0.338103170638697,0.337321831231545,0.338498713154673,0.337738320419993,0.343664154151734,0.343540214604589,0.343314626607226,0.348342940672828,0.372572240414095,0.374078109402692,0.375486176366002,0.375642077599745,0.379405184319134,0.38099653499766,0.662345070313235,0.412169145306224,0.411085286060144,0.411250205590618,0.422883308266682,0.424243692537277,0.426428493177198,0.428625578202965,0.430992441662396,0.429611891468295,0.430105657049138,0.412955441152919,0.378842515247664,0.379702488009991,0.379737158880693,0.360586234791423,0.360445023926266,0.362500326184273,0.36001520925404,0.360639026076543,0.359183219729658,0.361311580711302,0.360099164771747,0.362283941662798,0.360576176692164,0.361377927159085,0.35934056692066,0.357598420297477,0.358201682760098,0.351678301784353,0.35105381928897,0.352370280972073,0.350941782087782,0.354889130484946,0.352500072706126,0.354242035406938,0.352074148235271,0.352194460489403,0.350197444625303,0.349634779497195,0.348618227421594,0.348302673141898,0.34789677917855,0.348388318136151,0.348020930686731,0.349404808221159,0.34949063193097,0.349669322511635,0.348628715565292,0.358980479868816,0.358005679356084,0.358229290481976,0.360370400129083,0.358421962335344,0.361669778090064,0.361178139754072,0.363571786265818,0.36437722295101,0.371511862988385,0.370648321699592,0.373230419668901,0.370629606565342,0.370066783188303,0.368255062241871,0.375401997430772,0.375749957088584,0.378257401080998,0.384313713951036,0.385226070388909,0.389077383049296,0.393489430237974,0.391839530144733,0.392410863630243,0.412371339446689
0.600066125606844,0.600518060036043,0.0046176681280936,0.00467722409716926,0.064921934717643,0.122715349815886,0.450793784124619,0.483979352165354,0.454679167967457,0.425723841375367,0.416381412718154,0.40847119353003,0.397389390438819,0.391669827481641,0.39443805570985,0.397280659894918,0.397394686192118,0.395498823163951,0.389183523646831,0.388088917661528,0.385869007053637,0.382419902386831,0.371979641386612,0.370902433542008,0.369835109783281,0.369245703632738,0.368360192598665,0.365759477600571,0.365532419140112,0.365453029349377,0.365612015612236,0.365540852942447,0.365004495071001,0.363006636790401,0.360616690787952,0.359456399562662,0.355086303352448,0.353187226619268,0.342333330954293,0.338013273119584,0.33587756173786,0.332463658551761,0.331573775030239,0.330420546743425,0.329357655422811,0.328021341283659,0.327080589336942,0.325280566571738,0.323737168110868,0.324175185530189,0.325499459511902,0.326966165415412,0.327896066276874,0.327678981476855,0.32679050468857,0.32565720734922,0.325532933546646,0.3152780788213,0.314811405174871,0.315108141308857,0.31564306882004,0.316162946878836,0.317281439556853,0.31809491444167,0.317676597693503,0.317349365194079,0.31681966819581,0.317340970959611,0.317334587375644,0.318887886688177,0.321324138654812,0.311112292605547,0.30398524595769,0.303514460423866,0.303582269703676,0.303930570379576,0.304355608197789,0.322019165186204,0.325697192427137,0.33664864319033,0.337849391940542,0.338439190536545,0.338489567261603,0.339864789122524,0.341466038941324,0.342849288006786,0.343014060582599,0.350872836405154,0.371331842626784,0.372423971931812,0.373726796022098,0.375254879465531,0.378511076003701,0.403913184796102,0.413466429882957,0.413181110253471,0.412092305815988,0.41196913997383,0.424390081952654,0.424743855469633,0.428997914328111,0.430660373610116,0.431458126224266,0.4319042252782,0.431571717896232,0.403172984784016,0.378661283584756,0.378729454772403,0.370297801011976,0.360124956260534,0.360520886879252,0.361061799801931,0.359746653339135,0.358490338803683,0.359501664698691,0.359686783027641,0.360509664731057,0.360425213446222,0.360953977075909,0.358993240631298,0.358375784383129,0.356816508206864,0.356043447296867,0.352939043776136,0.352705222899031,0.352358192012746,0.353119235112333,0.353164625161702,0.354651982834619,0.353730984243488,0.353398485792877,0.352737277312168,0.351482930600367,0.350501171143952,0.349647834986182,0.348976215341666,0.348853713578714,0.348154495216514,0.349366550075013,0.349830116905229,0.351010119313783,0.352132604964469,0.355093121880133,0.359255612106951,0.359037957205637,0.359295080986823,0.359891010644846,0.360442771377694,0.360981405326513,0.362531324682,0.363735663605434,0.364376973382045,0.371627599511934,0.372396292762867,0.37194244120554,0.371523635199459,0.370301360906698,0.370663750579997,0.376153186525836,0.376958368303947,0.37798257329968,0.380009248001198,0.385336283546031,0.39223908571937,0.392559885919564,0.392854901013118,0.393771959899571,0.41209989562462
0.599568645323088,0.687585725160113,0.00409744062660136,0.00426751173848577,0.407040755167613,0.406891849930848,0.407197936008497,0.67778295283707,0.413453799894916,0.00388903969820979,0.409325258409673,0.431884381940877,0.383623590965194,0.382473445429963,0.385612888560249,0.392444063710656,0.397451061058253,0.394376168909954,0.381283743389084,0.381123457381152,0.381417593272618,0.380984953027655,0.37195088625776,0.371670058674347,0.369926999082211,0.369572671918987,0.369053677909127,0.366346691435526,0.365162508084279,0.36546672522631,0.365405147389054,0.354096579355436,0.364749126035298,0.354693259988838,0.356662079956335,0.35671788452851,0.354666080838494,0.353143230252347,0.341195858550453,0.331867200418046,0.333058334660774,0.332909829151986,0.330267696291421,0.329946684650629,0.327252819108866,0.326862862020388,0.326636730092522,0.32391742209331,0.322661941975973,0.323651190815998,0.324972987810976,0.326694060693674,0.32664296185924,0.327729557934138,0.325985345158823,0.324380888101333,0.324875907469264,0.310297459799242,0.314505802677938,0.315265920397741,0.315528439703147,0.3162275828192,0.31635932489482,0.318436209459414,0.316607070346885,0.317350447246033,0.317666907645636,0.316853967585679,0.317011949522919,0.317717025545371,0.320393979839747,0.305690459549013,0.304739344422583,0.30366285447567,0.303827271993708,0.303605995526743,0.304209160967012,0.317801188317175,0.326726864041391,0.3317659019037,0.33854022808568,0.337743633936719,0.340388679945791,0.338815887955178,0.341256831254232,0.342518055307659,0.343978157586627,0.35094679533713,0.369521124291727,0.370817970496441,0.371818550407421,0.371660490069318,0.370960227348478,0.747628732943724,0.411273521231828,0.412778691297569,0.41245243283199,0.412943155245048,0.423639070186569,0.423971436518411,0.432046002676923,0.433325150644211,0.434253630764608,0.433614621496794,0.433311678695052,0.393025259693924,0.378595167849671,0.378692573050994,0.35501570386478,0.360748289992147,0.359963548099433,0.363384040636702,0.355968610734974,0.358051970053797,0.357434312282135,0.359044463468032,0.358603727035748,0.362126031142158,0.36173381948157,0.35715530758645,0.35669429559039,0.357313124538691,0.353836262325638,0.354347282417001,0.351831957147544,0.353117073860727,0.352238400007141,0.355201196445412,0.354479396782987,0.355551754889944,0.354303754580182,0.354193698082786,0.352547061945303,0.351099224083295,0.350525251105401,0.349547788050636,0.348560721030232,0.348663202524085,0.348761365783374,0.351705113797662,0.35189162842347,0.353362606763239,0.355300616167302,0.360185907918277,0.359104016662506,0.360404692006493,0.35992503309001,0.361471672951785,0.360579147131073,0.362913612070292,0.364010600926537,0.364235497033342,0.371048116889464,0.373601224020037,0.373939081689158,0.371851797518592,0.370241558428855,0.369788836654754,0.377241135381057,0.377507442185602,0.377939265749968,0.376881932719971,0.385241989146771,0.39282593281286,0.39323861479146,0.393001905435315,0.393551401595433,0.413359241750712
0.00465202252630304,0.00418566829366627,0.413889967150073,0.413520009099732,0.412761374863818,0.407252303933675,0.407661784907141,0.405292302347952,0.392194258847997,0.395448841015082,0.394731394137899,0.394416567652636,0.38457632919359,0.373543009832191,0.374130152998167,0.375848958880933,0.376374410979053,0.379032019599297,0.379800936984611,0.381501460800152,0.381884368914137,0.381402303879399,0.373114980577125,0.370135173912464,0.371691693054714,0.369509906593848,0.369093665808602,0.367560824657251,0.363509610146019,0.363447538636866,0.365097077841223,0.349168854994751,0.351908048785875,0.353783443286119,0.355165452566386,0.355839286254601,0.355670436103187,0.338081460763523,0.339339892836997,0.333331875565611,0.333500006763529,0.331643915316848,0.331780307594551,0.32720113947577,0.326624243641834,0.325673256838695,0.319710786124595,0.321504215694209,0.321931458523497,0.323536043730102,0.324298585525986,0.3242683656336,0.326690688099784,0.326141337838416,0.327841434624443,0.320079330976767,0.31309323243102,0.312391813581783,0.311839617754703,0.315048158749411,0.315141853959677,0.315968332736366,0.31721356123277,0.316898673820791,0.317460531740317,0.317732455100708,0.318935426007802,0.318727929962855,0.321041114886355,0.32139764866246,0.32022983043961,0.31968757712843,0.305831129490252,0.305025195616344,0.304570143484922,0.303170857345791,0.315470643110321,0.316439042042793,0.326768326066448,0.336765530346861,0.33765063602195,0.340075043979286,0.33886787271461,0.341724315914144,0.340229093857513,0.34333910641663,0.345064393569824,0.370622747488679,0.37100648584188,0.370871236341608,0.370990452480152,0.370133922682701,0.369944428409968,0.413123550270041,0.412275013103655,0.413651470540501,0.41201581332829,0.41970447539059,0.424217134290756,0.424710198224801,0.435051048395986,0.434761341458637,0.435099228986049,0.434491363321314,0.434104310944808,0.385092654022974,0.378413487058866,0.356888671575743,0.356297101525824,0.354887698987418,0.357173096847562,0.355867679563516,0.357821507707169,0.355275802919047,0.356747815054593,0.35731170129486,0.360757911190186,0.359412087491682,0.35778502095453,0.354498116270443,0.356131121729992,0.353928593828739,0.355244347040446,0.351896729083296,0.354686616436819,0.353082569923046,0.354793256988094,0.354749534164451,0.35626794945093,0.355811493702725,0.35423716998175,0.35450362989463,0.352047138173006,0.352453859359314,0.35094373276159,0.349504700126297,0.349231854756335,0.347322136622778,0.354068959203289,0.352999776850798,0.354278328966014,0.354017555661687,0.357259215694736,0.360650602241517,0.362440932472827,0.3606779724289,0.362145157463576,0.360206351380988,0.36269431082807,0.362335875443217,0.365440020827396,0.367275700920504,0.373502569114691,0.37529031093862,0.372777434729659,0.372914204719057,0.37284704761002,0.376024240980016,0.376267947294281,0.377375302315638,0.378778972101469,0.380020527402409,0.393756062325899,0.393195980278565,0.393332887273609,0.392717731945463,0.3934733713886,0.425816720680298
0.00467863207313123,0.00426550574117884,0.415159062291577,0.414550507758988,0.413499721984478,0.400316699340639,0.394704017166449,0.394117369816713,0.39278497418166,0.393086446698896,0.393559225511575,0.393030912220794,0.364506399810702,0.374547915852619,0.374851445398698,0.375551088079799,0.375986061256791,0.375939282669291,0.369758062671849,0.370851325477391,0.370257253122366,0.3713473030609,0.372040748810695,0.372963246143399,0.370146381224076,0.369487177581819,0.368936553257119,0.360723667106945,0.362178430760276,0.363088492397452,0.366240485208264,0.349938968088991,0.350433484924009,0.349205831069674,0.342339946993622,0.341773030681803,0.341612207923065,0.340224591284125,0.33728618615881,0.336620151076468,0.333456424247869,0.334184398291656,0.329792347596784,0.330017455809592,0.325997173846555,0.325071814073515,0.323838826477843,0.322100422991303,0.323629350029738,0.322609020061613,0.323956221109304,0.326153301972635,0.326370761292826,0.32829866521286,0.328477452295663,0.316578953578898,0.310987914612249,0.31055060066816,0.312141738729982,0.311458260570806,0.313836460277469,0.315365496610568,0.314765056491293,0.317281030064379,0.317212459530335,0.317753680087682,0.318222736606277,0.324910289814228,0.324074578501093,0.320963379314899,0.320603428618011,0.320885160377811,0.306320120831794,0.306309766755907,0.306482438812947,0.303988042758698,0.31568331367122,0.315549170927524,0.332578743039458,0.33743319862166,0.338391247880669,0.337778883459914,0.342128668966088,0.340170788043456,0.347068352820682,0.345360188352549,0.346697837178461,0.370959237356066,0.37139987718045,0.371307483222945,0.370943209447184,0.370652122172042,0.370898905879156,0.65994619906101,0.417128787464401,0.41643750939312,0.418187564642102,0.420672378798302,0.422101699581632,0.435565075231199,0.435699060580214,0.436235298828709,0.435781330625286,0.434633146307247,0.434023450111845,0.378977320022095,0.357727685587402,0.357167532257605,0.35696725224527,0.356113150221711,0.355994869189286,0.356972327269572,0.355448137934067,0.35753854213267,0.354203088636384,0.35563143955664,0.354693925670332,0.359100845826839,0.357860594402439,0.356672054755899,0.355010903971312,0.3563397846257,0.352072813092314,0.354395545720792,0.353579015992505,0.352833023516357,0.353364300521824,0.355900872853389,0.3564776866215,0.349833515202387,0.352097233197126,0.351274394117898,0.3517762583003,0.351393138931989,0.349313008668771,0.348921531716385,0.348192611665305,0.349012327015234,0.355636601154082,0.356171778131957,0.354736083258615,0.3559783528941,0.360555754948565,0.363033277454889,0.360356763910901,0.362108401524451,0.360773210933181,0.362454478202289,0.359558059843955,0.368761249759738,0.366985942507548,0.36736389675263,0.373202992710299,0.373074541000251,0.374101861619206,0.373146883734682,0.373267950876457,0.37402415485813,0.374040745995377,0.376360164439711,0.380235588067077,0.387027595427131,0.384499694578413,0.393172445018372,0.39283124026314,0.392184900653309,0.393033145753881,0.430277737416588
0.0637556071817174,0.508370774943454,0.397819519207656,0.414056937047405,0.464078854779931,0.397306508132223,0.395656457041549,0.395974052829002,0.382953747373584,0.386846916230206,0.382385247274513,0.365264309891601,0.365208669768925,0.364819197149362,0.373568570522004,0.374158112972548,0.376210886191475,0.376365233732195,0.367933579877041,0.370463414390455,0.370723736598789,0.371597116157289,0.376980376709771,0.375088816745774,0.368871221373136,0.367958833765539,0.368003789513731,0.361927366396623,0.362143737475163,0.363880429431965,0.367822475013744,0.350172864960965,0.349406860680464,0.349597253155193,0.342224712125852,0.341366020912552,0.341272686494156,0.338495788553521,0.337176136100164,0.3346591578552,0.332737634697823,0.328449724133483,0.329631486901565,0.327276524252866,0.327429466940392,0.325654185707501,0.324175567026172,0.324123858939127,0.325300279675876,0.32027010548861,0.323570426458019,0.326131113248059,0.328152411098204,0.327849254313174,0.312456566542473,0.313482412964472,0.312992824204842,0.307978064227749,0.31069714334119,0.312245491984524,0.313503869094453,0.314555675074036,0.315401336047713,0.314618461921232,0.31694000190197,0.317539595657854,0.318089810661274,0.324662223581508,0.32478451035629,0.319277581439823,0.319233650248309,0.308753133640883,0.307799712957209,0.307837849914101,0.306632167929895,0.30617739988792,0.331883729300785,0.332745923205748,0.334006511063533,0.339039263360372,0.338674655660962,0.339309487970929,0.340437503672139,0.342093992934208,0.34693853022427,0.346285530544315,0.346249681855171,0.369946694618877,0.370149164726752,0.370655468964079,0.370360070912947,0.36973163023941,0.668074235991369,0.466344331678009,0.417288224334352,0.417124128026096,0.417589810863343,0.423254097927192,0.423454914643426,0.434713679775462,0.435860683920674,0.436321701533062,0.437198837761065,0.556718029777504,0.360237312288483,0.361009938713702,0.360785956408579,0.359007763387653,0.357290880401126,0.355584672802308,0.356004578435882,0.355056078739161,0.357963790634699,0.354855406361746,0.355694757874975,0.353838216029637,0.354633295651645,0.346808098776754,0.353859859042604,0.354453207151002,0.35495929452151,0.353779644104773,0.354092723580511,0.351179211303143,0.349079416170339,0.349106854627428,0.346824049182885,0.345776153961011,0.345357891450045,0.351861291830166,0.351264701123619,0.351497881643081,0.344009401696863,0.345071292994669,0.347392185304447,0.347855395359954,0.34845624705074,0.347556958424413,0.348401848515858,0.35509350986116,0.355043124040597,0.355475978175453,0.361959958650093,0.359729586669925,0.362709283543695,0.361864901891884,0.364102923047675,0.363255090424484,0.366709253459076,0.366820919384813,0.367875096424117,0.36947949287535,0.371092308491152,0.373959552593399,0.372583971205907,0.373119548430174,0.373624003784504,0.375678167438719,0.374963957073677,0.375369626130889,0.382695121944907,0.386063377612317,0.391916903247116,0.391878084825915,0.392139981192008,0.390814067120369,0.40861955601715,0.428315655087924
0.093364084783695,0.398322400115298,0.398332665838004,0.397853334711194,0.395743410224339,0.392976741828113,0.391448508223612,0.386100110312705,0.382012167764765,0.381782899278936,0.379971734053064,0.364601983121749,0.365077883602484,0.365987634304399,0.368760288737154,0.37228634844991,0.373129930332172,0.371197165498361,0.368994386294063,0.369075839183101,0.37009470785073,0.374301125506983,0.37650156109975,0.377708376494352,0.366457665373414,0.365891854522044,0.365703089899979,0.363284163158682,0.364294251216142,0.365872318775061,0.368386571058282,0.34900233196383,0.349230566168209,0.349567954375413,0.34068167030435,0.340714815315523,0.340598439727503,0.339132507054445,0.337792187844841,0.332741421909117,0.33164726939708,0.329315534958784,0.328042630875505,0.327529038189059,0.327027892998799,0.326275811101294,0.324983822755951,0.323943107532283,0.323287934898796,0.322067560652018,0.323234823428631,0.324985328694747,0.325807611708285,0.326396778279108,0.312973829976007,0.312579981770627,0.312062587740619,0.310381147484291,0.310587548755426,0.311898405146359,0.31327100902295,0.314424150308168,0.314967104238632,0.316076240174872,0.317162251034299,0.318533420596189,0.319792978053891,0.322885015122089,0.324134885889152,0.317784635335865,0.318358170794248,0.310030878189823,0.309274047104824,0.307983895023028,0.307613297965054,0.308157098109572,0.3235744739167,0.334404247618492,0.335825975886773,0.337760954539489,0.338686118613677,0.339032104376417,0.340611808300361,0.340650000364573,0.348738956854481,0.35574157282245,0.362988505602028,0.370494604821833,0.370381078099962,0.369418188180439,0.369390684966286,0.369060133855641,0.505296089649777,0.469370891756626,0.417004210235463,0.416957211628753,0.416950169440088,0.424749318347471,0.429183008316573,0.437458720499781,0.437004403697818,0.436926529394556,0.436975655598289,0.486310379853935,0.360867548269848,0.3612698959789,0.360562157578948,0.359754216859324,0.357634535371175,0.356714658741914,0.355525380312348,0.355311869372766,0.355103589493995,0.35556041276106,0.354193784309489,0.352686474516285,0.350885733946556,0.34976794658664,0.351677141798034,0.354315083051622,0.354213820937252,0.353956380811259,0.352035640840153,0.350735028424679,0.349310577655873,0.348446608463814,0.347427603817016,0.346579125264091,0.347072240360003,0.348886882202199,0.349520174365807,0.348917283543342,0.345825556928176,0.345882271661324,0.346621227080185,0.34768410408123,0.347729568014,0.348675510288306,0.349366975110276,0.352491265883076,0.353975774191527,0.355104261378137,0.361025427200953,0.361617208563612,0.361151452443381,0.362445853998479,0.36284812343866,0.364813132531126,0.364977273301614,0.36717842046507,0.368109334652554,0.369497965931026,0.371323273301429,0.372732607393536,0.372896774463181,0.372799418602744,0.37275828438829,0.373552471546146,0.373364135423694,0.374137890079242,0.386049396923245,0.388620383504714,0.389807979017213,0.390674570303162,0.390660144448138,0.389779090814387,0.410907912286239,0.428518470622978
0.122981517335443,0.399304110951228,0.398930803004455,0.397615396287029,0.396090787287513,0.391326016731173,0.382435716194704,0.381076640705557,0.381399146794368,0.381072995907189,0.375160776032846,0.361104507088925,0.364002744952684,0.366234732245467,0.36740426372952,0.37086274631178,0.374539169934554,0.364500971129814,0.366621743165162,0.367413177613845,0.3669234014191,0.377916020947467,0.377365246909019,0.377883603853668,0.368416096302839,0.364000553691424,0.359647996599139,0.363062725060913,0.364362848746417,0.365890509234449,0.367539313348987,0.349112951260169,0.348294442537736,0.347926371900573,0.33506466805011,0.33989311159609,0.341691514572766,0.34144774174879,0.336461361243991,0.331256979512062,0.33021759656265,0.326623813908552,0.32674732159618,0.326545948012124,0.327648245283334,0.327024867736489,0.325505069602368,0.323492677639187,0.322314026084675,0.320787071759001,0.322733737070791,0.322585715777556,0.324524693047911,0.324465892267026,0.314520467181175,0.31279664356049,0.313478177237477,0.311480592368364,0.308272948013773,0.311784765818903,0.313482529941232,0.313917453796194,0.315378179911352,0.316109035592845,0.31790492911608,0.31927625991299,0.319419388083311,0.324206585755454,0.323970089698919,0.317515093211992,0.315355038336704,0.31460581323389,0.308718619210863,0.308492218919088,0.308084257777949,0.307830663710444,0.315875780592934,0.336618395723104,0.337253335511919,0.337583849051159,0.338323832784858,0.339142573839375,0.341397507679432,0.341487372131202,0.349227926506596,0.363246354951646,0.36981516710637,0.371362594638587,0.372140401841164,0.36559969804116,0.368240434943219,0.365431993983827,0.669423230567529,0.472457555369003,0.416855051095091,0.417505522530829,0.418502768213824,0.427063292034873,0.436743650590913,0.437363434410826,0.437549850850159,0.437428572788074,0.437133330578345,0.561646293120805,0.359111128929664,0.361082457136979,0.361236107780324,0.358839597204272,0.358740479441222,0.356136217037084,0.355107663970257,0.352821891779804,0.354934269320742,0.354945085214759,0.355732727173359,0.349760870258614,0.348817667018193,0.348108331060426,0.348358450738287,0.35545707539326,0.35362487080959,0.355929165574667,0.3483998073716,0.350729885898552,0.348337756940167,0.348771484479208,0.34677569146294,0.347805212875363,0.346278852406731,0.347832655679018,0.348690545428563,0.348050869474402,0.347016474974087,0.344980234738534,0.347066056611216,0.347315407106546,0.349037511984119,0.34660909379707,0.349220146560249,0.34889549059678,0.35413936464597,0.353957867579097,0.36185240402222,0.36076631411015,0.361780191825688,0.361822209414247,0.364142746683621,0.363070324859347,0.366891796808033,0.36585631384587,0.368449589994948,0.369155419798998,0.371483080768615,0.373231892032233,0.373301444762788,0.372311186963755,0.371574954059348,0.371453474157675,0.372136767441108,0.376830286123316,0.38744708582122,0.388452724127309,0.389950300501264,0.390395318272612,0.392966800323188,0.390423030493843,0.412616104836041,0.428981661538915
0.398905216667588,0.397382440198374,0.39736133076791,0.397504594929688,0.396886113412231,0.386711804440012,0.376908520485108,0.380000005632241,0.380875916544061,0.368715245582723,0.365518923384522,0.367835351475297,0.362127914220202,0.360031316546465,0.360252495077356,0.360272681160818,0.363841745100937,0.36283439322108,0.366474895327202,0.366447287880024,0.365667835002256,0.378806476205496,0.377371591180041,0.377423709834461,0.361363468127197,0.361966982102437,0.361404741754159,0.360348736763551,0.365941601227886,0.365877137987755,0.368220728523659,0.512501388228463,0.342145917400807,0.342162490524481,0.333826022292362,0.333978579248546,0.334220585454236,0.319030106197077,0.318385758770952,0.318131406638843,0.31714398770615,0.317731542575851,0.327045440197532,0.327009900258711,0.327411910989596,0.327860333498644,0.32698913805756,0.319622771798752,0.322194095830929,0.323534890408247,0.322748299911517,0.323723411192947,0.323503592334953,0.322772800966931,0.309543609681173,0.311516581064018,0.312861907291097,0.312252172808497,0.313470310367152,0.313717213213007,0.314471443993834,0.315141449410021,0.315078061171425,0.317342262719834,0.319873789470124,0.319933007406911,0.320946495093904,0.322537794405547,0.322127802843305,0.314119340657613,0.313794151600333,0.31217969161506,0.311456690813529,0.305720767912822,0.306180299586872,0.307194018948194,0.336416928484132,0.336706271463681,0.338842047934916,0.338399028909979,0.338815330287851,0.338254569781517,0.342778144109788,0.353855000393207,0.354982620853877,0.372125449953128,0.382808462524258,0.382600635626032,0.372123405190322,0.371737369016142,0.370757556927335,0.368440513118695,0.679823006443508,0.475659014816735,0.430106808039249,0.43143987628531,0.430642827028235,0.43256094280336,0.436920537612445,0.437939972173619,0.437468419508916,0.437946498764409,0.437916820350621,0.574202647270319,0.365009266621417,0.362256448181632,0.360371766775156,0.360851449301717,0.357825349000286,0.357240371841938,0.353671300217356,0.353860503528702,0.352381878869171,0.353699895836786,0.345797537341289,0.347875006300143,0.347563861301369,0.349483648477523,0.347634565338795,0.348534650835454,0.350062024066282,0.347865719624701,0.350471078253705,0.348480873089953,0.350624639837358,0.349127669421152,0.34972893610423,0.347758844966986,0.349944086267108,0.348862978438596,0.349322478558448,0.350270526201587,0.343835435394499,0.347199360886942,0.346493032432669,0.348597355975637,0.347690050636125,0.350209921348203,0.347334557986088,0.349484471853572,0.355795748177278,0.356425405775589,0.353577583067538,0.362055133124849,0.360745441441692,0.363023489581996,0.361652362145201,0.366993922995826,0.363673261167454,0.368766887382555,0.367835537252827,0.369291590298066,0.370701862648335,0.3722970360532,0.371302282341396,0.372319215742003,0.372164187611731,0.37199217800873,0.371960927597347,0.387096266744756,0.387388062612155,0.388220455217776,0.387256946759243,0.393152342903071,0.392240192559598,0.391797876052527,0.406862892653003,0.430023672348985
0.400134051076034,0.401892132657448,0.398758331944217,0.398474296732866,0.394619736087234,0.381533751000192,0.378563203761054,0.377906179606284,0.379004897031506,0.371675648040729,0.364478887867073,0.363158531023422,0.362902904769631,0.363223865778849,0.360831363823802,0.361377266218079,0.360823572908321,0.364845719510349,0.362568167161119,0.368481147070845,0.365716814404912,0.378399663994269,0.377669005407884,0.377610324156503,0.361260510153156,0.361447822745778,0.36136773016142,0.363307478409573,0.364294006263768,0.365851886351786,0.367771315876669,0.542248615891396,0.340531814463708,0.334900895648818,0.334151414434862,0.331161727536009,0.320314653432392,0.318870052874383,0.317882861503991,0.319604711996329,0.317609672705418,0.319340640201224,0.313506260936319,0.314039266638412,0.326927824508966,0.319500197334603,0.310519553129215,0.319635456641335,0.322222449248537,0.322858223461697,0.322638854309531,0.323110460494567,0.312907309514757,0.312031275200068,0.311486089805399,0.310684424777204,0.311110373592761,0.311545497002415,0.311194423592173,0.316500850840683,0.316055235136376,0.315929638125883,0.315113301736044,0.329889788349717,0.328696030176568,0.327321795305622,0.32370140258599,0.323318405483081,0.32334988744881,0.314659450169505,0.312870051120941,0.314691389916016,0.307865087227048,0.307547076441545,0.311355842491789,0.3074937884574,0.335168912376356,0.335763651333359,0.334514863117189,0.340523088083586,0.339552504035086,0.338582592870025,0.34576727937873,0.351075942278601,0.3875022109358,0.387521959031324,0.388113824089037,0.387938798540206,0.374361035386598,0.374206810054683,0.373945083197186,0.373870749017586,0.672556620039981,0.431166260128889,0.432055960792748,0.432157082339126,0.432845889098402,0.432221783405746,0.43728778554584,0.436124076856775,0.437347046374577,0.437214999685328,0.575468623285438,0.595900751963843,0.358624906408816,0.361153363315513,0.362754487054639,0.356740298251157,0.357316679579937,0.34920639229054,0.350717876086516,0.350282856537691,0.353025827423652,0.352748857806904,0.346572938302544,0.346934149487106,0.348146077100788,0.348525020723252,0.3496704537034,0.34929491766621,0.349645036653104,0.35086710163365,0.349392479889224,0.352772707866247,0.350590908360642,0.351209436556564,0.349668660478912,0.351634312704535,0.350978951527114,0.352050445328679,0.349495456890384,0.346310016042034,0.347773831189392,0.344815032397587,0.34961084803482,0.348418141728404,0.350169603468154,0.348136094124032,0.349521180549822,0.35776667500995,0.358122082461801,0.357660193380396,0.359954834534028,0.358350822483856,0.364118704399277,0.362313152689962,0.365577508551437,0.363882776501006,0.369972136537271,0.366941121579522,0.368954318036091,0.367923591328553,0.371257368222979,0.371186284906314,0.372915232647527,0.372427565944176,0.372654545009169,0.373289720127949,0.374031376707377,0.38660147135449,0.386867864618537,0.387368869030361,0.387495016518283,0.39208849064096,0.394000540274396,0.393231370973257,0.392900722349037,0.397075188359449
0.400671023470321,0.400504661293985,0.400329291139697,0.400134934110887,0.377541725636809,0.377412978615659,0.377676539312337,0.378549137836532,0.378761482641726,0.359165705236647,0.358408081863988,0.361441100194432,0.35407787918753,0.357523730481697,0.360137920554067,0.360727217476275,0.363694043869757,0.363807483977002,0.364483210927907,0.361756739589966,0.363442181536412,0.377953813852195,0.377908561967326,0.377597410006504,0.358283650675228,0.360377914024196,0.362298952130213,0.362964976547768,0.363536219087341,0.339843756012506,0.340988763888828,0.341261355317456,0.340476163279451,0.329677403161518,0.32898751913675,0.330339086155926,0.321199113883319,0.31907458411726,0.318839363822506,0.317691624594448,0.316770428089406,0.316541911107853,0.314091897033152,0.313287403297179,0.313330955984929,0.311512116890171,0.312021734904943,0.31750791478197,0.321702379173944,0.322144644138655,0.320323234773409,0.317788056684758,0.314370018340292,0.313842196023034,0.310468033376963,0.309868985184285,0.309138524049516,0.309990586628261,0.311349514627821,0.317352918034712,0.316457288791452,0.317785516581999,0.319884261957439,0.329139475326728,0.329384209185803,0.329289941329512,0.330726475873908,0.324675563930841,0.324573802466168,0.310144694738788,0.309916364309399,0.30774099434155,0.307965933448526,0.308116266134095,0.309932167249492,0.30758483044372,0.33647499006855,0.336504478501812,0.336631304098199,0.34262504800694,0.341918848084573,0.349745823047735,0.3525140368574,0.352050416948865,0.387793538488587,0.387830885437795,0.388395405807667,0.388636105420957,0.375749118387334,0.375535214007154,0.375500215677124,0.375302850402254,0.431477098512201,0.431860439181879,0.432514997800739,0.433037837628119,0.432905694647595,0.435826684608674,0.435673680546453,0.436660047430082,0.412098656216325,0.381501930430613,0.381748692111419,0.36751652232881,0.360111127486416,0.361462751958406,0.364109941453545,0.359464188517811,0.359327531461043,0.351079923264698,0.349569197023986,0.350055669655329,0.341975175827968,0.341275866299137,0.347630822869776,0.346378059164318,0.34569641617586,0.348924220011015,0.348874293654222,0.349812043250268,0.350081074467872,0.349898083831746,0.353125804483079,0.350862552718505,0.35273122200067,0.351445250458274,0.353007953307133,0.351992198074358,0.352943093464522,0.350663310026735,0.349916623267474,0.35005141481984,0.347438821386053,0.349673154352365,0.347826793903299,0.349520208579458,0.349393174321046,0.349710742292775,0.354835634136835,0.360096926520459,0.359315067541839,0.361048834530563,0.358879583304983,0.361530207060509,0.360787074570559,0.36192906974823,0.36067704828109,0.367758394777884,0.366975229079276,0.369777274240778,0.369063220546108,0.370684471816791,0.371260657383357,0.373888083900958,0.373248963535618,0.37272676602289,0.371685762762827,0.372840710621152,0.374624591462703,0.384141805497375,0.38579187790408,0.386886135143916,0.387080360641958,0.388224908474876,0.39535428808534,0.395025195228686,0.394879376220392,0.380270404240887
0.401545755641987,0.400947104066993,0.400443903519271,0.39988155963213,0.378355637959708,0.378231156672152,0.378132779796818,0.377808843111511,0.377419141536788,0.359323245738251,0.357971526416916,0.356971068658611,0.355485211602515,0.357176690843946,0.358053911812706,0.359402271198354,0.361671543176379,0.362812210892467,0.362773101549908,0.36175915370523,0.36024483028272,0.359248693330933,0.356600493589808,0.356382698478771,0.35779053147423,0.359942551031154,0.36133467156009,0.362605310361483,0.362789837098788,0.340948908966558,0.341200536441018,0.340960659883536,0.340384424624573,0.329321512301539,0.329445280126974,0.327685152767535,0.320198346699264,0.319353499656321,0.317429779458171,0.316394697344011,0.31504137299672,0.314409282376664,0.313854873711605,0.314474686803031,0.313463441415917,0.311975069260655,0.312678646340263,0.315557612781146,0.319583511423113,0.320567520341558,0.31936028409302,0.316873109263364,0.315113358778282,0.313019904761813,0.309805566254168,0.308517661567828,0.308013639980013,0.30985525771849,0.311314698622672,0.313388151999726,0.314899863873642,0.315994376263262,0.317093367787137,0.329997919563573,0.329792272602434,0.329698895627677,0.329060182353835,0.326922108754927,0.318246910670644,0.309356999504563,0.308481421617319,0.307570108987211,0.306903911638158,0.307426222690915,0.308275330481791,0.307829744721698,0.323228547564147,0.32975867577442,0.335416399323022,0.344207387904015,0.344499368826206,0.346314337551517,0.354985473438314,0.354664206251418,0.388172907926187,0.388093518386151,0.388669064800927,0.388875620117294,0.375323941287538,0.37578111963462,0.376071612572554,0.37605541635111,0.431936966512507,0.431940657935152,0.43249951219763,0.433023144740979,0.433943828865666,0.435203081771888,0.435925081998439,0.41311392097211,0.397445799020729,0.383585903567346,0.383004891081622,0.369532209814785,0.360308092590782,0.360643751341595,0.361004906903496,0.360404563799102,0.360262099363556,0.351259956393256,0.348165642093752,0.346350197025419,0.343266761791959,0.342668672097865,0.344588903793639,0.345113309479285,0.345544225233207,0.347533168013341,0.347646661849065,0.349772108671363,0.350216779780732,0.351176980427724,0.351182803064592,0.352088097753083,0.351500051835597,0.351789542765363,0.351405102392934,0.351768207463349,0.351030071412475,0.350578032120771,0.350011992872347,0.349179013666371,0.349145630022505,0.348164879075155,0.349090722290451,0.349519306952173,0.350893040010254,0.352470186117179,0.354812495010771,0.35823211631394,0.359117829566395,0.359781704054704,0.360275223071814,0.36004121701033,0.360921691167383,0.361142113824141,0.362256231739354,0.364806187169901,0.367731076545765,0.368415111000399,0.369584606075433,0.370486756153208,0.371783309699528,0.373076491949974,0.37316489867174,0.373065873453084,0.372754054553426,0.373364811280871,0.373471433206238,0.385817714092175,0.385727759442912,0.385631961622838,0.385658831974596,0.385338910479798,0.397061604268402,0.396732522209373,0.397374350378772,0.386911872799522
0.402553633531641,0.402243789396601,0.402013230992335,0.400552959492458,0.378174859550817,0.378613086870553,0.378241493212228,0.378368186187577,0.377370542481729,0.359046209602882,0.357371957216628,0.355056604814802,0.353260576917991,0.358823955310146,0.357309295376097,0.356265286893834,0.354112749628676,0.35231529193192,0.352368692615275,0.362451461747592,0.361237581381554,0.361708761797537,0.355386495382614,0.356860379437439,0.356010443475073,0.359682230557457,0.361200485033689,0.363703534373945,0.364247378133097,0.339813941901751,0.340301171124788,0.339884461926487,0.339191164559233,0.328704295069425,0.329289671848404,0.323457745444054,0.321087882768466,0.319909816760512,0.313603995340917,0.315396735421872,0.313410127397011,0.312089108801765,0.311466624270053,0.304821323199789,0.302749416224383,0.309280980085268,0.311611147086635,0.312780505584075,0.319061869184787,0.320554937091143,0.318772918824897,0.315600336512002,0.315003719808395,0.313800332455936,0.306309550504851,0.306889355412606,0.305795915637828,0.303300264784407,0.311413108579891,0.311122709998832,0.313825847693625,0.315588871421975,0.317275454547393,0.330064855819709,0.328918544374263,0.32884125511359,0.327149974696913,0.326625608946843,0.310264502670406,0.310169940878346,0.308528604910264,0.306501949923965,0.306747629777511,0.304823132554997,0.310284652939056,0.308761104058952,0.310001371570932,0.322996110166369,0.335278089252656,0.344753366580725,0.345160916918184,0.344925372064423,0.355358280374758,0.355787681585867,0.389293605976553,0.387234819070613,0.388344350824036,0.388068691219245,0.374412947952969,0.375772584734357,0.37616823865465,0.375671342495638,0.432099838029318,0.432458338378625,0.432352229025822,0.433149159055785,0.43321501878191,0.437284727135981,0.435511171334787,0.368975356294135,0.369665900073399,0.36909384000484,0.381977145754633,0.368327411741258,0.361558674425309,0.360508753769955,0.358674068952763,0.360633500724161,0.358081879496761,0.352341998985096,0.341349721992217,0.337987951614426,0.342023977945533,0.341003049264305,0.343567683142046,0.343430599171304,0.345255555116917,0.340864854391066,0.344877303890036,0.351294060884197,0.350251991389987,0.352255959239142,0.352692346844978,0.350168586185762,0.352758315133798,0.351494183279059,0.350595228258535,0.351012084589764,0.350106485754231,0.350118471209043,0.349844501174284,0.350073391354128,0.347862871192907,0.348808730291838,0.347844865482372,0.349765995086159,0.350806666163297,0.354280346822766,0.356476583270084,0.357851049888498,0.358896937574979,0.359696410181789,0.360473100154706,0.359379802688445,0.360101242917087,0.360475147935466,0.361524655518139,0.363022843548285,0.367769589807909,0.368939142076563,0.369445687406228,0.370793299528851,0.371786726041017,0.373422773143956,0.373581066475968,0.373264475485186,0.373598982781647,0.374498514587337,0.375701733869288,0.384479977600854,0.384674986889887,0.384656042938631,0.384331700312081,0.385024471336687,0.396482039048948,0.396810187411929,0.397259208062775,0.37966607919219
0.404745761306099,0.402914938499775,0.402011254839705,0.400864566198221,0.377834684002507,0.378668006163033,0.378771911037293,0.372749215187321,0.358967482749018,0.357609870549396,0.357222005628955,0.356559779379105,0.355434077013005,0.357505429364798,0.355899507443145,0.355628472663052,0.353885887097744,0.352640828418208,0.350773291081936,0.350116410154484,0.351173801104682,0.355041048178563,0.35630313353508,0.354520981758819,0.354313742413059,0.353038285684082,0.344220115316242,0.344721355538389,0.339626947166839,0.339894415521412,0.339354268427491,0.33944323810816,0.33827329550609,0.328980101394321,0.329466102271405,0.321816277182632,0.316307486352894,0.306673291752831,0.307029516515948,0.309063514850676,0.309504529176059,0.309502787960332,0.311433631515049,0.303688170236785,0.303422915281716,0.304048786724183,0.302861483629225,0.311677357821904,0.312774332042028,0.301149478906513,0.310125132452753,0.313040279519425,0.314365666525001,0.313401832701918,0.313091263538716,0.305461097894597,0.304565339202973,0.302405617618722,0.310203117608468,0.310981485578919,0.314116466255533,0.315269553709828,0.31659565178707,0.329642758029628,0.329224789499262,0.328749813480452,0.328193643986531,0.327297012975245,0.309999763918469,0.309081190268764,0.307995528939466,0.308132425392301,0.305909868100622,0.306537198925956,0.307138450472043,0.308841029552141,0.309630570320219,0.323551648464544,0.324983762577181,0.345744203748462,0.34546933606522,0.34478669545469,0.357033085861004,0.35676524361799,0.383014351759922,0.383872187017886,0.380277697903875,0.377050071571035,0.376910655432741,0.512646189942661,0.443424262651214,0.707231448845064,0.432600086652131,0.425460610760237,0.433884436667306,0.43318851065933,0.434812770690036,0.437280900216038,0.436024897665142,0.370434567940565,0.371207819197819,0.370611929686343,0.374038582239274,0.370496333701984,0.362129105072934,0.361483821091283,0.36124699768274,0.360408937249632,0.359614825480173,0.336311866536038,0.336180728265977,0.335369906865442,0.341458638244389,0.340770830746248,0.340260070238881,0.34191816844697,0.340740574821233,0.340980579918602,0.346202780548168,0.34544522778732,0.346683015551522,0.34718881090906,0.3491517052726,0.352391358547013,0.351295190784323,0.352779633794587,0.352323543341623,0.35098423875308,0.350909571543844,0.350372405631689,0.350741049019464,0.349547621401475,0.350432288246736,0.346285589161797,0.349695988321624,0.349378720028706,0.349352895214591,0.355990246655418,0.354843684098546,0.359197403448515,0.357554421313813,0.359991387529474,0.360158116088924,0.360018146596298,0.35868945982409,0.359408989080116,0.359820693314469,0.366921399101426,0.367693651601842,0.367872259480447,0.36925042036335,0.369268255740644,0.374008716636425,0.373680778672872,0.373126689596453,0.374245644748621,0.373977945726752,0.374788391556086,0.37475552434688,0.38516600536544,0.383680328257352,0.383918212147487,0.384335972707352,0.395630381803852,0.396129285013311,0.397065036050001,0.397930830933962,0.379335146739039
0.41236873776851,0.41086689020552,0.00424559182970404,0.367982681878233,0.374574168057387,0.372926064406836,0.370198821631141,0.369916441229486,0.360764533195043,0.359165354458547,0.358689240770959,0.356944400079618,0.356246312372752,0.355003336590172,0.355203067630038,0.35556662000139,0.353642039895014,0.351440916540503,0.351365711091774,0.349836916006326,0.35042268146314,0.350959711353422,0.357117842182436,0.357692692521022,0.351738477951164,0.352530129396022,0.353612241559722,0.346007618875306,0.339638526744359,0.339776622892257,0.338848908845514,0.339368300534024,0.320591849335281,0.328736423491372,0.327784500346731,0.320645750171388,0.308431992216933,0.30688921479306,0.306500497197713,0.307875187558515,0.306986606930083,0.308414567962566,0.304703482312988,0.304399133176091,0.302108618658188,0.302544686725848,0.312007258936477,0.312606374521207,0.303311016760789,0.305303662760105,0.306644776289306,0.305743742756358,0.314404345177803,0.301398951619162,0.304851956196713,0.305035664175854,0.304261584714494,0.302777431871384,0.303139651039574,0.313451969086179,0.315441928140947,0.316427734470722,0.316638302572054,0.319411220335177,0.319716353042466,0.316249382770101,0.314596543874204,0.314300462737519,0.314115488593863,0.308914530051856,0.308060266088969,0.306461870355437,0.306533431971344,0.305188023548342,0.309158785129458,0.309337748717401,0.309471225752279,0.327126661651561,0.326893107152104,0.330527584425134,0.345533343805728,0.345594471228629,0.358345120908903,0.358189161398239,0.383274837985721,0.384275043626626,0.383970404969103,0.383169577498101,0.378123634087847,0.389589651803992,0.390103578453555,0.389733849186399,0.431245601557168,0.430047301705896,0.427547406747569,0.430747602360034,0.434535932625949,0.433082577803714,0.372872528840129,0.372064781939938,0.374587483986602,0.376612956806389,0.375643359908989,0.363347722681177,0.362583737283612,0.362255209272956,0.362403738506056,0.339294595076134,0.339685889816274,0.338649021635425,0.337911390061096,0.338162340763105,0.340130306578152,0.339215385762067,0.341004065022113,0.341249879856805,0.342211170317184,0.34137706993831,0.348364329867976,0.345418302057359,0.344411566798275,0.344280626582659,0.35086996151716,0.350125267074881,0.353068832885816,0.35392035030163,0.354303646363913,0.356135857664975,0.352652920356438,0.351975139594988,0.351060170751452,0.35238234901958,0.345391116433703,0.347683017234287,0.348143485605057,0.350496153780743,0.351879169584723,0.352825850651923,0.355502399852246,0.352431504495796,0.355418837238963,0.353617966270125,0.355086614585526,0.358733645752439,0.359245317789315,0.358208676854889,0.358090741434066,0.360613725061823,0.368253136977897,0.369184836731643,0.370189312688625,0.372011548917479,0.375307298761343,0.373062493980357,0.374554963834063,0.374446983482626,0.37629351155244,0.374730145784956,0.37716133927744,0.378266777853869,0.381447036693939,0.383198459828879,0.383886631545916,0.397032619705809,0.397498350564591,0.398568813226194,0.397888642654482,0.406640146024402
0.422537475407819,0.420542020134784,0.00423400078324196,0.367871337437713,0.367211078476985,0.365992611607933,0.365428583151761,0.353592213509046,0.353124900143025,0.36004369791313,0.360041440931616,0.362241925689261,0.357150429421163,0.348677435884922,0.34591590098191,0.344515695565133,0.344792060127088,0.346011430763133,0.349025140077791,0.349790169557607,0.349668478983868,0.350255270805495,0.357578076782596,0.354766026793982,0.355138617675485,0.349301468000793,0.347027146958101,0.331338267635024,0.330115710091319,0.329173497133275,0.324926641558727,0.31921796684747,0.317927329305657,0.320289059067097,0.320342560401069,0.319988319642698,0.318248945779754,0.308188822021623,0.30751731703082,0.301161429533276,0.304003476194833,0.302345877649392,0.306583383183373,0.304367278379621,0.299846177996777,0.302802280902477,0.312689618245596,0.312489462135787,0.302368350979563,0.304745442048352,0.305988359935909,0.307372761517143,0.307481163818464,0.303065868064019,0.304560603221163,0.30469505641163,0.304369076949856,0.302642207578883,0.302879940757437,0.317050298473989,0.317491041482917,0.317844592919034,0.318465998635292,0.317984823806582,0.315950024737385,0.313309122605371,0.312787026939724,0.314491098754116,0.315257517195613,0.309148125901604,0.307857709497486,0.307778624101653,0.304452265556898,0.304651466891921,0.311209108645751,0.311025642236326,0.311571236407903,0.328492391815745,0.328485784711732,0.344191958096188,0.345391276677541,0.345194594736319,0.359010611845192,0.384836529997726,0.385289204061959,0.385657917355521,0.385688966097274,0.383315832879465,0.38552538884078,0.390002276253213,0.391259041849002,0.390804140263943,0.403849643939507,0.413198441655492,0.418442310042315,0.424916049036661,0.434810991616311,0.376372257182826,0.376336077160777,0.378844914967978,0.37820776502178,0.378163993414969,0.377072837141772,0.363590844266951,0.363039801144852,0.362446675749387,0.361880661453913,0.360626173209857,0.340780667028202,0.339747247230362,0.33863583437925,0.339391056642358,0.339580228305616,0.340798234055119,0.339961233131094,0.34129630911333,0.344530120432589,0.337439693543074,0.337750920078581,0.339626718186367,0.34211541397841,0.341948790342035,0.350414677774119,0.351139398865519,0.355929150380134,0.35668214923506,0.357375359210301,0.357603023615496,0.351824864117216,0.350880248474665,0.350288843890489,0.348825906988311,0.347281606660132,0.346028772014042,0.352570736188115,0.3520504892372,0.353073068970013,0.355555854977738,0.35423596741082,0.355080925009835,0.354337434300492,0.354849976652371,0.355199284313647,0.357360088526432,0.356642380579347,0.357243699571399,0.357038822032283,0.362547694501415,0.369471839554593,0.370383464683301,0.370682276656912,0.372295850417663,0.372887899382774,0.374408328041586,0.374403070968976,0.37491773134044,0.37571347725938,0.374585327339394,0.376435115208896,0.379057162586925,0.379777275014564,0.381065898140088,0.398448644299147,0.398888734579561,0.400437291191733,0.400959951513665,0.405708185964349,0.405204992176436
