0.345699373208321,0.346260557628231,0.3374358196662,0.347569004468218,0.389905218251756,0.336690622976331,0.338083382560297,0.34180401213838,0.341645921739577,0.332628944797166,0.33209141976594,0.334446787045348,0.386750230399828,0.333401453002311,0.327491809338389,0.327013540554892,0.324917511661026,0.325460762857198,0.319725704851982,0.319156912705723,0.318964477189121,0.318878842442083,0.319560409069018,0.319566585886386,0.319659298813403,0.318692638963886,0.312775133664562,0.312614776693623,0.313029849006176,0.315452336176564,0.315125151244463,0.301478264767885,0.303370965541242,0.307588063564441,0.308351250487078,0.308232299528592,0.30849078051125,0.510853575050564,0.681354033819182,0.328986812279287,0.37255240086815,0.297619908574806,0.297876479052818,0.298264290174459,0.294288843482905,0.290847879786653,0.289097144128196,0.28830193902133,0.288253009265403,0.401047784239237,0.288181430397996,0.395893601743817,0.395961029016384,0.323341229727975,0.303169965872451,0.302991632326275,0.303231386331237,0.481766880017441,0.279995567010257,0.280232487734617,0.280283502969659,0.280189431037777,0.278677880371319,0.278645078424674,0.277788956052642,0.287814786915096,0.287583889672916,0.28840549852241,0.287064608988573,0.285938345044816,0.284626596050189,0.280160561875297,0.281728818382182,0.284365882639253,0.284169739910006,0.28451807725619,0.275460003744798,0.27533585718415,0.267571483496044,0.27119301819719,0.271214633556634,0.272188122699433,0.27347334489622,0.274719183339196,0.280191426802914,0.280987251160126,0.280775587405161,0.283650423457422,0.282217891043634,0.28513659467703,0.285380767593004,0.288066507508624,0.287720033557822,0.287236124448371,0.423534874744002,0.38709106235077,0.27043251192766,0.536937731605239,0.436254487655533,0.504735815549937,0.505528222859244,0.243369104435162,0.243063916600495,0.243214319957977,0.243919290495302,0.24773742880621,0.244471742730582,0.237462076710914,0.237493931951093,0.220014920322504,0.220333022173141,0.21099800545786,0.20937114373706,0.208073722629004,0.208173445874219,0.20861000882467,0.217319519669321,0.217584511366692,0.218117121026603,0.217127762362537,0.216140087674768,0.213224436508768,0.211640638269284,0.211964799869658,0.194147289673963,0.194470113137456,0.196172280383458,0.196619460322581,0.195042545237487,0.194476979834424,0.197119075562059,0.19537144506626,0.279309332154118,0.656223217668327,0.657730508260493,0.469695077807047,0.468566983985208,0.490989044048035,0.498056778749273,0.223576705438924,0.432884513769136,0.433072262207423,0.232133149707267,0.572074556622558,0.178451573216943,0.163992491784439,0.164053418924961,0.163780846495576,0.156437698036769,0.154083268289551,0.149287010362586,0.149275806637255,0.143548130739764,0.141565219112849,0.138249960117504,0.133589630374714,0.128899844367275,0.128420487803484,0.142724040684602,0.14334511178866,0.145829110204949,0.145645122415327,0.146142346019744,0.145486601772816,0.145250511645612,0.14393422948255,0.143650524956581
0.347763596533798,0.348643601870878,0.350148632060664,0.350469796185993,0.351845070522465,0.345653390594505,0.34459693391458,0.343255187511492,0.342199853586698,0.338377809467593,0.339651622525738,0.348198034466185,0.363438528085692,0.338942189113355,0.333883779112933,0.328971707711447,0.325685199996093,0.325895694022964,0.324711962457629,0.323877750536038,0.323602366018078,0.322542748218128,0.321723620936758,0.32155337077404,0.320027084041679,0.31791609299683,0.315278724337443,0.313617062706058,0.313464281443624,0.314432495773077,0.314081179437836,0.311727076251086,0.309400972166918,0.308601870849684,0.308950141243147,0.308926564363675,0.308937303219,0.320600089519974,0.320353551901277,0.319611950493524,0.31890819445379,0.298509383183303,0.299121736357754,0.298230601300075,0.293514483072591,0.292853236632994,0.294290985333902,0.328290119292375,0.348611489457305,0.378832331027054,0.366603308831677,0.349309214965077,0.335035563142091,0.323385799286088,0.323367303422921,0.323299947697178,0.323342734295822,0.35455442040307,0.326604760043044,0.280342206013503,0.280288001130426,0.28016183218268,0.280061614303356,0.281595572460748,0.285247926252802,0.287061774162401,0.287996907409027,0.287849038088712,0.287506944615136,0.285805015528928,0.284229411497147,0.282125219043691,0.282705892925547,0.283351578112171,0.284014191468576,0.283200290351882,0.280423317496074,0.277654140009173,0.271359544561668,0.271580364141687,0.272287966368511,0.273129307085757,0.276030580636624,0.277672398448066,0.280601464139621,0.281723271344273,0.283015144752597,0.284034350599404,0.284333944698823,0.285332795509741,0.286787217425583,0.288421448060312,0.289499292317584,0.290820072826607,0.292458928301351,0.293138690131251,0.293850562295747,0.294527658613359,0.294971076167956,0.295177706266984,0.295411525851663,0.279735159824137,0.268170445075731,0.248403994442631,0.247461220990349,0.247748595565981,0.246923634989897,0.2366966520673,0.236746407837743,0.22520005637206,0.223708268835007,0.223019624062012,0.222800868569371,0.222362515849411,0.22134549061993,0.219964608485365,0.218886970729991,0.218852352969655,0.218404190870528,0.218124812658192,0.217099601776895,0.215744695046352,0.21406305787411,0.213273346638637,0.204875576306612,0.205724198701159,0.206302171875025,0.20593589243879,0.205407779303544,0.205520985047282,0.205809879037395,0.206267940335134,0.250544926327999,0.309321785577252,0.394542837209552,0.468428951823644,0.467728070093523,0.48011061889733,0.472837421648273,0.282374274935152,0.316428236677345,0.316438684245348,0.222129412573566,0.212503762876936,0.177423770839338,0.17254165473376,0.168305731391155,0.159997716562528,0.156352980913882,0.155535280783973,0.145508552023969,0.143870172025883,0.14182804172462,0.139626738537935,0.136678880464878,0.133762632104407,0.131773647211239,0.131901659502731,0.141291781051242,0.142159428488825,0.14414944145585,0.145094756551587,0.14552769072208,0.145408331915962,0.144460114687956,0.142014447709653,0.141430775323719
0.349035257954357,0.350204606404149,0.350393744841289,0.352387270350359,0.352234128260339,0.503731104546806,0.34402178537738,0.343455231618453,0.344121734615179,0.334455327201398,0.340912822468231,0.620810109051856,0.385694127113009,0.343605744000169,0.343426727133515,0.473762563919971,0.326160314238086,0.327075312270555,0.330098311120871,0.328569212502369,0.326189274608435,0.325487432188023,0.323816616549898,0.324016584411522,0.322163536055827,0.325039266235828,0.326076909099455,0.31280545782217,0.313443401702192,0.313937671662742,0.314244450410355,0.311387995516457,0.308994288087854,0.308970919728409,0.309588198519573,0.310246661019147,0.30921351054158,0.32113271799861,0.320454536876441,0.320044113617798,0.318128799047465,0.298825742423244,0.301770505875601,0.555416451410938,0.292700577674916,0.291996759431891,0.295186885636122,0.391005841226744,0.410470194944041,0.40249279759613,0.394111150748958,0.321134269294207,0.321516410430156,0.323653056721856,0.323788227297431,0.323274015961327,0.323355612743083,0.381683096458534,0.415586772401185,0.280627349543945,0.280440442913201,0.280641408507557,0.278884196090025,0.282961077548539,0.286804883752511,0.28809427789247,0.288335430437574,0.288862920238028,0.288205642464045,0.28659789440898,0.283538883857206,0.282720812622336,0.28231022381767,0.284026448686789,0.283832313666435,0.284773376666269,0.28363049879212,0.28378049614581,0.271773014984716,0.272891478197004,0.272580468288606,0.273114361048426,0.279154004785197,0.280428692523689,0.281650742637571,0.283582988534999,0.284299359169003,0.286236995770564,0.284794374827997,0.285931849922957,0.28713779460328,0.289907671908835,0.29056879337028,0.292801325262668,0.292957078914318,0.292773773425289,0.293167884311136,0.294354287882793,0.294458194871679,0.294369799407003,0.294444261240214,0.295379159819416,0.294995171288818,0.248777335086799,0.248469738560035,0.248828040543161,0.462660503935992,0.236718137678285,0.362290953007891,0.226285311027664,0.399057761188283,0.536712130054101,0.226287497158787,0.406555898591563,0.227268505718044,0.227104407155952,0.220442243587022,0.219513456248976,0.219594039714765,0.218923708310927,0.218856236549644,0.218226935531129,0.218328029417482,0.212723608281862,0.205559489269864,0.209110964001159,0.206580450975563,0.205281291611526,0.204825791121791,0.204307982230618,0.205651181372752,0.207220670820899,0.208299650223723,0.278002006155756,0.364459682306496,0.659068834208213,0.318679775543826,0.487618479672434,0.458820900029015,0.227756150301326,0.316982276498462,0.317029333626236,0.175457513474804,0.176040199751872,0.176281678374548,0.175962704280652,0.175600481181446,0.156979227886048,0.156566088742456,0.155067198780838,0.143536545520743,0.141556711056586,0.139538348975765,0.138788415371806,0.134248045904547,0.13342842546822,0.13308566616828,0.133849883667304,0.138953177187235,0.139419985654878,0.143647579545362,0.144770971496427,0.145925806331904,0.145978780787082,0.271890970279636,0.137438294512808,0.139012318565398
0.349637719452929,0.350088044296435,0.351554378270389,0.352215565759722,0.35251120881771,0.35782828556401,0.355093031017296,0.354059551717271,0.352124186257337,0.351764084504255,0.351668994540153,0.352251735060495,0.352804875456495,0.343772512085596,0.34390318930963,0.344339096844632,0.342448260975048,0.336890378176359,0.329359053639838,0.328972868620046,0.327853463072977,0.327005069834289,0.32646588252411,0.326427074021601,0.326234516967339,0.326220083143902,0.325821727084524,0.324513877020126,0.321202929104498,0.31748919138766,0.314226226172017,0.312277253624321,0.308419279441564,0.308671334208204,0.310219001406316,0.313213063022891,0.317768329805665,0.32054393166212,0.321218980391258,0.320526299891522,0.319418794986636,0.317492339591882,0.3151373676342,0.312417723043859,0.311000299534494,0.310436159572825,0.310688137197996,0.379538359027644,0.402668810474038,0.393898692661739,0.387016677335047,0.362480035396339,0.348590458050093,0.331845251836165,0.3318716811369,0.331589503291081,0.360028244222972,0.392787544476887,0.402426909031174,0.360147315781752,0.330419947806527,0.281744397510017,0.282651695611609,0.284306956001462,0.286529914558069,0.287608881473358,0.288050523887094,0.287987810048675,0.287945611377289,0.286535535698267,0.284382846880856,0.281864319129696,0.280943363655264,0.28166421435355,0.283603862978051,0.284127438938063,0.284694866367433,0.284278923757458,0.271765303413956,0.272140429166905,0.273035339040008,0.275566069581061,0.278125697369561,0.279092895471481,0.280410086733203,0.284972037206929,0.286442807128443,0.287285680479076,0.288088465386457,0.288724351565447,0.289929243700413,0.290813826006365,0.291571037571757,0.292397380689779,0.293560049256928,0.293883697921284,0.294083116424868,0.294239000238404,0.294533015270333,0.294329491506991,0.294840826526762,0.295174537888817,0.295125280118235,0.280753374988434,0.272333353686321,0.266240631831183,0.369660066455254,0.340030564278859,0.358119650566005,0.354245382082827,0.392749651720285,0.407646475757507,0.28066519732948,0.263862140461787,0.227025245343559,0.226632117438952,0.222030832651921,0.221231286917891,0.220681852689335,0.22035357539507,0.219431828810529,0.218874195639125,0.217773494298587,0.215085821777232,0.211129117511938,0.207772851685741,0.206516043384887,0.205961038880497,0.204394386308409,0.204646715545251,0.206543041409894,0.209394784418702,0.210346319844021,0.252857557354312,0.284016287250136,0.408818510111079,0.378771921375587,0.335276180507192,0.3052219920346,0.275052109706014,0.31694968899746,0.316869431916893,0.232272577581126,0.175859141375832,0.175944255201629,0.17584703048868,0.175862539774221,0.165059770184051,0.16198905052193,0.147496672007501,0.141525321942836,0.140432164081932,0.139450444721283,0.137989869494074,0.13599238179918,0.134043334756364,0.133779043537273,0.135063746052182,0.138395103504093,0.140101106020147,0.142214143052184,0.143934977438302,0.144809861304614,0.144887996912011,0.144272097340001,0.143143008978466,0.141240877607495
0.349268398730612,0.350373634075409,0.352025115787061,0.353630247126881,0.35303824900593,0.366457042382034,0.484827009636576,0.354653143394001,0.350189705646861,0.350305107537254,0.350465693933843,0.351257936246871,0.352071200690883,0.344154876325778,0.344067988098925,0.344774829355994,0.345627691317339,0.346093773684779,0.329455647492587,0.329991904502599,0.329036849701366,0.328418516654399,0.328534741615197,0.329094367046341,0.328559569880064,0.326677557631891,0.326721668958171,0.32599001392589,0.325827311431039,0.319325716227883,0.322413952268687,0.420948238048017,0.307090735856374,0.307446549658448,0.309247739196877,0.32039889867807,0.321306546704462,0.322430875232163,0.321878605412091,0.322216988653698,0.321354484621672,0.31882604319073,0.31671135883945,0.311548193493411,0.554524575345926,0.724419026473497,0.311582712022871,0.354352946529946,0.410218458361974,0.374812010695975,0.374902300663699,0.375201870837422,0.374930436216931,0.330913321961156,0.331301862586785,0.33082824369785,0.381809183058404,0.4943501062634,0.42778176941321,0.376328248966119,0.49324840784829,0.282499886486027,0.283253125781177,0.285843934395918,0.287439443809589,0.288439920734023,0.287991897653063,0.287381716837459,0.28791822678167,0.274238691941262,0.27447219007586,0.275305010813105,0.275737052884641,0.276098390490742,0.284156390862313,0.284437686241947,0.285918713927484,0.28881881965407,0.271267742681766,0.271458919310888,0.272385203372908,0.277983880453024,0.27810450056602,0.277845967270216,0.277664939798119,0.288451536987252,0.288400698516742,0.289713407249478,0.290449440523948,0.291622865950875,0.292213257149502,0.29231455992635,0.291489002185135,0.292376916052584,0.299338064507321,0.295166197615136,0.293792932194375,0.294302995941761,0.294287049245887,0.293564118621076,0.294663427389239,0.295275603290034,0.294864305548843,0.555570251970873,0.451439750049715,0.257565521577163,0.424020473206069,0.297114361380322,0.445030278880959,0.350467601503356,0.386907970552847,0.458708445112516,0.302110502492277,0.228097541788762,0.227980925354993,0.227772565363836,0.222941381792153,0.221488067256007,0.222308609404337,0.221352779550522,0.220498315433174,0.21918748037812,0.219004724944524,0.217896998883971,0.218564762439988,0.205246966181901,0.20586956706593,0.207474772900546,0.202744900474364,0.202769149724803,0.213231046224011,0.212954950967226,0.213465685720024,0.214148440861826,0.214556854973015,0.503225401626848,0.60922240708243,0.282141275716073,0.234157163282612,0.23330801789889,0.316797546054009,0.316436945809776,0.315880718547387,0.175650720707214,0.175314248741692,0.175943805443909,0.175496931146247,0.378687905829488,0.261118244111429,0.139671421475878,0.138494934214464,0.140043824542305,0.138836271602667,0.138392194192249,0.137267194085703,0.132961143279041,0.132923491591971,0.133655674286037,0.139971485369491,0.140584273955181,0.141093521850002,0.473693901630027,0.414004372943608,0.144759560978323,0.144985541225745,0.144914851789168,0.144327447004041
0.349239399293019,0.350524168538898,0.353438161603903,0.355080500287945,0.35799245951631,0.360938910143087,0.361434247096381,0.355715298946989,0.354700942980911,0.351398930863955,0.351046815870627,0.351601800467974,0.351273472010211,0.349355586008833,0.347802725114323,0.346906297068003,0.347498164385813,0.347872739371571,0.33778551886046,0.32975265865088,0.330419448911473,0.330259208008392,0.329311218015196,0.328799510721984,0.3276788951808,0.32594123092802,0.325233847449854,0.326079402721099,0.329265807350589,0.331380042238339,0.366147767162404,0.395788284572352,0.381879426753776,0.368942434244509,0.355554058121569,0.340345782333032,0.321190521082265,0.321328818364016,0.321763204553016,0.322076465907651,0.32163542200321,0.320484365942393,0.313431956630005,0.312260227369553,0.350070046881955,0.368535424154304,0.369745133188009,0.371150144734348,0.372267956770154,0.372993706274498,0.374016221616948,0.374164939331908,0.368153418490849,0.362505021449129,0.37349266359202,0.37819006655467,0.38403841595498,0.396739113671201,0.411703671616348,0.426304374276789,0.43951441448503,0.394779462909034,0.364807412560669,0.33490107065477,0.287782878362433,0.2879420584194,0.287792105275245,0.287510677521068,0.287133944569985,0.273358945861511,0.273614883350324,0.274569817649164,0.275149555217964,0.275301021301629,0.284285021809002,0.285078775964521,0.286674027135034,0.287569877594989,0.286158194611969,0.284541485322551,0.282258225270734,0.280356065087228,0.27932204356103,0.278834461669544,0.284136351332867,0.289562508890034,0.29079319094202,0.291188211459572,0.291935229489575,0.292421969870622,0.292477685315386,0.292339487834318,0.293583042068165,0.296134795710331,0.296514383241166,0.294568821849004,0.293975644382387,0.294780386833315,0.295000319842888,0.293910527616495,0.294079843538244,0.29383122311091,0.293867814592795,0.342131325888757,0.39766178090258,0.367385123457403,0.386544523832209,0.372097249696744,0.372566500028922,0.368848195099149,0.364202363468809,0.333015940696749,0.301451761552929,0.226648245030113,0.226273019169546,0.225395965249927,0.223720157986821,0.222943242415877,0.222679822239771,0.221918717316753,0.220797618978304,0.219772542448064,0.218820293111878,0.218730732211855,0.218804577604232,0.219107662051981,0.218875068120335,0.218474086069462,0.217422090377465,0.216313890151166,0.214863015736322,0.213827409550035,0.213815284028293,0.214710544156306,0.217000505913598,0.226166651147764,0.227768435696583,0.230292972859162,0.231679365417155,0.232767660613092,0.252389944838949,0.271412469691724,0.290494577628617,0.238950245690055,0.184670945372621,0.178080025751501,0.175700496633122,0.174374479074657,0.160597225338703,0.139262970153846,0.138810325028371,0.139220708779316,0.139926601586114,0.142965098717729,0.144492682098037,0.176685612340784,0.199604193548359,0.223234010975326,0.248273801668309,0.274793784858865,0.303045534975169,0.441491326537084,0.427701265202929,0.145480430461603,0.145292139364849,0.145060172681051,0.1443137741333
0.348293921089285,0.349976343758355,0.358745409496679,0.3559294915739,0.360681041898549,0.361370404264827,0.361386373209712,0.357571968755998,0.358088523483951,0.349309431059797,0.42088183303627,0.352613923145892,0.352179472403483,0.35151876097176,0.351142167254932,0.347929389148101,0.348125508803059,0.348624632832993,0.349081342483318,0.330044355474558,0.33308529332098,0.333266544320841,0.329540740341612,0.32873311003119,0.32789046580274,0.323294111248266,0.323358778259512,0.322968870536747,0.333402781580123,0.333829346060002,0.566230135345041,0.426962032076237,0.559673550605217,0.419039203474402,0.420109188192984,0.42447269602034,0.320198568550545,0.320379376192707,0.320712236163631,0.345702952221154,0.346078546486261,0.346077954161781,0.311541209924911,0.311236940269679,0.310939496971808,0.367315607962842,0.368864690541587,0.415965923648513,0.35830762540333,0.357872790734971,0.374156710375518,0.374434879198422,0.363068498087199,0.355198955777018,0.463358457563958,0.389249245680285,0.38673475048999,0.384729760654294,0.398030542195677,0.473610686840936,0.450442794301963,0.502523221822238,0.454499039621542,0.366268583987374,0.287968867491244,0.28782612620212,0.287908052585208,0.287730111121845,0.286319192688447,0.272444156302507,0.272310693094035,0.273969016728572,0.274172088095402,0.274384253665745,0.283224598765805,0.285097904373241,0.287583338002862,0.288905425692302,0.288350290406165,0.287947909110227,0.280689500669692,0.280095115521803,0.280132379226228,0.279564987651216,0.294277350359774,0.293805540715785,0.293472656650678,0.293140318276702,0.292908527633341,0.293772713898168,0.293178788010484,0.291531992289342,0.301742857179994,0.301001055491121,0.306408147349865,0.305665906219262,0.292471633355767,0.296594599388609,0.295961937477845,0.293438560766456,0.293309910423498,0.292400623482565,0.292568611700711,0.292331044322545,0.458461079951688,0.332281955996376,0.458520426906881,0.370927700177625,0.372528380387978,0.372395997265315,0.357598118246501,0.300245794340041,0.300661895683324,0.226000483344687,0.225610879965039,0.223868668810906,0.224051641897897,0.223510685253721,0.223713625032582,0.222097486878467,0.221285538431293,0.2195424271516,0.218631830886975,0.218181852526301,0.21875475488492,0.219186320856932,0.219195906232504,0.219058531304457,0.217287668583611,0.216755169129257,0.215278343729664,0.213822228666399,0.213871637634024,0.214706213718074,0.222152119723815,0.223292766309214,0.226021124193105,0.222731285844046,0.222249884878523,0.207525465619217,0.243182632164184,0.203188252225688,0.315555224205326,0.428028630027224,0.190448345331344,0.18155818571822,0.175209891068489,0.173604209486937,0.153346983523217,0.139288882998846,0.138808141674332,0.138351325327113,0.138287952062284,0.146485156835778,0.146097591071866,0.343879523801405,0.345329828865102,0.355328208962743,0.345065810371705,0.333887036275437,0.50989976755393,0.474797268682898,0.478364215316118,0.146408930642126,0.145804964464818,0.145625257198336,0.145323645008172
0.360786129074766,0.360560451555757,0.359983187723557,0.359236636247935,0.360855145842698,0.361209885208598,0.36081887717908,0.358390066365176,0.357571805324665,0.356498752863981,0.3547790510001,0.35394188377531,0.353910840758325,0.352931213547858,0.351780739058411,0.349986033644419,0.349352804356273,0.348908079679848,0.348217434620578,0.345255901731161,0.342404186819979,0.337297077985646,0.331580132424293,0.325306650972381,0.324560743243798,0.323105976649806,0.322389891399044,0.322376805704356,0.334673106391178,0.334842737006639,0.37413891864042,0.401065216831039,0.432042435804542,0.397221581511882,0.383535286013982,0.365673200330382,0.343787324529026,0.343676347280208,0.34308815549945,0.344386887131383,0.345190488146812,0.339388519274648,0.327971476643777,0.327934655082423,0.353357595692726,0.364439341991141,0.361598208872396,0.359248120067479,0.358207199885879,0.357817446315312,0.357901965117975,0.358746730513879,0.360005338479158,0.356932603208616,0.368508485103996,0.379571852360282,0.390587398312873,0.394401941939393,0.398975523212197,0.446946348902792,0.448670926787046,0.421777515932622,0.408925541609672,0.38206933752523,0.35980958215534,0.34388293995916,0.33177891223083,0.313324863288188,0.296093129629232,0.273253761868671,0.273560740394311,0.273896484321747,0.274572265641169,0.27914176953842,0.283552183241069,0.284965799943577,0.286821087141957,0.28760897164846,0.287726142514521,0.286834973110598,0.282979312452477,0.280584432996323,0.280174612074919,0.2803748874415,0.29435588293087,0.294567304222601,0.295028500762554,0.295069301425863,0.295280439294393,0.297049110482871,0.299858927393537,0.301722880183724,0.302980650720951,0.304217215428232,0.306240943669442,0.305605265590692,0.301251955764993,0.296920848256687,0.295955841301822,0.294012250371713,0.293194357837317,0.29250638606233,0.292074900084531,0.291632145325202,0.304690630603832,0.316842582720284,0.328433099385414,0.339801914546249,0.350074390147301,0.359285944642304,0.326871124235571,0.292845568552045,0.271801154552161,0.234141420038384,0.2307417482974,0.227643748348006,0.225015786104318,0.224335179980376,0.225144780395731,0.223602783359034,0.222149258724077,0.221592643245211,0.220684813403273,0.219820063456723,0.220006374236392,0.220696742884452,0.221488369293432,0.220883494331051,0.219984312063014,0.21940510616328,0.220781901395393,0.221342831377211,0.222410740934529,0.22362492278467,0.223657283715664,0.224186781767325,0.224926161454512,0.224164289903066,0.223239619191961,0.223119825178119,0.23197367867609,0.224053103904001,0.217785405936067,0.213776766493285,0.211965380910346,0.211094027749303,0.198774410433411,0.169879859168017,0.159416323584538,0.157236198720142,0.155218398391657,0.152270228574668,0.149382120466608,0.147608453490116,0.14709210245034,0.344153677790938,0.344465830874064,0.351738806087267,0.348887301894546,0.339986108513336,0.384122242094984,0.23035327613311,0.199601404723678,0.14848798001985,0.148366441216256,0.148273435883091,0.147380461252479
0.362534785918723,0.361869806470546,0.361167670901125,0.360832860289368,0.36194812153137,0.361506652651141,0.362309119342367,0.357346497239243,0.356872907447256,0.41958198005793,0.353443736073059,0.353883859719543,0.356692177467487,0.354282644308278,0.352545939294701,0.351349789358951,0.349751318450051,0.350028674962031,0.349166425226337,0.349698099917578,0.345391018477299,0.34502248777365,0.333816800822759,0.323232350855905,0.321449260908384,0.321078028978799,0.322532053291807,0.321929488666209,0.335494705114166,0.335447259365606,0.335246018880585,0.334728887580466,0.50592025490805,0.341510104555439,0.34231185098658,0.344928613491488,0.343987068355313,0.344691257688821,0.341894283981769,0.343561218675792,0.344343755811159,0.329344415103936,0.328533991793927,0.328449704294784,0.553229808667519,0.447236982567604,0.357872363052026,0.357982660719659,0.357545984729335,0.357248021364132,0.357522069873838,0.358749531181848,0.361157939045044,0.356708543466525,0.35267840266204,0.352151975316664,0.401202146017137,0.398679457942578,0.399329272217354,0.445410976609728,0.450288875206062,0.389223862379265,0.381024422782008,0.404880292621687,0.400632760759061,0.368894865180673,0.348586223161132,0.349220057352487,0.350300618482663,0.274164274306822,0.273854248687538,0.274058381557009,0.273420814321883,0.285116856373865,0.28459158400143,0.28583287625252,0.286207992167322,0.287506708021167,0.287326935281927,0.288469125227244,0.289105586526804,0.278752064021016,0.280198466706204,0.281940993008644,0.293145417315802,0.293331937269223,0.297147833924003,0.296941266609291,0.296321065545664,0.299466486209619,0.3006133601019,0.301788154194562,0.30771186208552,0.307837020549655,0.307952526956552,0.308137580785768,0.30878199088941,0.296429736229618,0.295866976721522,0.293528820828528,0.292502033041218,0.292594429109984,0.291070580826415,0.290559837196112,0.289539912379482,0.289301155556854,0.278779175555422,0.278105889746982,0.27994674854199,0.520283053937167,0.288417020144524,0.287616672770607,0.236620300004058,0.237204155805412,0.237565427683203,0.237609992669331,0.223689782788424,0.223899814334242,0.228786793509272,0.229192874587124,0.229108466673146,0.403160584056483,0.321196506403977,0.320775154997517,0.220953803667892,0.22241050915038,0.223828429576412,0.224963789329465,0.223894036824555,0.221103838267371,0.222378254302184,0.224469567251823,0.224907943085267,0.224673103057366,0.224084318112974,0.224596399746192,0.225728167620517,0.225773556644727,0.223957456733805,0.223469948134787,0.362021386778407,0.363799220851566,0.197710816405282,0.196711646011252,0.3211161529878,0.320784383263761,0.32066611917547,0.166700954444731,0.166243525317506,0.166045853469435,0.389114580745928,0.152816072193159,0.148029479491594,0.147346208177561,0.147154819508208,0.419088843773586,0.236244347056692,0.410031116353724,0.360499690421883,0.321936227872476,0.45033054709036,0.150247887190561,0.150815377942462,0.150714677355511,0.150903448103669,0.151310317412096,0.152327484241619
0.363517601289242,0.362979724139129,0.362783494718702,0.363042955797032,0.364073598084632,0.36534190364625,0.367257574557377,0.368403629056511,0.36914520161201,0.370489971861755,0.369920455620857,0.365914193022033,0.360793788146333,0.356682728939149,0.353804517348899,0.352080432451073,0.35100370691681,0.350488326194947,0.35031404239189,0.350178631925708,0.348398611003229,0.348193977431517,0.339438275384149,0.331147964821782,0.321935419130173,0.322148077878401,0.321643106474853,0.321456833002731,0.334967273791916,0.334948212946488,0.334320231243032,0.334080953302477,0.347180269643566,0.345888128340306,0.344451626009659,0.344177815978925,0.3440860495099,0.345355808153351,0.348325458576891,0.350718640729275,0.35237910380225,0.353888538643651,0.355141607729736,0.356558545081164,0.404326486979822,0.399198414819122,0.393479255365109,0.383962053240776,0.374673465179381,0.366320279657489,0.357674963834163,0.358802396611482,0.360193970631297,0.352841998203872,0.35191305927908,0.351047868328872,0.400951619481513,0.400317216927669,0.41565583388233,0.429748055593491,0.425677717831827,0.408189762863477,0.407720778119922,0.406975545913611,0.399474184664386,0.356208512744603,0.349200120613174,0.349948978468038,0.350764760820948,0.273022405202021,0.274063205086378,0.274184399598439,0.274151808279642,0.285816261226177,0.285818587575553,0.28581243237697,0.286589972155448,0.287268932341202,0.288046806734231,0.288902393908355,0.290042857306541,0.291964708065505,0.293726489432572,0.294564125650225,0.294655119775727,0.295209374869376,0.296745860001153,0.298047709938887,0.300264428920173,0.301553234027811,0.303004562806066,0.304339993894863,0.306875367616616,0.307498209936649,0.307975085361393,0.308583697127167,0.308962704874197,0.301858111788358,0.294477544511282,0.293811660665228,0.293451796904471,0.292836849304015,0.292091553431131,0.291219716705945,0.290505830793178,0.289485402898795,0.287554403601057,0.285059640112845,0.282372681379565,0.285177227679553,0.287575289649274,0.287875616018362,0.237569299772886,0.238824606138253,0.239464015541454,0.23810694762746,0.237550894920165,0.236739105742945,0.236173966831305,0.235862914326012,0.235901199073172,0.321484453846605,0.321368047755857,0.321202721255814,0.22873607701301,0.228358715151281,0.226716459858851,0.225460741371486,0.22574961615944,0.226446667928403,0.225672056818823,0.225659756172395,0.224206621944632,0.223714576176289,0.224080597988706,0.224423089880671,0.225377029944634,0.225050320495081,0.224584019423828,0.22445390281278,0.363264805900661,0.363668579865689,0.194675622145517,0.192490295078115,0.190178247393099,0.187091615831486,0.173347659370875,0.167824581077924,0.167268469289761,0.166035870745202,0.163330193997824,0.157827816660566,0.154187668430102,0.153015222146438,0.154385562528609,0.390665461683398,0.376784481865153,0.38483449063401,0.359154253193329,0.350926235810926,0.342741731769505,0.208662880461203,0.150540819230033,0.150619421648473,0.150842457560463,0.151422737242468,0.151036525032683
0.364374388550074,0.36390827231121,0.363676031885469,0.364511924738051,0.366688571090806,0.366728479845362,0.380093613800345,0.378843802344354,0.373706133357131,0.373065426407252,0.372388776124249,0.373333653437417,0.363179804372279,0.363781456633095,0.354247056501074,0.352609188701784,0.350541737775192,0.35138488938071,0.350733984894198,0.352322562812503,0.352331328489804,0.348864195121899,0.349044127839577,0.348663921301779,0.321975809722196,0.322013892014576,0.32152770925025,0.320510036247454,0.334563223609187,0.333908659349239,0.333283837340112,0.332436374337837,0.348934949898777,0.366329657086938,0.350524469904691,0.343290043252249,0.342676422107698,0.344522204777319,0.351331255939832,0.391717773643549,0.361581354915299,0.361213005847244,0.359477931558578,0.358367152852198,0.421099875087208,0.363624951694001,0.399950630636701,0.404303320699277,0.405194060060509,0.403905406340577,0.356723926044984,0.450797697606303,0.45073586416377,0.35144178430095,0.351343125525806,0.349443860972063,0.433451694385478,0.400306812844612,0.434038093959711,0.433604250122177,0.419059239291614,0.409526995154935,0.408232103873063,0.408195108044141,0.398912990150689,0.309256987624422,0.316271781282165,0.350447573915835,0.354413998534222,0.271198846657052,0.274270405675398,0.276253006562682,0.275112322528457,0.285712750920326,0.285369419042163,0.286552303033462,0.286076998327987,0.287217427902272,0.288580045810396,0.28924759581088,0.299744574853433,0.299322763730383,0.300234089274708,0.299325798916004,0.295525710777623,0.295572266948382,0.364430121390416,0.363879936864393,0.363385319642776,0.305022160737004,0.305061951251511,0.306356783107652,0.307051885682033,0.307836024021472,0.308155236038416,0.309095603171035,0.309249098300943,0.30901980705304,0.294842867597531,0.294614606483303,0.294187922916107,0.293591877382727,0.292666005958834,0.292095878672884,0.291404887252712,0.290889402417054,0.467334078899539,0.39157204623058,0.278048706668573,0.277272161744648,0.515110052729912,0.533611493103862,0.237454019506584,0.241686562338725,0.241928071696821,0.237890993116364,0.236665836096728,0.236740553057617,0.236285629339611,0.236032673591556,0.235952253443008,0.321605196611155,0.404471209541609,0.344088971053028,0.228909008750954,0.22950773667651,0.228351775090485,0.2262318568302,0.225750308945112,0.228951731498066,0.229015963185513,0.229220008712804,0.221898951259009,0.223085791641737,0.223512791563662,0.224110698667424,0.22589926261209,0.225106637948082,0.223936247876488,0.216777777919744,0.363915860930923,0.389505630248924,0.181637201374419,0.182749717815591,0.183401160166995,0.183903840556229,0.170311865427358,0.169366433965904,0.168580415358011,0.16787073202258,0.166960525428697,0.390107091047775,0.429770419305037,0.389787703951888,0.157563725211706,0.464701704845559,0.352743896364106,0.465714782446868,0.358737482075757,0.360072501647353,0.331736180628202,0.303044800846696,0.150416597609728,0.150512509430901,0.298959020851332,0.152625054991581,0.425254368840142
0.366394068145783,0.366086811608469,0.366517091454808,0.366785721989683,0.367468792696665,0.367860663495751,0.378742637634421,0.377594095637415,0.374998481769151,0.373722909992769,0.373097140472781,0.372442887602642,0.367792635673318,0.366874829672854,0.357147017491178,0.352176155473675,0.352101649788166,0.351890038596364,0.352184384629133,0.352687844874659,0.351306286978508,0.349469826897794,0.348866302878294,0.348560649046732,0.321816089657601,0.321736144603584,0.321475974732858,0.321088205842252,0.334072010893743,0.333885145143837,0.333600871734295,0.341637411586379,0.349717617396956,0.362456091420825,0.358555424379075,0.359330020944347,0.361826430485058,0.368174878205702,0.376023164722083,0.383542948545599,0.36363621422559,0.362523377912088,0.360578261122502,0.376279312900207,0.399661575981873,0.400090785847418,0.40053178777048,0.402127853379351,0.403606131168476,0.40389227022624,0.420335900552993,0.42973808394528,0.410709689413659,0.388049296449905,0.391733038863594,0.394699043571848,0.39722768367974,0.399751703879043,0.401950895905919,0.404440958126944,0.406752604893579,0.408377941213168,0.40830722530393,0.407085711123285,0.39824230990831,0.344073780519111,0.326875983470136,0.337816317912898,0.328618756234759,0.316052962362343,0.297836913174442,0.277242651439084,0.27723310025707,0.285080021563528,0.285813667189925,0.286048740272443,0.286988499559439,0.28740207479798,0.288318893315427,0.294005053778723,0.298928997651443,0.299137841060767,0.298966700583336,0.297455836799637,0.295662156169094,0.295261502712919,0.330869250814601,0.363094166422302,0.36310144167768,0.30559669352281,0.305885473809626,0.306731406680775,0.307317820764311,0.307737105527511,0.307939351098548,0.30848936874076,0.308608871400862,0.307947464522006,0.304725633525343,0.300849109584295,0.29627328630459,0.294332784671091,0.293340660604189,0.293383911769982,0.293837556288382,0.294773405373549,0.477855202770085,0.483779230140683,0.486731764759722,0.487781252028655,0.491746530885287,0.499951928596245,0.24376589699552,0.243112977322355,0.242861886064651,0.240970936724979,0.239004218580487,0.237014677065037,0.236335387001263,0.235951663537157,0.28920563603411,0.325409387051363,0.329297777521286,0.335458991352769,0.23329703627406,0.229822155878347,0.228783772892149,0.228115773378059,0.227472791694203,0.228173614334936,0.22874635410202,0.228448296239763,0.227587882757355,0.226689368239802,0.225958474771432,0.225856568096763,0.226689622728572,0.22633531121909,0.21939824287679,0.216346116686533,0.214122758929993,0.211677084619063,0.182369699152879,0.182933263358659,0.183381930418151,0.183893785715261,0.176795381104339,0.170235918435145,0.169622903231666,0.168597623265417,0.167887905012645,0.390672025882358,0.390825477268422,0.390402240112752,0.390124059724603,0.389791640218395,0.372992146470666,0.396836033693214,0.360613227941015,0.361034793975847,0.34767846110079,0.329052477785921,0.312132738878148,0.308194622839892,0.299480979775609,0.153945201929063,0.152118612059897
0.367292643686126,0.368559429878434,0.368733971726221,0.369194072847814,0.369348371718376,0.370682026917166,0.378177098123941,0.389703652133466,0.388697586364735,0.374332821145087,0.373515616051235,0.655965239213445,0.503423653688695,0.487396087712865,0.487194357897505,0.352566193012264,0.352980117308525,0.35275878927536,0.35317105549448,0.355727373794939,0.322969999465045,0.322790325976369,0.349433100310196,0.348839867555683,0.311067708921491,0.320496008792153,0.321585920498206,0.320249927573747,0.355157248245908,0.333510329207651,0.33421287519739,0.349888613988628,0.350957105662963,0.386189780446044,0.352743817212378,0.401774707490351,0.401071717820537,0.401298534612962,0.400807739163123,0.430913368254195,0.365968009284177,0.364578524264429,0.359258460935633,0.390460040232875,0.399193061803656,0.446993518381973,0.447350443544813,0.399404520035982,0.403504308803713,0.403822919757375,0.459406434082503,0.476593533816708,0.383332511114582,0.383665918117295,0.429963232552773,0.424851563972258,0.362048080060248,0.361767919372572,0.362069136443584,0.359359761193019,0.358538650968414,0.441751736281526,0.409233667041346,0.405123699350858,0.396391643584679,0.359976473277844,0.315735052438507,0.366065890354023,0.30395690651746,0.358513213149316,0.357944820419627,0.278248345827765,0.27746456801023,0.285802109818652,0.285834573008022,0.286350169947788,0.287015377264092,0.287651944940169,0.288246517857825,0.299449762317618,0.299523451783925,0.299888497262747,0.299836437943515,0.295138332696451,0.294255567549818,0.294045497038344,0.309431256287581,0.369372655272057,0.621277361839918,0.306391571010042,0.306105029788087,0.307641264641743,0.307505363669583,0.308069409149658,0.307176354646517,0.308647874777458,0.30827183044337,0.308616961943791,0.308039384912803,0.308619891968632,0.295966218596444,0.583133151230904,0.29316914848201,0.294063955396437,0.295774600318234,0.295971222068866,0.541135138498014,0.541430792937616,0.541568255292829,0.515603617463276,0.389838446457022,0.712557994161144,0.24370987375534,0.244402105217713,0.244479688559595,0.245065637198911,0.244380122920955,0.236628977522832,0.235986235408195,0.235994519085394,0.422602615699206,0.470846969433726,0.325910547273689,0.486496247235432,0.236143187436102,0.228037158367977,0.237731364138715,0.236931547785318,0.227663372650312,0.228968445032227,0.22913296578498,0.39626630678289,0.235803562891713,0.23453617785917,0.227215164436292,0.227867650217917,0.227923552629978,0.228290932055186,0.215743726897761,0.216043000446841,0.208722999539223,0.209222053215023,0.182712453903447,0.18309700910598,0.183597583964557,0.18355467206,0.18369156105299,0.171826670340105,0.171721348761726,0.168808305247841,0.168343683573872,0.390701633228209,0.391066466619509,0.390754966593863,0.390643756196445,0.390316015851502,0.358391807982696,0.432105845390986,0.362635599376915,0.362819271605957,0.363692570138337,0.364075878058786,0.362001872771009,0.358810530629488,0.298860722231995,0.157707520760688,0.151363072343546
0.368662642473419,0.36934407263948,0.370173378351789,0.370373914318968,0.370808696503041,0.371103833729065,0.377411375510624,0.38334853034689,0.387689960009425,0.387998400015682,0.388259676103367,0.421216036530042,0.439857151113226,0.458663040608206,0.421925847356422,0.359172312727592,0.357011040768672,0.354459047814312,0.354253374260409,0.341738342635124,0.323306342826148,0.323349931823929,0.33850905130252,0.329977314181777,0.321314608437685,0.32032559636353,0.322830968384241,0.331330869779435,0.334164620829594,0.333816331546393,0.360608907829235,0.373213165551735,0.380824885250238,0.387888789202437,0.391404701126279,0.40389494471832,0.404710956562829,0.40535488700495,0.407177573992722,0.422881977991072,0.370697489444764,0.371008437111771,0.385460895319447,0.391223919118376,0.40115958098936,0.423029422146858,0.43729544373397,0.427180630683986,0.41470748265499,0.406788885661122,0.402580438407863,0.395236559847892,0.384003553209913,0.384057995833548,0.398950169049455,0.409294783118807,0.398540231117075,0.381393839688862,0.359514743334708,0.358780452542114,0.358468583881654,0.363845662257318,0.371026608176751,0.38081385028743,0.389391126745324,0.372439550704141,0.358359214654924,0.335169212309116,0.304722871400734,0.293140534570554,0.289766062170499,0.277349031502506,0.277423556215953,0.286268475636544,0.286523491509956,0.28659491171312,0.287811544273719,0.288104326521306,0.289875287607803,0.296325750551584,0.296945676003055,0.299290081187096,0.300819775012487,0.30494873582823,0.307666671722877,0.309523925186696,0.309752441073503,0.316617378770268,0.3198712534829,0.313623116622307,0.307029648496466,0.307733620551698,0.308110518997231,0.308524657886214,0.308392213888872,0.308804049667765,0.309033569003279,0.309134042314372,0.309295437913246,0.308680785177523,0.305526678631622,0.303913638632913,0.301501573290195,0.298596817238473,0.297088345361674,0.348936037781283,0.496550249616242,0.541113286152319,0.541002647331876,0.529180822680594,0.465441018517748,0.435392582335023,0.244191116939309,0.244494057431389,0.244870436750125,0.245150599590166,0.245779999860606,0.246268806870781,0.246171943059172,0.292712492138497,0.42063023548351,0.43542330430883,0.310226525096944,0.283353409710303,0.241146494828283,0.240140444047089,0.238898889320857,0.238614895445169,0.239318506207263,0.239890593105851,0.240272504724191,0.239236251702678,0.236828126986778,0.234681278422881,0.231862718003172,0.22889929011746,0.228524320261787,0.228263120055968,0.222386561751251,0.218229121554206,0.212630402121434,0.212086520343788,0.202674791805199,0.182023141743713,0.182023845030618,0.180590015126054,0.176226731925652,0.174158738405382,0.173964165977596,0.174964485604071,0.227679721331676,0.390802295182681,0.391178866504666,0.391459872082028,0.391214438156811,0.390888067805997,0.364635935554962,0.371507858753217,0.363271107494763,0.363989909796565,0.364200680579565,0.3636882884489,0.362918554082135,0.317097676403567,0.22534679721224,0.165956018889088,0.164644184019082
0.36847276470261,0.371049832935179,0.371096374364187,0.371854837202684,0.371837470186353,0.37258805609709,0.377479634725531,0.378244225807107,0.389079241182789,0.388140111010542,0.388401531100733,0.391684220005361,0.39162763915286,0.551387545438737,0.377553189751857,0.360603033851466,0.360156725121929,0.354913172629423,0.355411866947431,0.321117825490837,0.322094928799204,0.322301350274151,0.351905979544483,0.321001062192547,0.321642500437042,0.316621718967667,0.326000799544854,0.346441549649259,0.334055916300877,0.333512282056603,0.427121366478878,0.425627618409375,0.421815539143793,0.43702769925877,0.42756593637698,0.442107772742642,0.441899366855901,0.434467152162866,0.410488563459613,0.434170846131818,0.370169482491433,0.371185431501481,0.396756912365036,0.391542124521818,0.403953734448371,0.404803888800944,0.44487130353526,0.445968126541316,0.421219447744937,0.448697254058396,0.399160043122267,0.384547978372949,0.384125970710553,0.383785908712477,0.383427036396649,0.433162580654981,0.434861627690834,0.443350558898267,0.357974928992996,0.357719927849757,0.358195447323409,0.358540006588215,0.36587360020722,0.365936314668339,0.404974760427325,0.404644856204327,0.409248408881511,0.302546607335693,0.305645814308628,0.274750032754988,0.27513997485571,0.275421525568482,0.277107980716224,0.287047383576604,0.287005524417706,0.371605370181961,0.288626797519453,0.287360274528344,0.292063876527159,0.293623664125525,0.292278721748257,0.309835407373552,0.299802879029882,0.313050248611439,0.313062510354017,0.311004163729217,0.311398032410918,0.312657867028757,0.323211974779919,0.323466446414418,0.308085545093969,0.308394326707726,0.309075516354198,0.309155230441721,0.309325405150427,0.309095843846731,0.30952828368628,0.310345117269867,0.310579062715937,0.768385089799604,0.423885209515767,0.290101301534092,0.301731611628897,0.299608869547434,0.297610624937861,0.474445783101832,0.474791277486508,0.541092305177116,0.540542313310586,0.541001807490241,0.614986615378864,0.397462286208321,0.244586433717668,0.244834910618737,0.245250927929585,0.245689001985312,0.246037504865204,0.246186903708799,0.245823138928877,0.635425341608691,0.417616134344838,0.469997681437198,0.239633695659766,0.240444855531923,0.242751057615156,0.24089436124846,0.238540840073049,0.238613733822338,0.238133199226253,0.238793572148397,0.240746779891215,0.24059334044889,0.237866336847965,0.235813516090206,0.234411468921974,0.22929236494754,0.228693628936809,0.574364847569411,0.225648013037923,0.287450629615385,0.374553361598155,0.375271097154658,0.350707902505441,0.181156050557041,0.182083158133807,0.173236218045473,0.172912209996304,0.173894623274262,0.174953399530269,0.17491623137175,0.416267402022406,0.390282526673776,0.42157233433441,0.392484898087089,0.391696048844597,0.413459824196666,0.312879691125352,0.384403796059721,0.3623356579087,0.365188829326899,0.36552707056323,0.347480773399718,0.524927998021715,0.295158367756549,0.171783594286465,0.170379186853075,0.17013099222235
0.370397285878598,0.370861337521038,0.371672051744266,0.372406993905798,0.374170680351564,0.375075163093458,0.377186647382369,0.37816185820876,0.389363226783762,0.389637317555351,0.390347835961158,0.391132552148259,0.391239511683195,0.381449836391192,0.376198761122964,0.366464958303577,0.361504953111397,0.354554139365892,0.354432177039848,0.353325529367725,0.352192045000819,0.351093975830085,0.350269965817141,0.348475852465385,0.347708002657204,0.347593716478756,0.347269144260458,0.346625819417428,0.368886253152231,0.385393445295075,0.423903632892798,0.423345951103468,0.422079991291077,0.439192056260066,0.440675845334126,0.441772982906985,0.442092168990872,0.423852964118283,0.41310712801644,0.413109284667509,0.412701358215441,0.412955197111418,0.413057786830028,0.412429482897596,0.411856139042431,0.432585310822412,0.446638862286349,0.447916768689712,0.450068897481698,0.450219850620432,0.43232967029358,0.389323788465758,0.383325531670193,0.38346256475011,0.409364310781252,0.432266577656621,0.437499074120911,0.440601003014373,0.356615487843281,0.356951225794866,0.358468199767639,0.360849895143046,0.364494558786178,0.365435222967017,0.381421708622113,0.396153445008722,0.362982622169704,0.321544909977735,0.306248105921622,0.301364571800561,0.297305471458075,0.290536645742877,0.28535655617341,0.285769279236674,0.325266744054645,0.339608098009175,0.326176028570225,0.293202809355582,0.292794473902512,0.292687328193031,0.292337494635551,0.307488280869139,0.304847139155533,0.310050868506645,0.310885959735808,0.30994195665884,0.30963353087769,0.31820115999249,0.322835179025665,0.322485193525548,0.319898131063868,0.317490236907376,0.314931900927344,0.311960766446928,0.311452650472342,0.311843952558391,0.311639123813442,0.311547196119817,0.312104667688858,0.320583019274351,0.320580079121444,0.305734224528752,0.306111046354863,0.306948462554086,0.307273653981071,0.351498259672648,0.381663517885601,0.550242897959645,0.558368643293775,0.57344549828754,0.593267336229384,0.399453877475447,0.297804822643679,0.243865268384842,0.244371078284022,0.245005008247397,0.24570193823324,0.246470665780691,0.246905475072077,0.300886856425327,0.406703438137857,0.400378302002227,0.323761693659748,0.293665103587039,0.242478309312346,0.24171148559985,0.240231128649114,0.239319078174543,0.2398652023798,0.24049292607493,0.241304301635172,0.241238134857775,0.238896687451804,0.236568838649878,0.234432247974327,0.230921937270123,0.228815610126831,0.226608526755835,0.225964112512348,0.266579548877362,0.279742845326955,0.298399980527853,0.317112906219766,0.193729616525504,0.187164577140938,0.183826114191036,0.174596587954036,0.174552714220779,0.174885680727641,0.239803863428202,0.409253121127399,0.390953333769312,0.39133468729119,0.391631279113353,0.391129873322588,0.390001582162085,0.383262205335765,0.379071745284711,0.374756457296466,0.370515244740201,0.355756813867642,0.282315507539189,0.250986094999908,0.220906638741739,0.174523650961833,0.171569100707647,0.171020075375005
0.371624276520035,0.37147337579016,0.372042044888184,0.372498891468924,0.377049616876105,0.376879452825852,0.376631306491428,0.377471542167433,0.402561503668394,0.403076291805147,0.391708472853101,0.390620021511082,0.390342803955607,0.375642789979185,0.375667046496196,0.374314167477935,0.36445281085779,0.35468610421527,0.366740341526077,0.382113552476441,0.380272657269235,0.378353062750812,0.429427019187132,0.431198969703997,0.37577771845938,0.40185127348672,0.358997868825764,0.332295191313517,0.421720162045021,0.396442617152563,0.421651826658345,0.42123683858991,0.420723689899492,0.483568147872536,0.483184894469292,0.468027324283196,0.46865127881785,0.414230029680144,0.414103045271093,0.414424949641548,0.4380248406577,0.433956150435532,0.432807942421309,0.412038281313918,0.411415078376368,0.491556139554824,0.501533044229493,0.502184734214603,0.501807788529134,0.501642398354639,0.464535722345235,0.400201821714627,0.383165185175031,0.383660264454927,0.424057979115279,0.431219512883381,0.441208042617454,0.440784765347028,0.354951588868352,0.35491661428721,0.413337809421793,0.368564361715259,0.365417667607976,0.365151562599828,0.369156424115326,0.407961319391446,0.324039835656389,0.338183625142126,0.315427010789881,0.318140023525891,0.366848939597968,0.379964416031395,0.285104422247037,0.285361417791497,0.374904673562701,0.389773389028009,0.389367516495545,0.293355131591103,0.292993319765539,0.291883457752777,0.291833366150217,0.306979119385525,0.304760509404279,0.306428253476986,0.351613643154355,0.308089003604156,0.308643629771108,0.322605419731775,0.323374429138488,0.324111597175723,0.323524486859507,0.322865910617977,0.322000941014034,0.311493170445681,0.313891041901973,0.314024442348493,0.314452255858551,0.311707419728688,0.315457645522558,0.320100288592485,0.320994856849838,0.30652092613534,0.307157110207874,0.307246735158257,0.306996577399271,0.307847992689922,0.307964828861676,0.638094985608844,0.613060243890747,0.614748307771567,0.615239244025305,0.401570030412259,0.398612351107351,0.242530202932961,0.243423222375619,0.244560573927525,0.244967025511033,0.247454850529615,0.248425401893875,0.248750046093404,0.413359660842122,0.391846006517252,0.490296959985557,0.42034779663727,0.24340147945985,0.243498083085576,0.242257548155749,0.238590959280453,0.241785870179391,0.242303107694438,0.242612059195355,0.244507871301231,0.245413382748373,0.575227253149523,0.574647969605117,0.574793268091273,0.309393949529791,0.226130249136545,0.226811123750929,0.22581508023932,0.224471736963765,0.219159681403538,0.378500670365219,0.205185098919393,0.38763041860923,0.464137419433708,0.174978290467907,0.465922914726345,0.175441651496363,0.372562309068432,0.417935143349127,0.390971311643522,0.391062688201187,0.391653393848984,0.426277916853112,0.38881794912725,0.388178064706994,0.314074264170753,0.470621493973972,0.470468250662443,0.345817884216457,0.180562699699994,0.179829528879774,0.179271635619093,0.178065805351478,0.171451296845127,0.170357897673486
0.380981583396871,0.380255095896268,0.380373114405229,0.380331179239403,0.37920107878351,0.378555284425504,0.385618782951591,0.391409101780266,0.401031030452646,0.398733864869048,0.396018364783362,0.387286573825324,0.386339962817115,0.38339421102601,0.37988526279969,0.375871937755579,0.373280545917679,0.372510727932057,0.374422918060495,0.378479003124739,0.379723487325342,0.380961248322353,0.428210488699171,0.429521193643636,0.428830469947523,0.427655125355725,0.425985816779311,0.423959567048364,0.421669935954809,0.420965839359433,0.430872032437119,0.442492125464699,0.452193552855402,0.459720315242367,0.475952013039137,0.466812159365498,0.461792870085975,0.415483521825096,0.419056406948497,0.431546370172938,0.439363263097463,0.448174947212184,0.459035294677156,0.46975869578998,0.481184807595273,0.494354975768029,0.50000697836069,0.498137380104263,0.498107589536855,0.466518529225263,0.442717412281823,0.422223616835981,0.424473233644194,0.427944793134447,0.431852704291878,0.435165691155738,0.43909452347485,0.439684397499232,0.411676912426785,0.405202051449983,0.396583286213643,0.377843495376894,0.376972392233359,0.382042140876557,0.38670225939642,0.394093309062951,0.381748440790666,0.367661593698731,0.337097912016112,0.330643866559795,0.358772617259507,0.378870779558282,0.378009029874924,0.377043139469943,0.376333622080549,0.377775199919605,0.375169872636282,0.35801639145254,0.341447240694418,0.326193945494792,0.304707015662393,0.306313300533078,0.306665705091697,0.306962262863462,0.306939261837146,0.307476100776125,0.307734398670409,0.323154238273201,0.323282022667352,0.323436010431149,0.322971648862986,0.322137746595122,0.319862764633769,0.317230861968974,0.31587256052181,0.315309318617693,0.315010940833159,0.315413106398867,0.316743650289208,0.319136458443345,0.320257130234577,0.306658681821817,0.307180783724028,0.307555504807908,0.308320479377239,0.309717450170202,0.310564657402046,0.369201765831435,0.613759451457269,0.614444568952335,0.614831908820882,0.455431408743947,0.425380651558292,0.307480137237708,0.258134028797224,0.245845478903683,0.246485983916518,0.247508777363832,0.248522801358919,0.250193429179833,0.405166814962963,0.389885569739364,0.389395258671038,0.367713513578981,0.29757155301266,0.251598932887509,0.249860329229401,0.246885613706318,0.243858131587945,0.243011865290439,0.243157040902741,0.292114173276401,0.32223663863199,0.401356834601744,0.397453407516627,0.355524738460602,0.309819193164233,0.284824215305967,0.267519023469703,0.229208485086576,0.225797783005867,0.221835733078478,0.264370378515537,0.252095135031934,0.388563046940487,0.416184815171026,0.39886601970622,0.388019401470583,0.373014816458297,0.373262453678352,0.388186141197309,0.390603605758121,0.390795322211909,0.390993858565245,0.390802656353884,0.389000291206169,0.389051793475807,0.353433874717476,0.382393358885687,0.411578777122146,0.238840660312971,0.180373564243727,0.180229214454572,0.180235009492879,0.17975323149506,0.168812767935789,0.168007100887691
0.383079563263912,0.383520355781577,0.383011264763313,0.382711092834939,0.380876372072584,0.380129000454414,0.402251557884193,0.41153100464824,0.403089537940239,0.3948555452465,0.407548393121358,0.385241618439265,0.384384210171673,0.432451885541808,0.439944652033997,0.374806234112281,0.438457498474676,0.441195407530044,0.432340430542599,0.446336182664109,0.433712201498362,0.383075487549895,0.425460744151044,0.445373782084043,0.446545237714891,0.447846482083021,0.456659056607927,0.455822759746902,0.419745664076614,0.41974390314129,0.464696292314813,0.452565601323401,0.48298836984559,0.441304097157924,0.487806507308014,0.466149981160271,0.452987998321057,0.41287703090835,0.421892673688473,0.440931625844005,0.44105010407091,0.473050080631543,0.480360515868843,0.496149244194195,0.496123402791125,0.4966933959365,0.500042197071642,0.492990316275487,0.496465834939395,0.434614499393892,0.422136092902072,0.420354371667564,0.435082674424272,0.475966833196933,0.515051624329723,0.497939293833632,0.491288102279148,0.51436205177842,0.419028515240418,0.418471678127697,0.381093404944698,0.3779697085691,0.375966729632165,0.406786196164816,0.416385177833415,0.450214542555235,0.452064975078005,0.453324542844247,0.346494319149307,0.323857935928906,0.347097701698163,0.397576235395895,0.398050030937918,0.376835637395401,0.376377550143377,0.382920414973529,0.373449439878759,0.373726378857624,0.373934906719879,0.380703938462835,0.30237093022697,0.351443006396247,0.308385556345777,0.307903311849113,0.306269576198812,0.306705191712517,0.306469864438354,0.323207337919295,0.323366379945929,0.32303570272115,0.321524860025404,0.34283599150643,0.318321045694435,0.328482182722065,0.327965971105816,0.3157026668661,0.316158473176906,0.316459844941935,0.317981119861145,0.318947225032098,0.320914101663156,0.306772988378169,0.307884885956134,0.307370146840142,0.30923947683224,0.312303721902341,0.313974674927425,0.31535819957262,0.668414094120778,0.666758300385281,0.675888719078483,0.705287472676464,0.491539765777462,0.354155044790816,0.274341305780821,0.246501434178685,0.247525708015351,0.247851495299619,0.248169384737533,0.253260802490338,0.42839959991149,0.326068993504761,0.390035252365129,0.32711725909872,0.405027157933573,0.251883893042821,0.25248390436813,0.252156743993607,0.244238154247492,0.242646315202091,0.243802515700901,0.417435414595775,0.416377900277844,0.406646793794566,0.392411912544638,0.309364479868605,0.310090748910423,0.310218536707856,0.310374293167084,0.235811376277559,0.297332226352503,0.219434176942814,0.296270739626753,0.209653603100022,0.389359003163278,0.473011882690797,0.439660668342158,0.190617512299755,0.371774794911838,0.37349832438326,0.373047532799547,0.469978838269578,0.432200001290333,0.432557228146771,0.390516079274622,0.190922498359857,0.389600458929726,0.198274137254815,0.197365265105345,0.470600451355441,0.181939989994193,0.180587070669914,0.181348086934029,0.180692184526016,0.179771784295016,0.167985345544997,0.167940642013066
0.383512119276001,0.382985403623176,0.382535575376968,0.381933568204371,0.381403515449656,0.393560777052292,0.40542588918001,0.407489589460384,0.404441232960112,0.411188130881728,0.415404410316715,0.417898479132915,0.421015486740783,0.429290080920233,0.437791094475046,0.436909734668944,0.437214642123378,0.436239470168096,0.434329345534189,0.44530525382352,0.445088895417145,0.445277511674372,0.44560281279697,0.446259707219806,0.447898807434751,0.449905082016807,0.454171261471563,0.455587860782404,0.459944311637887,0.461787674335518,0.462386410078371,0.467174612454951,0.468169024930117,0.468442482977609,0.466718170864168,0.466697941506214,0.46800093696207,0.469892742949242,0.471693975882208,0.473307188876162,0.475019342031132,0.476841139012383,0.477276113827903,0.495900654353851,0.496104746190915,0.496464404713923,0.497756712605658,0.497460749466456,0.497144352945402,0.497609333252055,0.498308407435332,0.498971599117402,0.4993435121909,0.499226269421067,0.498629806444719,0.498148169779396,0.498276980292478,0.498670315077197,0.475668792456551,0.458705419068644,0.456990562402583,0.455954778365009,0.455322782386086,0.454655995537703,0.453808923913596,0.452947831014797,0.452057330132052,0.452353066551026,0.427094176003263,0.414424523003563,0.39880940081746,0.389933203771704,0.386125751933908,0.380913646233674,0.381403867492236,0.381900439821837,0.381064804024479,0.380135227958142,0.379713176714647,0.380200070930645,0.372180841915686,0.356132516385561,0.344946477706542,0.334203941181048,0.320841162241151,0.321215470037948,0.322496980844779,0.323334450989889,0.323782964061749,0.326527404116843,0.32949103039288,0.333768618258507,0.331372268255997,0.330206204217487,0.32626000939418,0.321637197579661,0.318317125021893,0.318618510217131,0.31898519254754,0.320119997789272,0.321027798492126,0.314881844776131,0.308288669763055,0.308653373831224,0.311274032041051,0.313507763692609,0.315262399757938,0.31616283677219,0.62023585767564,0.615556562679086,0.611362880211898,0.531507757779721,0.491063595345075,0.417373314830971,0.387479701358377,0.360007815515866,0.360247414626216,0.360811335287308,0.362556143997112,0.37691236126516,0.388667752034813,0.388338652662907,0.387524506548203,0.386181467572649,0.399918292050052,0.257347501076669,0.256871774903798,0.257629549678536,0.258193985989091,0.258969038411697,0.259431117055433,0.416803008024329,0.416428881607322,0.372368684076387,0.34730937096656,0.30995904033084,0.31029324964523,0.310472856697673,0.277081054770293,0.236233512938131,0.235395473085323,0.232816883419461,0.263914657700454,0.207112986273491,0.204481663987998,0.203305729467471,0.202443029583158,0.201709973397796,0.3731173143623,0.37474861656181,0.377768342013488,0.456919848174286,0.446069832197983,0.440195438096302,0.389989399124842,0.253491439179477,0.311313086947598,0.281391127112871,0.251551124600085,0.281541967923204,0.240202324683032,0.187151554082551,0.18425127699249,0.181722431359912,0.173347873973577,0.167825634382049,0.167855030297141
0.383453730024072,0.382512761684204,0.381281692613691,0.380777044838536,0.381068259173096,0.430028979928133,0.41123978493675,0.44926893623265,0.402085212773915,0.445550856847682,0.43645584514323,0.424403304846811,0.424880529785382,0.425849931606067,0.435833661326719,0.435277486926543,0.437174431914738,0.415670123288132,0.415379943364901,0.469855719560082,0.467652382062694,0.466271638196091,0.495005335173424,0.494605982662662,0.449555192025406,0.475714402365224,0.444769891762999,0.418262007871538,0.50623562371198,0.46311123617091,0.461156572923172,0.498441258193023,0.470039010711869,0.470207146526824,0.465276691849433,0.465584440871572,0.467421909381391,0.551755498585453,0.490146090237489,0.490481093001455,0.500680194183765,0.480050503887325,0.474272056512324,0.496168263761247,0.496411689035366,0.495571277444687,0.496882156174445,0.530569593851034,0.530228416710242,0.525062396652408,0.514663563255276,0.51339498909033,0.550641358922273,0.547357398652362,0.472777843847379,0.49740333081119,0.498444443827932,0.498825206295061,0.525692026228836,0.461005086620318,0.48596388821684,0.455865732689339,0.484863010299407,0.511528998655179,0.517878273261409,0.517354285808417,0.45074303575267,0.451653334859286,0.450018704843528,0.489210239116857,0.405246130652721,0.387044894398844,0.380889044528548,0.380795620193911,0.391888877722934,0.400192394522241,0.401784633782498,0.401850902054393,0.392447106716775,0.388961466745661,0.385855269904484,0.389270018505076,0.388258209206436,0.363050928652242,0.319873949071344,0.319806178835446,0.36322481418586,0.323356294777591,0.324027283859347,0.342168845245997,0.344462170037792,0.343610964661439,0.359450774078345,0.359505780965068,0.324285519991819,0.324572377116544,0.317874804052929,0.319471453566073,0.320205163112799,0.321268815412519,0.322036189345585,0.322580571524182,0.308142964546455,0.307784308858971,0.313225989701848,0.315803569384914,0.317728148019615,0.317924142267956,0.627558613503639,0.606548503866154,0.607339918256546,0.490572987094076,0.490965719986758,0.499199059350409,0.658847327967003,0.360238209662704,0.360580274046148,0.382675626787326,0.36573080329603,0.440331780951702,0.389836515564918,0.389493620132488,0.385823534943522,0.385037366554269,0.424761079976908,0.25778057701058,0.258007654878451,0.258241773253854,0.257975336985795,0.25922307667369,0.259605108773053,0.569439050296547,0.828250286008957,0.269085781134332,0.274415913263223,0.269552427639224,0.387569609545556,0.387244176476708,0.237026353778172,0.236902705184498,0.235791348890327,0.229703003798224,0.388558725461382,0.201421406027409,0.201522737211041,0.20214026047935,0.201275584720481,0.20067411819824,0.509052195851299,0.479031978571241,0.380609772536618,0.473694776029988,1.02796031308817,1.02817763996634,0.389198390220552,0.193381635573595,0.388176313747109,0.387325395431819,0.198007980545899,0.432563238927472,0.312504348581775,0.189179394374922,0.188904496874334,0.180393268487356,0.166881501802326,0.167580886999264,0.168448799262747
0.419666628151809,0.392383172657089,0.393288519993411,0.393767344892166,0.405356336826503,0.421741663999843,0.431065637034817,0.447161946206636,0.445804673358851,0.445150279118282,0.439962337406562,0.436268879090938,0.431063921016785,0.433969143377174,0.436230259017642,0.438404533826761,0.440425728884709,0.442135463324367,0.462451785915158,0.47527064657007,0.479291741814943,0.483679618710862,0.49612109930508,0.495779320889144,0.485487346832747,0.480999314013863,0.462350860788236,0.482192739279144,0.507303031451361,0.510790615053576,0.513947424125664,0.518114035774497,0.52113085718013,0.52238975937871,0.522584931026814,0.526886714639751,0.532708290207602,0.540221015102985,0.511378763401798,0.51188510243051,0.516928398386375,0.520030038514413,0.522371534793926,0.523676328223391,0.524646778646755,0.525947937866891,0.527429008119475,0.529375071076072,0.530781886901061,0.533009549625268,0.536096058576111,0.539745381701746,0.542895774462356,0.545569873714821,0.540277754218766,0.532948108909099,0.526990637119366,0.526548269819929,0.525782542626488,0.524401485574674,0.521762524390338,0.51763682734402,0.5119124752526,0.512119159312168,0.513935047248564,0.515677372096752,0.504639696575363,0.495498857751533,0.488936161146947,0.479431686074892,0.463001507728688,0.449772110847484,0.438288207131349,0.426926777277074,0.409223938876434,0.398381801444358,0.393842776292361,0.391345853906177,0.391203102151974,0.390682607368476,0.391259646981635,0.39054349678064,0.389715736977392,0.361150502465147,0.359357561468935,0.359101027575176,0.360755786824733,0.360897591946318,0.361168708519192,0.360523346183761,0.358901130421806,0.358108208602143,0.358174579957945,0.357645254219497,0.340252096435134,0.325843835012509,0.325909065218532,0.323521088066558,0.321726655507367,0.322026617208168,0.322829783188721,0.323260302096786,0.323140160947397,0.322141144500698,0.32142232458655,0.320560589275961,0.319589871963749,0.319392879821943,0.372606149573682,0.402705058473659,0.526512503553268,0.490208685017756,0.470715692678599,0.452024506006675,0.433362116574828,0.392164951183274,0.385194184875758,0.381084217423504,0.379718027735672,0.379421078681049,0.379509060547467,0.380452513100934,0.382522583286062,0.358317284955463,0.337966879183822,0.258303991856737,0.260428933300576,0.26055296938759,0.260645121687989,0.260915989576016,0.260991193454802,0.37176293356206,0.401847211207956,0.365423606356249,0.344062794588749,0.322630491357585,0.30121004060541,0.279586867765658,0.239307667878346,0.237454048743062,0.236611955544872,0.235586720899566,0.264834378232733,0.200711752794738,0.201057002492837,0.20102700728601,0.200815215392892,0.200271044121479,0.254254014504943,0.382914392829114,0.383066172383011,0.38462653154301,0.386451396260513,0.387498005243396,0.388639728343837,0.316831479248346,0.286912118331989,0.257069853875627,0.198016094301307,0.195108756767023,0.193069508220628,0.188685072384695,0.188522691898594,0.179525152693488,0.177222050568419,0.173761751590675,0.169635736190697
0.587046428162996,0.39143025713583,0.393269711536329,0.393325269413703,0.418663151498133,0.414279346019553,0.442722775820179,0.451835511710597,0.449551512139318,0.45069061957062,0.450312523158138,0.450568850706154,0.428156884834248,0.44739051190954,0.447116083218221,0.443311429548007,0.481669439207455,0.443609337013399,0.542352451533706,0.481891950113765,0.49930603624853,0.504835471459034,0.529551610353012,0.529967852144463,0.494592453602962,0.494457613903629,0.43762047639959,0.504592919069687,0.504528577560413,0.513521391578353,0.512646251008796,0.532875514335843,0.524493107049735,0.667730219634624,0.668637400864843,0.761191570132225,0.551767185052174,0.566897818711663,0.50975626144882,0.509766225953047,0.572007949231439,0.574004876644963,0.57384954275444,0.528024761368808,0.5416683527842,0.556756496044502,0.637462014347541,0.635291974475575,0.606078246815114,0.617266934225187,0.619388627724238,0.618119807141281,0.540612048995997,0.561730461560198,0.562548432361822,0.548254051052726,0.548831518781958,0.577072962405246,0.474246677697953,0.542529928655062,0.543851183497153,0.543356438568223,0.505500393240346,0.510291261335567,0.510778446843353,0.52302657301133,0.529017577105609,0.527961190054506,0.525756566362788,0.468818463953138,0.494025778435416,0.494155462676259,0.467632841142838,0.438808257903195,0.478718297533922,0.388755471002419,0.39131113315192,0.390173350425885,0.375022099656986,0.414551603515704,0.417750558897743,0.392711696789023,0.415076565695715,0.35428235420804,0.387818731266886,0.388622603151167,0.389009273255006,0.375984077767935,0.376236064998646,0.375797536331191,0.358079856260801,0.358250511062755,0.357450039581788,0.355783914669686,0.355849688181813,0.325826660726848,0.327276068433855,0.32725967869087,0.321341026273669,0.322154203607818,0.323657994783647,0.324545643304519,0.323944491782083,0.321430502280937,0.321045023599116,0.325655338078136,0.324593076516421,0.320696025527763,0.329093874886414,0.32921432156697,0.621976151340491,0.489984529967416,0.442849400791401,0.413703434083308,0.414851967869286,0.415509346870236,0.3952575032895,0.341103074086616,0.378305210052259,0.260062537031357,0.376012868388948,0.377527343841698,0.471373640005334,0.323425579606827,0.323314130135484,0.257101538377616,0.263895270155533,0.264383614879238,0.262830675392265,0.262593867805768,0.262363155986391,0.341700542877543,0.789434033822837,0.39440147099472,0.382642358993143,0.481717563533549,0.24460832451368,0.244839196874664,0.243135464072777,0.237708857969009,0.236789535642864,0.234811958458166,0.308094169232503,0.200295830908084,0.200838783565339,0.201267523822037,0.200993704568079,0.200622033094451,0.199991305572034,0.382645807788337,0.383765790050631,0.383795633969161,0.372375816696203,0.386873108393874,1.07031955063684,1.07055916745123,0.199044126337549,0.199485328185823,0.199393950020559,0.187866320064802,0.190433190402184,0.187916846193919,0.186741108393552,0.180100623905694,0.17990309387183,0.349528489887526,0.168684222471557
0.44019781606691,0.438480821351107,0.425487601568848,0.40936225522138,0.418291883922954,0.433806477106981,0.445217104854556,0.451007905576367,0.450460226096061,0.450439942462459,0.450264872413035,0.45010639246129,0.436478250959077,0.4397355349793,0.454634122472885,0.466738895545913,0.489892914724077,0.500719024928232,0.508771972673083,0.506234333310758,0.504934834697341,0.504532032543372,0.529254450884384,0.529466620122482,0.517396461969195,0.511532442291411,0.497359610033229,0.503886009259794,0.502668012460615,0.518368095053411,0.525048722578918,0.532100773414872,0.536184027548404,0.646619755781791,0.656206620887639,0.638984101039412,0.600024618042942,0.592772417496772,0.580448028588657,0.58835723286289,0.596193829444273,0.601932481698412,0.606230023498114,0.61110307372503,0.616692672701841,0.623981182601731,0.632310066091942,0.633912953113031,0.628190507965569,0.62460295783881,0.620147951834952,0.619586250188691,0.598879399740896,0.580263315809038,0.564996855846938,0.567919601937435,0.57047135573192,0.57181978629887,0.567448694321869,0.563284962171786,0.559823630263574,0.557057002857206,0.554358741524997,0.551029794836217,0.547704112955245,0.543909684021319,0.538996161341247,0.534153051359952,0.529987711061557,0.511279746919907,0.501354139243527,0.476935842966069,0.469045705998942,0.471028866143688,0.474748140787153,0.456101666768639,0.44330519141746,0.431602655425733,0.414420486353548,0.414538111224608,0.409903532638669,0.395391336489382,0.396268186595599,0.363544875568809,0.37562071411671,0.379670546735734,0.384009900935846,0.375821968518212,0.376220728385789,0.366428472463378,0.358649383303637,0.358573574874295,0.358846881437362,0.357572242972218,0.356320095814493,0.342649800286651,0.326335435192756,0.325548528705176,0.323370618909041,0.323102166906318,0.324025666463917,0.326072764867996,0.326320442658358,0.327722603555061,0.328461989350303,0.329065159346712,0.329886019736769,0.330429543749308,0.32981154221346,0.329638940008714,0.373876862884813,0.400429319046402,0.427124082605207,0.414035761344301,0.414953884080996,0.416118101378424,0.37559872876449,0.355814599682157,0.365130190523614,0.351707248999287,0.341779322147953,0.328958580621675,0.316039677618353,0.302380398739499,0.286253521705284,0.268783064911125,0.265723326218038,0.264753886696759,0.263939942932212,0.263768965641551,0.263548430248769,0.311656718726926,0.3819521759824,0.352222358968234,0.322694877637783,0.293502762407043,0.244573804727209,0.244463575067271,0.243185813613559,0.240747042367885,0.239372784625922,0.237832619619278,0.23801311357517,0.224384943931757,0.220907466500151,0.211571667529696,0.209284476027054,0.209490052081916,0.209651997267338,0.383160477937868,0.383923442733873,0.384185185553931,0.384680810358025,0.385355194757066,0.385039302310492,0.255216717996703,0.199284537134244,0.199851157659543,0.199832181140835,0.196435944810175,0.193914289044505,0.189236787618686,0.182531818910567,0.180841618924496,0.180930142203558,0.181784217624322,0.1824044688185
0.419146769561238,0.45532509514719,0.461030708994779,0.395174805554971,0.418220696350658,0.45642453940959,0.464606870377725,0.464702593886746,0.472277228036332,0.470043784403365,0.47001526719884,0.481804200269612,0.431792893607907,0.431363621108715,0.464379767979014,0.476870529385568,0.503877390087407,0.512804610486871,0.511500574587941,0.505573138461196,0.503726433279591,0.503591188120562,0.551258502430086,0.529475567040914,0.547434333726956,0.520258181807283,0.493306476428153,0.506030872300351,0.499873990743419,0.534959972325187,0.533241324958834,0.531502434693337,0.54687455368845,0.630708953821474,0.724750761476716,0.601378672773636,0.609847905428806,0.736274207677592,0.571620306215439,0.61855132925648,0.620842589273709,0.608297720551023,0.607549360576007,0.624742136497849,0.708288840795149,0.636271139563741,0.629207731478016,0.655452833479506,0.716615235825743,0.647503768701808,0.620266661989462,0.633925352727069,0.610460473242941,0.612363476132626,0.546240459039252,0.586322914140564,0.57497642585824,0.604575798227682,0.63638250629268,0.615028667101929,0.614929238384077,0.614814928521417,0.616210504764787,0.622484281865754,0.586279586322715,0.587849392793951,0.584926259043248,0.56092325922235,0.568821527326563,0.519632989346356,0.519620158011037,0.467735689846303,0.468463458484105,0.469955420736791,0.573459490101991,0.474380346813162,0.474422679524694,0.462548417096747,0.414182365672573,0.45371485567883,0.375863637343252,0.3969819242583,0.397262623006508,0.353336841397498,0.372159028104029,0.372827216453357,0.402648165942691,0.375102713104255,0.375857064371162,0.35821520080929,0.359463578940478,0.376338221996327,0.360940724433791,0.360052882048188,0.436714181831633,0.359930131345841,0.326218356224127,0.324752624032162,0.323811676555626,0.322324825396945,0.323242085759491,0.328972231695648,0.332081425716266,0.333015167755705,0.333804710179302,0.335936257774102,0.336390489949678,0.333777728511293,0.33027685258885,0.32990160536818,0.330085603582549,0.331480578232192,0.49281283101567,0.351919946011616,0.352153990582,0.417636208169267,0.303272808195468,0.303606256135985,0.531535153058387,0.531118888499434,0.271527055008867,0.27218846234172,0.272643628821196,0.272712215471057,0.27289947515706,0.272249291380049,0.265479843913491,0.265330406092858,0.264485954404774,0.264828372035086,0.264453702148698,0.26428545632152,0.788796263022672,0.275785061783166,0.277824389056982,0.244042305683797,0.244578299003276,0.245460967551451,0.243706563291056,0.243069187738629,0.241606540629962,0.239179035225376,0.238075978164282,0.310952968293514,0.358925369750491,0.216808215133185,0.208479048147027,0.208763252816823,0.208793934868407,0.382959736194478,0.384613193083626,0.254079913912983,0.384412144577006,0.384793343660442,0.385180628474239,0.198763351583809,0.19925426229757,0.200783325633193,0.201398319880517,0.39413566750423,0.303333154323062,0.190258383910331,0.180155976338739,0.180729327848416,0.18054079866238,0.18130380161379,0.181222706713636
0.445250852890111,0.455336127697492,0.458184941106411,0.438830463908162,0.448226505087734,0.46227370818872,0.466783486983131,0.467694010997059,0.470558642024399,0.469755251400045,0.469005650929815,0.488405485573476,0.491747239136996,0.494471938219459,0.498064969837276,0.501463431527959,0.506564491378112,0.509126945918143,0.515549607121651,0.521303479815249,0.52703350652554,0.533449007616847,0.541556949994551,0.54221163163423,0.543884410146061,0.541524596255196,0.538793186472823,0.536381510521195,0.535075892432636,0.534923196691331,0.550243337328616,0.559384280063494,0.583986421784837,0.659833779424102,0.682760314652639,0.660073306248251,0.61575351331099,0.625248700165899,0.619652224258803,0.62064428383189,0.621112135737942,0.620258475178279,0.627820614164005,0.656720930828162,0.686356898104733,0.674773528757346,0.663252364559447,0.664002055899693,0.664148661440751,0.651474400800514,0.65008887602701,0.648947556149354,0.647974951338382,0.646608694522348,0.644678536032428,0.642446306831732,0.640352429714167,0.63891235959403,0.637956094800622,0.631789156684054,0.628706881091471,0.625529446416304,0.625040568174803,0.623862873220789,0.610589286282648,0.601135661354448,0.589179171372932,0.580272733989273,0.574692142426124,0.570558825963023,0.568748460415371,0.566641548857393,0.562581977043819,0.568524273395729,0.571280115696185,0.521827150161027,0.499251232884904,0.47037142618343,0.466487627189029,0.456020230073027,0.3970335196222,0.396839161192105,0.396564582911303,0.393677245218806,0.392675858933783,0.390971805610096,0.388815978010166,0.379960003159518,0.377139733476201,0.376965446191205,0.377475072304171,0.377371693832913,0.361009980807577,0.360483211892999,0.359737806620579,0.359402864122178,0.354199319401706,0.349505026387509,0.347743107549181,0.345119560979586,0.343729813098194,0.342729945761233,0.341039798609306,0.338604834824795,0.336658931930301,0.336674411285843,0.336541246639943,0.335684197467098,0.333707358477654,0.331758238725703,0.331026292042071,0.331298147865673,0.457398250420916,0.442491569094765,0.434007150324201,0.42692518477224,0.365656309386386,0.30514636236615,0.305840723972878,0.294594642598653,0.271738154152847,0.272025898834041,0.272425571215172,0.272471647512078,0.272194318078792,0.271147030302167,0.26864914374528,0.266248614174113,0.265408544927708,0.265168183651167,0.264721800427337,0.264416562202381,0.269945059746784,0.277588540914821,0.278414906452701,0.269036408970671,0.25814717531999,0.246199807569336,0.245472012390219,0.243920063883181,0.242477296047429,0.240964382835181,0.240030212332111,0.23999365264552,0.226782665399263,0.212397191623911,0.209146878731245,0.208131944434885,0.208022134997038,0.38288732221978,0.383448086319078,0.243706628526357,0.237659553165807,0.235009966502471,0.233612362248397,0.232328447439863,0.226362187414169,0.201209552932561,0.201344806834352,0.269300821327957,0.239195588357262,0.185964402383146,0.180880207260965,0.180901960750393,0.18107801268667,0.181116684233153,0.181208097972268
0.446544096732957,0.453019982956327,0.459022238112076,0.416355113960411,0.469106215549818,0.467687318173114,0.46786962494214,0.471431578855861,0.472985906901967,0.44415966239644,0.467344228330351,0.503516418551123,0.50311575778473,0.544621685543858,0.511484837832785,0.518900465264702,0.518612245939473,0.48122559070552,0.542608599635988,0.552132192058717,0.562076704782121,0.565099023149731,0.540782265285777,0.540791083584766,0.577360952689324,0.575916621829857,0.564489912802835,0.547781743180263,0.552733716520975,0.528028867039614,0.569586913434015,0.569104908325362,0.599966696155329,0.730252539730802,0.779545634577933,0.733975452873268,0.603244495102058,0.638655102969667,0.646624904227501,0.605643932644342,0.604451117777647,0.619189305958085,0.640682220717823,0.752067874838165,0.699761707617771,0.712650100114225,0.66063471415551,0.663971417568131,0.665059594977772,0.652548939410666,0.728127364343993,0.727717085664321,0.697163804218872,0.671032107469702,0.704780434623828,0.652901342149621,0.66232266391778,0.646669628693532,0.661093555982099,0.654323009903757,0.654651809389924,0.624816993941005,0.624584181938963,0.650946435773336,0.615227023130687,0.614871322642458,0.629443545827517,0.629101873923404,0.621486508418326,0.572011792810895,0.570552281782491,0.568743729202496,0.555810235153019,0.573948595945986,0.57327421234993,0.574003300023703,0.574381125064369,0.479475197489781,0.479388458270205,0.458057870781642,0.39790684730852,0.397498178199147,0.39742307218498,0.393319764532648,0.393655854479153,0.457156128355211,0.38524053367374,0.384257549697608,0.376650023516268,0.376555811332712,0.37808601819435,0.37788926344161,0.362437762598114,0.362434941886652,0.359848412655207,0.37074460557212,0.372316516117109,0.350758409005809,0.35074412737033,0.344545408055837,0.34403026457347,0.343095911767532,0.340757996406029,0.339202229803123,0.337479551077505,0.336979469201583,0.337204883325564,0.337569964729038,0.340247154207444,0.340917250230031,0.331571716863959,0.331453580613891,0.496056804426432,0.496002751553393,0.557990939044627,0.467729301745991,0.514293124528951,0.305788642464873,0.306382199835751,0.276950540618097,0.271640631100754,0.272129536197067,0.272236035536737,0.272700684715313,0.271840754757675,0.271717190469639,0.271459082502533,0.265900070153242,0.265551373362225,0.26575497622714,0.265220685210227,0.26502471480362,0.265863149048989,0.583303669243005,0.280860680121879,0.281827171129574,0.282154628498091,0.247532350222327,0.247447725143811,0.244204643991861,0.242987829713881,0.241640893230232,0.241308694011987,0.24027815186816,0.221507128655866,0.206314583242313,0.207381790410671,0.207384897301279,0.207300487449385,0.403427169596232,0.502739759633314,0.221202386112259,0.22142186522061,0.221490055186014,0.221538861433479,1.07824780232695,1.07786887341117,0.201602786082158,0.202219818124032,1.08284788791081,0.190181685692404,0.182537845884619,0.181288181768859,0.181239304370426,0.181059281403465,0.181118633997002,0.180724695946868
0.443588700222898,0.448443221203107,0.458151040647868,0.457328641665494,0.461273108006274,0.467076378846561,0.473248098605071,0.480680845989418,0.492438707798964,0.50103932442737,0.508819844583705,0.515542485774903,0.522350678582969,0.532642786841585,0.526813968594476,0.529570391932102,0.531373265368205,0.53154909983464,0.53536271486843,0.549234636058246,0.562871108428,0.565803956803497,0.566418767196919,0.568471499565507,0.578048423038803,0.578696026503001,0.580408471673767,0.583180726251419,0.58657591396828,0.590392935383354,0.591621900215411,0.610541304118011,0.62528862129325,0.692269859136467,0.724534372286537,0.707501895903478,0.696012829878973,0.681948165958912,0.688582315200987,0.694579565684709,0.699350493568192,0.703386543025492,0.707011649373248,0.709611508735843,0.691511722791422,0.687679369017697,0.683968571088084,0.681552439158942,0.677595838176002,0.677011805394991,0.727878304144626,0.727595300486462,0.72211466726334,0.716225330699755,0.713011350402512,0.689891637296491,0.674583186997306,0.656291623318127,0.657421180579693,0.656074332743518,0.655472182518698,0.652965621118219,0.650186582701215,0.646470458201935,0.636798296094929,0.634954557886169,0.632078777025111,0.630001640078654,0.627453493740392,0.576932859804595,0.573683291753936,0.571017621718616,0.565907059716631,0.568607414221272,0.570555312237385,0.572534699940342,0.572150093319706,0.479529653907347,0.479412218442669,0.466761007460337,0.44614907499819,0.433945553123111,0.420902086575501,0.404559322511886,0.40456851149648,0.425098846781753,0.417703000125103,0.408326568229401,0.397597015163134,0.386444904505385,0.377993904991497,0.373499898249516,0.363614503655818,0.361691289726575,0.360908480835562,0.362301841483999,0.36175715632021,0.350756808082582,0.349776278194727,0.345979146887404,0.343998126536745,0.342549568775624,0.340501158412288,0.338889291059063,0.337598664905481,0.336811529916923,0.336907462805064,0.338189601159561,0.340580352862613,0.342734673112209,0.343860331305804,0.344278255987496,0.374682936278499,0.391157765800036,0.403379775131252,0.421242435774742,0.421442315072181,0.385157830344081,0.354759116198532,0.324511712730917,0.274580120390165,0.274479066143256,0.274821407166092,0.273509229355805,0.272266384827038,0.271727499647528,0.271750984157839,0.266487407922264,0.266253990703889,0.265963302734295,0.266471742438568,0.266415387832079,0.266585666214617,0.27352982965972,0.281096617142925,0.280997338186029,0.269451706697439,0.252918475840099,0.249837065680624,0.247933523604309,0.245770240039208,0.244267800386434,0.242852064520016,0.241797357568468,0.228788040976335,0.227731819895385,0.228657434840034,0.228633402782709,0.228596493752741,0.271144541591701,0.30124505110142,0.221686430447409,0.222187262423202,0.22253484671143,0.222877649117855,0.223408478878714,0.217427137902893,0.211700179921293,0.211064866088041,0.210176685465062,0.197178325403655,0.187162565125319,0.180129822580377,0.180341701481566,0.18073427324193,0.180972462513366,0.18119480540359
0.438186847439623,0.429081204965948,0.458293631779634,0.456954345625881,0.452810197476109,0.464983294821374,0.496427236279038,0.486953452602113,0.528012728558332,0.528363450847208,0.562236591839595,0.56042491296939,0.559557975028273,0.554364082415126,0.524175960228749,0.533930251451264,0.533579247152369,0.530470920871115,0.528605965874428,0.546694413273419,0.588657351874293,0.63220196607951,0.63721715826888,0.649600237074217,0.632604303774186,0.620495983536347,0.62060239149932,0.596988845685092,0.595036731173887,0.593220179192192,0.593047337799073,0.814551169830863,0.634394221993276,0.653512790072727,0.758669548439101,0.67811193365458,0.748672427234969,0.673938085563192,0.691096770555189,0.872033147111098,0.854812627961885,0.816948398569118,0.809840019429278,0.716558088111366,0.686931221978607,0.685269986463753,0.686467600826179,0.762976891711561,0.675605265250071,0.676275680882673,0.733969021479926,0.735278857418029,0.737717602412599,0.71697141497775,0.718323101459639,0.701122997124038,0.690682462483127,0.655094497577111,0.655966853083454,0.657142770241222,0.655722202275067,0.694880481446268,0.669803963532989,0.637882779568578,0.639083709672708,0.636447325466861,0.63598899159488,0.629616475650749,0.629594472185981,0.58045053947004,0.580013339458362,0.59965923645603,0.563824954701645,0.565243724900114,0.567221812161849,0.578728919367522,0.56894277641614,0.479812079395283,0.519972741266398,0.473510791117859,0.473463720701733,0.442132445410068,0.433165739803838,0.404630898305281,0.404724394814141,0.435087025906104,0.435802226564255,0.424386559865846,0.423258301864401,0.421350874308256,0.376646377873883,0.367796995081271,0.367088439491028,0.360501764587815,0.358948233804512,0.363157794204587,0.362056822948038,0.350508186104374,0.350226848986139,0.346273301957145,0.343745864626769,0.342646052528668,0.339508879356223,0.338604194680255,0.399597877602585,0.357135564887754,0.357390677501728,0.356301345228427,0.355200775205571,0.345169588852826,0.344722304416113,0.344380480867725,0.344879674706753,0.345459324971483,0.345330936682844,0.420877414006283,0.421471845234168,0.421195766474581,0.515717517758498,0.599735252977765,0.276349481394925,0.27678434516199,0.278828036993109,0.280394357179458,0.28073651449665,0.285525307687268,0.285040544450873,0.2674015267434,0.267265824237782,0.265475176743216,0.268257364219324,0.268208884278942,0.268560223486386,0.269185475415267,0.430202734681518,0.2807038585689,0.258863927508864,0.25881424666614,0.252144451819757,0.250232085109813,0.248008147668288,0.246256634601628,0.244677359207398,0.242564390798245,0.4089147310923,0.225182775407426,0.405251101449943,0.227739686640188,0.227836665675354,0.227609691115761,0.388127415195478,0.222274872826938,0.22218725086064,0.224338524439489,0.223076026823287,0.223244412961153,0.211054910608048,0.210746777689454,0.210670945867733,0.210987078054272,0.213022829460619,0.403300174782076,0.178544612961142,0.179176141674076,0.180686263830562,0.212331109947133,0.211745583895581
0.436138567595237,0.452678502674832,0.464916600994541,0.476250339094634,0.487554856601652,0.497227343744598,0.505043410709319,0.511424888130284,0.529543992539342,0.543457342234027,0.560944007542307,0.560298372007899,0.559282330870313,0.55703347713605,0.53749647819037,0.539580971071275,0.540885709204253,0.542120366645304,0.550850468414398,0.580975778474915,0.602813864563129,0.632885498361387,0.634107816934893,0.648188977110359,0.646895745213104,0.644834965629577,0.642009739592088,0.639416893150929,0.637797619239962,0.637179208187248,0.637244973172046,0.668555814230766,0.688828540249355,0.70094211249007,0.70647812897441,0.706578057272728,0.749976040036134,0.751898465474221,0.780190486239148,0.838030430242956,0.833471471359792,0.80657429106275,0.775501001701538,0.71814697298841,0.716329534929722,0.714883026604627,0.714268550751842,0.716193823328399,0.719556423104171,0.722806888341196,0.735768490618206,0.736667668604683,0.737849215039614,0.722025150569219,0.719715966942333,0.714956477466735,0.705073908626091,0.687940014269781,0.680323555423451,0.68414566621273,0.687503458700536,0.690806892634513,0.675258852253817,0.669271067849042,0.661417831949919,0.641215856791413,0.633803699762444,0.631303167598059,0.630493257574578,0.589661885646776,0.585629526777461,0.588663545958556,0.583018571244342,0.580565049072901,0.579743340874817,0.579304254555,0.571341229376832,0.540240990306097,0.519627316838569,0.498156433990909,0.47990668945235,0.455975285253588,0.441353855112751,0.437768350105826,0.435813625987432,0.435632224960645,0.436344472758821,0.426688585532898,0.423569388624872,0.422333131376687,0.417601301944626,0.415538608506197,0.408532082490513,0.398924236276144,0.388100263355208,0.377426867370165,0.369259558049268,0.36179672754328,0.349503328136178,0.348893001427401,0.341470420066578,0.340825828959285,0.340678209999476,0.343133233204181,0.354002287302334,0.355948655726255,0.355935057707346,0.354981717498395,0.352983493461919,0.35130618281159,0.350153092559181,0.347459182553952,0.34636167816523,0.346553813955746,0.346596247356117,0.38925847059906,0.422464808590784,0.422658582690143,0.422553897440787,0.412448809984753,0.277160929470014,0.277667620206906,0.27887223130935,0.28033523764334,0.28270852167432,0.284442209980701,0.285324198079065,0.279063843442796,0.272794597176141,0.272558146585606,0.271134649251329,0.270405274555817,0.270455962736415,0.269904758485278,0.321528393391561,0.26715745653362,0.258317283756991,0.257192891615009,0.254210765565095,0.252032295647646,0.250184095456058,0.248413448280355,0.246347052521179,0.245092621115675,0.244946089840099,0.234354700238917,0.233926269032716,0.230083282063392,0.228844166676676,0.22865408377213,0.22942506782086,0.228904990907979,0.227105352955613,0.226236105671543,0.225817191282069,0.225133387395516,0.2108104263112,0.210727675340766,0.210933371827297,0.210869923893393,0.211489265431378,0.272419443937849,0.242325249531008,0.193159145048466,0.192732668502221,0.209377560952457,0.207144913541375
0.434856531668088,0.512423300166518,0.508045395539094,0.505016533554098,0.50474653605236,0.528675946560462,0.514950077403112,0.517891611233324,0.531123810397612,0.56844933138715,0.560421105078108,0.581321123962128,0.581163917312794,0.558726649431779,0.534744951781112,0.560112742066201,0.590652384088121,0.544453598977662,0.555178774862475,0.615480095785337,0.615536905292496,0.653018132357868,0.628240729858183,0.688333780619441,0.686558261336831,0.677870060324101,0.68990521955271,0.670872099901959,0.680982468782975,0.689931330394465,0.637673392955012,0.652413670024676,0.702168921041838,0.716249756943048,0.706440283287716,0.706332441915105,0.754870449427931,0.754095022686064,0.903302451599541,0.844411265411847,0.828323903648416,0.797643101771785,0.753004224801821,0.720829035481367,0.721871858010359,0.713968309421089,0.712151285774957,0.710880067234495,0.72583917368311,0.725830195153957,0.772006366851004,0.764714132047778,0.781174932028842,0.77406877492209,0.773460265454728,0.742784955018116,0.742883274861141,0.695565807221474,0.676570700534055,0.755425739328942,0.773045590310022,0.749227521513622,0.731732217277776,0.732377964494464,0.705127734945128,0.644374919904044,0.613192295952571,0.613123818056786,0.635753061408778,0.593776951006721,0.579594406970474,0.600117341471708,0.695741676682572,0.695815251158353,0.696523355504926,0.657250039212878,0.643677702902785,0.560529435224194,0.51923424126291,0.519061471645612,0.48645005786008,0.463152957676651,0.445818824710289,0.471326792185663,0.487947376852546,0.513652909706519,0.447968291984522,0.494924575102542,0.494541484639693,0.469281991569946,0.468789952566853,0.429723295952709,0.421812815813526,0.413556464271939,0.413376321739011,0.413319707765613,0.377073345290717,0.377567708632947,0.349347522963064,0.34959586931773,0.33712922186409,0.339255862608136,0.339443346394533,0.345775269237769,0.351844653878924,0.356340531343402,0.355425245371589,0.355296611831214,0.350981038447138,0.351951578729359,0.352767743875524,0.353128682196135,0.346928714952679,0.347528066941867,0.34792306614932,0.347413662926267,0.512527827876983,0.427534803976392,0.422612002062909,0.404950260753487,0.277613832065264,0.278185425706998,0.278732322593132,0.279691966472906,0.284510016063702,0.285170182968162,0.285139244965671,0.285356166191914,0.273203652209077,0.273885109054707,0.271970462082898,0.272499225297842,0.272545925786556,0.270536230919202,0.437887747442602,0.259961546245227,0.258397689548321,0.256310435502387,0.255352039954247,0.253682752781002,0.252258519640342,0.250287890931867,0.247591702442983,0.246263469647876,0.245522665106849,0.235143777982447,0.234091929192643,0.232801943998876,0.228477939506344,0.22842399952317,0.230814325274922,0.230838455251054,0.228361511339898,0.229066092306064,0.229257091273407,0.226051190247762,0.211237573570829,0.211233128244316,0.21135284361503,0.210783568855824,0.210886092676584,0.402404955222587,0.403214079907461,0.19349029162724,0.192137503601071,0.343524416941816,0.204377084070409
