0.876399466802862,0.876245956067453,0.884423688578502,0.895195633456365,0.92413401432748,0.934416503082643,0.933735313019457,0.951857736802071,0.95322699976953,0.954406207692293,1.02205813327043,0.996433792039645,1.02422439291981,1.02396188249228,1.0350742416758,1.04848786493174,1.04873849317144,1.06240425107915,1.05135542616714,1.1665421157299,1.12976766313788,1.12071977718864,1.13255142665309,1.13021938637377,1.15312180124072,1.1774366327319,1.24733596331733,1.24093867091502,1.27238297150108,1.39628674663248,1.51262702022056,1.56547608623803,1.59072616096437,1.63198007428412,1.52122586461848,1.52181483249296,1.52344723506024,1.52164877524003,1.52465592465619,1.5258507775747,1.50023031139757,1.49878087592557,1.49178025627843,1.47440152350169,1.47356028391206,1.58382374627576,1.60861834902969,1.58343248886169,1.58590234505705,1.45073655898002,1.4196362126704,1.43823363138744,1.41792049216766,1.41859820469381,1.41593383728829,1.39977190074901,1.37798252447032,1.32936137092005,1.31556433706769,1.31076649008292,1.30044034529769,1.30248716629419,1.30183416021531,1.31646559030531,1.25997982167634,1.25025613712666,1.24233601458613,1.2418646723981,1.24070677628301,1.23888198790859,1.2366835231984,1.22701510194181,1.22678366790305,1.21229054113501,1.224057617884,1.22303412954112,1.21078411902746,1.19720120254301,1.20727969187529,1.196313592231,1.16696437295331,1.15467222143992,1.15357053931099,1.14623209237895,1.22930760888806,1.30322802867677,1.14483646780785,1.08247946759338,1.05508023290258,1.02802726253,1.02703231915176,0.965018427656723,0.984828700440909,1.01148665143465,0.954249242639438,0.937136478615215,0.992322214743353,0.923346048137998,0.919956683456109,0.949001938647132,0.898980762676345,0.956575550468939,0.883654449976532,0.883920189037962,0.883428521730381,0.835861553705954,0.832540435500685,0.833173829282553,0.833553966041451,0.815167241850398,0.777930661910566,0.779914362267099,0.774583701056089,0.756994174070788,0.740604026512202,0.743588116136666,0.688218812495559,0.684134190656342,0.646901803363026,0.623732520622615,0.58989349238902,0.589585929187175,0.576114523112006,0.527458728028881,0.526813602895713,0.495311702818857,0.560326521919731,0.561093627232905,0.56083835181359,0.507213692117105,0.442219774624654,0.477255007089999,0.459056255200803,0.432576927949805,0.423468454774835,0.442304649193858,0.410469599138328,0.410547211807955,0.410565945436692,0.397264542131035,0.405264353066142,0.405106617194383,0.39962065968843,0.395145084510333,0.391482000314566,0.391196580829192,0.383306144835046,0.382861859188911,0.38182319862784,0.382394122226166,0.384093803071737,0.390461737643025,0.390950789835955,0.392000427106963,0.390173367769688,0.3890101308918,0.379060786634807,0.378252179302578,0.379028565456838,0.364121202434382,0.663654595244871,0.660858049932557,0.473462978806412,0.670331369745364,0.35012173985036,0.969077874300003,0.523688766134847
0.905174686853616,0.912639035372902,0.919085461862086,0.924520508256919,0.928843841549335,0.936349711440758,0.93824121189918,0.950359401039856,0.951847405159283,0.961198849116488,1.009695811986,1.00999656348682,1.02384426323671,1.0235866242974,1.02532686882292,1.04383061705825,1.07074140443421,1.08335036263036,1.09819156890909,1.10568828467938,1.11927694133246,1.12297347756262,1.13760171367428,1.14003899268786,1.16003383981947,1.17872446645267,1.22148687774899,1.23671968441233,1.248888010927,1.44364016652448,1.54753376405035,1.58686502568939,1.59552064807659,1.60380307731387,1.58139007424302,1.57584425371989,1.56650258375363,1.55759493602677,1.55124215325582,1.54909401020072,1.54465645282337,1.54006847732568,1.4859927204717,1.46976626279809,1.46954168607911,1.50574688358075,1.52007159156523,1.50954889338084,1.47716314606137,1.44305612191327,1.41807363839196,1.41763247117386,1.41772079205347,1.41794893257474,1.41266035078694,1.39710736029095,1.36499516478443,1.33199699701105,1.33032020945097,1.33017729264388,1.30334408260855,1.30182797519379,1.30122038505142,1.30752554687988,1.30002500654586,1.28910966468385,1.27231009699331,1.26746984296631,1.25731964219088,1.24757212835868,1.24098522779173,1.22777118496889,1.22746664728304,1.21995904811979,1.21368764561306,1.20551299768367,1.19761545172463,1.18852810131049,1.17804351733567,1.16730732602117,1.15873236862377,1.15359075116201,1.15268868705427,1.1509241015847,1.15352186751745,1.1554540064761,1.12108120242871,1.07389987449727,1.05588677267858,1.02260057189454,1.01817059298491,0.966199822704986,0.967143209688108,0.955749735601329,0.953951148828173,0.938679753938537,0.938550781299177,0.925239260884118,0.914364337700809,0.903757269895122,0.894332145332682,0.889380839316714,0.885163067061215,0.884940478716786,0.869590851761105,0.835983340182305,0.833721065199323,0.833535191577553,0.833717904042094,0.82472556690061,0.806991032843629,0.79632216650333,0.785060055566387,0.771746067439506,0.762949858671234,0.727058526490458,0.693282657750408,0.688458913550562,0.670607502679781,0.64227932225093,0.594086630343604,0.59203800104931,0.578287241978303,0.574576747227594,0.572327101392549,0.57034053364636,0.568236076764986,0.565175536325599,0.523885943465479,0.499739868773877,0.481024132041094,0.474076403551024,0.45912857781957,0.454032688022647,0.451952847048765,0.449001118270347,0.417670543269396,0.414868110758541,0.411305470209752,0.40847227228241,0.406151324752886,0.404943065225768,0.402205466717253,0.398296882907345,0.38951890155366,0.387761564939833,0.385047636634438,0.384053328161594,0.38357904491399,0.383507417371896,0.384351242927165,0.387857797018519,0.388997943277075,0.389663687756282,0.389150976207609,0.38861105413091,0.377597450192693,0.377371619724471,0.377465963997538,0.428946201788965,0.499894337292351,0.471577182426419,0.444863836867329,0.420938098413383,0.39787027892698,0.456815432824438,0.426864343323398
0.918042054483739,0.920456141005867,0.929345866336448,0.938560983230475,0.933619406937456,0.938331337675702,0.946579165766177,0.947199774329961,0.944668526364728,0.966931425924221,1.00940745456061,1.01019815075238,1.0229098330152,1.0223984229462,1.02092362701296,1.03836331962532,1.15068180543344,1.13348835694806,1.15218928545535,1.09766729653403,1.08974534030214,1.12522575273384,1.14003543699421,1.1449973726232,1.16857813085767,1.18005708712568,1.19747244235864,1.22999214945587,1.22860226907672,1.55510138109693,1.56343118047739,1.63075741788608,1.64732155998102,1.64544600999698,1.76718554201411,1.72314414460266,1.78366873609213,1.75071199737114,1.73610812104911,1.67477975792619,1.65909220005647,1.62809154733085,1.4826493664472,1.46096023704141,1.46147509243449,1.46178353064451,1.60130653983854,1.49963364597927,1.44436931517545,1.41364838788829,1.41750284508879,1.39445269483793,1.4114308666641,1.42301445866747,1.3458081617045,1.39458682828336,1.35600021088756,1.33698831165171,1.34140589099815,1.34558255870323,1.30544789252408,1.30052300678336,1.29995562095671,1.32482028306716,1.32477215460718,1.30397398387036,1.27534326406075,1.28727228797317,1.3338324425705,1.33460308514114,1.33651885924236,1.2285537865418,1.22792746868274,1.24174189725526,1.20459716749512,1.1752516450509,1.17107544764464,1.17016007765954,1.15800977735023,1.1621143142072,1.1435451725938,1.13084945783571,1.13151788635705,1.13211396087116,1.14438510593384,1.15670326806513,1.10459026583271,1.06380162150999,1.05669786067981,1.00874345199016,1.01187797867509,0.965736209937489,0.96693919756323,0.953351045667347,0.953708193128414,0.940502864468624,0.938399295448394,0.926322762136481,0.908413213933601,0.900917785181737,0.888127361610461,0.888087384437664,0.886813858987308,0.93929799124003,0.859722309822939,0.837702823409942,0.83400360607473,0.833307298921689,0.833848982012854,0.830062943286333,0.823281448557889,0.807725017259977,0.809035835191021,0.811695809523344,0.788274327499199,0.710526514128151,0.698040932497931,0.693036974810864,0.697687433440397,0.653767170723306,0.598080484282998,0.607092773676,0.581792526460932,0.576962977575143,0.575855819480463,0.599083860689272,0.605385860110987,0.571107371728527,0.493170030877087,0.49254611782548,0.492847768070087,0.471150312597795,0.460150526668703,0.4560728297276,0.483114445867844,0.483387266034651,0.419414179937181,0.419654979240284,0.419409219423321,0.417523673828447,0.406563335957047,0.406381153063522,0.408414502112635,0.598255785348431,0.384325407523845,0.385529527448019,0.385145468972536,0.384832974102314,0.384986480928116,0.383518662580406,0.382591819937525,0.387032573334453,0.387709940706222,0.388003947540548,0.388310969715169,0.387364593777524,0.377104886498918,0.376390599139182,0.376622852537353,0.651794678940922,0.656239291389414,0.353097831170234,0.353026051219962,0.352385802034713,0.359466839288425,0.684954106192805,0.3568968602725
0.935186854348987,0.939353246364186,0.94395599488907,0.947563586224871,0.950595306589355,0.953371823572679,0.961498213753458,0.965047979751692,0.968406308935203,0.986897917686134,1.00839652672015,1.00946130273547,1.02166734879778,1.02088756389227,1.03665353734268,1.07070596339662,1.10549634659749,1.10623544362893,1.10715907984389,1.10731596223867,1.12627485300841,1.13492554157389,1.14257116668815,1.14800475798136,1.16582506622242,1.185920665054,1.20354297937587,1.23080865498973,1.26538553174767,1.58490728542281,1.59177549986585,1.6632030961649,1.67289124073431,1.67533693486888,1.74710443695075,1.73867026496586,1.74510648441552,1.75300607334875,1.74877918695558,1.6953483281285,1.66806690626516,1.62857611596404,1.29576078355559,1.29576091545628,1.48298497299363,1.48443438849194,1.48728719878712,1.48556542415125,1.43883427748939,1.41461463066014,1.41222583128827,1.38906061558852,1.38562619967378,1.38497986485387,1.34259678562915,1.34076931686978,1.33957558591468,1.33839925581117,1.33976064011907,1.34017599368955,1.3071587265666,1.29902793381876,1.29821765214593,1.29643150792682,1.29440345033345,1.29262744878172,1.29142387507861,1.29045019802896,1.31049255933901,1.31938031221839,1.26367759798785,1.22067095006078,1.21363108455144,1.20844211202368,1.19306330799757,1.17317300319203,1.17098229972381,1.16864694282227,1.15965739047583,1.15492943158658,1.14226237469205,1.13108280216068,1.13150223556373,1.13229075225773,1.12907263558509,1.10796895371886,1.08276606255541,1.05578317931455,1.03660908947901,1.00698094422763,1.00288758116052,0.966434067810279,0.966987911412328,0.95220530308399,0.952394393986578,0.94032768078319,0.936673664336426,0.927763342990102,0.91332132219172,0.896164407268827,0.88421963122543,0.881808487190287,0.878568787721822,0.856254609482942,0.847706157678878,0.835581060485598,0.833189229849145,0.832031215559923,0.831264553662275,0.827926215200854,0.825258480244802,0.806601150782983,0.807196414910902,0.806320946369357,0.788206322313372,0.746046507648583,0.693423259867489,0.689836916088149,0.687356190425651,0.652567659738806,0.600504531389729,0.603727111627859,0.585833943876501,0.582878462148318,0.579158440837849,0.587927020284151,0.592989788793871,0.579437555295852,0.53556693235788,0.492327905533036,0.49243996785333,0.466523950773781,0.461516965164854,0.460832159843231,0.483286058949998,0.483367931340192,0.461545805690021,0.446541505245576,0.433638804590231,0.418775415582474,0.420566873312367,0.422408911397625,0.425120199136667,0.483448171115154,0.384320584071562,0.384899626490551,0.385212290204697,0.385216690398377,0.385012073246527,0.384350439324985,0.382981237454566,0.38470529021139,0.386059146577313,0.387261619554023,0.387656285919654,0.38766553358823,0.375820567394302,0.374950407910014,0.374267706617206,0.373248647271394,0.365823876788291,0.35340379837099,0.353794169617568,0.354087739348341,0.355519045435417,0.355552814700243,0.355435199155207
0.994671411125999,0.967027204794953,0.967584955548527,0.968092188015577,0.96926469712479,0.956366661247288,0.993877726406871,0.983275000262276,0.973260870469634,1.00501578335124,1.00618533445892,0.995126910431256,1.02026660749034,1.01800418764705,1.05473448724664,1.09540012997418,1.08456137067064,1.10700014596094,1.10880439434162,1.1083949990506,1.16652132549395,1.19701536170234,1.16087231408846,1.15652890600291,1.1629756156217,1.19154666949858,1.21047508441099,1.23077276836593,1.55353598531057,1.60524228469383,1.66914494208596,1.6599260686908,1.69417897827657,1.74205728514957,1.73906840965627,1.72791112100009,1.73195558742886,1.75186043356446,1.79339977497746,1.69407388635238,1.66919748179522,1.63143020948441,1.29576070203662,0.00436116637721097,1.56825892076694,1.50031853391466,1.49292169959357,1.48469526955354,1.42709044230475,1.4157363922052,1.37516865898745,1.34804661149191,1.35658609806421,1.34162883293949,1.34075037600973,1.34039126961902,1.33982672446082,1.33798458211431,1.33269220582637,1.34090248910999,1.30928619299038,1.29838237043733,1.29768828631342,1.2969931770017,1.29442241207017,1.29190393854767,1.34091548283707,1.28968425412104,1.24866841414216,1.32760360356703,1.23746678877068,1.20375560182172,1.20258504802934,1.20207828641565,1.17810406271554,1.16387621239195,1.16204362944593,1.16371619232989,1.16124536831251,1.14756934470266,1.14087296503912,1.12578463249473,1.13125592471059,1.14135207006682,1.12416418636742,1.08155380001124,1.05370156147597,1.04757231117769,1.0131862108202,1.0052041496376,0.990912136938327,0.9660794133532,0.966803079118514,0.950901292810096,0.95124541534574,0.940421797056807,0.935005276576448,0.930664449039218,0.919345692288891,0.89124097065093,0.872342091855634,0.87546070885209,0.874718463423392,0.840197920309756,0.83052478956046,0.830894196594093,0.831816187312991,0.830962679113992,0.829453758974691,0.821173417305505,0.833254321765968,0.804467999839063,0.806266505918005,0.804502623054947,0.788081158281553,0.787991886287781,0.68782721338229,0.686987472499876,0.684816952942328,0.651413668309261,0.599262113423098,0.63048466147856,0.590311095022333,0.586426678446929,0.563044680170019,0.563593321271781,0.599669833977352,0.588498618114186,0.607830650280858,0.492089894355912,0.492271999511376,0.460022779949923,0.460549398224091,0.459680318629438,0.49557161624485,0.502535048182515,0.474646046964801,0.466435382321245,0.467433033568367,0.417498332857635,0.418585462530542,0.419995530479449,0.426304485989634,0.595311198257156,0.383904913386885,0.384457322600206,0.385537782437845,0.385716257755721,0.385977598966943,0.385246925466396,0.381248662106397,0.381681452468065,0.38491838631752,0.386587087919674,0.387773833124749,0.387516878904752,0.370769451599138,0.373417355295797,0.372245635269945,0.371694426144123,0.360568084748002,0.353561001615183,0.354943250322216,0.353829299065931,0.354466153945376,0.355045864515948,0.354666808894996
0.991592778202407,0.988618752533954,0.987301056366125,0.998107353611212,1.00043586188408,1.00368498754617,1.01014574730992,1.01791354348863,1.02676368194697,1.0354913889491,1.04426020034947,1.05330139854398,1.0622452711873,1.07029396509698,1.08339074816826,1.09551758072597,1.10756433677846,1.12489589519356,1.12902324694742,1.14933402555563,1.1733912913237,1.17895246894043,1.16794928159816,1.1665686528057,1.17029034987268,1.18105894581066,1.20583772124155,1.22974662786386,1.25885625114771,1.28886018073942,1.69273045274374,1.70170714842157,1.71122491924313,1.74845085457932,1.74472601388132,1.74481019581109,1.74733660478664,1.75869688703566,1.76214503685185,1.7063111920637,1.67359157341061,1.66363229793122,1.29576078355559,1.29576091545628,1.48494015858804,1.49042609947656,1.48971141972791,1.48079616537483,1.42925803816753,1.421190645308,1.37356016361004,1.36623681757441,1.36013737983137,1.3436279337183,1.3427907264625,1.34061943002419,1.33870849033411,1.3370383141719,1.33550932931232,1.32636465135701,1.32450847495828,1.32050955298198,1.29755468807175,1.29707947928006,1.29617593453657,1.29665826787847,1.30015296170323,1.28890005204449,1.2544427795796,1.24420314736798,1.22340295913198,1.20232264302611,1.20060106574842,1.19808102410916,1.18355548813233,1.16356623826468,1.16294055911525,1.1629260434155,1.16196347670294,1.14546374418436,1.13740120277338,1.13554418405419,1.13152835031939,1.12908015934385,1.12503164578517,1.07473912833585,1.04630260826052,1.04374804703681,1.0056509050826,1.00286135535985,0.995722787126025,0.990940723144037,0.978791350141661,0.970303239587843,0.961024283400538,0.952318822127746,0.945230458152613,0.943285663371017,0.931314816833375,0.897848061347272,0.881136295466319,0.874003699775623,0.8733204283498,0.853076919427601,0.830445885327578,0.831010651230307,0.831251980035384,0.830696951552023,0.830082013394085,0.820689398687297,0.819584532203543,0.817721549863732,0.813555209485571,0.809469161980316,0.770188951093452,0.743872083777069,0.683276858063566,0.680650723791464,0.668235928307705,0.631536773874213,0.600346635021825,0.601601195446471,0.595204829839549,0.5939919514879,0.573983058164932,0.564111344839229,0.565389075026195,0.567894641001164,0.572359758952797,0.537166421075441,0.498169189861334,0.491525847780063,0.482224498095882,0.478966409522171,0.475226148838932,0.472170353651495,0.468961805962547,0.465388402109868,0.464691878196647,0.420681894681662,0.423444634000344,0.42600361126615,0.427782310138656,0.478548912837375,0.437081065207997,0.385351718447846,0.386301829087726,0.386468031917444,0.386062455188166,0.385217225851539,0.38324398085795,0.383650457561826,0.384628386021862,0.38580134702868,0.386112513956434,0.386222522879717,0.379797314195684,0.375384937707525,0.374144231755656,0.372497228095194,0.366794537055382,0.35960591478503,0.358109367302695,0.358053890516974,0.356614621213978,0.356740453789325,0.352719523524098
0.989957568319379,0.987498497506494,0.986786044349786,1.00435894148061,1.09955322716298,1.04542897859454,1.07871002476647,1.0455758094918,1.04612686324461,1.05727331242424,1.0999778264786,1.09690442492068,1.08339788466448,1.07193684910032,1.09532480492374,1.09551712860209,1.12247704814274,1.12960141644436,1.13630565503109,1.17228252790822,1.25098011433912,1.29344282685489,1.16883039020273,1.16336305204971,1.17422487194745,1.17431845635572,1.20065533859719,1.22774606830127,1.23066121538269,1.25711260930024,1.75787877344231,1.72401601355521,1.73404265704898,1.7447376796822,1.73357728253308,1.92345989395686,1.74405847529323,1.75964743296371,1.85070277576044,1.7004630836944,1.67096093853997,1.67129148443372,1.56488601759906,1.64981730326131,1.48403937729261,1.50978232946172,1.44642524143378,1.44033484986174,1.43176200090455,1.43162419667029,1.37955933748609,1.424326952051,1.41880533264255,1.34624006716161,1.34583427699628,1.34075761536172,1.33696316907338,1.33588871085786,1.33692248326991,1.32338918131709,1.34715310697585,1.38115757369281,1.29848301089057,1.2980717885135,1.29709395584878,1.29681598963092,1.3039582489175,1.28765333569289,1.25974237761428,1.22873733540135,1.2086827153334,1.18861585799158,1.19366165227933,1.19530436970044,1.18853471905308,1.16399731077741,1.16348409929887,1.16337046381762,1.17958749058041,1.14292592583863,1.13285581254049,1.14043658531738,1.13083242088393,1.12666558544049,1.12620834027604,1.06772532479531,1.02558470346635,1.03750421093529,1.00039105043851,1.00067328978713,1.00018553108389,1.00085923080667,1.00160541577971,1.00142599360995,0.978843736455816,0.988643198767014,0.954673725320889,0.946748656072037,0.935504214656993,0.904163740178819,0.891535692254357,0.868448911879052,0.871035364419574,0.864248660688434,0.829681108996086,0.83159963359331,0.83149225288776,0.830479882335898,0.830190554731553,0.801357892985012,0.800553232606731,0.819679261559845,0.816522828344992,0.870717650599762,0.754066529316569,0.716505052260787,0.670860935595388,0.673836372838142,0.652661033128332,0.599299702052393,0.600046694647526,0.602751375902942,0.602855165810212,0.601730306439772,0.582933713102979,0.564212773897674,0.564468314877985,0.567002842112735,0.577562182478278,0.579195769237531,0.512212251153304,0.509084795923543,0.485778012447494,0.492957674258719,0.446827430915906,0.45068469274595,0.461377065870245,0.462741700880849,0.461795502510648,0.407362657315146,0.424624257331173,0.429677467838789,0.429923037068201,0.521217488382348,0.521121201038286,0.385253366075785,0.387890660713525,0.387498306330886,0.387396467909274,0.385351759066141,0.383877442814353,0.384063511798146,0.384581269991916,0.384773858661293,0.385623640472393,0.384304620512397,0.383686126198801,0.375583426517138,0.37552061260149,0.37178348732544,0.371167168352593,0.361209949794312,0.360431503572373,0.360804668834454,0.362009797072526,0.361508573367697,0.34480365985885
0.98868084931839,0.987360224793146,0.986323823942965,1.0028499823031,1.04378081241276,1.04521180060521,1.04582064407991,1.04557834579076,1.05279908006249,1.05907022506159,1.07897179133899,1.09934537913181,1.10046860658523,1.10013737071131,1.10501379688276,1.11799985712534,1.12914120568516,1.13699366851744,1.14180292731106,1.17270740803133,1.17295751725997,1.17128741413014,1.16998235295185,1.16983384715503,1.17069568874159,1.17156746168117,1.21349555702319,1.2249845239488,1.22515462257261,1.26005466679189,1.75650217099801,1.74308800011006,1.74051013331035,1.76101359021092,1.76300003950337,1.77156478101947,1.76299235702801,1.76437766027462,1.76476296869301,1.73255824374005,1.68047072779446,1.66701080844415,1.54249248257851,1.50911745255941,1.48117553896306,1.4765167512218,1.44027274467531,1.43785412359903,1.43700796322059,1.43858714345426,1.44008135859135,1.43804145165411,1.43676966099233,1.40366879345468,1.35120268011992,1.34246198323659,1.33364273183274,1.33234167190792,1.32994812356134,1.32687013436807,1.32054929171313,1.31615999625867,1.30042752518657,1.29887652154544,1.29791933137347,1.29661037368198,1.29671651311578,1.28571460273506,1.24993111271765,1.23005864638853,1.21130118324319,1.19033091043973,1.19344973515939,1.19433384806739,1.19203502982905,1.18312636150646,1.17816421793221,1.16431316518651,1.16509492043635,1.14659781253435,1.13523246434501,1.137567236485,1.13030675445392,1.11303551983591,1.10027990958887,1.06961349186401,1.04563298023325,1.04360625751688,1.01720843610878,1.00834694596165,1.00735838296047,1.0053575001668,1.00292224587799,1.00196155675434,0.998267139143869,0.993777215551803,0.958005246537687,0.952403837146586,0.94819702093029,0.915152722737282,0.900734607630089,0.880019470309552,0.874850498912665,0.869442318582418,0.843869175651388,0.837643949914755,0.829733557061749,0.829706060902155,0.829590003388117,0.80230003093009,0.798703737209071,0.796637657825483,0.787401767210112,0.775833692926989,0.745702636674646,0.695612774796694,0.677898670891086,0.677031879571965,0.656914289024967,0.623434284198564,0.617603695986059,0.609474171999788,0.605436313567049,0.588587852843527,0.580970536762442,0.568885145871009,0.565830492081127,0.566854554888536,0.567778824012886,0.568526816271991,0.532119535063829,0.488538295363995,0.478084406917345,0.468474366477294,0.448063488223051,0.449160039855502,0.461715168915508,0.462057345242566,0.461056371043551,0.426246133361722,0.427206399591232,0.430562457859893,0.431660774019563,0.433071797343401,0.41599432438264,0.389226203129869,0.389024417938687,0.3886079149879,0.387825306405529,0.38539021839174,0.383818044420624,0.383842453009298,0.383855223549739,0.384338973713651,0.384036247195505,0.383516315937383,0.38266838294878,0.374670548961584,0.373200932162035,0.371655973241885,0.371097423554159,0.361893890175856,0.361343711214742,0.360973757787972,0.360499851501081,0.360029846216873,0.353332476684315
1.00323097663754,0.980015246702258,0.983378094178418,1.0015713847972,1.03806677014667,1.06922847832236,1.04730763609792,1.04610342094631,1.09677290311231,1.06549138357841,1.06531226367996,1.16954810766303,1.10014422744767,1.09823786527035,1.11945022892081,1.13878024080211,1.15613420400564,1.15223615349038,1.15537440716681,1.18056054654029,1.17420999650988,1.17107187497563,1.1702381897821,1.16939208161795,1.16695288512623,1.16786675075375,1.22064252639579,1.22136743571091,1.21724266531453,1.2630126364417,1.80931426621571,1.75542344789901,1.73948666990092,1.76192284307288,1.83957105703556,1.8415509653802,1.76007092800418,1.76059895318115,1.83894068587833,1.86097542091522,1.68115160836032,1.6579681622001,1.53121823831187,1.46474164055114,1.45108182339495,1.43593249292766,1.43552930847897,1.48788404577882,1.51649912278508,1.5153203782816,1.47849907444323,1.47523704251191,1.45625471714784,1.4656918577882,1.35956143743674,1.34407812984863,1.33118029604227,1.32982641473048,1.32230556132518,1.33723484928858,1.30454517585935,1.30423754882156,1.30453544571799,1.30849325577994,1.313768100383,1.28657961440286,1.29688729352254,1.28300441322433,1.2439912210092,1.23120218213141,1.21395166447159,1.18916706931744,1.19545383588076,1.19669271024842,1.19480953696407,1.19685859065181,1.26619050312343,1.16565522550067,1.16716635614687,1.15003606987865,1.1260934224772,1.14971974929679,1.13014735594804,1.08095006707168,1.08045057816161,1.07152386843566,1.05028689469665,1.04540385306087,1.02939550460844,1.00846298513733,1.00996982965237,1.01000212918874,1.00972036716632,1.09749509061045,1.00438441712317,1.00672805589109,0.9661714999817,0.958188038961413,0.954078193843501,0.924141967613479,0.958068696828316,0.890070244090572,0.876579852377025,0.873591294608044,0.850461808871088,0.850879453806781,0.828261694809826,0.829356856628532,0.829123594872849,0.803054022519955,0.793142987330736,0.794281014573907,0.784334244386542,0.763311538455898,0.737376025726443,0.679421373125958,0.679131144171224,0.678988920060718,0.664374680399712,0.635545915047689,0.622332257664659,0.625859763994852,0.608502417975317,0.578051619452563,0.578595575009455,0.575704836484076,0.553684677496964,0.553154865894205,0.553466741519123,0.56918003807799,0.560686226526298,0.482081860323783,0.47502372237718,0.445146141713104,0.444421494709259,0.445044828571569,0.516461778917275,0.462610431079222,0.459408746306654,0.425235578313763,0.427078479808667,0.433287330366494,0.433160824709777,0.434505514795476,0.406336259705156,0.390178849870285,0.390724029332164,0.389978132329375,0.390479118314196,0.383555133721307,0.383259415387169,0.382633452227572,0.383344359044712,0.383390195774633,0.384517635597642,0.381864119525412,0.382053344628573,0.374536002598593,0.370711011416291,0.370362030705133,0.370381409590676,0.363102580327172,0.362344123250069,0.3609110855452,0.359340903193969,0.358038714389207,0.355465981031501
0.961025134106624,0.973557124806852,0.979596343929732,0.985895314807866,1.01299423356306,1.03743193336713,1.04200997100986,1.04558427265274,1.05057641805169,1.06162259297821,1.06328301198592,1.06884972178147,1.07704517662111,1.08857161871138,1.10346573397891,1.14179121721378,1.1451327568412,1.14869254419545,1.15976650548652,1.1721149589757,1.1725493061242,1.1712304071361,1.17071769982818,1.17122295122268,1.1722080664648,1.20210272050809,1.22214771386239,1.22360653526513,1.22589507993735,1.270021183046,1.70524678981653,1.70017900446772,1.68745910268192,1.68099983201193,1.676512623271,1.73816648751323,1.72814634141995,1.72437316251507,1.71295756460436,1.70553258728314,1.69074414932406,1.53338838831549,1.51845557303971,1.46401664067181,1.46485880918607,1.46481057967146,1.48777672531522,1.48884449892,1.49183312974059,1.49044326420211,1.4889316431948,1.46892321987326,1.45185539446687,1.44932659708502,1.4059219332181,1.3434661544168,1.3283537924549,1.32647815684545,1.32319266217528,1.32083134641781,1.3111904667156,1.30418347595329,1.30467616568666,1.30834544497846,1.29793227839489,1.28262705491685,1.27935965631891,1.27897403541355,1.2380570795702,1.22450253849721,1.21639933748893,1.19893675497431,1.19791752532667,1.19707755040062,1.19580531581189,1.1959835722021,1.17942042620118,1.1663105276544,1.16650588762569,1.14693978292969,1.13301922443008,1.13091044999499,1.13030709077011,1.08950851598258,1.08351203208211,1.07729502417712,1.06619096329707,1.05674271890496,1.0370825677664,1.00975667531073,1.00991080224078,1.00990222983882,1.00929641433201,1.00791630516751,1.00666006176304,1.00668647571685,0.968248359102457,0.962411556398958,0.958052035400735,0.955820781631701,0.951448482474395,0.911185344228327,0.878659334556145,0.876948458649779,0.855837957950295,0.848055759783126,0.836018680286178,0.830742302062334,0.827848817897451,0.808460142780179,0.791423462143086,0.781816123342297,0.780396591092719,0.74995599268164,0.73262662078082,0.692965711250662,0.683962376467864,0.682051389526841,0.675458451935364,0.633060813296607,0.627895965670915,0.626979520065173,0.611228828093052,0.57915258202559,0.579443968579651,0.566891743868402,0.552871396322015,0.552592639148121,0.558708395823427,0.564577089159276,0.562148350365765,0.472153774487979,0.471671768237329,0.445658678848168,0.446409741219166,0.44485958203555,0.493423803394429,0.463059240791704,0.461760919190145,0.454455893160469,0.451464618914759,0.445165583627407,0.438476459285442,0.434312955801456,0.406243014700321,0.390906410771215,0.39093119169565,0.390499376732157,0.390409380096685,0.383723745830709,0.383112944611976,0.38279312759142,0.382450446905237,0.382411747714433,0.381949493356996,0.38167480151635,0.381093200143526,0.373765801324499,0.369488335988869,0.369237275776179,0.368379299639485,0.36578741474173,0.363716677737444,0.36058385716278,0.359049790992933,0.35802592478608,0.356425578291046
0.950336993926396,0.952092217971156,0.975456804769897,0.975901210097105,0.994885896084183,1.03096007213762,1.00087108632725,1.02964168086783,1.03820048776836,1.06012523783388,1.05178474549077,1.05162326960038,1.07100386913855,1.08410538441336,1.09674380632062,1.16226335065056,1.11952493318941,1.1385184366416,1.16406550534643,1.17215924688468,1.16800124364811,1.17902566608638,1.18225092304499,1.19436564694376,1.17371067271704,1.21721033333007,1.2694925198016,1.25243880229049,1.22815355330106,1.27775562729728,1.70346602398194,1.63058160594573,1.64090187407047,1.62997426236507,1.62822587093502,1.8364853488176,1.69352595823514,1.7098598392604,1.68478958034532,1.66123840733777,1.68623567514068,1.48364667165951,1.50111168579203,1.44827772229378,1.46727529562248,1.46647247638127,1.52439670821069,1.50400266442287,1.49766602639937,1.49174787396715,1.4920854104244,1.43430449867608,1.45035013664073,1.42857865296458,1.44619951443578,1.34246425802577,1.32571796874134,1.32569456325237,1.34355578198032,1.30004416486041,1.31968737117843,1.30073285387881,1.30236423598263,1.31170280789816,1.27271295774523,1.27261031056073,1.27080803864025,1.27351763602665,1.23158415403685,1.2176029609918,1.21887844143365,1.20006193880943,1.19873549917457,1.19846190525393,1.23012887916581,1.20420628620916,1.16714396783591,1.16708422732294,1.16620722518095,1.14416337464036,1.13540894789617,1.12984979742504,1.13024015224578,1.10013383810221,1.12965022355661,1.13070107858461,1.13149317907665,1.08549494260687,1.0476948871638,1.01079557875538,1.0098021534651,1.01035882819844,1.00947710441504,1.00766959571547,1.0076250319336,1.00665899005226,0.980232399270942,0.979781874333251,1.00999877774847,1.00149178132268,0.945091780589064,0.935759427315925,0.882818134576744,0.894602369738819,0.863535831136834,0.845400382813213,0.844856976481252,0.832788330040201,0.826838834647785,0.815401919641063,0.789730267627089,0.767944560179533,0.766886402162449,0.728656883280596,0.728959883413455,0.707331164389572,0.686550305255274,0.686739145060982,0.686886226577167,0.630429276068636,0.629161203974766,0.627499278235255,0.613606667114414,0.56846832587459,0.614593108329287,0.530641328134337,0.552402077580889,0.552290938333186,0.572049410596788,0.572260813727518,0.576131936681392,0.465274156247138,0.466026270914856,0.44535194680552,0.449688059786277,0.443586398134318,0.515229602219964,0.464310056875591,0.465466207919192,0.466987886681518,0.490231228565443,0.496109333935023,0.454024063833489,0.434197311048137,0.406223603463848,0.391625100240776,0.391768294963196,0.390741596161278,0.391081672495842,0.383166156569195,0.383399348735574,0.381827245284969,0.381921896541528,0.380586216070957,0.381010439056679,0.380489827208635,0.380716787856753,0.373147464475583,0.368143465507844,0.368110963924782,0.368397461418076,0.367701330907679,0.366219814648849,0.358472476297942,0.358648576377557,0.35836207123396,0.357691411463658
0.949107544670426,0.96545986514529,0.974883675785162,0.974806463392891,0.985357265726767,0.989573390977757,0.993013731506241,1.02209509955214,1.0371292322928,1.04305663267021,1.04569755748419,1.04788459828058,1.06369684076189,1.0705473287915,1.07666068023885,1.12211366590241,1.1214752260661,1.13207793649593,1.14501027356643,1.15204890843683,1.15737852811325,1.19738728312208,1.20758691831305,1.2203591823407,1.23754334762202,1.24978253600102,1.28213286446865,1.2925409553731,1.30584129392364,1.30978078431355,1.68022734116178,1.64034740864531,1.63977777834569,1.63526963292695,1.65960756747478,1.7138042575214,1.70551282428108,1.70888742927941,1.70501879141986,1.66100711444161,1.65185070197272,1.50734768286478,1.50546189238162,1.50285764946097,1.50225512025963,1.50794888113819,1.50791228976456,1.50402519717749,1.50100797859043,1.49850080902009,1.49696123207836,1.48242673071204,1.46216724132101,1.42767870989736,1.41353831072436,1.34415023037485,1.32137908357765,1.31981120430449,1.31541541916968,1.29228073001536,1.28843622843231,1.28701956474018,1.2847932157125,1.2791110411738,1.27107899488263,1.27111517409729,1.27155192960301,1.27281637722498,1.261884351537,1.2494107770871,1.24062491809625,1.23510956076225,1.22840416045256,1.21417852094321,1.2136745893133,1.21156831156879,1.16887683921116,1.16863143341871,1.16844111990183,1.14404153467437,1.13340154757333,1.13133801700922,1.13043207320606,1.13052492072365,1.13013984242922,1.12997861754654,1.13074211030949,1.10717938338327,1.08154810546028,1.05511118819479,1.02480901834195,1.01128881700509,1.01042589140583,1.00888511188069,1.00834019382048,0.998672163040926,0.978465654180576,0.978626638889448,0.978158810925657,0.958413527536494,0.94107953934412,0.912319820680778,0.878151029533006,0.875717250379222,0.872953799487557,0.849726823648119,0.846411024374147,0.8353935225329,0.826159863439885,0.812259554371239,0.788667967175096,0.767146660878639,0.766747180425772,0.734728598890192,0.723964623511864,0.711736302808906,0.706799250039534,0.700959780324897,0.695487027666067,0.630026640144126,0.629420253259226,0.628709966515472,0.615870533677612,0.616001592110917,0.615518766211089,0.533135715056016,0.522361321459249,0.516561227688666,0.510373264926528,0.502419065903098,0.495916686531048,0.467397745029215,0.466136330510698,0.454057198073728,0.453560525973456,0.455335917968444,0.463824048519281,0.464185658459835,0.464839505698053,0.465422693601088,0.478200743922896,0.4861696729814,0.466576217643006,0.449044888978401,0.43747064688127,0.393775793652278,0.391696700449977,0.389875864036309,0.38808241740475,0.385468738702849,0.383913699092723,0.382482855579596,0.381868324535019,0.381448786241503,0.380968867442949,0.380901040853326,0.377418179565943,0.371718527442409,0.369706479111167,0.369021183718702,0.368624409823547,0.368103029780805,0.36695814185486,0.364434160849168,0.362051555521713,0.359536506580038,0.358308035714118
0.938409142588343,0.975663322408926,0.974285651953215,0.973652663055318,0.957100849923673,0.974105858819162,0.991738045898436,1.01350592737131,1.03573062303286,1.01488537447998,1.02577277878331,1.03318659256583,1.05598628837495,1.04983885537653,1.06444284193881,1.12249970926552,1.12269668328942,1.12642790210315,1.12358556268305,1.12998675343424,1.14744859218233,1.20764178118649,1.21857705479871,1.27352039498997,1.30752351108734,1.26408724180809,1.32480977209045,1.32954476714338,1.33754093493761,1.69798615745159,1.73309080013233,1.63000991805895,1.63490270665342,1.63000946782833,1.82740424944966,1.71196179757761,1.69432492297709,1.70570674425015,1.72767464128167,1.61496929200902,1.62951662482604,1.51480266760978,1.51019432447678,1.51642159850036,1.49037527365106,1.544084400513,1.51247759486061,1.51504360118976,1.52704750282216,1.51157568014924,1.5269013568696,1.50834104775408,1.47351274495297,1.38382108649645,1.37819108179621,1.34567247087376,1.28695297969781,1.28737299657837,1.28702310429751,1.28675101573292,1.28244333580268,1.28361704544167,1.28259388043791,1.27664989110621,1.26944509867042,1.26927855808182,1.29742300345815,1.30571483548565,1.37558796161256,1.27083034939005,1.24516084985663,1.24080723651986,1.23030471235726,1.21610466150301,1.21452301548981,1.25440129625056,1.1706965884584,1.16993577760576,1.17032903976024,1.14399129943522,1.11150428823819,1.11123348055811,1.12920813409363,1.14602887789483,1.14601895322797,1.1282514769891,1.17396225113256,1.15079969696914,1.18149073861642,1.09413706348572,1.04133029973224,1.01297145578661,1.01182140437172,1.05328111490495,1.02854734330833,0.991238977395786,0.976065099348908,0.977385676163417,0.976978505636475,0.93361015779848,0.934278208292072,0.878640775759534,0.876131372799037,0.873371949521197,0.885097519178314,0.854242522450883,0.847990504614662,0.838039708278077,0.825666546789296,0.808753326012447,0.787589586395304,0.767375183898087,0.767075126673334,0.740514408446226,0.718999249889365,0.718331692737166,0.731025535143189,0.727443450983513,0.730515738533397,0.62993878769074,0.61651596156793,0.65033668332048,0.617902763076714,0.619931318347869,0.632742495111109,0.53505020732655,0.503038197411324,0.511908578434175,0.504407429834974,0.49011224541345,0.490670699538877,0.469958703655618,0.46522028487361,0.454535352746704,0.453226111256081,0.457319420350342,0.463276540679053,0.463463570689625,0.464090424158993,0.464237061757025,0.443634274695943,0.501388115859622,0.492109532209124,0.505400220338142,0.515530677895665,0.397782256874887,0.391422586247851,0.388814795296568,0.386245771748262,0.385934899252071,0.385625466362662,0.38099838913909,0.382108055118231,0.381372879102754,0.381773024549527,0.381389751109442,0.368383554683483,0.369731787423789,0.369336844223045,0.369238203564226,0.369276925702341,0.368756886661223,0.369171693016124,0.369652927184675,0.369476010518855,0.368441083086104,0.359642087854398
0.957067042497838,0.963897745283838,0.972914176575628,0.972397511778881,0.967987760906585,0.979718337508051,0.98201458952286,1.00726109441672,1.01284762408115,1.02708623316059,1.03018460865537,1.03874014851108,1.06112444279698,1.06340711941637,1.06505534166312,1.11272099060085,1.11762372160896,1.12953717080352,1.13124825634682,1.13131934288891,1.1590734631346,1.22806168263133,1.23290280945952,1.29887551785889,1.32243598962024,1.3395755754699,1.35729385601109,1.38008052125763,1.38432195781979,1.70568678660183,1.72053364302416,1.71228198484642,1.70461883055995,1.70206595248662,1.70107651849292,1.69133972691333,1.68458624107977,1.68018500884767,1.6748264580996,1.64327086562273,1.62471723674288,1.50875438524372,1.50746143836781,1.50828023913014,1.50807347712408,1.52272278267346,1.52079152593531,1.51853928670139,1.52237800507002,1.50618313399779,1.50356664536636,1.50473429353343,1.48257477169902,1.43261358557308,1.37472257847899,1.31650771932596,1.28783902859526,1.28761282404893,1.28689577593709,1.28581459152835,1.28399533839988,1.28298333797999,1.28162966784457,1.27920757410551,1.26935506822375,1.2692769947017,1.30567067806216,1.31085474678389,1.31509047515475,1.29164687648729,1.27667781432848,1.26268564601482,1.24635471416751,1.23790739909738,1.22012390839672,1.21585388813377,1.20614035325405,1.19518809604934,1.18561733539128,1.12822723930993,1.12370417203874,1.12597467085046,1.12773154860541,1.13251003998826,1.13580514077472,1.13038005810922,1.12652418105191,1.12418898037337,1.12313432873919,1.05569016596181,1.01804437662462,1.00521265105255,0.998845242703797,0.993359708673721,0.989669562761235,0.975958724894739,0.969566931836046,0.960552888667762,0.953521094234572,0.946699414905252,0.940887445129091,0.900167432313245,0.873258815545335,0.870538228651884,0.865838872445323,0.860759617523428,0.846319829634931,0.840418989393845,0.834215120198792,0.808094098806621,0.784352606929664,0.769563719479425,0.76789319307912,0.750433231288435,0.73870050546619,0.73654450085515,0.734156101676624,0.724969612519533,0.699544781635862,0.660492462697798,0.614123440364479,0.612207963879109,0.609788944811928,0.593795957329544,0.570377975096954,0.535054115002185,0.528252025512938,0.518983454447219,0.511516275692257,0.505933868360439,0.477597329392999,0.465875846024712,0.463678391765292,0.456412362619547,0.455588375429001,0.457464138644213,0.462010811115339,0.46242957603399,0.463909990045866,0.464682028070333,0.448814463254555,0.474676249274243,0.484629515192205,0.508297005209572,0.511676333009619,0.39383128627755,0.389880509047512,0.387747849733144,0.38630814101883,0.38573199815116,0.384698014617838,0.383601008750871,0.382945767001947,0.382325644577272,0.38210920224523,0.382087979795664,0.368525138326538,0.369034051862257,0.36937147557271,0.369879969808456,0.370758472972696,0.370877702471726,0.370783350223093,0.370781477834266,0.370445423186339,0.369852872294083,0.36094303606886
0.976204416582969,0.946207949384531,0.972502239002476,0.981674506062248,0.961707177443357,0.985422390904164,0.969236967910144,0.997637244596222,0.989243635695805,1.03419979889696,1.03399199125585,1.04328668889894,1.0636120113368,1.06556993732228,1.06564935791671,1.10435233685009,1.103118662391,1.13112728751329,1.13300649303862,1.13287597411445,1.17612874955877,1.2318861671071,1.24603153709294,1.57672047506604,1.57206345845894,1.59540457950886,1.76501908271821,1.73913132671266,1.72676929031616,1.69836840282905,1.72591137491609,1.72333568866861,1.69824345542501,1.8249760031972,1.7023803865629,1.65223602596741,1.66095848579839,1.66176306243957,1.65469415730118,1.64696032087787,1.59701472209415,1.49949302026017,1.50604829494527,1.50788086165935,1.50960178719156,1.52637944767805,1.52302047925268,1.51843930972416,1.53538409324194,1.5043067290912,1.50171985253941,1.89289468276417,1.48761065929471,1.87132932849975,1.35766475425467,1.29211088330693,1.28016810404957,1.27816845783877,1.27633617681081,1.29733935415576,1.28471035329423,1.26109447689082,1.27106871467541,1.29997160986066,1.26929405252326,1.26916633003354,1.32281649164762,1.31632319315412,1.32157127850938,1.31368768144706,1.4099715674699,1.29053613690095,1.26012402924777,1.26257219700882,1.22845403704982,1.20435263975214,1.22552181645165,1.21997992381681,1.22151484316209,1.11943400685184,1.11946408459701,1.14109377780506,1.12817800468187,1.1286873914526,1.19500450927387,1.18031679215237,1.11686149440811,1.11704225154571,1.11717204171947,1.01928857294553,0.998633593888702,0.98830387522963,0.98621944435632,0.985480282465742,0.985476622979563,0.964365815654158,0.945860818477466,0.937091635916493,0.931134166151861,0.95341555355717,0.954564790150904,0.926551950939083,0.869925953496664,0.866908737731747,0.825302483012841,0.947945813047173,0.844785517318555,0.842579278177003,0.844475770721107,0.807294574209925,0.781058537943267,0.772156241837893,0.78499815924977,0.816683291688527,0.740932763924852,0.740904254238197,0.749396259661771,0.72227598677278,0.667880060814714,0.692872626584588,0.604933252737017,0.605447659049484,0.606858964442805,0.579371442364857,0.531195625889996,0.534730031984777,0.535385252029779,0.536787368389695,0.540016779178091,0.542010243097376,0.470008111400688,0.458722278346853,0.46038408913168,0.458948710140463,0.45542532535567,0.454877934180476,0.464303934696367,0.457588173157203,0.448452141925798,0.506445486523988,0.442795477392734,0.463052858437085,0.477663249867611,0.514116682207099,0.526014411653499,0.382903561367014,0.384986536521265,0.385609358047534,0.385767007412054,0.385395748565109,0.385002059645378,0.384586467776546,0.383642020743852,0.38208402011718,0.382678438767852,0.382470618280946,0.368372554075841,0.368774181559703,0.369496655505456,0.370241632396207,0.37313107137396,0.373179223406037,0.37226252872112,0.372180131364348,0.371460222181061,0.370719349055816,0.36156131018594
0.973637199481491,0.972657088555155,0.972424345720717,0.972350541629613,0.972399642501815,0.985482322996781,0.990288060625931,1.0046118207237,1.0071007501656,1.03775939391033,1.04287748825517,1.05015640791836,1.06479528751308,1.07257812597814,1.10629161965268,1.12402563569885,1.13879071841164,1.15343792744706,1.17163147516593,1.18863356239436,1.20264441832891,1.24037077448451,1.26178897964379,1.33574834897032,1.58168953737133,1.59365842952207,1.73651274202381,1.73691128715598,1.72897219449112,1.69764563214095,1.68700923504407,1.68355387474709,1.67783064435029,1.66757030380523,1.64614959226298,1.64345185538858,1.63392529251889,1.6234682801404,1.61731493148859,1.60906993371305,1.59119926352586,1.50874134776646,1.5069848587901,1.50620445946944,1.51490946650039,1.52031662293431,1.51790421682001,1.51312034711204,1.50832209469883,1.50131902928012,1.50032497235285,1.48648464200287,1.43828425998669,1.38776880394334,1.35655799707633,1.29834581218442,1.27762861645703,1.27502897644156,1.27222810597185,1.26953798383118,1.26714225028223,1.26493568598186,1.26654218535243,1.26787152782158,1.26884340222926,1.26910735114416,1.28163332105238,1.29814540819209,1.30380121959026,1.31171850798983,1.30947567133329,1.26927395151234,1.25706130149778,1.25291132199772,1.24546709611966,1.20936041495688,1.21402233323138,1.21814164815355,1.21998014535447,1.12316776966016,1.12258537648759,1.12476982155441,1.12613913639374,1.12686971200114,1.12552118200122,1.12415828076092,1.10170725106474,1.08887780123503,1.07227794990128,1.00937606507324,0.995168478279526,0.98653965033264,0.9851661669322,0.985166077065873,0.967249269704535,0.954604447753325,0.938904081531005,0.933903960484851,0.926438217224868,0.917528224290569,0.908233617907685,0.901460416642111,0.866470922183932,0.866062844758166,0.828408785985516,0.831312010424732,0.833790832773923,0.822967428528904,0.818231492527767,0.808489832370684,0.807141747123342,0.805994301678418,0.803848693392447,0.801729452634045,0.769949135463795,0.755120517324118,0.752864619532454,0.718885829402126,0.704246998369031,0.699273944504139,0.606315497706763,0.606501810235675,0.606401180341106,0.567048764684469,0.531761627858355,0.533480418934984,0.534885146803774,0.536076304170233,0.537846435493585,0.53960623131348,0.499338676831528,0.461383873153875,0.459957369781504,0.458643248272236,0.457310092783691,0.456450606537418,0.45419793920437,0.452054259265361,0.450165576749548,0.451089003646077,0.451611726671178,0.46658110818626,0.472991725492035,0.48997722976502,0.504159544533829,0.382656143404047,0.383569461960882,0.384382864917554,0.384578324816346,0.384958108749973,0.384986353520376,0.38489202992122,0.384270890758475,0.383110787943899,0.38289762656883,0.382795432348966,0.36808507230657,0.368430286593897,0.369155684636296,0.370090847269635,0.372073443194575,0.372888055920409,0.373072715158553,0.373335133502772,0.373117419913393,0.371569805064702,0.370301650014182
0.994315377261249,0.972440306145618,0.972245729274645,0.964897691023711,0.972888280822276,0.985812977602076,0.997713083688196,1.00710814448494,1.01243692363593,1.0424368423146,1.05319497643925,1.16084614071895,1.1141057449358,1.08453480567448,1.12554177876833,1.18800139507826,1.18844795812237,1.19305553609476,1.1971202049637,1.201153843145,1.21742698031941,1.24772508185011,1.2762827522158,1.30321401474326,1.58735449804225,1.59544535288859,1.72207784099093,1.73075421221074,1.80459317777691,1.67158789653922,1.64856473375881,1.63641113157515,1.6488141613857,1.65394310052982,1.61108774230083,1.60205908269702,1.5882649033516,1.59107840787299,1.58917361876396,1.59496956452198,1.57917948339871,1.51841868487652,1.50971486041334,1.50706507064503,1.52588969317004,1.53104422675762,1.46147451622998,1.45845154626847,1.45647883258197,1.4583060807607,1.51805109304877,1.44980402995808,1.43467638608132,1.33707410709835,1.32314291489188,1.30394807631263,1.27116384657184,1.27026946074732,1.25620504840232,1.24143596563753,1.24215963276531,1.24264624473822,1.24332787779863,1.24265908400731,1.24451712458599,1.25116704098416,1.25085284605429,1.28062596352535,1.29734710025757,1.313698216773,1.30683616072146,1.2436504882155,1.24582136042384,1.24783053390848,1.25814022704536,1.1764942162537,1.16971124682796,1.18985623239212,1.22910783962904,1.12623082910343,1.10967787008145,1.10890748009227,1.11987623726462,1.15356137993552,1.11328663317155,1.12287948526764,1.07854969250984,1.07151709522586,1.05372137503749,1.00029076022053,0.981339974358373,0.96932433554601,0.983105274260312,1.00679442530784,0.944074734494968,0.915901204961894,0.915489016722774,0.912747376145896,0.903413091723648,0.912562676497657,0.889510684159836,0.894480316381764,0.863858150228451,0.865289576797796,0.812109286500325,0.812748351411103,0.835898624720425,0.818350614862347,0.810123780377149,0.809768880670972,0.807947941717131,0.806228545072779,0.802491908485363,0.798498407477277,0.803267777386703,0.75795697125226,0.757489140837522,0.714896486891413,0.710805007021646,0.710687874429925,0.607591152305116,0.607929752562606,0.605638019765257,0.549257568056001,0.530765976210852,0.532615689634611,0.546152675492132,0.535704106550476,0.531723619928686,0.555013983731074,0.518625261107032,0.463400504382672,0.462264573236079,0.481172326051761,0.458827753236459,0.459442376153471,0.444391298656749,0.448397680398775,0.448660049144744,0.451180612651111,0.4517508091591,0.469986992802583,0.470538894305316,0.470879163472914,0.648525898937019,0.381313389967697,0.382609826453159,0.383494872131815,0.383421315501429,0.394136584378674,0.395133898528432,0.395559244061717,0.393808742139459,0.382666516943078,0.382745761376281,0.636795393341952,0.36765988854366,0.367979628943025,0.36856979899512,0.369181379321363,0.371974287990368,0.373448650347463,0.373623131948415,0.375088642398642,0.375621098317752,0.376463064316413,0.376478749315044
0.99098444545143,0.992178499524805,0.993688689371594,0.996477342225144,1.01163141895048,1.02572550840861,1.04044716252112,1.05356424689042,1.06779943543449,1.08118246795169,1.09950953412713,1.13959398831335,1.13789761373888,1.13569772159668,1.16027926428732,1.19220013891724,1.19456581339391,1.21291215460212,1.22261225200001,1.23876795026644,1.25322287548225,1.26681409786901,1.2931283819219,1.30379162283681,1.58553204184728,1.5952547455865,1.72704201758911,1.72576426936201,1.71854365956533,1.66965135464481,1.65150856382813,1.65111818622899,1.65011950102647,1.63598126082182,1.60510342223536,1.60065683417006,1.59700712242204,1.59704070526389,1.58886130162718,1.58894910933,1.57043167525297,1.52526912190597,1.52090463690469,1.52377651507783,1.52513017998609,1.52092131500953,1.46171064936745,1.45953811148666,1.45280300493016,1.44925578180103,1.4475730470553,1.44776942870776,1.42694397381233,1.34582995542693,1.31978608310474,1.29158410241479,1.26972915585864,1.26954801163327,1.24794299101572,1.24255179557418,1.24311118276488,1.24426752835444,1.24467237314107,1.24497329464143,1.24611528118032,1.24910236822071,1.25049061727505,1.25266723588938,1.25786837111255,1.25487037995822,1.24535209444985,1.23787479641211,1.22289309005772,1.20583734618303,1.19330906403817,1.17444686346488,1.16361246518166,1.15341325796229,1.14150342447167,1.12450770539111,1.11129787162361,1.11145919921442,1.11391431908607,1.11662414876682,1.11612079002349,1.10995987563065,1.07168387604384,1.06940876283622,1.05466580425653,1.00901097033295,0.980607955832386,0.980608328156058,0.981288908172852,0.980678702173817,0.949075412017542,0.928379243012315,0.9127508580333,0.909800487740971,0.907048233241735,0.909870801918722,0.902994664366016,0.878480152051679,0.859106304497742,0.847251808852884,0.813000472092374,0.811758023973169,0.809830792011692,0.808435293552827,0.808667080087835,0.8082553121016,0.807819464856389,0.80581116641577,0.803783592706186,0.802256609499721,0.803247156571654,0.757422914744497,0.73369723860318,0.711142335908301,0.69447808625223,0.671689951443804,0.626860264561889,0.620360171609511,0.605190909974415,0.567657586325158,0.544243525726628,0.541608612274894,0.540005348718324,0.537122276714444,0.536655149270206,0.537936251733994,0.514023046634674,0.486760268153405,0.462023411218916,0.461352755819978,0.459038980304644,0.458566858164814,0.445353733848565,0.447227440859593,0.448572053556514,0.450275127780115,0.45112022797521,0.454232340505118,0.459022029153237,0.464208912555335,0.501996084331774,0.485444454907007,0.46608513417169,0.446486340099044,0.42654534515073,0.395308277212362,0.395690818142578,0.396228041832046,0.39702128386725,0.397585215881301,0.397851739400145,0.439908996267713,0.366871393688916,0.367251170909584,0.367875002252228,0.368648356139819,0.370214619245539,0.371463829286999,0.373133558220418,0.374684285439792,0.375769913934624,0.37624508938967,0.375935943901508
0.97896696924418,1.00047424311147,1.00032217773438,1.00068116457438,1.06341029559761,1.06202995471288,1.06129239064326,1.0798543020088,1.10658243409149,1.11616870345304,1.1165117350804,1.14233574424054,1.13945514615462,1.13431427849431,1.24040495914056,1.22350058167773,1.19954285859244,1.21952274396726,1.26159967047066,1.2580400150937,1.26385462230375,1.30414315481434,1.30427408765397,1.30417344593095,1.58679966763117,1.59834745234151,1.73533851142419,1.7237177003415,1.73520310735807,1.65730603715114,1.65447314336711,1.66842757242387,1.64790495884346,1.5942155622034,1.5937854298054,1.68813665397394,1.6364319461657,1.60827032044725,1.58947400522853,1.58934651783071,1.56729672712843,1.54090739998375,1.5209182763428,1.52697740343207,1.52596994366197,1.48283156418946,1.46926597414172,1.46209698211233,1.45335936815675,1.39102509993788,1.39630440908613,1.44713205701189,1.41516378884318,1.35271169644917,1.3159067429706,1.27472054163491,1.26848237292714,1.26885244165358,1.24157667632377,1.24306667252593,1.24302340308084,1.24710215650667,1.24600339149441,1.24647090596564,1.24587156921268,1.24417191426278,1.24032755298057,1.24702063580174,1.26295053189201,1.25207525851893,1.21213367686321,1.1874898922339,1.1872916230386,1.18666307881748,1.1868280593584,1.17239864460724,1.14772963117298,1.14832559852693,1.13269617478893,1.12266453522106,1.11267733028362,1.11117913323732,1.11289934180926,1.11896691185265,1.11865819827303,1.10362504731376,1.0617634280121,1.06310573191238,1.05552934526746,1.01561055780325,0.979701682072576,0.979884958673593,0.980893721412623,0.980220353193895,0.954134731832822,0.942080169900345,0.904464547966118,0.906410641550781,0.904876265185331,0.925944405863749,0.928087058888096,0.856423883893139,0.85705812635049,0.826056416127228,0.815356615518108,0.811458335845457,0.80702320605152,0.807209042355682,0.802121339772559,0.802790119149683,0.826909245271921,0.782059380734565,0.78217627459916,0.782303985028839,0.812543120588082,0.757220214502305,0.710887928499726,0.708136459588722,0.679059555278294,0.647901997517117,0.650200849969323,0.634744041369731,0.605105179125499,0.587557016053904,0.550909274020078,0.542739455817594,0.533623950232312,0.536137444353496,0.538474905352818,0.539231881255523,0.509853381116004,0.504849750540859,0.463501420535324,0.459758046803902,0.459838700572027,0.456658628259979,0.44422697124416,0.467766923070652,0.499435596871195,0.441762366908252,0.44311024451736,0.445486931455894,0.445012466674061,0.445400206392335,0.518353845680712,0.632077021293461,0.65118392927977,0.63998177444764,0.637619390010923,0.395752343021079,0.396215798403117,0.396558195557884,0.397338916044531,0.397636374045493,0.397851934766243,0.634774261981632,0.365742925684295,0.366437815149929,0.366812922187822,0.367750987053143,0.368400837599917,0.369319744802711,0.372569493225102,0.375008517249715,0.376222021441993,0.376845870231893,0.37654775414474
0.991773796561551,1.00630783057318,1.01254577265197,1.0169899370305,1.06630180887479,1.06875200283,1.07060041804459,1.1010025344581,1.11917377106776,1.13255697043459,1.14877891359611,1.16045571245242,1.17609209882757,1.18956441432752,1.23518644414132,1.2306695230076,1.22813845595482,1.22733017679344,1.25952687517859,1.2577227494354,1.26622355748586,1.32743463562059,1.33421017344607,1.3354060336898,1.58449252024486,1.61334311746923,1.63669958015634,1.63729551765981,1.64060519226829,1.64763114317378,1.65062483754476,1.6499387806642,1.64668471980511,1.64042577966042,1.63395624916513,1.63320721941934,1.63114257180481,1.61782291337896,1.58403124107556,1.58179121831601,1.56551960282777,1.53200080193992,1.51716566899695,1.51536971590713,1.50595987532009,1.47586450907704,1.47001095497333,1.46586775479923,1.46384477080081,1.39286755520425,1.39229219946985,1.38935757067015,1.38764446654586,1.36654316250757,1.35372046094213,1.29937109507329,1.28346448483573,1.27911069851367,1.26367482199022,1.25933612367465,1.25694654541734,1.25609446562421,1.25186904456587,1.24405405941476,1.24380918511222,1.24386711947517,1.24293893144506,1.24556056426659,1.2511796626032,1.23670690424031,1.21391204264886,1.18815607646272,1.18766760642753,1.18693822978534,1.18681716250954,1.15861967448514,1.14831889641748,1.1487287712599,1.14332719268636,1.12031415142271,1.11537316523743,1.10865665939355,1.10652160358019,1.10502731551175,1.10406184485133,1.09935564030399,1.06535853056316,1.06451895508842,1.06039939982767,1.01589868299273,0.997211085602122,0.983038340802168,0.982094516765978,0.981012974001165,0.968495066425831,0.956977732791096,0.943756660634839,0.921102561532771,0.908913440759548,0.916389866366996,0.913050083229477,0.878582749023921,0.877247884586122,0.833772538083611,0.812476853097359,0.809970340466693,0.807864287181126,0.80707742395154,0.805071092676608,0.802996688815273,0.80063324270735,0.790097074572642,0.778130921274027,0.772419958095545,0.764822586599948,0.759772944775288,0.704722597870055,0.703952913752938,0.677010323541545,0.661204348463933,0.640440111250806,0.63199465203097,0.605424254811266,0.587998854991392,0.563862292517778,0.542750813455298,0.533791783994356,0.536001755878909,0.537919800912181,0.522914821506103,0.511359320021765,0.496270516695241,0.466093484628887,0.466416661156713,0.463275337340746,0.470327012806995,0.476873258402197,0.483759948223531,0.488731841154795,0.468985516488415,0.445204498287813,0.444594497981103,0.444583530385209,0.497496040758486,0.533962433784702,0.562890540113677,0.647800618247147,0.643078700602905,0.639963344407095,0.397335264851532,0.397193970309433,0.397463929187969,0.397974969122902,0.39838659710489,0.398895249405295,0.399514763293453,0.365446596240627,0.365844415255499,0.366237899014641,0.366644283896707,0.367317790781404,0.367987412472931,0.373400996488287,0.374694785305348,0.375901256954625,0.376476901588823,0.376712795906869
0.98720109202986,1.0208207158851,1.02368630202506,1.02869978715063,1.12558692086197,1.17791607894939,1.07200182872763,1.12043805358641,1.15181921199953,1.17031388604926,1.169044096799,1.31214664316536,1.21949145789855,1.19486887667121,1.24516401540354,1.23208377966449,1.22602052564029,1.22667158363863,1.25933265161347,1.25566508677927,1.26854026889263,1.33809224133235,1.33836078605396,1.33832954342757,1.58571910681477,1.61718556416272,1.62720260677675,1.63263986498701,1.62847936438329,1.60048659966422,1.58940236621272,1.58912310241659,1.62875064466721,1.69397708269268,1.62976832645818,1.63472579883909,1.62562275909184,1.62443325442239,1.56895075117371,1.5700062339344,1.56487578073694,1.47939043025449,1.47798274021786,1.47790711657243,1.47511435435033,1.47237722311512,1.51179009006546,1.50422620343425,1.51058896175672,1.39588678486734,1.39071001848081,1.38986633246658,1.38836671724266,1.37003707517604,1.38922571052284,1.30759624731651,1.29056064259486,1.28323428595762,1.26994876977184,1.27331478286112,1.3010938210081,1.27806087380494,1.26115728269533,1.24161231999079,1.24096984893805,1.2319603805176,1.23213335230721,1.2400798771576,1.2593198956132,1.2205560853799,1.21577328073823,1.18925389871438,1.18822197607636,1.18656831762815,1.18667480683672,1.14977563909834,1.14835788130623,1.14931725453498,1.15041530386837,1.11772233563941,1.11860309620333,1.09543707448124,1.1033404017888,1.09636637016612,1.10358438779938,1.08892579277734,1.06912655139634,1.06578491415605,1.06730355691385,1.01598600317828,1.01460430221551,0.984212662459642,0.985512297071286,0.989188060315147,0.982223373138436,0.972307466153614,0.974184881912075,0.925855946326188,0.904047554748841,0.979522032874366,0.89707227050462,0.897553866073365,0.883292173671121,0.842418440417492,0.807891055768271,0.807923793441108,0.808175848396746,0.807788926107049,0.80810735662769,0.796028290305581,0.798223732396076,0.798308863401838,0.769690845587082,0.750517344690401,0.759669622466871,0.762241441680214,0.693827410056917,0.696160995652407,0.675083881413383,0.674508269549784,0.630341130526255,0.629236149542002,0.606156214404061,0.588447568040167,0.579755529165759,0.542560148738517,0.532175530216607,0.535687276684472,0.539092719769333,0.507412949313722,0.512593200449584,0.490339152366844,0.469072325802878,0.470221918894027,0.459901767299424,0.499379763224921,0.499575936252977,0.494722729179675,0.493963072641451,0.49322469904626,0.446572750738074,0.4435400017074,0.445077738049682,0.518359234095757,0.561842012331624,0.507561242447267,0.650788773761417,0.646055397166989,0.656939270063421,0.398975453823792,0.397616530124165,0.397994343838226,0.3985551079495,0.398913655625915,0.399763129435381,0.400100167595914,0.364742102548085,0.365352417518732,0.365485453641107,0.365555840127694,0.365325012279477,0.365048135966268,0.374773053164316,0.375037565189457,0.375843439541556,0.376660839229197,0.376766749530768
0.985775693540164,1.02405764223503,1.02601974836229,1.03463956702962,1.07092818405461,1.09621896646194,1.11985044843708,1.1417787869531,1.16763324006528,1.17734486008594,1.21068977955802,1.26299875148481,1.26210223751463,1.25920614486439,1.25389443920465,1.22977305766184,1.2271445405866,1.22691049023027,1.24532538166586,1.25676707993073,1.29104022954852,1.37408103956214,1.38822337042057,1.39651205541898,1.57946566596348,1.63431456817078,1.63324470212225,1.63336744722589,1.6320701152932,1.62429234030845,1.58495316057268,1.58488627558496,1.61899112987388,1.63084145760596,1.62957894554869,1.63027231059997,1.62838919084655,1.6279874311561,1.60296984155856,1.56693242145304,1.53517274980055,1.47842937658624,1.47706686854594,1.47672642188774,1.47500012746854,1.47232695479352,1.46679859011721,1.46300476049417,1.46280182784591,1.45296813239453,1.4355163381047,1.39153349381132,1.38982645384259,1.38510419815342,1.38056586402321,1.31346824153132,1.309557570935,1.30626211135585,1.29903343760053,1.28260584264103,1.28612400210526,1.27966074689598,1.26626673872968,1.26169128589671,1.25306868071435,1.2461516852724,1.23100894276451,1.22936565431081,1.22712544055858,1.22418034164163,1.20424031513679,1.19023006870584,1.18938022926924,1.18862025535715,1.18833967110677,1.17078712308125,1.15122022988347,1.14970872450063,1.14397706019455,1.11958935820303,1.11279682678873,1.10905219393657,1.10650858205255,1.09317894357432,1.09027408724099,1.08250604182793,1.07102595407377,1.05950575446434,1.05464117335362,1.01117369782326,1.00771908401352,0.996304168305128,0.993680984255614,0.991299619900316,0.983526070763637,0.980695113747414,0.977967233200733,0.932383825008762,0.931314304871696,0.921603733818198,0.904766776126888,0.901215202374963,0.886841766308377,0.863087095946867,0.806192191923887,0.805490240870888,0.802274061110047,0.799095288606298,0.794866905921767,0.787060839242086,0.778480037831353,0.769799575289392,0.760883829740347,0.746855972176465,0.743109745299532,0.726435723233121,0.697955638773896,0.69672330037365,0.686563974940322,0.669423964259325,0.641450208125105,0.637717221696662,0.607167419008339,0.587207732134498,0.583176440727417,0.566489000425684,0.533639354188861,0.535170242825566,0.522538394469742,0.511720624981618,0.511718878907236,0.479718170034039,0.471240138816641,0.471464612490476,0.466066539470296,0.472286647371868,0.478738000472654,0.493898811555535,0.493420421239426,0.491031314585302,0.449053726183793,0.448462007477936,0.447015128703048,0.52582937050678,0.533294162699989,0.523413198498066,0.509121659684713,0.479068506020829,0.449015578629297,0.400777466086733,0.399694271434877,0.398930547104289,0.399222111213809,0.39967503104219,0.399916492857286,0.399967550011327,0.382305488406817,0.372567003893663,0.363963442190769,0.364234855747468,0.364457530632573,0.364472523077998,0.375886219464235,0.375878548348986,0.376028165686752,0.376910407731943,0.377575547039219
0.984435773314904,1.03484649450864,1.03036024203032,1.03976280320996,1.03253872168787,1.05980461357248,1.20334495094798,1.17366651462232,1.19958222286308,1.19655518972734,1.26574447846585,1.26522707954464,1.26287821216423,1.26319973206916,1.27823562497126,1.21308024279547,1.22581454944348,1.22702650816346,1.22850822173666,1.25797399971761,1.30812967080699,1.59542877485949,1.60030643296248,1.59518475622919,1.57674434082528,1.7726739326982,1.80421403961657,1.71564333071473,1.69918851034897,1.68018910134116,1.58444661756327,1.58440895933256,1.6042679610183,1.58396207109018,1.65940391114277,1.83878720893979,1.81169738678135,1.62930936639565,1.62829116382736,1.54348903260941,1.49323265451948,1.47923896901216,1.4758983321946,1.47804032989495,1.47701658530945,1.47662101415037,1.46940738913027,1.4651811025011,1.46831233712787,1.46551849389168,1.51166001827013,1.3957037507881,1.39222387326907,1.40680118437976,1.34181805115448,1.31947745106779,1.31918115485333,1.3188709825269,1.32871141623941,1.27938837210408,1.29002266954649,1.28129900382718,1.27176558699034,1.26904712555424,1.26666622155109,1.25698356789071,1.20831836976344,1.2130121828456,1.2041726942785,1.22480949363571,1.19127906772012,1.19211648491802,1.19054202115975,1.19023015835494,1.18976580468094,1.18887283087728,1.1561192853803,1.14987207790207,1.13737625547462,1.12119977114998,1.10942909940869,1.13379363044934,1.11333882600269,1.0878063010963,1.08786309879883,1.07395430381287,1.07283216209615,1.05481940765017,1.03920246888168,1.00203404712069,1.00103512579696,0.998987605360927,1.00123913144751,1.00307298343677,1.00398271072342,1.01228511635586,1.01305933113254,0.946545924446585,0.949910353891475,0.910481846469103,0.909229376227733,0.907721623428501,0.889588278336832,0.88890939470516,0.805261637703367,0.793705948393956,0.794861010544492,0.796220373614824,0.788807577053904,0.770501486718829,0.742230797113269,0.743284327137442,0.750324233619904,0.744158214466637,0.730221210600767,0.700936318837011,0.700116717952793,0.696279087388605,0.713491416030806,0.664094170900278,0.65089879477392,0.650781746983202,0.608175322532915,0.585879974606519,0.593677306637544,0.613736981392191,0.533280908730288,0.53580459373615,0.512028552653387,0.512596417282282,0.530427888332343,0.474153846656952,0.473226407095525,0.473323171730521,0.460820460279986,0.455241395160963,0.455202125852453,0.491889733640755,0.493543174270749,0.487328563670137,0.450244476081782,0.450164410765344,0.44887187550443,0.633537559572292,0.598798320772451,0.645881904345537,0.404997701915381,0.405114163258548,0.405177369912008,0.403659118974026,0.401359051408069,0.398790682100923,0.399664798493312,0.400529624948751,0.400162834690053,0.399889109808388,0.760689211150139,0.429948624609356,0.362175772766114,0.363088139245267,0.363791131160082,0.363955191597014,0.427597279113477,0.671042692439394,0.375060706459297,0.377365611128174,0.378091049058084
0.981960114888861,0.999773487527448,1.01014108250031,1.02179141156993,1.03954906687685,1.04667304900337,1.15245906679515,1.16219745796883,1.16987820208997,1.17935300292109,1.19968434866046,1.21287305498951,1.23243932774992,1.25971093361451,1.25707697424905,1.22421264497331,1.22565788359864,1.22684584272046,1.22774225332729,1.23641696432664,1.34528830078246,1.59824543382803,1.6051965961036,1.61071935391271,1.61706676052092,1.7528608872747,1.75144958321546,1.72174553150479,1.71038084106278,1.63688938689369,1.59710427518845,1.5998882338445,1.60445525746637,1.60779111197108,1.64829701461548,1.74702838986831,1.74712796182541,1.62666107784411,1.61815584845576,1.53801981872049,1.52601657594088,1.48516909094488,1.47073007944821,1.47300884360659,1.47336482418652,1.47339208135274,1.46565503444002,1.46415483920148,1.46463842557829,1.46306921482499,1.45014679683298,1.38771124588163,1.38336580502514,1.38008355293013,1.362579077814,1.35254109700482,1.31981281941115,1.31861654533471,1.31507434526196,1.31028263211801,1.28877479041316,1.28301214847166,1.27705054644134,1.2664429246814,1.25202117919129,1.24649431410693,1.21835053842402,1.21708060461001,1.20417427733666,1.20428971332431,1.19088975279714,1.19101358526737,1.19058137904019,1.1902862796185,1.18964056631847,1.18915278999767,1.17649454486738,1.15086235835081,1.13663923037874,1.11783798736845,1.11619545720226,1.12142047014251,1.11731276159937,1.10580621697718,1.09802642041132,1.06213561297356,1.05694002021875,1.04979598591637,1.0396261204228,1.00376988581398,1.00291625770726,1.00114340117691,1.00168444559854,1.00291026431778,1.0060481398946,1.01024394417889,0.974808792429178,0.942723726016508,0.940856484091465,0.911101383019221,0.910545080492731,0.909159365372998,0.890622375211718,0.890385109732279,0.809525620979289,0.805414222631632,0.795026378041332,0.795257658000727,0.79165180603853,0.78359723174326,0.776072076245427,0.767364675733452,0.754431924768736,0.744757844019108,0.740912393378191,0.727722355737801,0.715365824865205,0.692393457531668,0.691231317478935,0.663038481672732,0.64579653467207,0.62756414425687,0.608864755116048,0.596609547986327,0.581495071723436,0.577312914386112,0.549095476499803,0.538557157754275,0.517169816391035,0.515585582065674,0.51604849208423,0.499477530697416,0.477120271572765,0.473508123109426,0.459769971271908,0.455114400668038,0.455403946786016,0.4878750924261,0.4859106329458,0.485574112375762,0.473654421851718,0.451386743463736,0.450576853124842,0.517489768377408,0.545991305676123,0.575192872817004,0.405116361123741,0.405124195384176,0.404973825209468,0.404079558320926,0.402138239840655,0.400482822133725,0.400012385693866,0.399727707338768,0.399347401714913,0.40324460400407,0.523716749901506,0.495899154882484,0.470174953171086,0.447947638217023,0.46546546812058,0.486746302613902,0.510640131491839,0.537518423569211,0.38068626306571,0.380112520937543,0.380154544700211
0.980290987016632,0.987097198446082,0.986899595825578,0.987299021077883,1.09166366738101,1.03573221683837,1.1388501207489,1.13873033191897,1.13853236395816,1.1598260983872,1.17860212815807,1.19854263754229,1.21431924953535,1.2756160976641,1.25525288484346,1.22266234360282,1.21370278104309,1.21089671300912,1.20832327581079,1.21710081317139,1.55878966654488,1.58689042728414,1.60343003663358,1.60689509907297,1.70040895644172,1.79269568018864,1.77710614599906,1.72228377168122,1.70436078041951,1.61178090364194,1.59545914562499,1.62586316274513,1.60786659014424,1.61319258807076,1.62439338452149,1.8361603790589,1.77155458564305,1.62356332456182,1.58651511501416,1.52387021485869,1.52758079807725,1.49765737438627,1.46609258379649,1.43490017246598,1.43919688198029,1.49134107494398,1.46574411665432,1.46393832120591,1.50408674046004,1.46016728337558,1.41186235667103,1.36905634250006,1.38029568329375,1.36796575338894,1.366478520653,1.35394155755897,1.32180032501797,1.32019202278504,1.31221438324184,1.32489498015027,1.28765445328936,1.28444244739842,1.28272931178447,1.26388894622426,1.23419313285976,1.22855283572447,1.22201621825835,1.21932955159179,1.20429203481013,1.20482205962295,1.19056573610769,1.19072926795507,1.19067088144773,1.19091120270054,1.21114313092473,1.21137994292736,1.19419428145441,1.15296082199686,1.13605875499007,1.1144539151118,1.11484742663443,1.15649551263047,1.14757004203312,1.15621532007293,1.10690465740517,1.05185228865019,1.04150807971704,1.0429407611075,1.04017285324713,1.00637398913585,1.00550043794247,1.00113831745491,1.00117398092469,1.00058798331057,1.00661170657562,1.01362315510144,0.93982522875264,0.940571446027387,0.938861202717701,0.912290618449586,0.912285515105318,0.932791584272644,0.892247446471804,0.891711190538954,0.820369012483993,0.813458895132631,0.795318432300464,0.797645388602386,0.812179009506633,0.839637877804548,0.80272511147883,0.804540628516958,0.75928729924932,0.744945838253689,0.763892824157209,0.744774364618807,0.727913903550943,0.691222953308694,0.690914787063984,0.661416774461292,0.640321934683432,0.608910754297039,0.608992282989116,0.609861240536146,0.575686028462573,0.564592929320977,0.571649195972854,0.540888210263856,0.519333325889307,0.517049217353408,0.517081954767618,0.531889750201669,0.481085695660428,0.473694389173517,0.459110516650382,0.451859031482106,0.443976143003835,0.48458650477584,0.48353155451661,0.483692174150398,0.483883806994733,0.453557530299161,0.452826048010689,0.455165119161436,0.440664047838236,0.641388299264822,0.405191820380285,0.405267619637653,0.405429585827429,0.405982021823976,0.402127863986691,0.40099937851521,0.399916697487118,0.39887752908018,0.398008044552095,0.409062830263512,0.912244274279577,0.751899506126228,0.760970514946108,0.409267831045426,0.688556296293466,0.68880056024553,0.660277938439481,0.657980805575685,0.381066102336587,0.382114771071745,0.382127411178873
0.982739540151919,0.985072304098503,0.986109165173877,0.986287849363418,1.04131998519249,1.03853982537255,1.07552789353888,1.09993347297458,1.11801843664256,1.13515423321204,1.15081925707622,1.16188014990228,1.17271899662627,1.2000679945784,1.20341652914719,1.20561538235946,1.20664728087898,1.20705199536452,1.20753954649793,1.21172968090172,1.31793718522774,1.59709184611899,1.60394997059554,1.60705654833984,1.73240134024322,1.75544031015457,1.75036664248759,1.72861254952357,1.71611988453247,1.61138220446275,1.6007089578846,1.6046383449149,1.60747576458155,1.61071826764796,1.61794450734602,1.62315300955819,1.62629481220678,1.62926933632121,1.59921319823004,1.52611860920012,1.52309279336699,1.49433598737599,1.46463503937816,1.46500996189746,1.43602799155032,1.43648077277607,1.44082201448863,1.44157106279319,1.44169203489326,1.4374214493465,1.41006929965783,1.40808667137835,1.38762342921754,1.37705446137714,1.37155302655337,1.3563313255831,1.35510787723553,1.34559710527323,1.32743306916046,1.3226840287594,1.29057386333186,1.2867645039898,1.28500988581507,1.27925082330124,1.24579483222549,1.24186948291879,1.22180954277,1.2210630849823,1.21258578259084,1.20703886344214,1.19520746885765,1.19531147889009,1.19519880450193,1.20174764762308,1.20870867563143,1.20957838599113,1.19381917332323,1.15556909525356,1.14376314668097,1.13933717419235,1.1422288915099,1.14304198308567,1.14277867575126,1.10528003858609,1.08638904340232,1.05680750118911,1.04665160369236,1.04503074793857,1.03984063109942,1.01307768340736,1.00376940212165,0.999379767295272,0.992537069810491,0.976611482171266,0.965040207193736,0.952252814144266,0.942226083025364,0.941189601844392,0.939650598158387,0.91950131954785,0.906440648607762,0.902819000208091,0.894438005530697,0.893288463967788,0.824739773318826,0.820102024434966,0.802995457611361,0.802528747531244,0.805675733863594,0.803771944743363,0.800787932536853,0.798025539454224,0.766057920490504,0.765889899508295,0.764657069418803,0.739406050593203,0.730139355187328,0.686142456244889,0.682440845597636,0.665896646063634,0.618223887810899,0.60873202393931,0.607767584195253,0.590486142185364,0.576539453942798,0.574793473477456,0.572932526028155,0.543022450675547,0.518044043596717,0.518414050255966,0.5082207831174,0.50064219542777,0.484945372029865,0.483358423067222,0.481231064460015,0.481466625526905,0.481788523159956,0.481723691811844,0.483373840005361,0.484533679288544,0.486437749002691,0.488150248154458,0.488951696022212,0.492544493314282,0.497980462067719,0.530298805820734,0.487550469819684,0.45704952784277,0.403889367158036,0.403478944624405,0.402100092075756,0.400597516339234,0.399715308926318,0.398969883941673,0.398432570077795,0.459451342452561,0.75371636774932,0.743037768942235,0.735836579779619,0.703366096814616,0.698422921542228,0.69056155460489,0.662215138666,0.436530638087684,0.381769021908493,0.382325785213341,0.38244623435825
0.983214127619535,0.984349287259488,0.985798827206884,0.985230978976796,1.04436872524397,1.03345454851015,1.02748610848011,1.09191566532591,1.09738571908381,1.10657727506192,1.13195091545633,1.14720643785224,1.16267272365453,1.1959757331043,1.17929536314199,1.1661906400107,1.15059326524017,1.16471029228278,1.17827024040146,1.20492284413993,1.28773782248033,1.59269178585894,1.60115904840901,1.59998366524171,1.84901774738203,1.84957139956351,1.73505104729464,1.72651295473381,1.71212835936634,1.57905593222771,1.57859831915423,1.56269649185921,1.60319227360001,1.6067950086679,1.56672110949517,1.57072596060198,1.56243543794438,1.64135921868105,1.66473883134799,1.52957840675647,1.49378684570186,1.41965079303654,1.46709452325966,1.47136453857915,1.43026247601474,1.43536391374593,1.44696471446138,1.44548778160993,1.44832647966662,1.43731505025599,1.40795173936136,1.41810513957961,1.39131059350436,1.38538569541514,1.37812519916731,1.35951955069286,1.3601758290239,1.34526614520322,1.33235315202119,1.3202347570914,1.29568687723608,1.29676189244596,1.29364761452767,1.29418034224266,1.25677441813032,1.25184407637557,1.22230514904898,1.22210232177341,1.22236145449737,1.20917450841329,1.19535312759196,1.19576539561385,1.19573603405102,1.21856752632122,1.20585056518635,1.23107894328497,1.19335658083232,1.15786854479662,1.15966757173009,1.13605833099322,1.14399795720809,1.14405061904084,1.14202789740632,1.07351066908131,1.06498470257664,1.06199726411559,1.05122096356945,1.04564037249808,1.03979146496155,1.02244049447441,1.00196128650222,0.997687975138544,0.988597894162988,0.970757690200092,0.952830320577948,0.939324355213266,0.945992590039401,0.943227984951774,0.956758344120117,0.926415814650307,0.896898498078571,0.899285368277542,0.897910872622738,0.899861870145891,0.829289983404723,0.829291432064098,0.803251266302913,0.802627936832121,0.810065584241286,0.754244996545812,0.754573655839359,0.794771628004824,0.766596919675182,0.767389648436046,0.770028512512934,0.733239032676606,0.732365643177741,0.683776830933002,0.670799623369479,0.670315055115029,0.599039648449226,0.600561359148651,0.604641119234423,0.575505049947012,0.579132650890149,0.614784995371855,0.61479221690226,0.545190529061902,0.516503332031402,0.52021031846992,0.501343347589493,0.492418095242876,0.491900285820339,0.492181140802757,0.480782502189488,0.481214470938051,0.508416070296509,0.476893111200802,0.445570569997457,0.484587728003629,0.48875761838383,0.488899347343076,0.489540566639506,0.508597632773393,0.509954067156646,0.642147464728881,0.533220782131197,0.48294977907682,0.402710929313023,0.40237527261163,0.401731008833546,0.399637021551278,0.399339343865954,0.398781503917026,0.398176430250379,0.755257619450519,0.765331372220707,0.735834900381638,0.723590520037379,0.707707420673728,0.91710979372224,0.692231353964413,0.663591911604295,0.380515619845517,0.381890530053434,0.382843759511041,0.383342541234079
0.984142476683749,0.985342045498035,0.987045858699153,0.985197900676919,1.01921122739185,1.05347531006815,1.06284474608447,1.08167116730271,1.08794826405663,1.09422526077659,1.10097254266311,1.10769636816318,1.11503723189275,1.12247613794247,1.12965883821327,1.13803309461298,1.14476567938196,1.15840375899742,1.16572026638519,1.19085287665455,1.25933877820502,1.59841981720461,1.6024402357577,1.60533641299107,1.60863858474247,1.71714460256201,1.70752125268697,1.63138035265729,1.62126152590411,1.6130620237794,1.60477461361036,1.59811007457871,1.60179956651204,1.6113252942027,1.62383599489416,1.63740995957173,1.64792391757781,1.65251096878815,1.66014826753827,1.563827677072,1.46518827720349,1.41838263190274,1.41722918541081,1.41892710214065,1.42338628782183,1.44363538679806,1.44576106410514,1.44685832445288,1.44674980828113,1.43065608539715,1.41857463878386,1.41586291316769,1.39734862431825,1.39493490472679,1.38095985334356,1.36789160591366,1.36486182584445,1.34573180200739,1.34422914094285,1.31961796642681,1.29983720831879,1.29337614351207,1.29241184081804,1.29179715867978,1.27508090452042,1.26139873372227,1.24555289813146,1.22861899522969,1.2267564817796,1.21274029693448,1.20785785116221,1.19788698269754,1.1968946997452,1.21766311018403,1.22286057306954,1.22422890016686,1.21405350219713,1.14488747293824,1.14158887721184,1.13761455470684,1.1383869237413,1.13844262033273,1.13967974585453,1.09869486183728,1.0629211397179,1.06214631547691,1.05221103287075,1.04635655192313,1.03183975705676,1.00678326248261,0.996473727673518,0.989027490645472,0.985031117156994,0.96410751315115,0.948813833780665,0.932106781356422,0.923629675672148,0.911935652160896,0.900294942743087,0.889633304967259,0.878521847930057,0.862809927672607,0.847751039586899,0.832966045379996,0.823160454741953,0.820869101839012,0.802487912165064,0.801512936445973,0.800038856864005,0.755371550868469,0.755487045084464,0.77994358341703,0.766653125457278,0.767020972990935,0.737102144859877,0.716667592174895,0.700868728587343,0.681911435014794,0.674678901254842,0.641860838492517,0.60576484972909,0.604026367933191,0.60477558518643,0.577947610924667,0.574182593385961,0.563957287249377,0.554791611112159,0.54724298116008,0.530387258837512,0.512364721409669,0.495336529502396,0.491822638905265,0.491643766267951,0.491466387698841,0.481194373917251,0.482099933850571,0.483987678933846,0.47248221512771,0.466399727148195,0.487432108029773,0.489069622167727,0.489710327511147,0.490173271157488,0.49266718081478,0.498935016211045,0.529216366769475,0.531179400713247,0.508766647011371,0.479384479986713,0.449705363838281,0.400209987142999,0.399635485780938,0.399267238674075,0.398860787717752,0.398248328779167,0.444668870494683,0.474225377989823,0.504011307829175,0.714614994658385,0.71054528983001,0.708868245639179,0.707275326504481,0.664337698724442,0.438033332766938,0.383294888102514,0.383716734225372,0.383970840157557
0.984246255073479,1.04490412896677,0.992329898713248,0.982626769838441,0.982160776707742,1.08136371469085,1.08011174842476,1.07334845045626,1.05989507789319,1.08234124600094,1.08267222888414,1.09984986714765,1.1029875540273,1.10694658649177,1.11464356221411,1.13714180279061,1.12797175518376,1.1426813714853,1.14204126156683,1.17859289245799,1.22882802879222,1.59538508188316,1.59567279340877,1.57963086773783,1.5597970779648,1.72475893697181,1.69099902996268,1.59619118759358,1.53756312925244,1.64367447212822,1.64549791355201,1.58841057261998,1.60048470813574,1.61692838655481,1.72779387525164,1.73517956438425,1.73707528878957,1.65722360507935,1.68930112894259,1.63979740236825,1.42091281412719,1.41946540650692,1.41740069531576,1.4191001630632,1.41870266264603,1.49942851802172,1.45761553873247,1.45162874493685,1.4900134244237,1.41612757494878,1.42414709709852,1.41147094376425,1.40900697849137,1.40726265831493,1.38352409900461,1.37560397307019,1.37056246834124,1.34852284740136,1.35519984960667,1.31880859778057,1.30688822295224,1.29089446983996,1.29058140185698,1.28846131751398,1.28552635810468,1.28457238498211,1.3414029402596,1.22982681888097,1.22871646955551,1.21589376943959,1.21334428013928,1.19967034520226,1.19787822327447,1.21546107618452,1.23363156831114,1.23395859390211,1.23252667952546,1.14206584597571,1.14036222754975,1.12675117154029,1.09404034603195,1.13692078420738,1.13812421567709,1.13765363618553,1.05809322557809,1.06175539487257,1.05409844447921,1.04658608373916,1.01667067379894,0.995392298153181,0.991385332971459,0.980514296013253,0.978386828935681,0.955037476334213,0.944523665572812,0.913190073408686,0.875293009249642,0.870321629863391,0.853188046955084,0.845744521094575,0.847252788850922,0.845921852679312,0.832124996119415,0.826533216030552,0.820105554268785,0.815789048416286,0.787491229447871,0.798306090282682,0.79859405718333,0.746731324561845,0.746384693803562,0.79111650135621,0.766758197789919,0.767317450635025,0.711747463541592,0.679218123151793,0.679417465044042,0.678939103360928,0.678323183344298,0.608440955656709,0.607640973240498,0.604800656375388,0.604961398384113,0.580180022966653,0.567669761161541,0.53572849861525,0.550613747202224,0.549596877297386,0.548891639991939,0.505429320208157,0.491185897780336,0.491062206564583,0.491186761409311,0.49067749231343,0.473659018977797,0.474422766729742,0.486280294935866,0.468806837478232,0.461326497427337,0.504208627567621,0.473206754826584,0.472437356509937,0.470304036896434,0.469565844863813,0.470701271792045,0.527331840287034,0.67240395465081,0.556666650350963,0.540948491279397,0.540073920957263,0.399278631613505,0.399485813302574,0.399270539274091,0.399167690016582,0.397758003068534,0.39658228587058,0.396926423125695,0.465546025119924,0.745004897878596,0.763311529558969,0.408512466416076,0.731812026744237,0.664526948552945,0.664360657912569,0.38428019414971,0.38459539135986,0.385125085059348
0.992291100416396,0.999638794397269,0.996061440844042,0.991400802895476,0.987153622899154,1.00304525221659,1.01915350364512,1.03628785046569,1.05438116395675,1.06374156767935,1.07574295451144,1.09019479572474,1.09559691842942,1.10178264773698,1.10562899144127,1.12642736170952,1.12692280321715,1.14342035620169,1.14348118475,1.21569371543914,1.25925678351252,1.53855244947211,1.5464017510647,1.57425483164742,1.57351821594736,1.59689592711673,1.60965506570371,1.58585944709449,1.5572664346945,1.5673837901761,1.57772679395458,1.58761555999367,1.60182507365077,1.61252887809612,1.69300178278738,1.70268729115576,1.72256463276939,1.63884881865123,1.638101314226,1.6323085219808,1.42018652396105,1.42183578882322,1.42432540821466,1.42558558125471,1.42355804682649,1.41839534469407,1.41215301132725,1.40847162536548,1.40919128398794,1.41346941807314,1.41132969562558,1.41066100884124,1.40923409191853,1.40878758845493,1.38706171022731,1.38363611605056,1.35993825564394,1.34579774263286,1.34377171507278,1.31373196785955,1.30805157111559,1.29037279113005,1.29020468430943,1.28964933494424,1.28680048747389,1.28548101164844,1.3182828310434,1.23220320416139,1.23017374874475,1.20702903531924,1.20270454189517,1.19703018987471,1.188302149684,1.18117055019252,1.17525026994928,1.17216535500978,1.15126880119583,1.13611077471952,1.13432926654914,1.12347493418337,1.10595139773478,1.11597220103393,1.12604242232758,1.13331834869754,1.05479000548505,1.05285472319084,1.05216136436458,1.04629086920203,1.03288657754264,1.01736976861819,0.987278123655324,0.978703852729334,0.976445132692426,0.957327384660364,0.935780799703507,0.91626851394009,0.870569902502253,0.868224365001001,0.852357201600703,0.848677783771599,0.849754495955059,0.83486496951027,0.82678364486276,0.819237106469241,0.813908075964319,0.809510766273845,0.797717944037662,0.798081408281468,0.798346263466812,0.767100046183087,0.767530906435135,0.767054789846311,0.765955046788427,0.76472043412902,0.720147570671635,0.674099523565854,0.670201934580093,0.667470929690476,0.664868749939152,0.625031551563569,0.610001023565425,0.607207579705755,0.6047317962723,0.591579817244087,0.582677869449422,0.551946371103646,0.551248619625297,0.550506585647659,0.549800914242226,0.535621977389877,0.523425411843355,0.513353135371676,0.504913153913902,0.499066913948296,0.474112814854305,0.475450976599984,0.468987978790434,0.465829636230531,0.463473974913346,0.482334597430436,0.472197655014678,0.470613416362723,0.469189731941375,0.468767468604366,0.468904599672722,0.564510230837825,0.599400372841852,0.569436529464949,0.542792895477144,0.490242072227768,0.450926017932055,0.399300947912796,0.399172211923685,0.398987627603913,0.398369888885816,0.398460381670949,0.399083603759478,0.40079440575388,0.403187843086197,0.405287724195953,0.407090505000193,0.46412601123769,0.493464224617377,0.523130995083005,0.384448980917,0.385145816383273,0.385808800964338
0.997556766493504,1.00286316259803,0.999892697093578,1.00232985822143,0.984438767409519,0.984324760828458,0.988317203286928,1.00438251887352,1.00123900048593,1.04333823638134,1.06534736443727,1.08538330371186,1.07916296146734,1.07287677875401,1.09510859350294,1.12601803544611,1.12678017471803,1.14419227041789,1.14503824350344,1.31528800137414,1.28418291908555,1.50830000905618,1.54308686943348,1.57410519322889,1.57309573893836,1.57062340234347,1.61209617610063,1.57891653786019,1.54995686965964,1.54829244805414,1.54262828026131,1.53008853434218,1.56931583752456,1.60571062658309,1.666074684587,1.67436667950117,1.76148052312355,1.63890614838011,1.76044242528328,1.61768633586882,0.00432491419524111,1.46226299898667,1.44324677782894,1.45650844804777,1.4373514475246,1.41014234822847,1.40021031189047,1.40078760768899,1.40302047644964,1.41770815034083,1.41022174613919,1.41135927251063,1.4090024857641,1.41163189501567,1.39355727128013,1.38835291825613,1.34707682156318,1.34588376647424,1.33642147243106,1.30795390839743,1.30881905625398,1.27874248823864,1.28341709666415,1.29299433151465,1.29586851018682,1.28493584878248,1.3418994222026,1.23709784669299,1.24300011207864,1.19740437044522,1.17875163152297,1.18678735812727,1.17266838437236,1.15075689689683,1.17374656031558,1.16616039790487,1.12827017705843,1.1289208971259,1.1294713865408,1.11989301346293,1.08832276921096,1.06569748105511,1.09390234717765,1.1373032466489,1.05403398901547,1.04966034685339,1.05002939947925,1.04573321222191,1.04395187673169,1.04451753717015,0.983526821718619,0.961717439764346,0.970765560459812,0.959464288399475,0.926340631315013,0.919281233936116,0.853901102954696,0.86221931997249,0.822606063977172,0.833639433731195,0.852624434151438,0.827836720333998,0.820630604302392,0.813792345731764,0.807721234280533,0.800938599418485,0.797418374891096,0.797924840309395,0.798339751827324,0.765990503287862,0.810355397551002,0.736384230398073,0.75205562538397,0.76354058808594,0.728680226691288,0.66795814226649,0.668622899862104,0.666151522884995,0.660736680122756,0.642033231292065,0.616788221020373,0.636039860316885,0.603753866162273,0.602615903294255,0.607348478381681,0.551811916140469,0.551298767331904,0.550881693200313,0.549781622375933,0.543626467973346,0.558709117906625,0.560721530938808,0.518554376859818,0.517247632061117,0.472947901604924,0.479310903593029,0.458881978782927,0.458621153190983,0.455431592624489,0.490460488514564,0.473031299359413,0.467291628299608,0.467710358353959,0.467503528446821,0.467336043463854,0.654702576460109,0.654910196040311,0.584673689723413,0.544627394477875,0.43013358338204,0.545136770208628,0.399244494495315,0.399188646815515,0.399215109534367,0.398385180746328,0.399706278343784,0.400237894831045,0.399981720629722,0.399195553433342,0.398375474693027,0.398255162142138,0.398077074869769,0.456687363946334,0.722820304630811,0.383859935783818,0.385577114175724,0.386654205742023
0.976365262701139,0.977618091708186,0.979100943005838,0.981387773537755,0.984411064601206,0.985073183119858,0.986843017640697,1.00733022531328,1.00895110508161,1.04116263502815,1.06710581604964,1.06811987571528,1.06954581284652,1.07107253310257,1.09381540949905,1.10811842910154,1.12708634895189,1.16029422715066,1.18702351230294,1.24878107345699,1.27667327343352,1.49811821074796,1.54178460838503,1.57303029275876,1.57162177948531,1.569849315652,1.56851072911016,1.55942748398619,1.55095423767395,1.54830012018463,1.54401052366954,1.5386710734817,1.55150013749067,1.62981257287164,1.64132347098321,1.60923116170873,1.60339107799738,1.59677484937918,1.60313519614263,1.60582664603324,1.05982411444016,1.0598241149132,1.089857599508,1.44606072737935,1.44101929792551,1.43801311404546,1.39961475510993,1.40003130523142,1.40094694525723,1.40613787750171,1.41030173326172,1.41048564199186,1.39974348300291,1.39511355457605,1.39317632528832,1.39072757595089,1.37540781934576,1.36964958410567,1.36680827764655,1.31519188296038,1.30275531644551,1.27298248097489,1.26795691935269,1.2646052224678,1.26202207429478,1.25807214854841,1.24007897307774,1.2241397489052,1.2096594245164,1.19348236870368,1.17700795685771,1.17168430275989,1.16299653441349,1.14904926335528,1.1474161148107,1.14592621384081,1.12641243383671,1.12432770256241,1.12185673191678,1.11045225142556,1.08986839139062,1.06369667176131,1.06273791629245,1.06191292901351,1.05476185391076,1.05212193881925,1.04749584553233,1.04620694621185,1.04574956663893,1.01646238871085,0.998835203093004,0.989872096127444,0.980282229819352,0.972345779436951,0.94717419927779,0.918979292728029,0.899099522888762,0.883238202876921,0.867106354780677,0.83970437436098,0.840003473427214,0.821166633159253,0.816662103672152,0.80970974047266,0.802912210569158,0.797748162466332,0.796305455534686,0.794724909624302,0.779730249811593,0.766156431409375,0.765008049177144,0.731513811469643,0.728138553718273,0.725622273776186,0.702052317713492,0.667782310298391,0.666747494150463,0.656938042608368,0.651351059544849,0.636675705266602,0.615982447114742,0.609082097954627,0.603230961271409,0.602656003227629,0.569709309364065,0.552808948703059,0.552305250338312,0.551386257033427,0.549711446124562,0.547639387020753,0.54852518589171,0.550367458269555,0.519525254923364,0.517802721816213,0.498069888392413,0.48872158361555,0.476234649009117,0.458486473765301,0.458607877331126,0.46709315092433,0.466779875456774,0.466357328840061,0.466766156421142,0.467050396113158,0.467223955401063,0.516661147587675,0.617202458079521,0.59996714429774,0.574667213874546,0.500495744129222,0.470325106840798,0.415710167858006,0.410262215957446,0.405246218947331,0.399395860265137,0.399721838195474,0.399986038012193,0.39992454549809,0.399518388859312,0.399404222880512,0.398930071085717,0.398733203774743,0.399047559150111,0.399021273928391,0.398033257669788,0.396725725772078,0.39438025921194
