0.298663036576006,0.299566196723058,0.302836196975196,0.293281142326357,0.296996846234648,0.297616130219364,0.297087252655775,0.301373421081373,0.300900595498882,0.314942520828219,0.314903646067135,0.315484055290766,0.314851210342882,0.311619180787617,0.309241491911995,0.309203521215122,0.307970377630959,0.304444527207033,0.304285411905851,0.304186868906823,0.304348696400639,0.305910015293491,0.305238295584522,0.299495679714579,0.307157623905034,0.416009667133735,0.644307578018718,0.317702628865205,0.31731930563963,0.768057695384822,0.428889869951599,0.602497320440437,0.549646630714212,0.54300989533933,0.418112520489133,0.286722156473644,0.578846096609585,0.288111703166356,0.293819060532059,0.294067678190156,0.293706956569862,0.293435737306483,0.286819795408461,0.287494227310063,0.292199881529687,0.289218277760941,0.288561023079353,0.29073439344323,0.292865272789176,0.293065975044077,0.292330066776109,0.288462480080326,0.28704129114022,0.287132601625558,0.286394885229167,0.280705609147689,0.279809681514327,0.272976764205601,0.271602586604481,0.270405605588769,0.269916506850476,0.269281853774169,0.268401295232399,0.269624494110238,0.271532973660214,0.271792440088847,0.272061851223803,0.271320518570567,0.273106949452023,0.272536484934716,0.261113633625408,0.263160434999707,0.263755309250718,0.264991165027515,0.265258768034049,0.264585240196658,0.265150280328697,0.265563437673245,0.266967449393336,0.266340028830719,0.266019990099932,0.263716434489634,0.264934208982205,0.263643205288522,0.2676789479276,0.26745021968215,0.265724361102849,0.263308701530355,0.262350393466416,0.248006510690517,0.24840249081505,0.248454926539303,0.562094690839093,0.247756988968208,0.251488966032302,0.24959043118865,0.247341119431027,0.245858454124556,0.243150781811823,0.242998899024331,0.241496344305212,0.243374989736216,0.240498257415977,0.239932313219727,0.237575417820964,0.236410983116857,0.234389495540473,0.23159593712767,0.232073283031217,0.4462198768173,0.487215572541233,0.492386819829657,0.490251420162654,0.486649628344982,0.246530173833524,0.244099145169438,0.24417960688424,0.24251884092815,0.243104674537049,0.245204815699813,0.816426938815817,0.814973203564106,0.19982892887231,0.201011444860642,0.201950767576145,0.202042078061482,0.202603501936677,0.203126051050787,0.203449706038419,0.199933800320817,0.199283778152919,0.19876936561671,0.198446614693289,0.197778511241166,0.196854557617255,0.205085158196594,0.201926357842441,0.271642365429777,0.271496811091764,0.440116539327063,0.590701994676088,0.577794669931886,0.571432770077228,0.575241592599279,0.512275328413233,0.370996310054949,0.371335334134173,0.370957435293865,0.303768287177009,0.30555200586583,0.22677094643216,0.227469788067466,0.222603210418237,0.222000199589325,0.222945850754306,0.22192516225979,0.174254760464102,0.173564055406697,0.174448230205312,0.171995504000156,0.173133720842136,0.173424829518163,0.174694135670776,0.173930201412259,0.174082988263962,0.174379521325256,0.175523162552504
0.309379813736318,0.302425751823283,0.302951917194238,0.301955638433426,0.300017324764478,0.300739672069277,0.299317579064961,0.30066282661132,0.301330930063443,0.503089131962589,0.31298883806768,0.315819463113145,0.318113074017119,0.310136515481145,0.310796482355367,0.316033726331214,0.314321428715082,0.309701660595528,0.312985221810835,0.312207726589149,0.31134976965266,0.305655973250126,0.309819188942992,0.30873702408211,0.307414378141032,0.308886194676968,0.454504721249314,0.318644663773342,0.316967624661449,0.487588951060484,0.437620418039766,0.621548665564383,0.438612176479522,0.318146524392936,0.611099491410604,0.433883016590405,0.406210515147855,0.293505350250751,0.29422769755555,0.293543320947624,0.294535079387379,0.297894581996433,0.297256312663281,0.295549439432416,0.295618148312472,0.295739292916782,0.296231103847709,0.291415153794311,0.293673506194046,0.294044172520664,0.292978280815584,0.292366229344559,0.286643502887264,0.286397597421801,0.284309209093783,0.279442631444554,0.27727739765858,0.27392060724216,0.2704562331846,0.269753775292449,0.268615558450468,0.274906037232437,0.269906562144152,0.27135125675375,0.277124610806876,0.277416623547114,0.271951555390029,0.271282547873694,0.274230701266623,0.27315486485522,0.274413322237298,0.272844770830757,0.262011369387192,0.262545671336049,0.262212071642093,0.262292533356895,0.265321148464626,0.264531900408193,0.265204524181373,0.265993772237806,0.264491217518687,0.26923213024255,0.269143531949846,0.268602901551511,0.267659962579164,0.267911292429895,0.264625923086165,0.264439685858645,0.268045997997373,0.247016560379184,0.486981419910516,0.48802923033137,0.255247160958522,0.246835747536931,0.245995871884668,0.246719123253678,0.24944035652958,0.244299847424338,0.243938221739833,0.241496344305212,0.241970073951914,0.242612863606122,0.23956978347101,0.239500170526743,0.239579728177334,0.23980574423015,0.234632688813303,0.234876786150344,0.235710333353128,0.50820071101307,0.434631581757331,0.831080011551968,0.528430051804292,0.527682390701577,0.244274533626423,0.245560112934839,0.242260278563729,0.241726880679084,0.00412346398949697,0.705236081472578,0.00364878507537332,0.343673681462158,0.00378896927197177,0.202268998178509,0.206241456322799,0.206609410456783,0.208328940586605,0.207794638637749,0.207840745912523,0.208015230305297,0.208229493523366,0.197423214006139,0.196852749488832,0.197270427154436,0.534102150665756,0.319506236966675,0.233189802332127,0.27077808004381,0.271192141452568,0.703216402024616,0.584319301344571,0.609669261828387,0.537919109765708,0.511548460787377,0.51331138599934,0.371647236287059,0.370506307252445,0.302861510773112,0.304579232774511,0.233169008855268,0.233288345331155,0.219555609962069,0.224643683343058,0.223398786924149,0.220675745519824,0.00392626046309417,0.193994098452819,0.173812673064794,0.195846526021697,0.175805230586418,0.176352189434232,0.171378932208074,0.172008160899113,0.173187964694812,0.173203333786403,0.173824425899541,0.174889413540409
0.309324665819431,0.302032483891384,0.30136438043926,0.300938566195755,0.298646763420204,0.299273279918609,0.298090763930277,0.507302071187075,0.506188264078799,0.502316157061959,0.505270638904367,0.318882432660904,0.320901208044654,0.317958479036993,0.317287663392236,0.31610243521127,0.31483584125129,0.316192841632396,0.312814353674906,0.313494209961776,0.312538614090471,0.311418478532716,0.310979103326042,0.310007234298935,0.311015265894493,0.30943134539636,0.31787801732219,0.317321113768052,0.752021404405439,0.328047835634688,0.327281189183537,0.327040708103341,0.327207959982425,0.442079262729715,0.322389297736393,0.321257409343892,0.316315794365128,0.315993947505918,0.291604103214465,0.293000882420866,0.299407081421876,0.297805983703729,0.297007695005184,0.29761341802673,0.296569223862721,0.299068961406863,0.295063052886757,0.295328847764868,0.295223976316362,0.295619956440895,0.293121122960964,0.292807412679656,0.285988056334099,0.283305697819281,0.283738744576476,0.283451252157295,0.281848346310725,0.274642954546959,0.274773139793381,0.276995329624665,0.276158166165036,0.28054197352545,0.280339463142127,0.278239321979363,0.276897690689849,0.27258892065897,0.272222774653408,0.274834616159747,0.27543129853918,0.274294889825623,0.272840250509701,0.272447886642012,0.272117903204901,0.260101985773005,0.260772801417762,0.267825406329825,0.267719630817107,0.267461068452686,0.266313810968593,0.268428417158737,0.27059184281629,0.268828917604327,0.26888135332858,0.272378273697745,0.272699216492744,0.263619699619029,0.264361936336476,0.267439370911615,0.26840219929661,0.268098433721626,0.267656346322318,0.255564487496676,0.25434400081147,0.250806397552798,0.252681426726958,0.251793635671497,0.248068891121094,0.244991456545955,0.240721561276159,0.242771978907304,0.240597704479216,0.241575901955803,0.239746075992207,0.23956978347101,0.239776814175389,0.240036280604022,0.239650245185813,0.233583070264026,0.234578444960627,0.527243015494903,0.672047884277112,0.00431255805992475,0.668700134502805,0.580767233058519,0.293482748645469,0.242290112682701,0.242735816338853,0.243113715179161,0.623742829405118,0.621048718055554,0.731483777718177,0.503351310583855,0.00375658569192433,0.22460932890303,0.20447401078978,0.206554262539896,0.208405786044563,0.208130950524339,0.208366911283478,0.20825390325707,0.208317187751859,0.208241246358113,0.209440035502248,0.206796551748514,0.213388083912833,0.248864467627005,0.217840600153304,0.00378982813297247,0.605220361844761,0.658952514176968,0.612070456373501,0.61408109517935,0.544081211429677,0.536955377316502,0.370743172075796,0.355676941995097,0.290720832480061,0.245598987695923,0.245048412591264,0.237235489677529,0.234707726142838,0.233290153459577,0.237726396544245,0.237534734931457,0.211886433257925,0.212470458738401,0.197058876129,0.197106791532197,0.197624820325251,0.197847220121222,0.196699962637129,0.169319473934817,0.169986673322729,0.171277677016413,0.171352714345948,0.17174055789258,0.174955410227831
0.31187231876677,0.314850306278671,0.501207774338951,0.405215140451254,0.455075185766621,0.49615405539799,0.325492950173659,0.508605731779716,0.505056375686297,0.328382339392855,0.328225936284307,0.319893176449096,0.320866853604626,0.318019051339148,0.3160807376702,0.31472825761015,0.3150934995515,0.318094992732894,0.318937580577791,0.31184338871201,0.317593237095643,0.309874336859879,0.310698843420551,0.317868072615867,0.315991235313285,0.318616637782792,0.326393398128077,0.32917972402719,0.330605433288351,0.330420100125042,0.330561134141999,0.329914728230946,0.328639093628854,0.326134835763656,0.324136853856764,0.322647860100814,0.321957155043409,0.320493475085374,0.391383862083142,0.301592204620498,0.296309757434089,0.295962596776964,0.302573114289719,0.302381452676931,0.302123794376721,0.295714883183078,0.294036035942762,0.295633517404064,0.294658032120111,0.2949862074288,0.302249459302087,0.302514350115987,0.282217204508921,0.282644826880848,0.282251558948949,0.290069906247951,0.290323948291316,0.271684856447706,0.273751547234654,0.274645666739593,0.275547018758222,0.274782180435494,0.286229441478506,0.282430563662779,0.278665136222868,0.277479908041902,0.274133966396018,0.273593335997683,0.273447781659669,0.277361475630227,0.272861948050771,0.272140504810183,0.272160394222831,0.271373858359032,0.270150659481193,0.268275630307034,0.268742127440045,0.269423791855338,0.268943733759157,0.268704156743172,0.295445472048121,0.276830789938216,0.277672473718901,0.276310048952528,0.261498764979406,0.261442712998308,0.262981430285877,0.268691499844215,0.269567538064929,0.269372260195296,0.267674427606544,0.268003506979443,0.265134007172895,0.251047782697205,0.250296505337646,0.250208811109153,0.248991036616582,0.247048202626578,0.245981406857288,0.240480176131752,0.243307184920371,0.241962841438223,0.239963955467121,0.240441301370668,0.240861691228905,0.240707096248779,0.24007063504405,0.238926993816802,0.238606955086015,0.237406357813458,0.228420863617715,0.327452057319466,0.326506406154485,0.375602517211334,0.237474162629303,0.684822311582259,0.303714043324333,0.634036504514559,0.619581421840674,0.616644117218281,0.765830985232482,0.225714999433404,0.22655668321409,0.227041261631327,0.211691155388292,0.20543322291793,0.207141904277217,0.208007997791607,0.208065857901128,0.207721409436637,0.207585799804947,0.207409507283751,0.214486521929518,0.214998222273093,0.214234288014575,0.261371291925618,0.522059111307521,0.490101345503584,0.604654417648511,0.604552258392638,0.605903834388476,0.587053191519431,0.586837120172939,0.465475540452991,0.352922258343379,0.243915620134552,0.356893812423457,0.245097232058672,0.244646104017252,0.243788147080763,0.234432890622614,0.245637862457008,0.215499977910344,0.215915847447525,0.215385161755513,0.209826070920457,0.198129288155136,0.198329086345825,0.198049730504545,0.197920449322334,0.202805108255788,0.202232835610059,0.177884578272323,0.168249965972893,0.16943609821807,0.17730959343396,0.177289704021312
0.322983267923193,0.32235855955321,0.40205543603289,0.49595335314309,0.494387513929182,0.326801131087356,0.325323890166153,0.33309522612617,0.332067305117964,0.332961424622903,0.329819801488764,0.319730444891068,0.328061396597857,0.326244227533218,0.32537180556935,0.324567188421326,0.323311443231881,0.321903815254945,0.317709861378896,0.317751448332614,0.316744320801267,0.315920718304806,0.319748526175294,0.31895837405465,0.318322816914132,0.326178230845796,0.330707592544224,0.326604949153512,0.331390161023728,0.331183130319348,0.330684086874731,0.331614368948121,0.329692328434976,0.329799008011905,0.321414716516651,0.322275385645774,0.323781556621738,0.323221036810755,0.321827873861199,0.315810422471032,0.502534036536874,0.301033492937938,0.302600236216057,0.302503501345452,0.302947396873182,0.302730421462479,0.297605281448828,0.294677921532759,0.300766793995615,0.303398524914602,0.303774615626487,0.303296365658729,0.291408825344832,0.292710677809051,0.293067783172499,0.291152975173044,0.292991841778753,0.292126652328575,0.291348253042677,0.290254335347049,0.293227802537893,0.289082668129252,0.287787144114512,0.286550384273504,0.285012571050146,0.288286187559129,0.286650735400954,0.278346001556292,0.277506125904029,0.276432097621049,0.273681030226175,0.27200218298586,0.270136194453813,0.271227399956807,0.27055658431205,0.269052221464509,0.269226705857282,0.269433736561662,0.268222290518569,0.271783399446734,0.272701928685377,0.277226770062749,0.279505915939343,0.279622540222596,0.280166786877776,0.279973317136566,0.279994110613425,0.268017067942612,0.27047793072567,0.271396459964314,0.271174060168343,0.270754574374317,0.265850930092426,0.265537219811118,0.262830451562596,0.259909420096006,0.2460546360584,0.246274323661737,0.243917428262974,0.244496933422394,0.24140955414093,0.241066913804862,0.241360734673522,0.23762966167364,0.242850632493684,0.24022794221681,0.239976612366079,0.24305585506964,0.238186565227778,0.2374578894735,0.230450487772,0.229471386231202,0.327724180647056,0.327557832832184,0.375139636335168,0.23289146114241,0.232684430438031,0.234572116511148,0.618339237614399,0.736899122343643,0.72479279849062,0.227184103776707,0.226966224301792,0.226937294247032,0.226749248891089,0.225877730991432,0.209171528431502,0.206565111310431,0.206610314520994,0.206424077293474,0.206379778147122,0.215880588943285,0.21457421615801,0.213483914719227,0.2690034019971,0.284621111246669,0.438751402368056,0.420578807657458,0.642636867356304,0.605633519189308,0.557301342390976,0.00419328486853281,0.532706275523566,0.00428561694642911,0.399743743844691,0.249901429277324,0.24279096425574,0.243858664089242,0.243704973173327,0.267172671969293,0.274797549527085,0.245295222120939,0.21680725475983,0.217078474023209,0.216512529826958,0.214805656596094,0.209630793050824,0.198416780574318,0.199890405238676,0.197161939449084,0.203902642208262,0.203051013721252,0.201175080482881,0.996224516959172,0.175869419145418,0.176563740459668,0.176442595855359
0.323796925713329,0.323048360546404,0.49326918649985,0.494495097570323,0.403570647650967,0.40274975734714,0.403408820157151,0.333579804543407,0.335905961758986,0.334085176437503,0.333513807855984,0.331863890670429,0.327582242565888,0.326342770532246,0.325253373157674,0.324413497505411,0.324135949792553,0.322090956546676,0.32102687297002,0.315863762259496,0.327531614970057,0.327037995910707,0.326751407555737,0.321753740595875,0.323922590638695,0.330675046232619,0.333244396721028,0.331245510749925,0.330477056170352,0.329608250463328,0.328689721224685,0.328479074263461,0.328243113504321,0.330171482466945,0.324827558914169,0.322787085989349,0.323428971579345,0.324008476738765,0.32365408356795,0.317688163837825,0.316055423872284,0.300921388975741,0.300661018482897,0.300900595498882,0.304452663784935,0.303526902032601,0.307687405532834,0.300619431529179,0.30310379998173,0.303889431781318,0.304281795649006,0.302772912480408,0.302231378017861,0.290513801775681,0.29085644211175,0.294736685706491,0.295235729151108,0.295533166276614,0.288534805217227,0.288409140291861,0.288203917715904,0.29230927329925,0.286732101179968,0.285590268081143,0.295570232909275,0.295189621876334,0.422235053292492,0.284358932625403,0.286132706607901,0.288568255593043,0.281563566084177,0.269870399575702,0.270867582400725,0.26968325828397,0.271862957097325,0.27121474305785,0.266725160184717,0.266317427225438,0.271928953784747,0.273378168715402,0.274454005126805,0.279791600230102,0.280993101566871,0.281068138896405,0.280332230628437,0.280343079398972,0.280424445177986,0.280781550541435,0.271115295994611,0.271485058257017,0.270917305932344,0.27018410985701,0.269006114189734,0.263400916079903,0.264594280838771,0.262269931751613,0.263118848045989,0.264022912257252,0.242732200082008,0.242893123511613,0.242422106057545,0.241404129755663,0.245723748557078,0.245791553372922,0.244646104017252,0.239209061850716,0.239613178553151,0.248389833916092,0.228106249272195,0.229177565362542,0.229320407507921,0.229160388142528,0.228545624478869,0.327652759574366,0.232022655435386,0.233405873678619,0.233202459231085,0.236919971267798,0.236264524714633,1.00885429399052,0.754715515755003,0.225824391202967,0.226302641170725,0.22610555517267,0.226195057529585,0.225205107218252,0.399044902209384,0.387501810359978,0.356744641828599,0.212112449310741,0.213661111304635,0.214962059704642,0.214733331459193,0.21713633413273,0.290596071618906,0.659617905436457,0.409217432714516,0.449396758455678,0.655311847598211,0.637384254288866,0.558611331433096,0.517628292608121,0.00369175524733466,0.506756920467683,0.366256301395297,0.249572349904424,0.25072864803063,0.25003432671638,0.249358086686355,0.35348820253963,0.253816027312093,0.218040398343993,0.218345067983188,0.217017901721054,0.216163561041411,0.214608570598038,0.208601967978407,0.208170729349634,0.20642859761453,0.20555527158645,0.204978478619665,0.202773466008394,0.202604406000888,0.991767480397646,0.174537732562227,0.174552197589608,0.174970779319422
0.323888236198667,0.323213804297065,0.322413707470097,0.433408382879492,0.353098550864575,0.354242192091823,0.390647953815173,0.334261468958699,0.334152077189136,0.334546249185247,0.334101449593305,0.333549066360224,0.325246140643984,0.325624039484292,0.324502999862326,0.323826759832301,0.32180708038434,0.321118183455357,0.320750229321373,0.31983170008273,0.327604844171169,0.326146588598402,0.325222634974491,0.324143182306243,0.329995189945749,0.331129790530884,0.333012956282945,0.331425419527967,0.332068209182175,0.338272801864073,0.338574759310635,0.339316996028082,0.339126238479505,0.331373887867925,0.332391864169807,0.323414506551965,0.325437802256772,0.322833193264123,0.325644832961151,0.317676411003079,0.316891683267703,0.315973154029059,0.304817001662074,0.305314236978268,0.30449244261023,0.305911823421913,0.308590565679885,0.303902992744487,0.30233805759479,0.302403150218001,0.302304607218974,0.306212876804264,0.30667575768043,0.297010407197817,0.297601665191983,0.29580980992526,0.295526837827135,0.299585182071495,0.297418140157097,0.297338582506506,0.293165422107316,0.294401277884112,0.294037844071185,0.296110863307611,0.296121712078146,0.295858629392668,0.298607888659119,0.297148729022141,0.296852195960846,0.292970144237683,0.29308948071357,0.284948382491146,0.287891111498807,0.2704562331846,0.271325942955835,0.264818488763164,0.265026423531754,0.271266274717892,0.272175763314422,0.272636836062166,0.275966504552248,0.275191721523196,0.280465128067493,0.280014904090284,0.279635197121553,0.279700289744764,0.279373922564499,0.284288415616924,0.27022750493915,0.270740109346937,0.270991439197668,0.270136194453813,0.268578491817807,0.25966170650212,0.259186168726995,0.264990260963304,0.264804023735784,0.264440589922856,0.253863038651079,0.253761783459417,0.253359474885405,0.247539109493294,0.247794959665081,0.246866485720114,0.24629782933123,0.247436950237421,0.248548045153063,0.248547141088852,0.252789010368098,0.22794532584259,0.253581874681376,0.253303422904307,0.233458309402872,0.9868674523726,0.97542199945801,0.230803976878604,0.239406147848772,0.237089031275304,0.235574723721439,0.727237388117875,0.768895762908663,0.223520835592669,0.387201661041839,0.224707871902057,0.224531579380861,0.491315503739311,0.499886936526296,0.358781498496575,0.362196149022515,0.360294901986229,0.214526300754813,0.215886013328553,0.216415794956353,0.21792377406074,0.217848736731205,0.218183240489372,0.430726928428886,0.354144553157006,0.462229949934557,0.585040744585159,0.584426884985712,0.565991207589636,0.52198678617062,0.439223323886336,0.249113085285103,0.24955517268441,0.250340804483998,0.250024382010056,0.249400577704284,0.248987420359737,0.216335333241551,0.218583740934962,0.219458875091464,0.216455573781649,0.21965596108952,0.209095587037756,0.207644563978679,0.207527035631215,0.207324525247892,0.206347231835517,0.204439656349752,0.202975976391717,0.205122224829255,0.201068400905952,0.983712268275292,0.543070467641485,0.176036671024501
0.323614304742654,0.323176737664403,0.322721993366138,0.326031772443572,0.327094951956017,0.32731915988041,0.349774306759761,0.333187440675718,0.332946959595522,0.332998491255565,0.333470412773844,0.333415264856957,0.323493160138345,0.323724600576428,0.323086331243277,0.322182267032014,0.319957365008095,0.31996098126494,0.320529637653825,0.323938863794498,0.324410785312777,0.324709126502494,0.325034589618549,0.324210083057877,0.331435364234291,0.331443500812192,0.330722961635815,0.33130608305208,0.333967648090038,0.337814441308963,0.338346935129397,0.340392832439485,0.34229317541156,0.34136289333817,0.337107463095755,0.336048803904366,0.334267797408178,0.323864730529174,0.327307407045664,0.315283353035866,0.31565853968354,0.315691990059356,0.304535837692371,0.303752918085417,0.305398314949916,0.306384649004404,0.305982340430392,0.306758027523655,0.305808760101829,0.307716335587594,0.308522760864041,0.306192083327405,0.305796103202871,0.305267225639283,0.295915585437978,0.297265353305394,0.304996910440115,0.305487817306831,0.305162354190776,0.294409414462014,0.294386812856732,0.294355170609338,0.294184302473409,0.296392931341525,0.296304333048821,0.295189621876334,0.298284233671487,0.298504825339035,0.297312364644379,0.294517902167365,0.29392031572372,0.292641968928995,0.286570273686152,0.285460986898932,0.283997306940898,0.365167808084937,0.268737607118989,0.268806315999045,0.270203095205446,0.277739374470535,0.278348713748926,0.278944492064149,0.278543087554348,0.277552233178803,0.278797129597713,0.28362664061428,0.288669510784705,0.289707376499235,0.284134724701009,0.284558730816092,0.283887915171335,0.268218674261724,0.267690700762346,0.265334709427795,0.265462182481583,0.264681071003052,0.263755309250718,0.263295140567186,0.254135161978669,0.254535662424258,0.25427890818826,0.246767942721086,0.246100743333174,0.245675833153881,0.246457848696623,0.246859253206424,0.247389938898435,0.248017359461052,0.252844158284985,0.252998753265111,0.24947651909803,0.251377766134317,0.25013467784383,0.687015571358783,0.989697173353853,0.235969799781761,0.234810789462922,0.235527712382453,0.252379469280396,0.252361387996171,0.252089264668581,0.394601426611027,0.244590052036154,0.242950079556923,0.237154123898515,0.234810789462922,0.324805861373099,0.322238319013112,0.323777940364893,0.32511414726914,0.328135529863181,0.216663508550239,0.217453660670883,0.217813478226966,0.217531410193052,0.217962648821824,0.216711423953436,0.381582901968839,0.393553616190173,0.346310836766412,0.521110747949906,0.578118324919518,0.427807705090717,0.280995813759504,0.24798029282839,0.2493617029432,0.249520818244382,0.24946928658434,0.2496265937571,0.262008657194558,0.260133628020399,0.222152082376817,0.22069382680405,0.224161817118455,0.220175798010996,0.21974907970328,0.206859836243303,0.206994541810781,0.205310270185198,0.20478229668582,0.210626167747425,0.211297887456393,0.200247510602125,0.985900103666549,0.98318791103276,0.683637083401293,0.209140790248319
0.321953538786564,0.32401209299561,0.324278791937933,0.325351012092491,0.324277887873721,0.326913235049553,0.325866328692911,0.328530605923503,0.325935037572967,0.331388352895305,0.331332300914207,0.332297841491836,0.323758050952245,0.323833992345991,0.322911846850503,0.323465134147796,0.321441838442989,0.31996098126494,0.320961780346809,0.322315164471069,0.32382585576809,0.323701094906936,0.324632281044536,0.324558147779213,0.326114946351008,0.329593785435948,0.330198604393283,0.330040393156312,0.571966167961873,0.339534875502996,0.343567001885229,0.342668362059234,0.341644961372084,0.343074286890091,0.343243346897597,0.33673860489756,0.33714000940736,0.337968132224877,0.33721143048005,0.329031457496542,0.334228922647093,0.302628262206606,0.302878687993126,0.304580136838723,0.305114438787579,0.307832055806636,0.305175915153945,0.304891134927397,0.310312808002342,0.310471019239313,0.309655553320753,0.309918636006231,0.308823814246391,0.307685597404411,0.309273134159389,0.305741859350196,0.305535732710028,0.306225533703221,0.307016589888077,0.307379119636793,0.307546371515877,0.302842525424675,0.303327103841912,0.303359650153518,0.303397620850391,0.302676177609803,0.29717675501269,0.297075499821028,0.296622563651186,0.293194352162076,0.292600381975276,0.292205305914954,0.285512518558974,0.284525280440275,0.283990978491419,0.364877603473121,0.267466492837953,0.281977627492936,0.286619997217772,0.278433695784785,0.279025857843162,0.280837602522533,0.281806759357007,0.280904503274167,0.289262576907293,0.289565438418066,0.289585327830714,0.290376384015569,0.288252737183313,0.288191260816947,0.287586441859612,0.444541029576985,0.71825098985792,0.264334814410138,0.263646821545367,0.263957819634041,0.264741643305206,0.271614339439228,0.672995343570516,0.254263539096668,0.253507741416052,0.252953550054548,0.2566339954586,0.258639209879181,0.245721940428655,0.245806922464514,0.246279748047004,0.253644255111953,0.252379469280396,0.250375158924026,0.26143005609935,0.261939948314502,0.253570121846629,0.740784790323651,0.739772238407036,0.264340238795406,0.264153097503674,0.259990785875019,0.259184360598573,0.252797146945999,0.253290766005349,0.252780873790197,0.244088296398903,0.238599722572325,0.240281282005274,0.24475911204366,0.244590052036154,0.327608460428014,0.302364275456917,0.462162145118712,0.286834260435841,0.215713337064202,0.217598310944685,0.217760138438501,0.218292632258935,0.218051247114528,0.217872242400698,0.419354704715408,0.347588279496927,0.346233087244244,0.518048682466358,0.268218674261724,0.268907571190706,0.268747551825313,0.280916256108913,0.246012145040471,0.249296610319989,0.248960298433399,0.315993043441707,0.260257484817342,0.233766595298913,0.233597535291407,0.223165538357643,0.227552057910691,0.219775297565406,0.225087578870788,0.225431123271068,0.225503448407969,0.223813752397118,0.213682808845705,0.214142073465027,0.214679087606517,0.215017207621529,0.740412315868611,0.208445564869858,0.209120900835672,0.209260126724206
0.319770223716364,0.3225664943218,0.323549212119443,0.323981354812427,0.323250870929727,0.325416104715702,0.326814692050525,0.326450354173386,0.326353619302781,0.325251565029252,0.325897066876093,0.322870259896785,0.322724705558771,0.322619834110265,0.32151416357989,0.320554047387529,0.318839941642974,0.320523309204346,0.319299206262296,0.320202366409348,0.32293806471263,0.321630787863143,0.324700989924593,0.327822723646084,0.33007474759634,0.329961739569932,0.329940946093073,0.708929183775587,0.831155952945714,0.683588263933885,0.343716172480088,0.343203568072301,0.342614118206558,0.346003454934583,0.346414804150708,0.577144647763988,0.338056730517581,0.337990733830159,0.336521629486856,0.337008920096727,0.334411543617769,0.33459145239581,0.303008873239548,0.303187877953378,0.303902992744487,0.304918256853735,0.306535627727685,0.305961546953533,0.308578812845139,0.311081262581915,0.311281060772604,0.310715116576354,0.303280996567138,0.30978935482402,0.310266700727567,0.308731599696842,0.303896664295008,0.309809244236668,0.311064989426112,0.309866200281978,0.310867903428057,0.308774090714772,0.311298237992618,0.302794610021478,0.302436600593818,0.303026954523773,0.308764146008448,0.305519459554225,0.300738768005066,0.301493661621471,0.291695413699802,0.302468242841212,0.283303889690859,0.283900572070292,0.502864019973985,0.299379055431327,0.290360110859767,0.284000019133531,0.284327290378009,0.286179717946886,0.29283905492705,0.280212894152551,0.292700733102727,0.288529380831959,0.288141537285327,0.290028319294233,0.288764437526887,0.289626914784432,0.289667597673939,0.289474127932729,0.289203812733561,0.620989049817611,0.260668834033467,0.261502381236251,0.261847733764954,0.262908201084765,0.265339229748851,0.675542092453644,0.671313784137567,0.252865855826055,0.393220920560428,0.255974028584378,0.259457387990374,0.258276680130465,0.258482806770633,0.245003209380701,0.250496303528335,0.251255717465796,0.259193401240685,0.261242010743407,0.261298966788717,0.259972704590794,0.265172881933979,0.328074957561026,0.267819077880346,0.265179210383458,0.260329809954243,0.260388574127975,0.260468131778566,0.261223929459182,0.253382076490687,0.253458921948644,0.252909250908196,0.252169726383383,0.237274364438613,0.245574577962219,0.244542136632957,0.314973259011402,0.302511637923353,0.424473516279579,0.445288690679699,0.217389472111883,0.218331507020019,0.217681484852121,0.217253862480194,0.217576613403615,0.217780027851149,0.497101514691394,0.610630282084959,0.26656966114038,0.267895923338303,0.268121939391119,0.269185118903564,0.269724845237688,0.269536799881746,0.268244892123851,0.268104762171105,0.359816652018471,0.35778341160734,0.237841212699075,0.240566062231822,0.234208682698221,0.234661618868063,0.234742080582866,0.234182464836094,0.22533258027204,0.226467180857175,0.225562212581701,0.224406818519707,0.217959032564979,0.21454528610325,0.21340706926127,0.21257713831533,1.67438116311179,0.207102125451921,0.208657115895294,0.209810701828865
0.322307931957379,0.321056707088991,0.322014111088719,0.317100522100504,0.324644033879283,0.324580749384494,0.326024539929882,0.32598747329722,0.325789483234953,0.326981039865398,0.325048150581717,0.323306018846614,0.321969811942367,0.321577448074679,0.319949228430194,0.318703427947074,0.317744215818924,0.318127539044499,0.318219753594048,0.319135570640057,0.32128453127023,0.321770917815889,0.54380456778103,0.326854470875821,0.543666245956707,0.340159583872979,0.339995044186529,0.701957944642538,0.573537431561049,0.572592684460279,0.345769302303866,0.343583275041032,0.347944480796165,0.346186075905258,0.346062219108315,0.344489147380717,0.33653157419318,0.336915801482967,0.336808217841827,0.333386334802196,0.341889058709125,0.340148735102444,0.676512153352329,0.00385361890371919,0.306522970828727,0.30731221888516,0.308002923942565,0.308615879477801,0.308693628999969,0.309899650657794,0.310932996051268,0.310617477641537,0.310589451650988,0.309936717290456,0.312629924575809,0.313741923555662,0.312987934003469,0.315108868643092,0.310065094408455,0.31553016256554,0.30936715683736,0.310494524908805,0.313652421198747,0.300664634739743,0.302565881776029,0.307593382854862,0.309436769781628,0.308340139893366,0.300403360182688,0.303028762652195,0.302470050969635,0.302512541987564,0.303299077851363,0.305101781888621,0.303968085367698,0.308306689517549,0.30838624716814,0.307134118235541,0.304958939743242,0.29613165678447,0.296280827379328,0.294729453192801,0.293664465551933,0.28856554340041,0.288008639846272,0.288252737183313,0.289270713485195,0.289855643029882,0.290776884461159,0.290107876944824,0.290248910961781,0.301360764182415,0.829450887843272,0.829261938423118,0.73618852787359,0.723198933286163,0.599777895292958,0.692727449045543,0.665228527931555,0.728231858750264,0.655578546540534,0.258081402260832,0.258442123881126,0.257844537437481,0.539553657859672,0.26914624414248,0.268920228089664,0.269453625974309,0.269079343390846,0.269528663303844,0.259860600628597,0.266592262745662,0.48630427581628,0.327615692941704,0.26773590397291,0.267952879383613,0.259691540621091,0.259123788296418,0.259959143627625,0.261613581134236,0.25999168993923,0.253350434243292,0.252836021707084,0.260165270267793,0.245908177656175,0.245886480115105,0.245398285441023,0.402807617456661,0.438555220434212,0.477465240022761,0.493391235168371,0.216088523711876,0.217883091171233,0.218037686151359,0.217857777373317,0.21645647784586,0.481097770023616,0.795999607962329,0.705200822968339,0.268440169993483,0.269680546091336,0.270004201078968,0.270532174578346,0.270932675023936,0.270216656168615,0.268490797589314,0.267971864732049,0.330097349201621,0.275444859502349,0.241158224290199,0.241599407625296,0.24009233258512,0.241615680781098,0.242929286080064,0.234296376926713,0.239714433744812,0.224605712646185,0.22517527309928,0.225256638878294,0.212399941729923,0.213215407648482,0.22559023857225,0.383753560140082,0.206058835352124,0.207252200110991,0.207793734573538,0.207608401410229
0.319746718046871,0.318494589114272,0.318019955403359,0.317158382210025,0.32458436564134,0.324776027254127,0.324381855258017,0.32550831926525,0.325893450619248,0.326264116945866,0.327173605542397,0.326965670773806,0.320123712822968,0.317738791433656,0.31862206216806,0.317838238496895,0.317468476234488,0.318318296593076,0.32940212382316,0.329077564771317,0.331214772566743,0.330806135543252,0.363653500531071,0.333895322953137,0.565298694403809,0.549456777229847,0.342903418754162,0.574216383783707,0.3579407187801,0.357816861983157,0.357034846440414,0.347443629223125,0.34822745289429,0.578050520103674,0.355411147116986,0.577975482774139,0.465665393937356,0.670298520028318,0.67006346333339,0.341165807340115,0.342096089413504,0.637045230209642,0.00387432197415711,0.689960108494867,0.476091966485853,0.308492926745069,0.309659169577598,0.318485548472159,0.315702838829892,0.309342747103656,0.310024411518949,0.31141395821166,0.313081052617229,0.309544353422768,0.309376197479473,0.315850201296327,0.314267184862406,0.314929863929262,0.313554782263931,0.317876209193768,0.318417743656314,0.318203480438245,0.312067596636403,0.311941027646826,0.311576689769687,0.315112484899937,0.308835567081138,0.308913316603306,0.308347372407056,0.30404131456881,0.309099553830827,0.302251267430509,0.307688309597045,0.307962241053058,0.308361837434436,0.308439586956605,0.308468517011365,0.308478461717689,0.305352207675141,0.304059395853035,0.300272270872054,0.297230094801154,0.294496204626295,0.28653320705349,0.295111872354165,0.293711476890919,0.288708385545789,0.296329646846736,0.296593633596425,0.298473183091641,0.294284653600859,0.627140302711044,0.840425323303793,0.300086937708745,0.73768475414323,0.297796943061616,0.678879897521627,0.636603142810334,0.678654785533022,0.793715941764678,0.290740721892708,0.596722158258889,0.758541515497068,0.548766976236653,0.605593740364013,0.269495212928027,0.269745638714547,0.269573866514407,0.269328865113155,0.27007652621587,0.271180388617822,0.268496221974582,0.486308796137336,0.32699008050751,0.273332061440628,0.271516700504412,0.269724845237688,0.269128162858255,0.265349174455175,0.261433672356195,0.258341772753676,0.261856774407066,0.261770888306996,0.262005945001925,0.260575715419706,0.243930989226143,0.246185725369033,0.297801463382673,0.243849623447129,0.244081063885213,0.405947432462378,0.214565175515898,0.215401434911316,0.215782950008469,0.216570389936479,0.216276569067818,0.264542749178729,0.33313138869462,0.333245300785239,0.270908265290231,0.271130665086202,0.271023985509273,0.271072804976681,0.270521325807811,0.271080941554583,0.271018561124006,0.361849892429601,0.274162896450778,0.274983786754605,0.241275752637663,0.241469222378874,0.241235973812368,0.246164931892174,0.24352054407423,0.240411467251696,0.240023623705064,0.239594193204714,0.224907670092747,0.225874114734587,0.226289080207556,0.225998875595741,0.225729464460785,0.23241863555992,0.23379281316104,0.204558088761427,0.205931362298336,0.249781188737226
0.55932282996736,0.315727248563596,0.31643874709786,0.321339679187117,0.322094572803521,0.322989596372672,0.323286129433966,0.326560650007161,0.326337346146979,0.326708012473596,0.326712532794653,0.325577932209518,0.650209309189843,0.316071697028087,0.316430610519958,0.316980281560406,0.323810486676498,0.326314744541697,0.327782944820788,0.328058684405223,0.333355596619013,0.332478654334088,0.332702862258481,0.334306672169262,0.372626337827856,0.55026772282735,0.595585749545331,0.594025334716691,0.357485974481835,0.358346643610957,0.364700406887714,0.364431899816968,0.363890365354422,0.357593558122975,0.35592194339635,0.590315959257879,0.599861069200394,0.594891428231081,0.619455756915309,0.341229091834903,0.433611797327026,1.18115989201514,0.977456143933352,0.694082641298226,0.756260561492051,0.61346542745148,0.490475628087047,0.318133867493978,0.327963757663041,0.328861493424825,0.329365057190498,0.312647101795823,0.312978893361356,0.315333980631696,0.313598177346071,0.31412705490966,0.314560101666855,0.3168754101119,0.31549399999709,0.318717892974454,0.319449280921366,0.319111160906353,0.310490004587749,0.317725230470487,0.318429496491061,0.316200074146086,0.314144232129674,0.311436559816941,0.309750480062936,0.311186134030422,0.314514898456292,0.310378804689764,0.308098754748958,0.308626728248336,0.308391671553408,0.308273239141732,0.307391776535751,0.307490319534778,0.303881295203416,0.305446230353113,0.304122680347824,0.299870866362254,0.301858903562821,0.30003992636976,0.299346509119721,0.298448773357937,0.298463238385317,0.296600866110115,0.298832096583512,0.299192818203806,0.30011857995614,0.299828375344324,0.299742489244254,0.299231692964891,0.299777747748494,0.477005071339228,0.299794924968508,0.295743813237838,0.895413220825444,0.79894233696999,0.606274500715094,0.677523801204732,0.809332746950036,0.754937915550974,0.2898972299836,0.268177991372217,0.267963728154148,0.268178895436428,0.269117314087719,0.271480537935961,0.277531439701944,0.278562976966996,0.278948108320994,0.280302396509466,0.269892097116772,0.270689481751106,0.269381300837408,0.269158901041438,0.264387250134391,0.264204629163716,0.264530996343982,0.264111510549956,0.261312527751886,0.261739246059602,0.259292848303924,0.25925397354284,0.265608640883808,0.243204121600288,0.328112928257899,0.246268899276469,0.281009374722673,0.41113856916345,0.21345046434341,0.214171003519787,0.21565457289047,0.264593376774559,0.302300086897917,0.400024003750182,0.269600988440745,0.269745638714547,0.270768135337486,0.270462561634079,0.27122920808523,0.273787709803104,0.27400649334223,0.273213629028952,0.272278826634506,0.266883371421689,0.247169347230887,0.252054910228552,0.240393385967471,0.24702108070024,0.248483856594064,0.243590157018497,0.239274154473927,0.238805849212493,0.238503891765931,0.24032106083057,0.224151872412131,0.224405914455496,0.22508938699921,0.231812008474162,0.23216097725971,0.233218732386887,0.4841788208556,0.397901260982137,0.248678230399485
0.573749886650695,0.575652941815404,0.557134090511892,0.555372069364141,0.574888103492676,0.723870652995131,0.684954304957103,0.325369093376716,0.325372709633561,0.327597611657479,0.327392389081523,0.512362118577514,0.418579921686356,0.324848352391028,0.326053469984642,0.324378239001172,0.327546079997437,0.507644711523143,0.326282198230091,0.335694410733551,0.335835444750508,0.331880163826232,0.331628833975501,0.331427227656389,0.460938946240873,0.458274669010281,0.774704375466028,0.352745061757971,0.362904031299934,0.365044855352205,0.365087346370134,0.364694078438235,0.364259223552617,0.362573143798612,0.356609032196909,0.367486732786826,0.362821761456709,0.361194445876436,0.359630414790951,0.357115308155217,0.687430536831753,0.434568297262542,0.955758602863039,0.957277430737961,0.697340888715618,0.331322356207883,0.331519442205938,0.330318844933381,0.330298955520733,0.32959559356437,0.329839690901412,0.328520661217179,0.314946137085064,0.314061058222238,0.313675022804029,0.314148752450731,0.31455648541001,0.315842968782637,0.31756973142615,0.316955871826702,0.317186408200574,0.317501022546094,0.316672899728577,0.317309360933306,0.317973848128584,0.313957090837943,0.320237624913587,0.318226082043527,0.307507496754792,0.308910604410673,0.314947041149276,0.312345144349261,0.310640079246819,0.307648530771749,0.308440491020816,0.307668420184397,0.308065304373142,0.30723356529878,0.307457773223173,0.30850106332297,0.305392890564648,0.303507012619953,0.302033387955595,0.297852995042715,0.29926695146913,0.298041040398657,0.297374745074956,0.303130921908068,0.302253979623143,0.298939680224653,0.30127849433919,0.299991106902352,0.299831087536958,0.299572525172537,0.301405063328767,0.302127410633566,0.30268160199507,0.295867670034781,0.293000882420866,0.58300840823824,0.619268615623577,0.291181001163593,0.291855433065196,0.293904946632129,0.291047199660327,0.290530978995695,0.276387798474697,0.276423961043147,0.283428650552013,0.281323085003982,0.278400245408968,0.28059169705707,0.280337655013705,0.280132432437748,0.280115255217734,0.270557488376261,0.271354873010595,0.271898215601565,0.272788718849659,0.264601513352461,0.264948674009586,0.259715046290584,0.259949198921301,0.264493025647109,0.259000835563686,0.258909525078349,0.358514799554252,0.324109731930427,0.377815666400506,0.376414366873048,0.456085929554813,0.436729010727461,0.353213367019406,0.256693663696543,0.331156912457222,0.290568045628357,0.387349927572486,0.269170653876184,0.270214848040193,0.271372954294821,0.271853012391001,0.272888165912898,0.273915182856892,0.273852802426315,0.273873595903174,0.273687358675654,0.272899014683433,0.271454320073834,0.25245360254572,0.252412919656213,0.245372067578896,0.244460770853943,0.246400892651314,0.245921738619344,0.250924829964474,0.253788001321544,0.253459826012855,0.239295852014998,0.23966290208477,0.239832866156488,0.230419749588817,0.230438734937254,0.231462135624403,0.232500001338933,0.253516782058165,0.981235132336432,0.399595477314044
0.342483932960136,0.455440427707972,0.455626664935492,0.348836792172681,0.34113416509272,0.548844725758822,0.606601771959571,0.499835404866253,0.627776763915773,0.587636312935695,0.561795445585165,0.341895387158604,0.341258925953875,0.327944772314604,0.32464222575086,0.327305598917241,0.326307512028007,0.338988820719393,0.339850393912727,0.339255519661716,0.334300343719783,0.332345756895033,0.335015458510892,0.338699520171789,0.557233537575131,0.34450542053652,0.360139402941892,0.362734067228216,0.364498800568602,0.364543099714954,0.364868562831008,0.365345004670344,0.364499704632813,0.367469555566812,0.368013802221993,0.36758979610691,0.359472203553979,0.360285861344116,0.358695612396505,0.353762133995642,0.352720652024267,0.690997070145185,0.3584705004079,0.365985082131918,0.65263400940445,0.332824006862791,0.333211850409423,0.333271518647366,0.330866707845406,0.330564750398844,0.330647924306281,0.329467216446371,0.336310982525632,0.314566430116334,0.313520427823903,0.314979587460881,0.315586214546639,0.315889980121623,0.315441564272837,0.316372750410438,0.316270591154565,0.317288567456447,0.317227091090081,0.315726344499384,0.315582598289794,0.323843032988104,0.318244163327752,0.317448586821841,0.317755064589459,0.318126634980288,0.314597168299517,0.317703532929417,0.318857118862988,0.312737508216949,0.30753461868113,0.311385028156899,0.31533669282433,0.315216452284232,0.30696867448488,0.307667516120186,0.303945483762416,0.302311839732664,0.302922083075266,0.299797637161141,0.305335030455127,0.306652252010938,0.305998613586194,0.306164961401067,0.305387466179381,0.30699760453964,0.308258774114352,0.307844712705593,0.307273344124075,0.307394488728384,0.303188782017589,0.300811997206178,0.302062318010355,0.622030531788986,0.296505939367933,0.581427199932741,0.295372242847009,0.291731576268253,0.295896600089541,0.291078841907721,0.291606815407098,0.290626809802089,0.289650420453925,0.286297246294351,0.283637489384815,0.284581332421373,0.282320267829005,0.280091749548241,0.280588080800225,0.280288835546297,0.280070052007171,0.278573825737531,0.27134402424006,0.278385780381588,0.279700289744764,0.275589509776151,0.270652415118444,0.269434640625873,0.691099229401058,0.276070471936543,0.276289255475669,0.268378693627118,0.43848922374679,0.434933539203892,0.33694653966615,0.565662128216736,0.471916093894029,0.456529825082543,0.445965834773935,0.445773269096936,0.275206186550576,0.396764852268579,0.324018421445089,0.270951660372372,0.27155828745813,0.272096205663831,0.272583496273702,0.27312593480046,0.273966714516934,0.273822064243132,0.273832008949456,0.273760587876766,0.272933369123461,0.271575464678144,0.252486148857325,0.252463547252043,0.25256841870055,0.262386556034866,0.25259011624162,0.251767417809371,0.253961581650106,0.254043851493331,0.254249978133499,0.257822839896411,0.253356762692771,0.77339529048812,0.229302326223696,0.471528250347397,0.240994588667961,0.244009642812523,0.627890676006393,0.602930367197632,0.259843423408583
0.344035307146663,0.460976012873535,0.349295152727792,0.349897259492493,0.351769576474019,0.350864608198544,0.356084674954377,0.356026814844856,0.354693320133243,0.353105783378265,0.352351793826072,0.351844613803553,0.352087807076383,0.349563659798537,0.34946602086372,0.344852581193645,0.343881616230749,0.343526318995722,0.340953352250468,0.340842152352482,0.34270181243505,0.342136772303011,0.339512273897714,0.343439528831441,0.343600452261046,0.343730637507468,0.358131476328676,0.360236137812497,0.365444451733583,0.364620849237122,0.365033102517458,0.363827984923845,0.363970827069224,0.367512950648953,0.360048092456554,0.360508261140087,0.361224279995407,0.359990232347033,0.355323452888493,0.355082067744086,0.353707890142966,0.35279388122538,0.455493767496436,0.362115687307713,0.646910378882944,0.33422621045446,0.334692707587471,0.334204512913389,0.330892925707533,0.333883570118391,0.333734399523533,0.337198773581092,0.336803697520771,0.336713291099644,0.314335893742462,0.314501337493123,0.313777182059901,0.31474995515122,0.315842064718426,0.315865570387919,0.321453591277736,0.319404077710802,0.314418163585687,0.317918700211697,0.325567987503194,0.325482101403124,0.327350802127804,0.32807766975366,0.314779789270192,0.314930767993473,0.318246875520386,0.323652275439527,0.320073989291348,0.319332656638113,0.311038771563986,0.319338985087592,0.317514583509263,0.315168536881035,0.323376535855092,0.322206676765718,0.321534052992538,0.305939849412462,0.308671027394688,0.305997709521983,0.308752393173702,0.308326578930197,0.306501273287657,0.305404643399395,0.305261801254015,0.307216388078766,0.308431450378703,0.310796482355367,0.311655343356067,0.310078655371624,0.308995586446531,0.306032063962011,0.307367366802047,0.308463996690309,0.499858006471535,0.29716228998531,0.299933246792831,0.302207872348369,0.301546097345724,0.299607783676776,0.289628722912855,0.290747954406399,0.290821183607511,0.285836173546607,0.285017995435414,0.287947163479906,0.287579209345922,0.286520550154533,0.27931063806971,0.280091749548241,0.280381050095845,0.280674870964506,0.279795216486947,0.280170403134621,0.279527613480413,0.284215186415812,0.2849366296564,0.693315994847075,0.768270150474469,0.281163969702799,0.280547397910718,0.281416203617742,0.279378442885555,0.278857701899867,0.283672747889054,0.614151612187829,0.359904346246963,0.246335800028103,0.396174498338624,0.350873648840657,0.396005438331118,0.368191902871611,0.394133121349592,0.270561104633107,0.2719090643721,0.272532868677871,0.272437941935689,0.272053714645902,0.273098812874122,0.27321905341422,0.272994845489827,0.272747131895941,0.27294693008663,0.272881837463419,0.272669382373772,0.261416495136181,0.261540351933124,0.262275356136881,0.263239992650299,0.252726629937521,0.253024971127238,0.253301614775884,0.258988178664729,0.258905004757292,0.25275465592807,0.262820506856273,0.471483951201045,0.472482038090279,0.880039608912917,0.254335864233569,0.254860221476102,0.261996000295601,1.69672963041421
0.481192696765799,0.701674068480202,0.349441611130016,0.34970198162286,0.353959219993698,0.356397481171474,0.357994058568564,0.356225708971334,0.355396682089606,0.356142535063898,0.35380372094936,0.353082277708772,0.355067602716706,0.348854873456907,0.348968785547526,0.346307220509567,0.344164588328874,0.343688146489538,0.341891770901759,0.339995044186529,0.34066133951023,0.344849869001011,0.344470162032281,0.346356039976976,0.344051580302466,0.343956653560284,0.346202349061061,0.565616925006173,0.362876005309385,0.363010710876863,0.361499115515631,0.362671686797639,0.364308947084237,0.364081122902998,0.361938490722305,0.361050699666845,0.360228905298807,0.359860047100611,0.358961407274616,0.354503466648878,0.355050425496692,0.347541268157941,0.480440515342028,0.518592025057327,0.336273011828759,0.335172765683652,0.3355217344692,0.334933188667667,0.333956799319503,0.334225306390248,0.332211051327554,0.332010349072654,0.337818057565808,0.336302845947731,0.312162523378586,0.314911782645036,0.312882158490751,0.320638125359176,0.315984002799594,0.320036922658687,0.318535272003779,0.322720185237715,0.323863826464963,0.325185568341829,0.32442705846858,0.331222909144644,0.325289535726125,0.334511894745219,0.328025234029407,0.329453655483202,0.323455189441472,0.318537984196412,0.318718797038665,0.318275805575146,0.323178545792826,0.31880829939558,0.318323720978343,0.324964976674281,0.326773105096807,0.323113453169615,0.321767301559044,0.319989911319701,0.309761328833471,0.309539833101712,0.311856949675179,0.311052332527155,0.308936822272799,0.312446399540922,0.312421989807218,0.310885984712282,0.308925069438053,0.312005216205826,0.312452727990401,0.309297543893093,0.311668000255025,0.309106786344517,0.309385238121586,0.308740640338955,0.309849927126175,0.30982461332826,0.301074175827445,0.301909531158652,0.301924900250243,0.301058806735853,0.303749301828572,0.302046044854552,0.299090658947934,0.294027899364861,0.293488173030737,0.287303469761486,0.287423710301584,0.287135313818191,0.289270713485195,0.289286986640997,0.289542836812785,0.289393666217927,0.284086809297813,0.280771605835111,0.279578241076244,0.284744968043612,0.284138340957855,0.295575657294543,0.294292790178761,0.283006452565353,0.280166786877776,0.287046715525488,0.277780961424253,0.277318080548086,0.412279498198064,0.537173256791416,0.551729594656962,0.365769010785426,0.364555756613911,0.365058416315374,0.501305413273767,0.368358250686484,0.368236202017963,0.56488463299505,0.269763719998773,0.270345033286615,0.270833227960697,0.27094261973026,0.270009625464236,0.270611732228937,0.271397364028525,0.272656725474814,0.273481232035486,0.273250695661614,0.272491281724153,0.261090127955915,0.262023122221939,0.262137938376769,0.262163252174684,0.274051696552793,0.273868171517907,0.273755163491499,0.273149440469953,0.271642365429777,0.428851899254726,0.852719692512759,0.26435741601542,0.845239465228769,0.64218302712225,0.253161484823138,0.254136970107091,0.261343265935069,0.262043011634586
0.558100535153732,0.768381350372455,0.703214593896194,0.549020114215807,0.356600895619008,0.355836961360491,0.358147749484479,0.356520433904206,0.358365628959394,0.355890301148955,0.35532074069586,0.35619406672394,0.355968050671124,0.352619396832606,0.346586576350848,0.349359341286791,0.349467828992143,0.344511748985999,0.340214731789866,0.341015732681045,0.340739089032398,0.344232393144719,0.345741276313317,0.346214101895807,0.345982661457724,0.344768503221998,0.348513137185049,0.347807967100264,0.794047733330212,0.802446489852845,0.809372525775331,0.363496193358311,0.36391748728076,0.363014327133708,0.364710351594037,0.361268579141759,0.362219654692008,0.361726035632658,0.36134813679235,0.354963635332411,0.354112910909612,0.342812108268825,0.343010098331091,0.341229995899114,0.335551568588171,0.335030827602484,0.335395165479623,0.33465564095481,0.33474152705488,0.33364670529504,0.333545450103379,0.335409630507003,0.335704355439875,0.336183509471844,0.335699835118818,0.312685976556907,0.319011713843114,0.320007992603926,0.319244058345409,0.318007298504401,0.324417113762256,0.322402858699562,0.323445244735148,0.324246245626327,0.336963716886164,0.336938403088249,0.337360601074909,0.334231634839727,0.331310603373136,0.329975300533101,0.328866917810092,0.322038520822423,0.329470832703216,0.326756831941005,0.328019809644139,0.327324584265678,0.327542463740592,0.328831659305853,0.32859298635408,0.324865529611042,0.324889939344746,0.323864730529174,0.315077226395698,0.311751174162461,0.310608436999425,0.311017978087127,0.310249523507553,0.311789144859334,0.313801591793606,0.312356897184007,0.315698318508835,0.311995271499502,0.312459960504091,0.312825202445441,0.313682255317719,0.312100142948008,0.309301160149938,0.31088417658386,0.31184338871201,0.311682465282405,0.30048382189749,0.3006772916387,0.300787587472474,0.305231967135043,0.303700482361164,0.301355339797148,0.296471584927905,0.297287050846464,0.295349641241727,0.293753063844637,0.290276032888119,0.29034835802502,0.290948656661299,0.289537412427517,0.289469607611673,0.289545549005419,0.287380315219444,0.281691943202177,0.282666524421918,0.282935031492663,0.295774551421021,0.295931858593781,0.295770031099965,0.294505245268408,0.524239714185087,0.284556018623458,0.448951958863737,0.448903139396329,0.478579047131037,0.543310948721681,0.543598441140863,0.374341347636622,0.426299725986331,0.362235023783599,0.500213303706561,0.356512297326304,0.371581239599636,0.35103366820605,0.437120470530938,0.425960701907107,0.35275139020745,0.254904520622454,0.255247160958522,0.269490692606971,0.271187621131512,0.272346631450351,0.274126733882328,0.273287762294276,0.271902735922621,0.268410335874512,0.267736808037121,0.263082685477539,0.263553702931607,0.272916191903447,0.273981179544315,0.273078923461474,0.273552653108176,0.27203111304062,0.614728405154614,0.27704866941313,0.265851834156637,0.26619718668534,0.266407833646564,0.640979717657059,0.263387355116734,0.26001248341609,0.430138382627353
0.370049754825757,0.701334140336767,0.701656891260187,0.562949031518736,0.353998998818993,0.354255753054992,0.359417959701304,0.358973160109362,0.358192952695042,0.355045001111424,0.355115518119903,0.356180505760771,0.355280057806353,0.353601210566037,0.352611260254704,0.352385244201889,0.349321370589918,0.349416297332101,0.38738156981988,0.346023344347231,0.343119490100654,0.346441022012834,0.352425023027184,0.345359761216164,0.345687936524852,0.346773717642579,0.353215175147828,0.356939919698232,0.580062062973734,0.795990567320216,0.361903232218066,0.364358670615856,0.363790918291183,0.363797246740662,0.362849787447258,0.364902917271036,0.365066552893275,0.362044266235023,0.360520013974833,0.352264099597579,0.494251904297493,0.530005835724523,0.581546536408628,0.334944941502414,0.334710788871697,0.334009235043757,0.334029124456404,0.333656650001364,0.334910587062386,0.335373467938552,0.337907559922723,0.336157291609717,0.336932978702981,0.33686788607977,0.345806368936528,0.341808596994323,0.324055488077751,0.322883820859954,0.325312137331406,0.330366760336578,0.328102983551575,0.328181637137955,0.329961739569932,0.628528945339544,0.336648198476433,0.338059442710215,0.336691593558574,0.343567001885229,0.343229785934428,0.344094071320396,0.328938338882782,0.329088413541852,0.328888615351163,0.327869734985069,0.330867611909618,0.329361440933653,0.329203229696682,0.329563951316976,0.329721258489736,0.327235985972974,0.327110321047608,0.327084103185482,0.322141584142507,0.311024306536605,0.310485484266693,0.311780104217221,0.311388644413745,0.314125246781238,0.320817130073006,0.318718797038665,0.315531066629752,0.314940712699797,0.312244793221811,0.312131785195403,0.314554677281588,0.314383809145659,0.311781912345644,0.310991760225,0.313009631544539,0.312800792711737,0.312911992609723,0.313068395718271,0.309965647345216,0.306713728377303,0.306295146647489,0.305484201049986,0.30258125086762,0.29709810142631,0.296114479564456,0.292999074292443,0.291034542761369,0.290819375479088,0.289084476257675,0.287803417270315,0.289182115192491,0.28613903505738,0.287326071366768,0.286599203740913,0.292708869680628,0.295786304255767,0.296373945993088,0.296534869422693,0.295720307568345,0.521604367009256,0.297703824447856,0.296213926627695,0.29491478635611,0.294236738197663,0.292697116845882,0.535219574030877,0.278217624438293,0.278697682534474,0.371587568049115,0.368822035626862,0.365617127997934,0.520754546650668,0.465711501212131,0.344019938055072,0.494060242684705,0.391127107847143,0.368460409942356,0.369605859298027,0.254337672361992,0.343507333647286,0.343487444234638,0.304015096706683,0.293059646594598,0.270595459073135,0.271205702415737,0.270827803575429,0.269821580108293,0.270581898109966,0.272933369123461,0.273181986781558,0.27280408794125,0.27165863858558,0.284765761520471,0.284861592326865,0.284592181191909,0.282933223364241,0.266170064759002,0.279438111123498,0.279485122462484,0.267713302367628,0.2623250796685,0.25969063655688,0.25913915738801
0.371464615316383,0.373397504600064,0.372434676215069,0.369950307762518,0.369532630096914,0.357444387528117,0.356560212729501,0.357298833190103,0.363390417845593,0.362640948614456,0.361524429313547,0.356477038822065,0.355032344212467,0.355193267642072,0.353723259234558,0.351251547680965,0.350799515575333,0.351542656356992,0.360025490851272,0.359380893068642,0.363646268017381,0.353426726173264,0.353136521561448,0.344647358617688,0.355016975120875,0.358834838285039,0.35801937236648,0.359018363319925,0.358296920079338,0.801795563620736,0.66521767916102,0.36109771100583,0.362197957150938,0.365160575571246,0.366191208772086,0.365905524481327,0.365388399752485,0.365610799548455,0.363816232089098,0.503990483981218,0.530711005809308,0.454997436244453,0.331989555595795,0.332370166628737,0.334081560180658,0.333756097064603,0.33315308623569,0.331142447429842,0.330439085473479,0.338366824542044,0.337432022147598,0.336893199877686,0.337043274536755,0.345677087754317,0.346386778160159,0.345749412891218,0.34415464362255,0.342132251981955,0.324909828757394,0.325351012092491,0.33103395972449,0.329729395067637,0.333908883916306,0.334386229819853,0.343843645533876,0.336275724021393,0.344234201273141,0.344103111962508,0.344059716880368,0.34587236562395,0.345368801858276,0.346620026726664,0.329064907872359,0.331127982402461,0.330485192748253,0.330006038716284,0.330784438002181,0.329202325632471,0.329139041137683,0.330379417235535,0.325330218615631,0.330800711157984,0.32149246603882,0.311983518664756,0.309982824565231,0.31465683653746,0.314658644665883,0.321332446673426,0.320935562484682,0.320740284615049,0.323322292002416,0.322714760852448,0.322125310986704,0.320756557770852,0.317910563633796,0.317271390236433,0.310406830680313,0.315458741492851,0.316902532038238,0.315242670146359,0.312210438781783,0.31344719862279,0.313066587589849,0.312049515352178,0.311483571155927,0.303396716786179,0.305053866485424,0.303598323105291,0.299956752462324,0.294474507085225,0.289592560344404,0.286584738713532,0.286708595510475,0.286143555378436,0.287652438547034,0.285990768526732,0.293463763297033,0.299142190607976,0.296626179908031,0.296355864708863,0.295493387451318,0.295757374201007,0.295349641241727,0.295166116206841,0.296458928028947,0.298888148564611,0.29473578164228,0.294516998103154,0.293806403633101,0.278756446708206,0.279448959894033,0.279423646096118,0.278320687758377,0.36158409755149,0.372792685642729,0.466385933113733,0.298672077218119,0.527712224820549,0.40240621294686,0.39763908236087,0.356655139471684,0.381011533387321,0.377657455163535,0.333602406148688,0.333260669876831,0.305990477008293,0.270712987420599,0.271005000160837,0.272162202351253,0.271211126801005,0.272160394222831,0.27286104398656,0.273286858230064,0.273723521244105,0.273041856828812,0.271996758600592,0.285475451926313,0.286120049708943,0.285606541236946,0.284299264387459,0.28009807799772,0.280394611059014,0.280358448490564,0.280174019391466,0.259468236760909,0.26005587849823,0.260509718732284
0.371536940453285,0.373343260747388,0.373914629328906,0.371337142262595,0.370005455679405,0.368886224185861,0.369569696729576,0.362155466133008,0.362718698136625,0.36387499626283,0.363229494415989,0.362764805411399,0.35318805322149,0.352652847208423,0.353378810770067,0.35453330076785,0.354260273376048,0.353051539525589,0.35758270935244,0.364974338343726,0.364607288273953,0.364358670615856,0.365175040598627,0.365797940840187,0.364596439503418,0.359445985691853,0.359809419504781,0.360411526269482,0.361637437339954,0.802182503103157,0.583869077367362,0.736455226815912,0.589215713112772,0.365542090668399,0.364560276934968,0.367606973326924,0.364893876628924,0.364687749988756,0.57041027345429,0.576559718219301,0.597722957340757,0.33126992048363,0.332412657646666,0.332174888759104,0.333408032343267,0.333662074386632,0.332924357990241,0.330161537760621,0.33009644513741,0.329167971192443,0.336434839322575,0.337200581709515,0.345139169548616,0.345436606674121,0.34487066247787,0.34545740015098,0.343196335558611,0.3531166321488,0.35317358819411,0.329288211732541,0.33114154336563,0.339749138721065,0.337534181403471,0.337696912961498,0.339929951563318,0.345021641201151,0.344672672415604,0.350197408810632,0.348666828100964,0.346623642983509,0.346309932702201,0.345905815999767,0.344746805680927,0.328890423479585,0.34902212533599,0.329493434308498,0.329325278365203,0.327895048782985,0.334501950038895,0.337112887481022,0.339640651015714,0.340223772431979,0.339689470483122,0.313319725569002,0.314464270860461,0.313473416484917,0.313234743533144,0.319583986488844,0.318574146764863,0.321318885710258,0.322224758049943,0.322343190461619,0.321741083696917,0.313517715631269,0.314933480186107,0.315797765572074,0.316177472540805,0.316596958334831,0.316043671037538,0.31295267549923,0.313624395208198,0.314116206139125,0.312864981270737,0.313483361191241,0.312546750668372,0.311417574468505,0.305227446813987,0.301294767494993,0.301101297753783,0.30007608893821,0.293800979247834,0.285631855034861,0.286015178260437,0.28535882764306,0.285037884848061,0.285467315348411,0.299370014789214,0.299396232651341,0.298878203858287,0.299236213285947,0.299551731695678,0.299272375854398,0.302383260805354,0.3007414801977,0.549866318317549,0.292689884332191,0.293128355474654,0.377539926816071,0.536798974207953,0.279297077106541,0.280064627621903,0.279083717952683,0.277808987414802,0.56244365962464,0.481105002537306,0.527568478610958,0.368492052189751,0.347559349442167,0.324709126502494,0.28572406958441,0.387496385974711,0.290587030976794,0.356388440529361,0.289600696922306,0.289459662905349,0.336124745298112,0.290017470523698,0.2687385111832,0.269686874540815,0.272026592719564,0.272735379061194,0.271134281343047,0.270936291280781,0.271953363518452,0.272235431552366,0.286457265659744,0.286337929183857,0.285508902302129,0.28504421329754,0.290587935041005,0.280088133291396,0.28059169705707,0.280819521238308,0.280228263244142,0.279689440974229,0.259247645093361,0.259076776957432
0.377285884772706,0.37295812939339,0.374209354261778,0.373341452618966,0.368844637232143,0.370676271324162,0.37163367532389,0.37241388273821,0.371296459373089,0.369623940582252,0.368539063528736,0.364651587420305,0.363778261392225,0.362527036523837,0.359932372237512,0.354608338097384,0.359412535316036,0.359104249419995,0.366939773939012,0.366915364205308,0.366165894974171,0.365631593025314,0.366961471480082,0.366140581176256,0.364702215016136,0.364754650740389,0.35931489638122,0.358329466390943,0.362559582835443,0.362461943900626,0.367919779544021,0.369354529447296,0.377719835594112,0.377225312470551,0.362989917400004,0.363714976897437,0.363967210812379,0.363183387141214,0.362318197691035,0.362286555443641,0.66592646550265,0.330749179497942,0.33166409247974,0.330810655864308,0.332833047504903,0.332814966220678,0.329117343596612,0.330252848245959,0.328824426792163,0.3284501442087,0.701583662059075,0.701545691362202,0.343727925314834,0.34439060438169,0.349126092720285,0.341826678278548,0.355159817266255,0.354452839053047,0.353762133995642,0.35299458348028,0.339800670381107,0.338605497493818,0.337387723001246,0.33824206368089,0.338507858559001,0.35361748372184,0.354296435944499,0.353992670369514,0.34745447799366,0.346337054628539,0.345201549979193,0.358259853446676,0.354418484613019,0.353461080613292,0.349789675851353,0.348957032712779,0.349082697638145,0.348681293128344,0.333325762500042,0.340004084828642,0.339303435064913,0.340270783770964,0.340007701085487,0.339501425127179,0.45352109938746,0.513366533916227,0.338090180893398,0.338036841104933,0.327802834233436,0.328393188163391,0.327608460428014,0.321069363987949,0.320987998208935,0.321325214159736,0.326888825315849,0.3278561740219,0.327338145228847,0.314909070452403,0.321906527447578,0.318714276717609,0.318019051339148,0.310592163843622,0.310981815518676,0.311596579182335,0.311582114154955,0.311402205376913,0.30011134744245,0.301232387064416,0.301245948027585,0.301612094033146,0.302689738572972,0.282787669026228,0.283890627363968,0.285071335223878,0.298712760107626,0.298451485550571,0.3000833214519,0.299810294060099,0.298342997845219,0.298261632066205,0.299521897576706,0.300213506698322,0.308586045358829,0.308510103965083,0.309874336859879,0.30804993528155,0.308164751436381,0.318921307421988,0.659268936650909,0.276970919890961,0.277472675528212,0.410192013934257,0.302042428597707,0.549047236142145,0.513114300001285,0.511884772673967,0.456089545811659,0.359210928996924,0.35924347530853,0.284433969954938,0.29226678228132,0.292432226031981,0.291204506833086,0.290017470523698,0.289533796170672,0.289214661504096,0.292547042186812,0.29040531407033,0.278393012895278,0.280091749548241,0.280703801019266,0.281729009834839,0.284677163227767,0.287149778845572,0.281717257000092,0.283170088187592,0.284175407590516,0.284472844716022,0.296144313683427,0.296315181819356,0.279497779361441,0.280662214065548,0.280125199924058,0.279903704192299,0.549972093830267,0.581511277904388,0.584662845744851
0.375437977524884,0.379831729591623,0.381091091037912,0.3799582985812,0.380245791000381,0.378796576069727,0.372680581680532,0.371312732528891,0.373501471984359,0.374036677997427,0.37323025272098,0.371230462685666,0.362235927847811,0.362927536969427,0.362370633415289,0.362581280376513,0.36254330967964,0.358823989514504,0.368084319230471,0.367357451604616,0.366395527283832,0.366445250815451,0.366411800439634,0.365659619015864,0.365777147363328,0.365501407778893,0.368051772918866,0.368035499763063,0.362334470846838,0.36776880082074,0.365966096783482,0.369471153730548,0.377475738257071,0.377448616330733,0.376854646143934,0.376166653279162,0.362820857392498,0.362985397078948,0.362086757252952,0.359949549457526,0.550214383038885,0.328964556744909,0.330456262693493,0.331273536740475,0.662086000733205,0.340078218093965,0.339797958188474,0.339503233255602,0.338888469591943,0.700267344567476,0.71264579174809,0.711788738875812,0.360852709604578,0.360996455814169,0.879474568780877,0.879245840535428,0.357645089783017,0.353424918044841,0.354159922248598,0.359825692660583,0.359485764517148,0.3381706426082,0.352020002260538,0.350774201777418,0.349915340776718,0.355216773311564,0.35543555685069,0.353734108005093,0.360740605642382,0.361207102775393,0.356288089401911,0.359131371346333,0.35849219794897,0.351866311344624,0.349577220761706,0.353204326377293,0.352993679416069,0.353310101890011,0.551661789841117,0.339471591008208,0.339182290460603,0.348137046473164,0.339863050811685,0.339930855627529,0.45543229113007,0.455300297755226,0.339381184587081,0.337300932836965,0.340612520042822,0.339233822120646,0.337793647832104,0.319904025219631,0.494436333396591,0.335886072346339,0.328103887615787,0.328093038845251,0.328325383347546,0.323181257985459,0.321448166892468,0.320630892845486,0.327129306396045,0.326937644783257,0.32464222575086,0.324560859971847,0.324016613316666,0.323764379401724,0.298122406177671,0.299608687740987,0.299897988288591,0.302002649772412,0.302263020265256,0.299044551673159,0.298338477524163,0.297530244119294,0.309858967768287,0.298833904711935,0.297539284761406,0.298494880632711,0.310646407696298,0.303910225258177,0.303655279150601,0.309174591160361,0.308896139383292,0.308275951334366,0.309641992357584,0.330666909654717,0.329456367675836,0.329089317606063,0.299358261954468,0.300749616775601,0.30114921315698,0.302160861009383,0.302979943184787,0.302686122316127,0.51419194454111,0.490264981125823,0.515492892941118,0.509519740697303,0.293068687236711,0.293588524158187,0.29444286483783,0.295737484788359,0.293101233548316,0.328595698546714,0.289669405802362,0.292929461348176,0.29505130005201,0.277752935433704,0.278918274202022,0.279518572838301,0.278886631954628,0.283559739862646,0.284308305029572,0.28677640032632,0.287223008046684,0.287197694248769,0.286647119144109,0.296526732844792,0.296706641622833,0.297308748387534,0.297811408088996,0.278103712347674,0.279098182980063,0.455163784059325,0.295184197491066,0.583438742802801,0.583174756053112
0.38641512517804,0.385690065680607,0.382669587150777,0.383794243029588,0.3816118320236,0.370742268011584,0.371097565246611,0.375375597094307,0.373204034858854,0.372169785401169,0.372311723482337,0.370861604487471,0.369934034606715,0.368953124937495,0.362929345097849,0.36333074960765,0.364152543975688,0.367524703483699,0.367993008745133,0.367948709598782,0.367069055121223,0.371766572762945,0.371405851142651,0.364949024545811,0.365542994732611,0.368273268650625,0.368833788461608,0.369794808718181,0.370815497212697,0.371346182904708,0.370980940963358,0.370034385734165,0.376436064414119,0.377812954207872,0.376772376300709,0.375927980327389,0.359826596724795,0.361275811655449,0.361643765789433,0.358361108638337,0.358418064683647,0.358409024041534,0.573730901302259,0.571936333842902,0.349713734457606,0.340607999721765,0.340333164201541,0.338855019216126,0.339769932197925,0.514748848095248,0.360611324460171,0.361168228014309,0.361536182148293,0.362046978427657,0.361583193487279,0.362790119209315,0.363893981611267,0.359664769230979,0.358998473907278,0.360353666159961,0.360126746042934,0.359189231455854,0.355007934478763,0.349647737770184,0.349315946204651,0.353157315038307,0.35482712163651,0.353899551755754,0.360144827327159,0.360955772924662,0.361361697755519,0.36094673228255,0.354382322044569,0.362009911794995,0.351615885558104,0.352671832556859,0.35288699983914,0.359302239482262,0.358590740947998,0.348603543606175,0.348853969392695,0.348970593675948,0.348766275164203,0.348505904671359,0.345876885945006,0.343713460287454,0.343776744782242,0.343410598776681,0.345923897283992,0.340367518641569,0.340414529980555,0.342850983029909,0.343077903146936,0.337011632289361,0.337167131333698,0.328111120129477,0.329039594074444,0.336123841233901,0.327640102675409,0.326736942528357,0.327335433036213,0.326829157077906,0.325378134018828,0.325394407174631,0.325388982789364,0.324755233777268,0.564399150513602,0.300395223604786,0.301494565685682,0.301759456499582,0.302386877062199,0.304881190221073,0.396159129247033,0.309858063704076,0.310358011212905,0.545744689578401,0.311122849535633,0.31321756631313,0.313652421198747,0.312584721365246,0.308633960762026,0.308685492422068,0.308847319915884,0.308835567081138,0.610218932868834,0.330290818942832,0.330535820344084,0.330606337352563,0.300465740613265,0.302140067532524,0.302177134165186,0.302960053772139,0.303158043834406,0.549202735186482,0.528351398217912,0.483308207020154,0.452325926500171,0.393411678109005,0.396849834304438,0.295064861015179,0.295987910574879,0.296092782023385,0.295770031099965,0.295876710676894,0.296276307058272,0.304315246024823,0.29344749014123,0.292505455233094,0.290229925613345,0.284245924598995,0.284322770056952,0.283357229479323,0.28631080725752,0.285799106913945,0.295740196980993,0.296392931341525,0.29547349803867,0.297296995552788,0.296071988546526,0.296684944081763,0.298786893372949,0.297986796545981,0.296881126015607,0.450044068430943,0.296316989947779,0.296112671436033,0.300077897066633
0.386114975859901,0.384931555807357,0.386401564214871,0.38358088387573,0.383287967071281,0.381449100465572,0.375266205324744,0.375053750235098,0.374220203032313,0.377850924904745,0.377063484976735,0.36868461786675,0.368271460522202,0.368593307381412,0.371869636083029,0.370904999569612,0.363727633796395,0.365032198453247,0.367111546139152,0.367444241768897,0.368062621689401,0.370384258583924,0.37278635719325,0.373470733801176,0.372458181884562,0.368492052189751,0.370952914972809,0.369501891913731,0.373339644490543,0.372546780177265,0.370594001480937,0.380072210671819,0.374721958669564,0.379774773546313,0.380664372730196,0.38015176832241,0.613959950575041,0.662456667059823,0.358239059969817,0.358338507033056,0.358164022640282,0.361731460017926,0.353817281912529,0.353019897278195,0.350248940470674,0.350081688591591,0.341578060620451,0.342898898433106,0.353752189289318,0.359992040475456,0.361372546526054,0.361421365993463,0.361579577230434,0.36183452333801,0.361819154246418,0.362137384848783,0.363393130038227,0.362627387651287,0.358891794330349,0.359379084940219,0.359443273499219,0.357856640808452,0.353788351857769,0.360606804139115,0.361470185460871,0.359191039584277,0.357417265601779,0.35653037861053,0.362248584746768,0.360341009261003,0.361545222790406,0.35975155939526,0.364300810506335,0.362804584236695,0.362967315794722,0.54089076882813,0.362396851277415,0.363872284070197,0.355717624884604,0.347410178847308,0.349267126737243,0.349069136674976,0.348806053989498,0.349005852180188,0.349581741082762,0.347489736497899,0.342889857790993,0.34882865559478,0.349054671647596,0.338104645920778,0.344216119988916,0.344711547176688,0.34413294608148,0.343462130436723,0.334623998707415,0.342247972200996,0.340007701085487,0.339935375948586,0.324467741358087,0.324493055156002,0.327057885323355,0.326849950554765,0.325277782891378,0.324736248428832,0.324170304232581,0.332315922776061,0.331817783395655,0.321773630008523,0.321013312006851,0.724630970996803,0.304114543769922,0.356269104053475,0.321085637143752,0.320469969415882,0.321371321434511,0.751891219159017,0.313335998724805,0.312091102305896,0.312229424130219,0.311884071601517,0.30647505542553,0.31135700216635,0.312214959102839,0.312500643393598,0.327836284609253,0.328123777028434,0.32802071370835,0.327688922142817,0.301637407831062,0.302231378017861,0.30294649280897,0.303026954523773,0.303242121806053,0.302329921016889,0.300809285013545,0.299434203348214,0.308361837434436,0.309679058990246,0.309653745192331,0.309062487198165,0.293596660736088,0.29515797962894,0.299459517146129,0.299651178758917,0.306635074790924,0.305427245004676,0.304763661873609,0.290766035690624,0.29660448236696,0.289504866115912,0.284373397652783,0.283565164247914,0.288762629398465,0.294513381846309,0.296665958733326,0.296419149203651,0.295766414843119,0.296813321199762,0.303342472933504,0.304957131614819,0.296778062695523,0.305842210477646,0.306475959489741,0.449033324642751,0.296280827379328,0.296461640221581,0.452673087157295
0.385678312845861,0.386448575553857,0.390046751114684,0.38470463569033,0.390295368772781,0.388794622182084,0.386926825521615,0.38607158077776,0.383985000578165,0.375917131556854,0.379154585497387,0.37756795280662,0.376635862604808,0.37217792197907,0.371294651244666,0.370783854965302,0.374222011160736,0.369354529447296,0.368002049387246,0.367414407649925,0.697672680281151,0.379159105818443,0.37887070933505,0.378094118177575,0.373835071678315,0.407360484824582,0.390807973180567,0.370213390447995,0.374181328271229,0.37816915550711,0.380376880311014,0.380611937005943,0.380260256027761,0.380807214875576,0.381529562180375,0.381575669455149,0.3811543755327,0.616025737297777,0.3568169669655,0.365218435680767,0.360067077804991,0.359870895871147,0.351754207382427,0.357857544872664,0.356740121507543,0.355377696741169,0.349806853071367,0.349880082272479,0.356685877654867,0.36149097893773,0.361222471866985,0.361491883001941,0.361108559776366,0.360040859942864,0.359367332105473,0.362442054487979,0.362515283689091,0.362508051175401,0.364642546778193,0.364448172972771,0.352720652024267,0.36592903015082,0.365059320379585,0.365250077928161,0.361961996391798,0.363811711768042,0.363164401792778,0.363313572387636,0.360344625517848,0.36179926483377,0.367156749349715,0.366473276806,0.362996245849483,0.364677805282432,0.364886644115234,0.364757362933023,0.695622262650007,0.363248479764425,0.368497476575018,0.368277788971681,0.346742075395185,0.358288783501436,0.348190386261628,0.361852604622235,0.355007934478763,0.506514631259065,0.353276651514194,0.350226338865393,0.349114339885539,0.346478992709707,0.3445198855639,0.344178149292043,0.34527839543715,0.34362486199475,0.345482713948896,0.343268660695512,0.341693780839492,0.338533172356917,0.33673860489756,0.336505356331054,0.337062259885192,0.339882036160121,0.324614199760311,0.324757041905691,0.333351076297957,0.332274335822343,0.331421803271122,0.330398402583972,0.552979011396928,0.735597269879424,0.315224588862134,0.354034257323232,0.402228112297241,0.320594730277036,0.319787400936378,0.316615039619056,0.314583607336348,0.312376786596655,0.31133530462528,0.310730485667945,0.412325605472838,0.311505268696997,0.311357906230562,0.42834652736063,0.349303289305693,0.326938548847468,0.327303790788819,0.326952109810637,0.452652293680436,0.301853479177553,0.30231636005372,0.30334699325456,0.302207872348369,0.301534344510978,0.299366398532369,0.298790509629794,0.310432144478228,0.310932996051268,0.310966446427085,0.31038332501082,0.307327587976751,0.3073556139673,0.30525095248348,0.300566091740715,0.30579519913866,0.30701206956702,0.3062318621527,0.297424468606576,0.297217437902197,0.287853140801934,0.292512687746784,0.292786619202797,0.292310177363461,0.294601980139013,0.296358576901497,0.295899312282175,0.302580346803409,0.303572105243164,0.303288229080828,0.30855078685459,0.305741859350196,0.307898052494058,0.306464206654995,0.309240587847784,0.310114817940075,0.312077541342727,0.577681661905478
0.390517768568752,0.39511222289039,0.394920561277602,0.395868020571006,0.389738465218643,0.387555150148443,0.388462830616551,0.387064243281727,0.386168315648365,0.384707347882964,0.383890977900194,0.382108163275583,0.384929747678935,0.383213833805958,0.380708671876548,0.381406609447643,0.381034134992603,0.380540515933253,0.374206642069144,0.379372464972301,0.378545246218995,0.380037856231791,0.380845185572449,0.37975126787682,0.378537109641094,0.615472450000484,0.609153041163755,0.381676020582599,0.38109651542318,0.379975475801213,0.378891502811909,0.380605608556464,0.380160808964522,0.380691494656534,0.381761002618458,0.381931870754387,0.381963513001781,0.617770581225514,0.533807425732884,0.700768196140516,0.536613641044644,0.536703143401559,0.355672421674041,0.356670508563275,0.357047503339372,0.356107276559659,0.35523485459579,0.356865786432908,0.355807127241519,0.361320110801801,0.361601274771504,0.360613132588593,0.360154772033483,0.359569842488796,0.357856640808452,0.36031750359151,0.362850691511469,0.36227118635205,0.365934454536088,0.367478596208925,0.365182273112317,0.366076392617256,0.367593412363755,0.366028477214059,0.366862024416843,0.366260821716354,0.364583782604461,0.363325325222382,0.373094643089291,0.36907878986286,0.372555820819378,0.374570979946283,0.373799813174076,0.374457067855664,0.372289121877055,0.37966538177675,0.376977598876665,0.369637501545421,0.370873357322217,0.369365378217831,0.368407070153892,0.359346538628614,0.360678225211804,0.363341598378185,0.361778471356911,0.506620406771782,0.355484376318098,0.352043507930031,0.353304677504743,0.352708899189521,0.343766800075918,0.349428954231059,0.34909354640868,0.346844234651058,0.345125608585447,0.342831093617261,0.34680264769734,0.34572229096488,0.336943827473516,0.336816354419728,0.339161496983744,0.340307850403626,0.339622569731489,0.331768963928247,0.333108787089339,0.332216475712822,0.333999290337433,0.334217169812347,0.336300133755097,0.566376338943634,0.74071246518675,0.605569330630309,0.319084038980015,0.321783574714847,0.321095581850076,0.318670881635468,0.315958689001679,0.309458467322698,0.310720540961621,0.408335066044323,0.438327396252974,0.433690450913406,0.428049994299336,0.349390079469974,0.349891835107225,0.349781539273451,0.349116148013962,0.397757514772546,0.422776587755039,0.542196237549194,0.301034397002149,0.301034397002149,0.299516473191439,0.299218132001722,0.299008389104709,0.298171225645079,0.311100247930352,0.311290101414717,0.311676136832926,0.311479954899082,0.309167358646671,0.308110507583705,0.2979641949407,0.305438997839423,0.306449741627615,0.307468621993708,0.308162943307958,0.307078066254442,0.296599962045904,0.295977965868555,0.293658137102454,0.293605701378201,0.29291047599974,0.297707440704701,0.303291845337673,0.303993399165613,0.304186868906823,0.303954524404529,0.304430966243864,0.305388370243592,0.306204740226362,0.306459686333938,0.306061898080983,0.311361522487407,0.312677839979006,0.459237497395276,0.599451528112692
0.397061385329873,0.396589463811594,0.396226934062878,0.39650809803258,0.395858979928894,0.392858390811712,0.389083922729688,0.387398747039894,0.386412412985406,0.386317486243224,0.3868373231647,0.386060732007225,0.387671774431696,0.385685545359551,0.382095506376625,0.381025998414701,0.381318011154939,0.381298121742291,0.381880339094345,0.381329763989685,0.381598271060431,0.38085332215035,0.379635547657779,0.380182506505593,0.380106565111847,0.380584815079605,0.380522434649028,0.381707662829994,0.380627306097534,0.380729465353407,0.380224093459311,0.378579600659023,0.379252224432203,0.3738097578804,0.374638784762128,0.375770673154629,0.617637683786459,0.427904439961323,0.428258833132138,0.622271916933393,0.441654352550422,0.440626431542216,0.633631483747913,0.365443547669372,0.355275537485297,0.356166040733391,0.645650113372443,0.35683866450657,0.356707575195937,0.368678289417271,0.360170141125075,0.359417959701304,0.355787237828871,0.354420292741442,0.363577559137325,0.362153658004586,0.370454775592403,0.370864316680105,0.371423028362665,0.371523379490115,0.367069959185434,0.366485933704958,0.368756943003651,0.368492956253962,0.3681268102484,0.373434571232726,0.371939249027297,0.374036677997427,0.374551090533635,0.374047526767962,0.376640382925864,0.377599595054014,0.377530886173958,0.378886078426642,0.380714096261815,0.380705055619703,0.380140919551875,0.522206473773957,0.371227750493033,0.370072356431038,0.37507725590459,0.368930523332213,0.671830004802198,0.670793043151879,0.37128289840992,0.370999926311794,0.51193720839822,0.351672841603413,0.3529801184529,0.358988529200954,0.355309891925325,0.35365997473977,0.35101920317867,0.350540953210912,0.349720966971297,0.351846421931976,0.351737934226624,0.35198564782051,0.336990838812502,0.337641765044611,0.339501425127179,0.339320612284927,0.47170183067596,0.333347460041112,0.333407128279055,0.335044388565653,0.334831029411795,0.334284974628192,0.346906615081635,0.34683881026579,0.3459085281924,0.343780361039087,0.321760069045354,0.32802794622204,0.616594393686661,0.315993947505918,0.314895509489234,0.320235816785164,0.399883873797437,0.435899079781521,0.416294447360283,0.426863862054159,0.346801743633128,0.345432086353065,0.350080784527379,0.350000322812577,0.349089930151835,0.349045631005483,0.413005461759708,0.449849694625521,0.302601140280268,0.302898577405773,0.302632782527662,0.302980847248998,0.304834178882088,0.309512711175374,0.311337112753703,0.311996175563713,0.311841580583587,0.312026009682685,0.311868702509925,0.306730001533106,0.305321469491958,0.304700377378821,0.307094339410245,0.307339340811497,0.307443308195793,0.307715431523383,0.30726972786723,0.293458338911765,0.294208712207113,0.294827092127617,0.294139099262846,0.293319113023231,0.302721380820366,0.304777222836778,0.305581839984802,0.307685597404411,0.30853632182721,0.30653201147084,0.307120557272372,0.309505478661684,0.313159706203609,0.314405506686729,0.316319410621973,0.316774154920238,0.315760698939412
0.399016876218835,0.398874938137667,0.3968227123781,0.397637274232448,0.396917639120282,0.396087708174343,0.390415609312879,0.39160445375069,0.388239526756369,0.385247074217088,0.384632310553429,0.387299299976655,0.388047865143581,0.388152736592088,0.382203994081977,0.380859650599829,0.382079233220823,0.381403897255009,0.382891082882537,0.382168735577738,0.38373819104849,0.381591038546741,0.38058119882276,0.383858431588588,0.382410120722145,0.382560195381214,0.38169771812367,0.380288282018311,0.383400975097689,0.380427507906845,0.378577792530601,0.375065503069844,0.375987648565332,0.375639583843996,0.374615279092635,0.375400910892223,0.543553237930299,0.430290265414846,0.429953049464045,0.430019950215678,0.440061391410176,0.602552468357324,0.633741779581687,0.551282986936598,0.555344947437803,0.369240617356676,0.368773216159453,0.701049360110219,0.700452677730785,0.370594905545148,0.369323791264113,0.370194405099559,0.367772417077585,0.368313047475921,0.369645638123322,0.372092939943211,0.370496362546121,0.375179415160463,0.368432383951807,0.378985525489881,0.377869006188971,0.376685586136427,0.368218120733738,0.374902771511817,0.374708397706395,0.373618096267612,0.373675052312921,0.373191377959896,0.374404632131411,0.37328720876629,0.376951381014539,0.376938724115581,0.377212655571594,0.381565724748825,0.38219224124723,0.381155279596912,0.381372255007615,0.397036975596169,0.382173255898794,0.372932815595475,0.377253338461101,0.376968558234553,0.377282268515861,0.375203824894167,0.374026733291103,0.371733122387129,0.370730515176838,0.372083899301099,0.373057576456629,0.509041490729545,0.355591055895027,0.356140726935475,0.355264688714761,0.353348072586884,0.355365943906423,0.355292714705311,0.352927682728646,0.3529159298939,0.352011865682637,0.351873543858314,0.349720966971297,0.349814989649268,0.343247867218653,0.330028640321565,0.330178714980635,0.333356500683225,0.340360286127879,0.346896670375311,0.347760051697067,0.348072857914164,0.347863115017151,0.347199531886084,0.343590507554722,0.343327424869244,0.429643859503793,0.618750586830524,0.786435512671377,0.5282139804578,0.399502358700283,0.383492285583027,0.400947053309882,0.404632923099201,0.405066873920607,0.405014438196354,0.348920870144329,0.35813418852131,0.357400088381765,0.35505584988196,0.534035249914122,0.459357737935374,0.412435901306612,0.431424865999981,0.309174591160361,0.30550861078369,0.305740051221773,0.311727668492968,0.311225912855717,0.311455545165378,0.311244898204154,0.310678954007903,0.311623701108673,0.302796418149901,0.302931123717379,0.297321405286492,0.297731850438405,0.305099973760199,0.306579022809825,0.306709208056247,0.310892313161761,0.311121041407211,0.293751255716214,0.293961902677439,0.294154468354438,0.298860122574062,0.299187393818539,0.30231636005372,0.303384963951433,0.306607952864586,0.308358221177591,0.312315310230289,0.312681456235851,0.314671301564841,0.315184810036838,0.315389128548583,0.316634024967493,0.316781387433928,0.316502935656859
0.398111907943361,0.401763423292652,0.400287990499871,0.400180406858731,0.398245709446628,0.397592975086096,0.396670829590608,0.394614083509984,0.394810265443828,0.389205067333998,0.387602161487428,0.387843546631836,0.387302012169289,0.387986388777215,0.379997173342284,0.380451013576338,0.380597471978562,0.380619169519633,0.383454314886154,0.383635127728406,0.384570834187063,0.382121724238752,0.382074712899766,0.385464049627791,0.385162092181229,0.381475318327699,0.381384007842361,0.380347950256254,0.380887676590378,0.38250685559275,0.381381295649728,0.372845121366982,0.377356401781185,0.374391975232453,0.374102674684849,0.375818588557826,0.43007148187572,0.429512770193159,0.430362590551747,0.693275311957568,0.439977313438529,0.661177416200886,0.583179276374169,0.560498113442002,0.561812622805179,0.489505567188362,0.4811366447847,0.483937435711193,0.378123048232336,0.368497476575018,0.369800233103448,0.370669038810472,0.378328270808292,0.377041787435665,0.599022097612342,0.37063197217781,0.380183410569804,0.381105556065292,0.379985420507537,0.379854331196904,0.382290784246258,0.381718511600529,0.380378688439437,0.375834861713629,0.375654048871376,0.381084762588433,0.372363255142379,0.372744770239532,0.372727593019518,0.375114322537252,0.374584540909452,0.376867303042891,0.377290405093762,0.380849705893505,0.380865979049308,0.380945536699899,0.382233828200949,0.524746894207606,0.381306258320193,0.375624214752405,0.376166653279162,0.377963932931153,0.378520836485291,0.377408837505438,0.370493650353487,0.37047466500505,0.374966960070816,0.372130910640084,0.373613575946556,0.373964352860526,0.355060370203016,0.355280057806353,0.354468208144639,0.355355999200099,0.356357702346178,0.356371263309347,0.355174282293635,0.351919651133088,0.351867215408835,0.351199111956712,0.350438793955039,0.603932974407923,0.605171542377353,0.330057570376326,0.329772790149778,0.328144570505293,0.611428570783504,0.346449158590736,0.34698888492486,0.347519570616871,0.34746894302104,0.347135343327084,0.344358058070084,0.343043548706908,0.596261085511145,0.338119110948158,0.337919312757469,0.594177217504183,0.394416093447718,0.440739439568624,0.403478433101418,0.405159992534367,0.405318203771338,0.405139199057508,0.503650555837783,0.356646098829571,0.356040375808025,0.406031510434025,0.533443087855745,0.462075354954431,0.551719649950638,0.466533295580169,0.430845360840561,0.355747459003576,0.30419862174157,0.310046109060019,0.31096283017024,0.310694323099495,0.309302968278361,0.311281964836815,0.293750351652003,0.296663246540692,0.296114479564456,0.296455311772102,0.296596345789059,0.307224524656667,0.307975802016227,0.311324455854745,0.31006147815161,0.311656247420278,0.295636229596698,0.29976780304217,0.302011690414524,0.301237811449683,0.302325400695833,0.29814319965453,0.309964743281005,0.313197676900482,0.313401995412227,0.315430715502301,0.316855520699252,0.31625250987034,0.316011124725932,0.314740010444897,0.314530267547883,0.326133931699444,0.32487095399631
0.402642173706,0.401051924758388,0.400805115228713,0.399756400743648,0.397042399981437,0.397143655173098,0.396656364563228,0.39612115855016,0.394650246078435,0.393362858641596,0.388131943115228,0.387004575043784,0.386821954073108,0.38919964294873,0.384248987327854,0.384030203788728,0.384007602183447,0.385152147474906,0.383969631486574,0.383808708056969,0.384634118681852,0.383567322912561,0.382642465224439,0.384296902731051,0.384367419739529,0.383488669326182,0.380794557976618,0.381219468155911,0.382502335271694,0.381631721436247,0.387071475795417,0.386359073196942,0.386271378968449,0.374013172327934,0.379911287242214,0.381696814059458,0.439829950972093,0.429958473849312,0.649557478893522,0.57474797353993,0.694016644610804,0.750639994290629,0.392694755189473,0.391910027454097,0.480955831942448,0.649371241666002,0.649039450100468,0.384261644226812,0.384314984015276,0.383548337564125,0.383264461401788,0.378839067087656,0.376166653279162,0.38622165543683,0.602834536391238,0.474395037961312,0.38106848943263,0.385117793034878,0.383353963758703,0.38166969213312,0.384155868714094,0.383860239717011,0.383334074346056,0.381707662829994,0.384651295901866,0.384698307240852,0.371270241510962,0.371624634681777,0.373739240871921,0.373780827825639,0.374448027213551,0.376112409426487,0.375106185959351,0.38649377876442,0.382018660918668,0.382065672257654,0.389605567779587,0.389365086699391,0.386155658749407,0.386713466367757,0.375457866937532,0.37670185929223,0.380359703091,0.380124646396072,0.378536205576883,0.380658948344928,0.375032956758239,0.373077465869277,0.375646816357686,0.377115920700989,0.353855252609402,0.354323557870837,0.361611219477828,0.356010541689053,0.355002510093495,0.354291011559231,0.347692246881222,0.348594502964063,0.348403745415486,0.357068296816231,0.552498953300747,0.611909532943896,0.590028466838697,0.326949397618004,0.328272947623293,0.453753443889755,0.337621875631964,0.345743988505951,0.345556847214219,0.345696977166965,0.346419324471764,0.374250941215496,0.373995091043709,0.374172287629116,0.335806514695747,0.335792953732578,0.335980999088521,0.397383232189083,0.517709658387135,0.386928633650037,0.386630292460321,0.404901430169946,0.40444578180747,0.404603993044441,0.427241760894467,0.381146238954799,0.422582213949617,0.418670328107482,0.408882024892137,0.466224105619917,0.390985169765975,0.428303132278489,0.487332196824486,0.456919476757598,0.490130275558345,0.309034461207616,0.311176189324098,0.310628326412072,0.310607532935213,0.309332802397332,0.305872948660829,0.294387716920943,0.295949035813795,0.295850492814767,0.295295397389051,0.304817905726285,0.306777916936303,0.306552804947699,0.31182892368463,0.311620084851828,0.311375987514787,0.302192503256777,0.301697980133216,0.302064126138778,0.301851671049131,0.30213735533989,0.31783462224005,0.316979377496195,0.314193955661294,0.314762612050178,0.316756073636013,0.31655356325269,0.314138807744407,0.314182202826547,0.325551714347391,0.331196691282517,0.32966701463706
