0.375077431749641,0.366839098734439,0.367843509364949,0.36713239024829,0.366975366483951,0.368566360142162,0.372400808272471,0.370724083248674,0.370035525017695,0.373133585839383,0.368919212394209,0.369985891069198,0.369800891806615,0.372803294473016,0.373296926651712,0.366048565300184,0.371998322071925,0.373875387760568,0.374690286951359,0.381545186456614,0.380914384092979,0.380179801655212,0.367015073642749,0.366957317775407,0.36614422345547,0.363595745808967,0.35911154417105,0.333660157816822,0.334839640920215,0.664350400642623,0.343922653495306,0.34394431194556,0.343424509139474,0.342896584414543,0.714579956522365,0.713916666483349,0.363948598061015,0.364688595111345,0.365099203230736,0.87983212708626,0.361101414288097,0.357982597451583,0.358367034943584,0.363890842193672,0.363456770753173,0.34225856256749,0.355093901649013,0.354417977514016,0.358236181806635,0.358931057085604,0.357726305790249,0.364375450018095,0.36470664381989,0.363976573559259,0.36308947953429,0.359865980188216,0.352879325110585,0.358047572802344,0.356683992871796,0.357789476270155,0.553985255198414,0.343007583972093,0.351954328797672,0.352035547986123,0.343666361833972,0.458558123381178,0.458185417549731,0.342920950171078,0.341117884187469,0.343714190911616,0.342607805077829,0.34157722381993,0.515188653746277,0.339415890971709,0.339091014217905,0.331784896999034,0.331750604452799,0.327533523701343,0.325004899634239,0.324027562066546,0.329957465258889,0.329870831457874,0.328365569165251,0.327925180676762,0.327108476615117,0.326595893292449,0.303003523918319,0.30291508524645,0.305885000237471,0.305473489682653,0.302262624432561,0.301216701772399,0.313789432144598,1.0221073892374,0.301279872252306,0.314554697386891,0.314390454139134,0.564483286523406,0.311370905199616,0.312378023136407,0.311921390810227,0.311715635532818,0.333301890952211,0.33248067471343,0.332965282537853,0.302712037275323,0.305490635955771,0.305009637873056,0.306382242157876,0.306245974408364,0.306636728948356,0.517990715747833,0.517710960765391,0.432889250088987,0.296024088324106,0.297237863973733,0.298584297631163,0.297192742202371,0.301359286569902,0.292715760047873,0.293315879606982,0.297184620283526,0.293951194147753,0.282028217283162,0.282623824665136,0.282036339202007,0.286346370802468,0.289937161367425,0.28993535649657,0.290199770076749,0.290473208011201,0.30009497453635,0.299645561693588,0.300620191954999,0.301486529965142,0.282053485475125,0.283093091087296,0.664587741159986,0.583922648061413,0.585419788435191,0.529798180877738,0.585304276700506,0.588594556268194,0.260850765112306,0.26188946828905,0.263711485416632,0.263651022243007,0.262074467551632,0.263274706669851,0.246767357834921,0.247011015400273,0.247427038132227,0.629906245256027,0.231097469076462,0.232633414173611,0.219071614573166,0.218156545049953,0.229442402502918,0.229968522356994,0.212769907984804,0.232025172695657,0.231040615644546,0.228292699768624,0.22727024042957,0.221094874801021,0.220745632290682,0.220305243802193
0.374359995584992,0.373455755286905,0.371254715279886,0.366955512904552,0.368213507890114,0.37239449122448,0.372067809599822,0.372194150559635,0.37090457033412,0.376384158248274,0.368476116599438,0.369003138888942,0.369980476456634,0.373707534771103,0.374253508204579,0.376258719723888,0.375969940387174,0.374157850049292,0.373827558682925,0.3808421892588,0.380411727560011,0.379533657889314,0.37975655943984,0.364785155702059,0.36430866979648,0.362455067428945,0.361865777094963,0.360948000265468,0.575519169363027,0.354438733528842,0.343516557553052,0.343925360801588,0.34240204980042,0.344041774971701,0.623298613057833,0.364289718652508,0.365313982862417,0.365848224635338,0.365770615188596,0.365584713490587,0.367235267886994,0.367134195119144,0.362798895326721,0.363168893851886,0.363957622415287,0.360069028159344,0.358534887933049,0.353003861199543,0.363850232599446,0.358210011179245,0.358086377525715,0.363620111565502,0.364843814004829,0.364139011936161,0.364120060792189,0.358738838339604,0.365138910389534,0.355880825341559,0.35625894578557,0.362705042042289,0.361911801301752,0.3606375624785,0.352247620311523,0.352576106807035,0.351633061785578,0.35118545381367,0.348740756241299,0.346965665755933,0.346925958597135,0.348866194765684,0.343711483605334,0.344614821467993,0.346549643023979,0.346409765532758,0.339720914146113,0.342133124043105,0.332704478699383,0.339606304846855,0.330929388214018,0.330199317953387,0.330442073083312,0.329557686364625,0.328891689019328,0.328603812118041,0.328355642375552,0.566180767562029,0.303594619123156,0.304460054697872,0.304999711083357,0.305539367468841,0.308792647184013,0.313777700484044,0.314291186242139,0.311928610293645,0.313607140188297,0.315967008830509,0.317109492081385,0.315659278349823,0.311858220330321,0.311443100033794,0.311615465200395,0.311626294425522,0.333681816267076,0.333202623055216,0.333165623202699,0.448673748146704,0.305456343409536,0.306001414407584,0.306096170127444,0.30674953337676,0.530335129956941,0.514364730201214,0.454732699605141,0.395425545762872,0.421167516324669,0.298130372611265,0.298697102059567,0.29872868729952,0.29852654176382,0.298981369219145,0.307002215296385,0.297418351059179,0.293398903666287,0.292980173628052,0.287108026303052,0.287081855675662,0.286164981281595,0.288813629260521,0.28917911560855,0.299457855124724,0.299444318593315,0.300160852322538,0.299222319478216,0.299946975126284,0.301630919633499,0.300908971291713,0.451970344762384,0.299635634903889,0.299155539256601,0.352182644960762,0.276830189222305,0.560360059056382,0.56093130068182,0.262938098255494,0.263645607630444,0.264014703720181,0.265062431251198,0.266089402767388,0.264665359663216,0.26383602150559,0.246916259680414,0.629973927913069,0.580647709895988,0.232783218454532,0.232925803252034,0.23337702096565,0.230226618889183,0.229712230695661,0.228734893127968,0.235767572412388,0.23387606775691,0.233123436610598,0.23175985668005,0.229212281468974,0.220633730297705,0.221452239230205,0.214648778544302
0.372273564877231,0.372352979194828,0.376140500682921,0.375468186289633,0.374286898315386,0.368819944497214,0.369882110995066,0.371247495796468,0.371747445023155,0.375126163262712,0.379347756191304,0.377316374044604,0.448514017076084,0.373783339346991,0.373524340379375,0.376498767547532,0.376320987768367,0.373821241634934,0.383625300116384,0.383203862771867,0.384524125801908,0.383911372146817,0.383700202256845,0.664603082562248,0.363543404554187,0.362086873774635,0.361539997905732,0.363978378430113,0.357434819147253,0.355555046152328,0.354470318768795,0.345498305751253,0.346469326270955,0.357613501361845,0.363651696805455,0.365186739467177,0.365141617695816,0.365378958213178,0.366044955558475,0.366319295928353,0.366312978880363,0.367114341539745,0.361986703442212,0.363574989794141,0.363248308169483,0.365073935038773,0.357951914647057,0.364484644704791,0.364164280128123,0.361338754805459,0.360519343437533,0.364880813857345,0.363921524998198,0.364888935776191,0.366797586704787,0.366986195709078,0.366749757627143,0.542319472430584,0.365896956148409,0.369078943464829,0.358477132065706,0.350617821929941,0.352990324668135,0.351928158170283,0.352100523336884,0.350986918019679,0.350032141337668,0.34580603623194,0.352081572192912,0.352714179427402,0.34755676096077,0.348430318454331,0.348161392697016,0.347337469151953,0.337984628384119,0.344918039771543,0.345856572615865,0.343400143382939,0.339859889201907,0.327769961783278,0.330513365482064,0.329279736253037,0.329420516179686,0.327408085176958,0.335637393837888,0.335187980995126,0.533803189303794,0.567762736865967,0.551160632311177,0.549766369576104,0.32420895158742,0.323811879999438,0.323811879999438,0.31729358890854,0.317286369425122,0.31522971908646,0.315469766910104,0.315006817535934,0.309775399364269,0.314427453991651,0.315672814881231,0.315640327205851,0.331009704967041,0.331268703934657,0.330841851977576,0.305135076397441,0.305739708133687,0.306273949906608,0.306847898838328,0.306359681272195,0.304886004219525,0.303207474324874,0.310672420178938,0.312721851034182,0.312791338562079,0.311853708153185,0.296932840799328,0.298685370399013,0.303044133512545,0.30264796435999,0.308589599212886,0.307856821645974,0.293111929200428,0.299688878594095,0.292639053036558,0.28723256239201,0.286455565489163,0.298517517409548,0.298830662502798,0.299567049811419,0.299243075493043,0.300048047894134,0.306940849687333,0.307904650723617,0.300305241990895,0.309194230949132,0.311106491619437,0.299600439922227,0.299281880216414,0.455516013555979,0.822732330299001,0.58350301558775,0.582480556248696,0.54388249059055,0.264907212357714,0.263703363497786,0.266321328672187,0.266459401292553,0.267188569117757,0.268331052368633,0.589038554498392,0.259004382228189,0.258665968942977,0.232830145096748,0.233293094470918,0.233081022145518,0.231172371216922,0.228999306708147,0.231120029962143,0.23969587382713,0.236175473225497,0.234691869383127,0.230719348632452,0.229837669220046,0.220838583139687,0.214056780904037,0.214656900463147
0.380242972135118,0.376386865554555,0.376208183339963,0.375288601639614,0.375605356474572,0.376909375666923,0.371937858898301,0.371637347901033,0.699781820386612,0.382995400188176,0.384555711041861,0.377747738178821,0.378236858180381,0.608725183343461,0.373855534181169,0.378555417886194,0.383513398123408,0.384393272664959,0.385049343220557,0.384685661743382,0.385672023665347,0.385731584403544,0.615964520340718,0.618662802268142,0.59179098255145,0.361651899898709,0.364044256216301,0.363494673041117,0.362715871267416,0.360437221813654,0.360560855467185,0.358182035681001,0.357382477892474,0.363528063151924,0.365125373858125,0.365321202345835,0.365356397327497,0.364009061234639,0.363463990236591,0.36726595069152,0.366983488402796,0.366100906554963,0.370502084133574,0.366895952166355,0.358099011621696,0.369390283687225,0.370470498893621,0.367619705378995,0.358765008966993,0.368097996155428,0.367454559695812,0.364903374743026,0.365734517771507,0.371158154689172,0.376690083858105,0.367184731503069,0.370216012103142,0.368774822725852,0.698115022152514,0.367385072167915,0.37266522185265,0.372822245616988,0.351790085549916,0.352495790054011,0.364242792010292,0.420711786433917,0.509347189225803,0.357409550955291,0.357078357153496,0.352435326880387,0.349432924213986,0.348165002438725,0.348540415576453,0.348147856165607,0.348705561259637,0.347936686275635,0.347840125684921,0.340766836806275,0.340769544112557,0.340648617765308,0.345459501027882,0.343910921834752,0.328387227615505,0.336404463951035,0.336271805943232,0.335724930074329,0.3339543517661,0.555022153504304,0.736759112017449,0.3185912910529,0.404983239372687,0.32415029328465,0.32374600221325,0.322642323685745,0.318526315702139,0.315562717759109,0.314175674507453,0.313924797458683,0.314668404250722,0.314383234655716,0.314927403218337,0.352561667840199,0.329617247102822,0.330738071903445,0.330241732418467,0.455966328834167,0.305444611748982,0.307288287326817,0.306592509612421,0.305271344146953,0.303358181041221,0.30264796435999,0.313663091184785,0.314037601887086,0.313908553620992,0.313680237457903,0.310879980327201,0.310882687633483,0.307820724228884,0.308683452497318,0.310137275970589,0.309779009105978,0.308428965706839,0.300684264870332,0.291308863216818,0.295821942788406,0.295960015408772,0.29663232980206,0.299149222208611,0.299255709589024,0.305814610274147,0.307327092050188,0.311707513613973,0.309303425635827,0.310802370880459,0.311077613685765,0.311561319074762,0.31299980114577,0.313581871996334,0.45923585238703,0.30877098873376,0.583175431527665,0.310593908296769,0.548530935476223,0.549301615331079,0.264287239219206,0.266194987712374,0.266471132953107,0.273419885742795,0.272319816956999,0.2595647946285,0.259648721123232,0.259609916399861,0.231453028634791,0.232218293877084,0.232655975059292,0.228067090911816,0.228387455488484,0.230169765457267,0.238704097292602,0.239012730208715,0.238219489468178,0.235008624218086,0.232763364875132,0.230508178742479,0.212466689681254,0.213542392710515
0.387194432231088,0.389516398585356,0.386061875769911,0.385622389716849,0.385675633407056,0.385433780712558,0.378106005043433,0.384110810376235,0.383922201371944,0.384995197094923,0.384440199307175,0.383792250670422,0.573510348102009,0.492015014410383,0.3859156812307,0.385337220121844,0.383578373474168,0.383220106609557,0.384700100710218,0.384257004915447,0.385574560639206,0.385640438425394,0.386245972597066,0.620683355189715,0.638968501816292,0.70260915058013,0.367645876006385,0.540370211907763,0.368453555713758,0.360948000265468,0.36060507480312,0.359856955833944,0.361080658273271,0.359056495609989,0.365443933563938,0.364963837916651,0.364470205737955,0.362492067281462,0.361914508608033,0.364365523228396,0.366868879103538,0.366726294306035,0.371126569449219,0.37151100694122,0.370131183172982,0.370191646346607,0.370506596310711,0.370870277787885,0.370208792619724,0.373740924881911,0.367263243385238,0.376858839282998,0.373740924881911,0.377254106000125,0.377654787329816,0.377508592790605,0.379116732721933,0.384057566686029,0.380375630142921,0.375898647988423,0.374642457873716,0.373214805027834,0.363936866400461,0.365525152752389,0.364328523375879,0.367284901835492,0.509649505093926,0.358910301070778,0.357414965567854,0.35795732925962,0.356665041727824,0.355405241871408,0.351926353299428,0.354534391684129,0.348633366425458,0.346902495276027,0.350338066947499,0.339425817761408,0.340559276658012,0.340234399904208,0.345166209514032,0.34370606899277,0.329621759279958,0.336849364616661,0.336909827790285,0.338425016872608,0.337686824693132,0.338959258645529,0.73932473593707,0.402045812057047,0.358278596271715,0.323785709372048,0.325097850483244,0.321583766929602,0.319333092974085,0.312840070075149,0.31446355140874,0.410990752011772,0.437323817778406,0.430783868237254,0.351030234920187,0.352809837582688,0.353296250277966,0.352336058983391,0.423368556331688,0.425836717225168,0.524778835031473,0.303876178976453,0.303943861633495,0.302576671961238,0.302330307089604,0.301629114762645,0.313996992292861,0.314527624324074,0.314929208089192,0.314818208531642,0.311822122913232,0.310944955677962,0.301866455280007,0.309033597443084,0.31048922578721,0.310946760548816,0.310520811027163,0.299861243760697,0.298050958293669,0.298314469438421,0.296798377920671,0.296763182939009,0.305706318022879,0.307450725703719,0.30748953042709,0.307618578693184,0.307923601867589,0.310174275823106,0.310024471542185,0.314716233328365,0.314635014139914,0.314533941372064,0.460902650621127,0.600964238669265,0.688456255774848,0.536069204661574,0.589049383723519,0.319057850168779,0.479879965220392,0.551379924119995,0.264853968667507,0.273931566630036,0.273231276738503,0.27154011274787,0.268394222848539,0.258468335584413,0.25783031373736,0.239900726669111,0.249214762713574,0.225710832011313,0.579170423101609,0.247233014515373,0.239748215081909,0.24004150659576,0.239823117222369,0.239322265560256,0.23139166302574,0.231418736088556,0.230567739480677,0.233167655946532,0.513761903335823
0.391318562133538,0.390726564493274,0.387170066474552,0.384752441964997,0.384819222186612,0.385096269862773,0.385680145584192,0.385513195030154,0.385775803739479,0.384618881521767,0.383762470301324,0.383413227790985,0.384872465876819,0.384706417758208,0.385922900714117,0.385298415398473,0.384644149713729,0.383318472071125,0.382466573027818,0.382587499375067,0.377493251388342,0.379468682538553,0.432919030458086,0.4319949365806,0.796775580105523,0.62426151165869,0.444764397875935,0.443427891008204,0.635465247487777,0.359000544613501,0.359532981515568,0.371695103768375,0.360449855909636,0.703591000324959,0.373231048865524,0.363843013116029,0.361016585357937,0.35886698417027,0.364994520721177,0.365959224192888,0.374463775659124,0.373087561632595,0.374939359129275,0.375195650790609,0.373397096984135,0.372355686501109,0.371994712330217,0.371871078676686,0.371594933435953,0.376162159133175,0.377700811536605,0.378425467184673,0.377625006960718,0.380359386305231,0.38236820756625,0.382647962548692,0.383920396501089,0.384627905876039,0.382999912365312,0.54710057532406,0.374647872486279,0.379713242539333,0.383609958714121,0.67559655093679,0.672854952108859,0.375350869684093,0.374451141563142,0.514485656548463,0.372150833659128,0.355842923053616,0.361111341077797,0.358263254869452,0.355294242313858,0.355157974564346,0.353791687327517,0.354442343270551,0.349798410562015,0.355233779140234,0.355033438475388,0.341826295997846,0.342099733932297,0.340969884777403,0.336584951036482,0.336923364321694,0.337917848162503,0.337861897166015,0.337138143953375,0.349633264878831,0.349710874325573,0.348762414691552,0.346079474166391,0.32514477712546,0.617939049055501,0.318712217400149,0.31835665784182,0.322645933427454,0.403037588591575,0.445988100315262,0.402014226817094,0.470980147037029,0.348767829304116,0.351823475660724,0.35281254488897,0.352059913742658,0.407275425357857,0.415006589662955,0.451716760407331,0.305644952413828,0.305833561418119,0.307045532196892,0.30717006828585,0.309034499878512,0.313821919819978,0.314774891631135,0.314534843807491,0.315030280857042,0.313397775169179,0.308368502533214,0.307041020019756,0.308913573531262,0.309643643791893,0.310344836118853,0.309932423128607,0.310544274348271,0.296507793713102,0.297406619398625,0.297438204638578,0.296792963308107,0.304966320972549,0.307310848212498,0.308175381351786,0.310637225197276,0.311303222542573,0.309647253533602,0.310609249699032,0.312722753469609,0.316913663593675,0.317581465809827,0.320075797330697,0.318779900057191,0.00427719197526374,0.320534234527731,0.320562210025975,0.320786014011928,0.321448401615517,0.322407690474665,0.322032277336936,0.327060647537474,0.489459317280461,0.280928148497366,0.495954145050251,0.499160498123207,0.470491027035469,0.431581621154928,0.580003371000944,0.579568397125018,0.249021641532147,0.248757227951968,0.241202940990607,0.240918673831029,0.240026165193497,0.240481895084249,0.239492825856002,0.239303314416284,0.23915441257079,0.231749027454923,0.224974444702692
0.391727365382075,0.391925901176066,0.383599129488995,0.384975343515524,0.38541663443944,0.385312854365308,0.386279362707874,0.386852409204166,0.385928315326681,0.385117025877599,0.38543287827713,0.385874169201047,0.386298313851846,0.385702706469873,0.384100883586536,0.386461654664175,0.383673129194028,0.382334817455442,0.378388467332156,0.379634730657164,0.379780925196375,0.378550003273631,0.545743312441503,0.433810636660191,0.432735836066358,0.442023701483431,0.444045156840431,0.604231957351272,0.635735978115947,0.55590383291671,0.373146219935365,0.371904468787493,0.70209746969289,0.701440496701865,0.373780632040709,0.3731805124816,0.373693998239695,0.379835973757437,0.372138199563146,0.37504855381597,0.373325804585384,0.381880892435545,0.377033911755881,0.382813108231875,0.380886408594735,0.374318483555339,0.379500267778506,0.379225927408628,0.376956302309139,0.376470792049288,0.377211691535045,0.376319182897513,0.377690884746906,0.380090460547916,0.38048031265248,0.38056514158264,0.385864242411347,0.385507780417591,0.384380638568978,0.536211789459077,0.38552763399699,0.377255008435553,0.380599434128875,0.380275459810499,0.379734900989587,0.377661104377807,0.37537794274691,0.374770603704383,0.374739018464429,0.376222622306799,0.511552741409959,0.359896662992742,0.359126885573313,0.356476432723533,0.358293937673978,0.35859986328381,0.35625894578557,0.355969264013428,0.355176925708318,0.354766317588928,0.352569789759045,0.352898276254557,0.331938311021663,0.333011306744642,0.335531808892902,0.337193192514436,0.349740654694672,0.350573602594007,0.35100947890536,0.350632260896777,0.34940224140946,0.346642593872984,0.432140228684384,0.523917911633893,0.602828670261927,0.529575279327212,0.401553984749205,0.38593824211638,0.40473777693648,0.407630082480759,0.40744418078275,0.351248624293577,0.36058522122372,0.360015784469137,0.35823798667749,0.535945571008043,0.461714842505636,0.409060442632922,0.317095053114549,0.307971430945232,0.308849500615929,0.30909676792299,0.313885992735311,0.313867944026767,0.313749724985799,0.313393262992043,0.374467385400833,0.305553806435677,0.299787244055664,0.300391875791909,0.300033608927298,0.309261011170747,0.309304328071254,0.313637822992823,0.314047528676786,0.29670091489453,0.296849816740023,0.297200864121216,0.302049649671735,0.302886207312779,0.306154828430214,0.309738399511753,0.311388051472733,0.315675522187513,0.31599588676418,0.317803464924926,0.318748314817238,0.318964899319774,0.319993675706819,0.320885281908924,0.319602921166827,0.320110089876932,0.320212967515636,0.321121719990859,0.323240638374,0.322621567670919,0.322879664203107,0.364264450460546,0.489668682299579,0.283252822157916,0.283357504667475,0.32358627114263,0.408129129272019,0.267431324247682,0.578057720219831,0.51372039130617,0.25110716980448,0.250857195191137,0.250117198140807,0.239404387184134,0.242201034573126,0.241151502171255,0.24132928195042,0.239819507480661,0.239528923273092,0.239333094785382,0.231729173875524
0.391517097927529,0.391627195049652,0.390212176299752,0.383745324028206,0.384460955322001,0.384938343663007,0.388535451275954,0.388960498362181,0.388713231055119,0.386298313851846,0.385750535547516,0.389686958881103,0.388020160647005,0.385588097170614,0.384696490968509,0.384814710009476,0.385860632669638,0.38497985569266,0.377688177440624,0.379425365638046,0.378170980394193,0.37867724666887,0.433249321824453,0.433058907949307,0.434540706920822,0.45778473622004,0.567836736571,0.6638558660285,0.389525422939628,0.563107974932304,0.56942141318122,0.569617241668929,0.486018330996425,0.382050550295864,0.372456759268959,0.374050460233451,0.374740823335284,0.381441406382483,0.651406769309833,0.601370334611519,0.383544983363361,0.384098176280254,0.383614470891258,0.383443008160083,0.385898534957582,0.385466268387938,0.382317671182325,0.379517414051624,0.385625097023131,0.375966330645465,0.376180207841719,0.376319182897513,0.378779221872148,0.378261223936916,0.380886408594735,0.382623596792157,0.384701003145645,0.384020566833512,0.385483414661055,0.527020484632718,0.38922491194236,0.379140196043041,0.381576771696567,0.381077724905308,0.382546889780842,0.374165971968137,0.373634437501497,0.37906529390258,0.375550307913511,0.376787546884246,0.377687275005197,0.358238889112917,0.358490668597115,0.357640574424662,0.359532079080141,0.359830785206554,0.35844644926118,0.354906195080149,0.354737439655256,0.355044267700515,0.00396028372628263,0.607339042527233,0.332680112942848,0.333283842243666,0.33165584873294,0.613364603874862,0.349362534250662,0.350085385027875,0.35083350399705,0.350442749457058,0.35057901720657,0.346518960219453,0.345102136598699,0.340344497026331,0.390530736005565,0.399248262232627,0.396963295730875,0.443379159495134,0.406654549783921,0.40788095952953,0.407764545359417,0.407345815321181,0.359508615759033,0.359171104909248,0.416802436163147,0.534845502222247,0.464180296092834,0.469220397953926,0.535489841117291,0.317601319389226,0.306788338100131,0.312273340626848,0.313694676424738,0.313232629485995,0.31205404881803,0.313554798933517,0.297198156814935,0.299167270917155,0.299291807006113,0.299520123169203,0.299903658225777,0.31063903006813,0.314045723805932,0.314149503880063,0.314577258272571,0.29931256302094,0.303852715655344,0.304769590049412,0.304803882595647,0.302666013068534,0.313907651185565,0.32005504131587,0.317125735919075,0.319531628768076,0.320114602054068,0.321351841024803,0.318980240722037,0.317934318061875,0.329906928874964,0.328647129018548,0.319814091056799,0.319529823897221,0.320303211058359,0.318656266403661,0.321829229365809,0.321638815490663,0.321523303755977,0.492324549761923,0.489832925547335,0.336788901443036,0.321510669659996,0.403041198333284,0.46156684309557,0.380820530808547,0.452632732365972,0.45192251568474,0.250338294820478,0.250386123898122,0.247380111490011,0.244443586609798,0.245110486390523,0.242342716935202,0.242040401067079,0.238821413898142,0.238233928435014,0.238679731536066,0.231203054021448
0.391175977336036,0.395131351813594,0.394770377642701,0.388611255851842,0.388597719320433,0.389353057773027,0.38856613408048,0.388545378065654,0.38870962131341,0.38753916256429,0.387364090091407,0.388924400945092,0.386980555034833,0.38612414381439,0.384333711926762,0.38705996935243,0.387739503229136,0.391527927152656,0.390487419105058,0.378831563126927,0.383050448749237,0.386576263963433,0.552179481908523,0.434113854963741,0.653463419648495,0.43975136907766,0.664576911934859,0.398314241565442,0.395616862073445,0.396154713588075,0.483387731726043,0.57032114130217,0.381238358411355,0.388584182789025,0.387507577324337,0.388110404189728,0.382271646975536,0.379752047262704,0.492454500463445,0.477794436948059,0.384405004325513,0.389595812902952,0.386763970532298,0.38563502381283,0.386882189573265,0.386962506326289,0.386476996066438,0.388414524928705,0.388759255261908,0.37523445551398,0.375566551751201,0.377371422605666,0.377727884599422,0.378485930358297,0.37958058453153,0.380641848593955,0.387109603300928,0.386168363150324,0.393717235499121,0.393580065314182,0.389614764046924,0.390676930544776,0.379836876192864,0.457332616070997,0.384009737608385,0.383028790298984,0.383258911332928,0.383140692291961,0.379325195305623,0.37915012283274,0.380568751324349,0.358348083799612,0.364441327804283,0.363437819609201,0.358331839961922,0.358629643652908,0.357702842469141,0.351838817062986,0.352031035808987,0.362809724551848,0.364148036290433,0.613741821883445,0.330004391901105,0.330893290796928,0.545761361150047,0.454939357317977,0.348432123325185,0.348315709155072,0.348966365098107,0.349351705025535,0.376853424670434,0.37669820577695,0.338484577610805,0.338633479456299,0.338653333035698,0.399768065038713,0.486405475794708,0.389551593567018,0.389085936886566,0.407036279969641,0.407051621371904,0.430411162405808,0.421431027469421,0.388708718877983,0.416541632324677,0.426750884312954,0.468610351605117,0.431018501448335,0.430673771115132,0.458439001904783,0.492467134559426,0.398172559203366,0.313896821960438,0.313497945501602,0.31359631096317,0.311492733982292,0.296842597256605,0.296702719765384,0.298941662060347,0.298775613941736,0.30810589382389,0.309725765415771,0.309443303127048,0.315109695174638,0.314872354657276,0.313978943584316,0.305051149902709,0.304912174846915,0.305046637725573,0.305001515954211,0.320543258882003,0.32029328426866,0.318948655482084,0.318541657104402,0.32035194257143,0.319772579027147,0.317035492376352,0.329476467176174,0.334206131250298,0.333281134937385,0.332873234124276,0.317364881307291,0.324349731514068,0.323015931952619,0.319177874080601,0.317667197175414,0.320755331207403,0.330307610204655,0.314174772072026,0.567891785132061,0.497840235093166,0.404862313025438,0.405149287491298,0.490253460456425,0.270399434367849,0.328088521489091,0.248752715774832,0.245168242257865,0.244653854064343,0.244057344246943,0.244575342182174,0.242785812729973,0.24271181302494,0.238921584230565,0.239036193529823,0.238954071905945,0.239484703937157
0.399685943414835,0.396582467980583,0.399020848504965,0.387673625442948,0.387763868985671,0.387463357988403,0.38726843193612,0.38623514337194,0.388169062492498,0.387736795922854,0.387814405369596,0.388045428838967,0.388957791055899,0.38876196256819,0.388974937329017,0.390494638588475,0.391726462946647,0.391068587520195,0.390403492610325,0.391591097632562,0.392857214536969,0.388830547660659,0.389585886113253,0.419914935951671,0.439542004058542,0.517153255671361,0.669235283610231,0.399009116844411,0.395929104731267,0.395393058087491,0.480811278581296,0.482118907515355,0.388825133048096,0.389177082864716,0.388105892012592,0.384257004915447,0.499972690007716,0.386886701750401,0.494357736779477,0.398662581640354,0.393929307824521,0.387233236954458,0.396096055285305,0.386557312819462,0.387390260718797,0.390185103236935,0.38930974087252,0.389759153715281,0.389133765964209,0.389317862791365,0.391915974386366,0.391465659108177,0.390015445376615,0.39099188050888,0.389865641095695,0.392111802874075,0.392461947819842,0.391983657043408,0.395661983844807,0.397701487910351,0.389656276076577,0.389265521536585,0.389225814377787,0.457680053710481,0.387241358873304,0.381933233690324,0.381252797378191,0.38401785952723,0.381601137453103,0.380992895975148,0.380460459073081,0.383211082255285,0.678572782975802,0.364190450755513,0.364635351421138,0.361790874954503,0.351705256619756,0.351171014846835,0.350746870196036,0.365054983894801,0.36520208086944,0.364606473487467,0.362495677023171,0.458214295483403,0.370749351440636,0.37051652310041,0.376769498175702,0.372492856686049,0.370631132399669,0.371079642807003,0.376137793376639,0.375429381566262,0.358334547268204,0.337945823660748,0.78742544664397,0.398929702526814,0.388389256736743,0.389361179691872,0.389048034598622,0.389572349581844,0.390130054675874,0.390586687002053,0.383849104102338,0.499367155836043,0.499744373844626,0.424449673973512,0.427989025719117,0.450749349629338,0.487593080816945,0.458007637770567,0.395946251004385,0.458515708916098,0.310709420031454,0.314081821223021,0.315437279234724,0.357792183576437,0.298186323607754,0.296624207883215,0.29757447238809,0.306164755219913,0.307778309763804,0.30963822917933,0.314041211628795,0.313961797311199,0.314342625061491,0.340257863225316,0.302671427681098,0.30467573676498,0.304135177944068,0.306523022084524,0.320486405450087,0.319962090466865,0.317337808244474,0.317817903891762,0.317770977249546,0.325940725172278,0.32411780560927,0.334956055090328,0.335769149410264,0.335775466458254,0.335689735092667,0.323785709372048,0.324624974319374,0.323839855497682,0.319456726627615,0.318794339024027,0.317327881454775,0.317334198502766,0.36439349872664,0.302021674173491,0.496023632578148,0.3068668499823,0.645414598073011,0.26834819864175,0.268489881003826,0.672537294838473,0.259141552413128,0.243467151477533,0.245194412885255,0.245581557683538,0.247342209202068,0.251904922722153,0.242296692728413,0.236583374038606,0.236953372563771,0.237511980093228,0.238105782604347
0.403713512726572,0.402147787260324,0.401159620467505,0.398814190792129,0.38615031444178,0.395504960080468,0.394518598158504,0.38689031149211,0.389418935559215,0.389352155337599,0.386886701750401,0.387967819392225,0.388678938508884,0.388100477400029,0.389926104269319,0.38957686175898,0.389741105006737,0.390273541908804,0.392090144423822,0.39259280095679,0.394250574836616,0.402765955527978,0.404103364831136,0.404031169996958,0.422394828505704,0.660912121664869,0.841782742167871,0.398417119204146,0.398568728355921,0.407669789639558,0.407519985358637,0.417742773878323,0.662781967870094,0.386532947062926,0.660548440187694,0.397683439201807,0.623916781325487,0.407503741520947,0.398451411750381,0.39878441042303,0.398009218391037,0.398429753300128,0.398778995810466,0.396824320675082,0.39552391122444,0.397714122006333,0.395757642000093,0.388763767439044,0.388062575112085,0.390776198441772,0.393885088488587,0.393066579556087,0.389127448916219,0.394674719487415,0.395088034913087,0.394171160519019,0.39335896863451,0.39336889542421,0.393840869152652,0.395450813954834,0.388280062050048,0.388489427069166,0.456117035550515,0.55986823174854,0.386287484626719,0.459590509509932,0.384693783662227,0.383968225578733,0.382393475758212,0.381636332434765,0.380701409332152,0.379992095086348,0.375243479868252,0.37429231292795,0.37975655943984,0.352087889240903,0.349834507979104,0.354045271682569,0.351910109461738,0.365347372973224,0.365605469505413,0.364980984189768,0.364120963227616,0.380446922541673,0.379308049032506,0.372306954988039,0.373521633073093,0.374235459496034,0.374099191746522,0.373280682814022,0.392016144718789,0.357449258114089,0.357406843649009,0.455372526323049,0.395808178384018,0.388900937623983,0.387371309574825,0.387726869133154,0.387867649059803,0.388238550020395,0.392183997708254,0.389744714748446,0.383831055393793,0.383823835910375,0.499784081003424,0.452556927790084,0.434228464263,0.48381277881227,0.455340038647668,0.421053809460837,0.46202979246974,0.4552515999758,0.399128238320805,0.402108982536953,0.38555019488267,0.381255504684473,0.298648370546497,0.298765687152037,0.297839788403697,0.310226617077885,0.311502660771991,0.3119204883748,0.311829342396649,0.313122532363873,0.314096260189857,0.314630501962778,0.316154715399373,0.303098279638178,0.307364091902705,0.31108573560461,0.321358158072794,0.324221585683401,0.324428243396237,0.326075188050936,0.326857599566346,0.327408085176958,0.333069062611985,0.335669881513268,0.336492000187477,0.336519975685721,0.336879144985759,0.336994656720445,0.322547567965886,0.323128736381023,0.31802726891088,0.319489214302996,0.318596705665463,0.315694473331485,0.314725257682637,0.305927414702551,0.302647061924562,0.303441205100527,0.854354570104642,0.854170473277487,0.56708681273097,0.259210137505598,0.259720013521984,0.259879744592604,0.244131343951976,0.24385610114667,0.247580452154857,0.251371583384659,0.250724537183334,0.438830884941883,0.349481655727056,0.34957821631777,0.24283544667847
0.405543651772999,0.402110787407808,0.401543155524079,0.395387643474928,0.396398371153428,0.395452618825689,0.394512281110513,0.393418529372708,0.392510679332912,0.391096563018439,0.388940644782782,0.389043522421486,0.388340525223672,0.38848130515032,0.38941081364037,0.389377423529562,0.388823328177241,0.392010730106225,0.393727162288821,0.392572947377391,0.396380322444883,0.396978637133138,0.40448689988771,0.404451704906048,0.422607803266531,0.427654222175613,0.682622010737793,0.464849903179841,0.685794973699941,0.41782850524391,0.418109162661779,0.418073967680117,0.417565896534585,0.399290676697707,0.400715622237307,0.400212063268911,0.399737382234187,0.400002698249793,0.397779097357093,0.397851292191272,0.397302611451515,0.398827727323537,0.399773479651276,0.398815995662983,0.397883779866652,0.398131949609141,0.397339611304031,0.395532033143285,0.39565115461968,0.397073392852998,0.397964096619676,0.393535845978248,0.39897662916903,0.398586777064466,0.395560911076957,0.394176575131583,0.394691865760532,0.399287066955998,0.40184908113391,0.414401957926709,0.413918252537713,0.407396351705106,0.407764545359417,0.404508558337963,0.59809990862323,0.395556398899821,0.395284765836224,0.388531841534245,0.382402500112485,0.381207675606829,0.38134755309805,0.384398687277522,0.373715656689948,0.374481824367668,0.379693388959934,0.350727016616637,0.351610500899897,0.349931068569818,0.348918536020463,0.364143524113297,0.363820452230348,0.363872793485127,0.381223017009092,0.398580460016475,0.379021977002073,0.439551028412815,0.369148430992726,0.376174793229156,0.375017871011444,0.42660559220917,0.392311241103494,0.3921821928374,0.390465760654804,0.38985751917685,0.457503176366744,0.423274703047256,0.514839411235938,0.510694525318661,0.387125847138618,0.388478597844039,0.388995693343843,0.474191914722548,0.382764376718805,0.383066692586928,0.379702413314206,0.471313145709677,0.471403389252401,0.470972927553611,0.455100893259452,0.456292108023398,0.44617761175498,0.458813512607085,0.41241299024509,0.337606507940108,0.380513702763288,0.38031426453387,0.396174567167475,0.294313070754074,0.300739313431394,0.310187812354514,0.311373612505897,0.311918683503945,0.31173458667679,0.311171466970197,0.314220796278815,0.316288275842603,0.318136463597575,0.326395552627603,0.327406280306103,0.311355563797353,0.321393353054456,0.322167642651021,0.396152006281794,0.396235932776526,0.332535723274491,0.332166627184753,0.333205330361497,0.335119395902657,0.335558881955719,0.337552361814474,0.33827431015626,0.338035164768044,0.321734473645949,0.323411198669747,0.322082813720861,0.320421430099327,0.319475677771587,0.318061561457115,0.317821513633471,0.31625037355466,0.303538668126668,0.302782427238647,0.302306843768496,0.561641517363051,0.361535485728596,0.258923163039738,0.260064743855186,0.259530502082265,0.258100141930102,0.25836816525199,0.258191287908253,0.258508945178638,0.437923937337515,0.351486867246366,0.599072734013786,0.394990571886946,0.251343607886415
0.410174047950127,0.409363660936472,0.407225791409359,0.406341404690672,0.394940937938448,0.40216222622716,0.402029568219357,0.39231575328063,0.391703902060967,0.388261110906076,0.388104989577165,0.387328895109745,0.390611955194016,0.389229424119496,0.39123644050966,0.389320570097646,0.393863430038333,0.394803767753509,0.395648447313398,0.397334196691468,0.398717630201415,0.397431659717609,0.402288567186972,0.40153954578237,0.401461936335628,0.679122366150986,0.688327207508754,0.686397800565332,0.418369064064822,0.418962866575941,0.418716501704306,0.418749891815114,0.417289751293852,0.416096731659051,0.39907770193688,0.399445895591191,0.401633399066802,0.400336599357869,0.402862516118692,0.413670082795224,0.414205227003573,0.414200714826437,0.39813555935085,0.39860843551472,0.396871247317298,0.397406391525646,0.399882674337971,0.401844568956774,0.399064165405472,0.397976730715657,0.399160725996186,0.399401676255257,0.40180666666883,0.400008112862357,0.399456724816318,0.399357456919322,0.401575643199459,0.402035885267347,0.401844568956774,0.414422713941536,0.412662062423006,0.406693354507292,0.406174454136634,0.408128226836592,0.40582701649715,0.39591195845815,0.395394862958346,0.382579377456222,0.383510690817126,0.380184313832348,0.38072487265326,0.385908461747282,0.351368648205399,0.351076259126975,0.380628312062546,0.380267337891654,0.340127912523795,0.349239803032558,0.348996145467205,0.348490781627955,0.363786159684113,0.363010065216693,0.362770017393049,0.380533556342687,0.378592417738711,0.437050379843954,0.436813039326592,0.436128090837323,0.421045687541992,0.366061199396165,0.394919279488195,0.394045721994634,0.390114713273611,0.38951188640822,0.39574230059783,0.485421821179025,0.484606019552807,0.433686100571233,0.438598959037085,0.437525963314106,0.473611648742838,0.483078196374503,0.46445553889814,0.447124266518147,0.39335265158652,0.434039855258708,0.470955781280493,0.38688399444412,0.386079022043029,0.385977949275179,0.444842007322677,0.433178931861129,0.411285848396477,0.344112164935025,0.39254406944372,0.401971812352014,0.389957689509272,0.299401001692808,0.300093169665495,0.302168771148129,0.311306832284282,0.311629904167231,0.311603733539841,0.312951069632699,0.315171963219117,0.32104320810869,0.326425332996702,0.326909038385699,0.328071375215974,0.321363572685357,0.321212865969009,0.402027763348502,0.39613034783154,0.67264287978346,0.333069062611985,0.334490398409876,0.33307086748284,0.335573320922554,0.335558881955719,0.336425219965861,0.336847559745806,0.336771755169919,0.33586480756555,0.320712014306895,0.319610140650245,0.320438576372444,0.319445897402489,0.320165138437993,0.319224800722817,0.318282658136786,0.602715865833523,0.302668720374816,0.301759967899593,0.71151979798862,0.662501310452225,0.265931476567623,0.26701800882201,0.266201304760365,0.266912423877024,0.259338283336265,0.259667672267204,0.258877138832949,0.257956654697172,0.437171306191204,0.510675574174689,0.352207010717297,0.2593527223031
0.413187279841655,0.413335279251721,0.412829915412471,0.405442579005149,0.407249254730467,0.402772272575969,0.399814991680929,0.629572344147951,0.638678820044151,0.386752238871744,0.385966217614625,0.385031294512012,0.386252289645057,0.396319859271259,0.397170855879139,0.396212469455418,0.394994181628655,0.396053640820225,0.396858613221316,0.401936617370352,0.396393858976292,0.397218684956782,0.401272424895909,0.402395054567386,0.403379611618496,0.403657561730083,0.408565005583372,0.409604611195543,0.413730545968849,0.417870017273562,0.416436949815118,0.416712192620424,0.412870525006696,0.412514965448367,0.397914462671178,0.402304811024662,0.401156010725796,0.40313053944058,0.404406583134686,0.407470351410139,0.414952443537321,0.416020927083164,0.416069658596234,0.415749294019567,0.405492212953646,0.400786012200631,0.401862617665319,0.4012588883645,0.398177071380503,0.399830333083192,0.39950816363567,0.398395460753893,0.400558598472968,0.401477277737891,0.400305916553343,0.401535936040661,0.402377005858841,0.402148689695751,0.402734370288025,0.404778386530706,0.424191577441324,0.423279215224392,0.421851562378511,0.406699671555283,0.710840264111915,0.710186900862599,0.529707034899588,0.412698159840095,0.384105395763672,0.392402387081644,0.383572056426178,0.350406652039969,0.351590647320498,0.350996844809379,0.380044436341127,0.379623901432037,0.348977194323233,0.349111657201891,0.348893267828501,0.385852510750793,0.363219430235811,0.363853842341155,0.380828652727392,0.382951180852242,0.383057668232655,0.436218334380046,0.435559556518167,0.436101017774506,0.435272582052307,0.467713330790448,0.396807174401964,0.396495834179569,0.402024153606793,0.424426210652404,0.433227663374199,0.486485792547731,0.484925481694047,0.432909103668386,0.437875205824445,0.437071135858781,0.417764432328576,0.416492900811606,0.465869655212613,0.465966215803327,0.394298403914259,0.392977238448791,0.395474277275942,0.390146298513564,0.389921592092183,0.388933425299364,0.479611039463077,0.416889972399588,0.388186208765616,0.393135164648557,0.398302509904888,0.330333780832045,0.389682446703966,0.302439501776299,0.303461961115353,0.310038910509021,0.311222003354122,0.311081223427474,0.311620879812959,0.312701095019356,0.313026874208586,0.326694258754017,0.336390024984199,0.32649121078289,0.326547161779378,0.319976529433701,0.319667896517588,0.370928033655228,0.57051696978988,0.673925240525557,0.333932693315846,0.332664771540585,0.334956055090328,0.33540185819138,0.335979416864809,0.336142757677138,0.336033562990443,0.33582239310047,0.335641906015024,0.336114782178894,0.322561104497294,0.318573242344355,0.320093846039241,0.321374401910484,0.323823611659992,0.323348930625268,0.588034143867883,0.587154269326331,0.424002066001605,0.589510528226835,0.739658637045146,0.266741863581277,0.267431324247682,0.269062025064691,0.267837420189937,0.267039667272264,0.25807487373814,0.257972898534862,0.460418945232131,0.51087410996868,0.527698213638569,0.258832919497015,0.259243527616405
0.412610623603654,0.416893582141297,0.417144459190068,0.412856086039861,0.413692643680905,0.408349323516263,0.408229299604441,0.61289894719441,0.389507374231083,0.389270033713721,0.389456837847158,0.388876571867448,0.391841974681333,0.399075897066026,0.401534131169806,0.398436972783546,0.401331083198679,0.402790321284513,0.404263095901756,0.402479883497545,0.401298595523299,0.407216767055087,0.399486505185417,0.400163331755841,0.403396757891613,0.402996076561922,0.408833931340687,0.413665570618088,0.413828911430417,0.413925472021131,0.411793017106581,0.411758724560346,0.412681916002405,0.420198300675821,0.413890277039469,0.413709789954022,0.402839052797584,0.406920768234955,0.405516578710182,0.403132344311434,0.414674493425733,0.416402657268883,0.41656329077493,0.415881049591943,0.414558981691048,0.40040157470863,0.402358957150296,0.402462737224428,0.399403481126111,0.397977633151084,0.398196924959902,0.398514582230288,0.401847276263056,0.400390745483503,0.401494424011008,0.401358156261496,0.402535834494034,0.401542253088651,0.404457119518611,0.404502241289973,0.42412750452599,0.423111362234927,0.421893074408163,0.424216845633286,0.425490182021111,0.788769172995119,0.486983034468136,0.382704815980608,0.383194838417595,0.370436206347386,0.37080349756627,0.350190969972861,0.351032942226468,0.350597968350542,0.349795703255733,0.334137546157828,0.343313509581924,0.358872398782834,0.376221719871372,0.362084166468353,0.362522750085988,0.362157263737959,0.467719647838439,0.475471568158363,0.441838702220848,0.481457422347194,0.480339304852853,0.471148902461921,0.395349741186984,0.438654007598146,0.412441868178761,0.402729858110889,0.423815261868168,0.424520966372263,0.434019099243882,0.483539340877818,0.484448995788468,0.488196810117764,0.435849238290308,0.434227561827572,0.417420604430801,0.417813163841647,0.416398145091747,0.45121500630979,0.391203050398853,0.492702670205934,0.389036302938068,0.39011832301532,0.389660788253713,0.483387731726043,0.397465952263844,0.415932488411295,0.394957181776138,0.415150979331312,0.329136249020107,0.328708494627599,0.387582479464797,0.300585899408764,0.301981967014692,0.302327599783322,0.310447713757557,0.311874464168011,0.403670195826065,0.312802167787206,0.312241755386895,0.317678928835968,0.336175245352518,0.336261879153533,0.340003376434837,0.342332562272523,0.341686418506625,0.339282330528478,0.576590360215152,0.339133428682985,0.333959766378663,0.334733153539801,0.336224879301016,0.336418902917871,0.336148172289701,0.335476760331841,0.335887368451231,0.336323244762584,0.339211940565154,0.339114477539013,0.31511240248092,0.317025565586652,0.323579051659212,0.325355947015432,0.323760441180086,0.51482587470453,0.587326634492933,0.515711163858644,0.666485562863455,0.326985745397013,0.327945034256161,0.267928566168087,0.268983513182522,0.26934268248256,0.268960049861414,0.269110756577761,0.268402344767384,0.267391617088884,0.516952915006516,0.510258649007308,0.261409372641762,0.262246832718234,0.262687221206723
0.416886362657879,0.417731944653196,0.417130020223232,0.41796206568714,0.418327552035169,0.416776265535757,0.407768155101126,0.40639103863917,0.389650861464013,0.388819718435533,0.38987376301454,0.392380728631391,0.392616264277898,0.399814089245502,0.401767861945459,0.401535936040661,0.402078299732427,0.405395652362933,0.40488126416941,0.415051711434317,0.414475055196315,0.407362059158871,0.40569977310191,0.406080600852202,0.404685435681701,0.404874044685992,0.406763744470616,0.414014813128427,0.413393035119064,0.412957158807711,0.412618745522499,0.42121263809603,0.421606099942304,0.421814562525994,0.418051406794436,0.412772159545128,0.404895703136246,0.405031970885758,0.404821703431213,0.410083804407404,0.411769553785473,0.417079483839307,0.416228487231427,0.415580538594675,0.414134837040249,0.403191905049632,0.402467249401564,0.403006905787049,0.401752520543196,0.607982478986849,0.401247156703946,0.401602716262276,0.407110279674674,0.405574334577525,0.40093310917527,0.405108677897073,0.404234217968085,0.403143173536561,0.404643923652048,0.405654651330548,0.410993459318054,0.411133336809274,0.420402251082376,0.425692327556811,0.426119179513891,0.425711278700783,0.406394648380879,0.411137848986411,0.385466268387938,0.386620483299368,0.385847998573657,0.390221200654024,0.384119834730508,0.38385181140862,0.358255132950607,0.364944886772679,0.344025531134011,0.355150755080928,0.376860644153852,0.362942382559651,0.454814821229019,0.464793952183352,0.458168271276614,0.457210787288321,0.472968212283221,0.480919570832563,0.480011720792768,0.471169658476747,0.448398505341399,0.436703844639897,0.401511570284125,0.461777110550115,0.430966160193555,0.445391590497861,0.440453463840047,0.485518381769738,0.487251960225451,0.485699771290612,0.485636600810706,0.47362067309711,0.445368127176753,0.417415189818237,0.416756411956358,0.504105844264439,0.492598890131802,0.517921228219936,0.386273948095311,0.387892917251765,0.38846506131263,0.398567825920494,0.39816804702623,0.397669902670398,0.445915905481083,0.430329943217357,0.352981300313862,0.339259769642798,0.434033538210717,0.301596627087264,0.300076023392378,0.310812297670159,0.310415226082177,0.402523200398053,0.402786711542804,0.318775387880055,0.319784310687701,0.318788924411464,0.316982248686145,0.336418000482444,0.337734653770775,0.3301036597981,0.340842641382163,0.337182363289309,0.339147867649821,0.353135616771919,0.353404542529234,0.33581607605248,0.336304293618612,0.33681055989329,0.336030855684161,0.334935299075501,0.343014803455511,0.337646215098907,0.336877340114905,0.343633874158592,0.35025955506533,0.334312618630711,0.334018424681433,0.332037578918659,0.331889579508593,0.514314193817289,0.514589436622595,0.585107545777369,0.657348404162729,0.667171413788151,0.331103558251474,0.330488999725528,0.267610006462274,0.268370759527431,0.269116171190325,0.269213634216466,0.268884245285526,0.688885815038211,0.462377230109225,0.508546729001848,0.45203983229028,0.263176341208283,0.263544534862594
0.420854371231419,0.419244426429237,0.4182589669427,0.4188455499704,0.418906915579452,0.42085076148971,0.420275007687136,0.421090809313354,0.489246342519634,0.392373509147973,0.392116315051212,0.392704702949767,0.394568232107001,0.547709719237442,0.402050324234183,0.401138864452679,0.404026657819821,0.403658464165511,0.405348725720717,0.41631873077415,0.415909927525614,0.413532010174858,0.413582546558783,0.403598903427313,0.404776581659851,0.405737675389854,0.412620550393353,0.412911134600922,0.414094227446023,0.420412177872075,0.425136427333636,0.425086793385138,0.42141478363173,0.42342992194074,0.418785086796776,0.417167020075749,0.403615147265004,0.416762729004349,0.416803338598574,0.412206332532254,0.41248789238555,0.4158133669349,0.415667172395689,0.414239519549808,0.413056426704706,0.409601001453834,0.408629078498705,0.409706586398821,0.408657956432377,0.546375017240565,0.411599895925154,0.407908935027774,0.406034576645413,0.406878353769875,0.404804557158096,0.406536330742954,0.405012117306359,0.411135141680129,0.410797630830344,0.409472855623167,0.41052509533132,0.438294838298108,0.439051981621555,0.426231081506868,0.426046082244286,0.424936989104217,0.408626371192424,0.408415201302451,0.393701894096858,0.387670918136666,0.399250067103482,0.399371895886158,0.414086105527178,0.465701802223148,0.467534648575856,0.408665175915795,0.44889033264924,0.445535077730791,0.361520144326333,0.449065405122123,0.458879390393273,0.463727273508364,0.458289197623863,0.524985492744309,0.524529762853557,0.523907082408767,0.508132511140749,0.44979998755989,0.449444428001561,0.454009848827928,0.476879367424845,0.477018342480639,0.46976366408112,0.447254217219668,0.446152343563018,0.543551296788756,0.545634117754808,0.544918486461013,0.544484415020514,0.504687915115004,0.434854754449499,0.416882752916171,0.460818724126395,0.529783741910902,0.511205303770474,0.48906856274047,0.385505975546736,0.385701804034445,0.449919109036285,0.398677020607189,0.397132051155768,0.401962787997741,0.434344878433112,0.434003757841619,0.352239498392678,0.349034047755149,0.34683932479612,0.399376408063294,0.413763033644229,0.31059661560305,0.311044223574957,0.389252887440604,0.41850984399147,0.319835749507053,0.31967692087186,0.317947854593283,0.31792619614303,0.334743982764928,0.331172143343943,0.332447284602622,0.382185915609949,0.336607511922162,0.350242408792213,0.352177230348199,0.352463302378631,0.35263656998066,0.35160959846447,0.338117286391922,0.338087506022823,0.342999462053248,0.344888259402445,0.339447476211662,0.343900092609625,0.348180343840987,0.350387700895997,0.334844153097351,0.335306200036094,0.335104956935821,0.333726938038437,0.33554534542431,0.514084072783345,0.663867597689054,0.664310693483825,0.6666859035283,0.436544113569277,0.433361223817429,0.26494782195194,0.266811351109174,0.266897984910188,0.268373466833713,0.271994037767768,0.270931871269916,0.46346105505733,0.356165092501137,0.514500997950726,0.261327251017884,0.267618128381119
0.423083386736683,0.422955240906016,0.42120632104804,0.422118683264971,0.424169016555643,0.423698847698055,0.423426312199031,0.423927163861145,0.601619406789435,0.738964664201604,0.391286074458158,0.464436587754168,0.563365169029065,0.414548152465921,0.548323375327959,0.401516082461262,0.402852589328992,0.408336689420282,0.408639005288405,0.414640200879499,0.415008394533809,0.414934394828776,0.416256462729671,0.415989341843211,0.415432539184608,0.413055524269279,0.420396836469813,0.419808448571257,0.41995103336876,0.427195784978579,0.42678156711748,0.426364641950099,0.427382589112017,0.426441348961413,0.42681405479286,0.424051699950103,0.423222361792476,0.423148362087443,0.422660144521311,0.422698949244682,0.420833615216593,0.421302881638754,0.419798521781558,0.413798228625891,0.410932093709002,0.40965785488575,0.409585660051571,0.409410587578688,0.417528896682069,0.41664811970509,0.432807128465109,0.419874326357445,0.416944118525222,0.414356836155348,0.414797224643837,0.416806948340283,0.416927874687532,0.416797923986011,0.410672192305959,0.449141209698011,0.437316598294988,0.436692112979343,0.458155637180633,0.421912025552135,0.417893480594671,0.479337601528625,0.45656554595785,0.404986849114396,0.384421248163203,0.383864445504601,0.43453168256655,0.417193190703138,0.470728367552831,0.474248768154463,0.465902142887993,0.484439971434196,0.485237724351869,0.486378402731891,0.495289952575808,0.456587204408103,0.458738610466625,0.501711683075992,0.513931561196142,0.523236572886333,0.486508353433412,0.487641812330016,0.480588377030769,0.448633138552479,0.449944377228247,0.45277351229262,0.479182382635142,0.466209873368679,0.522474014950322,0.484331679182928,0.511226962220728,0.517211913974131,0.543387053541,0.54507911996706,0.472836456710845,0.472896017449042,0.459384754232523,0.472877066305071,0.470745513825948,0.506727419180548,0.474437377158755,0.477359463072133,0.46143328265234,0.524226544550007,0.413241425967289,0.412737866998893,0.409580245439008,0.457486932529054,0.443093989900128,0.495333269476315,0.493005888509483,0.351740451601418,0.352696130718857,0.355950312869456,0.415840439997717,0.414764736968457,0.408213055766751,0.40818417783308,0.417881748934117,0.407584058273971,0.406282746387902,0.414497616081996,0.380999213023139,0.381277163134726,0.334553568889782,0.334191692283462,0.332951746006445,0.332722527407928,0.351564476693108,0.347102835940872,0.351765719793381,0.350692724070402,0.351827085402433,0.351405648057915,0.357222746821854,0.356935772355994,0.344899991062999,0.344925259254961,0.344499309733308,0.347304981476572,0.351241404810159,0.335261980700159,0.335065249777023,0.334334277080965,0.33668331649805,0.335792612731372,0.339404159311155,0.519823562100541,0.521401019227343,0.664187962265722,0.669007869882569,0.385982461452315,0.385505073111309,0.30011121837404,0.27122065060663,0.2720878910522,0.272260256218802,0.271801819021768,0.354558757440664,0.466148507759628,0.465616973292988,0.359286616643933,0.264873822246907
0.424895477074565,0.425178841798716,0.423882042089783,0.422139439279798,0.425815961210342,0.425464011393721,0.424730331391381,0.427850050663323,0.427640685644205,0.738698445750571,0.426472934201367,0.424879233236875,0.56091505684413,0.422281121641873,0.423194386294232,0.422775656255996,0.42063237211632,0.408381811191644,0.408629078498705,0.413024841464753,0.413421010617308,0.414632078960654,0.415795318226356,0.417191385832284,0.418424112625883,0.432965957100302,0.431039257463161,0.419240816687528,0.426408861286033,0.426926859221264,0.427411467045688,0.426149862318417,0.427221955605969,0.429139630888837,0.42938328845419,0.429034948379279,0.428076561955558,0.425385499511552,0.425010086373823,0.424529088291108,0.422420999133094,0.423232288582176,0.421628660827984,0.422342487250925,0.408168836430817,0.409304100198275,0.649214753657086,0.421399442229467,0.417881748934117,0.421482466288773,0.43328271193526,0.41975520488105,0.420670274404264,0.415938805459286,0.41827521078039,0.417592067161975,0.417168824946603,0.417514457715233,0.415448783022299,0.43691501452987,0.435538800503341,0.437710962576688,0.429159484468237,0.42797819649399,0.41807938229268,0.46350346952241,0.46465768443384,0.471193121797855,0.471464754861452,0.475236934947283,0.479867331124411,0.482984343090071,0.470701294490014,0.463045032325376,0.462047841178285,0.484095241100993,0.484578044054563,0.508018804276917,0.494833320249629,0.496806044093558,0.505979300211373,0.500717199235182,0.491133334997977,0.483044806263695,0.521210605352197,0.531102200070088,0.49132465130855,0.507961950845002,0.458515708916098,0.478788018353441,0.479690453780673,0.520548217748608,0.520915508967492,0.538627609097777,0.561456518100469,0.54512153443214,0.545176582993201,0.532688681551163,0.513699635291344,0.458558123381178,0.563711704233122,0.561031471014242,0.576609311359124,0.511328034988578,0.54992068603416,0.533419654247221,0.533128167604225,0.47641822292153,0.422555462011752,0.41127501917135,0.474164841659731,0.45202358845259,0.48645691461406,0.486938815132202,0.49234530577675,0.377192740391074,0.352709667250266,0.377421958989591,0.432623031637954,0.432570690383174,0.40871571229972,0.408155299899409,0.434822266774118,0.4063323803364,0.405886577235347,0.423419092715613,0.380528141730124,0.381297919149553,0.337313216426258,0.335463223800432,0.331164923860525,0.342221562714974,0.370455157491358,0.36980269667747,0.371635543030178,0.373944875288465,0.373841997649761,0.346944007305679,0.357626135457826,0.357063918186661,0.34341277747892,0.34513101453237,0.34613181542117,0.348330148121908,0.349383290265488,0.334493105716157,0.335837734502733,0.336686023804332,0.335649125498442,0.345196892318558,0.345085892761008,0.726468640840721,0.664539912082342,0.636022952581806,0.76647089602364,0.67650620584744,0.386854214075021,0.32071381917775,0.269448267427546,0.271108748613653,0.271802721457195,0.276782360144662,0.46505565845725,0.426646201803395,0.423750286517407,0.355470217222169,0.279901176981176
0.425824083129187,0.427509832507256,0.428389707048808,0.42690881051272,0.423442556036721,0.42388294452521,0.42988233524545,0.429033143508424,0.43029294336484,0.431994034145173,0.430393113697263,0.424833209030086,0.424940598845926,0.424359430430789,0.42587822925482,0.425010086373823,0.421530295366416,0.422812656108513,0.420503323850226,0.421397637358613,0.419757009751905,0.420157691081596,0.420132422889634,0.418608209453038,0.420815566508048,0.432059911931361,0.431813547059726,0.430382284472136,0.426463007411667,0.427753490072609,0.429596263215017,0.43250030041985,0.429672970226332,0.431650206247397,0.43144715827627,0.429129704099138,0.427769733910299,0.426131813609873,0.425480255231411,0.423994846518187,0.424293552644601,0.423053606367584,0.421922854777262,0.426398934496333,0.426593860548616,0.548338716730222,0.656897186449113,0.424055309691812,0.426009082391769,0.426278008149084,0.420592664957522,0.420846249312574,0.63736848380381,0.692491044570003,0.417178751736303,0.415881049591943,0.414833322060926,0.41450934774255,0.414784590547856,0.432707860568113,0.436625332757728,0.482174858511843,0.428395121661371,0.481432154155231,0.459346851944579,0.461038015935212,0.475373202696795,0.471418730654663,0.475109691552043,0.474616059373347,0.481341008177081,0.49861813443144,0.50649549327575,0.505800617996781,0.537699003043156,0.536795665180496,0.508245315569153,0.489750803923457,0.507882536527405,0.454290506245797,0.532874583249172,0.501204514365888,0.539521922606164,0.510744159267159,0.726224080839941,0.504404550390853,0.505068742865296,0.50763978139748,0.530690689515271,0.531973050257367,0.530464178223035,0.520892948081811,0.521996626609316,0.539038217217168,0.538781023120407,0.537432784592122,0.555609638967432,0.576977505013434,0.57030489746448,0.570822895399711,0.556495830556974,0.568765342625622,0.579928468860484,0.595432309500332,0.548726763963932,0.542157936489109,0.548695178723979,0.524360104993237,0.493654739581663,0.517522351761099,0.505913422425185,0.504923450761511,0.561306713819548,0.561113592638121,0.490391533076792,0.487284447900832,0.485534625607429,0.43924600523841,0.431647498941116,0.430809136429217,0.425334963127627,0.424964964602462,0.433810636660191,0.434710364781142,0.405138458266171,0.420910322227908,0.433831392675017,0.334937103946356,0.335618442693916,0.392815702507316,0.348005271368104,0.432739445808067,0.367819143608413,0.353198787251825,0.35762162328069,0.373710242077385,0.373678656837432,0.391480098075013,0.352429912267824,0.354932365707538,0.345658036821874,0.345485671655272,0.347389810406732,0.349550240819526,0.349862483477348,0.349665752554212,0.336113879743466,0.33704519310437,0.343708776299052,0.344793503682585,0.345255550621328,0.520259438411894,0.656737455378493,0.656561480470183,0.707262107642939,0.665923345592289,0.707344229266817,0.324737778747778,0.393922088341103,0.400686744303635,0.279842518678406,0.284035233673327,0.283251017287062,0.40215229943746,0.417722017863496,0.427089297598166,0.27881103498508
0.429919335097966,0.431906497908731,0.427588344389425,0.426401641802615,0.427520661732383,0.430930062776466,0.432327032817821,0.433428906474472,0.433566979094838,0.43217091148891,0.431410158423754,0.430236089932925,0.433067932303579,0.433604881382782,0.430963452887274,0.430439137904052,0.430106139231403,0.423955139359389,0.426726518556419,0.420918444146753,0.419279621410899,0.41797830952483,0.41891413506287,0.422901997215809,0.422354218911479,0.430712575838503,0.432511129644977,0.431208012888054,0.431484158128787,0.431620425878299,0.43170164506675,0.433657222637562,0.433741149132294,0.433254736437016,0.432447056729643,0.432596861010564,0.425257353680885,0.425843936708586,0.425323231467073,0.425531694050763,0.427778758264571,0.428059415682441,0.428677583950095,0.427341077082364,0.426590250806907,0.653746784372646,0.660926560631705,0.427247223797932,0.426190471912643,0.425903497446783,0.42526547559973,0.431526572593867,0.431656523295388,0.909311985187653,0.418012602071065,0.411983430981727,0.426590250806907,0.482245248475168,0.482663978513403,0.430823575396053,0.435964750024994,0.43564980006089,0.434316902934868,0.485236821916442,0.460829553351521,0.461545184645317,0.459201559840795,0.470577660836483,0.479505454518091,0.482212760799787,0.529328914455577,0.485471455127522,0.525136199460657,0.554413912026349,0.536068302226147,0.536303837872655,0.542417837892152,0.488558686724084,0.549798857251484,0.548858519536308,0.548131156581959,0.540655381502768,0.541930522761447,0.790397166505846,0.723433750498939,0.684888928531,0.786288378005658,0.596486354079339,0.596577500057489,0.531826855718156,0.541854718185559,0.511980495802467,0.570831017318556,0.571015114145712,0.594871897100021,0.616238860710596,0.618253096584178,0.610046348808929,0.609839691096093,0.629712221639172,0.586314101943578,0.591615910078567,0.61087749183741,0.584008379427,0.589117968815989,0.550742804708369,0.525807611418518,0.515395311459113,0.570382506911222,0.524448543665106,0.545717141814113,0.55344198907122,0.560746301419237,0.558300701411438,0.56981577746292,0.489702072410387,0.510375063177421,0.508960044427521,0.505989227001072,0.414201617261864,0.424200601795596,0.423720506148308,0.435847433419454,0.40488126416941,0.421172028501805,0.424795306742142,0.424055309691812,0.42447313729462,0.449503086304331,0.348304879929945,0.34804588096233,0.412362453861165,0.407181572073425,0.407677911558403,0.3729684401562,0.391004514604862,0.401570228586896,0.390588491872908,0.35122786827875,0.399777991828412,0.353501103119948,0.346020815863621,0.348470025613129,0.349496997129319,0.350641285251049,0.352299059130875,0.351909207026311,0.340917543522623,0.342143953268232,0.345041673425074,0.3450723562296,0.523889033700222,0.523438718422033,0.701146302752587,0.533721970115343,0.662994942630921,0.32591726185117,0.325976822589368,0.314868744915567,0.455032308166982,0.479990062342514,0.282745653447812,0.283752771384603,0.420189276321549,0.420677493887682,0.415202418150664,0.280504003846567
0.435412459543528,0.434343073562258,0.425414377445223,0.424166309249361,0.434010977325037,0.434178830314502,0.434027221162727,0.433050786030462,0.433992928616492,0.431462499678533,0.430902989713649,0.432970469277438,0.435581214968421,0.433550735257148,0.435090290096006,0.434087684336351,0.434437829282117,0.433927953265731,0.420824590862321,0.41873816015456,0.418210235429629,0.418934891077696,0.417912431738642,0.42123880872342,0.422953436035161,0.42223329256423,0.431635767280562,0.431238695692579,0.431257646836551,0.435439532606345,0.436925843754996,0.435823067662919,0.43693757541555,0.434961241829912,0.435967457331276,0.435361923159603,0.424934281797936,0.426237398554859,0.425099427481119,0.429651311776078,0.425794302760088,0.43145708506597,0.430817258348062,0.427712880478383,0.428843632068705,0.431006769787781,0.435237387070645,0.44235309041437,0.425680595896257,0.674324116984393,0.675796891601636,0.661409363585274,0.514106633669026,0.638053432293079,0.457440005886838,0.42509581773941,0.428790388378499,0.432788177321137,0.456851617988282,0.480849180869239,0.48937178104402,0.484743189737746,0.490045900308162,0.489053221338207,0.490042290566453,0.476337906168506,0.486252061772078,0.485576137637081,0.52295411059761,0.483331780729555,0.485370382359672,0.520663729483294,0.524134496136429,0.545116119819577,0.574873025597129,0.535954595362316,0.536986981491069,0.475239642253564,0.547911864773142,0.546820820341618,0.557675313660366,0.556586074099697,0.577373674165989,0.72297711817276,0.723135044372525,0.791817599868309,0.647538931068716,0.613959308821408,0.551749020209733,0.551914165892916,0.61960223754789,0.621916081983314,0.621675131724243,0.572808253339622,0.586529784010687,0.673322413660165,0.669221747078823,0.664580521676568,0.668613505600868,0.667194877109259,0.672117662364811,0.607611578026257,0.608721573601752,0.593563365730534,0.593697828609192,0.524576689495773,0.599187343313045,0.587314000396951,0.589032237450401,0.588893262394608,0.545915677608104,0.552576553496505,0.551188607809422,0.576952236821472,0.571915744702089,0.568575831185903,0.50892755675214,0.544820120999444,0.507772439405283,0.506936784199666,0.518157666301871,0.52130084889492,0.420938297726152,0.424890062462001,0.407600302111661,0.421583539056623,0.428009781733943,0.420970785401532,0.450641959813498,0.385406707649741,0.422020317803403,0.423205215519359,0.408641712594687,0.409060442632922,0.408541542262264,0.389239350909196,0.389646349286877,0.398763654408204,0.386569946915443,0.397844975143281,0.355333949472657,0.357079259588924,0.357747061805075,0.350317310932673,0.352825178984951,0.353391908433253,0.354020905926034,0.349372461040361,0.35589706917925,0.354950414416083,0.34909902310591,0.358250620773471,0.358125182249086,0.689431788471686,0.654931682088602,0.324332585240951,0.449859548298088,0.450678959666014,0.450938861069057,0.435844726113172,0.410708289723048,0.411709090611849,0.4091524910465,0.418790501409339,0.429913920485403,0.295676650684621,0.289546406827433
0.437585524052303,0.434927851719105,0.434357512529094,0.436706551946179,0.436281504859953,0.435354703676185,0.432508422338695,0.432028326691408,0.441919921409299,0.44096424229186,0.442723991374963,0.442987502519715,0.437140623386678,0.438987006270795,0.439392199777622,0.435190460428429,0.433413565072209,0.435464800798308,0.698417338020637,0.815892772196008,0.417677798527562,0.417824895502201,0.418112772403488,0.421193686952058,0.421479758982491,0.426828493759696,0.43162313318458,0.461096674237982,0.460171677925069,0.434982900280166,0.436922234013288,0.437294037409307,0.438025010105365,0.437077452906771,0.436916819400724,0.436170505302403,0.692502776230557,0.432529178353521,0.428531389410883,0.910115152717889,0.43662804006401,0.431636669715989,0.431410158423754,0.437673962724172,0.438850738521283,0.729850968821987,0.443159867686316,0.442619308865404,0.442374748864624,0.698610459202065,0.65999253996452,0.661704459969979,0.514393608134885,0.479937721087735,0.481378910465025,0.455456452817781,0.429824579378107,0.429513239155712,0.504135624633538,0.490646019867272,0.502823483522342,0.511775642960485,0.535916693074372,0.533133582216788,0.491581845405311,0.468828740978507,0.469207763857945,0.472123532723332,0.521725895981146,0.508052194387725,0.554145888704461,0.533360995944451,0.548040010603809,0.550627292973683,0.59802500648277,0.57477826987727,0.579187569374726,0.559328575363055,0.495733048370579,0.55136187541145,0.573446275186675,0.578182256308789,0.575794412168333,0.59293888041489,0.718538940741632,0.792532328726677,0.661449973179499,0.797548967266661,0.797244846527683,0.668114458809609,0.669496087448701,0.657999962541191,0.619471384410942,0.678397710502919,0.723660261791174,0.685941168239153,0.711049629131032,0.666195881091313,0.671064520221231,0.675625428870462,0.670610595201333,0.669973475789707,0.645576134014486,0.592295443955273,0.675683184737805,0.624849899557245,0.636710608377357,0.648739170186934,0.58840684969933,0.661351607717931,0.667902386484209,0.626575356094113,0.636408292509235,0.573132227657998,0.606475411823372,0.602889133435551,0.563842557370071,0.563832630580371,0.508843630257408,0.508536802212149,0.539160045999844,0.538763876847289,0.515439530795047,0.502817166474351,0.501455391414658,0.452354782254384,0.450938861069057,0.459752045451406,0.430444552516615,0.385316464107017,0.421363344812378,0.404994068597814,0.415277320291125,0.407585863144825,0.407751008828009,0.390763564345791,0.408737370749973,0.390932319770683,0.390199542203771,0.389221302200651,0.356556749476556,0.355044267700515,0.355795996411399,0.350645797428186,0.351585232707934,0.356179531467973,0.359404835684901,0.361262047794145,0.361976776652512,0.364043353780874,0.362756480861641,0.359085373543661,0.359135909927586,0.359211714503473,0.65833927826183,0.38274632801026,0.382812205796448,0.383087448601754,0.330059440462166,0.450135693538821,0.365654201018483,0.448475212352713,0.296682866185985,0.296031307807524,0.296830865596051,0.297373229287818,0.297687276816495
0.434709462345714,0.436643381466273,0.440037441108093,0.441271070337119,0.436509821023042,0.441428094101458,0.441442533068293,0.441082461332828,0.441805312110041,0.442577796835751,0.443680572927829,0.442609382075704,0.442977575730015,0.440466097936028,0.439800100590731,0.44238918783146,0.437340964051523,0.700064282675336,0.544048538709161,0.545625995835963,0.862295099428858,0.889171431322686,0.431281110157659,0.430726112369912,0.429664848307487,0.428439340997305,0.433414467507636,0.460344945527098,0.459252998660147,0.458406514229403,0.436780551651212,0.4370386481834,0.437830084053083,0.436187651575521,0.435711165669942,0.435922335559914,0.792711010941269,0.431870400491642,0.551224705226511,0.443722084957482,0.436452967591127,0.434667047880634,0.437738035639505,0.522371137311618,0.442466797278202,0.445351883339063,0.442658113588775,0.441661824877111,0.441582410559514,0.661958044325031,0.753023705722454,0.673724899860711,0.453317680855241,0.480405182639041,0.491296675810306,0.494252151834491,0.493062741941399,0.455775012523594,0.455282282780325,0.496760019886769,0.500840832888713,0.497231091179785,0.508610801917182,0.531794368042776,0.526669437251524,0.467415527099462,0.510937280448586,0.5631973160396,0.50570947201863,0.502648411049459,0.573641201238957,0.544829145353717,0.543122639960821,0.600606874240081,0.587278805415289,0.585924249839014,0.595159774001308,0.609905568882281,0.608002332566248,0.606729898613851,0.606496167838198,0.577136333648627,0.616957199310673,0.696151322662857,0.780423450164076,0.784587287225325,0.654176343636008,0.654259367695314,0.629684246140928,0.638535332811221,0.658631667340253,0.658283327265342,0.65764169567658,0.703563927262142,0.772724773534359,0.760824357555449,0.760431798144602,0.742545527976862,0.730657746093932,0.691787144936762,0.688170183744416,0.661394924618438,0.691662608847804,0.669551136009762,0.663939792523233,0.663553550160377,0.689239569725686,0.66505249540501,0.667188560061268,0.666654318288347,0.667323022939926,0.673528168937574,0.63642273147607,0.631131752566208,0.605700219791379,0.616371518718399,0.562535830871439,0.564008605488681,0.595198578724679,0.579591860446126,0.622972833868602,0.623167759920885,0.539234948140305,0.520402925644824,0.470111101720604,0.48950534148725,0.49167028407718,0.432489471194723,0.43014945613191,0.446245294412023,0.404397558780414,0.489401561413118,0.407661667720712,0.409032467134678,0.40927973444174,0.407546155986027,0.39571973971215,0.395686349601342,0.474601620406511,0.474043915312482,0.385500560934173,0.385642243296248,0.351492281858929,0.351281111968957,0.552637016670129,0.359898467863597,0.361650095027854,0.361677168090671,0.366553929139434,0.366631538586176,0.364802301975176,0.367293926189764,0.358612497379791,0.359078154060243,0.362269165730936,0.382051452731291,0.383106399745726,0.453049657533353,0.330519682530054,0.337173338935037,0.321834643978372,0.306421046881247,0.295750650389654,0.296949987072446,0.29778654471349,0.298495858959294,0.298369517999482
0.437439329513092,0.442834088497085,0.442871088349602,0.442364822074925,0.442558845691779,0.441171802440124,0.440837901332048,0.445440322010932,0.444470203926657,0.443769011599698,0.443557841709725,0.442643674621939,0.445744442749909,0.446368025630126,0.446074734116276,0.44761880113227,0.444840202451822,0.544165855314701,0.543154225200774,0.545438289267098,0.773502672872633,0.443242891745621,0.432581519608301,0.432341471784657,0.430847941152588,0.431444450969988,0.433508320792068,0.872703789646553,0.459377534749105,0.457660200131082,0.454293213552079,0.440881218232555,0.436424992092883,0.445433102527514,0.444669642156075,0.443227550343359,0.785978842654117,0.89376392521187,0.44523546916895,0.446139709467037,0.447774020025754,0.791072188205416,0.794574540098503,0.511848740230091,0.446056685407731,0.740457292398246,0.440541000076488,0.669802013058533,0.672219637568088,0.756823861306528,0.595861868763695,0.453645264915326,0.453281583438152,0.470672416556342,0.491802942084983,0.493422813676865,0.470945854490794,0.518864273241393,0.502169217837599,0.5084158758649,0.513216832337775,0.536937347542571,0.482703685672201,0.50749629416455,0.546677333108688,0.555497736974455,0.557189803400515,0.56324604755267,0.562764147034528,0.522511917238266,0.601570675276365,0.602314282068404,0.59860527246248,0.585661641129689,0.586433223419973,0.59591872219561,0.625656676829191,0.611694195899055,0.619243068247852,0.594126485437127,0.572678302638101,0.645903718074571,0.61763312344567,0.668001654381205,0.842727592060184,0.794360662902249,1.00951841502751,0.6489070231764,0.689615885298842,0.656825894050362,0.655033657291879,0.694510695056149,0.801221879455496,0.812951735138659,0.770935244082158,0.745086786139947,0.720014422665157,0.721016125989384,0.706421940260186,0.788447905983024,0.787348739632656,0.754473919454016,0.719420620154038,0.717373896605075,0.717518286273433,0.710027169791978,0.700908962235225,0.708206055099824,0.708988466615234,0.676876204372606,0.676513425330858,0.704979848447469,0.666658830465483,0.662951625730414,0.681215113906738,0.673041756242296,0.630557803634489,0.619108605369194,0.602662622143316,0.601724991734422,0.623854513281008,0.623356368925176,0.623209271950537,0.539625702680296,0.520077146455593,0.496195997744749,0.432732226324649,0.432215130824845,0.432221447872835,0.427317613761256,0.430069139378887,0.483353439179809,0.418066748196699,0.409492709202566,0.409221978574397,0.410792216217781,0.411500628028158,0.394968011001265,0.394346232991902,0.394869645539697,0.405350530591571,0.389233936296632,0.381631820257629,0.551914165892916,0.374263434994278,0.373918704661075,0.369895647526474,0.369791867452343,0.367501486338028,0.367838094752385,0.367806509512432,0.370035525017695,0.370786351293153,0.371448738896741,0.360954317313458,0.382029794281038,0.5391419972913,0.454137994658595,0.450531862691376,0.559117405473083,0.33402925390656,0.30311091373416,0.296405818509825,0.297005035633507,0.297317278291329,0.298006738957735,0.297390375560935
0.446109929097938,0.440853242734311,0.445356395516199,0.443519939421782,0.443639060898176,0.445316688357401,0.445648784594622,0.447764093236054,0.44771987390012,0.443218525989086,0.44327267211472,0.446947389174409,0.446980779285217,0.447951799804919,0.446865267550531,0.447241583123687,0.44676780452439,0.448847015748733,0.449430891470152,0.545663898123906,0.445610882306679,0.43895903077255,0.434839413047236,0.431815351930581,0.435839311500609,0.43281976256109,0.431531084771003,0.455627915548955,0.457793760574313,0.456505082784225,0.454950186543104,0.453351070966049,0.447241583123687,0.448203579289117,0.444389887173633,0.442093189011328,0.445490858394857,0.448153945340619,0.446683878029658,0.448708040692939,0.449228745934452,0.448940869033165,0.447842605118224,0.448014970284825,0.523768107352973,0.748294944083758,0.74804948164755,0.462388961769779,0.672368539413581,0.480893400205174,0.472415921801755,0.45293324336324,0.45310290122356,0.471323974934804,0.485586966862208,0.474633205646464,0.497953941956997,0.495317928074052,0.508556655791548,0.506975588923037,0.529780132169193,0.57456619755187,0.575142853789872,0.609049157661838,0.60729753049758,0.55517646996236,0.554404887672077,0.56146915219645,0.581346194916665,0.581294756097313,0.557898215210893,0.608286599725827,0.623734489369186,0.707278351480629,0.663977694811177,0.676775131604756,0.685761583589133,0.644722430100324,0.648430537270821,0.6472898588908,0.635824416787815,0.654004880904834,0.834994622884231,0.695414935354236,0.913237579296113,0.821932772510473,0.741958042513733,0.713383327145855,0.701403496849348,0.692343045159937,0.669284015123302,0.775460957749727,0.798444183210475,0.742488674544946,0.732845249569543,0.725255767626521,0.720631688497383,0.715974219257438,0.74811806674002,0.79574951102476,0.795945339512469,0.773116430509778,0.776860635097364,0.776219003508602,0.774607253835565,0.748257041795814,0.710426046250815,0.71154596861601,0.709347635915273,0.709146392815,0.760333432683034,0.687964428467007,0.68900674138546,0.68923505754855,0.682148232138496,0.676728204962539,0.621466669140552,0.618595119611099,0.619716846847149,0.58897718888934,0.614823841960696,0.614467379966939,0.61210029184131,0.69133141504601,0.5179167160428,0.496609313170422,0.511961544658495,0.470011833823609,0.439273980736654,0.439020396381602,0.429919335097966,0.474226207268783,0.461127357042508,0.407553375469445,0.436822063680865,0.410671289870532,0.400263502088263,0.401908641872108,0.41452559158024,0.392622581325889,0.393820113137826,0.382677742917791,0.382352866163987,0.38051641006957,0.374980871158928,0.374514312043049,0.369788257710634,0.370309865387574,0.36618032087256,0.366858952313838,0.388943352089063,0.368806407965805,0.370007549519451,0.373975558092991,0.374746237947847,0.374321190861621,0.530256618074772,0.606602655218611,0.457722468175561,0.456993300350358,0.335893685499222,0.559014527834379,0.302697598308487,0.303482717130179,0.305792049388466,0.304960003924558,0.306245071972937
0.4552515999758,0.449616793168162,0.44543761470465,0.444449447911831,0.444398009092479,0.447864263568477,0.450920812360513,0.450221424904408,0.450611277008972,0.449677256341787,0.447133290872419,0.451389176347246,0.448997722465081,0.447311070651584,0.446909486886466,0.446544000538437,0.447444631094814,0.44887408881155,0.452066905353097,0.457453542418246,0.448859649844714,0.438559251878287,0.437063916375363,0.436022505892337,0.436142529804159,0.435074046258316,0.435354703676185,0.459827850027294,0.460418945232131,0.460065190544656,0.457981467143177,0.45687508130939,0.451248396420598,0.452123758785013,0.451254713468588,0.449651085714397,0.500897686320629,0.449530159367148,0.451402712878655,0.448736016191184,0.44858711434569,0.449942572357393,0.452514513325005,0.452015466533745,0.598858856817532,0.461191429957842,0.465180194546208,0.463810297567669,0.463340128710081,0.473724453171242,0.473211869848574,0.473377015531757,0.45956163157626,0.496642703281229,0.476825221299211,0.483425634013987,0.497834820480603,0.486278232399468,0.503084287360812,0.573710688766854,0.527147728027957,0.570644213185119,0.612862849777321,0.609570765338778,0.606885117507335,0.601131189223303,0.588675775456645,0.568458514580363,0.558582261264734,0.557405485467624,0.600892043835086,0.594374655179616,0.663365843591513,0.685987192445941,0.689990396001143,0.685484535912973,0.685600950083086,0.672965951666409,0.645592377852176,0.646644617560329,0.640122716727722,0.657909718998468,0.678639563197417,0.699191627617202,0.922298030985523,0.792093745109042,0.742629454471594,0.74514454200729,0.76382676022185,0.873532225368753,0.919076336510305,0.888842042391746,0.87627833637382,0.795748608589332,0.745931465699836,0.744461398388875,0.75173051575523,0.828916720281823,0.737771644566803,0.809000872838237,0.841547206521364,0.807077782942805,0.776051150519137,0.75793836905916,0.74732572843491,0.748444748364678,0.709368391930099,0.757604467951084,0.808408875197972,0.76468407387772,0.733216150530136,0.72929236129253,0.687612478650386,0.689330715703836,0.681370332800222,0.68025582504759,0.630949460609907,0.651084599862311,0.649257168122166,0.610154641060197,0.612343046971235,0.627353255432387,0.616744224549846,0.619466872233806,0.564781090214392,0.563967093459029,0.513430709534029,0.50301660470377,0.483117903533301,0.439264053946955,0.472910456415878,0.460584090915314,0.461462160586011,0.46038014050876,0.454725480121723,0.426620031176005,0.400588378842067,0.399376408063294,0.389516398585356,0.387407406991914,0.396393858976292,0.381681454206126,0.381179700108585,0.375037724590843,0.373545998829629,0.369179113797252,0.367215414307595,0.367331828477708,0.546523919086059,0.389502862053947,0.388408207880715,0.387106895994646,0.376946375519439,0.374472800013396,0.37487889595565,0.375356284296656,0.376133281199503,0.376395889908828,0.456690082046808,0.457823540943411,0.616380543072672,0.400016234781202,0.301833065169199,0.303285986207043,0.306759460166459,0.305711732635443,0.311505368078273
0.457033007509156,0.455220917171274,0.454081141226679,0.451381956863828,0.448261335156459,0.448685479807259,0.452093075980487,0.4550494544401,0.450749349629338,0.451132884685912,0.452014564098318,0.452367416350366,0.45041635095669,0.447185632127199,0.444990006732743,0.44546378533204,0.45810419836128,0.458591513491986,0.457067300055391,0.457546493267251,0.456075523520863,0.438716275642625,0.43915485926026,0.435902481980515,0.436452967591127,0.435915116076496,0.461426063168922,0.458569855041732,0.458475099321873,0.4604974571143,0.46259381461176,0.463711029670674,0.460854821543484,0.451708638488486,0.451966735020675,0.455345453260232,0.455073820196635,0.454456554364408,0.451891832880214,0.455856231712045,0.457114226697607,0.452319587272722,0.454118141079196,0.453536070228631,0.466580774329272,0.468108597507576,0.468465059501333,0.464531343474028,0.463372616385462,0.459096877331236,0.505727520727175,0.471622681061218,0.469299812271522,0.471985460102965,0.459696996890345,0.465861533293768,0.493696251611316,0.547216087058746,0.548732178576496,0.573784688471887,0.556369489597161,0.576062435490221,0.611664415529956,0.605492659643116,0.604214811078155,0.598404931797635,0.581402145913154,0.612852922987621,0.606030511157746,0.592118566611535,0.596732718950973,0.67001498781936,0.667751679767862,0.679364218845485,0.679437316115091,0.744070643848884,0.741703555723254,0.734953338727557,0.724331673749035,0.735362141976094,0.704935629111535,0.705871454649574,0.706920987051445,0.791097456397378,0.73940956486723,0.759935458659625,0.768188230641663,0.76995971138532,0.857653874026603,0.944155017033086,0.891894079006645,0.904718588863041,0.819737147116017,0.821794699890107,0.825165296210819,0.772745529549185,0.769207080239008,0.772716651615514,0.784583677483616,0.807898096746159,0.82527900307465,0.846879697460879,0.833715871883843,0.840783746149925,0.870799650895094,0.804933596367701,0.754241993549217,0.732694542853195,0.835880814473773,0.810754304873349,0.727677904313212,0.766204677572607,0.709956779828654,0.693356480144719,0.663403745879457,0.663228673406574,0.688234256659749,0.628057155065628,0.648255464797938,0.755289721080234,0.753700532292878,0.614129869117155,0.615280474286876,0.623017053204537,0.563703582314277,0.563546558549939,0.591441740041111,0.502700752304238,0.47966879533042,0.511961544658495,0.530116740583551,0.535529548276089,0.53729651684261,0.536444617799303,0.514753679870351,0.396553590046912,0.460414433054995,0.457985979320313,0.446536781055019,0.448356090876319,0.395859617203371,0.409673196288013,0.378189931538165,0.383163253177641,0.381228431621656,0.370109524722729,0.370579693580316,0.377498666000905,0.379985778038357,0.387965112085944,0.387881185591211,0.387720552085164,0.377392178620492,0.373166975950191,0.383042326830392,0.377927322828841,0.377353373897121,0.377518519580304,0.549908954373606,0.644777478661385,0.457814516589139,0.4461451240796,0.405780992290361,0.304893223702943,0.304837272706455,0.304966320972549,0.310742810142262
0.460913479846254,0.455887816951998,0.456091767358553,0.453276168825588,0.456533058282469,0.455966328834167,0.455802988021838,0.457874077327336,0.456626911566901,0.452559635096366,0.452419757605145,0.452958511555203,0.455826451342946,0.459304437479499,0.460597627446723,0.460126556153708,0.460701407520854,0.46355581077719,0.464016955280505,0.456459058577436,0.457575371200922,0.438533081250897,0.438450057191592,0.435987310910675,0.436599162130338,0.439107932618044,0.445704735591111,0.461164356895025,0.459997507887613,0.459624802056167,0.462680448412775,0.46481741550446,0.461050650031193,0.467585184959781,0.457874979762763,0.458261222125619,0.457969735482623,0.457376835406931,0.457945369726088,0.457535664042124,0.456831764408883,0.80887904405556,0.460824138738958,0.462666911881366,0.463462859928185,0.466682749532549,0.46765737979396,0.46786584237765,0.454767894586803,0.505557862866856,0.468486717951586,0.479981940423669,0.489684023701842,0.47750385274049,0.53690215256091,0.551982750985386,0.55048470817618,0.56719781228852,0.573358738950234,0.572484279021246,0.580811050708317,0.575395535709497,0.612741020994644,0.647800637342613,0.646416301397239,0.620764574378165,0.648659755869338,0.646326960289943,0.629434271527585,0.640878957615743,0.702202152202449,0.66653609924738,0.745848441640531,0.746566780240608,0.747212924006506,0.750121473388475,0.75457679709272,0.734976802048666,0.7422883338801,0.747533288583173,1.01588960914377,0.764980072697853,0.765134389155909,0.779005724107895,0.80467640227094,0.811336375723913,0.891532202400325,0.8284023320883,0.827610896218618,0.86893612173786,0.841294524601739,0.876683529880647,0.828162284264657,0.777003219894866,0.79715460298496,0.794805563567875,0.780594010459823,0.801361756946716,0.834432405613066,0.844421463357098,0.854082034605618,0.867509371327405,0.86779815066412,0.887352121501386,0.81069203682887,0.76935959182621,0.816597574264677,0.816045283783211,0.835055086057856,0.775610762030647,0.791972818761793,0.792706498764133,0.745958538762654,0.744796201932378,0.689754860354636,0.695758763252011,0.663715988537279,0.626556404950141,0.752020197527372,0.753588630299901,0.751733223061512,0.751439931547662,0.636728657085902,0.608302843563517,0.610224128588094,0.578910521698566,0.554781203245233,0.552409602942467,0.521875700262067,0.524935858795811,0.556119514983818,0.555365078966652,0.533910579119635,0.536219911377922,0.515462091680728,0.529448035931972,0.469717639874331,0.4738390624705,0.404910142103082,0.448680065194695,0.408857394661795,0.410015219314934,0.409965585366436,0.463864443693303,0.368425580215513,0.36844633623034,0.379640145269727,0.377236057291581,0.379002123422674,0.38390054292169,0.385526731561562,0.381343943356341,0.383951981741042,0.386063680640766,0.385337220121844,0.385691877244746,0.379609462465201,0.381310553245534,0.380756457893213,0.588785872578767,0.419365352776486,0.459599533864204,0.382548694651696,0.301665212179734,0.303379839491475,0.311396173391578,0.309584083053696
0.465300218458029,0.45536891658134,0.460506481468572,0.460273653128347,0.457272152897372,0.457271250461945,0.45717829961294,0.457407518211457,0.455814719682393,0.45682634979632,0.454742626394841,0.460113019622299,0.460367506412779,0.460310652980863,0.458439904340211,0.466135873663646,0.46683887086146,0.464886903032357,0.466006825397552,0.4655610222965,0.464701903769775,0.613173287564289,0.651545744365627,0.626208967310657,0.437542207151796,0.632727258401555,0.633294890285284,0.482814685229751,0.460294409143173,0.46560975380957,0.465746923994509,0.466995894625799,0.467373112634382,0.467154723260992,0.464968122220808,0.458419148325384,0.459055365301583,0.460506481468572,0.45975746006397,0.458317173122107,0.457913784486134,0.463498054909847,0.462247279407703,0.462796862582888,0.463420445463105,0.462398888559478,0.468193426437736,0.483662974531349,0.474135061290632,0.47307289479278,0.516222844745885,0.519468904977639,0.495895486747481,0.528775721538684,0.532678754761463,0.514502802821581,0.548864836584299,0.510556452698294,0.556701585834383,0.61080890674494,0.5771453580029,0.629747416620834,0.63927893960326,0.661807337608683,0.661411168456128,0.648639902289939,0.648629975500239,0.648618243839685,0.646426228186939,0.651243428497504,0.648407073949713,0.688322695331618,0.707241351628113,0.757851735258146,0.753163583213675,0.750669251692805,0.761234063239412,0.784649555269804,0.929463368277746,0.883214455067526,1.05389116498451,1.05957650817608,0.787597811810572,0.798370183505442,0.799424228084449,0.798775377012269,0.863479094709387,0.826481047063723,0.846862551187761,0.847269549565443,0.836376251523324,0.857046534984076,0.855503370403509,0.83445045432161,0.835020793511621,0.835323109379744,0.819380685122261,0.92940019779784,0.854626203168239,0.859857621339904,0.891966273840824,0.894435337169731,0.883746891969593,0.886169028656284,0.834456771369601,0.834159870114041,0.774252596712663,0.775131568818787,0.772905260619805,0.794272224230381,0.789985655951028,0.804532012602583,0.750720690512158,0.760579797554669,0.700560622160313,0.683107520997643,0.688958912307817,0.672578806868126,0.744903591748219,0.817146255004434,0.79199357477662,0.756764300568331,0.767766793297145,0.67744203138548,0.614980865725035,0.581836217353652,0.582634872706753,0.580229882293179,0.577716599628338,0.588151460473423,0.588213728517902,0.592056298567056,0.749469012574587,0.598938271135129,0.599061002353232,0.539194338546079,0.543054054868351,0.477427145729175,0.439807320074149,0.45561347658212,0.455175795399912,0.410109975034793,0.410663167951687,0.433746563744858,0.458223319837675,0.390498248330184,0.376876887991542,0.373538779346211,0.374237264366888,0.373671437354014,0.37401165551008,0.394779401996974,0.383845494360629,0.38346376417491,0.385636828683685,0.38558629229976,0.382698498932617,0.382561328747678,0.382450329190128,0.492381403193839,0.491706381494269,0.363874598355982,0.364735521753561,0.412143162052347,0.483459024124795,0.314215381666251,0.315948960121964
0.467009431157207,0.466690871451394,0.46058228604446,0.458918195116644,0.455532257393669,0.457190031273494,0.458565342864596,0.46061477371984,0.459681655488082,0.465349852406527,0.464789440006216,0.464358978307426,0.459760167370251,0.464519611813474,0.470176979506792,0.467759354997237,0.469918882974604,0.469581372124819,0.469824127254744,0.466677334919986,0.468283669980459,0.472055850066289,0.748324724452856,0.586414272276001,0.748498894490312,0.632404186518606,0.756398814220302,0.452451342845098,0.482521393715901,0.4609017481857,0.463621688563378,0.462533351438136,0.466735993222756,0.467432673372579,0.470430563861844,0.468055353817369,0.460871065381174,0.460463164568065,0.460331408995689,0.458213393047975,0.457644858728819,0.464525026426037,0.472603628370619,0.464431173141605,0.462788740664042,0.461259112614884,0.460714944052263,0.455400501821293,0.482580954454098,0.474644034871591,0.523065110155159,0.5185132258602,0.573418299688431,0.548223204995537,0.585451373675144,0.596035136365723,0.56372524076453,0.537760368652207,0.547898328241733,0.593742047945126,0.57524753629943,0.640626275696118,0.649781483105388,0.648641707160794,0.685104610598108,0.667208413640668,0.647352126935279,0.652794714996916,0.657805036488909,0.660976194580202,0.708204250228969,0.70765647192464,0.774620790366974,0.752224147933926,0.751677272065024,0.778969626690805,0.776481612217926,0.800537833401654,0.803834430017333,0.821340774870209,1.05845748824631,0.896639084483032,0.805337887439101,0.812959857057504,0.812883150046189,0.816162600388751,0.825685099016904,0.898132615115101,0.925718261254733,0.880628977568506,0.88961994173002,0.937810895979644,0.87291044735939,0.901145847006629,0.863414119358626,0.830591640434766,0.926214600739711,0.925483628043653,0.922704126927778,0.925961918820086,0.911261245710474,0.870174263144022,0.88368913610225,0.885713298765532,0.823388400854599,0.859677134254458,0.773192235085665,0.772651676264753,0.773207576487928,0.801229098938913,0.822620428306024,0.791340211527303,0.79216954968493,0.776557416793814,0.775228129409501,0.739464613428291,0.696999611964455,0.686404117613323,0.816160795517896,0.815992942528431,0.815967674336469,0.863242656627452,0.777299218714999,0.710347534368646,0.714509566559041,0.579997956388381,0.589810136788676,0.596304062123038,0.58655144246094,0.5797633231773,0.58129565853274,0.556181783028297,0.600756678521002,0.598367029509691,0.598356200284564,0.530475909883589,0.532093074169189,0.517356303642489,0.455543989054223,0.454911381819733,0.407687838348102,0.407986544474516,0.408048812518995,0.583332455292003,0.482049419987458,0.480875351496629,0.377327203269731,0.377034814191308,0.355222949915107,0.333402963720061,0.436525162425305,0.380895432949007,0.413235108919298,0.411264189946223,0.387972331569362,0.381712137010652,0.382773401073077,0.382401597677058,0.382246378783574,0.42009452060169,0.491733454557086,0.361411852075065,0.370727692990383,0.407565107129999,0.395499545467905,0.315202646023643,0.316825224921807
0.466831651378042,0.466918285179057,0.465434681336687,0.45356585059773,0.454314872002333,0.455366209275058,0.458886609876691,0.466758554108437,0.464580977422526,0.470130955300003,0.464532245909455,0.464992487977343,0.47461515693792,0.472989870733475,0.471660583349162,0.470847489029226,0.472692067042488,0.472995285346038,0.470670611685488,0.471425047702654,0.473241650217672,0.473145992062386,0.473325576712405,0.579406861183543,0.627801765839722,0.576627360067668,0.591408349930304,0.454568456357385,0.563679216557742,0.459102291943799,0.460763675565333,0.471118219657395,0.471111902609404,0.469824127254744,0.47179143648611,0.472449311912563,0.798109379666972,0.742259455946429,0.692957603685882,0.457865052973064,0.469348543784593,0.723542945185634,0.472144288738158,0.530748445382614,0.47917967532886,0.466739602964465,0.464095467162675,0.465685558385458,0.476073492588327,0.535145110784089,0.535379743995169,0.59293888041489,0.592365833918597,0.586244614415681,0.585436032272881,0.585866493971671,0.584751083783612,0.53776939300648,0.538464268285448,0.602603061405119,0.601900064207305,0.660266880334398,0.65182188960636,0.820567387709071,0.862530635075366,0.678237076996872,0.698388460086966,0.691617487076443,0.694091062582486,0.690214199987097,0.714466249658533,0.772884504604979,0.772683261504706,0.770573367475837,0.772964821358002,0.778926309790298,0.776559221664668,0.811042181774636,0.819293148885819,0.842430690804624,0.828688404118733,0.815962259723905,0.900182045970345,0.82191743110821,0.857249582955203,0.92244242065388,0.914852938710858,0.994889936752077,0.984376564024823,0.978321222308095,0.925258019186845,1.00038576850392,1.00066552348636,0.878526303023055,0.84745635369888,0.838895851236156,0.917442928387014,0.922758273053412,0.921639253123644,0.901852453946152,0.909375155667559,0.916973661964854,0.856940047603663,0.826026219608398,0.821013190810124,0.803830820275624,0.792251671308808,0.79409624932207,0.801294976725101,0.80224433879455,0.833483043543617,0.794946343494523,0.772417043053673,0.775115324981097,0.774007134276456,0.720316738533279,0.71163079754617,0.688002330754951,0.683578592290659,0.823429010448824,0.823951520561191,0.948477682729528,0.795970607704432,0.781309641753618,0.712933914303093,0.616027690820624,0.604954808128485,0.60734987175236,0.620037211423816,0.57836454826509,0.622721956819832,0.595167895920153,0.55693712148089,0.58181094916169,0.526243487729871,0.528670136593698,0.51728410880831,0.518195568589814,0.518515030731055,0.453273461519307,0.453440412073345,0.453659703882162,0.453128169415522,0.492418403046355,0.458533757624643,0.479977428246533,0.375267845624787,0.374775115881519,0.334235911619396,0.335146468965474,0.334911835754393,0.381520820700079,0.378636637074645,0.428301268376939,0.395415618973172,0.4028959062295,0.402959979144833,0.396248566872508,0.397383830639966,0.399084018984871,0.660787585575911,0.500812857390469,0.36727587748122,0.371682469672394,0.480479182344074,0.315170158348263,0.315284767647521
