0.679772, 0.678379, 0.674024, 0.668838, 0.671199, 0.670108, 0.670028, 0.680108, 0.680773, 0.68068, 0.909737, 0.705271, 0.704358, 0.704395, 1.00814, 0.672516, 0.673676, 0.674859, 0.673031, 0.674134, 0.676826, 0.674228, 0.676352, 0.674616, 0.674276, 0.674223, 0.67345, 0.672697, 0.672661, 0.670159, 0.667718, 0.669151, 0.6701, 0.661477, 0.66495, 0.665441, 0.665072, 0.665723, 0.664354, 0.663985, 0.66584, 0.664012, 0.665603, 0.666795, 0.665851, 0.666063, 0.665047, 0.665848, 0.66539, 0.665026, 0.666121, 1.03245, 0.836841, 0.68901, 0.690028, 0.679355, 0.679464, 0.68039, 0.681186, 0.742806, 1.09454, 1.14521, 0.684433, 0.685315, 0.923181, 0.670791, 0.673519, 0.763594, 0.687001, 0.691442, 0.69138, 0.834022, 0.666488, 0.662707, 0.662542, 0.704105, 0.704452, 0.704331, 0.719843, 0.685329, 0.717905, 0.815967, 0.793587, 0.892534, 0.893622, 0.939006, 0.947107, 0.98722, 0.995788, 1.03947, 1.08389, 1.03941, 1.03992, 1.04712, 1.08525, 1.05138, 1.08077, 1.04716, 1.06809, 1.05191, 1.06388, 1.07263, 1.07336, 1.09462, 1.136, 1.14842, 1.15499, 1.15724, 1.1764, 1.20031, 1.21726, 1.22589, 1.25451, 1.2551, 1.30282, 1.36438, 1.74894, 1.74128, 1.76917, 1.95452, 1.95442, 1.83935, 1.94878, 1.9281, 2.02354, 2.01928, 1.85713, 1.82826, 1.83808, 1.80201, 1.82492, 1.82369, 1.76813, 1.66261, 1.69937, 1.7001, 1.6933, 1.68939, 1.68025, 1.69893, 1.65746, 1.66096, 2.09441, 2.09579, 1.49622, 1.46956, 1.41999, 1.43704, 1.42258, 1.41732, 1.3891, 1.39526, 1.42026, 1.40666, 1.40524, 1.45861, 1.48996, 1.46178, 1.45479, 1.56081, 1.4282, 1.42651, 1.36029, 1.32802, 1.32303, 1.35771, 1.23967, 1.23878, 1.23811, 1.30825, 1.25069, 1.25813, 1.32354, 1.30661, 1.23636, 1.18685, 1.1286, 1.10561, 1.09549, 1.10139, 1.09117, 1.06899, 1.06732, 1.04764, 1.05078, 1.05619, 1.057, 0.967605, 0.958522, 0.981701, 0.956377, 0.936726, 0.934413, 0.91544, 0.910916, 0.854412, 0.853848, 0.905058, 0.819266, 0.819165, 0.828528, 0.828683, 0.766433, 0.765944, 0.668432, 0.669332, 0.664537, 0.635396, 0.587101, 0.590872, 0.587791, 0.59792, 0.600124, 0.518783, 0.511559, 0.508273, 0.501705, 0.503717, 0.499216, 0.513494, 0.548816, 0.549221, 0.489204, 0.510695, 0.567486, 0.687592, 0.715117, 0.423935, 0.424611, 0.42448, 0.426919, 0.42511, 0.42434, 0.420822, 0.421375, 0.421007, 0.404596, 0.406376, 0.406624, 0.406953, 0.41271, 0.41105, 0.410043, 0.409461, 0.407519, 0.407783, 0.398966, 0.398839, 0.396607, 0.39657, 0.387876, 0.385759, 0.383556, 0.382492, 0.376622, 0.376282, 0.375546, 0.374641, 0.366553, 0.368715, 0.501007, 0.417955, 0.518915, 0.464857, 0.437426, 0.414649, 0.390998, 0.41306, 0.336113, 0.336636
0.778505, 0.869275, 0.668454, 0.666279, 0.664113, 0.669352, 0.765401, 0.680519, 0.679549, 0.684264, 0.684422, 0.705581, 0.706314, 0.704997, 0.704539, 0.821109, 0.675377, 0.67987, 0.679553, 0.678934, 0.678003, 0.680492, 0.679665, 0.679958, 0.67859, 0.677978, 0.677112, 0.679164, 0.679499, 0.672754, 0.67209, 0.672556, 0.670832, 0.668607, 0.669405, 0.669316, 0.667621, 0.667817, 0.667515, 0.667902, 0.669041, 0.668329, 0.668185, 0.669398, 0.669782, 0.66914, 0.667704, 0.668128, 0.665645, 0.662466, 0.662062, 0.660182, 0.797794, 0.689688, 0.690121, 0.689758, 0.689904, 0.69019, 0.696582, 0.696785, 0.69521, 0.828444, 0.687119, 0.681796, 0.681697, 0.681387, 0.687344, 0.686688, 0.687899, 0.687684, 0.691616, 0.693455, 0.662756, 0.664398, 0.663993, 0.666409, 0.686574, 0.685717, 0.686629, 0.680169, 0.710919, 0.73435, 0.855996, 0.869363, 0.895859, 0.909426, 0.909103, 1.00411, 1.00346, 1.02938, 1.05072, 1.06655, 1.06995, 1.07121, 1.08569, 1.06712, 1.06499, 1.0657, 1.0681, 1.07725, 1.07709, 1.11622, 1.11839, 1.15538, 1.1545, 1.1666, 1.28456, 1.19951, 1.2457, 1.24631, 1.2887, 1.28706, 1.34332, 1.33047, 1.3629, 1.38219, 1.44331, 1.75971, 1.75663, 1.76811, 1.99922, 1.91133, 1.82444, 1.83475, 2.02059, 1.84417, 1.78583, 1.78635, 1.80331, 1.75853, 1.7663, 1.76216, 1.74813, 1.70442, 1.66923, 1.69364, 1.63758, 1.70557, 1.61961, 1.61312, 1.58241, 1.58583, 1.65162, 0.00381044, 1.50763, 1.46524, 1.42585, 1.46349, 1.38974, 1.37311, 1.375, 1.37487, 1.37402, 1.3779, 1.38649, 1.38501, 1.43837, 1.43697, 1.45535, 1.44727, 1.44542, 1.38924, 1.39236, 1.30508, 1.29509, 1.36118, 1.24853, 1.2481, 1.22841, 1.22676, 1.22617, 1.26467, 1.26521, 1.22082, 1.1943, 1.15182, 1.10705, 1.15029, 1.07286, 1.1144, 1.04148, 1.01327, 1.0137, 1.06708, 0.997078, 0.982629, 0.991351, 0.991727, 0.956387, 0.898306, 0.898643, 0.8997, 0.909362, 0.896986, 0.896368, 0.893884, 0.89178, 0.890819, 0.888807, 0.84395, 0.838058, 0.773568, 0.78519, 0.786088, 0.671859, 0.679456, 0.653194, 0.584408, 0.585963, 0.575683, 0.604897, 0.590849, 0.597813, 0.57251, 0.556272, 0.531715, 0.503317, 0.506603, 0.490682, 0.49222, 0.493876, 0.499009, 0.498688, 0.519178, 0.519959, 0.6849, 0.714682, 0.420642, 0.421419, 0.422062, 0.434149, 0.434277, 0.420657, 0.420845, 0.420601, 0.720045, 0.403986, 0.405372, 0.405874, 0.405107, 0.410794, 0.411943, 0.413717, 0.41439, 0.414907, 0.414679, 0.408607, 0.40135, 0.40205, 0.396933, 0.397226, 0.38943, 0.384616, 0.38383, 0.38382, 0.374157, 0.374366, 0.373419, 0.56397, 0.515335, 0.648403, 0.75285, 0.490307, 0.487055, 0.762726, 0.42148, 0.420536, 0.38446, 0.385401, 0.33822
0.831415, 0.829517, 0.883992, 0.663763, 0.664819, 0.666781, 0.666513, 1.09444, 0.685302, 0.689184, 0.691811, 0.693434, 0.693811, 0.759583, 0.758964, 0.736756, 0.833126, 0.684279, 0.683365, 0.680917, 0.684069, 0.683151, 0.683173, 0.681896, 0.682895, 0.679776, 0.680044, 0.678595, 0.681741, 0.679048, 0.67829, 0.677742, 0.677719, 0.674943, 0.672971, 0.672336, 0.670579, 0.669449, 0.670696, 0.669273, 0.66996, 0.669994, 0.669575, 0.671834, 0.672277, 0.67207, 0.665963, 0.664382, 0.660561, 0.659117, 0.659105, 0.682873, 0.676712, 0.676296, 0.701473, 0.700806, 0.698095, 1.18473, 0.698202, 0.697515, 0.814446, 0.906196, 0.907671, 0.907711, 0.907133, 0.910303, 0.690105, 0.68987, 0.689915, 0.689029, 0.697561, 0.697979, 0.694758, 0.69386, 0.6602, 0.659579, 0.659125, 0.686761, 0.68895, 0.690806, 0.735459, 0.732298, 0.776968, 0.857921, 0.929221, 0.910482, 0.94042, 1.02333, 1.02401, 1.0224, 1.05453, 1.05189, 1.05289, 1.15841, 1.10458, 1.10586, 1.08323, 1.08164, 1.10854, 1.11672, 1.17158, 1.16114, 1.17257, 1.22583, 1.23564, 1.23653, 1.23739, 1.25476, 1.30277, 1.32634, 1.32301, 1.34489, 1.39562, 1.39279, 1.42686, 1.4261, 1.44431, 1.76161, 1.76583, 1.78187, 1.92015, 1.92126, 1.83543, 1.83082, 1.83401, 1.76476, 1.76464, 1.76304, 1.85833, 1.77347, 1.75907, 1.68693, 1.73606, 1.70563, 1.69335, 1.68979, 1.65754, 1.62108, 1.56965, 1.60872, 1.55509, 1.54726, 1.58283, 1.54479, 1.49441, 1.44528, 1.41233, 1.38002, 1.3744, 1.37586, 1.37493, 1.37988, 1.38624, 1.37941, 1.37972, 1.37066, 1.37193, 1.38569, 1.38461, 1.34061, 1.31391, 1.31256, 1.31548, 1.29698, 1.27062, 1.25983, 1.25311, 1.24277, 1.24117, 1.23316, 1.22358, 1.22445, 1.23917, 1.19624, 1.16847, 1.16745, 1.12539, 1.08346, 1.08373, 1.08486, 1.05329, 1.0412, 1.02438, 0.998979, 0.994728, 1.02343, 1.02681, 0.988707, 0.9493, 0.911241, 0.89723, 0.898097, 0.891328, 0.886661, 0.88765, 0.914726, 0.864496, 0.8645, 0.865258, 0.835629, 0.823395, 0.786868, 0.785052, 0.717639, 0.71771, 0.701759, 0.649477, 0.607952, 0.60776, 0.600025, 0.587655, 0.621039, 0.571459, 0.561865, 0.556066, 0.507164, 0.506087, 0.503696, 0.489653, 0.490145, 0.484725, 0.486946, 0.48769, 0.492074, 0.491195, 0.571366, 0.718484, 0.803987, 0.7042, 0.433742, 0.435175, 0.436064, 0.436034, 0.436927, 0.437527, 0.722513, 0.700367, 0.402277, 0.403308, 0.4042, 0.404787, 0.404741, 0.411896, 0.413777, 0.414892, 0.414318, 0.413835, 1.05398, 0.404426, 0.396975, 0.396238, 0.389626, 0.38993, 0.389376, 0.376274, 0.374467, 0.376664, 0.372639, 0.372871, 0.376509, 0.366237, 0.366567, 0.366411, 0.643362, 0.428311, 0.425695, 1.07907, 0.787073, 0.846768, 0.649325
0.717233, 0.873655, 0.873453, 0.736106, 0.736394, 0.676829, 0.676608, 0.817663, 0.690095, 0.799457, 0.695722, 0.697354, 0.697532, 0.698251, 0.765293, 0.76321, 0.752204, 0.827583, 0.687089, 0.686493, 0.686361, 0.686194, 0.687083, 0.686781, 0.685753, 0.675206, 0.675114, 0.684625, 0.688718, 0.688201, 0.683427, 0.683147, 0.680226, 0.678466, 0.678205, 0.673522, 0.673548, 0.674342, 0.67404, 0.674213, 0.674261, 0.674189, 0.67373, 0.672736, 0.672732, 0.670323, 0.664174, 0.662909, 0.663324, 0.66271, 0.665916, 0.669563, 0.672908, 0.673215, 0.697163, 0.696809, 0.697651, 0.735979, 0.719021, 0.705562, 0.704427, 0.704354, 0.907214, 0.822045, 0.701533, 0.691588, 0.694771, 0.694495, 0.691294, 0.691864, 0.698004, 0.698923, 0.698719, 0.698072, 0.702013, 0.654441, 0.654107, 0.653119, 0.687429, 0.874747, 0.726038, 0.739504, 0.738727, 0.773197, 0.880893, 0.950949, 0.932637, 0.933776, 1.02319, 1.02361, 1.03205, 1.04254, 1.05972, 1.10994, 1.09451, 1.09042, 1.09103, 1.12706, 1.15262, 1.18855, 1.30476, 1.30416, 1.27338, 1.27806, 1.27815, 1.29431, 1.2548, 1.35964, 1.37871, 1.34028, 1.35978, 1.35685, 1.37499, 1.38839, 1.38538, 1.4816, 1.48217, 1.74899, 1.79149, 1.79904, 1.79945, 1.79745, 1.81167, 1.76119, 1.76088, 1.75966, 1.80282, 1.80749, 1.77162, 1.77407, 1.73726, 1.73923, 1.73032, 1.63717, 1.63712, 1.63379, 1.63201, 1.62901, 1.67007, 1.58274, 1.5407, 1.53972, 1.5385, 1.51704, 1.53816, 1.44842, 1.42766, 1.40576, 1.40809, 1.40909, 1.39205, 1.41357, 1.40536, 1.3725, 1.40856, 1.36488, 1.36433, 1.40238, 1.35003, 1.34542, 1.31592, 1.31292, 1.31192, 1.30571, 1.27246, 1.26902, 1.27359, 1.22892, 1.25791, 1.21175, 1.21237, 1.21545, 1.20542, 1.19861, 1.20174, 1.18215, 1.1226, 1.09974, 1.08768, 1.09482, 1.08773, 1.0753, 1.07678, 1.00016, 1.00031, 1.08375, 0.991826, 0.926404, 0.926398, 0.894224, 0.893862, 0.893746, 0.895494, 0.894216, 0.863498, 0.884835, 0.883787, 0.829862, 0.832095, 0.843216, 0.845531, 0.765981, 0.745583, 0.742327, 0.696767, 0.704759, 0.650104, 0.597628, 0.598939, 0.583844, 0.594393, 0.557614, 0.559533, 0.560218, 0.556842, 0.539399, 0.506366, 0.506115, 0.551853, 0.599182, 0.544859, 0.493917, 0.492535, 0.487586, 0.571367, 0.619976, 0.572345, 0.482228, 0.537746, 0.725909, 0.439851, 0.43622, 0.437798, 0.43869, 0.440021, 0.439826, 0.741561, 0.401475, 0.402439, 0.402488, 0.401737, 0.40079, 0.443979, 0.412735, 0.413816, 0.413758, 0.413795, 0.41852, 0.418377, 0.524593, 0.524283, 0.522518, 0.39228, 0.392871, 0.384953, 0.385604, 0.376044, 0.375668, 0.374581, 0.376073, 0.372669, 0.372125, 0.366629, 0.365491, 0.538246, 0.53878, 0.926463, 0.55625, 0.347079, 0.347683
0.936142, 0.938922, 1.14313, 1.14142, 1.14282, 1.43858, 0.745873, 1.44063, 0.690648, 0.692064, 0.703723, 0.705054, 0.702719, 0.702246, 0.7025, 0.715866, 0.716951, 0.826701, 0.687129, 0.688786, 0.689511, 0.690281, 0.687617, 0.689931, 0.689992, 0.690852, 0.690338, 0.690469, 0.694302, 0.69836, 0.687757, 0.687927, 0.687228, 0.684789, 0.682607, 0.679601, 0.677336, 0.679293, 0.680269, 0.677095, 0.677744, 0.67834, 0.678191, 0.676529, 0.675469, 0.674964, 0.676863, 0.66327, 0.664069, 0.663575, 0.663599, 0.670758, 0.676617, 0.678145, 0.691781, 0.70488, 0.712571, 0.715268, 0.715347, 0.706862, 0.707066, 0.70364, 0.73466, 0.708454, 0.706687, 0.697095, 0.698665, 0.698277, 0.698058, 0.700362, 0.699863, 0.701105, 0.702682, 0.701654, 0.702565, 0.693141, 0.690512, 0.774186, 0.774414, 0.742319, 0.752087, 0.739142, 0.873019, 0.859868, 0.95388, 0.952738, 0.907413, 1.01149, 1.01213, 1.05794, 1.05034, 1.05373, 1.05857, 1.08176, 1.08301, 1.08431, 1.09037, 1.14631, 1.15177, 1.1415, 1.17349, 1.17366, 1.3323, 1.32805, 1.32421, 1.40155, 1.40161, 1.39918, 1.4001, 1.34358, 1.34281, 1.35814, 1.36042, 1.39241, 1.44836, 1.76245, 1.76354, 1.75036, 1.77258, 1.77289, 1.99655, 1.87222, 1.86105, 1.75461, 1.75426, 1.75401, 1.77855, 1.83456, 1.98747, 2.0241, 1.79625, 1.72083, 1.65302, 1.63844, 1.63879, 1.63754, 1.63695, 1.63632, 1.6284, 1.6276, 1.62255, 1.6732, 1.54743, 1.5555, 1.48582, 1.48444, 1.45893, 1.44269, 1.47099, 1.41578, 1.43032, 1.42916, 1.41236, 1.40181, 1.38251, 1.33593, 1.3362, 1.3326, 1.3748, 1.31756, 1.31995, 1.31746, 1.31693, 1.31624, 1.33219, 1.28148, 1.26084, 1.2779, 1.22605, 1.2545, 1.24381, 1.20309, 1.19832, 1.18939, 1.1879, 1.16981, 1.10885, 1.10812, 1.1045, 1.10528, 1.11196, 1.1201, 1.12157, 1.02384, 1.0112, 1.00808, 1.00515, 1.00496, 0.980384, 0.894423, 0.876683, 0.894792, 0.870783, 0.871469, 0.901911, 0.820525, 0.821548, 0.821757, 0.806823, 0.807339, 0.775377, 0.776502, 0.739084, 0.734994, 0.719718, 0.716274, 0.646536, 0.646801, 0.639545, 0.586489, 0.579746, 0.565632, 0.555528, 0.554972, 0.523738, 0.555098, 0.507631, 0.502522, 0.502114, 0.500996, 0.545494, 0.493829, 0.496715, 0.496638, 0.698885, 0.556391, 0.708825, 0.717987, 0.446623, 0.446689, 0.442387, 0.442688, 0.437857, 0.441462, 0.440977, 0.440381, 0.839583, 1.00654, 0.397646, 0.399525, 0.399648, 0.399749, 0.741423, 0.411256, 0.413871, 0.415379, 0.415181, 0.420978, 0.420896, 0.421305, 0.410808, 0.544627, 0.392787, 0.392844, 0.387166, 0.387419, 0.373546, 0.373673, 0.375716, 0.375287, 0.373672, 0.373196, 0.36951, 0.367878, 0.367457, 0.669602, 0.931581, 0.567234, 0.345821, 0.347554
0.721478, 0.939529, 0.721351, 0.721083, 0.721769, 1.08485, 0.784744, 1.04623, 1.04974, 0.707259, 0.707267, 0.707127, 0.705771, 0.702244, 0.702178, 0.717962, 0.718018, 0.717636, 0.846456, 0.69029, 0.691475, 0.692116, 0.692627, 0.693995, 0.693376, 0.691398, 0.689352, 0.696494, 0.697313, 0.697708, 0.696839, 0.689019, 0.688039, 0.692729, 0.686885, 0.688559, 0.688499, 0.688542, 0.689602, 0.693573, 0.686698, 0.686658, 0.681279, 0.680472, 0.678526, 0.677576, 0.678113, 0.674806, 0.666435, 0.666154, 0.666082, 0.674236, 0.676272, 0.677631, 0.697122, 0.704013, 0.722834, 0.722128, 0.724442, 0.725438, 0.718171, 0.719087, 0.718425, 0.715304, 0.709859, 0.709041, 0.701196, 0.6996, 0.701169, 0.70414, 0.704705, 0.702027, 0.702211, 0.707377, 0.707134, 0.708908, 0.76983, 0.746436, 0.79048, 0.790071, 0.742089, 0.857087, 0.857467, 0.880446, 0.905084, 0.92424, 0.926077, 1.0024, 1.00512, 1.04015, 1.0312, 1.05585, 1.09047, 1.0896, 1.08354, 1.08317, 1.08434, 1.09397, 1.09286, 1.20857, 1.21042, 1.14635, 1.26785, 1.26114, 1.36111, 1.30502, 1.32668, 1.39547, 1.38865, 1.39979, 1.33996, 1.33637, 1.33829, 1.34763, 1.72609, 1.75157, 1.77834, 1.76916, 1.87897, 1.95891, 1.89968, 1.87391, 1.76629, 1.77841, 1.79972, 1.74172, 1.78952, 1.7982, 2.03067, 1.95258, 1.75573, 1.68537, 1.68539, 1.65761, 1.58862, 1.58844, 1.59408, 1.62298, 1.64367, 1.71382, 1.6156, 1.56408, 1.51612, 1.51432, 1.51365, 1.50426, 1.49761, 1.47872, 1.45104, 1.49269, 1.42536, 1.41662, 1.38923, 1.37975, 1.36178, 1.35369, 1.33269, 1.3331, 1.35393, 1.3174, 1.31778, 1.31877, 1.38465, 1.34176, 1.32273, 1.29444, 1.27219, 1.23269, 1.23349, 1.27374, 1.28094, 1.22352, 1.16415, 1.16363, 1.15185, 1.15125, 1.11443, 1.11479, 1.10898, 1.10584, 1.1159, 1.09277, 1.07078, 1.03883, 1.03872, 1.00964, 1.00956, 1.03281, 0.986779, 0.907898, 0.901626, 0.887745, 0.87777, 0.899174, 0.856449, 0.889296, 0.89079, 0.823898, 0.844483, 0.822625, 0.80294, 0.760012, 0.760953, 0.721785, 0.698036, 0.673317, 0.677198, 0.683159, 0.626767, 0.631957, 0.574273, 0.568119, 0.56967, 0.571049, 0.603867, 0.522717, 0.506405, 0.506982, 0.531751, 0.489771, 0.532517, 0.532779, 0.533106, 0.501148, 0.5024, 0.48576, 0.708369, 0.709101, 0.446968, 0.447313, 0.447894, 0.443028, 0.441545, 0.439078, 0.438922, 0.450003, 0.742219, 0.844205, 0.786634, 0.450382, 0.760755, 0.760525, 0.742925, 0.418054, 0.420639, 0.421351, 0.420892, 0.415955, 0.414423, 0.41358, 0.412392, 0.413101, 0.413607, 0.551586, 0.396791, 0.397801, 0.398437, 0.510402, 0.374069, 0.373404, 0.371904, 0.372992, 0.367911, 0.36847, 0.368664, 0.363601, 0.361648, 0.361669, 0.407465, 0.346655
0.717831, 0.717908, 0.717278, 0.718328, 0.718066, 0.718794, 1.17399, 0.711195, 0.712136, 0.709566, 0.708659, 0.708356, 0.708493, 0.706606, 0.70689, 0.707198, 0.72042, 0.720399, 0.720665, 0.844922, 0.695044, 0.695096, 0.695505, 0.69641, 0.697427, 0.688906, 0.690396, 0.698261, 0.699134, 0.699894, 0.699849, 0.695511, 0.695696, 0.694998, 0.69171, 0.690761, 0.691025, 0.691101, 0.692004, 0.69411, 0.69372, 0.687378, 0.68483, 0.681763, 0.678395, 0.67793, 0.685054, 0.686249, 0.679352, 0.667418, 0.66979, 0.669208, 0.679661, 0.679559, 0.690525, 0.694917, 0.730956, 0.727407, 0.724775, 0.724421, 0.723696, 0.723512, 0.722103, 0.721045, 0.721058, 1.05415, 0.702706, 0.707409, 0.708377, 0.708686, 0.706462, 0.706023, 0.792252, 0.707204, 0.707751, 0.86388, 0.73562, 0.72922, 0.725604, 0.816651, 0.813443, 0.87613, 0.877022, 0.87119, 0.914259, 0.917516, 0.999291, 1.02571, 1.01875, 1.08362, 1.04331, 1.06351, 1.08789, 1.07708, 1.08453, 1.08855, 1.08774, 1.08827, 1.08868, 1.15573, 1.2019, 1.13653, 1.23565, 1.20731, 1.24463, 1.2522, 1.28919, 1.31591, 1.3613, 1.30627, 1.2914, 1.26799, 1.30425, 1.35815, 1.42616, 1.75864, 1.7682, 1.99985, 1.92536, 1.90087, 1.91804, 1.7724, 1.74792, 1.7472, 1.73009, 1.80031, 1.7279, 1.74018, 1.72968, 1.84218, 1.8428, 1.75143, 1.65266, 1.57141, 1.64184, 1.58394, 1.58878, 1.60922, 1.60424, 1.64814, 1.5898, 1.56115, 1.56958, 1.54374, 1.52456, 1.5172, 1.50453, 1.4753, 1.47489, 1.44718, 1.43495, 1.43662, 1.43323, 1.39274, 1.41981, 1.36317, 1.35312, 1.34446, 1.38837, 1.32239, 1.32271, 1.34788, 1.33344, 1.33386, 1.34383, 1.31299, 1.28414, 1.31598, 1.26737, 1.26717, 1.26785, 1.17859, 1.1804, 1.17331, 1.1512, 1.15085, 1.13284, 1.12028, 1.10221, 1.07341, 1.05285, 1.04059, 1.03777, 1.04234, 1.02708, 1.03638, 0.99114, 0.998476, 0.995952, 0.922814, 0.922167, 0.888051, 0.889175, 0.835607, 0.83441, 0.834464, 0.877716, 0.848788, 0.852406, 0.811166, 0.802596, 0.822007, 0.741523, 0.742415, 0.661349, 0.652131, 0.653048, 0.641621, 0.678489, 0.679375, 0.569851, 0.577724, 0.575631, 0.553163, 0.543324, 0.542907, 0.548944, 0.529983, 0.562051, 0.49209, 0.522437, 0.533294, 0.539696, 0.48975, 0.560012, 0.562585, 0.558108, 0.588123, 0.732229, 0.442577, 0.44297, 0.442834, 0.438783, 0.438875, 0.437416, 0.650296, 0.450256, 0.846319, 0.799208, 0.781256, 0.773656, 0.842004, 0.517106, 0.419047, 0.420595, 0.421585, 0.421512, 0.420607, 0.418553, 0.413531, 0.413994, 0.409442, 0.407255, 0.406202, 0.397887, 0.399759, 0.400188, 0.393864, 0.385582, 0.38313, 0.380634, 0.378413, 0.37287, 0.36859, 0.367914, 0.364981, 0.364835, 0.361962, 0.363159, 0.355555
0.720838, 0.718103, 0.717728, 0.720134, 0.719918, 0.715448, 0.715318, 0.713124, 0.712482, 0.712169, 0.712073, 0.711687, 0.708777, 0.708374, 0.707822, 0.708252, 0.90954, 0.933385, 0.74908, 0.748947, 0.787153, 0.699064, 0.699603, 0.699367, 0.698863, 0.698495, 0.698561, 0.698573, 0.698805, 0.698239, 0.70046, 0.701197, 0.701558, 0.694884, 0.690674, 0.69061, 0.691, 0.692862, 0.692649, 0.686913, 0.686527, 0.688084, 0.691979, 0.691882, 0.691474, 0.688676, 0.688014, 0.690674, 0.690414, 0.693416, 0.769944, 0.860053, 0.855653, 0.855471, 0.705476, 0.705509, 0.705626, 0.800954, 0.764056, 0.729095, 0.729365, 0.728452, 0.723389, 0.720608, 0.71908, 0.718041, 0.716501, 0.713956, 0.713341, 0.716617, 0.718684, 0.714777, 0.724513, 0.721528, 0.721084, 0.804704, 0.741849, 0.742779, 0.733796, 0.78852, 0.787437, 0.890532, 0.843302, 0.844042, 0.894052, 0.904051, 0.957208, 0.993345, 1.07547, 1.02148, 1.06555, 1.06419, 1.12961, 1.08981, 1.08433, 1.08827, 1.0881, 1.15645, 1.0868, 1.08594, 1.14057, 1.15688, 1.15719, 1.17198, 1.20705, 1.19836, 1.21695, 1.22473, 1.27535, 1.26004, 1.29881, 1.24891, 1.27913, 1.34424, 1.36182, 1.74775, 1.78307, 1.77827, 1.95885, 1.90788, 1.88573, 1.70185, 1.79341, 1.82159, 1.75797, 1.75337, 1.91038, 2.00241, 1.92421, 1.86733, 1.8215, 1.82443, 1.57365, 1.57152, 1.57129, 1.57075, 1.63238, 1.57463, 1.57209, 1.57879, 1.5695, 1.5696, 1.56129, 1.55641, 1.53265, 1.52125, 1.5169, 1.48175, 1.50424, 1.47529, 1.43021, 1.42841, 1.42535, 1.42382, 1.42101, 1.43416, 1.48675, 1.35892, 1.34675, 1.34239, 1.32878, 1.34382, 1.35721, 1.36188, 1.3638, 1.262, 1.26141, 1.22396, 1.22354, 1.25673, 1.2578, 1.16729, 1.17586, 1.24798, 1.16061, 1.13657, 1.09931, 1.09773, 1.08409, 1.0561, 1.05436, 1.00909, 0.998388, 1.00536, 0.933204, 0.934193, 0.937078, 0.934293, 0.9138, 0.908203, 0.901997, 0.901525, 0.867802, 0.88212, 0.825821, 0.82549, 0.8739, 0.847367, 0.845795, 0.787041, 0.750678, 0.751306, 0.750493, 0.672786, 0.670482, 0.676695, 0.666672, 0.628407, 0.590065, 0.608765, 0.604141, 0.605535, 0.557133, 0.542246, 0.541605, 0.54152, 0.528719, 0.522379, 0.542899, 0.511629, 0.507686, 0.555637, 0.522285, 0.521491, 0.517284, 0.519844, 0.518984, 0.741308, 0.743066, 0.596916, 0.451269, 0.438926, 0.439782, 0.440038, 0.438339, 0.435657, 0.435715, 0.846713, 0.845296, 0.448967, 0.449789, 0.805095, 0.80787, 0.421284, 0.422522, 0.423123, 0.424111, 0.423611, 0.417524, 0.413819, 0.41363, 0.410861, 0.410449, 0.404037, 0.399475, 0.396978, 0.395298, 0.393594, 0.393148, 0.38241, 0.38303, 0.382768, 0.371898, 0.368391, 0.368905, 0.375902, 0.374927, 0.694045, 0.36165, 0.348105
0.726062, 0.724751, 0.722539, 0.721874, 0.721506, 0.721363, 0.718182, 0.71612, 0.713571, 0.713262, 0.712675, 0.713699, 0.710921, 0.709774, 0.710829, 0.709734, 0.709677, 0.936961, 0.743976, 0.745112, 1.01343, 0.700075, 0.700743, 0.700055, 0.703545, 0.701551, 0.70004, 0.698866, 0.698083, 0.697472, 0.698402, 0.704059, 0.703744, 0.703824, 0.694135, 0.68927, 0.689813, 0.688478, 0.691135, 0.693576, 0.693299, 0.694765, 0.700072, 0.700714, 0.700271, 0.700241, 0.700238, 0.699337, 0.698234, 0.888114, 0.9265, 0.696984, 0.698739, 0.696248, 0.695579, 0.70858, 0.707319, 0.714723, 0.716649, 0.717089, 0.728141, 0.764011, 0.722562, 0.721044, 0.72092, 0.721835, 0.721532, 0.713174, 0.717812, 0.717821, 0.717471, 1.05861, 0.729229, 1.07361, 0.914089, 0.798499, 0.743966, 0.742793, 0.742793, 0.777919, 0.778351, 0.891211, 0.822303, 0.888144, 0.957908, 0.920792, 0.927251, 0.926677, 0.981986, 1.00403, 1.03231, 1.03693, 1.03649, 1.07216, 1.08109, 1.08093, 1.10463, 1.10386, 1.1115, 1.09087, 1.08909, 1.08872, 1.09554, 1.15557, 1.16792, 1.18159, 1.18105, 1.19658, 1.20055, 1.21958, 1.24705, 1.26753, 1.27012, 1.35762, 1.42055, 1.67101, 1.71054, 1.74367, 1.73847, 1.73834, 1.78348, 1.72721, 1.77485, 1.70688, 1.72499, 1.74531, 1.8409, 1.85025, 1.91191, 1.94878, 1.94847, 1.78587, 0.00549336, 1.60616, 1.61111, 1.59954, 1.5549, 1.56224, 1.55071, 1.54124, 1.5492, 1.55951, 1.56424, 1.54541, 1.55789, 1.54339, 1.51704, 1.48394, 1.47622, 1.44932, 1.43686, 1.41462, 1.4307, 1.43365, 1.43433, 1.4232, 1.48423, 1.32568, 1.3252, 1.30676, 1.31259, 1.3283, 1.29974, 1.29145, 1.2918, 1.26091, 1.24688, 1.25467, 1.20884, 1.1788, 1.17729, 1.16728, 1.25007, 1.16281, 1.15379, 1.1547, 1.15659, 1.09117, 1.06493, 1.06355, 1.06373, 1.0191, 0.980675, 0.939458, 0.910586, 0.92171, 0.919, 0.918514, 0.900065, 0.900899, 0.901236, 0.88256, 0.88192, 0.831695, 0.845749, 0.896203, 0.812754, 0.812543, 0.805333, 0.805559, 0.738119, 0.75591, 0.729518, 0.681468, 0.70084, 0.653753, 0.665946, 0.671678, 0.609217, 0.609016, 0.607539, 0.607685, 0.598859, 0.619542, 0.619628, 0.557464, 0.521732, 0.520504, 0.531069, 0.497101, 0.503221, 0.541966, 0.52219, 0.515051, 0.514959, 0.514601, 0.514551, 0.724104, 0.738978, 0.474386, 0.473945, 0.469058, 0.439615, 0.438807, 0.440939, 0.438982, 0.440975, 0.441489, 0.438093, 0.43691, 0.437718, 0.43731, 0.798181, 0.788274, 0.423388, 0.424905, 0.425772, 0.415882, 0.416984, 0.41663, 0.415348, 0.413556, 0.412548, 0.411057, 0.403382, 0.399952, 0.394389, 0.394369, 0.394017, 0.387937, 0.388986, 0.379906, 0.37745, 0.377869, 0.378433, 0.379065, 0.378317, 0.997808, 0.368535, 0.350204
0.725707, 0.72459, 0.724849, 0.72285, 0.722707, 0.723316, 0.72588, 0.722716, 0.720912, 0.719332, 0.717486, 0.713362, 0.711903, 0.711726, 0.710838, 0.71101, 0.937035, 0.912597, 0.733647, 0.73361, 0.733762, 0.852709, 0.70368, 0.703069, 0.703956, 0.704143, 0.704355, 0.699074, 0.697719, 0.697998, 0.69862, 0.704271, 0.704256, 0.703751, 0.69146, 0.691068, 0.691103, 0.691448, 0.693058, 0.703568, 0.704687, 0.704667, 0.703103, 0.700876, 0.700877, 0.700278, 0.700886, 0.703823, 0.704412, 0.703713, 0.739931, 0.698185, 0.697538, 0.694732, 0.693764, 1.05645, 0.967499, 0.860189, 0.71721, 0.718124, 0.717646, 0.717001, 0.715222, 0.719319, 0.720982, 0.721392, 0.725819, 0.725535, 0.719967, 0.724159, 0.724244, 0.736651, 0.740082, 1.07703, 0.809276, 0.855285, 0.760139, 0.762933, 0.759283, 0.771295, 0.7797, 0.767602, 0.814626, 0.808309, 0.808041, 0.898308, 0.964604, 0.929773, 0.987746, 0.980219, 0.980097, 1.04019, 1.04137, 1.06217, 1.07419, 1.05884, 1.07957, 1.12591, 1.09817, 1.08195, 1.08137, 1.08181, 1.10164, 1.13931, 1.14787, 1.16709, 1.1745, 1.17385, 1.20891, 1.20889, 1.23462, 1.29982, 1.37834, 1.35366, 1.42792, 1.62513, 1.71728, 1.68823, 1.75143, 1.74602, 1.73714, 1.66768, 1.72097, 1.65755, 1.64672, 1.73483, 1.7984, 1.80995, 1.79648, 1.76848, 1.84541, 1.79367, 1.75891, 1.68648, 1.62481, 1.61772, 1.61729, 1.62283, 1.53591, 1.5267, 1.51686, 1.57149, 1.54425, 1.55898, 1.64654, 1.64619, 1.56576, 1.54725, 1.49088, 1.46544, 1.41215, 1.40599, 1.40222, 1.39202, 1.38621, 1.35434, 1.33664, 1.3185, 1.30936, 1.30015, 1.25655, 1.26189, 1.22276, 1.26787, 1.31305, 1.23623, 1.22406, 1.21177, 1.22944, 1.17631, 1.17376, 1.17007, 1.17067, 1.15403, 1.15929, 1.16001, 1.08113, 1.1245, 1.12536, 1.09795, 1.06578, 1.00916, 1.00952, 1.02166, 1.03274, 0.929684, 0.930317, 0.974749, 0.885162, 0.873781, 0.873852, 0.873016, 0.870485, 0.885014, 0.846907, 0.815178, 0.778389, 0.797764, 0.769967, 0.73938, 0.732184, 0.764793, 0.708905, 0.696162, 0.679861, 0.667402, 0.663771, 0.586564, 0.59067, 0.592555, 0.58738, 0.625559, 0.568596, 0.565798, 0.611613, 0.567778, 0.560158, 0.559443, 0.538121, 0.537787, 0.541044, 0.541549, 0.517507, 0.51358, 0.514434, 0.515035, 0.493699, 0.493956, 0.749874, 0.74721, 0.470305, 0.464468, 0.465089, 0.464217, 0.618675, 0.440366, 0.440415, 0.442996, 0.441655, 0.441379, 0.43852, 0.438509, 0.438958, 0.437588, 0.877636, 0.57628, 0.57209, 0.581479, 0.413901, 0.412708, 0.41375, 0.413729, 0.413731, 0.414064, 0.414526, 0.401684, 0.398742, 0.39627, 0.39555, 0.393572, 0.388375, 0.386237, 0.383736, 0.37887, 0.379193, 0.379146, 0.379102, 0.373475, 0.372842, 0.372616
0.740578, 0.743264, 0.736299, 0.72501, 0.726083, 0.726219, 0.729197, 0.730141, 0.729425, 0.72167, 0.720839, 0.716389, 0.714254, 0.714234, 0.713378, 0.714501, 0.714505, 0.71505, 0.734912, 0.73426, 0.733249, 0.859583, 0.702356, 0.704932, 0.703919, 0.703513, 0.701417, 0.700425, 0.700936, 0.70042, 0.69874, 0.705943, 0.706361, 0.706633, 0.706337, 0.690404, 0.690705, 0.691066, 0.703525, 0.705015, 0.705318, 0.70516, 0.705641, 0.705727, 0.703736, 0.704129, 0.706621, 0.707286, 0.706648, 0.706554, 0.70071, 0.700903, 0.692608, 0.692721, 0.881957, 0.873744, 0.865886, 0.715691, 0.715465, 0.715937, 0.715377, 0.714662, 0.715345, 0.714852, 0.715123, 0.719291, 0.725546, 0.728168, 0.727817, 0.727783, 0.728523, 0.972918, 0.74717, 0.748215, 0.747201, 0.922561, 0.789859, 0.78749, 0.773741, 0.773749, 0.753511, 0.760045, 0.762389, 0.880155, 0.846676, 0.848434, 0.943784, 0.933285, 0.988038, 0.984257, 0.983781, 1.03719, 1.02845, 1.05785, 1.07085, 1.04349, 1.05237, 1.06089, 1.06508, 1.09009, 1.0805, 1.08066, 1.1163, 1.11996, 1.1535, 1.16764, 1.17058, 1.17554, 1.21539, 1.20966, 1.26046, 1.30968, 1.34981, 1.35002, 0.00431433, 1.65558, 1.68816, 1.79012, 1.66577, 1.66623, 1.59334, 1.57883, 1.57917, 1.56827, 1.55874, 1.63749, 1.57589, 1.62841, 1.64025, 1.6342, 1.61031, 1.77494, 1.80623, 1.63695, 1.63744, 1.57832, 1.51252, 1.54163, 1.52404, 1.51694, 1.51768, 1.5166, 1.5092, 1.54287, 1.47862, 1.4684, 1.46508, 1.43677, 1.40612, 1.39872, 1.40221, 1.37461, 1.37036, 1.3403, 1.34047, 1.33042, 1.32751, 1.31039, 1.32371, 1.28729, 1.29314, 1.23655, 1.22754, 1.2205, 1.21983, 1.24193, 1.22329, 1.21601, 1.19862, 1.19148, 1.18268, 1.1812, 1.15717, 1.15636, 1.26175, 1.11251, 1.11923, 1.11857, 1.10276, 1.06362, 1.07071, 1.02639, 1.00116, 0.943335, 0.967454, 0.964257, 0.942937, 0.862618, 0.861873, 0.861532, 0.862474, 0.875389, 0.876469, 0.876942, 0.842279, 0.790981, 0.799215, 0.800682, 0.772048, 0.746902, 0.693125, 0.666233, 0.65665, 0.653274, 0.62361, 0.621713, 0.593494, 0.591298, 0.584232, 0.577934, 0.57054, 0.593329, 0.579699, 0.579863, 0.598899, 0.585873, 0.56559, 0.50512, 0.497304, 0.487234, 0.532729, 0.523854, 0.502146, 0.50338, 0.496754, 0.496201, 0.4929, 0.49057, 0.488354, 0.486597, 0.486393, 0.462359, 0.48391, 0.472699, 0.618519, 0.479745, 0.65264, 0.44411, 0.719417, 0.446233, 0.438867, 0.439622, 0.440051, 0.440997, 0.443419, 0.444673, 0.445564, 0.893386, 0.721451, 0.721181, 0.525127, 0.413919, 0.413579, 0.413663, 0.413583, 0.677048, 0.684417, 0.394174, 0.395435, 0.395116, 0.393168, 0.385045, 0.381639, 0.380664, 0.38147, 0.378876, 0.377026, 0.375657, 0.37265, 0.372334
0.738951, 0.7378, 0.733253, 0.734716, 0.734033, 0.728333, 0.72978, 0.731641, 0.730024, 0.726196, 0.725133, 0.723741, 0.719913, 0.720052, 0.721017, 0.71965, 0.723496, 0.728555, 0.729423, 0.728415, 0.728525, 0.863566, 0.78388, 0.863853, 0.698745, 0.697278, 0.69539, 0.694837, 0.701248, 0.700385, 0.705182, 0.707371, 0.707386, 0.707229, 0.706165, 0.705484, 0.699206, 0.700264, 0.704563, 0.705203, 0.705761, 0.705969, 0.705471, 0.707392, 0.706443, 0.706718, 0.707405, 0.707116, 0.701702, 0.702358, 0.70259, 0.702755, 0.704521, 0.705287, 0.707673, 0.707299, 0.710863, 0.718939, 0.718379, 0.715591, 0.714953, 0.715871, 0.71709, 0.717771, 0.718023, 0.717912, 0.719519, 0.728063, 0.728896, 0.729016, 0.726703, 0.973172, 0.749315, 0.748929, 0.748642, 0.749025, 0.898599, 0.893854, 0.952461, 0.792431, 0.771362, 0.781698, 0.836174, 0.822219, 0.816098, 0.870411, 0.957325, 0.959051, 0.986147, 1.00837, 1.0076, 1.01474, 1.06704, 1.08008, 1.07362, 1.07485, 1.06773, 1.05153, 1.06745, 1.06352, 1.08293, 1.12492, 1.16075, 1.1536, 1.16346, 1.17341, 1.19598, 1.21637, 1.21659, 1.2551, 1.27915, 1.34305, 1.37653, 1.44433, 1.3987, 1.69552, 1.61349, 1.65813, 1.66548, 1.60331, 1.61555, 1.57202, 1.57439, 1.51776, 1.53743, 1.54274, 1.56043, 1.61394, 1.62466, 1.61775, 1.58283, 1.58456, 1.5847, 1.60931, 1.57165, 1.55426, 1.52671, 1.49203, 1.49057, 1.56492, 1.56414, 1.49547, 1.47936, 1.5722, 1.41306, 1.42591, 1.38818, 1.39553, 1.37279, 1.35371, 1.34367, 1.32964, 1.33642, 1.34301, 1.34287, 1.34192, 1.34655, 1.28024, 1.27899, 1.27807, 1.26806, 1.23952, 1.22627, 1.21904, 1.21069, 1.21046, 1.21145, 1.21196, 1.21337, 1.24638, 1.15831, 1.14221, 1.14407, 1.18147, 1.17851, 1.19895, 1.18522, 1.18004, 1.1397, 1.1386, 1.05137, 1.04394, 1.04282, 0.989128, 0.936699, 0.898515, 0.898149, 0.879149, 0.872285, 0.86033, 0.859869, 0.863902, 0.86592, 0.85113, 0.80441, 0.811974, 0.814225, 0.766301, 0.740384, 0.729349, 0.71074, 0.645365, 0.646818, 0.629434, 0.614483, 0.607786, 0.589774, 0.591052, 0.580739, 0.56039, 0.552508, 0.609809, 0.567367, 0.565685, 0.573738, 0.594201, 0.521074, 0.55571, 0.514829, 0.482087, 0.517542, 0.509982, 0.509852, 0.510436, 0.509894, 0.490148, 0.490687, 0.49018, 0.488498, 0.487496, 0.487566, 0.486549, 0.482244, 0.482139, 0.479128, 0.476703, 0.471285, 0.471297, 0.445734, 0.445769, 0.445918, 0.442808, 0.443565, 0.44188, 0.443016, 0.446151, 0.446912, 0.448581, 0.449138, 0.571057, 0.455838, 0.456402, 0.757433, 0.51387, 0.618193, 0.428484, 0.617655, 0.530504, 0.604585, 0.608969, 0.399617, 0.398352, 0.392008, 0.384652, 0.385372, 0.385175, 0.374137, 0.37552, 0.374149, 0.372428
0.736103, 0.733814, 0.734026, 0.735788, 0.738125, 0.737957, 0.736074, 0.733413, 0.732638, 0.72811, 0.721286, 0.720564, 0.72263, 0.724697, 0.72498, 0.72493, 0.725227, 0.722461, 0.725962, 0.729406, 0.728349, 0.726733, 0.862778, 0.707863, 0.700456, 0.700261, 0.697784, 0.697174, 0.697591, 0.696657, 0.708378, 0.708214, 0.707776, 0.705489, 0.7086, 0.709269, 0.702364, 0.705481, 0.704757, 0.702574, 0.704344, 0.707135, 0.705527, 0.705212, 0.705769, 0.705546, 0.707527, 0.707095, 0.702174, 0.705898, 0.706848, 0.706984, 0.707008, 0.712546, 0.707594, 0.70745, 1.05586, 0.726065, 0.725912, 0.723048, 0.72226, 0.721309, 0.714804, 0.715408, 0.7166, 0.714579, 0.724247, 0.727592, 0.725509, 0.72452, 0.726677, 0.861153, 0.745712, 0.748464, 0.749658, 0.751624, 0.75935, 0.859742, 0.790993, 0.76677, 0.773019, 0.796867, 0.824298, 0.827865, 0.882136, 0.88237, 0.929858, 0.903778, 0.980491, 1.01472, 1.0156, 1.01517, 1.02992, 1.02904, 1.08496, 1.14978, 1.02584, 1.09594, 1.04576, 1.07782, 1.08761, 1.12432, 1.15287, 1.17883, 1.15097, 1.18822, 1.27759, 1.2916, 1.29569, 1.26401, 1.29537, 1.43797, 1.4403, 1.34598, 1.44158, 1.3855, 1.42732, 1.52271, 1.59057, 1.56766, 1.53396, 1.48986, 1.59027, 1.49363, 1.50713, 1.53366, 1.79064, 1.79556, 1.82229, 1.82983, 1.5791, 1.57129, 1.56286, 1.58209, 1.62568, 1.61928, 1.50101, 1.5006, 1.48922, 1.48746, 1.50297, 1.48282, 1.46859, 1.4586, 1.41066, 1.39307, 1.38942, 1.37213, 1.40212, 1.40003, 1.39922, 1.40747, 1.32737, 1.38193, 1.34094, 1.34078, 1.26399, 1.26408, 1.2821, 1.25671, 1.25832, 1.25807, 1.29503, 1.21915, 1.20592, 1.19561, 1.19814, 1.19825, 1.16852, 1.17282, 1.1428, 1.1509, 1.13314, 1.13414, 1.1209, 1.11952, 1.12903, 1.08522, 1.07467, 1.06667, 1.07018, 1.05331, 1.05924, 0.941646, 0.916386, 0.918009, 0.922147, 0.862486, 0.862927, 0.870871, 0.847779, 0.856555, 0.857619, 0.928731, 0.83243, 0.817609, 0.808358, 0.768716, 0.73241, 0.690591, 0.691859, 0.649303, 0.705181, 0.632521, 0.660019, 0.593421, 0.59367, 0.594683, 0.563879, 0.574601, 0.547162, 0.547592, 0.543331, 0.562027, 0.572749, 0.511158, 0.522558, 0.552435, 0.541263, 0.51038, 0.511178, 0.52096, 0.513184, 0.510991, 0.510283, 0.509636, 0.506873, 0.502095, 0.4997, 0.486931, 0.486302, 0.486512, 0.48594, 0.485917, 0.477926, 0.477954, 0.477501, 0.478835, 0.47562, 0.47458, 0.657553, 0.443581, 0.448208, 0.446564, 0.445908, 0.451107, 0.45194, 0.453299, 0.452108, 0.45185, 0.453398, 0.456804, 0.572577, 0.576709, 0.586933, 0.440116, 0.443332, 0.705272, 0.607517, 0.418439, 0.397644, 0.399702, 0.397868, 0.397174, 0.393166, 0.388074, 0.374626, 0.375612, 0.375444, 0.366422
0.738818, 0.738937, 0.738573, 0.738341, 0.738581, 0.739731, 0.972194, 0.73863, 0.732693, 0.732196, 0.727971, 0.728558, 0.727848, 0.727065, 0.725208, 0.725482, 0.728894, 0.729031, 0.726478, 0.729627, 0.729028, 0.726748, 0.718491, 0.871238, 0.885942, 0.919559, 0.69835, 0.698179, 0.697015, 0.700418, 0.710502, 0.709466, 0.714472, 0.714512, 0.714061, 0.709919, 0.711239, 0.711513, 0.715551, 0.695195, 0.695564, 0.697808, 0.706625, 0.707484, 0.722809, 0.719817, 0.718361, 0.709095, 0.708822, 0.708439, 0.707795, 0.70725, 0.714047, 0.717213, 0.721875, 0.723225, 0.726099, 0.727069, 1.08458, 0.737053, 0.732763, 0.734352, 0.908231, 0.730824, 0.720342, 0.721149, 0.720903, 1.01199, 0.718715, 0.798608, 0.738649, 0.741977, 0.745221, 0.746501, 0.751439, 0.750501, 0.881439, 0.776428, 0.77669, 0.774399, 0.778667, 0.776895, 0.819012, 0.835621, 0.856198, 0.844028, 0.85597, 0.878403, 0.904155, 0.959589, 0.943342, 0.942171, 0.960159, 0.960385, 1.03742, 1.00299, 1.00507, 1.02959, 1.04017, 1.04207, 1.11522, 1.06672, 1.09926, 1.13556, 1.16045, 1.16049, 1.32977, 1.20544, 1.26831, 1.23638, 1.24663, 1.28559, 1.28815, 1.29847, 1.35171, 1.3534, 1.37775, 1.37498, 1.36032, 1.38018, 1.46806, 1.4605, 1.4711, 1.48256, 1.50497, 1.49509, 1.77055, 1.77585, 1.79461, 1.68552, 1.59244, 1.57195, 1.55866, 1.48565, 1.48504, 1.55505, 1.54028, 1.5206, 1.52283, 1.48187, 1.45998, 1.48798, 1.44795, 1.41989, 1.41791, 1.38216, 1.3826, 1.38423, 1.32792, 1.30375, 1.30381, 1.3042, 1.31616, 1.32273, 1.34784, 1.32308, 1.33675, 1.30684, 1.30305, 1.29484, 1.31158, 1.24958, 1.24012, 1.22366, 1.18211, 1.23165, 1.16368, 1.27271, 1.14578, 1.14291, 1.10475, 1.10422, 1.07039, 1.1178, 1.05971, 1.0519, 1.04977, 1.07085, 1.06771, 1.06492, 1.07026, 1.07025, 1.01262, 1.00762, 1.00817, 0.920034, 0.929392, 0.873896, 0.857397, 0.854592, 0.910082, 0.904923, 0.904845, 0.794335, 0.783604, 0.819513, 0.780724, 0.780006, 0.761236, 0.715361, 0.730632, 0.645312, 0.636041, 0.665288, 0.681387, 0.604075, 0.596711, 0.598132, 0.576928, 0.587003, 0.573377, 0.552596, 0.571436, 0.58436, 0.5847, 0.508869, 0.504136, 0.503068, 0.502169, 0.505262, 0.505949, 0.506789, 0.506665, 0.510143, 0.510773, 0.510926, 0.497432, 0.498808, 0.500087, 0.500076, 0.499709, 0.489791, 0.489098, 0.489223, 0.478282, 0.478228, 0.477881, 0.479736, 0.482437, 0.481328, 0.525217, 0.600778, 0.451512, 0.452684, 0.451502, 0.453705, 0.45417, 0.454145, 0.455572, 0.452397, 0.453105, 0.441715, 0.441544, 0.441709, 0.437737, 0.438813, 0.433136, 0.624823, 0.412096, 0.407349, 0.406653, 0.405044, 0.396603, 0.393183, 0.393588, 0.392756, 0.39236, 0.390453, 0.389642, 0.666719
0.733949, 0.738385, 0.742055, 0.742214, 0.741344, 0.741184, 0.784035, 0.949987, 0.732865, 0.734216, 0.736364, 0.732836, 0.733863, 0.731795, 0.732258, 0.736188, 0.734505, 0.73362, 0.730159, 0.729612, 0.728856, 0.728013, 0.726973, 0.722896, 0.722975, 0.850094, 0.961981, 0.714488, 0.713992, 0.716497, 0.719371, 0.719705, 0.719137, 0.717556, 0.717717, 0.717257, 0.716059, 0.715284, 0.717916, 0.928786, 0.911588, 0.710378, 0.722989, 0.723259, 0.724537, 0.724321, 0.728433, 0.709499, 0.70877, 0.708516, 0.707858, 0.707824, 0.715233, 0.713971, 0.718526, 0.726487, 0.726529, 0.985432, 0.970158, 0.73857, 0.739086, 0.873314, 0.905182, 0.742887, 0.721696, 0.721505, 0.711387, 0.711506, 0.710436, 0.795984, 0.743852, 0.743192, 0.743113, 0.742315, 0.839757, 0.753121, 0.754776, 0.883881, 0.775581, 0.774558, 0.774337, 0.783704, 0.78943, 0.83403, 0.835252, 0.833826, 0.845154, 0.844237, 0.884165, 0.884055, 0.904389, 0.915547, 1.02682, 0.969836, 0.970468, 0.99683, 1.00408, 1.017, 1.01665, 1.0351, 1.0663, 1.06383, 1.08104, 1.12606, 1.13803, 1.20132, 1.16329, 1.1834, 1.2044, 1.21042, 1.21153, 1.2272, 1.27157, 1.27171, 1.27104, 1.39936, 1.31329, 1.35152, 1.36564, 1.41453, 1.44211, 1.45642, 1.46778, 1.45869, 1.47067, 1.46795, 1.48968, 1.49528, 1.49648, 1.54504, 1.57457, 1.58335, 1.50387, 1.51445, 1.52103, 1.49559, 1.45961, 1.44086, 1.43277, 1.43107, 1.46531, 1.56527, 1.58052, 1.46612, 1.42082, 1.4154, 1.3717, 1.37059, 1.36522, 1.32195, 1.30584, 1.30687, 1.29909, 1.33992, 1.36467, 1.4158, 1.46483, 1.46388, 1.49863, 1.27429, 1.27504, 1.27552, 1.21859, 1.18158, 1.17862, 1.16532, 1.16475, 1.25177, 1.1432, 1.10831, 1.1267, 1.10902, 1.08103, 1.05396, 1.03984, 1.03784, 1.02285, 1.06148, 1.04654, 1.00829, 1.02407, 0.995103, 0.994436, 1.02432, 1.02044, 0.911534, 0.921313, 0.874397, 0.859946, 0.824795, 0.852414, 0.794669, 0.795398, 0.771751, 0.773243, 0.755463, 0.756263, 0.772976, 0.718397, 0.697362, 0.687872, 0.687772, 0.647597, 0.646875, 0.631852, 0.605929, 0.638782, 0.577453, 0.601774, 0.61225, 0.577334, 0.57022, 0.525402, 0.525565, 0.528112, 0.507635, 0.514831, 0.516025, 0.517015, 0.5173, 0.50899, 0.502027, 0.503234, 0.503711, 0.506711, 0.506683, 0.506868, 0.496678, 0.497059, 0.497124, 0.499037, 0.498709, 0.490226, 0.492061, 0.490772, 0.481056, 0.479146, 0.479505, 0.48271, 0.483836, 0.48342, 0.450598, 0.45108, 0.452259, 0.451629, 0.451492, 0.451749, 0.455123, 0.451021, 0.448625, 0.445318, 0.439537, 0.442279, 0.442318, 0.439236, 0.439184, 0.432345, 0.431844, 0.408942, 0.409351, 0.404819, 0.404807, 0.405393, 0.391575, 0.393263, 0.391511, 0.392268, 0.388376, 0.386984, 0.385547
0.990319, 0.988804, 0.744157, 0.745044, 0.745531, 0.743428, 0.74598, 0.74758, 0.747329, 0.745281, 0.741617, 0.740618, 0.742011, 0.739071, 0.737802, 0.737083, 0.737299, 0.736649, 0.736849, 0.738128, 0.731454, 0.730633, 0.729358, 0.731537, 0.726351, 0.725273, 0.725023, 0.721349, 0.721372, 0.721044, 0.719381, 0.720493, 0.720407, 0.721004, 0.720434, 0.72103, 0.721128, 0.719665, 0.720365, 0.719553, 0.723665, 0.724411, 0.724812, 0.723679, 0.723286, 0.723416, 0.728217, 0.727594, 0.719107, 0.715819, 0.713406, 0.713587, 0.713451, 0.71266, 0.714834, 0.970394, 0.727622, 0.727776, 0.731266, 0.941863, 0.914649, 0.839106, 0.925254, 0.939607, 0.991767, 0.717664, 0.720836, 0.7217, 0.722581, 1.06169, 1.06011, 0.746028, 0.742206, 0.742529, 0.742722, 0.747249, 1.01168, 0.76773, 0.787494, 0.756695, 0.826528, 0.779929, 0.803735, 0.773568, 0.846576, 0.856444, 0.85966, 0.860356, 0.843493, 0.872808, 0.873048, 0.98803, 0.987841, 1.02191, 1.08712, 1.08742, 1.09138, 1.0512, 1.05617, 1.04642, 1.06541, 1.06326, 1.10529, 1.10152, 1.13175, 1.17421, 1.17059, 1.16779, 1.18001, 1.19854, 1.20468, 1.20935, 1.24225, 1.26076, 1.2586, 1.25808, 1.26765, 1.31601, 1.35405, 1.3716, 1.41899, 1.41908, 1.44887, 1.46891, 1.46917, 1.50166, 1.49941, 1.48114, 1.47878, 1.49563, 1.49205, 1.43615, 1.43852, 1.4634, 1.50979, 1.39615, 1.39243, 1.37937, 1.38967, 1.39974, 1.59898, 1.60693, 1.57505, 1.51234, 1.42049, 1.37427, 1.37094, 1.36043, 1.31635, 1.31197, 1.37783, 1.306, 1.32086, 1.31542, 1.39706, 1.29167, 1.46786, 1.47617, 1.68581, 1.22009, 1.19444, 1.19285, 1.18368, 1.18125, 1.17764, 1.16786, 1.16904, 1.15785, 1.13073, 1.15146, 1.14813, 1.10981, 1.09582, 1.08032, 1.10902, 1.09581, 1.09431, 1.06361, 0.978117, 0.965152, 0.983805, 0.990385, 0.946122, 0.978198, 0.935593, 0.927882, 0.901999, 0.877268, 0.887038, 0.854536, 0.802393, 0.783274, 0.766069, 0.752999, 0.753279, 0.803727, 0.705018, 0.697354, 0.694662, 0.69174, 0.660654, 0.670074, 0.618764, 0.645258, 0.657055, 0.618786, 0.623895, 0.577615, 0.641444, 0.569435, 0.568343, 0.536573, 0.536041, 0.54057, 0.567955, 0.505298, 0.532249, 0.510532, 0.517047, 0.513589, 0.505921, 0.501731, 0.503916, 0.503676, 0.50421, 0.50463, 0.511806, 0.495075, 0.496389, 0.496637, 0.500696, 0.500141, 0.498225, 0.494664, 0.49308, 0.482622, 0.477013, 0.480484, 0.481903, 0.48369, 0.482899, 0.610818, 0.455649, 0.45742, 0.451148, 0.451527, 0.451049, 0.450685, 0.445772, 0.445591, 0.443841, 0.442376, 0.44094, 0.442014, 0.448132, 0.448454, 0.563521, 0.493097, 0.633037, 0.415296, 0.416004, 0.415792, 0.413385, 0.413648, 0.413003, 0.768431, 0.387465, 0.386731, 0.386387, 0.386619
0.747567, 0.746263, 0.745399, 0.745321, 0.745073, 0.748444, 0.748102, 0.748152, 0.747251, 0.746283, 0.744761, 0.74804, 0.743617, 0.740488, 0.739254, 0.738214, 0.736871, 0.73698, 0.894715, 0.767077, 0.955562, 0.73474, 0.733538, 0.733762, 0.73288, 0.730917, 0.728077, 0.726593, 0.72362, 0.724152, 0.724112, 0.723473, 0.722623, 0.725999, 0.725538, 0.726928, 0.723803, 0.72239, 0.720912, 0.723326, 0.724743, 0.72463, 0.727856, 0.727621, 0.727955, 0.727695, 0.724389, 0.724759, 0.720706, 0.7214, 0.722943, 0.72331, 0.724527, 0.724544, 0.72647, 0.731061, 0.728872, 0.728552, 0.731767, 0.74538, 0.746109, 0.763362, 0.761391, 0.771175, 0.728189, 0.725824, 0.727698, 0.723458, 0.723945, 0.814757, 0.738331, 1.00539, 0.7415, 0.740914, 0.74206, 1.01717, 0.881154, 0.879765, 0.878511, 0.826458, 0.928179, 0.751062, 0.750183, 0.768343, 0.792028, 0.860044, 0.81155, 0.804573, 0.905284, 0.923036, 0.867008, 0.904775, 0.911009, 0.937377, 0.97831, 0.990881, 1.03896, 1.03873, 1.03912, 1.03983, 1.05275, 1.06833, 1.10937, 1.10983, 1.14494, 1.16346, 1.15684, 1.1715, 1.17683, 1.17934, 1.19914, 1.2368, 1.22003, 1.23976, 1.31555, 1.24177, 1.27485, 1.32427, 1.36184, 1.3512, 1.38333, 1.39932, 1.45261, 1.50203, 1.54021, 1.51474, 1.59883, 1.47787, 1.47934, 1.48509, 1.41223, 1.37515, 1.39446, 1.34926, 1.4192, 1.40672, 1.38076, 1.36881, 1.37894, 1.38505, 1.37899, 1.38892, 1.40267, 1.39658, 1.35807, 1.35056, 1.35922, 1.30285, 1.29302, 1.28538, 1.28216, 1.28022, 1.28929, 1.28801, 1.28816, 1.25216, 1.2511, 1.23376, 1.23376, 1.19505, 1.18452, 1.185, 1.1748, 1.16846, 1.16661, 1.16404, 1.16632, 1.12939, 1.10297, 1.10159, 1.09813, 1.09563, 1.15717, 1.07131, 1.0973, 1.05355, 1.05557, 0.996177, 1.03783, 1.00014, 1.0007, 0.913416, 0.914985, 0.927948, 0.946802, 0.962539, 0.911538, 0.912157, 0.86282, 0.866929, 0.851394, 0.83206, 0.768508, 0.744598, 0.79182, 0.779341, 0.707343, 0.68111, 0.698711, 0.639746, 0.639409, 0.607729, 0.608959, 0.59392, 0.592486, 0.619359, 0.591459, 0.580454, 0.583571, 0.562168, 0.648849, 0.556285, 0.538635, 0.545057, 0.538134, 0.527861, 0.529032, 0.528521, 0.51369, 0.516695, 0.514008, 0.50965, 0.509684, 0.822336, 0.82133, 0.517554, 0.51972, 0.521681, 0.519314, 0.503071, 0.501103, 0.498327, 0.498305, 0.497197, 0.497648, 0.475784, 0.476427, 0.476765, 0.476031, 0.475833, 0.6329, 0.45592, 0.455716, 0.455865, 0.455305, 0.455399, 0.448599, 0.448321, 0.44837, 0.447122, 0.444586, 0.445287, 0.445414, 0.447949, 0.451456, 0.449114, 0.448222, 0.43927, 0.43641, 0.414253, 0.416043, 0.415889, 0.415752, 0.415007, 0.415577, 0.414053, 0.607589, 0.706282, 0.767192, 0.394596
0.746827, 0.745526, 0.743897, 0.741629, 0.741602, 0.737971, 0.748647, 0.748661, 0.749173, 0.748921, 0.856806, 0.749282, 0.748316, 0.748291, 0.746877, 0.741649, 0.740638, 0.746666, 0.746401, 0.928938, 0.763652, 0.764643, 0.739377, 0.738526, 0.738654, 0.738099, 0.736749, 0.733162, 0.73134, 0.73067, 0.727008, 0.727353, 0.727903, 0.727777, 0.728195, 0.726307, 0.724874, 0.725771, 0.730062, 0.729055, 0.722396, 0.722422, 0.722076, 0.729483, 0.730503, 0.730772, 0.729989, 0.729631, 1.00893, 0.726069, 0.727436, 0.726757, 0.72634, 0.726513, 0.729343, 0.731157, 0.73309, 0.732255, 1.0743, 0.745724, 0.746909, 0.76269, 0.763482, 0.762552, 0.918423, 0.724756, 0.725226, 0.725008, 0.73488, 0.735206, 1.14767, 1.13356, 1.01808, 0.733148, 0.732984, 0.731309, 0.725448, 0.725479, 0.728635, 0.729493, 0.936014, 0.943138, 0.787589, 0.780026, 0.77957, 0.820547, 0.823969, 0.844313, 0.843643, 0.862794, 0.864221, 0.866656, 0.910873, 0.910183, 0.953205, 0.985353, 1.06068, 1.05299, 1.08729, 1.02588, 1.05684, 1.07359, 1.10603, 1.24966, 1.13585, 1.17153, 1.17752, 1.16394, 1.16656, 1.17105, 1.18791, 1.20185, 1.22545, 1.22701, 1.23015, 1.29854, 1.29842, 1.29373, 1.38108, 1.37377, 1.39347, 1.48971, 1.45302, 1.44855, 1.49191, 1.49196, 1.49264, 1.49167, 1.48046, 1.40345, 1.36365, 1.34774, 1.32251, 1.32258, 1.33135, 1.3313, 1.34019, 1.34867, 1.35869, 1.35935, 1.36793, 1.35798, 1.36018, 1.36159, 1.34992, 1.33454, 1.37404, 1.3541, 1.27857, 1.27834, 1.26519, 1.27118, 1.26436, 1.28236, 1.24668, 1.23405, 1.25641, 1.21312, 1.20203, 1.19062, 1.17802, 1.17745, 1.16767, 1.15746, 1.16102, 1.15704, 1.13004, 1.20818, 1.10633, 1.1426, 1.13926, 1.0841, 1.07318, 1.06338, 1.0391, 1.03924, 1.0086, 1.00916, 0.947002, 0.910298, 0.881242, 0.880994, 0.886328, 0.90899, 0.862152, 0.877437, 0.881077, 0.884474, 0.8535, 0.854017, 0.83645, 0.834689, 0.743566, 0.743813, 0.749364, 0.717084, 0.708702, 0.69033, 0.640581, 0.635213, 0.621425, 0.614726, 0.583199, 0.584506, 0.568264, 0.611248, 0.583926, 0.584683, 0.5875, 0.528132, 0.559157, 0.601875, 0.541791, 0.542473, 0.528314, 0.519509, 0.510002, 0.508665, 0.521779, 0.519364, 0.518379, 0.515067, 0.512624, 0.512475, 0.522997, 0.523782, 0.525742, 0.523049, 0.521808, 0.497692, 0.494034, 0.496167, 0.496332, 0.49714, 0.49821, 0.489143, 0.472483, 0.47506, 0.474905, 0.473962, 0.47338, 0.471428, 0.454424, 0.455063, 0.456391, 0.456807, 0.453024, 0.445251, 0.445768, 0.438515, 0.435747, 0.435915, 0.436784, 0.446188, 0.449043, 0.451062, 0.449798, 0.438866, 0.43451, 0.43406, 0.416244, 0.415324, 0.416785, 0.41684, 0.4172, 0.414946, 0.415078, 0.414694, 0.652966, 0.587519
0.758352, 0.748208, 0.743928, 0.742932, 0.740116, 0.933973, 0.908733, 0.782844, 1.08699, 1.08587, 1.32743, 1.43548, 0.89105, 0.752352, 0.749188, 0.749637, 0.748923, 0.748906, 0.748676, 0.748767, 0.764867, 0.765986, 0.76323, 0.741739, 0.740836, 0.739729, 0.739754, 0.734969, 0.735486, 0.735404, 0.984368, 0.951304, 0.735355, 0.73328, 0.730611, 0.729735, 0.730002, 0.731341, 0.731235, 0.731367, 0.732065, 0.731894, 0.731805, 0.731927, 0.731414, 0.731104, 0.731421, 0.729066, 0.728501, 0.72688, 0.727392, 0.728149, 0.72806, 0.727925, 0.72981, 0.729571, 0.735302, 0.732079, 0.981148, 0.756343, 0.755502, 0.757788, 0.76622, 0.765544, 0.773129, 0.77207, 0.768166, 0.725291, 0.719213, 0.718714, 0.71923, 0.720229, 0.728643, 0.731221, 0.730972, 0.727813, 0.727841, 0.728828, 0.729444, 0.732945, 0.738467, 0.749002, 0.74925, 0.747781, 0.775582, 0.776183, 0.812542, 0.811796, 0.819955, 0.82565, 0.883757, 0.877638, 0.895685, 0.935339, 0.935568, 0.96015, 0.992184, 1.00172, 1.0071, 1.0114, 1.02612, 1.06043, 1.116, 1.13747, 1.15081, 1.19489, 1.16934, 1.17952, 1.16843, 1.17126, 1.19001, 1.20469, 1.2132, 1.26089, 1.21868, 1.21831, 1.32027, 1.25008, 1.34442, 1.31529, 1.36211, 1.36386, 1.4242, 1.42574, 1.46186, 1.46342, 1.46566, 1.55434, 1.57484, 1.52464, 1.35847, 1.3236, 1.32348, 1.33672, 1.3357, 1.33661, 1.34449, 1.33241, 1.34061, 1.34212, 1.34312, 1.31756, 1.31847, 1.37423, 1.36004, 1.35615, 1.35515, 1.37273, 1.38041, 1.26897, 1.31964, 1.30276, 1.2663, 1.2504, 1.26328, 1.22829, 1.22323, 1.23253, 1.22774, 1.22557, 1.22476, 1.15849, 1.1329, 1.13287, 1.14032, 1.10536, 1.08184, 1.11466, 1.0738, 1.13673, 1.06153, 1.06285, 1.06324, 1.02626, 1.03677, 1.00605, 1.02421, 0.9916, 0.933369, 0.89347, 0.862432, 0.845073, 0.8449, 0.883202, 0.86812, 0.856855, 0.820227, 0.806874, 0.807372, 0.838872, 0.805733, 0.794122, 0.787206, 0.790461, 0.693767, 0.71808, 0.719459, 0.681688, 0.641318, 0.631117, 0.618927, 0.607152, 0.584638, 0.58604, 0.562922, 0.547283, 0.539647, 0.54203, 0.553945, 0.526635, 0.604354, 0.604302, 0.522676, 0.549623, 0.528332, 0.52848, 0.52542, 0.528759, 0.519315, 0.520125, 0.520404, 0.517563, 0.516241, 0.51777, 0.52293, 0.526057, 0.531368, 0.53141, 0.638599, 0.642477, 0.496987, 0.496167, 0.497797, 0.498123, 0.492117, 0.49376, 0.473861, 0.472953, 0.473774, 0.474332, 0.475605, 0.47416, 0.473787, 0.473442, 0.45561, 0.461278, 0.459231, 0.519128, 0.709183, 0.433996, 0.434874, 0.436278, 0.436257, 0.435021, 0.447902, 0.448019, 0.448156, 0.448165, 0.453966, 0.428406, 0.406492, 0.407866, 0.4086, 0.415193, 0.416088, 0.416231, 0.417148, 0.417128, 0.416684, 0.417268
1.02568, 0.750545, 0.7501, 0.899105, 0.785228, 0.987298, 1.03978, 1.10663, 0.776178, 0.866784, 0.867567, 1.25779, 0.776351, 0.754051, 0.751639, 0.751178, 0.749476, 0.753182, 0.752139, 0.753599, 0.752393, 0.76124, 0.838894, 0.897886, 0.747501, 0.743663, 0.742883, 0.738334, 0.824284, 0.745941, 0.74602, 0.746912, 1.02542, 1.04348, 0.915376, 0.782893, 0.729886, 0.731379, 0.731362, 0.733949, 0.733771, 0.732546, 0.732414, 0.732623, 1.01372, 0.72529, 0.724919, 0.731994, 0.731374, 0.732007, 0.730862, 0.734262, 0.731745, 0.732699, 0.991782, 0.747262, 0.751325, 0.752022, 0.749154, 0.748869, 0.755657, 0.760611, 0.760991, 0.766055, 0.759094, 0.746269, 0.854137, 0.853112, 0.724208, 0.723803, 0.724633, 0.720768, 0.720833, 0.72408, 0.727802, 0.727931, 0.730283, 0.731179, 0.733783, 0.734047, 0.734933, 0.735602, 0.740983, 0.739079, 0.739073, 0.789675, 0.796785, 0.796617, 0.808542, 0.773806, 0.887532, 0.846384, 0.863013, 0.863517, 0.910899, 0.934114, 0.947535, 0.991579, 0.991379, 1.00553, 1.00675, 1.0432, 1.08054, 1.10671, 1.1485, 1.1466, 1.15486, 1.14608, 1.158, 1.17514, 1.17524, 1.17433, 1.32754, 1.19525, 1.20914, 1.20912, 1.25716, 1.24447, 1.29807, 1.33959, 1.38419, 1.483, 1.37486, 1.3752, 1.37599, 1.4684, 1.47929, 1.58186, 1.53674, 1.30905, 1.32257, 1.31726, 1.30476, 1.32625, 1.32638, 1.32252, 1.31319, 1.2967, 1.30307, 1.39199, 1.30382, 1.29402, 1.2675, 1.26857, 1.28094, 1.27203, 1.28783, 1.28757, 1.28449, 1.2827, 1.26105, 1.24478, 1.24412, 1.25491, 1.2345, 1.22429, 1.20838, 1.20581, 1.17779, 1.1766, 1.20232, 1.12962, 1.13086, 1.12991, 1.12829, 1.12833, 1.10369, 1.10494, 1.09895, 1.04604, 1.03189, 1.02623, 1.02971, 0.993368, 0.993403, 0.975375, 0.98318, 0.983541, 0.932485, 0.934118, 0.911693, 0.851435, 0.849148, 0.842339, 0.812381, 0.811316, 0.797549, 0.806053, 0.831449, 0.831922, 0.806265, 0.742848, 0.732356, 0.71011, 0.710974, 0.665498, 0.788421, 0.683584, 0.690572, 0.634439, 0.634698, 0.595288, 0.617545, 0.586891, 0.556143, 0.607775, 0.608774, 0.536706, 0.619133, 0.541867, 0.560097, 0.517118, 0.552896, 0.521868, 0.528088, 0.525439, 0.532623, 0.531295, 0.526643, 0.523616, 0.523346, 0.522123, 0.522636, 0.521363, 0.522677, 0.532339, 0.534269, 0.534703, 0.534441, 0.533618, 0.655435, 0.497952, 0.498542, 0.49857, 0.49399, 0.492792, 0.490191, 0.479752, 0.481422, 0.475431, 0.475983, 0.475696, 0.474899, 0.47369, 0.471841, 0.470142, 0.471125, 0.657011, 0.828466, 0.827651, 0.43265, 0.833046, 0.443897, 0.444633, 0.446009, 0.446424, 0.444094, 0.442424, 0.455639, 0.431386, 0.420569, 0.410404, 0.410713, 0.410771, 0.409915, 0.409228, 0.417196, 0.420113, 0.4196, 0.419923
0.788147, 0.843759, 0.836189, 0.767337, 0.772016, 0.770997, 0.768049, 0.769077, 0.768586, 0.765829, 0.76571, 0.765751, 0.780321, 0.756567, 0.753416, 0.753153, 0.755726, 0.755689, 0.754636, 0.754965, 0.753674, 0.753746, 0.772842, 0.772993, 0.756166, 0.756129, 0.753714, 0.753242, 0.749966, 0.749361, 0.74909, 0.751649, 0.753138, 0.751577, 0.771156, 0.766421, 0.851171, 1.0171, 0.997231, 0.903302, 0.733957, 0.734079, 0.73491, 0.735035, 0.73487, 0.739451, 0.742135, 0.991361, 1.06329, 0.75104, 0.750332, 0.74862, 0.749241, 0.753618, 0.747192, 0.747874, 0.747809, 0.746949, 0.749293, 0.751632, 0.756388, 0.759695, 0.759922, 0.759262, 0.76049, 0.748282, 0.742513, 1.0098, 0.725541, 0.725013, 0.728579, 0.728285, 0.7279, 0.727056, 0.727428, 0.730168, 0.730269, 0.734899, 0.73511, 0.735147, 0.735848, 0.737434, 0.741364, 0.745028, 0.755882, 0.754743, 0.75582, 0.760433, 0.756159, 0.758098, 0.821924, 0.847046, 0.849281, 0.852438, 0.875178, 0.915196, 0.956188, 0.953205, 1.05651, 1.05631, 1.00876, 1.05032, 1.04458, 1.05369, 1.09563, 1.11952, 1.12584, 1.1239, 1.13315, 1.22616, 1.2269, 1.21922, 1.17092, 1.18586, 1.22118, 1.20519, 1.21957, 1.24233, 1.25015, 1.25946, 1.29342, 1.29145, 1.34567, 1.41246, 1.41232, 1.3754, 1.34896, 1.46485, 1.29112, 1.29469, 1.28454, 1.29796, 1.28338, 1.2822, 1.28925, 1.29407, 1.29524, 1.27884, 1.39057, 1.26275, 1.26155, 1.25274, 1.2581, 1.25448, 1.30322, 1.29161, 1.26175, 1.30192, 1.334, 1.26755, 1.25038, 1.24964, 1.19939, 1.22293, 1.19155, 1.19082, 1.19151, 1.1879, 1.19804, 1.20496, 1.16327, 1.21147, 1.12692, 1.1609, 1.16772, 1.25696, 1.11244, 1.10193, 1.07196, 0.990037, 0.985828, 0.983628, 0.966342, 0.975455, 0.959819, 0.960005, 0.952109, 0.9599, 0.960145, 0.949693, 0.946052, 0.901174, 0.859176, 0.843736, 0.824966, 0.806958, 0.773047, 0.782067, 0.773641, 0.771469, 0.72396, 0.749758, 0.716499, 0.68615, 0.659184, 0.721458, 0.674733, 0.699732, 0.68223, 0.687656, 0.611367, 0.599221, 0.657856, 0.616517, 0.615665, 0.541123, 0.541711, 0.583277, 0.583122, 0.618228, 0.618301, 0.533819, 0.502458, 0.514014, 0.569948, 0.534124, 0.533285, 0.532048, 0.53068, 0.530861, 0.527953, 0.527804, 0.529361, 0.528528, 0.528191, 0.529255, 0.534821, 0.535806, 0.537014, 0.537013, 0.534676, 0.532721, 0.496279, 0.491564, 0.483953, 0.485961, 0.487503, 0.485644, 0.483299, 0.478793, 0.476927, 0.47627, 0.474144, 0.474366, 0.473368, 0.473147, 0.472905, 0.473028, 0.659652, 0.658813, 0.635596, 0.448132, 0.446424, 0.446405, 0.446072, 0.440185, 0.441331, 0.437681, 0.437547, 0.430837, 0.407527, 0.406767, 0.407902, 0.410568, 0.403717, 0.407352, 0.402042, 0.418741, 0.419562, 0.420505
1.02673, 0.779785, 0.779059, 0.775327, 0.773202, 0.770437, 0.767165, 0.764101, 0.765817, 0.76692, 0.766481, 0.76623, 0.764675, 0.774427, 0.752897, 0.754484, 0.756711, 0.756068, 0.754459, 0.758025, 0.7577, 0.756863, 0.772786, 0.77403, 0.782818, 0.759398, 0.758777, 0.826279, 0.752591, 0.753066, 0.75301, 0.753189, 0.755253, 0.755882, 0.755982, 1.18938, 0.764901, 1.13942, 1.37162, 0.90534, 0.748231, 0.749551, 0.750868, 0.749084, 0.747658, 0.879141, 1.15128, 0.751006, 0.75217, 0.749978, 0.747604, 0.747583, 0.755302, 0.755233, 0.751379, 0.749857, 0.750528, 0.752779, 0.75364, 0.756401, 0.75699, 0.758461, 0.762821, 0.762292, 0.858476, 0.756493, 0.755103, 0.753477, 0.7628, 0.735986, 0.731087, 0.731216, 0.730082, 0.72808, 0.728864, 0.730564, 0.732688, 0.735537, 0.735764, 0.738513, 0.737391, 0.736953, 0.735892, 0.747518, 0.748459, 0.747238, 0.760457, 0.755321, 0.752537, 0.763583, 0.851259, 0.817609, 0.815243, 1.08861, 0.96752, 0.886579, 0.899211, 0.918898, 0.954571, 0.963402, 0.997563, 0.995976, 1.01582, 1.03674, 1.04886, 1.11589, 1.08677, 1.09178, 1.11726, 1.09617, 1.10607, 1.12239, 1.25736, 1.20887, 1.18579, 1.22565, 1.21985, 1.21707, 1.24929, 1.25184, 1.25706, 1.28206, 1.27899, 1.27996, 1.2746, 1.28562, 1.34208, 1.34114, 1.31018, 1.34553, 1.27759, 1.27515, 1.25451, 1.24923, 1.24862, 1.25119, 1.28937, 1.29522, 1.28187, 1.2506, 1.24463, 1.24245, 1.26628, 1.24542, 1.22341, 1.23279, 1.29461, 1.2924, 1.25475, 1.34005, 1.27363, 1.18315, 1.18267, 1.17884, 1.17772, 1.17973, 1.18052, 1.18532, 1.16314, 1.14011, 1.14996, 1.11938, 1.13157, 1.09, 1.09729, 1.10432, 1.10212, 1.08227, 1.06798, 0.983068, 0.977032, 0.948407, 0.932036, 0.931374, 0.932218, 0.967985, 0.972639, 0.952781, 1.01878, 0.97692, 0.97738, 0.959976, 0.846118, 0.833169, 0.816669, 0.791741, 0.7688, 0.769223, 0.77973, 0.736972, 0.777998, 0.735218, 0.673123, 0.676709, 0.658532, 0.721691, 0.718942, 0.718474, 0.609203, 0.60896, 0.628537, 0.602917, 0.655288, 0.576259, 0.577579, 0.577312, 0.570954, 0.528781, 0.529243, 0.613986, 0.525015, 0.530688, 0.527384, 0.524749, 0.523119, 0.522377, 0.520838, 0.631754, 0.52983, 0.528576, 0.529948, 0.529893, 0.534003, 0.530058, 0.530843, 0.530356, 0.534685, 0.535126, 0.535897, 0.537771, 0.532709, 0.535313, 0.534581, 0.484, 0.484959, 0.483761, 0.485109, 0.483231, 0.483784, 0.482292, 0.480487, 0.479131, 0.476513, 0.478399, 0.477604, 0.472587, 0.473924, 0.47369, 0.47453, 0.659469, 0.00441789, 0.734663, 0.443787, 0.443427, 0.444292, 0.440651, 0.440097, 0.434809, 0.433278, 0.425138, 0.424947, 0.425408, 0.406382, 0.405394, 0.406575, 0.405836, 0.403587, 0.402309, 0.416904, 0.418426
0.792053, 0.789782, 0.783707, 0.779739, 0.779877, 0.84869, 0.762224, 0.764068, 0.765828, 0.766475, 0.766946, 0.766999, 0.767902, 0.766835, 0.912899, 0.760426, 0.760384, 0.766016, 0.764993, 0.762729, 0.762745, 0.98083, 0.907964, 0.856116, 0.8567, 0.791213, 0.883446, 0.883987, 0.760989, 0.756627, 0.754578, 0.756297, 0.759333, 0.759798, 0.761075, 1.10484, 0.75988, 0.75883, 0.756919, 0.757368, 0.747897, 0.749101, 0.748662, 0.74755, 0.747425, 0.749581, 1.15324, 0.753268, 0.750712, 0.749807, 0.74907, 0.756822, 0.755783, 0.753754, 0.753771, 0.753415, 0.754635, 0.753823, 0.75667, 0.75763, 0.760929, 0.762983, 0.987274, 0.776974, 0.770189, 0.769982, 1.11488, 0.761666, 1.01052, 0.73441, 0.733467, 0.733761, 0.731959, 0.732058, 0.736068, 0.732237, 0.731731, 0.732218, 0.734469, 0.736418, 0.733793, 0.73324, 0.733839, 0.738427, 0.733617, 0.873542, 0.872418, 0.867899, 0.752886, 0.890158, 0.892822, 0.879961, 0.815675, 1.06056, 1.06155, 0.868579, 0.868014, 0.982924, 0.91041, 0.923248, 0.954177, 1.02182, 1.02078, 1.02011, 1.00855, 1.02071, 1.01938, 1.02123, 1.04343, 1.05667, 1.09433, 1.09017, 1.09988, 1.14691, 1.10202, 1.15955, 1.16193, 1.16064, 1.16319, 1.18801, 1.22134, 1.23138, 1.23606, 1.28809, 1.27146, 1.27296, 1.2477, 1.27208, 1.28133, 1.28147, 1.23555, 1.23589, 1.25876, 1.25663, 1.25706, 1.28358, 1.2506, 1.24387, 1.24072, 1.23299, 1.22702, 1.22375, 1.23018, 1.23338, 1.26693, 1.19876, 1.23152, 1.20833, 1.21642, 1.19825, 1.17348, 1.17116, 1.16793, 1.16501, 1.16141, 1.18824, 1.18329, 1.14942, 1.14057, 1.11687, 1.07778, 1.07791, 1.04373, 1.04486, 1.03937, 1.05325, 1.06999, 1.03778, 1.02655, 1.01552, 0.980513, 0.985487, 0.929183, 0.947341, 0.947467, 0.905291, 0.966866, 0.959473, 0.934921, 0.934955, 0.93566, 0.848656, 0.849443, 0.829172, 0.808844, 0.819022, 0.830138, 0.792065, 0.755945, 0.700512, 0.683943, 0.668301, 0.660743, 0.648577, 0.646767, 0.649753, 0.632983, 0.667015, 0.641879, 0.632615, 0.603306, 0.604703, 0.605857, 0.649177, 0.576454, 0.578979, 0.58021, 0.572996, 0.612289, 0.612883, 0.523969, 0.521672, 0.520877, 0.5217, 0.522818, 0.521859, 0.506732, 0.721207, 0.494708, 0.495515, 0.496129, 0.772397, 0.530904, 0.529738, 0.53122, 0.528808, 0.529296, 0.532243, 0.534933, 0.534311, 0.532004, 0.531245, 0.530631, 0.645741, 0.638866, 0.481859, 0.483518, 0.484986, 0.484368, 0.483561, 0.482961, 0.478946, 0.479418, 0.479488, 0.477098, 0.477069, 0.47684, 0.474645, 0.47385, 0.473236, 0.47804, 0.663581, 0.669752, 0.666457, 0.891092, 0.436862, 0.437994, 0.438213, 0.432086, 0.434536, 0.425838, 0.425716, 0.838755, 0.410014, 0.409842, 0.402435, 0.403377, 0.40321, 0.402928, 0.41984
0.802199, 0.795793, 0.790596, 1.20593, 0.784055, 0.787524, 0.785141, 0.784791, 0.780835, 0.784121, 0.768876, 0.768488, 0.769472, 0.770859, 0.770687, 0.770823, 0.771231, 0.770836, 0.775738, 0.775591, 0.775431, 0.770482, 1.02024, 0.877035, 0.843683, 0.867047, 0.836479, 0.881733, 0.865478, 0.773673, 0.773537, 0.905728, 0.761557, 0.761633, 0.762102, 0.769066, 0.763857, 0.763035, 0.763026, 0.761326, 0.7505, 0.751736, 0.752632, 0.752673, 0.750263, 0.754779, 0.757591, 0.755696, 0.754294, 0.753717, 0.752784, 0.753473, 0.755258, 0.758264, 0.758675, 0.757372, 0.758581, 0.757525, 0.756136, 0.762257, 0.761376, 0.763871, 0.775127, 0.77843, 0.781153, 0.780624, 0.943739, 1.01233, 0.89721, 1.01346, 0.733508, 0.731869, 0.732046, 0.735122, 0.731335, 0.729864, 0.729774, 0.741311, 0.739235, 0.732342, 0.731955, 0.733966, 0.729466, 0.722461, 0.722044, 0.891433, 0.809315, 0.808878, 0.765758, 0.766581, 0.773252, 0.880321, 0.876951, 0.876811, 0.873691, 0.859159, 0.820106, 0.820186, 0.914786, 0.892682, 0.970615, 1.02283, 1.01913, 1.01677, 0.991915, 1.0016, 0.984436, 0.985018, 0.994746, 1.02554, 1.02033, 1.05396, 1.05038, 1.05728, 1.12866, 1.03413, 1.08805, 1.16783, 1.10744, 1.08569, 1.15495, 1.32901, 1.3256, 1.24992, 1.25157, 1.18638, 1.17978, 1.18286, 1.18535, 1.23139, 1.20162, 1.21356, 1.23984, 1.20857, 1.21293, 1.19464, 1.21674, 1.18011, 1.16764, 1.18758, 1.17558, 1.1858, 1.18476, 1.19452, 1.19499, 1.19423, 1.16412, 1.16465, 1.12382, 1.1259, 1.19316, 1.19199, 1.15841, 1.13699, 1.14812, 1.13883, 1.13694, 1.11327, 1.13889, 1.06025, 1.07171, 1.07339, 1.04666, 0.988431, 0.987619, 1.00638, 1.0073, 1.00573, 1.02855, 0.95438, 0.954087, 0.905266, 0.900813, 0.898765, 0.863131, 0.862236, 0.892258, 0.871213, 0.873413, 0.888574, 0.887553, 0.846348, 0.782115, 0.798961, 0.765277, 0.774712, 0.741356, 0.797866, 0.71099, 0.683733, 0.680587, 0.658512, 0.656761, 0.683407, 0.665972, 0.641827, 0.644194, 0.629701, 0.618944, 0.618358, 0.587955, 0.577138, 0.574654, 0.576516, 0.650769, 0.564086, 0.555957, 0.557695, 0.558245, 0.743989, 0.843742, 0.749217, 0.537928, 0.538237, 0.538002, 0.536459, 0.73563, 0.494614, 0.49752, 0.49774, 0.496839, 0.496753, 0.496763, 0.497159, 0.504259, 0.519756, 0.531312, 0.532757, 0.532499, 0.551189, 0.530103, 0.554492, 0.521978, 0.52284, 0.648934, 0.618575, 0.483475, 0.484057, 0.483334, 0.480366, 0.480524, 0.468651, 0.469252, 0.476792, 0.476496, 0.474709, 0.475892, 0.47519, 0.475966, 0.475557, 0.475811, 0.482382, 0.48261, 0.482557, 0.484282, 0.750017, 0.822729, 0.507272, 0.511458, 0.433113, 0.434857, 0.4347, 0.428577, 0.420792, 0.556532, 0.405047, 0.405617, 0.403715, 0.404546, 0.406307
0.886444, 0.901866, 0.798883, 0.980429, 0.788349, 0.788969, 0.786128, 0.78643, 1.18552, 0.787537, 0.786732, 0.769602, 0.770249, 0.772288, 0.77205, 0.772132, 0.772799, 0.771934, 0.774123, 0.775988, 0.776467, 0.773261, 0.775394, 0.814132, 0.814763, 0.814024, 0.813271, 0.805366, 1.13985, 1.42667, 1.14679, 0.774732, 0.777145, 0.929275, 0.768258, 0.768641, 0.767768, 0.767007, 0.766763, 0.761217, 0.760171, 0.760067, 0.753348, 0.752973, 0.754804, 0.758009, 0.7592, 0.757636, 0.757961, 0.757476, 0.756951, 0.758627, 0.759707, 0.760006, 0.759632, 0.759927, 0.758885, 0.760472, 0.760935, 0.760136, 0.763474, 0.765636, 0.809774, 0.809363, 0.782779, 0.782899, 0.775555, 0.963812, 0.7607, 0.761124, 1.07678, 1.07885, 0.733131, 0.732839, 0.737144, 0.73174, 0.73168, 0.732772, 0.733705, 0.739759, 0.739519, 0.73496, 0.727222, 0.725703, 0.723888, 0.724746, 0.900971, 0.758995, 0.759731, 0.772809, 0.772713, 0.77296, 0.770516, 0.765622, 0.764257, 0.822295, 0.78754, 0.831209, 0.961168, 0.892962, 0.954943, 0.970358, 0.939064, 0.971772, 0.970004, 0.968797, 0.97347, 0.971762, 0.967216, 0.980994, 0.981584, 1.01699, 1.01567, 1.00662, 1.00768, 1.05699, 1.00565, 1.03273, 1.01006, 1.068, 1.09338, 1.10826, 1.16763, 1.16729, 1.17181, 1.167, 1.13483, 1.14662, 1.16384, 1.16567, 1.17524, 1.18832, 1.19877, 1.20042, 1.20055, 1.23325, 1.20194, 1.20182, 1.15773, 1.13251, 1.13973, 1.1498, 1.15098, 1.15276, 1.19791, 1.14054, 1.11719, 1.16416, 1.1024, 1.09855, 1.08935, 1.1049, 1.11481, 1.10529, 1.12988, 1.12021, 1.09611, 1.09548, 1.11524, 1.01953, 1.01215, 1.00581, 1.00679, 0.980526, 0.980613, 0.998111, 0.993896, 0.987189, 0.987154, 1.03214, 0.915769, 0.921012, 0.874811, 0.857984, 0.829514, 0.817586, 0.838572, 0.852882, 0.852307, 0.860682, 0.832923, 0.804864, 0.814691, 0.763745, 0.725566, 0.713213, 0.71771, 0.718587, 0.718525, 0.701369, 0.691789, 0.708217, 0.641403, 0.665765, 0.663068, 0.625992, 0.624974, 0.621261, 0.656771, 0.58077, 0.582859, 0.601118, 0.590037, 0.590352, 0.598241, 0.585811, 0.585844, 0.561027, 0.559366, 0.586645, 0.586717, 0.670001, 0.5413, 0.541823, 0.537531, 0.536948, 0.537671, 0.538705, 0.498124, 0.494051, 0.496758, 0.497223, 0.497442, 0.498363, 0.498483, 0.498982, 0.498146, 0.784016, 0.624284, 0.614134, 0.563804, 0.55626, 0.559493, 0.562912, 0.564555, 0.572804, 0.479235, 0.480417, 0.481026, 0.480492, 0.478793, 0.476752, 0.47525, 0.475547, 0.474724, 0.474805, 0.473771, 0.474583, 0.476015, 0.476114, 0.471877, 0.475694, 0.482563, 0.48268, 0.480832, 0.467534, 0.467699, 0.467754, 0.46744, 0.452325, 0.424412, 0.426097, 0.426494, 0.42747, 0.663893, 0.406317, 0.406765, 0.405558, 0.406909, 0.407815
0.814233, 0.967603, 0.991121, 1.00786, 0.793221, 0.793537, 0.790053, 1.20198, 0.789387, 0.789605, 0.771056, 0.771629, 0.772348, 0.773048, 0.77283, 0.922221, 0.915155, 0.779782, 0.774914, 1.06975, 1.39429, 0.779537, 0.779793, 0.781521, 0.818683, 0.811526, 0.812094, 0.794682, 0.828294, 1.11978, 0.91761, 0.778215, 0.980597, 0.779655, 0.773166, 0.77089, 0.771371, 0.771785, 0.768718, 0.76088, 0.76121, 0.760858, 0.762023, 1.00796, 0.762354, 0.762523, 0.764205, 0.761196, 0.761496, 0.759852, 0.759098, 0.760769, 0.760511, 0.762167, 0.761509, 0.760423, 0.758218, 0.763914, 0.761312, 0.762358, 0.761605, 0.762451, 0.763024, 1.06994, 0.786725, 0.786234, 0.784916, 0.771844, 0.762788, 0.76214, 0.762388, 0.907089, 0.741277, 0.73863, 0.736661, 0.734782, 0.733673, 0.733724, 0.733311, 0.734062, 0.7406, 0.739434, 0.737367, 0.73501, 0.72548, 0.725271, 0.724658, 0.907645, 0.757626, 0.75737, 0.764289, 0.760044, 0.748784, 0.749405, 0.756918, 0.757056, 0.893979, 0.893999, 0.892893, 0.862634, 0.914258, 0.928636, 0.930685, 0.938325, 0.964003, 0.967585, 0.981726, 0.908476, 0.925658, 0.942782, 0.941203, 0.974026, 0.990977, 1.08106, 0.987696, 1.0164, 0.970012, 1.02329, 0.988754, 1.03004, 1.08078, 1.09483, 1.1067, 1.22306, 1.13714, 1.13806, 1.10649, 1.15102, 1.14333, 1.18373, 1.1575, 1.16465, 1.19649, 1.23208, 1.29843, 1.21678, 1.18061, 1.19426, 1.143, 1.1133, 1.121, 1.1362, 1.13023, 1.13115, 1.13612, 1.11433, 1.11928, 1.09927, 1.09125, 1.08624, 1.05782, 1.12383, 1.12295, 1.12252, 1.12941, 1.07337, 1.05004, 1.05082, 1.05935, 1.05658, 0.99954, 1.00123, 1.01248, 1.01356, 0.966953, 1.01834, 1.02297, 0.990298, 0.991681, 0.941377, 0.942362, 0.877702, 0.880456, 0.850224, 0.833763, 0.793703, 0.796787, 0.796959, 0.808263, 0.790446, 0.778975, 0.749032, 0.759946, 0.717718, 0.720842, 0.700603, 0.705781, 0.708028, 0.705958, 0.740085, 0.687415, 0.688174, 0.680664, 0.649776, 0.621979, 0.664635, 0.610956, 0.624268, 0.597526, 0.592033, 0.626203, 0.581056, 0.598567, 0.598734, 0.581571, 0.58065, 0.587052, 0.569354, 0.57461, 0.570816, 0.750654, 0.825068, 0.556072, 0.54391, 0.54413, 0.545214, 0.545934, 0.540455, 0.741396, 0.741975, 0.526009, 0.597341, 0.497355, 0.498796, 0.49932, 0.498621, 0.489855, 0.489417, 0.487043, 0.486302, 0.631671, 0.491687, 0.491517, 0.784826, 0.494112, 0.494026, 0.494525, 0.557022, 0.478995, 0.479452, 0.479457, 0.478312, 0.477938, 0.476135, 0.476986, 0.475289, 0.475679, 0.474716, 0.47599, 0.47535, 0.474414, 0.473115, 0.472261, 0.469705, 0.476578, 0.472195, 0.468098, 0.468796, 0.467282, 0.458927, 0.6287, 0.425367, 0.426143, 0.426507, 0.427345, 0.42679, 0.416915, 0.416728, 0.417025, 0.407639
0.956727, 0.956082, 1.10941, 0.802126, 0.794876, 0.793919, 0.787993, 0.786618, 1.14675, 0.855936, 0.777527, 0.771504, 0.769975, 0.771795, 0.7739, 0.775905, 0.849931, 0.946483, 0.780781, 0.782247, 0.783012, 0.783401, 0.783924, 0.782663, 1.05628, 1.0564, 0.822197, 0.822719, 0.809221, 0.816421, 1.14979, 0.835354, 0.791264, 0.943646, 0.773199, 0.772637, 0.773895, 0.773002, 1.07337, 0.786919, 0.786746, 0.767344, 0.767085, 0.766428, 0.765732, 0.76431, 0.763861, 0.76312, 0.762371, 0.760556, 0.759106, 0.760415, 0.763213, 0.762346, 0.762521, 0.762822, 0.761871, 0.762158, 0.76172, 0.762325, 0.761281, 0.76276, 0.76635, 0.776868, 0.777786, 0.778019, 0.777905, 0.77064, 0.769839, 0.7694, 0.908106, 0.911708, 0.902854, 0.743231, 0.738492, 0.737528, 0.737236, 0.734532, 0.734628, 0.734629, 0.735457, 0.73139, 0.734884, 0.734673, 0.734624, 0.731831, 0.728297, 0.72899, 0.758797, 0.758478, 0.763952, 0.762241, 0.753246, 0.753541, 0.751343, 0.750786, 0.887402, 0.886765, 0.883708, 0.85975, 0.95465, 0.955221, 0.940347, 0.887786, 0.879678, 0.891699, 0.894812, 0.947209, 0.944256, 0.901333, 0.900707, 0.949426, 1.07529, 0.980296, 0.967826, 1.18218, 1.18115, 0.995866, 1.0292, 1.02615, 1.02635, 1.09271, 1.04045, 1.13618, 1.13101, 1.13926, 1.0859, 1.13401, 1.11703, 1.13646, 1.15767, 1.14758, 1.13932, 1.13971, 1.15218, 1.14332, 1.14972, 1.12548, 1.10775, 1.10279, 1.0885, 1.09221, 1.09858, 1.10538, 1.1054, 1.09504, 1.13221, 1.08126, 1.06349, 1.05023, 1.04041, 1.01663, 1.05352, 1.05398, 1.00876, 1.05614, 1.0172, 1.0191, 1.01897, 1.01867, 1.00411, 0.992617, 0.954538, 0.948516, 0.921866, 0.922513, 0.943823, 0.953763, 0.952693, 0.947915, 0.86605, 0.866369, 0.856036, 0.826637, 0.826097, 0.805873, 0.788453, 0.788578, 0.769716, 0.753745, 0.752802, 0.743746, 0.79472, 0.714969, 0.686821, 0.683917, 0.691641, 0.698103, 0.719919, 0.720268, 0.705763, 0.68384, 0.691005, 0.668824, 0.630506, 0.628885, 0.635413, 0.64297, 0.608478, 0.58794, 0.608081, 0.62036, 0.625009, 0.625985, 0.586498, 0.580117, 0.587855, 0.587794, 0.692251, 0.564164, 0.56209, 0.56183, 0.560048, 0.554343, 0.552151, 0.546937, 0.547281, 0.550396, 0.550502, 0.528217, 0.724153, 0.529283, 0.529694, 0.529478, 0.694771, 0.745933, 0.743197, 0.488033, 0.488573, 0.489521, 0.489816, 0.48998, 0.491197, 0.492987, 0.494003, 0.494885, 0.49375, 0.494286, 0.493296, 0.493179, 0.476461, 0.478242, 0.483802, 0.482212, 0.47963, 0.479676, 0.482384, 0.476425, 0.47607, 0.475664, 0.47329, 0.472731, 0.471091, 0.470479, 0.471867, 0.472302, 0.473753, 0.473106, 0.472531, 0.465953, 0.512091, 0.448796, 0.43246, 0.42737, 0.42716, 0.427407, 0.426647, 0.425023, 0.676876, 0.83935
0.82037, 0.820281, 0.975134, 0.800726, 0.793827, 0.794537, 0.793945, 0.793154, 0.785771, 0.781606, 0.77566, 0.774371, 0.774496, 0.774655, 0.774639, 0.775539, 0.781025, 0.781581, 0.780321, 0.783414, 0.784523, 0.783651, 0.783154, 0.783508, 0.786139, 1.0044, 0.822786, 0.822764, 0.814648, 0.815714, 1.13718, 0.853052, 0.936273, 0.944001, 0.776651, 0.776234, 0.774688, 0.774142, 1.07366, 1.18484, 1.07788, 0.771728, 0.771672, 0.769261, 0.767134, 0.763399, 0.762937, 0.765748, 0.814544, 1.0311, 0.775112, 0.77549, 0.76897, 0.767877, 0.766036, 0.766097, 0.765875, 0.766117, 0.76415, 0.764832, 0.765415, 0.764151, 0.767171, 0.776375, 0.776735, 0.778627, 0.779745, 0.777953, 0.763044, 0.762105, 0.776399, 0.779345, 0.78071, 0.90477, 0.740678, 0.740368, 0.739771, 0.736452, 0.733467, 0.733445, 0.738835, 0.731267, 0.730435, 0.730334, 0.730734, 0.729598, 0.729725, 0.728731, 0.729212, 0.759308, 0.738149, 0.739131, 0.752934, 0.753115, 0.753385, 0.748563, 0.74551, 0.752985, 0.910985, 1.00876, 0.88769, 0.929879, 0.961205, 0.886608, 0.839843, 0.908832, 0.911168, 0.91811, 1.03296, 0.900954, 0.901827, 0.942501, 0.949593, 0.950137, 0.946253, 0.959325, 0.94429, 0.979066, 0.972007, 1.01681, 1.01342, 1.01834, 1.08765, 1.08719, 1.19571, 1.14135, 1.14126, 1.10243, 1.11262, 1.11777, 1.13612, 1.1326, 1.14779, 1.1435, 1.14025, 1.14019, 1.12058, 1.1869, 1.18755, 1.09602, 1.1059, 1.07841, 1.07983, 1.07471, 1.06175, 1.08075, 1.12197, 1.0689, 1.05957, 1.02468, 1.02713, 1.0228, 0.999342, 0.992527, 0.995671, 1.00756, 0.988943, 1.00559, 1.0226, 1.02213, 1.02027, 1.03686, 0.955984, 0.914662, 0.91111, 0.904541, 0.915937, 0.914061, 0.913762, 0.911961, 0.901965, 0.884256, 0.825273, 0.795224, 0.804073, 0.780774, 0.780764, 0.733614, 0.73656, 0.74008, 0.73291, 0.719697, 0.716032, 0.698663, 0.712392, 0.670554, 0.660078, 0.65926, 0.653558, 0.697641, 0.674635, 0.640302, 0.639198, 0.666857, 0.667546, 0.656155, 0.627379, 0.642717, 0.612859, 0.615709, 0.613906, 0.621544, 0.622126, 0.589805, 0.565967, 0.591566, 0.567567, 0.565702, 0.574781, 0.566296, 0.562667, 0.562149, 0.561959, 0.55663, 0.55527, 0.55281, 0.552123, 0.550935, 0.552809, 0.552128, 0.549773, 0.679624, 0.529803, 0.544869, 0.544563, 0.534768, 0.765064, 0.542431, 0.85242, 0.488126, 0.492889, 0.490852, 0.918688, 0.918627, 0.496954, 0.496506, 0.489129, 0.489411, 0.491962, 0.49289, 0.492549, 0.491073, 0.487403, 0.488561, 0.490199, 0.490554, 0.490091, 0.489761, 0.484698, 0.479885, 0.47474, 0.476038, 0.475751, 0.473992, 0.477271, 0.477857, 0.470127, 0.468536, 0.466193, 0.466626, 0.466404, 0.545889, 0.546791, 0.425676, 0.427507, 0.430552, 0.428439, 0.429195, 0.428155, 0.427891
0.823004, 0.822289, 0.821217, 0.813336, 0.804965, 0.798067, 0.797831, 0.888964, 0.801581, 1.27097, 0.775313, 0.77631, 0.776265, 0.777355, 0.780112, 0.776943, 0.778127, 0.777613, 0.78298, 0.783341, 0.78214, 0.782112, 0.783876, 0.784074, 0.783224, 0.786798, 0.794383, 0.795124, 0.814558, 0.815314, 0.814708, 0.82265, 0.799089, 0.949564, 0.781018, 0.779175, 0.77699, 0.785349, 0.785738, 0.780685, 0.779246, 0.779279, 0.774498, 0.774373, 0.774987, 0.782531, 0.782973, 0.782948, 0.806283, 0.805062, 1.17432, 0.783473, 0.815966, 1.12812, 0.773687, 0.77275, 0.772555, 0.761636, 0.765527, 0.766101, 0.766725, 0.766211, 0.765908, 0.773193, 0.768987, 0.778243, 0.779876, 0.788028, 0.787, 0.787675, 0.780672, 0.780608, 0.775788, 0.775725, 0.894871, 0.738204, 0.738419, 0.739797, 0.739079, 0.73869, 0.737922, 0.735118, 0.737066, 0.735984, 0.731223, 0.728611, 0.726852, 0.724767, 0.725112, 0.742282, 0.734081, 0.732106, 0.783764, 0.749137, 0.751329, 0.751305, 0.749093, 0.745135, 0.956857, 0.911454, 0.929386, 0.925481, 0.925849, 0.794497, 0.890379, 0.810721, 0.973943, 0.979334, 0.979832, 0.976047, 0.998768, 1.12544, 1.05114, 0.905184, 0.920799, 0.923675, 0.939414, 0.930158, 0.939821, 0.915457, 0.986911, 0.973979, 0.96818, 1.0065, 0.99931, 1.00999, 1.1221, 1.07559, 1.10629, 1.1166, 1.11296, 1.11674, 1.13054, 1.19082, 1.12897, 1.12536, 1.13676, 1.18744, 1.09195, 1.02352, 0.98437, 0.973978, 0.974983, 1.01142, 0.984737, 1.05289, 1.11263, 1.05574, 1.09546, 1.06158, 1.11492, 0.990387, 0.968767, 0.969765, 0.960153, 0.970671, 0.968743, 1.0081, 1.02395, 1.02411, 0.989682, 0.990541, 0.912954, 0.908256, 0.88177, 0.887852, 0.875733, 0.889175, 0.862857, 0.866174, 0.864012, 0.821711, 0.812344, 0.777972, 0.757014, 0.732465, 0.74485, 0.719109, 0.716545, 0.721966, 0.721698, 0.721361, 0.765019, 0.685321, 0.690699, 0.663627, 0.638911, 0.686323, 0.683397, 0.657251, 0.638025, 0.636863, 0.673724, 0.624263, 0.621433, 0.617927, 0.614678, 0.663802, 0.635694, 0.587776, 0.611174, 0.621783, 0.593657, 0.569376, 0.56526, 0.550939, 0.55063, 0.575447, 0.574302, 0.574301, 0.57209, 0.570466, 0.569497, 0.565586, 0.562781, 0.561016, 0.559547, 0.556335, 0.553897, 0.5538, 0.554131, 0.544752, 0.544701, 0.54344, 0.544007, 0.534018, 0.529786, 0.529746, 0.52887, 0.528179, 0.805659, 0.666807, 0.518174, 0.677329, 0.50292, 0.686647, 0.669614, 0.686812, 0.495957, 0.491579, 0.490744, 0.490725, 0.491373, 0.491461, 0.49286, 0.493122, 0.49227, 0.492243, 0.490018, 0.481061, 0.476873, 0.476395, 0.476031, 0.475719, 0.476163, 0.479212, 0.47998, 0.479197, 0.479001, 0.478096, 0.515496, 0.5463, 0.610113, 0.446292, 0.446299, 0.43035, 0.430092, 0.431785, 0.431669, 0.432006
0.827824, 0.828242, 0.828027, 0.822656, 1.03029, 0.893123, 1.06698, 0.885639, 1.0379, 1.12756, 1.09613, 0.816768, 0.817198, 0.816233, 0.785938, 0.784331, 0.784505, 0.88138, 0.788125, 0.788132, 0.788236, 1.01693, 0.782594, 0.784273, 0.786722, 0.786839, 0.795132, 0.794645, 0.793566, 0.793466, 0.792911, 0.793648, 0.792745, 0.789232, 0.788772, 0.78772, 0.779086, 0.785788, 0.786514, 0.786217, 0.786284, 0.784949, 0.773357, 0.78164, 0.780501, 0.781396, 0.790474, 1.02598, 0.795218, 0.801793, 0.801058, 1.02993, 0.783111, 1.02912, 0.777498, 0.777198, 0.776033, 0.775068, 0.767, 0.769682, 0.768205, 0.768395, 0.769026, 0.769063, 0.768284, 0.773204, 0.985327, 0.795623, 0.78711, 0.786703, 0.776896, 0.774552, 0.774884, 0.775823, 0.761716, 0.760993, 0.757236, 0.755722, 0.925195, 0.742289, 0.741893, 0.740594, 0.739316, 0.738576, 0.732622, 0.731821, 0.729362, 0.726727, 0.722939, 0.722819, 0.726768, 0.725567, 0.725603, 0.721173, 0.790612, 0.748752, 0.748783, 0.747391, 0.75196, 0.750287, 0.737195, 0.737294, 0.921343, 0.817036, 0.771068, 0.781118, 0.967802, 0.967074, 0.970141, 0.972065, 0.929441, 0.929921, 0.855231, 0.878546, 0.884029, 0.898783, 0.884388, 0.917592, 0.904654, 0.90381, 0.899031, 0.902161, 0.905569, 0.923178, 0.998821, 0.978105, 0.971422, 0.998972, 1.01948, 1.02658, 1.1062, 1.11632, 1.11772, 1.13265, 1.19996, 1.06319, 1.0627, 0.998797, 1.08494, 0.980126, 0.993852, 0.96006, 0.914277, 0.914376, 0.938082, 0.953739, 0.954217, 1.03617, 1.03777, 1.01506, 1.03565, 0.983474, 0.956246, 0.93569, 0.99605, 0.92121, 0.921787, 0.990805, 1.01231, 1.03311, 0.997299, 0.975017, 0.918406, 0.909316, 0.848961, 0.828543, 0.839554, 0.837046, 0.900793, 0.828482, 0.804523, 0.766339, 0.768638, 0.770349, 0.748425, 0.73511, 0.727969, 0.723185, 0.718322, 0.73782, 0.690122, 0.68853, 0.695023, 0.731435, 0.638619, 0.638199, 0.631555, 0.631463, 0.627961, 0.62592, 0.627671, 0.629375, 0.631295, 0.652053, 0.621834, 0.603383, 0.603281, 0.616239, 0.595524, 0.592073, 0.588911, 0.622415, 0.546898, 0.549045, 0.638161, 0.552331, 0.57153, 0.573189, 0.577573, 0.578718, 0.582029, 0.572562, 0.573011, 0.57252, 0.563273, 0.562368, 0.562855, 0.560656, 0.555969, 0.559018, 0.555407, 0.553493, 0.549135, 0.548213, 0.782937, 0.528445, 0.534244, 0.528951, 0.528445, 0.527621, 0.526454, 0.520961, 0.517327, 0.508278, 0.508557, 0.508947, 0.508938, 0.500336, 0.500269, 0.490639, 0.493056, 0.493089, 0.494791, 0.492929, 0.49283, 0.493448, 0.493733, 0.493732, 0.49133, 0.661886, 0.482525, 0.479037, 0.477579, 0.472983, 0.472287, 0.471799, 0.470929, 0.476733, 0.478415, 0.479458, 0.479341, 0.479278, 0.507927, 0.507332, 0.681244, 0.438272, 0.437845, 0.437159, 0.43651, 0.436597
0.82883, 0.829142, 0.8265, 0.825004, 0.824645, 1.02561, 1.01448, 0.804892, 1.01836, 1.01661, 0.869609, 0.818811, 0.81989, 0.820452, 0.915643, 0.908646, 0.868288, 0.976941, 1.13308, 1.1403, 0.811493, 0.809666, 1.1374, 0.800038, 0.798862, 0.797163, 0.960171, 0.980819, 0.832791, 0.862095, 0.792332, 0.793766, 0.792571, 0.788356, 0.787689, 0.789351, 0.966959, 0.797156, 0.796319, 0.786212, 0.786488, 0.787543, 0.78719, 0.784492, 0.78492, 0.785559, 1.00854, 1.0394, 0.806681, 1.04982, 1.02958, 1.03757, 1.03424, 0.792289, 0.789743, 0.787797, 0.851471, 0.785298, 0.781471, 0.773596, 0.767615, 0.766083, 0.767689, 0.76368, 0.991583, 0.793782, 0.794948, 0.794305, 0.792533, 0.763585, 0.763198, 0.762798, 0.7613, 0.759716, 0.761647, 0.76619, 0.764551, 0.754455, 0.753817, 0.891067, 0.739136, 0.739296, 0.739614, 0.737471, 0.738187, 0.736796, 0.735309, 0.728104, 0.727988, 0.724741, 0.724146, 0.723937, 0.722372, 0.724398, 0.721428, 0.722304, 0.815311, 0.96611, 0.8121, 0.735416, 0.73687, 0.737937, 0.73583, 0.871066, 0.870749, 0.772684, 0.877737, 0.798277, 0.826183, 0.818689, 0.81872, 0.827424, 0.863789, 0.830172, 0.830715, 0.85644, 0.88666, 0.885455, 0.88468, 0.876409, 0.878377, 0.859349, 0.891104, 0.894794, 0.911864, 0.941921, 0.942895, 1.02007, 1.02478, 1.03613, 1.03559, 1.06716, 1.10137, 1.11472, 1.11202, 1.03891, 0.998051, 1.0081, 0.942886, 0.921733, 0.92286, 0.966533, 0.918797, 0.879978, 0.879419, 0.967268, 0.878156, 0.928374, 0.936181, 0.976817, 0.99349, 0.993464, 0.980493, 0.912171, 0.910357, 0.882721, 0.907025, 0.903117, 0.978767, 0.980947, 0.981047, 0.939508, 0.859903, 0.818666, 0.820013, 0.824707, 0.80785, 0.826273, 0.774361, 0.773002, 0.773233, 0.766725, 0.768193, 0.749054, 0.745529, 0.746729, 0.716457, 0.716924, 0.730922, 0.780688, 0.691454, 0.689977, 0.672777, 0.632326, 0.632703, 0.632744, 0.624725, 0.619841, 0.615222, 0.622952, 0.62317, 0.621675, 0.618911, 0.621104, 0.641033, 0.60688, 0.607805, 0.625546, 0.625192, 0.62509, 0.61948, 0.624414, 0.546481, 0.559012, 0.571615, 0.572878, 0.575161, 0.58091, 0.581227, 0.581218, 0.581712, 0.582651, 0.582866, 0.576497, 0.576083, 0.818305, 0.565239, 0.557056, 0.558807, 0.558076, 0.557545, 0.555992, 0.553242, 0.551873, 0.541492, 0.542308, 0.540443, 0.538218, 0.526268, 0.521892, 0.521887, 0.519233, 0.649359, 0.510987, 0.507734, 0.506962, 0.507796, 0.510238, 0.505052, 0.488861, 0.489308, 0.490214, 0.488218, 0.48813, 0.49286, 0.49404, 0.49527, 0.494183, 0.493995, 0.493735, 0.968052, 0.474548, 0.474422, 0.474732, 0.476033, 0.473704, 0.47248, 0.473321, 0.479436, 0.481173, 0.48247, 0.482405, 0.484666, 0.484357, 0.516155, 0.516465, 0.439747, 0.440332, 0.439803, 0.439573
0.835369, 0.834373, 0.832919, 1.11526, 0.828224, 0.828595, 0.995293, 1.00862, 0.81127, 1.02411, 0.944831, 1.03003, 0.823085, 1.10309, 1.01991, 0.875439, 0.873893, 0.804504, 0.804831, 0.804001, 0.811395, 0.805595, 0.805328, 0.801865, 0.801055, 0.802649, 0.802691, 0.831789, 0.831848, 0.831797, 0.882921, 0.797861, 0.797784, 0.798469, 1.16429, 0.803086, 0.825632, 0.816509, 0.960348, 0.785507, 0.786893, 0.787294, 0.79201, 0.790504, 0.786295, 1.04497, 1.39805, 1.39839, 1.06463, 0.818583, 0.818914, 0.818967, 0.841767, 0.789629, 0.7907, 0.79104, 0.791831, 0.789855, 0.871254, 0.871776, 0.766499, 0.766451, 0.767788, 1.04918, 1.13191, 0.795597, 0.795511, 0.795065, 0.984694, 0.762714, 0.762513, 0.762252, 0.757955, 0.757691, 0.756503, 0.755897, 0.755647, 0.756359, 0.932006, 0.743083, 0.741584, 0.737242, 0.737248, 0.737999, 0.737635, 0.738097, 0.736393, 0.730491, 0.729693, 0.728036, 0.727224, 0.723217, 0.722143, 0.719369, 0.71987, 0.719989, 0.745645, 0.74494, 0.744082, 0.74459, 0.744205, 0.742053, 0.741703, 0.745415, 0.746437, 0.832185, 0.875632, 0.84823, 0.931051, 0.845177, 0.798299, 0.815713, 0.828888, 0.821885, 0.848397, 0.824967, 0.878395, 0.863051, 0.99725, 0.861844, 0.854759, 0.854732, 0.863086, 0.881251, 0.883442, 0.899082, 0.908107, 0.904009, 0.908574, 1.03852, 1.03736, 1.04697, 1.05217, 1.01684, 1.02732, 0.969747, 0.887983, 0.887096, 0.909081, 0.857126, 0.850228, 0.832979, 0.824687, 0.840911, 0.843761, 0.894514, 0.854229, 0.866798, 0.86553, 0.914878, 0.909862, 0.909341, 0.881012, 0.929321, 0.863387, 0.860095, 0.874143, 0.877799, 0.87787, 0.890619, 0.87063, 0.856372, 0.838693, 0.845669, 0.845874, 0.826317, 0.816135, 0.783607, 0.764454, 0.757639, 0.738312, 0.742137, 0.736407, 0.721447, 0.722267, 0.748387, 0.733007, 0.73499, 0.717916, 0.681547, 0.697651, 0.697975, 0.672469, 0.634888, 0.607002, 0.654128, 0.607064, 0.601234, 0.631171, 0.613834, 0.641289, 0.643417, 0.646043, 0.677148, 0.666004, 0.646916, 0.644744, 0.616038, 0.615817, 0.59174, 0.604723, 0.609855, 0.610873, 0.602377, 0.602957, 0.738734, 0.590333, 0.589693, 0.586414, 0.583187, 0.583267, 0.582642, 0.584432, 0.58635, 0.586215, 0.580723, 0.79126, 0.814222, 0.558628, 0.554136, 0.555148, 0.555116, 0.555083, 0.552099, 0.548983, 0.540326, 0.541403, 0.540824, 0.528905, 0.527186, 0.524618, 0.518481, 0.511342, 0.510092, 0.509329, 0.510316, 0.507968, 0.505906, 0.503033, 0.504243, 0.490648, 0.48832, 0.488747, 0.4876, 0.48738, 0.49229, 0.496075, 0.49875, 0.497774, 0.494853, 0.719223, 0.485098, 0.474521, 0.478755, 0.479651, 0.476988, 0.471453, 0.471317, 0.472222, 0.472302, 0.476592, 0.47774, 0.478348, 0.477435, 0.477338, 0.472566, 0.437501, 0.438905, 0.44149, 0.44285
0.840812, 0.838381, 0.94068, 0.923931, 0.831079, 0.829421, 0.824448, 0.823452, 0.820326, 0.892099, 0.822745, 1.26709, 1.26759, 0.836721, 0.877878, 0.939428, 0.809916, 0.811178, 0.810803, 0.809382, 0.81104, 0.811445, 0.808327, 0.804636, 0.802631, 0.80346, 0.874654, 0.831762, 0.832857, 1.00487, 0.79779, 0.797417, 0.799894, 0.79954, 0.799396, 0.8216, 0.91132, 0.982336, 0.97118, 0.803719, 0.790708, 0.790172, 0.789983, 0.791297, 0.791864, 1.04304, 1.04278, 1.04233, 1.0916, 0.819467, 0.818506, 0.818273, 1.07821, 0.819577, 0.808322, 0.80873, 0.803647, 0.80291, 0.797574, 0.796729, 0.876141, 1.11934, 0.790911, 0.889414, 0.97078, 0.798645, 0.799643, 0.795861, 0.933727, 1.0713, 0.760262, 0.756509, 0.758218, 0.756331, 0.755561, 0.75453, 0.755291, 0.746338, 0.744242, 0.741234, 0.740112, 0.739701, 0.73924, 0.986095, 1.01952, 1.01864, 0.739715, 0.737378, 0.733144, 0.734573, 0.733747, 0.73508, 0.723587, 0.717723, 0.71754, 0.717208, 0.715078, 0.714885, 0.741439, 0.742064, 0.748759, 0.747986, 0.740928, 0.739886, 0.746768, 0.74671, 0.74661, 0.7609, 0.775812, 0.775549, 0.775818, 0.776818, 0.786319, 0.805274, 0.807521, 0.832372, 0.860264, 0.857085, 0.863107, 0.834756, 0.903104, 0.853713, 0.854717, 0.855067, 0.860257, 0.867685, 0.868293, 0.86829, 0.868038, 0.886452, 0.879898, 0.958001, 0.896194, 0.893052, 0.968521, 0.857121, 0.853915, 0.852902, 0.838634, 0.81947, 0.81899, 0.821522, 0.80487, 0.805254, 0.813307, 0.814562, 0.842248, 0.823996, 0.824454, 0.877592, 0.871543, 0.849332, 0.883795, 0.835185, 0.873092, 0.850961, 0.897542, 0.866996, 0.832678, 0.84207, 0.822844, 0.822807, 0.812407, 0.812856, 0.796653, 0.781227, 0.775713, 0.764661, 0.789924, 0.755752, 0.732631, 0.73237, 0.701092, 0.678327, 0.728593, 0.677247, 0.671605, 0.667655, 0.707926, 0.673797, 0.674154, 0.665087, 0.6221, 0.61539, 0.610707, 0.605633, 0.608579, 0.60724, 0.641662, 0.679029, 0.61508, 0.63339, 0.623039, 0.657793, 0.690416, 0.678607, 0.675959, 0.616463, 0.616359, 0.614872, 0.604246, 0.603538, 0.603699, 0.602311, 0.603756, 0.604066, 0.591253, 0.590728, 0.584837, 0.584308, 0.582363, 0.583409, 0.583503, 0.584147, 0.585065, 0.784139, 0.789876, 0.908599, 0.559953, 0.560732, 0.55417, 0.554304, 0.551907, 0.551754, 0.550481, 0.545553, 0.544249, 0.542883, 0.541641, 0.526079, 0.699172, 0.510184, 0.511075, 0.511408, 0.511567, 0.508252, 0.505424, 0.504388, 0.503218, 0.503529, 0.503358, 0.487714, 0.492935, 0.490803, 0.491964, 0.700045, 0.507857, 0.509395, 0.510025, 0.507593, 0.572813, 0.572914, 0.475023, 0.476175, 0.48277, 0.479644, 0.474735, 0.473935, 0.474743, 0.472945, 0.471482, 0.472187, 0.471246, 0.471507, 0.472661, 0.472573, 0.473749, 0.476459, 0.551694, 0.444541
0.842369, 0.84027, 0.839698, 1.04502, 1.04299, 0.834113, 0.829047, 0.826788, 0.824, 0.823198, 0.823956, 0.824964, 1.26725, 0.936275, 0.814538, 0.814862, 0.815194, 0.814278, 0.813073, 0.813144, 0.811529, 0.811541, 0.811697, 0.805358, 0.806643, 0.807105, 0.80711, 0.807433, 0.842517, 0.936673, 0.806388, 0.805553, 0.814237, 0.812959, 0.818497, 0.821726, 0.820128, 0.979952, 0.922292, 0.96791, 1.15456, 0.793317, 0.794107, 0.7982, 0.797177, 0.797061, 0.803514, 0.802254, 0.810627, 0.811474, 0.82044, 0.820348, 0.822043, 0.814915, 0.814803, 0.815147, 0.812023, 0.877708, 0.876409, 1.24412, 1.31003, 0.905422, 0.99754, 0.993141, 1.02128, 0.799239, 0.80038, 0.800573, 0.871493, 0.886514, 0.762636, 0.757668, 0.755599, 0.749841, 0.749118, 0.748603, 1.10592, 0.742523, 0.741902, 0.741706, 0.741717, 0.755678, 0.755036, 0.750458, 0.750897, 0.749752, 0.748568, 0.741757, 0.740925, 0.739501, 0.738434, 0.738736, 0.735291, 0.727925, 0.722508, 0.718606, 0.719403, 0.725686, 0.726249, 0.73202, 0.748398, 0.748733, 0.748646, 0.75203, 0.746488, 0.746444, 0.75894, 0.780699, 0.773329, 0.77329, 0.77417, 0.773998, 0.772787, 0.783518, 0.783264, 0.810926, 0.812476, 0.849651, 0.856493, 0.936641, 0.895161, 0.987341, 0.840534, 0.846162, 0.840237, 0.839854, 0.991032, 0.914078, 0.884623, 0.879324, 0.879163, 0.886961, 0.892408, 0.889415, 0.834418, 0.823684, 0.823852, 0.822243, 0.81232, 0.819777, 0.807568, 0.805387, 0.803126, 0.804321, 0.791339, 0.798409, 0.814779, 0.812378, 0.811782, 0.799077, 0.793343, 0.842077, 0.838688, 0.816667, 0.788252, 0.78871, 0.805826, 0.797111, 0.833802, 0.832312, 0.79906, 0.818408, 0.800309, 0.790837, 0.781792, 0.79923, 0.798939, 0.762736, 0.752824, 0.734009, 0.728952, 0.7198, 0.723019, 0.674666, 0.677073, 0.671288, 0.671442, 0.669116, 0.664162, 0.715941, 0.621727, 0.686544, 0.618545, 0.618792, 0.626596, 0.63151, 0.634782, 0.608061, 0.60862, 0.635142, 0.662209, 0.638133, 0.638661, 0.650653, 0.650299, 0.650382, 0.637117, 0.619467, 0.619564, 0.620787, 0.603159, 0.601146, 0.599653, 0.600962, 0.599115, 0.601979, 0.590814, 0.584194, 0.583963, 0.583195, 0.582739, 0.582162, 0.583554, 0.584761, 0.584396, 0.584464, 0.585226, 0.585661, 0.915828, 0.912803, 0.911786, 0.772716, 0.771274, 0.562761, 0.559586, 0.548866, 0.543083, 0.543472, 0.543695, 0.544739, 0.886716, 0.527699, 0.523925, 0.520492, 0.511785, 0.513425, 0.505251, 0.505549, 0.504182, 0.50241, 0.503623, 0.491916, 0.493003, 0.492786, 0.496124, 0.496355, 0.496602, 0.510825, 0.512189, 0.512186, 0.511703, 0.569293, 0.490479, 0.488135, 0.486915, 0.482469, 0.480333, 0.480198, 0.47959, 0.472631, 0.473535, 0.474462, 0.473757, 0.470786, 0.469441, 0.470112, 0.475457, 0.47574, 0.474612, 0.441081
0.83998, 0.840192, 0.846171, 0.941976, 0.933727, 0.933039, 0.833233, 0.831338, 0.827073, 0.826659, 0.82842, 0.92919, 1.00542, 0.824692, 0.821187, 0.817336, 0.814689, 0.81791, 0.817152, 0.816226, 0.811237, 0.810762, 0.810719, 0.810688, 0.808712, 0.807919, 0.80906, 0.811208, 0.820751, 0.819485, 0.811344, 0.814357, 0.814364, 0.815427, 0.820955, 0.884029, 0.883357, 0.988517, 0.981858, 0.919101, 0.916211, 0.797166, 0.798204, 0.799661, 0.819046, 1.04237, 0.803543, 0.901204, 0.814623, 0.823333, 0.822087, 0.821655, 0.816202, 0.814268, 0.811639, 0.814418, 0.814567, 0.814819, 0.812737, 0.908356, 1.17041, 0.908422, 0.84596, 1.06368, 0.80347, 0.805724, 0.805566, 0.804906, 0.793606, 0.793169, 0.768702, 0.768631, 1.21667, 0.755885, 0.752595, 0.748551, 1.10612, 1.11196, 0.743557, 0.743583, 0.950213, 1.08356, 0.748996, 0.752505, 0.751263, 0.750823, 0.750234, 0.746825, 0.744898, 0.742001, 0.742481, 0.739827, 0.73904, 0.732428, 0.730293, 0.728473, 0.727573, 0.726618, 0.731896, 0.733747, 0.875276, 0.742321, 0.882108, 0.865587, 1.36858, 0.821103, 0.97178, 0.801182, 0.772567, 0.772805, 0.773121, 0.769553, 0.772879, 0.779513, 0.778675, 0.985256, 0.968008, 0.829998, 0.941866, 0.910498, 0.877999, 0.925732, 0.857352, 1.02914, 0.881302, 0.932896, 0.911905, 0.915732, 0.986854, 0.818705, 0.841743, 1.0115, 0.85051, 0.918923, 0.82512, 0.814621, 0.807892, 0.786206, 0.82936, 0.845114, 0.842641, 0.790315, 0.787337, 0.787349, 0.776431, 0.843361, 0.880914, 0.784856, 0.778675, 0.788046, 0.780352, 0.787651, 0.79214, 0.790366, 0.801363, 0.768149, 0.770702, 0.777702, 0.777993, 0.770195, 0.763267, 0.75738, 0.780634, 0.754723, 0.779973, 0.781599, 0.762191, 0.760239, 0.756623, 0.773967, 0.721215, 0.737102, 0.736304, 0.758607, 0.67332, 0.670288, 0.667097, 0.687874, 0.648761, 0.705899, 0.625134, 0.655766, 0.625792, 0.631539, 0.614635, 0.638595, 0.642994, 0.634196, 0.635515, 0.635798, 0.664836, 0.666127, 0.636717, 0.635917, 0.636712, 0.629142, 0.629367, 0.630702, 0.620345, 0.609563, 0.60563, 0.605463, 0.603665, 0.597572, 0.597921, 0.597336, 0.596811, 0.591579, 0.58391, 0.583689, 0.582875, 0.583461, 0.583662, 0.582997, 0.581799, 0.584103, 0.587099, 0.587854, 0.58756, 0.583097, 0.583131, 0.849565, 0.704889, 0.706613, 0.57359, 0.700525, 0.762527, 0.544602, 0.544829, 0.544749, 0.530982, 0.531996, 0.531479, 0.515765, 0.516602, 0.515934, 0.515093, 0.503826, 0.504311, 0.501752, 0.500616, 0.499039, 0.499737, 0.499694, 0.495561, 0.498334, 0.500202, 0.499902, 0.511678, 0.512409, 0.511732, 0.510734, 0.509859, 0.573015, 0.742348, 0.479133, 0.479438, 0.480332, 0.482082, 0.48161, 0.481167, 0.477323, 0.477169, 0.471093, 0.472333, 0.473365, 0.475568, 0.474461, 0.474336, 0.46388
0.842086, 0.84228, 0.845152, 0.845786, 0.845545, 0.845009, 0.836407, 0.835825, 0.8316, 0.83158, 0.828763, 0.8287, 0.831904, 0.835245, 0.828377, 0.825438, 0.824806, 0.821457, 0.817735, 0.817252, 0.813779, 0.813465, 0.812561, 0.81143, 0.810151, 0.809897, 0.810908, 0.813732, 0.821047, 0.819028, 0.818119, 0.817858, 0.818135, 0.8222, 0.823147, 0.888173, 0.881208, 0.963176, 0.99397, 1.11238, 1.12277, 1.10166, 0.807543, 0.806664, 1.05001, 0.814035, 0.816708, 0.81827, 0.818371, 0.818937, 0.811006, 0.810972, 0.812523, 0.814512, 0.817151, 0.816214, 0.814385, 0.814178, 0.812557, 0.811625, 0.857905, 0.909492, 0.808263, 0.809471, 0.810202, 0.809415, 0.810582, 0.805308, 0.88251, 0.895046, 0.91782, 0.919, 1.17092, 0.753476, 0.753202, 0.752253, 0.752723, 0.750625, 0.750258, 0.752914, 0.756217, 0.7561, 1.00584, 0.752844, 0.753698, 0.754349, 0.751809, 0.749483, 0.749148, 0.741891, 0.740916, 0.741728, 0.740054, 0.739742, 0.734508, 0.734158, 0.73391, 0.734544, 0.73397, 0.735082, 0.735211, 0.998483, 0.745013, 0.745593, 1.19419, 1.19914, 0.784242, 1.10204, 0.773462, 0.795093, 1.08427, 0.767664, 0.767529, 0.767166, 0.769137, 0.963234, 0.790275, 0.880031, 0.920336, 0.912929, 0.809113, 0.905006, 0.892608, 0.98556, 0.901913, 0.900872, 0.87115, 0.904913, 0.877896, 0.90133, 0.99478, 0.995193, 0.954462, 0.795301, 0.911329, 0.804074, 0.814122, 0.792092, 0.776724, 0.913938, 0.763062, 0.937014, 0.770062, 0.756196, 0.75256, 0.765576, 0.757568, 0.754899, 0.754468, 0.752618, 0.764206, 0.82308, 0.783019, 0.773353, 0.759419, 0.756582, 0.757109, 0.763516, 0.74763, 0.753181, 0.786408, 0.738423, 0.738666, 0.738764, 0.744538, 0.757643, 0.75782, 0.722233, 0.735183, 0.735195, 0.746499, 0.750609, 0.718501, 0.722647, 0.674403, 0.670898, 0.679105, 0.6594, 0.677309, 0.627719, 0.625463, 0.623735, 0.638534, 0.611151, 0.610356, 0.612601, 0.69855, 0.634831, 0.618182, 0.61727, 0.874079, 0.698701, 0.732747, 0.623473, 0.622054, 0.621857, 0.629579, 0.615146, 0.615152, 0.615445, 0.612273, 1.08152, 0.603207, 0.596741, 0.596895, 0.597463, 0.596253, 0.593982, 0.593064, 0.580719, 0.582587, 0.582806, 0.584307, 0.584975, 0.586074, 0.585049, 0.5851, 0.589329, 0.587013, 0.584959, 0.5849, 0.583414, 0.697711, 0.611526, 0.767128, 0.777469, 0.770688, 0.547217, 0.546034, 0.548112, 0.54856, 0.549623, 0.548597, 0.829105, 0.524228, 0.521371, 0.512942, 0.513433, 0.502954, 0.503693, 0.503719, 0.503211, 0.50466, 0.504755, 0.497542, 0.498052, 0.498666, 0.50204, 0.504556, 0.509422, 0.50952, 0.510113, 0.510452, 0.510568, 0.510195, 1.04212, 0.758907, 0.683966, 0.48228, 0.482744, 0.804293, 0.477064, 0.468972, 0.470771, 0.471979, 0.47277, 0.474736, 0.474864, 0.476171, 0.476228
