1.20825,1.21736,1.29901,1.23379,1.23757,1.23875,1.24403,1.24449,1.24911,1.24908,1.25136,1.3399,1.26678,1.26661,1.26502,1.26761,1.26745,1.26834,1.26741,1.27482,1.28018,1.28224,1.34713,1.30389,1.30204,1.30134,1.30162,1.29319,1.39996,1.41809,1.4215,1.29471,1.28642,1.28643,1.27752,1.27824,1.27857,1.28936,1.29133,1.29166,1.29457,1.29451,1.29807,1.443,1.31591,1.3168,1.32433,1.36592,1.47394,1.47302,1.47451,1.40059,1.53081,1.5583,1.48604,1.42238,1.42233,1.42292,1.42149,1.4024,1.39416,1.39335,1.39076,1.38235,1.37957,1.37438,1.37145,1.37144,1.36882,1.37412,1.37292,1.37438,1.37376,1.37307,1.37282,1.37381,1.48047,1.37966,1.38542,1.38496,1.46018,1.51017,1.39235,1.43985,1.39677,1.39925,1.39868,1.39574,1.39643,1.39802,1.4009,1.40293,1.40343,1.4063,1.40504,1.40351,1.40482,1.40357,1.40169,1.40356,1.39715,1.43723,1.50047,1.54257,1.57846,0.0035987,1.54366,0.00398895,1.42036,1.42033,1.41992,1.42896,1.42875,1.52986,1.45684,1.45978,1.45883,1.46054,1.45729,1.46615,1.46627,1.46504,1.44631,1.44688,1.4401,1.43807,1.43602,1.43614,1.43486,1.44231,1.44103,1.44475,1.4119,1.47198,1.47147,1.39493,1.40679,1.4118,1.41136,1.41096,1.42678,1.40302,1.47536,1.47476,1.41017,1.4089,1.46194,1.42335,1.43493,1.42143,1.41555,1.41609,1.40349,1.38217,1.39556,1.40398,1.40491,1.40626,1.46514,1.46562,1.47865,1.4474,1.40883,1.41705,1.41641,1.40325,1.39957,1.38762,1.38708,1.41505,1.38256,1.38873,1.43047,1.44151,1.43197,1.42795,1.44839,1.44772,1.44662,1.43769,1.41127,1.42572,1.48624,1.46479,1.47926,1.41067,1.41317,1.49909,1.48769,1.52333,1.51862,1.51833,1.5191,1.52597,0.00374249,1.4826,1.4702,1.45308,1.45146,1.45027,1.45672,1.46441,1.57145,1.56763,1.57254,1.5687,1.57582,1.57394,1.58575,1.58474,1.58258,1.58374,1.56867,1.56914,1.57259,1.57061,1.57104,1.56785,1.56806,0.00355988,1.58157,1.57606,1.57686,1.59629,1.59618,1.60983,1.62372,1.6264,1.62458,1.62231,1.62676,1.6347,1.63384,1.64136,1.64788,1.64686,1.65198,1.65598,1.66344,1.66917,1.6689,1.67035,1.67672,1.67696,1.68127,1.67998,1.67897,1.67954,1.68283,1.68375,1.68338,1.68934,1.69202,1.70374,1.70276,1.70252,1.71083,1.71375,1.71181,1.71424,1.72019,1.71875,1.71884,1.71906,1.72813,1.72593,1.72876,1.73263,1.73351,1.73752,1.73804,1.7406,1.74089,1.74386,1.74712,1.74259,1.74664,1.74375,1.74224,1.74013,1.74441,1.73971,1.74227,1.75268,1.75256,1.75475,1.75258,1.75718,1.75611,1.754,1.75565,1.75625,1.75393,1.76108,1.75776,1.75882,1.76063,1.76074,1.75769,1.75805
1.21179,1.21148,1.22002,1.22669,1.2311,1.23361,1.24203,1.24446,1.25273,1.25189,1.25998,1.26005,1.26226,1.26254,1.2518,1.25293,1.25705,1.26043,1.43696,1.27785,0.0037202,0.00377351,0.00360252,1.3037,1.30141,1.29332,1.29443,1.28641,1.28092,1.27865,1.27785,1.27935,1.26157,1.26039,1.26435,1.27325,1.27369,1.2886,1.28998,1.28894,1.29449,1.29708,1.29797,1.30147,1.30824,1.31473,1.31523,1.31839,1.3192,1.4933,1.37884,1.39404,1.3606,1.3673,1.41097,1.41007,1.36939,1.41455,1.43715,1.43683,1.50746,1.51579,1.51631,1.35916,1.35815,1.35581,1.36093,1.35732,1.36676,1.36838,1.36854,1.37068,1.37414,1.37265,1.37005,1.36837,1.36826,1.45318,1.50913,1.3794,1.38212,1.3829,1.38773,1.38897,1.39171,1.39342,1.39621,1.3982,1.39769,1.40157,1.40234,1.40309,1.40655,1.40387,1.40493,1.40563,1.40723,1.41238,1.41118,1.41247,1.41031,1.41003,1.41969,1.41948,1.42924,1.42977,1.43356,1.43835,1.44385,1.44178,1.44466,1.44516,1.44374,1.44386,1.65413,1.44889,1.45968,1.45881,1.46367,1.46432,1.47221,1.47204,1.47068,1.46769,1.45446,1.43788,1.43428,1.43351,1.42188,1.40921,1.41751,1.41386,1.41778,1.4178,1.41927,1.41395,1.41538,1.415,1.4123,1.41085,1.41238,1.40822,1.40555,1.41291,1.39656,1.43026,1.43284,1.4055,1.40286,1.40155,1.3942,1.4051,1.41043,1.41223,1.39037,1.40333,1.4404,1.39144,1.40402,1.4059,1.39047,1.3963,1.41547,1.37359,1.40569,1.39137,1.383,1.38858,1.37056,1.35896,1.37656,1.37193,1.3855,1.41917,1.41325,1.41525,1.38937,1.43355,1.39188,1.38142,1.38189,1.4034,1.431,1.45261,1.48296,1.47199,1.51393,1.47107,1.47415,1.51709,1.49439,1.49312,1.65404,1.54735,1.54674,1.55643,1.49954,1.48254,1.491,1.48454,1.48335,1.58569,1.58651,1.58891,1.56782,1.56501,1.56839,1.58147,1.57754,1.57966,1.57333,1.56613,1.5656,1.56598,1.55398,1.55763,1.55688,1.55705,1.55774,1.56474,1.56751,1.5762,1.57608,0.0041101,0.00398921,1.59982,1.60815,1.61221,1.62042,1.62024,1.62666,1.62666,1.63006,1.62836,1.63688,1.64697,1.64487,1.64969,1.64744,1.65686,1.666,1.66981,1.65695,1.66126,1.66091,1.67622,1.67514,1.67543,1.67548,1.68547,1.68203,1.68787,1.68866,1.69655,1.70264,1.70395,1.71272,1.71405,1.71144,1.72011,1.71487,1.71642,1.71492,1.72085,1.71961,1.71923,1.72061,1.73734,1.73686,1.73041,1.73354,1.73249,1.73838,1.73539,1.74017,1.7398,1.74195,1.74676,1.74605,1.74524,1.74034,1.74428,1.74174,1.74117,1.7421,1.74853,1.74854,1.75761,1.75625,1.75707,1.75694,1.7492,1.74835,1.75247,1.74667,1.75188,1.74912,1.75117,1.75018,1.74766
1.21346,1.22233,1.22191,1.22627,1.23228,1.23264,1.22935,1.23467,1.26673,1.23728,1.30042,1.30364,1.24021,1.24456,1.24668,1.27873,1.2588,1.29957,1.41384,0.00395719,0.00392192,0.00377499,1.37526,1.37451,1.29442,1.29396,1.2935,1.289,1.28623,1.28542,1.26981,1.26514,1.26881,1.27541,1.27998,1.28388,1.28787,1.28878,1.28969,1.28963,1.28937,1.29161,1.29638,1.29653,1.2994,1.29738,1.30115,1.3091,1.30902,1.31023,1.32771,1.3194,1.31784,1.31723,1.31956,1.32142,1.32128,1.32185,1.32667,1.33434,1.47678,1.49091,1.35401,1.34653,1.35146,1.35083,1.35173,1.35455,1.35533,1.35404,1.39964,1.36685,1.3672,1.36904,1.36836,1.3665,1.36758,1.36733,1.3673,1.48942,1.49809,1.38229,1.38791,1.39057,1.38968,1.39547,1.3982,1.40309,1.40457,1.40491,1.40731,1.41247,1.41346,1.41491,1.40873,1.4074,1.40755,1.4078,1.40604,1.49017,1.48508,1.4407,1.44346,1.44315,1.44702,1.44085,1.44134,1.44431,1.44529,1.44631,1.44712,1.4461,1.44161,1.44035,1.44728,1.44445,1.44466,1.45898,1.4592,1.46444,1.47115,1.46975,1.46793,1.46729,1.44701,1.44815,1.43609,1.4355,1.43546,1.40791,1.41145,1.42297,1.40945,1.40153,1.40876,1.41106,1.40566,1.40432,1.40661,1.43112,1.39939,1.40824,1.40403,1.40559,1.40296,1.3846,1.38831,1.38315,1.40712,1.40815,1.4057,1.41538,1.43764,1.41149,1.38686,1.38962,1.39348,1.41149,1.42037,1.41959,1.39813,1.39923,1.41929,1.41004,1.41315,1.41281,1.38627,1.43069,1.39962,1.39987,1.39649,1.38934,1.38978,1.40062,1.3511,1.35149,1.39512,1.40067,1.40729,1.39838,1.40903,1.40602,1.40642,1.38888,1.42824,1.4515,1.45433,1.45513,1.45579,1.46058,1.45914,1.49484,1.49526,1.54567,1.47083,1.4815,1.46847,1.4669,1.46795,1.59137,1.58945,1.50574,1.48228,1.56721,1.5663,1.56738,1.57143,1.56938,1.57312,1.57065,1.549,1.5489,1.55288,1.55601,1.55454,1.5571,1.56062,1.56331,1.5652,1.5753,1.74989,0.00378197,1.59889,1.5979,1.59909,1.59925,1.60487,1.61136,1.61009,1.61527,1.6159,1.62432,1.62414,1.63034,1.63066,1.64477,1.64402,1.64438,1.65341,1.65677,1.65966,1.66441,1.67237,1.66579,1.67523,1.67556,1.6766,1.6778,1.68828,1.68336,1.69466,1.69164,1.69693,1.7039,1.70156,1.69891,1.71865,1.71508,1.70721,1.70705,1.70893,1.70772,1.70968,1.70781,1.71403,1.71941,1.7187,1.71802,1.72274,1.72479,1.72677,1.72291,1.72436,1.72896,1.72232,1.75136,1.73867,1.73709,1.74612,1.7457,1.7383,1.74138,1.73934,1.73722,1.74014,1.74537,1.74077,1.73753,1.74606,1.7451,1.74755,1.74661,1.74436,1.74899,1.75042,1.74686,1.74295,1.74692,1.74232,1.75444
1.20952,1.20892,1.21336,1.21758,1.21977,1.21338,1.21444,1.21548,1.21766,1.21399,1.21385,1.32983,1.22348,1.22582,1.23623,1.23705,1.24174,1.24739,1.25056,1.37158,1.25254,1.45857,1.46074,1.37622,1.28653,1.29798,1.29752,1.29543,1.27442,1.27358,1.27394,1.26695,1.2692,1.27241,1.27158,1.37972,1.28245,1.28123,1.28166,1.2893,1.28692,1.28823,1.28896,1.28881,1.29147,1.29179,1.29605,1.29801,1.3002,1.30444,1.30481,1.30305,1.30383,1.3033,1.31309,1.31364,1.31491,1.31812,1.31764,1.31982,1.32632,1.32921,1.33146,1.33412,1.33928,1.33974,1.34135,1.34374,1.34654,1.34906,1.3491,1.35346,1.43393,1.43357,1.43331,1.36442,1.36358,1.36728,1.37108,1.37583,1.42714,1.38557,1.39193,1.39495,1.39994,1.40045,1.39876,1.3968,1.39728,1.41451,1.41611,1.41284,1.41284,1.40544,1.41559,1.4467,1.44559,1.44576,1.44333,1.43953,1.44116,1.44262,1.45832,1.45527,1.45478,1.45459,1.4608,1.45385,1.46196,1.44032,1.52326,1.45828,1.51991,1.4632,1.47176,1.45758,1.47577,1.46931,1.47597,1.48165,1.47551,1.4706,1.47022,1.69086,1.44594,1.44427,1.42722,1.43993,1.43582,1.55209,1.41476,1.41469,1.42257,1.41553,1.41221,1.41084,1.40897,1.40763,1.40676,1.40406,1.40516,1.40765,1.40559,1.44777,1.3849,1.39839,1.40935,1.39094,1.39494,1.40305,1.44387,1.43578,1.40497,1.40172,1.40412,1.40131,1.4023,1.41147,1.41533,1.41325,1.43248,1.43982,1.45045,1.39948,1.40048,1.44757,1.44635,1.44175,0.00356299,1.39715,1.37644,1.38885,1.42014,1.3638,1.35136,1.35139,1.33926,1.33949,1.35527,1.39218,1.34922,1.3483,1.36255,1.36168,1.3628,1.35496,1.4407,1.42819,1.42732,1.42995,1.45713,1.48464,1.48227,1.47722,1.44038,1.42715,1.43011,1.43861,1.47174,1.48517,1.48921,1.48854,1.53067,1.57704,1.52534,1.53685,1.53427,1.54669,1.5443,1.5459,1.54343,1.54097,1.55098,1.55053,1.55825,1.56201,1.56998,1.57432,1.57627,1.58207,1.58324,1.59262,1.5985,1.5959,1.59488,1.5987,1.60207,1.60505,1.61354,1.61336,1.61595,1.61477,1.61495,1.62845,1.63755,1.63748,1.64318,0.00326557,1.65808,1.66817,1.66531,1.67141,1.67601,1.68305,1.6815,1.6811,1.68682,1.68597,1.68435,1.68362,1.6898,1.69408,1.69391,1.6946,1.70487,1.7012,1.69636,1.69937,1.69718,1.70337,1.70324,1.7028,1.70525,1.70332,1.70125,1.7103,0.00377117,1.82729,1.70682,1.71372,1.71518,1.71673,1.72149,1.72466,1.72465,1.72787,1.72747,1.72466,1.72521,1.72991,1.72784,1.72996,1.73809,1.73391,1.73638,1.73631,1.73448,1.7338,1.73529,1.73705,1.74416,1.74386,1.74099,1.74715,1.7448,1.74294,1.74559,1.7469,1.74589,1.74705
1.19579,1.22604,1.20308,1.26718,1.20186,1.30237,1.2052,1.31232,1.30725,1.20124,1.24723,1.28217,1.28935,1.21705,1.21868,1.22962,1.23152,1.23364,1.23794,1.46906,1.24602,1.24784,1.25148,1.38111,1.43968,0.00384901,1.27167,1.26843,1.26786,1.26715,1.2646,1.26205,1.26321,1.26752,1.26821,1.27808,1.38643,1.28152,1.28142,1.28376,1.28079,1.2851,1.2874,1.28712,1.2876,1.29093,1.29251,1.29337,1.29777,1.30005,1.29944,1.2988,1.30089,1.30138,1.29901,1.30006,1.30614,1.30673,1.31301,1.31603,1.31792,1.3277,1.32921,1.33279,1.3335,1.33395,1.33983,1.34298,1.3495,1.34945,1.34901,1.34356,1.34787,1.34912,1.35365,1.36463,1.36697,1.3756,1.38608,1.38969,1.39419,1.40046,1.40438,1.40582,1.40642,1.406,1.41763,1.41601,1.41647,1.4169,1.40068,1.39982,1.42945,1.42662,1.44049,1.43821,1.44238,1.44018,1.46664,1.46864,1.44039,1.49495,1.49538,1.45654,1.44005,1.42415,1.41051,1.40906,1.50881,1.44027,1.44084,1.43612,1.43344,1.55145,1.55142,1.44697,1.44231,1.43957,1.47142,1.40142,1.40104,1.39768,1.38957,1.38452,1.38553,1.38823,1.38949,0.00344941,1.44119,1.44075,1.43527,1.43374,1.42077,1.42217,1.57469,1.56234,1.49232,1.49271,1.44864,1.46744,1.45206,1.4479,1.54049,1.4122,1.46886,1.45788,1.40335,1.44128,1.42437,1.41188,1.39716,1.41337,1.41901,1.42693,1.42247,1.41421,1.41369,1.48053,1.40911,1.41444,1.453,1.45306,1.41724,1.39448,1.39316,1.43235,1.48641,1.41297,1.41282,1.37482,1.40648,1.39155,1.34764,1.34454,1.37046,1.36861,1.33699,1.36126,1.3763,1.361,1.36325,1.35355,1.34802,1.37774,1.35662,1.35497,1.36363,1.37192,1.4075,1.41192,1.42265,1.4232,1.42373,1.43087,1.42164,1.43608,1.44143,1.44237,1.54459,1.5308,1.51634,1.56253,1.55941,1.55809,1.56835,1.54339,1.53947,1.53655,1.53221,1.53288,1.53408,1.54255,1.54249,1.54873,1.56144,1.56354,1.57122,1.57483,1.58091,1.58201,1.58314,1.58874,1.59416,1.59833,1.59499,1.60286,1.60191,1.60567,1.60383,1.60404,1.61378,1.62253,1.62858,1.6354,0.0036784,1.64831,1.65418,1.65446,1.6617,1.6678,1.66596,1.67256,1.67036,1.67855,1.67634,1.68246,1.68843,1.68815,1.68312,1.68645,1.68705,1.68615,1.687,1.6929,1.69254,1.6975,1.69707,1.69587,1.69358,1.69866,1.69326,1.68986,1.68639,1.68455,1.68811,1.69105,1.68835,1.82788,1.69896,1.83174,1.71213,1.70969,1.70439,1.71301,1.71038,1.71784,1.71883,1.7201,1.71941,1.71912,1.71486,1.72289,1.71861,1.71803,1.71817,1.72773,1.72623,1.73196,1.7294,1.74088,1.74229,1.7416,1.74199,1.74218,1.74611,1.74746,1.74837,1.7462,1.74754,1.74811
1.18607,1.29241,1.17849,1.17832,1.1759,1.27191,1.26372,1.18779,1.18455,1.18667,1.18813,1.19571,1.19469,1.30172,1.29987,1.31454,1.30735,1.30752,1.28731,1.37909,1.3846,1.3364,1.32756,1.40778,1.25193,1.37238,1.26585,1.26669,1.26965,1.27068,1.27212,1.2721,1.27315,1.27366,1.26573,1.26334,1.27152,1.27146,1.2744,1.27429,1.3075,1.31021,1.39345,1.31938,1.32056,1.27491,1.32941,1.29159,1.29559,1.29553,1.30239,1.30466,1.30601,1.30829,1.30671,1.30842,1.30749,1.30512,1.30702,1.31272,1.32113,1.32196,1.32541,1.32595,1.32864,1.33342,1.33279,1.33816,1.37058,1.34025,1.34811,1.34562,1.34591,1.35717,1.35688,1.3781,1.37431,1.38497,1.38676,1.39321,1.39947,1.40006,1.40246,1.40594,1.41033,1.36077,1.35831,1.42315,1.42155,1.42106,1.42534,1.42341,1.40366,1.35764,1.42288,1.42277,1.42292,1.42323,1.45568,1.45312,1.45387,1.45358,1.39343,1.39632,1.39918,1.40843,1.40867,1.40522,1.40169,1.39965,1.39841,1.42088,1.41925,1.50261,1.49968,1.51074,1.3934,1.39207,1.38331,1.38372,1.38889,1.38651,1.41429,1.45074,1.40887,1.40444,1.40054,1.39886,1.43093,1.43421,1.44827,1.46759,1.46776,1.46699,1.46997,1.49023,1.4921,1.49108,1.494,1.49373,1.49064,1.50215,1.5103,1.51274,1.53202,1.53312,1.53198,1.52815,1.52236,1.52534,1.52889,1.52917,1.51211,1.51213,1.47162,1.458,1.43387,1.44079,1.43115,1.43345,1.46521,1.40994,1.40313,1.4543,1.40871,1.3897,1.41739,1.38098,1.41083,1.40107,1.41442,1.41422,1.38382,1.38384,1.35083,1.36143,1.34734,1.36933,1.35457,1.34829,1.34775,1.36234,1.3609,1.3726,1.37725,1.38543,1.38509,1.40315,1.39209,1.40937,1.42427,1.43404,1.43504,1.43372,1.435,1.43651,1.43505,1.44076,1.48242,1.52263,1.52235,1.51069,1.5209,1.51989,1.5207,1.53316,1.52966,1.53396,1.53292,1.53715,1.54599,1.54568,1.55351,1.55247,1.55619,1.56558,1.56478,1.57243,1.57382,1.57988,1.58504,1.59092,1.58864,1.59349,1.59706,1.59853,1.59929,1.59913,1.60491,1.60588,1.61317,1.61291,0.00405585,1.62634,0.00357476,1.64514,0.00380004,1.72811,0.00417856,1.65796,0.00378885,1.66617,1.6688,1.66927,0.00353547,1.67232,1.66893,1.67492,1.67571,1.68196,0.00338603,0.00375103,0.00382358,1.69291,1.68623,1.69246,1.6911,1.68638,1.68563,1.6906,1.6829,1.68586,1.68346,1.68174,1.68666,1.68138,1.68989,1.69084,1.69024,1.6956,1.69789,1.70123,1.70398,1.70926,1.70641,1.70474,1.70812,1.70915,1.70595,1.71838,1.71511,1.71342,1.71706,1.71612,1.71639,1.71956,1.71823,1.7213,1.73356,1.73368,1.73214,1.7326,1.74533,1.74522,1.74302,1.74566,1.74435,1.7456,1.74486,1.74423
1.16944,1.16969,1.17008,1.16705,1.1669,1.16719,1.16935,1.17332,1.17408,1.17773,1.18164,1.18358,1.1824,1.1829,1.18554,1.18823,1.19074,1.29889,1.30504,1.28255,1.30477,1.30488,1.22863,1.23166,1.23556,1.2365,1.32878,1.32341,1.3138,1.25795,1.26318,1.25295,1.25451,1.38871,1.2754,1.28303,1.28801,0.00336535,1.25015,1.24772,1.24649,1.2481,1.25153,1.25549,1.26105,1.26258,1.26461,1.2729,1.37889,1.38882,1.32392,1.32378,1.3043,1.30578,1.30662,1.30721,1.3044,1.30147,1.30274,1.30304,1.30666,1.31278,1.318,1.32314,1.32441,1.32396,1.32313,1.34895,1.33178,1.3618,1.33709,1.34625,1.38987,1.38586,1.3574,1.38599,1.38239,1.39187,1.39154,1.38697,1.38896,1.37949,1.37895,1.37997,1.35034,1.35163,1.51649,1.37641,1.3553,1.42408,1.42426,1.34956,1.34954,1.32736,1.32793,1.34672,1.37505,1.47879,1.4757,1.47665,1.40545,1.35411,1.38897,1.36074,1.40992,1.42464,1.41586,1.39954,1.38079,1.43573,1.43194,1.43963,1.41236,1.41343,1.40651,1.44103,1.39174,1.44058,1.44196,1.41288,1.39975,1.4021,1.42686,1.42583,1.40895,1.41004,1.42669,1.42046,1.47994,1.47997,1.48243,1.49902,1.49681,1.49245,1.54411,1.49294,1.51526,1.51376,1.51032,1.50929,1.50422,1.50309,1.51092,1.50922,1.51807,1.51603,1.53601,1.5136,1.5212,1.52047,1.52794,1.53111,1.51239,1.5294,1.53162,1.46307,1.45977,1.52142,1.5213,1.52315,1.48853,1.4967,1.45277,1.4411,1.44106,1.44376,1.43446,1.42459,1.41181,1.41208,1.40161,1.40019,1.38943,1.3951,1.35368,1.34564,1.34598,1.35002,1.34829,1.3581,1.36345,1.37072,1.37243,1.3691,1.39303,1.36833,1.39635,1.36821,1.38833,1.39268,1.453,1.40693,1.46532,1.41031,1.42205,1.43337,1.42745,1.42573,1.42566,1.46061,1.47363,1.47184,1.5097,1.52738,1.50891,1.53022,1.53515,1.54435,1.54286,1.54175,1.54142,1.54217,1.54265,1.5572,1.55469,1.55956,1.56621,1.56893,1.57572,1.57887,1.57823,1.58838,1.586,1.59346,1.59864,1.60312,1.60411,1.60461,1.60676,1.60799,1.60287,1.60886,1.60872,1.61341,1.617,0.00377929,0.00402539,1.63442,1.64031,0.00389689,1.64386,0.00361508,1.65521,0.00374437,1.65641,1.66223,1.65918,1.6648,1.76411,1.65832,1.66882,1.6666,0.00357687,0.00382548,1.6837,1.68356,1.6722,1.67155,1.6742,1.67075,1.6768,1.67716,1.67853,1.67771,1.6786,1.67646,1.67936,1.68844,1.68714,1.68979,1.68847,1.68948,1.69376,1.69439,1.69687,1.70207,1.70073,1.70266,1.70263,1.70829,1.71009,1.70716,1.71243,1.71113,1.71082,1.71028,1.72201,1.72157,1.72217,1.72364,1.7237,1.73089,1.72997,1.73386,1.74252,1.7437,1.74384,1.74313,1.73837,1.73187
1.1658,1.16715,1.16896,1.16943,1.16791,1.16908,1.1734,1.17219,1.1728,1.17263,1.17551,1.18142,1.18397,1.18424,1.18535,1.19124,1.19459,1.19516,1.197,1.19885,1.20689,1.30949,1.31077,1.23016,1.23593,1.23739,1.24625,1.24694,1.24702,1.24026,1.23502,1.22795,1.22353,1.22312,1.22418,1.22196,1.22198,1.22533,1.233,1.23224,1.23889,1.24287,1.2441,1.24687,1.34373,1.25966,1.2602,1.26386,1.27544,1.27604,1.28116,1.29502,1.28854,1.37837,1.2986,1.29809,1.29782,1.29621,1.29301,1.29257,1.33162,1.33209,1.33385,1.32898,1.31422,1.41868,1.31259,1.31754,1.31855,1.32381,1.32691,1.33344,1.34393,1.34513,1.35342,1.35425,1.37918,1.37966,1.39052,1.3788,1.37828,1.37464,1.386,1.35085,1.35324,1.36936,1.34136,1.33903,1.34839,1.38497,1.35392,1.35342,1.34124,1.35269,1.33956,1.37059,1.37083,1.37026,1.37334,1.35783,1.38503,1.39889,1.35968,1.38459,1.40616,1.36771,1.35945,1.35963,1.36838,1.45414,1.4278,1.43237,1.38472,1.38656,1.392,1.39672,1.42986,1.41728,1.41558,1.41295,1.42662,1.42618,1.42898,1.42629,1.42664,1.43586,1.4353,1.44692,1.45475,1.49234,1.49209,1.48161,1.5244,1.50763,1.50759,1.51867,1.51312,1.5056,1.53211,1.52942,1.52724,1.51534,1.51358,1.50932,1.51158,1.51979,1.51817,1.51469,1.52595,1.52417,1.52246,1.54256,1.55528,1.55208,1.50293,1.48613,1.47547,1.48241,1.49235,1.47026,1.45871,1.50538,1.48498,1.46315,1.4439,1.44283,1.4209,1.42195,1.41809,1.41979,1.42563,1.40227,1.41244,1.3996,1.37989,1.38812,1.39306,1.39427,1.38703,1.38811,1.36842,1.3683,1.37603,1.38488,1.37591,1.37331,1.37475,1.4056,1.40132,1.39977,1.39304,1.38964,1.39193,1.39891,1.40079,1.42316,1.42288,1.45366,1.45063,1.48011,1.4504,1.45128,1.45283,1.45118,1.49072,1.4923,1.49097,1.55521,1.55147,1.55781,1.55693,1.54569,1.55323,1.55286,1.56753,1.56899,1.56488,1.56388,1.57828,1.57221,1.58137,1.5777,1.57988,0.00372698,1.59298,1.59632,1.59294,1.58884,1.58937,1.59015,1.5963,1.59593,1.60394,1.60379,1.60852,1.60879,0.00361168,1.62368,1.63095,1.69251,1.63095,1.63142,1.63728,0.0035482,1.64981,1.64236,1.64448,1.64896,1.6472,1.65379,1.65466,1.65625,1.65283,1.65146,1.65813,1.65944,1.66482,1.66797,1.66687,1.67019,1.66809,1.66971,1.67044,1.67812,1.67633,1.68065,1.67943,1.67787,1.67971,1.68171,1.68261,1.69066,1.69513,1.69424,1.69504,1.69593,1.6999,1.70366,1.70257,1.70256,1.7035,1.7057,1.70459,1.70309,1.70611,1.70691,1.71691,1.7152,1.72262,1.71925,1.72368,1.72749,1.72633,1.73377,1.73324,1.73332,1.73196,1.73528,1.73547,1.73455
1.15849,1.15981,1.1614,1.16258,1.16387,1.16508,1.16607,1.16612,1.16876,1.16818,1.16885,1.17263,1.17418,1.17621,1.17913,1.18039,1.20931,1.19469,1.20107,1.20061,1.20494,1.20604,1.3637,1.22598,1.37285,1.24009,1.23981,1.24056,1.28108,1.2911,1.2196,1.21031,1.21036,1.2134,1.21412,1.21518,1.21678,1.21971,1.31347,1.2326,1.23575,1.23922,1.2424,1.24483,1.25093,1.26144,1.26754,1.26765,1.26975,1.27456,1.28125,1.28223,1.28293,1.29565,1.36466,1.29369,1.29387,1.29186,1.28936,1.28772,1.29067,1.31501,1.29326,1.29667,1.29901,1.30581,1.30633,1.31295,1.35003,1.3467,1.47845,1.34341,1.34804,1.35093,1.35189,1.35681,1.36236,1.36435,1.36813,1.37059,1.37239,1.36778,1.36829,1.3538,1.39926,1.34491,1.3254,1.3459,1.3402,1.34046,1.32353,1.33605,1.33655,1.33048,1.31019,1.38315,1.32955,1.369,1.36856,1.35003,1.34933,0.00336668,1.3856,1.34856,1.34984,1.35127,1.35049,1.37711,1.37977,1.37942,1.39301,1.39007,1.38746,1.42153,1.42238,1.46705,1.40471,1.42312,1.41052,1.40929,1.40951,1.44324,1.44442,1.42634,1.48555,1.4488,1.43812,1.45102,1.45175,1.46522,1.46758,1.48783,1.61354,1.56675,1.523,1.52573,1.52242,1.52039,1.5162,1.53034,1.5293,1.51128,1.50977,1.50923,1.52275,1.51197,1.51617,1.527,1.54784,1.55491,1.52849,1.52507,1.52379,1.58528,1.53095,1.62062,1.5164,1.55876,1.55689,1.58728,1.4784,1.48301,1.48481,1.4626,1.47824,1.48885,1.48183,1.46227,1.46338,1.48533,1.46633,1.46771,1.41384,1.43355,1.42826,1.43733,1.49422,1.41654,1.40884,1.3904,1.38708,1.38786,1.40703,1.41696,1.41993,1.41961,1.41856,1.41398,1.43698,1.39869,1.3849,1.41148,1.41153,1.41057,1.42148,1.42206,1.44118,1.45082,1.44634,1.46584,1.4645,1.47075,1.46852,1.44483,1.43851,1.49144,1.4914,1.48882,1.4732,1.46953,1.46794,1.55009,1.51679,1.51711,1.52967,1.52439,1.54636,1.57473,1.58516,1.58627,1.58571,1.57998,1.5784,0.00379107,1.59331,1.59487,1.59368,1.59116,1.58952,1.59718,1.59301,1.59309,1.59673,1.59573,1.59942,1.59702,1.60128,0.00335131,1.61315,1.6128,1.61541,1.61887,1.61589,0.00383091,1.63323,1.62982,1.63576,1.63862,1.75793,1.75882,1.64656,1.65103,1.65082,1.65043,1.65584,1.65569,1.65189,1.65796,1.65746,1.66127,1.66849,1.66741,1.6668,1.66731,1.66829,1.6696,1.67325,1.6757,1.67795,1.67714,1.67644,1.68289,1.68119,1.69174,1.68933,1.69074,1.6992,1.6978,1.70107,1.70078,1.70266,1.70173,1.70366,1.70219,1.71014,1.71402,1.71088,1.71693,1.71568,1.71234,1.71333,1.71469,1.72352,1.72227,1.72454,1.72088,1.72824,1.72707,1.72751,1.72667
1.15295,1.15534,1.15538,1.16327,1.16518,1.16524,1.16156,1.16094,1.16395,1.1551,1.15718,1.15809,1.16648,1.16676,1.17169,1.17273,1.1727,1.17514,1.17467,1.30115,1.17939,1.38493,1.38872,1.2152,1.26214,1.22243,1.2878,1.21906,1.2102,1.2082,1.20703,1.20737,1.20861,1.21208,1.21367,1.21756,1.21888,1.22606,1.22896,1.23647,1.24083,1.24118,1.24687,1.24785,1.25213,1.25157,1.25662,1.27321,1.26819,1.33589,1.28156,1.29137,1.2726,1.27407,1.27932,1.31569,1.30693,1.33638,1.27049,1.27292,1.27833,1.28137,1.28679,1.29396,1.29481,1.30273,0.00389139,1.31951,1.32691,1.33331,1.33351,1.34097,1.34265,1.35399,1.3583,1.35993,1.36136,1.36362,1.36697,1.36752,1.36805,1.36096,1.35728,1.36152,1.39913,1.30931,1.31406,1.3236,1.32102,1.33299,1.33062,1.31404,1.30492,1.30898,1.29782,1.29162,1.31707,1.35165,1.35225,1.33265,1.33312,1.33671,1.33026,1.33722,1.33712,1.33312,1.34261,1.3403,1.36364,1.36413,1.36512,1.36566,1.42971,1.41308,1.43859,1.42042,1.40168,1.40829,1.40726,1.40716,1.4455,1.45079,1.43103,1.44138,1.44008,1.43997,1.45508,1.46793,1.4598,1.45488,1.46772,1.48491,1.52313,1.52267,1.52027,1.54037,1.52721,1.54812,1.56872,1.5617,1.54254,1.55018,1.5403,1.52978,1.56271,1.55443,1.67675,1.57325,1.54787,1.56198,1.55289,1.56544,1.55834,1.60098,1.64415,1.64348,1.5204,1.51167,1.50748,1.51472,1.50838,1.49124,1.51686,1.51213,1.51617,1.50334,1.47178,1.47824,1.51651,1.48301,1.4818,1.44463,1.52153,1.44007,1.43335,1.43357,1.43509,1.4367,1.49989,1.42085,1.40999,1.40914,1.44811,1.42621,1.41588,1.41448,1.59072,1.43917,1.43833,1.45027,1.42403,1.43088,1.43059,1.43824,1.44055,1.43681,1.45448,1.4584,1.45785,1.42974,1.44098,1.42677,1.42628,1.43643,1.44008,1.42478,1.56811,1.48531,1.45751,1.44901,1.45521,1.47127,1.52083,1.50248,1.51732,1.53059,1.50677,1.53094,1.54356,1.53691,1.54431,1.543,0.00336969,0.00391905,1.59406,1.59269,1.59516,1.59315,1.59527,1.59272,1.59216,1.59671,1.59877,1.59708,1.59621,1.59517,1.59778,1.59751,1.60196,1.60342,1.6099,1.6093,1.60983,1.7158,1.61488,1.62063,1.62084,1.62124,0.0036794,1.63485,1.63436,1.63683,1.63518,1.64455,1.64159,1.64156,1.64642,1.65082,1.65433,1.65643,1.66564,1.66462,1.66411,1.66527,1.66561,1.66265,1.66913,1.67109,1.6705,1.67061,1.67533,1.6785,1.67944,1.696,1.69331,1.69333,1.69821,1.69996,1.70069,1.7029,1.69924,1.6998,1.70725,1.70671,1.70666,1.70721,1.71241,1.71308,1.7167,1.71507,1.71803,1.71655,1.71746,1.71715,1.72204,1.72071,1.723,1.7236,1.71738,1.72672
1.24689,1.22226,1.1609,1.14972,1.14784,1.14671,1.14949,1.1463,1.14504,1.14976,1.15252,1.15815,1.16011,1.1619,1.165,1.16579,1.16484,1.16596,1.16745,1.16356,1.16939,1.27478,1.45074,1.25414,1.25601,1.20869,1.20566,1.20442,1.20256,1.19936,1.20103,1.20413,1.20517,1.20526,1.21245,1.21438,1.2186,1.22551,1.22561,1.23026,1.23562,1.23667,1.25088,1.24095,1.23864,1.23971,1.24876,1.24952,1.2495,1.32325,1.25881,1.26136,1.26205,1.29326,1.30655,1.26311,1.26307,1.2623,1.26466,1.27029,1.27039,1.27617,1.28482,1.28964,1.31939,1.30849,1.32305,1.32764,1.32766,1.32518,1.32596,1.35412,1.33768,1.36871,1.3712,1.37491,1.3854,1.48355,1.37076,1.37149,1.27477,1.3303,1.32925,1.3135,1.29029,1.28995,1.26605,1.26679,1.29864,1.33112,1.33512,1.30507,1.29422,1.29145,1.31325,1.30521,1.33586,1.33961,1.33089,1.33049,1.34297,1.33095,1.3088,1.31606,1.33802,1.34126,1.34439,1.34924,1.43277,1.36339,1.4018,1.40187,1.38764,1.38139,1.38111,1.39673,1.39805,1.43982,1.4183,1.45687,1.45102,1.43442,1.43321,1.43588,1.45513,1.45486,1.48171,1.48331,1.48184,1.47855,1.47506,1.59685,1.60095,1.56703,1.63169,1.62634,1.62317,1.57665,1.55245,1.55275,1.5625,1.56325,1.5401,1.56465,1.55807,1.64432,1.64558,1.64461,1.58923,1.60869,1.60689,1.6048,1.60542,1.5796,1.57823,1.63546,1.63192,1.54332,1.5432,1.52743,1.51375,1.5269,1.5298,1.54188,1.54016,1.51961,1.48419,1.48441,1.54845,1.47393,1.46086,1.45503,1.49619,1.49677,1.45637,1.45515,1.46252,1.46586,1.50774,1.43805,1.43906,1.43943,1.42344,1.42136,1.41936,1.41858,1.42154,1.42213,1.4373,1.51049,1.49487,1.44113,1.44782,1.4286,1.43091,1.42812,1.43056,1.42824,1.47282,1.41664,1.42316,1.43771,1.42813,1.43739,1.39429,1.39334,1.38857,1.48018,1.48272,1.43285,1.47099,1.47589,1.58922,1.49032,1.51691,1.51654,1.51765,1.50585,1.53054,1.53736,1.53678,1.54734,1.58467,1.58419,1.58009,1.58341,1.58845,1.58381,1.58849,1.58695,1.58882,1.58851,1.59059,1.58946,1.59096,1.59028,1.59899,1.59841,1.59638,1.60055,1.59861,1.59959,1.60404,1.61028,1.61034,1.61277,1.61384,1.61427,1.61793,1.62754,1.6328,1.63516,1.63492,1.63603,1.63715,1.63893,1.63802,1.63753,1.63733,1.64746,1.64878,1.65447,1.65635,1.66427,1.65393,1.65804,1.6626,1.66133,1.66497,1.66931,1.66779,1.66897,1.67002,1.71721,1.71039,0.00405043,1.68847,1.68211,1.69659,1.70156,1.69948,1.69996,1.69899,1.69697,1.70026,1.70328,1.70294,1.70234,1.70719,1.70991,1.71136,1.70778,1.71508,1.7143,1.71619,1.70879,1.7156,1.71161,1.70915,0.00352717
1.1324,1.13465,1.13969,1.13605,1.13946,1.1432,1.1433,1.13686,1.13746,1.13654,1.13758,1.25758,1.15354,1.56566,1.15974,1.15968,1.15993,1.15891,1.15974,1.1598,1.16035,1.22365,1.17717,1.18412,1.1843,1.25051,1.19415,1.19451,1.19268,1.19687,1.19699,1.19868,1.19959,1.20093,1.20104,1.20671,1.20794,1.21067,1.21571,1.23133,1.22039,1.22635,1.23229,1.23236,1.23132,1.22873,1.23163,1.23965,1.23957,1.27449,1.23878,1.23443,1.3122,1.24613,1.3182,1.25247,1.25522,1.26092,1.26439,1.26868,1.29745,1.28002,1.28892,1.29535,1.38362,1.38303,1.32808,1.33376,1.33957,1.33871,1.34605,1.34406,1.3403,1.33642,1.48482,1.45142,1.45371,1.34479,1.30554,1.31959,1.26817,1.27013,1.25818,1.2575,1.27745,1.29203,1.2806,1.26917,1.28934,1.28881,1.30444,1.30454,1.31052,1.33367,1.33224,1.32546,1.32572,1.32634,1.31913,1.29806,1.28952,1.30237,1.30384,1.33508,1.33458,1.37541,1.37789,1.38312,1.34794,1.348,1.38466,1.38171,1.37859,1.39419,1.41893,1.45073,1.41281,1.41388,1.41276,1.41326,1.45862,1.45513,1.45375,1.45737,1.4581,1.4569,1.46008,1.4793,1.51711,1.48262,1.48475,1.49635,1.51023,1.60939,1.5679,1.57098,1.56296,1.5856,1.58928,1.56859,1.58917,1.59809,1.63945,1.65107,1.63678,1.63417,1.6578,1.60306,1.60616,1.61751,1.59107,1.58526,1.58508,1.58504,1.56936,1.56485,1.56276,1.57378,1.51589,1.5236,1.51443,1.51325,1.5717,1.54102,1.53624,1.5478,1.52797,1.49383,1.49368,1.48578,1.47382,1.49311,1.47454,1.4709,1.46394,1.46189,1.48648,1.48505,1.44645,1.45279,1.45667,1.44821,1.44685,1.43292,1.4269,1.42356,1.42394,1.42338,1.44369,1.44314,1.44826,1.43157,1.43795,1.44836,1.44786,1.42859,1.42756,1.42445,1.41662,1.43215,1.43897,1.44,1.39566,1.39911,1.39874,1.39872,1.3983,1.40801,1.45848,1.44214,1.46383,1.44051,1.43954,1.58518,1.49435,1.53299,1.53231,1.48293,1.48268,1.48208,1.49696,1.4937,1.58767,1.58569,1.58955,1.56987,0.00338937,1.5806,1.58301,1.58577,1.58399,1.58638,1.58655,1.58923,1.58598,1.58699,1.58737,1.59292,1.59554,1.59409,1.59382,1.59952,1.5991,1.59752,1.60074,1.60451,1.60557,1.61338,1.6145,1.62549,1.63006,1.62769,1.62825,1.63108,1.62823,1.63229,1.63236,1.63666,1.63464,1.639,1.64859,1.65018,1.65187,1.65408,1.65619,1.6562,1.65788,1.65576,1.65622,1.66176,1.662,1.65875,1.66601,1.66793,1.67434,1.67959,1.67695,1.68246,0.00390414,1.67829,1.68208,1.688,1.68794,1.69604,1.69428,1.69285,1.70451,1.7041,1.70228,1.70187,1.69858,1.70524,1.70306,1.70447,1.70113,1.68541,1.68809,1.68924,1.69219,1.69259
1.12725,1.12996,1.12417,1.13344,1.14138,1.14055,1.14032,1.13988,1.13791,1.13816,1.1327,1.13216,1.13339,1.13693,1.14979,1.1569,1.16027,1.16568,1.16655,1.16703,1.16989,1.17286,1.17114,1.17121,1.16922,1.17428,1.17688,1.17836,1.18372,1.18514,1.18694,1.1886,1.19102,1.19525,1.19665,1.20101,1.19815,1.19953,1.20075,1.28935,1.20793,1.27916,1.21525,1.21683,1.2195,1.22102,1.2259,1.22643,1.22864,1.22881,1.22967,1.23301,1.23656,1.24052,1.24373,1.24968,1.25179,1.31204,1.31568,1.36903,1.28095,1.28682,1.28685,1.28955,1.29506,1.31255,1.42582,0.00344881,1.33622,1.33553,1.33507,1.33707,1.32217,1.31897,1.31583,1.37611,0.00367691,1.26455,1.24591,1.34784,1.34745,1.25095,1.3368,1.34451,1.33581,1.33673,1.3105,1.28554,1.28711,1.29541,1.26119,1.26091,1.27376,1.31856,1.35102,1.3385,1.35329,1.35008,1.29462,1.2983,1.30327,1.28054,1.27981,1.32511,1.32982,1.31809,1.34143,1.3746,1.3743,1.34078,1.36731,1.37756,1.3857,1.38681,1.41884,1.40474,1.42164,1.42398,1.43324,1.42839,1.40536,1.42552,1.4439,1.44507,1.45869,1.44981,1.53465,1.47981,1.46237,1.48214,1.46479,1.46203,1.47866,1.50339,1.52304,1.55574,1.56825,1.56878,1.57197,1.58956,1.60615,1.59914,1.61363,1.62727,1.63481,1.61999,1.61151,1.60673,1.65233,1.67167,1.66819,1.66743,1.61305,1.5954,1.60313,1.60347,1.60369,1.58936,1.54489,1.55843,1.53152,1.55771,1.57487,1.5739,1.53958,1.55114,1.55767,1.5542,1.55394,1.49382,1.50233,1.48558,1.49832,1.48576,1.49812,1.49978,1.48985,1.48964,1.47573,1.48006,1.47669,1.48463,1.45545,1.45819,1.44705,1.44505,1.41811,1.44477,1.45085,1.46208,1.46098,1.42319,1.40979,1.41636,1.45323,1.45548,1.43963,1.4234,1.41721,1.40451,1.39833,1.39293,1.37951,1.40203,1.39622,1.39524,1.41394,1.40512,1.40618,1.43661,1.45575,1.45676,1.49384,1.50903,1.53545,1.52508,1.49551,1.4924,1.49206,1.49084,1.5721,1.49671,1.54334,1.48916,1.56639,1.56596,1.56926,1.57142,1.5722,1.58195,1.58695,1.5861,1.58865,1.5884,1.58598,1.58832,1.58814,1.58604,1.59083,1.58922,1.58898,1.59074,1.59898,1.59625,1.59664,1.59512,1.60605,1.61477,1.61475,1.62281,1.62636,1.62759,1.62806,1.62791,1.62735,1.63048,1.63267,1.63291,1.6371,1.64321,1.75384,1.66632,1.66443,1.67169,1.66873,1.66453,1.65743,1.6557,1.65433,1.6523,1.65305,1.65567,1.65593,1.65886,1.65865,0.00364381,0.00369527,1.66333,1.66427,1.6697,1.67201,1.6777,1.69017,1.69402,1.69147,1.6982,1.69684,1.69803,1.69985,1.70081,1.70107,1.70284,1.70161,1.69558,1.69254,1.68859,1.68905,1.69023,1.68872,1.69163
1.12655,1.13632,1.13801,1.14364,1.1443,1.14354,1.14415,1.13865,1.13808,1.13899,1.13242,1.13918,1.29872,1.34215,1.34715,1.1636,1.16424,1.1667,1.16861,1.17226,1.17558,1.17613,1.17356,1.17029,1.16948,1.17015,1.17032,1.17132,1.17491,1.17788,1.18016,1.1799,1.18216,1.18567,1.18901,1.18789,1.18743,1.19162,1.19601,1.19627,1.20225,1.22924,1.20803,1.20813,1.211,1.23299,1.21419,1.21572,1.21656,1.21832,1.22261,1.22525,1.22771,1.22959,1.23697,1.24766,1.24939,1.25277,1.32607,1.27235,1.2735,1.3092,1.32719,0.00368537,1.35013,1.30262,1.30274,1.37558,1.31228,1.31479,1.31914,1.30977,1.31147,1.31034,1.34427,1.31155,0.00378585,1.33751,1.25489,1.27514,1.3452,1.34391,1.36068,1.23935,1.34392,1.34487,1.35242,1.35231,1.29611,1.29571,1.28296,1.28309,1.25067,1.24485,1.24546,1.2474,1.23803,1.23848,1.2505,1.24835,1.25865,1.31317,1.30013,1.30026,1.30167,1.32497,1.31672,1.32704,1.34308,1.35879,1.34681,1.3779,1.3754,1.415,1.41559,1.45539,1.41748,1.41826,1.39183,1.38785,1.39151,1.39338,1.39421,1.41483,1.43627,1.43658,1.49311,1.49993,1.50057,1.47977,1.48521,1.53133,1.54823,1.55543,1.55527,1.55765,1.5951,1.58373,1.58195,1.57976,1.60059,1.58896,1.59633,1.58801,1.64152,1.62838,1.64213,1.65114,1.64153,1.64203,1.64724,1.62023,1.62143,1.61138,1.61718,1.59913,1.61353,1.61302,1.60023,1.60123,1.6035,1.58716,1.57129,1.5696,1.57078,1.56681,1.56494,1.5696,1.56073,1.52821,1.48996,1.48625,1.49991,1.51204,1.50609,1.48696,1.49646,1.50051,1.49525,1.47181,1.45073,1.45485,1.47274,1.47273,1.46454,1.46289,1.46941,1.45372,1.40797,1.40671,1.40866,1.40756,1.39486,1.39475,1.41372,1.41544,1.43673,1.41723,1.41747,1.406,1.44483,1.38856,1.37859,1.37847,1.37753,1.3991,1.38909,1.41928,1.40947,1.42732,1.49562,1.49584,1.4969,1.48024,1.5148,1.53607,1.49659,1.49311,1.47234,1.47056,1.47803,1.48498,1.49216,1.49205,0.00346101,1.57036,1.57027,1.57267,1.57271,1.57538,0.00366009,1.58891,1.58962,1.5915,1.58819,1.5844,1.58783,1.58451,1.58487,1.58413,1.58678,1.59612,1.59424,1.59574,1.595,1.59594,1.59937,1.61327,1.61521,1.62097,1.62491,1.63022,1.63332,1.63231,1.63189,1.62826,1.62938,0.00367636,1.64699,1.64705,0.00365043,0.00400452,1.64448,1.63744,1.64468,1.64772,1.6463,1.65132,1.65126,1.65098,1.65173,1.6503,1.65463,1.65477,1.65378,1.65427,1.6487,1.65297,1.65965,1.66507,1.6694,1.68301,1.67714,1.68212,1.68548,1.68646,1.68457,1.68961,1.68707,1.66512,0.00354842,1.77893,1.69043,1.6927,1.69396,1.69731,1.69583,1.69619,1.6968,1.69389
1.13053,1.1382,1.13925,1.46412,1.15323,1.1529,1.14603,1.1447,1.14538,1.14762,1.15075,1.15845,1.16045,1.16511,1.16638,1.16692,1.16139,1.16018,1.16251,1.16443,1.16978,1.17129,1.17214,1.17225,1.17209,1.16769,1.16769,1.16915,1.16847,1.17396,1.17751,1.17966,1.18049,1.18104,1.18026,1.18274,1.1839,1.17954,1.17912,1.1844,1.18385,1.18899,1.20001,1.21539,1.20289,1.2062,1.20905,1.20692,1.2142,1.21686,1.21654,1.21948,1.22005,1.22573,1.22685,1.23209,1.24411,1.32725,1.24997,1.25527,0.0036188,1.44137,1.41658,1.41607,1.53939,1.43051,1.29413,1.309,1.30287,0.00366195,1.30622,1.30024,1.30062,1.29926,1.29876,0.00376523,0.0041042,1.30574,1.28549,1.28376,1.26809,1.26886,1.19455,1.19086,1.25597,1.25078,1.29817,1.24506,1.28728,1.24437,1.28087,1.27933,1.21951,1.21566,1.27114,1.24201,1.24278,1.24665,1.22262,1.261,1.33622,1.31879,1.27787,1.31493,1.33901,1.34118,1.32264,1.31928,1.36675,1.35008,1.38753,1.40182,1.39671,1.40064,1.401,1.44569,1.45806,1.42028,1.39916,1.39149,1.39121,1.41371,1.42968,1.44137,1.43469,1.43399,1.46504,1.47228,1.50395,1.49337,1.55716,1.55116,1.60444,1.5799,1.58249,1.58927,1.60233,1.58706,1.61544,1.61253,1.61977,1.63477,1.64112,1.63554,1.61703,1.63094,1.64287,1.64464,1.65514,1.64637,1.65457,1.64004,1.63772,1.64532,1.64871,1.64677,1.643,1.7268,1.72753,1.62407,1.66284,1.6622,1.57418,1.57677,1.57241,1.57178,1.62799,1.57261,1.5705,1.55458,1.54528,1.54356,1.52509,1.51646,1.48236,1.47979,1.47393,1.47207,1.46471,1.46974,1.46564,1.44607,1.44472,1.4635,1.44395,1.43462,1.42745,1.42352,1.40468,1.38745,1.38665,1.38858,1.38287,1.38218,1.38274,1.4234,1.46433,1.48824,1.48885,1.43944,1.42763,1.39998,1.40377,1.38184,1.40349,1.40063,1.39688,1.42769,1.41148,1.41428,1.43597,1.44617,1.44612,1.44981,1.52778,1.47836,1.47786,1.50108,1.46066,1.45303,1.53664,1.47034,1.46482,1.46764,1.49103,0.00302345,1.55572,1.56211,1.55916,0.00318749,1.65051,0.00398908,1.57703,1.5762,1.5834,1.58157,1.5919,1.5898,1.58767,1.58856,1.60409,1.60016,1.59849,1.5968,1.59835,1.59555,1.5965,1.60308,1.61057,1.61084,1.61665,1.61624,1.71019,1.63301,1.62069,1.62546,1.62103,1.62655,1.6276,1.62907,1.63307,1.63768,1.6404,1.63924,1.63904,1.63859,1.64773,1.64438,1.63972,1.63893,1.63723,1.6471,1.63736,1.63691,1.64114,1.63875,1.64631,1.65143,1.6551,1.66648,1.66602,1.67667,1.67377,1.67698,1.65792,1.66538,1.66474,1.66773,1.66749,1.66772,1.66287,1.66909,1.68291,1.69935,1.70705,1.70514,1.70574,1.70225,1.70067,1.70553
1.12557,1.12911,1.13422,1.44654,1.58589,1.58493,1.14288,1.14541,1.14612,1.15065,1.1517,1.15866,1.15744,1.15728,1.15931,1.14562,1.14924,1.15204,1.15693,1.15819,1.15851,1.16189,1.16717,1.16797,1.1707,1.17063,1.16749,1.17016,1.17158,1.17717,1.17933,1.18729,1.16976,1.16968,1.16851,1.16853,1.16865,1.17187,1.17391,1.17608,1.17747,1.18037,1.18543,1.19783,1.19714,1.19476,1.19788,1.19828,1.20499,1.20741,1.21197,1.24284,1.21269,1.21643,1.22235,1.22476,1.32286,1.34953,1.23631,1.23948,1.39844,1.42893,1.42839,0.00397513,1.50244,1.52348,1.30608,1.3045,1.28243,1.41359,1.29032,1.2924,1.29219,0.00342775,1.27454,0.00390816,0.0035797,1.31979,1.28329,1.27243,1.28979,1.16123,1.17478,1.21884,1.21713,1.21619,1.24008,1.25161,1.22221,1.22188,1.22243,1.21203,1.20676,1.20845,1.22864,1.24054,1.24657,1.24625,1.25713,1.29262,1.30547,1.31894,1.30809,1.32079,1.3141,1.34443,1.33359,1.33449,1.33956,1.36685,1.36828,1.36875,1.37111,1.4653,1.46444,1.42759,1.40107,1.3952,1.45965,1.4543,1.45353,1.43966,1.44076,1.43872,1.46386,1.49213,1.48971,1.52814,1.56439,1.56266,1.58824,1.60025,1.58181,1.57655,1.57615,1.59329,1.59876,1.59549,1.61392,1.59735,1.63451,1.64085,1.64104,1.63872,1.6504,1.65095,1.63936,1.64883,1.66723,1.66864,1.65093,1.64354,1.64964,1.65792,1.65245,1.65607,1.68065,1.67981,1.73196,1.73213,1.73039,1.66107,1.63111,1.61822,1.60371,1.56956,1.5871,1.58274,1.56763,1.57517,1.56073,1.54999,1.5472,1.50512,1.47435,1.47339,1.48348,1.46684,1.46628,1.47783,1.44659,1.48119,1.46651,1.44813,1.44703,1.44527,1.38962,1.38224,1.37468,1.37372,1.36793,1.37407,1.36048,1.40026,1.3733,1.37358,1.40288,1.52783,1.4868,1.48688,1.41652,1.41834,1.41918,1.38288,1.38745,1.40791,1.40916,1.40624,1.41471,1.41344,1.42294,1.43088,1.4371,1.42915,1.44708,1.46511,1.4633,1.46442,1.43918,1.44043,1.45383,1.45336,1.46182,1.45164,1.47973,1.47945,1.49927,1.55057,1.55099,1.55188,1.55199,0.00393362,1.56311,1.5639,1.56964,1.57191,1.57513,1.57247,0.00391117,1.58157,1.58548,1.58609,1.60231,1.59421,1.59672,1.59533,1.5968,1.60333,1.60266,1.61007,1.61798,1.61603,1.61639,1.61676,1.61657,1.61957,1.61594,1.61326,1.61452,1.6246,1.62364,1.62345,1.62783,1.6305,1.6289,1.63026,1.62997,1.63157,1.62388,1.63079,1.63386,1.63081,1.63131,1.63722,1.63429,1.63769,1.6367,1.64789,1.65128,0.00308812,1.65194,1.65069,0.00387453,1.64484,1.66194,1.66202,1.66382,1.66608,1.6695,1.67238,1.67193,1.68422,1.68178,1.69601,1.69166,1.69531,1.6964,1.69921,1.69315,1.70004
1.17237,1.16206,1.18832,1.12495,1.12719,1.14132,1.14983,1.61327,0.00378409,1.16903,1.17209,0.00347921,1.15664,1.19402,1.14658,1.14567,1.14584,1.14864,1.14954,1.14969,1.17746,1.16143,1.18757,1.1748,1.17583,1.17948,1.18209,1.20257,1.1984,1.16083,1.16122,1.1621,1.15781,1.15802,1.15817,1.16187,1.16499,1.16764,1.16574,1.16909,1.17091,1.17734,1.18077,1.18443,1.18749,1.18724,1.18827,1.18823,1.18823,1.19023,1.18745,1.18004,1.1887,0.00387438,1.20043,1.29332,1.29866,1.3022,1.43861,1.43524,1.2634,1.45406,1.32938,0.00353873,0.00351912,0.00394766,1.3675,0.00346207,1.37898,0.00374958,1.28056,1.2772,1.19858,1.19603,1.29792,1.2981,1.29718,1.16647,1.18676,1.15471,1.15741,1.34155,1.34071,1.34048,1.18157,1.34356,1.34354,1.23491,1.24051,1.21478,1.21541,1.21817,1.21294,1.22162,1.24279,1.24517,1.25814,1.258,1.26126,1.28139,1.28435,1.28354,1.30367,1.30966,1.336,1.33036,1.39872,1.39711,1.49144,1.36325,1.3649,1.36632,1.39169,1.39283,1.4053,1.40534,1.40199,1.42054,1.43435,1.46051,1.46384,1.4729,1.48488,1.48216,1.50239,1.50263,1.51335,1.53954,1.57467,1.57789,1.6052,1.60897,1.60669,1.58153,1.58793,1.58691,1.58361,1.59591,1.59693,1.62092,1.61128,1.60907,1.6278,1.64396,1.64237,1.65865,1.65616,1.66815,1.68271,1.65906,1.66296,1.67694,1.65666,1.65534,1.65795,1.65711,1.68085,1.68144,1.72018,1.66261,1.66264,1.64813,1.64397,1.63782,1.7411,1.605,1.61991,1.59267,1.57635,1.58179,1.56844,1.54014,1.52823,1.52075,1.51788,1.52018,1.50645,1.52582,1.47926,1.47785,1.46501,1.43156,1.43938,1.43432,1.43387,1.40291,1.38818,1.38571,1.38183,1.37523,1.37671,1.35001,1.35234,1.40809,1.43214,1.41595,1.42269,1.37053,1.43808,1.42528,1.42402,1.40736,1.4333,1.43218,1.38227,1.38293,1.3733,1.37287,1.39547,1.39854,1.40842,1.40806,1.39965,1.39963,1.40265,1.43693,1.41086,1.41035,1.43945,1.42591,1.42761,1.42629,1.42916,1.43366,1.46693,1.46978,1.47073,1.45071,0.00362032,0.00383192,0.00373599,0.00341989,1.53996,1.54358,1.5438,1.56583,1.56562,1.56715,1.56575,0.00354801,0.00351079,1.57299,0.00315476,0.00399049,1.58431,1.584,1.58291,1.58651,1.593,0.00348766,0.00358191,0.0033511,1.60672,1.60846,1.60953,1.61148,1.61096,1.61289,1.61167,1.60787,1.6102,1.61313,0.00365883,1.61584,1.62248,1.61882,1.62165,1.61923,1.61909,1.61781,1.61851,1.62197,1.62721,1.63037,1.63196,1.63166,1.63134,1.63639,1.6319,0.00352063,1.64814,1.64843,1.63769,1.62947,1.63048,1.64107,1.64011,0.00340129,0.00374298,0.004012,1.67678,0.00365514,1.67749,0.00373005,1.69157,1.69162,1.69429,0.00361486,1.73035,0.00368187
1.10578,0.00369004,0.00362255,1.14636,0.00345684,1.16117,0.00348375,1.10316,1.11026,1.11167,1.19521,1.19551,1.12916,1.6862,1.14574,1.14427,1.14363,1.1363,1.13553,1.46041,1.19242,1.15492,1.16894,1.17098,1.17221,1.21201,1.15947,1.15442,1.15499,1.15399,1.155,1.1587,1.1544,1.15308,1.15418,1.15532,1.15616,1.15737,1.16205,1.16749,1.17126,1.17276,1.17962,1.17983,1.18036,1.1812,1.18113,1.17373,1.31994,1.17193,1.17006,1.17066,1.17484,1.18134,1.18182,1.38742,1.31069,1.31024,1.31898,1.34435,0.00368089,0.00347542,0.00339951,1.23911,0.00344189,1.33982,1.25509,1.25339,1.26555,1.26583,0.0033296,1.2189,1.19488,1.18919,1.18755,1.29955,1.29961,1.32037,1.16313,1.15343,1.14668,1.14623,1.14408,1.19567,1.19108,1.18773,1.2533,1.20925,1.27126,1.27224,1.21657,1.22995,1.23795,1.23992,1.26166,1.27113,1.27637,1.27435,1.27905,1.27942,1.2867,1.31452,1.31076,1.31186,1.33709,1.34331,1.35716,1.40108,1.38873,1.36871,1.40578,1.41354,1.40695,1.42408,1.41671,1.42576,1.44489,1.44027,1.45844,1.4617,1.48654,1.47535,1.54268,1.5218,1.53518,1.53388,1.55858,1.61644,1.64447,1.63267,1.63546,1.62454,1.59169,1.57524,1.588,1.58234,1.57857,1.59404,1.61392,1.60302,1.62116,1.62086,1.65513,1.67393,1.64733,1.64828,1.64362,1.64336,1.66581,1.68279,1.64357,1.64059,1.68555,1.68426,1.69385,1.70089,1.6986,1.69697,1.70984,1.75103,1.74792,1.68667,1.6435,1.64171,1.60554,1.59902,1.61724,1.60981,1.59089,1.57897,1.55868,1.54798,1.52521,1.52382,1.54632,1.54761,1.53963,1.52575,1.52263,1.51431,1.45527,1.44025,1.44809,1.41704,1.41617,1.38637,1.38545,1.38166,1.37587,1.37667,1.37279,1.36009,1.4159,1.34908,1.34861,1.34397,1.35145,1.34785,1.38723,1.38676,1.38763,1.43014,1.41504,1.42309,1.41917,1.41744,1.4053,1.37464,1.3742,1.41742,1.3895,1.39041,1.39873,1.38147,1.38363,1.38937,1.40886,1.43761,1.42048,1.4353,1.41688,1.42984,1.42924,1.42384,1.42286,1.40722,1.43515,1.44874,1.45467,1.42344,1.51026,0.00343803,0.00358742,1.55246,1.5552,1.55856,1.56499,1.5629,0.00360728,1.56293,1.56265,1.5617,0.00360564,1.599,1.57036,1.57062,1.57447,1.57539,1.57535,1.57679,1.58323,1.5851,0.0036468,0.00342343,0.00385328,1.71658,1.58726,1.59306,1.60585,1.60431,1.60207,1.60434,1.60618,1.60671,1.60687,1.60993,1.61048,1.6034,1.61585,1.61591,1.61475,1.61493,1.61463,1.62179,1.6192,1.62356,1.62023,1.62733,1.61987,1.62745,1.63137,1.62975,1.63038,1.62843,1.63704,1.64277,0.00341594,1.65655,1.6602,1.6601,1.663,1.66546,1.66279,1.67238,1.67308,1.67655,1.67826,1.66248,1.66862,1.66958
1.17159,1.07965,1.08108,1.08374,1.08077,1.08404,1.08367,1.09148,1.094,0.0036135,1.29947,1.30381,1.30509,1.30584,1.20006,1.12659,1.12851,1.12861,1.12722,1.12916,1.20966,1.21868,1.19621,1.21341,1.15554,1.15459,1.15124,1.15248,1.15314,1.15001,1.14791,1.14522,1.14346,1.14692,1.14685,1.14806,1.15054,1.15524,1.15885,1.16039,1.16248,1.16732,1.16652,1.16884,1.16808,1.1627,1.16338,1.16551,1.16624,1.16572,1.1672,1.17008,1.17244,1.17953,1.18075,1.18784,1.18755,1.30799,1.30557,1.2061,1.20471,1.31928,1.2241,0.00344459,1.23187,1.35522,0.00337109,1.25398,1.2603,1.26015,1.26003,1.27728,1.26578,1.2641,1.19874,1.30527,1.30644,1.30685,1.29963,1.15107,1.14459,1.14566,1.14462,1.14508,1.15381,1.13968,1.19573,1.21154,1.23624,1.2469,1.24064,1.23952,1.33599,1.26288,1.27957,1.27083,1.30226,1.30178,1.31461,1.33753,1.33422,1.29907,1.31281,1.34535,1.32574,1.37391,1.37545,1.35116,1.3969,1.36719,1.44281,1.43118,1.43056,1.41521,1.41827,1.44113,1.43337,1.47174,1.4816,1.48189,1.50907,1.5036,1.52389,1.52389,1.54062,1.55575,1.55875,1.57108,1.57591,1.59322,1.60684,1.60981,1.57844,1.58789,1.58636,1.58381,1.60679,1.62054,1.61381,1.60971,1.62455,1.63724,1.67101,1.668,1.66073,1.66816,1.68116,1.70684,1.67228,1.66415,1.66032,1.65231,1.65165,1.72263,1.72248,1.72405,1.69911,1.70588,1.69964,1.69904,1.69625,1.69654,1.74553,1.68606,1.64176,1.65088,1.60855,1.6311,1.57369,1.57187,1.56456,1.56256,1.55181,1.53289,1.51863,1.56058,1.56249,1.54091,1.53354,1.52074,1.46039,1.44439,1.43317,1.43709,1.40318,1.41236,1.38591,1.38864,1.41112,1.41947,1.41381,1.45096,1.35973,1.44678,1.34345,1.34337,1.341,1.3408,1.34198,1.39464,1.43801,1.42791,1.40926,1.52865,1.51064,1.51404,1.3829,1.39184,1.39896,1.37087,1.36191,1.4022,1.39035,1.38964,1.39619,1.38665,1.38342,1.38981,1.42305,1.42402,1.38789,1.42466,1.41779,1.43891,1.45134,1.42875,1.40735,1.40843,1.46038,1.4641,1.43893,1.44344,0.00369103,0.00350477,1.55142,1.54887,1.55795,1.55158,1.55049,1.55359,1.54998,1.55151,1.55064,1.55205,1.55529,1.5616,1.56267,1.56456,1.56098,1.56338,1.56394,1.5716,1.56873,1.57331,1.57154,1.57945,1.58018,1.58499,1.59514,1.59518,1.59595,1.60057,1.59634,1.59987,1.60048,1.6013,1.59942,1.59929,1.60119,1.60289,1.60788,1.6103,1.60955,1.61085,1.61249,1.61311,1.61371,1.61681,1.62067,1.62014,1.62101,1.62779,1.62965,1.63585,1.63968,1.6482,1.66874,1.65231,1.6561,1.65622,1.6582,1.65691,1.66172,1.65641,1.65235,1.65876,1.65866,1.65832,1.65912,1.66206
1.07095,1.0711,1.07289,1.07403,1.07139,1.07236,1.07382,1.28388,1.08486,1.08439,1.08487,1.08919,1.0916,1.21786,1.20925,1.21017,1.11954,1.12004,1.12031,1.12014,1.12462,1.27991,1.28579,1.1481,1.15202,1.14691,1.1464,1.14519,1.14725,1.14804,1.14633,1.1456,1.14525,1.14521,1.14517,1.14525,1.14453,1.14565,1.14875,1.15087,1.15365,1.15686,1.15717,1.15442,1.15142,1.1517,1.15203,1.15289,1.15455,1.1604,1.16157,1.16581,1.1678,1.17133,1.17512,1.1812,1.19177,1.19326,1.20916,1.20939,1.21359,1.21656,1.22017,1.36312,1.22525,1.22601,1.34457,1.58554,1.24498,0.00346655,1.54426,1.29537,0.00370465,1.22339,1.2272,1.18793,1.17883,1.16535,1.16707,1.15037,1.15058,1.15202,1.14966,1.16957,1.17,1.23401,1.20211,1.20235,1.20502,1.20624,1.24071,1.22006,1.22348,1.2361,1.23692,1.3068,1.29694,1.29682,1.28991,1.2917,1.3135,1.29616,1.31191,1.28926,1.28979,1.29156,1.36205,1.37073,1.36228,1.43395,1.4137,1.44881,1.44741,1.46545,1.46447,1.4538,1.45403,1.46766,1.48126,1.51633,1.51393,1.55573,1.52607,1.55008,1.55688,1.56935,1.62849,1.62136,1.60271,1.63052,1.59673,1.59664,1.59657,1.61687,1.60199,1.62359,1.62821,1.63413,1.64434,1.637,1.65872,1.6611,1.65864,1.66833,1.67587,1.66537,1.68579,1.68026,1.68686,1.69558,1.66405,1.66923,1.67123,1.73136,1.67901,1.67341,1.71055,1.70591,1.70254,1.70071,1.78005,1.72541,1.75559,1.71716,1.77419,1.64683,1.61131,1.62398,1.62411,1.5727,1.56924,1.57943,1.54503,1.54776,1.54464,1.52238,1.53963,1.51081,1.51404,1.4839,1.47829,1.46129,1.48224,1.44334,1.44368,1.426,1.42753,1.39631,1.40133,1.40626,1.41257,1.44263,1.36017,1.36011,1.35575,1.3544,1.35976,1.35885,1.34792,1.38965,1.41752,1.41735,1.41962,1.41086,1.41341,1.39037,1.38382,1.38414,1.43391,1.44816,1.37083,1.40506,1.40354,1.38943,1.38706,1.38159,1.37262,1.37762,1.38138,1.38305,1.38553,1.37025,1.41244,1.4311,1.43696,1.42253,1.4226,1.45162,1.44421,1.43704,1.43881,1.43665,1.43534,1.47018,0.00357917,0.00347282,0.0036653,0.00369833,1.54488,1.54188,1.54172,1.54197,1.54196,1.54176,1.55096,1.55703,1.55676,1.54825,1.55015,1.55635,1.55797,1.56071,1.56772,1.56866,1.57268,1.57248,1.57488,0.00384701,1.58515,1.58475,1.59235,1.59189,1.58915,1.58884,1.59003,1.59193,1.59415,1.59272,1.59758,1.59689,1.60256,1.59642,1.60251,1.6053,1.60807,1.61116,1.61252,1.61342,1.61399,1.62065,1.62522,1.62224,1.63432,1.62773,1.63092,1.63833,1.63671,1.67843,0.00342642,1.64194,1.64461,1.64256,1.64897,1.651,1.65139,1.65242,1.65257,1.65213,1.64984,1.6468
1.06479,1.05861,1.05862,1.05967,1.06318,1.06525,1.06722,1.06935,1.07199,1.07685,1.08208,1.08402,1.08445,1.2207,1.09822,1.10218,1.10765,1.11049,1.11592,1.11876,1.12996,1.12521,0.0034823,1.13968,1.13832,1.15321,1.13723,0.00369537,1.21851,1.13274,1.13288,1.13522,1.14236,1.14359,1.14535,1.14019,1.14227,1.14381,1.14407,1.14418,1.14891,1.14585,1.14649,1.14457,1.14389,1.14378,1.14581,1.15012,1.1536,1.15578,1.1627,1.16431,1.16962,1.17193,1.17444,1.17897,1.18633,0.00346299,1.19818,1.20547,1.20645,1.21029,1.2149,1.21553,1.21686,1.2167,1.21647,1.22291,1.63023,0.00363931,0.00361216,1.21188,1.15409,0.00324969,1.24638,1.18776,1.11646,1.15442,1.15488,1.12678,1.17072,1.18226,1.22117,1.2214,1.18645,1.1876,1.21331,1.18649,1.20854,1.17079,1.17404,1.19651,1.24423,1.2087,1.23686,1.23728,1.26396,1.34721,1.3202,1.27347,1.32183,1.30707,1.28396,1.27846,1.30866,1.35876,1.35722,1.43367,1.43333,1.39051,1.45206,1.4511,1.45632,1.46959,1.47096,1.495,1.50148,1.50955,1.52423,1.53706,1.62075,1.54029,1.56921,1.55935,1.57938,1.58923,1.59537,1.59078,1.60122,1.60132,1.60148,1.60217,1.6241,1.62656,1.62412,1.62972,1.62657,1.64883,1.6226,1.64829,1.64837,1.65554,1.65361,1.69799,1.70266,1.67344,1.67382,1.68203,1.67295,1.67288,1.69042,1.69341,1.7021,1.69755,1.72045,1.70157,1.69181,1.73831,1.73653,1.73895,1.74516,1.74453,1.74394,1.76946,1.73168,1.77656,1.67403,1.63559,1.60418,1.61756,1.60518,1.58922,1.59126,1.53671,1.53662,1.53472,1.53358,1.49334,1.47615,1.47568,1.48853,1.47835,1.4825,1.4788,1.46764,1.45365,1.45219,1.4101,1.40407,1.39527,1.38151,1.37288,1.37358,1.38115,1.38587,1.38622,1.37519,1.38546,1.36556,1.40975,1.3961,1.41761,1.40538,1.38208,1.40455,1.40192,1.40682,1.42366,1.44244,1.44353,1.35931,1.36827,1.38653,1.39868,1.39759,1.3831,1.38159,1.38704,1.38065,1.38849,1.38627,1.38826,1.38741,1.42693,1.42682,1.43532,1.43535,1.45061,1.4476,1.45785,1.44481,1.4114,1.40782,1.48216,1.50994,1.52029,1.51955,1.53343,1.53293,1.5312,1.53042,1.53093,1.53677,1.53334,1.53356,1.53694,1.53894,1.54525,1.54515,1.55155,1.55011,1.55063,1.55569,1.55487,1.55924,1.56153,1.56948,1.56995,1.57076,1.57854,1.57678,1.58203,1.58222,1.57514,1.58063,1.57961,1.58217,1.5871,1.58588,1.58876,1.59479,1.59256,1.59691,1.60052,1.60009,1.60538,1.61393,1.61046,1.61613,1.61522,1.62248,1.61946,1.62711,1.61899,1.62042,1.61825,1.62737,1.62609,1.63352,1.63176,1.6308,1.63786,1.63991,1.65042,1.64775,1.64583,1.65072,1.64793,1.64823,1.64504
1.05952,1.06029,1.06192,1.05317,1.05464,1.05816,1.21072,1.06784,1.0699,1.07063,1.07322,1.08065,1.08231,1.08356,1.08449,1.09041,1.09724,1.09966,1.10787,1.10127,1.10272,1.10634,1.10719,1.10249,1.1104,1.11229,1.11945,1.11974,1.11957,1.12083,1.12656,1.13563,1.14443,1.14724,1.14505,1.13927,1.13104,1.13147,1.12748,1.125,1.24601,1.13628,1.13799,1.13441,1.13258,1.13411,1.14006,1.1419,1.14446,1.14626,1.15511,1.15654,1.16349,1.16476,1.17439,1.17474,1.18172,1.18212,0.00364354,1.35359,1.53317,1.54398,0.00349545,1.20246,1.205,1.20799,1.20596,1.20743,1.20576,1.20667,0.00348861,0.00313608,1.29583,1.11054,1.25456,1.25295,1.25384,1.0874,1.24729,1.13692,1.16548,1.19884,1.21038,1.21369,1.2026,1.23022,1.19497,1.19513,1.20995,1.17199,1.1688,1.18849,1.19728,1.23141,1.22661,1.21759,1.21873,1.26291,1.25918,1.26086,1.26093,1.26077,1.29571,1.28169,1.35253,1.3372,1.33617,1.36577,1.39808,1.42504,1.41847,1.41907,1.47198,1.49563,1.50398,1.50816,1.50347,1.53683,1.53834,1.53362,1.579,1.55377,1.57595,1.58841,1.56504,1.61807,1.60783,1.60744,1.60746,1.61704,1.65978,1.66229,1.71274,1.66878,1.66393,1.68602,1.68209,1.68193,1.6897,1.69293,1.68991,1.67797,1.70686,1.69594,1.75512,1.73452,1.74217,1.71614,1.69587,1.69293,1.68997,1.68954,1.69836,1.71379,1.69682,1.71336,1.68667,1.68189,1.69994,1.72201,1.71006,1.70764,1.7069,1.74211,1.75639,1.7712,1.76344,1.79838,1.62433,1.65889,1.60427,1.60313,1.57549,1.52986,1.54954,1.50504,1.53086,1.52964,1.49121,1.48122,1.50316,1.48341,1.48748,1.49295,1.4907,1.4663,1.45508,1.45818,1.40841,1.39792,1.39157,1.38997,1.38578,1.38039,1.40216,1.43985,1.44505,1.46273,1.39106,1.38964,1.35768,1.41116,1.41121,1.39576,1.39655,1.41249,1.3966,1.39617,1.38147,1.37698,1.37996,1.43602,1.45127,1.39103,1.39596,1.36781,1.38255,1.3896,1.40529,1.38552,1.41001,1.41327,1.40906,1.43332,1.42672,1.42663,1.4371,1.42179,1.43993,1.43339,1.43365,1.41809,1.41827,1.42074,1.52398,1.52444,1.52642,1.52036,1.51942,1.52422,1.52706,1.5306,1.52877,1.52711,1.5292,1.5275,1.53679,1.54001,1.54023,1.54288,1.54118,1.54676,1.54606,1.54622,1.55281,1.55847,1.55881,1.56334,1.56188,1.5622,1.56714,1.57235,1.57804,1.57604,1.57517,1.57562,1.58114,1.57974,1.58361,1.58555,1.58758,1.59164,1.59183,1.59576,1.59646,1.59554,1.59224,1.59308,1.60452,1.60005,1.61107,1.60999,1.6177,1.61911,1.61951,1.61458,1.62043,1.62087,1.62463,1.63331,1.63011,1.639,1.64184,1.64191,1.6438,1.64754,1.64707,1.64403,1.6404,1.64389
1.04918,1.05232,1.05407,1.05344,1.0564,1.05876,1.06111,1.06585,1.06537,1.06615,1.06704,1.07193,1.07407,1.07996,1.08146,1.08517,1.089,1.09181,1.09458,1.0963,1.09676,1.09773,1.09761,1.09856,1.10143,1.1039,1.10575,1.10812,1.11393,1.12217,1.12138,1.12297,1.25703,0.0035052,0.0037432,1.12192,1.12104,1.11667,1.1175,1.11863,1.12049,1.12488,1.1251,1.12996,1.1306,1.13198,1.13206,1.13196,1.13505,1.14002,1.14418,1.15016,1.15646,1.1629,1.16641,1.16741,1.17092,1.17289,1.17529,1.18011,1.17917,1.18319,1.19133,1.19241,1.19312,1.19504,1.19694,1.19747,1.19771,0.00329745,0.00359768,0.00358184,1.06038,1.25347,1.25305,1.04682,1.04459,1.05541,1.06608,1.06712,1.21709,1.22098,1.19653,1.19607,1.19652,1.19715,1.18854,1.17751,1.17697,1.17172,1.17554,1.19269,1.19345,1.23591,1.24985,1.25152,1.22115,1.25108,1.30352,1.26369,1.27225,1.27458,1.26526,1.26493,1.28993,1.33718,1.33734,1.35892,1.37724,1.39533,1.42597,1.47957,1.43938,1.43992,1.47984,1.48292,1.53646,1.54478,1.5562,1.57256,1.57896,1.58667,1.58208,1.56612,1.59725,1.62182,1.64039,1.63848,1.63131,1.64583,1.63743,1.66433,1.66652,1.69643,1.70545,1.69645,1.72782,1.70336,1.70717,1.71347,1.70807,1.70776,1.70777,1.70321,1.71758,1.71717,1.75804,1.71465,1.70057,1.69995,1.69922,1.71633,1.70254,1.69998,1.70034,1.71006,1.7137,1.71495,1.71426,1.7202,1.71461,1.70988,1.71214,1.70459,1.70243,1.69862,1.74042,1.71812,1.71549,0.00342046,1.60967,1.60689,1.56742,1.55761,1.5467,1.52915,1.52024,1.51278,1.50653,1.49637,1.49621,1.47915,1.51664,1.48636,1.49249,1.48094,1.47253,1.41464,1.41762,1.41883,1.41562,1.43532,1.40191,1.3949,1.42042,1.41232,1.39964,1.37042,1.35932,1.35784,1.35901,1.36685,1.39241,1.39587,1.39464,1.40329,1.40339,1.405,1.38393,1.38561,1.38098,1.39331,1.41606,1.41651,1.40363,1.3697,1.3892,1.39954,1.41337,1.39477,1.4035,1.40988,1.39948,1.41304,1.41157,1.39877,1.4127,1.41948,1.41834,1.4328,1.43659,1.45721,1.47116,1.46909,1.50236,1.50118,1.53123,1.50697,1.50736,1.51761,1.51969,1.52032,1.51998,1.52242,1.5235,1.5305,1.53397,1.54013,1.54084,1.54096,1.54297,1.53893,1.54578,1.54481,1.54569,1.55156,1.5505,1.55519,1.5613,1.56036,1.56383,1.5728,1.57175,1.57086,1.57142,1.57221,1.57807,1.58262,1.58147,1.58505,1.58797,1.58824,1.58657,1.59195,1.5892,1.58922,1.5894,1.58922,1.59422,1.59388,1.59959,1.60026,1.60651,1.60469,1.61441,1.61118,1.62121,1.62078,1.62632,1.62605,1.63672,1.63799,1.64204,1.64034,1.63795,1.63554,1.63473,1.63435,1.63918,1.6409
1.04965,1.05101,1.05137,1.05249,1.05375,1.05967,1.06215,1.06404,1.06454,1.06602,1.06766,1.07345,1.07814,1.08359,1.08246,1.08425,1.08459,1.08899,1.08829,1.08877,1.09082,1.0918,1.09281,1.09228,1.0974,1.09841,1.09971,1.09949,1.10054,1.10503,1.1143,1.11408,1.11542,1.11512,1.11469,1.10854,1.10984,1.1069,1.10633,1.10589,1.10917,1.11083,1.11157,1.11497,1.11727,1.12143,1.1216,1.11865,1.12498,1.13074,1.1347,1.13751,0.00347522,1.25697,0.00371862,1.15798,1.15955,1.16205,1.16686,1.16802,1.17235,1.17616,1.18417,1.18748,1.19095,1.19102,1.19303,1.19307,1.19409,1.19473,0.00333795,1.12603,1.16121,1.24199,1.04613,1.04894,1.04756,1.04766,1.05723,1.06435,1.08554,1.17685,1.17446,1.19803,1.19829,1.21201,1.19549,1.1724,1.15368,1.14409,1.16653,1.19457,1.24949,1.23801,1.22598,1.22739,1.22353,1.21534,1.22325,1.2256,1.24313,1.27966,1.24943,1.2841,1.28994,1.29177,1.32348,1.37317,1.39665,1.37302,1.42346,1.43871,1.43506,1.44524,1.46296,1.52619,1.55327,1.53738,1.55205,1.57668,1.57601,1.66457,1.57736,1.59507,1.58833,1.63436,1.66386,1.66105,1.66242,1.64663,1.70024,1.72789,1.73454,1.7598,1.72241,1.71699,1.71448,1.71746,1.71488,1.72322,1.73378,1.73199,1.73096,1.7347,1.72775,1.72698,1.72719,1.73647,1.72156,1.7282,1.72209,1.72344,1.7144,1.73073,1.73106,1.72833,1.72856,1.74418,1.71492,1.70906,1.70976,1.7509,1.69884,1.70785,1.70663,1.69941,1.69426,1.70395,1.70197,1.70105,1.66987,1.63177,1.59259,1.58503,1.56198,1.52307,1.5272,1.50412,1.50221,1.52034,1.49877,1.47533,1.48086,1.49809,1.49404,1.46882,1.43784,1.45046,1.44427,1.45394,1.45442,1.45364,1.45218,1.45055,1.45189,1.42242,1.40532,1.39069,1.38493,1.39717,1.39026,1.414,1.39047,1.36058,1.38518,1.40547,1.40724,1.40362,1.38208,1.40557,1.40914,1.41048,1.41353,1.4062,1.42986,1.39023,1.3825,1.38303,1.40214,1.3911,1.41769,1.39933,1.39967,1.40473,1.41628,1.39277,1.38804,1.38902,1.39174,1.39284,1.39475,1.44691,1.45036,1.507,1.49066,1.48179,1.51041,1.4926,1.4961,1.49933,0.00314042,1.51908,1.51363,1.51687,1.51707,1.52308,1.52839,1.53285,1.53775,1.54178,1.53969,1.53901,1.5429,1.54197,1.54885,1.5502,1.54646,1.55235,1.55998,1.56084,1.57142,1.57752,1.57398,1.57445,1.57138,1.57532,1.57245,1.57184,1.57573,1.57491,1.57672,1.58003,1.57925,1.5828,1.58273,1.5903,1.59012,1.59122,1.59609,1.59893,1.59881,1.60166,1.60938,1.60704,1.60872,1.6199,1.617,1.62329,1.62629,1.62623,1.62832,1.62807,1.63189,1.77468,0.00359627,1.62315,1.62377,1.62715,1.63342,1.63752
1.05495,1.05518,1.05343,1.05476,1.0566,1.06277,1.06404,1.06843,1.06879,1.07175,1.07381,1.07578,1.07798,1.07848,1.07925,1.08212,1.08432,1.08433,1.08666,1.08944,1.09158,1.0929,1.08971,1.09061,1.09835,1.09795,1.09899,1.09817,1.09882,1.09891,1.10044,1.10008,1.09961,1.09975,1.09559,1.09603,1.09347,1.09197,1.0934,1.09677,1.09849,1.10102,1.10495,1.1071,1.1118,1.11361,1.11486,1.112,1.1162,1.1202,1.12595,1.13306,1.13734,1.13882,1.14364,0.00362228,1.15752,1.15876,1.16228,1.16739,1.17255,1.17772,1.17859,1.18087,1.18228,1.18731,1.18766,1.19076,1.19161,1.19108,1.19302,0.00358442,0.00385524,0.00388872,1.07195,1.07344,1.0746,1.27686,1.27651,1.27553,1.26915,1.16713,1.17412,1.22995,1.15365,1.15324,1.13375,1.13121,1.12411,1.12517,1.15125,1.2154,1.24292,1.24107,1.23324,1.20603,1.19003,1.21653,1.19767,1.21681,1.22209,1.26832,1.29414,1.25181,1.27389,1.29332,1.34013,1.33655,1.3549,1.36203,1.39353,1.42911,1.48352,1.44727,1.47171,1.47003,1.50046,1.51326,1.58169,1.59743,1.62084,1.60588,1.60526,1.60462,1.60107,1.63892,1.64753,1.68648,1.71964,1.70325,1.71478,1.71402,1.7269,1.72646,1.73546,1.73857,1.73681,1.71429,1.71879,1.73401,1.75693,1.77873,1.77791,1.77353,1.76268,1.75774,1.77581,1.75163,1.74774,1.7516,1.73908,1.73745,1.72047,1.72082,1.73375,1.72267,1.73402,1.73389,1.72519,1.71134,1.72272,1.71234,1.71677,1.71507,1.67999,1.6862,1.7008,1.69159,1.7041,1.70127,1.70164,1.70223,1.5804,1.57952,1.57776,1.57907,1.57202,1.53327,1.50614,1.50523,1.53013,1.50578,1.51385,1.49856,1.47537,1.46132,1.44139,1.44785,1.42958,1.42446,1.42998,1.43203,1.4415,1.43429,1.42397,1.36912,1.36816,1.36491,1.36782,1.46466,1.46278,1.462,1.38311,1.38182,1.36785,1.42415,1.42601,1.44523,1.41513,1.40555,1.40994,1.40234,1.37724,1.37716,1.36376,1.39324,1.36776,1.40594,1.37528,1.38986,1.40608,1.40894,1.39015,1.40261,1.41414,1.38665,1.39584,1.41963,1.39502,1.38427,1.40225,1.40256,1.45408,1.47457,1.47976,1.47739,1.4723,1.50849,1.49687,1.50264,1.50794,1.51011,1.5073,1.51708,1.51626,1.51796,1.52766,1.53207,1.53437,1.54549,1.54443,1.54466,1.54488,1.55194,1.54846,1.55665,1.55294,1.55064,1.55607,1.56127,1.56546,0.00317343,1.55366,0.00337204,1.56503,1.55883,1.5651,1.565,1.57551,1.57285,1.57538,1.57513,1.57469,1.57856,1.5825,1.58653,1.586,1.58536,1.5945,1.59343,1.59417,1.59941,1.60689,1.61344,1.60976,2.48572,1.61925,1.61644,1.61449,0.00389442,1.6196,0.00364961,1.60862,1.61044,1.60748,1.61248,1.62074,1.62112,1.62103,1.6202
1.05732,1.05657,1.05959,1.05976,1.06045,1.06186,1.06665,1.0665,1.06853,1.07026,1.07213,1.07414,1.0743,1.0767,1.07872,1.08103,1.08344,1.08454,1.08434,1.08372,1.08382,1.0846,1.08544,1.08546,1.08508,1.08554,1.08593,1.08571,1.08719,1.0883,1.08896,1.09011,1.09178,1.0841,1.08473,1.08248,1.08174,1.08218,1.08284,1.08264,1.084,1.09493,1.09809,1.10291,1.1074,1.1056,1.10563,1.10527,1.11154,1.11155,1.11794,1.11827,1.12267,1.1308,0.00352585,1.41301,1.14554,1.15078,0.00354785,1.42105,1.16661,1.17024,1.17356,1.18069,1.18216,1.18385,1.18603,1.18877,1.18872,1.1898,1.19067,1.19209,1.18092,1.16874,1.16818,1.16988,1.43085,1.43246,1.07779,0.00372978,1.15424,1.15493,1.15228,1.14391,1.13035,1.12743,1.12273,1.11686,1.11711,1.12597,1.15842,1.20345,1.1879,1.18373,1.1909,1.19195,1.1742,1.18815,1.18889,1.19624,1.21195,1.24369,1.22269,1.31812,1.31829,1.34726,1.31877,1.31857,1.3429,1.34067,1.36858,1.41824,1.41196,1.46158,1.47213,1.57026,1.49272,1.4988,1.54147,1.58046,1.57807,1.58364,1.6067,1.6178,1.64869,1.65479,1.67124,1.66652,1.73146,1.69879,1.74206,1.75122,1.75151,1.76227,1.76505,1.76394,1.74312,1.75417,1.73346,1.78922,1.77652,1.77428,1.7524,1.75471,1.75102,1.74818,1.74564,1.73744,1.73314,1.73427,1.72532,1.7303,1.72531,1.72363,1.73475,1.73374,1.71393,1.71992,1.71674,1.7107,1.73067,1.7191,1.71289,1.70045,1.73434,1.6898,1.68838,1.68621,1.69908,1.74101,1.66546,1.66387,1.73811,1.64019,0.00352512,1.56755,1.56773,1.5691,1.54453,1.55111,1.54242,1.54566,1.5123,1.51569,1.54429,1.48249,1.48759,1.4294,1.45716,1.42358,1.45466,1.38964,1.40116,1.40135,1.39013,1.38861,1.3537,1.39397,1.39188,1.39943,1.39739,1.3916,1.38666,1.41764,1.38154,1.42338,1.42345,1.40894,1.39361,1.45508,1.38513,1.37776,1.3555,1.33174,1.33625,1.33651,1.35756,1.37891,1.37815,1.38163,1.38758,1.38663,1.38527,1.39895,1.40028,1.40213,1.40238,1.40374,1.40824,1.42882,1.44755,1.45994,1.47558,1.47572,1.46051,1.50187,1.49914,1.49945,1.48842,1.49225,1.49128,1.51804,1.51143,1.51223,1.51615,1.5192,1.51832,1.5259,1.53712,1.60644,1.54415,1.54909,1.54887,1.54768,1.54456,1.5436,1.54046,1.54123,1.54509,1.55095,1.55006,1.55093,1.55334,1.55322,1.56073,1.55463,1.56236,1.56072,1.56778,1.56708,1.57089,1.56624,1.57463,1.57472,1.57945,1.57887,1.58643,1.59038,1.59352,0.00390877,1.59589,1.61821,1.6181,1.71247,1.59967,0.00362467,0.00372822,1.6039,0.00357467,1.62665,0.00333105,1.60379,1.60264,1.60218,1.60572,1.6098,1.6095,1.60821,1.61331,1.6188
1.05344,1.05462,1.05441,1.05791,1.05806,1.0616,1.0654,1.06895,1.06964,1.07167,1.07409,1.07572,1.07663,1.07887,1.07877,1.0789,1.07939,1.08139,1.0823,1.08159,1.08344,1.08674,1.08697,1.08364,1.08005,1.08037,1.08092,1.08096,1.0821,1.08283,1.07235,1.07342,1.07288,1.07184,1.07259,1.07168,1.07206,1.0761,1.07793,1.08032,1.08245,1.09082,1.09181,1.09255,1.09502,1.1011,1.10354,1.10496,1.10733,1.1088,1.1087,1.11371,1.11247,0.00350056,0.00335738,0.00362521,0.00353067,0.00325296,1.48366,1.37137,1.16402,1.16544,1.4535,0.00329247,1.1767,1.18029,1.18121,1.1824,1.18463,1.18503,1.18617,1.18744,1.18448,1.17243,1.17374,1.15921,1.1707,1.17108,1.13776,1.13995,1.13727,1.13479,1.13385,1.12918,1.12131,1.12166,1.10486,1.11931,1.12681,1.15816,1.13483,1.12663,1.15552,1.15496,1.14681,1.18149,1.18257,1.18896,1.20168,1.203,1.2061,1.20616,1.20724,1.21433,1.21504,1.28737,1.32469,1.32773,1.32439,1.34921,1.3648,1.3926,1.41066,1.44188,1.4618,1.47751,1.47268,1.47917,1.53368,1.53277,1.59737,1.61267,1.65535,1.70711,1.66298,1.67126,1.72224,1.73123,1.74528,1.76222,1.75916,1.75817,1.75918,1.75177,1.78234,1.80198,1.76209,1.77009,1.76983,1.77068,1.77472,1.77454,1.7442,1.74191,1.77235,1.76646,1.75345,1.75144,1.74123,1.74387,1.74048,1.73056,1.74741,1.72641,1.72568,1.72742,1.71136,1.72757,1.7101,1.70646,1.71894,1.70203,1.72049,1.71617,1.72467,1.71565,1.70111,1.70121,1.69904,1.68044,1.7064,1.6457,1.64304,1.64101,1.63968,1.59905,1.59344,1.5923,1.58109,1.55747,1.55453,1.55312,1.52727,1.52425,1.47743,1.47654,1.48152,1.45459,1.41684,1.3842,1.37858,1.38564,1.38117,1.3725,1.36695,1.36705,1.39118,1.35734,1.38836,1.39218,1.38988,1.38673,1.36068,1.40974,1.35363,1.37385,1.40316,1.40278,1.41422,1.41503,1.40151,1.39167,1.36827,1.39558,1.38362,1.34917,1.34968,1.35085,1.38192,1.39892,1.39792,1.39117,1.4051,1.39986,1.39707,1.4094,1.39668,1.39903,1.44043,1.44068,1.45108,1.45903,1.47933,1.49241,1.45,1.49241,1.49283,1.49645,1.49809,1.50194,1.50057,1.49976,1.50144,1.50041,1.50779,1.51095,1.51727,0.00327196,0.00372933,0.00339622,1.53806,0.00326329,1.53414,1.53992,1.53475,1.5334,1.53437,1.53608,1.53849,1.54284,1.54797,1.54779,1.54798,1.54997,1.55899,1.559,1.5648,1.56372,1.56791,1.56628,1.56894,1.57171,1.57142,1.57517,1.57872,1.57775,1.5746,0.00324256,1.5815,0.00346403,0.00367169,0.00343708,0.00351582,1.58603,1.58724,1.59102,1.59057,1.58865,1.58813,1.58732,1.5865,1.59716,1.59684,1.59187,1.5975,1.5964,1.59938,1.60526,1.60431,1.6143
1.04113,1.04167,1.04513,1.1229,1.05625,1.06296,1.06677,1.06919,1.06967,1.07048,1.07115,1.0732,1.0747,1.07913,1.08034,1.08059,1.08162,1.08273,1.07951,1.08052,1.07962,1.08048,1.08053,1.08059,1.0811,1.07948,1.07319,1.07353,1.06921,1.06886,1.06395,1.06704,1.06785,1.06849,1.06653,1.06662,1.06801,1.07023,1.07189,1.07313,1.07727,1.07594,1.07743,1.08785,1.08699,1.09396,1.09763,1.09811,1.09876,1.10136,1.10262,1.10548,1.10804,1.11062,1.11246,1.1207,1.12568,1.13309,0.0035378,1.35111,0.00340265,1.16025,1.16029,1.36367,1.36372,1.38767,1.17269,1.17642,1.17716,1.1825,1.18368,1.1885,1.18818,1.19108,1.20367,1.20555,1.13525,1.13503,1.14745,1.18805,1.13298,1.13506,1.11339,1.10962,1.11108,1.11898,1.11845,1.11921,1.12685,1.10235,1.16678,1.16718,1.12278,1.13879,1.12598,1.15173,1.15736,1.15609,1.18231,1.17452,1.188,1.18675,1.21574,1.21381,1.22343,1.28965,1.30999,1.29532,1.29694,1.34241,1.38328,1.41627,1.42437,1.4506,1.46109,1.4815,1.48016,1.53725,1.54125,1.52731,1.56431,1.66265,1.6618,1.66087,1.68861,1.7062,1.72143,1.74436,1.74392,1.75805,1.75439,1.75522,1.75339,1.77694,1.77987,1.76493,1.76829,1.76886,1.80187,1.79887,1.76123,1.75607,1.76579,1.76749,1.84163,1.84562,1.77728,1.76236,1.77311,1.75503,1.76084,1.75003,1.75254,1.75658,1.73253,1.72895,1.71135,1.70996,1.72,1.7281,1.72975,1.71344,1.73126,1.73372,1.74055,1.72388,1.7326,1.69071,1.68223,1.65881,1.6686,1.64145,1.63993,1.64737,1.64721,1.63507,1.63257,1.61562,1.58263,1.58723,1.58021,1.56298,1.52794,1.52641,1.52006,1.48298,1.45743,1.45937,1.45972,1.45476,1.44609,1.41583,1.4131,1.42949,1.40131,1.38311,1.38109,1.40221,1.38024,1.39099,1.36812,1.35464,1.35359,1.35221,1.35836,1.40913,1.40938,1.41681,1.41981,1.41912,1.44709,1.44638,1.38111,1.37213,1.38091,1.38385,1.35749,1.35814,1.35136,1.37964,1.37998,1.38011,1.39209,1.42265,1.41727,1.4107,1.42806,1.41972,1.39912,1.42979,1.43198,1.43691,1.44998,1.4906,1.46751,1.48332,1.47955,1.48101,1.4886,1.49546,1.49422,1.49601,1.50057,1.50641,1.50908,1.50993,1.51109,1.51554,1.51577,2.25276,1.52241,1.52728,1.52387,1.52792,1.52656,1.52923,1.53152,1.53403,1.54309,1.54196,1.53989,1.54877,1.54651,1.54472,1.54832,1.56068,1.5625,1.56396,1.56472,1.56306,1.55781,1.59352,1.56131,1.56103,1.55872,1.56014,0.00364078,0.00354589,1.55988,1.56495,1.56995,1.57201,1.57258,1.57813,1.58102,1.58435,1.5834,1.58511,1.58221,1.58313,1.58538,1.5862,1.58486,1.58766,1.58812,1.60522,1.61044,1.60625,1.60163,1.60195
1.03169,1.03405,1.03538,1.03491,0.00349767,0.00369277,0.00336521,1.06324,1.0632,1.06204,1.06132,1.06466,1.06663,1.07413,1.07341,1.078,1.07431,1.07194,1.07793,1.07604,1.07663,1.05523,1.05799,1.05931,1.06084,1.06011,1.06184,1.06138,1.06162,1.06274,1.06292,1.06321,1.06368,1.06683,1.07037,1.07115,1.06827,1.0666,1.07085,1.06752,1.06847,1.07022,1.07256,1.07343,1.07113,1.07723,1.07966,1.08552,1.08862,1.09087,1.09376,1.10102,1.10293,1.10719,1.11355,1.4095,1.12533,1.12775,1.13311,1.14015,1.1435,1.388,1.39344,1.3948,1.37903,1.38391,1.38428,1.17036,1.17237,1.1741,1.18096,1.17908,1.42334,1.18429,1.09293,1.09435,1.15805,1.15975,1.1509,1.16241,1.16986,1.13067,1.13782,1.13779,1.12983,1.12836,1.09591,1.11254,1.11472,1.1123,1.10425,1.10508,1.12408,1.11192,1.11795,1.10442,1.10324,1.12985,1.1143,1.14628,1.13697,1.20268,1.17326,1.24674,1.24661,1.23589,1.27093,1.28839,1.33342,1.33468,1.368,1.40092,1.4332,1.47772,1.4581,1.48895,1.49258,1.52525,1.53083,1.57434,1.65162,1.70008,1.6647,1.70104,1.6986,1.74639,1.7513,1.73921,1.74899,1.7548,1.75224,1.76759,1.7697,1.77122,1.79729,1.7784,1.80482,1.80618,1.80569,1.82411,1.79097,1.77556,1.75824,1.76756,1.78076,1.77668,1.78329,1.77176,1.77001,1.78641,1.7638,1.79135,1.83325,1.82645,1.77554,1.76259,1.74774,1.72867,1.73076,1.72047,1.7127,1.73434,1.7095,1.70873,1.72166,1.72209,1.76255,1.70201,1.6892,1.7151,1.66279,1.69631,1.69192,1.62962,1.63769,1.63742,1.64166,1.60254,1.59883,1.58907,1.55777,1.55604,1.54685,1.52056,1.51618,1.49159,1.47838,1.48166,1.46129,1.45425,1.47116,1.43063,1.43295,1.41146,1.40314,1.40547,1.38186,1.38091,1.3854,1.38872,1.38758,1.36501,1.35415,1.35803,1.37669,1.41121,1.40322,1.40962,1.42269,1.42267,1.39357,1.38134,1.37648,1.38502,1.39527,1.38057,1.3676,1.36787,1.39843,1.40226,1.40245,1.38473,1.38556,1.39138,1.3974,1.39873,1.39312,1.43154,1.43268,1.41023,1.40956,1.43961,1.49388,1.44888,1.46132,0.00358988,1.48731,1.48668,1.49248,1.49566,1.49569,1.4962,1.49672,1.49703,0.00340248,1.50762,1.50852,1.51148,1.51152,1.5199,1.51836,1.50704,1.51891,1.51968,1.52083,1.52499,1.52872,1.52704,1.53394,1.53706,1.53615,1.54618,1.54519,1.5494,1.54935,1.54864,1.6729,1.54328,0.00345973,1.54491,1.54699,0.00354711,1.54282,1.58167,1.54454,1.54483,1.54683,1.55227,1.55265,1.55453,1.55966,1.56496,1.57877,1.57617,1.5758,1.5773,1.57433,1.57408,1.57586,1.58141,1.57842,1.57892,1.58085,1.58535,1.58736,1.58651,1.58747,1.58882,1.5928,1.59198
1.01616,1.01998,1.02527,1.02649,1.03024,1.11969,1.04839,1.05009,1.05187,1.05038,1.05209,1.05606,1.05869,1.06006,1.06189,1.063,1.06148,1.05995,1.05928,1.05949,1.05999,1.05941,1.05944,1.06259,1.06476,1.06418,1.06501,1.06521,1.0656,1.06078,1.06264,1.06221,1.06307,1.0708,1.07163,1.06155,1.06099,1.05668,1.05577,1.05558,1.05679,1.05862,1.06145,1.0608,1.06837,1.07145,1.07443,1.08105,1.08416,1.08497,1.08853,1.09211,1.09582,1.3392,1.31326,1.11216,0.00355142,1.12259,1.12847,1.13244,1.13412,1.36416,1.37701,1.3256,1.14948,1.15301,1.15385,1.15297,1.15266,1.15354,0.00327584,1.40524,1.12094,1.12214,1.1306,1.07256,1.07301,1.12289,1.17639,1.13108,1.12927,1.12816,1.1681,1.14216,1.1202,1.10592,1.09246,1.09884,1.11626,1.14251,1.14697,1.15736,1.13698,1.09632,1.09836,1.07567,1.07179,1.13829,1.13373,1.11685,1.11733,1.17198,1.18077,1.216,1.2463,1.2484,1.2665,1.31902,1.33375,1.322,1.34393,1.42146,1.4226,1.51523,1.47857,1.51299,1.51031,1.50987,1.56519,1.65056,1.64928,1.68221,1.7221,1.71294,1.74015,1.78368,1.78191,1.76813,1.78717,1.78543,1.78434,1.78357,1.76996,1.76736,1.76587,1.7972,1.78962,1.78924,1.83394,1.83444,1.82656,1.80838,1.80022,1.79764,1.79725,1.78314,1.76531,1.75645,1.76255,1.76071,1.79186,1.79152,1.78736,1.82667,1.83252,1.83173,1.82673,1.74031,1.70741,1.74045,1.73332,1.73587,1.72933,1.72586,1.71645,1.71451,1.72069,1.71418,1.68685,1.6579,1.65526,1.66176,1.64164,1.64241,1.6505,1.65115,1.62246,1.62139,1.58949,1.58315,1.56896,1.56777,0.00354037,1.52769,1.5266,1.53144,1.5098,1.46496,1.46569,1.46639,1.45077,1.43963,1.43931,1.4316,1.39231,1.39582,1.39706,1.40541,1.40303,1.40684,1.40384,1.39529,1.3652,1.38556,1.38791,1.38828,1.37781,1.43124,1.38598,1.38585,1.38939,1.39585,1.38458,1.37672,1.37142,1.35178,1.35389,1.37939,1.38281,1.3932,1.39245,1.43518,1.40277,1.40224,1.40182,1.40474,1.41309,1.44094,1.39814,1.41654,1.43539,1.45431,1.50944,1.50803,1.4955,1.50892,1.50897,1.49675,1.48979,1.4952,1.49228,1.49416,1.4923,1.4924,1.49823,1.50339,1.50343,1.50357,1.50233,1.50941,1.51181,1.51021,1.512,1.51607,1.51762,1.52242,1.5266,1.52407,1.52413,2.29115,0.00364584,1.56071,1.52839,0.00380803,0.00372501,0.00363795,1.53339,1.53179,1.53078,1.53051,0.00354628,0.00341894,0.00351433,1.57736,1.53624,1.53624,1.54041,1.54032,1.61176,1.55104,1.5506,1.55884,1.55816,1.56851,1.56805,1.5667,1.56821,1.57634,1.5752,1.57365,1.5741,1.57449,1.57369,1.57356,1.58376,1.58258,1.58734,1.58837,1.59073,1.5907
1.00607,1.00957,1.01512,1.01602,1.02082,1.02532,1.03285,1.03467,1.03562,1.02892,1.03583,1.04574,0.00358305,1.04952,1.04961,1.05135,1.05423,1.05328,1.04964,1.2191,1.05347,1.05537,1.05637,1.05494,1.05497,1.05859,1.05796,1.05762,1.05688,1.05437,1.0555,1.05863,1.05991,1.18505,1.18724,0.00330008,1.26322,1.26302,1.26322,1.27145,1.27166,1.26703,1.23452,1.26502,1.12933,1.07127,1.07453,1.0749,1.07679,1.0827,1.08711,1.08723,1.09106,0.0034384,0.00330999,1.11604,1.11717,1.11991,1.12218,0.00383504,1.12926,1.12932,1.13184,1.13707,1.13871,1.40787,1.14031,1.14236,0.00359735,1.11913,1.11832,1.13048,1.11975,1.11339,1.10023,1.06904,1.07067,1.09363,1.1052,1.10671,1.10943,1.10742,1.21165,1.11552,1.11171,1.11389,1.11585,1.09603,1.08376,1.08874,1.11285,1.11599,1.11123,1.10975,1.03919,1.0525,1.0464,1.03942,1.0369,1.07221,1.07363,1.1114,1.18499,1.20565,1.21292,1.24627,1.26666,1.27817,1.30886,1.31123,1.34438,1.38282,1.42316,1.45117,1.47877,1.4955,1.5309,1.51099,1.55141,1.54974,1.6554,1.67189,1.69082,1.68867,1.82696,1.82446,1.75253,1.75802,1.75624,1.75424,1.81351,1.77267,1.7867,1.79658,1.80827,1.814,1.80349,1.81487,1.81527,1.82716,1.83288,1.80967,1.80865,1.79982,1.81986,1.79505,1.79688,1.78176,1.7646,1.75616,1.77809,1.8132,1.80793,1.8061,1.77378,1.75766,1.73899,1.73661,1.73086,1.74158,1.74931,1.73662,1.72727,1.73911,1.73567,1.71964,1.70023,1.70449,1.67381,1.67816,1.65824,1.65492,1.65083,1.66157,1.61754,1.61841,1.6108,1.60233,1.59151,1.58131,1.57365,1.57269,1.56756,1.57229,1.57209,1.58117,1.56829,1.49959,1.50996,1.5092,1.48067,1.48053,1.44472,1.42015,1.46382,1.41975,1.41873,1.40507,1.39241,1.37854,1.3795,1.40954,1.41145,1.41264,1.41363,1.3904,1.38573,1.3867,1.40987,1.40123,1.39999,1.39625,1.41951,1.37053,1.35612,1.38119,1.38015,1.38083,1.38137,1.38868,1.43391,1.42664,1.42538,1.41462,1.4132,1.42681,1.41416,1.43127,1.41643,1.435,1.43472,1.45718,1.43526,1.4358,1.4887,1.47854,1.48506,1.48309,1.47943,1.48564,1.48639,1.49337,1.49364,1.5006,1.50327,1.50373,1.50012,1.50541,1.50497,1.50868,1.50866,1.51016,1.51109,1.51381,1.50999,1.50714,1.51019,1.51204,1.51587,1.51026,1.51712,0.00352679,1.50924,1.5123,1.51166,1.51586,1.52294,1.51956,1.51548,1.51921,1.51193,1.51619,1.70009,1.701,1.53044,1.52322,1.5313,1.53274,1.54397,1.54606,1.55076,1.55135,1.55107,1.55249,1.55645,1.56215,1.56536,1.5659,1.57663,1.57437,1.57753,1.57481,1.57469,1.5792,1.57893,1.57955,1.58984,1.58988,1.59337,1.59042
1.00498,1.00563,1.01026,1.01633,1.02022,1.02287,1.02596,1.02864,1.02635,1.02588,1.029,1.02881,1.03155,1.03435,1.03547,1.03867,0.00368697,1.036,1.0364,1.03779,1.04013,1.04116,1.04515,1.04609,1.04919,1.04903,1.04958,1.04849,1.04881,1.04948,1.0498,1.0495,0.00354648,1.19777,1.19749,1.2464,1.23944,1.2489,1.23739,1.25042,1.22193,1.2231,1.22667,1.2196,1.37273,1.06424,1.06427,1.06392,1.07008,1.07319,1.07847,1.08041,1.08718,1.27965,1.28055,1.29836,1.2995,1.11059,1.1152,1.11562,1.118,1.12427,1.12581,1.12818,1.12849,1.40125,1.13298,0.00355877,0.00343217,1.12045,1.11534,1.11631,1.12188,1.11267,1.11765,1.11809,1.11896,1.10123,1.10168,1.12012,1.08298,1.08374,1.09488,1.09541,1.12966,1.12795,1.12795,1.10852,1.11442,1.0704,1.04374,1.0391,1.09613,1.01811,1.0303,1.00607,1.02427,1.02508,1.03332,1.11239,1.07804,1.11555,1.12309,1.21208,1.20973,1.22901,1.25023,1.26808,1.2977,1.30751,1.33096,1.34424,1.44864,1.47551,1.49161,1.4816,1.53609,1.55465,1.54154,1.62633,1.63734,1.6931,1.71443,1.74577,1.74512,1.73945,1.77082,1.80006,1.78655,1.81767,1.81427,1.82105,1.82686,1.81745,1.82294,1.861,1.86107,1.85888,1.87233,1.85566,1.8102,1.82954,1.82976,1.82798,1.82718,1.81417,1.81308,1.80899,1.79591,1.78825,1.78604,1.80748,1.78469,1.7993,1.75501,1.75509,1.76126,1.73081,1.7288,1.73337,1.73746,1.73843,1.74643,1.75136,1.73125,1.78277,1.6878,1.68535,1.67703,1.67395,1.66697,1.65062,1.6591,1.65812,1.62867,1.64354,1.64309,1.59626,1.59589,1.5745,1.57403,1.56011,1.58234,1.54009,1.53707,1.60686,1.60144,1.51953,1.50513,1.51695,1.52437,1.48094,1.47737,1.47174,1.41944,1.41712,1.43969,1.41924,1.39457,1.47726,1.44496,1.44864,1.42994,1.43108,1.41242,1.39604,1.38484,1.39209,1.46765,1.3896,1.39175,1.39098,1.39206,1.40533,1.38638,1.39256,1.39306,1.39609,1.40355,1.41246,1.44677,1.44598,1.43069,1.42407,1.4548,1.42246,1.41435,1.41457,1.43322,1.43485,1.42301,1.46776,1.44104,1.44124,1.47396,1.51268,1.51023,1.49291,1.49285,1.50926,1.5058,1.50445,1.49005,1.49421,1.49427,1.49648,1.49643,1.50201,0.00335392,1.49847,1.50532,1.50055,1.50077,1.49871,1.49842,1.49662,1.49839,1.50105,1.50076,1.5016,1.49976,1.50196,1.50087,1.49972,1.49964,1.49554,1.4957,1.57211,1.50691,1.50673,1.50605,1.5065,1.51046,1.51645,1.51646,1.52366,1.53012,0.00338283,0.00349615,1.54439,1.53817,1.54346,1.54229,1.5457,1.55521,1.55749,1.55885,1.56505,1.56416,1.57413,1.57161,1.57023,1.57153,1.57652,1.58406,1.58547,1.58674,1.58546,1.58884,1.59314
1.00194,1.00298,0.994788,1.01272,1.01393,1.02243,1.02176,1.02143,1.02136,1.02255,1.0237,1.0238,1.02373,1.02825,1.01756,1.01889,1.01947,1.02295,1.03943,1.03862,1.03817,1.0412,1.03857,1.03688,1.0364,1.03918,1.03775,1.03667,1.03494,1.0337,1.03744,1.03774,1.03842,1.21216,1.22991,1.2301,1.22399,1.2062,0.972013,1.25507,1.25636,1.27004,1.26982,0.00314246,1.30485,1.37995,1.05072,1.05368,1.05455,1.06008,1.06899,1.29129,1.08461,1.08977,1.09364,1.09592,1.09806,0.00360355,0.00330993,1.11228,1.33074,1.1257,1.12614,1.12783,1.12969,1.129,1.11953,1.11559,1.1146,1.11531,1.11611,1.11498,1.11511,1.11836,1.11991,1.13048,1.13221,1.10804,1.11894,1.09223,1.0794,1.0804,1.1249,1.12649,1.11942,1.14466,1.11434,1.1126,1.10303,1.08687,1.06194,1.01854,1.03148,1.02151,1.00201,1.00252,0.988932,0.990995,0.993454,1.01508,1.03936,1.05603,1.16651,1.16741,1.19934,1.23871,1.2403,1.25833,1.29664,1.32269,1.31444,1.38294,1.42436,1.47092,1.48586,1.53596,1.51683,1.5185,1.57955,1.61083,1.63778,1.65155,1.66902,1.72732,1.72489,1.74035,1.74861,1.8234,1.81645,1.8267,1.8345,1.85183,1.82431,0.00373458,1.89693,1.8509,1.89297,1.8634,1.84928,1.84563,1.84662,1.88127,1.83946,1.84819,1.82685,1.83455,1.8312,1.81729,1.8049,1.81006,1.83614,1.83348,1.81414,1.76922,1.77076,1.75994,1.7565,1.72499,1.73728,1.72225,1.72137,1.71929,1.73114,1.71642,1.71161,1.68507,1.68492,1.71215,1.67339,1.67154,1.65354,1.67062,1.654,1.64668,1.63665,1.61318,1.68735,1.63403,1.58371,1.58296,1.57238,1.5699,1.55642,1.55563,1.60681,1.60673,1.59354,1.52158,1.49169,1.48903,1.4785,1.50174,1.52721,1.44058,1.4373,1.43205,1.42332,1.40025,1.39978,1.42335,1.42295,1.43977,1.43683,1.43934,1.42984,1.39517,1.41638,1.38325,1.43802,1.43049,1.37949,1.37859,1.3972,1.3996,1.41188,1.40534,1.4362,1.43733,1.4114,1.39563,1.41549,1.42327,1.43152,1.44898,1.43992,1.42226,1.40671,1.4012,1.41183,1.42361,1.45222,1.4375,1.43752,1.44375,1.45499,1.45768,1.46018,1.46346,1.48679,1.48522,1.47975,1.48291,1.49212,1.48636,1.48688,1.48857,1.48994,1.49316,1.49225,1.49459,1.49422,1.49197,1.49215,1.49155,1.49576,1.49352,1.49188,1.49164,1.49518,1.49183,1.48822,1.49027,1.48712,1.48792,1.48821,1.48628,1.48982,1.49259,1.4905,1.4945,1.49509,1.4964,1.50003,1.50836,1.51109,1.51342,1.51383,1.51918,1.53291,1.53347,1.5337,1.53303,1.53825,1.53639,1.54056,1.55716,1.55866,1.56113,1.56025,1.56761,1.56668,1.56785,1.56855,1.57835,1.58301,1.58337,1.58851,1.58527,1.58378,1.59269
0.996388,1.00088,1.00296,1.00416,1.00426,1.00388,1.00088,1.00242,1.00519,1.01265,1.01444,1.02448,1.02227,1.01207,1.01375,1.01823,1.0188,1.01768,1.02041,1.03051,1.03042,1.02751,1.02755,1.02789,1.02709,1.02786,1.02909,1.03021,1.0286,1.03075,1.03216,1.03311,0.00352657,1.19917,1.19171,0.973906,0.965666,0.966402,0.967058,1.24196,1.25648,1.23264,1.23254,1.23079,1.25418,1.04184,1.04291,1.05006,1.05658,1.2825,1.07041,1.07573,0.00322078,1.09033,1.0905,1.09027,1.33516,1.34204,1.34403,1.10647,1.1071,0.00346879,1.33708,1.11909,1.11335,1.11206,1.11117,1.1104,1.11184,1.11489,1.11875,1.12936,1.13023,1.13211,1.13489,1.14076,1.14027,1.12538,1.11898,1.11921,1.05786,1.05853,1.08867,1.08582,1.08843,1.08939,1.09877,1.07148,1.07066,1.05702,1.04047,1.03326,1.00107,1.00167,0.993747,0.993299,0.995139,0.995015,1.02767,1.03681,1.05208,1.05428,1.09569,1.16812,1.18226,1.21581,1.22005,1.26943,1.29082,1.28594,1.30876,1.3104,1.44476,1.46355,1.49328,1.51721,1.51787,1.51649,1.5401,1.56439,1.61139,1.61392,1.66407,1.69049,1.73003,1.7455,1.75802,1.87917,1.87625,1.79906,1.84162,1.83533,1.84072,1.8652,1.90087,1.89437,1.89366,1.86123,1.86224,1.8719,1.86505,1.86521,1.85153,1.85159,1.84239,1.83996,1.84775,1.82037,1.85973,1.85788,1.80335,1.82565,1.79345,1.77336,1.77337,1.76416,1.75179,1.73445,1.72743,1.7314,1.73619,1.73747,1.71717,1.71126,1.6971,1.69671,1.67757,1.6817,1.67943,1.67102,1.66464,1.66488,1.67236,1.64228,1.6208,1.62716,1.62755,1.62678,1.58735,1.57577,1.56919,1.56669,1.59885,1.58237,1.55421,1.5655,1.50823,1.5045,1.51775,1.48296,1.48217,1.48374,1.49023,1.44671,1.42983,1.43998,1.43654,1.43381,1.39748,1.39912,1.39558,1.41182,1.40818,1.37114,1.37253,1.37222,1.37073,1.37895,1.38013,1.39721,1.38919,1.38849,1.38179,1.38505,1.38649,1.42578,1.39498,1.39531,1.40589,1.42776,1.42789,1.42406,1.42953,1.43009,1.40695,1.40479,1.40161,1.39975,1.41195,1.43161,1.43373,1.43132,1.47846,1.4711,1.45913,1.46081,1.46017,1.45006,1.45842,1.46426,1.4638,1.47601,1.47732,1.48229,1.4822,1.48099,1.48444,1.48509,1.48606,1.48555,1.48413,1.48582,1.48518,1.48455,1.48519,1.4854,1.48612,1.48426,1.48524,1.48527,1.48631,1.48579,1.4837,1.48061,1.47918,1.48205,1.4802,1.48417,1.4893,1.49563,1.49382,1.49996,1.50503,1.50413,1.50268,1.50489,1.50332,1.51191,1.51986,1.5193,1.52003,1.52495,1.52431,0.00385084,0.00338921,1.54831,1.54884,1.55432,1.55516,1.56198,1.55978,1.56533,1.56449,1.56894,1.57556,1.58163,1.58371,1.5858,1.58525,1.59063
0.00359074,0.999342,1.001,1.00231,0.997757,0.997627,0.999551,1.00667,1.0076,1.00926,1.01035,1.01137,1.01092,1.01061,1.01071,1.01028,1.01381,1.02034,1.01978,1.02014,1.01891,1.01815,1.01553,1.01686,1.02006,1.02125,1.01968,1.02234,1.02209,1.02732,1.02901,0.00341966,0.00342797,0.00354303,1.23385,1.23429,1.25878,1.24915,1.24216,1.24123,1.24233,1.28844,1.29019,1.29126,1.2911,1.04439,1.04546,1.05782,1.05818,1.05689,1.29555,1.06796,1.07405,1.0727,1.0772,1.07827,1.27429,1.27525,1.34465,1.09501,1.09998,1.10136,1.33096,0.00332324,1.10836,1.11002,1.11172,1.11283,1.11635,1.11973,1.12228,1.12517,1.12519,1.12599,1.13086,1.13319,1.14248,1.11234,1.07773,1.0785,1.08885,1.06869,1.05122,1.05558,1.07689,1.07797,1.09175,1.05416,1.04782,1.04837,1.02638,1.03261,0.999337,0.996244,0.998945,0.999105,1.02289,1.01864,1.03054,1.02961,1.02841,1.11393,1.12834,1.11613,1.19843,1.19798,1.19675,1.2265,1.25154,1.27133,1.29599,1.29834,1.41207,1.45563,1.49216,1.52218,1.50991,1.51052,1.54874,1.55133,1.57259,1.59688,1.6064,1.70575,1.76902,1.76668,1.77382,1.80649,1.80372,1.82462,1.81527,1.81612,1.86142,1.85628,1.8747,1.84157,1.84114,1.85641,1.86191,1.8795,1.86885,1.86943,1.86741,1.8621,1.84465,1.86198,1.84772,1.81858,1.81714,1.81158,1.8193,1.82083,1.8192,1.77987,1.78888,1.76012,1.74948,1.72734,1.76346,1.74939,1.75386,1.70803,1.7128,1.70068,1.69327,1.68615,1.69549,1.67164,1.6627,1.66926,1.65346,1.65331,1.65291,1.63111,1.62738,1.62587,1.62352,1.62106,1.59618,1.58649,1.57478,1.58944,1.56037,1.59882,1.60218,1.54049,1.55473,1.49727,1.48276,1.48526,1.46735,1.50574,1.46565,1.51658,1.4757,1.44214,1.44543,1.43986,1.417,1.42056,1.39397,1.40577,1.37486,1.37056,1.36715,1.3677,1.36696,1.38965,1.4056,1.39968,1.39294,1.39015,1.38844,1.36035,1.35981,1.40374,1.39972,1.40411,1.44602,1.44908,1.39083,1.44109,1.44293,1.43821,1.41756,1.41343,1.40715,1.40956,1.40612,1.42193,1.43245,1.43109,1.48027,1.48335,1.48445,1.44645,1.45428,1.47335,1.44564,2.14847,1.45627,1.46481,1.46429,1.51411,1.49473,1.49517,1.47533,1.47346,1.47879,1.4791,1.47997,1.48135,1.4786,1.48112,1.47898,1.4788,1.47957,1.48185,1.48023,1.4833,1.48284,1.47959,1.47986,1.47746,1.47874,1.47855,1.48045,1.48264,1.48867,1.48373,1.48619,1.49695,1.49896,1.49726,1.49997,1.4991,1.5003,1.49917,1.50287,1.50224,1.49976,1.50929,0.00324664,1.81748,1.51932,1.52106,0.00354265,1.55348,1.55155,1.55516,1.56285,1.56142,1.56037,1.56188,1.56507,1.56568,1.56903,1.57458,1.57637,1.59197
0.976497,0.977006,0.988394,0.991771,0.993757,0.99448,0.998504,0.998505,0.99585,0.99904,1.00188,1.00546,1.00742,1.01061,1.00963,1.01165,1.01146,1.01104,1.01137,1.0092,1.01144,1.01125,1.01168,1.01276,1.01263,1.01464,1.0159,1.01804,1.01933,1.02679,1.02665,1.0282,1.16006,1.24905,1.27273,1.23305,1.2791,1.21558,1.23977,1.24065,1.2417,1.27673,1.232,1.03675,1.03898,1.04315,1.05208,1.05758,1.05521,1.05826,1.06067,1.06213,1.06366,1.07015,1.07656,1.07772,1.07928,1.08254,1.08585,1.28887,1.09466,1.09505,0.00365493,1.10451,1.10375,1.10671,1.10954,1.11063,1.11284,1.11389,1.11609,1.11876,1.11645,1.20689,1.11253,1.1132,1.11167,1.10883,1.10315,1.05932,1.06187,1.07158,1.08498,1.05574,1.0542,1.10619,1.11411,1.05304,1.05605,1.05618,0.997712,0.99512,1.00254,1.00504,1.00746,1.0189,1.01663,1.03306,1.02914,1.03849,1.046,1.09757,1.0808,1.08029,1.15784,1.18143,1.19506,1.20465,1.24369,1.2719,1.30247,1.29008,1.31734,1.40715,1.44459,1.48385,1.50363,1.51286,1.51669,1.5363,1.61877,1.57951,1.62458,1.66808,1.72495,1.73472,1.80991,1.77994,1.83969,1.84731,1.86827,1.86597,1.88241,1.85479,1.85904,1.8556,1.87344,1.91341,1.92032,1.85596,1.86763,1.86387,1.84778,1.87013,1.85156,1.85473,1.8513,1.84047,1.81418,1.81197,1.83125,1.81468,1.80023,1.79366,1.79567,1.75061,1.75898,1.75487,1.72294,1.72518,1.72368,1.72475,1.69747,1.69328,1.69044,1.69755,1.67694,1.68461,1.67967,1.66996,1.66542,1.64905,1.64619,1.67371,1.68116,1.63255,1.69423,1.61357,1.5933,1.57042,1.58676,1.56676,1.56434,1.53768,1.53092,1.56759,1.52579,1.49355,1.47247,1.47194,1.4605,1.46462,1.4372,1.43486,1.44881,1.44744,1.43939,1.43947,1.49376,1.3854,1.37693,1.3922,1.39161,1.38192,1.37036,1.36538,1.36425,1.40496,1.40223,1.38494,1.39937,1.36715,1.38742,1.3873,1.35102,1.37375,1.38885,1.37459,1.37427,1.38145,1.4079,1.40908,1.40831,1.4053,1.40418,1.39354,1.39931,1.39957,1.43738,1.40285,1.40169,1.4062,1.40917,1.43316,1.46762,1.4891,1.47086,1.46488,1.46197,1.46778,1.44374,1.49079,1.4893,1.48546,1.4822,1.49571,1.50173,1.47518,1.47695,1.47579,1.47305,1.47628,1.47622,1.4785,1.47876,1.47682,1.47506,1.47678,1.48121,1.47868,1.48256,1.48649,1.48835,1.48446,1.48326,1.48258,1.48405,1.48239,1.48571,1.48519,1.48592,1.49002,1.48931,1.4949,1.49437,1.49489,1.49955,1.49785,1.49695,1.49857,1.49352,1.49604,1.50317,1.51039,0.00355215,0.00336373,0.00327752,1.54543,1.54762,1.55108,1.55453,1.55488,1.55496,1.55786,1.55856,1.5625,1.57506,1.57327,1.57302,1.57767
0.97064,0.977661,0.981257,0.987666,0.989704,0.989964,0.991035,0.988593,0.995493,0.996494,1.00078,1.00141,1.00344,1.00335,1.01173,1.01279,1.0085,1.00861,1.00455,1.00291,1.0032,1.00403,1.0054,1.00662,1.00817,1.0101,1.01452,1.01581,1.01794,1.02021,1.02427,1.02497,1.02498,1.02435,1.02079,1.20265,1.01207,1.01373,1.27148,1.21517,1.03001,1.03206,1.03749,1.04171,1.04698,1.0535,1.05662,1.05351,1.05393,1.05378,1.05299,1.05628,1.05695,1.05998,1.06689,0.00323348,1.07104,1.07532,1.07765,0.00381059,0.00323553,1.17816,1.17298,1.17395,1.0991,1.09917,1.10151,0.00340786,1.11616,1.11537,1.23303,1.10455,1.10407,1.10273,1.10451,1.11211,1.11878,1.07339,1.07204,1.07998,1.08087,1.06322,1.06415,1.06679,1.06792,1.04029,1.0406,1.02672,1.02642,1.02984,1.0371,1.00538,0.993889,1.00525,1.00794,1.01858,1.01828,1.03298,1.09014,1.08429,1.08396,1.07343,1.12317,1.12604,1.15068,1.18826,1.18912,1.2432,1.24981,1.25908,1.3212,1.29722,1.29801,1.3132,1.41643,1.41912,1.4642,1.48509,1.50714,1.51955,1.5755,1.60095,1.64819,1.67255,1.68183,1.71763,1.72758,1.75217,1.8037,1.81045,1.7929,1.86109,1.85826,1.85665,1.86943,1.86884,1.87093,1.85194,1.85299,1.84835,1.8684,1.86097,1.88663,1.84227,1.87505,1.84288,1.83927,1.81742,1.82788,1.7994,1.80118,1.79229,1.79012,1.79273,1.8033,1.74875,1.75579,1.74223,1.72064,1.72436,1.70599,1.70718,1.69546,1.69569,1.68217,1.68596,1.68024,1.66296,1.66229,1.66922,1.6581,1.66447,1.66657,1.64222,1.63816,1.62262,1.61454,1.58919,1.58775,1.56623,1.5472,1.54542,1.5688,1.5347,1.5341,1.52655,1.51452,1.5123,1.4732,1.45095,1.47412,1.44342,1.43783,1.43062,1.45238,1.45366,1.43822,1.42942,1.40857,1.40308,1.37491,1.39497,1.39068,1.40261,1.37717,1.37518,1.41038,1.41036,1.39141,1.39375,1.39141,1.36975,1.37628,1.37263,1.36858,1.4084,1.37934,1.37042,1.38242,1.38091,1.3766,1.3911,1.38725,1.38373,1.35325,1.35808,1.351,1.4348,1.44753,1.33933,1.33793,1.35788,1.35712,1.36082,1.4506,1.40486,1.46485,1.46565,1.48451,1.47884,1.43636,1.44276,1.44234,1.48345,1.4632,1.47087,1.46972,1.46877,1.4726,1.4745,1.46999,1.47569,1.4757,1.47673,1.47514,1.47552,1.48171,1.48029,1.48292,1.48214,1.4828,1.48571,1.48537,1.48292,1.48166,1.48463,1.48446,1.48578,1.47705,1.48763,1.48829,1.4863,1.48896,1.48437,1.48309,1.48864,1.48763,1.49097,1.48901,1.49391,1.49597,1.49605,1.50067,1.50627,0.00359634,0.00332603,1.53195,1.54206,1.54068,1.54453,1.54986,1.55837,1.5624,1.5597,1.55996,1.5582,1.55954,1.56398,1.56617,1.569
0.96495,0.972287,0.980153,0.980739,0.979599,0.980055,0.980841,0.981632,0.99219,0.993774,0.993698,0.997774,0.998487,0.999864,1.00799,1.00695,1.00081,1.00078,0.998386,0.999404,1.00029,0.998387,1.00017,1.00391,1.00606,1.00797,1.01457,1.01607,1.01858,1.01902,1.01975,1.02044,1.01894,1.02177,1.01965,1.01934,1.02123,1.01953,1.02341,1.02563,1.02836,1.02873,1.03248,1.04422,1.0479,1.0529,1.05541,1.05499,1.05385,1.05018,1.05085,1.05001,1.0502,1.05335,1.05628,1.05987,1.06148,0.00372993,0.00376947,0.00343144,0.00359447,1.07702,0.00333734,1.08831,0.0032816,1.24761,0.00342589,1.09731,1.09774,1.09896,1.09998,1.10037,1.0924,1.09119,1.08862,1.0857,1.09229,1.09426,1.11241,1.11537,1.11602,1.08132,1.07412,1.13732,1.07264,1.02027,1.01576,1.01148,0.990682,1.00137,1.05314,1.07396,1.09135,1.09554,1.02162,1.03345,1.01304,1.01466,1.06205,1.08101,1.10139,1.10784,1.08496,1.1337,1.18284,1.20587,1.22729,1.22237,1.23045,1.24713,1.27045,1.2598,1.29903,1.32068,1.3752,1.40122,1.45044,1.46847,1.47186,1.52031,1.51834,1.59611,1.60072,1.67517,1.66857,1.69265,1.70775,1.73364,1.73017,1.76558,1.81775,1.80501,1.88733,1.84343,1.84559,1.84731,1.86808,1.88565,1.88276,1.87147,1.86629,1.84723,1.84423,1.90341,1.84094,1.83809,1.82433,1.82037,1.80625,1.81068,1.79575,1.79616,1.79741,1.81068,1.78763,1.78895,1.74105,1.74157,1.73145,1.72716,1.70381,1.70114,1.6962,1.68668,1.67544,1.66512,1.68688,1.68387,1.66341,1.66972,1.66599,1.69572,1.69112,1.70406,1.62545,1.62393,1.61167,1.6159,1.60553,1.57588,1.54366,1.5208,1.51843,1.50673,1.50628,1.50941,1.5037,1.50704,1.50095,1.44132,1.45753,1.49493,1.50613,1.47179,1.47151,1.47146,1.40509,1.40204,1.3709,1.39489,1.36863,1.38992,1.38342,1.38415,1.38384,1.3801,1.39385,1.39155,1.39866,1.40834,1.39213,1.39289,1.36044,1.37889,1.35486,1.35279,1.37788,1.37056,1.37831,1.3192,1.32176,1.29986,1.34452,1.32339,1.32446,1.2856,1.28547,1.34346,1.32741,1.29575,1.2979,1.37403,0.00361046,1.46914,1.43172,1.45472,1.39795,1.398,1.40613,1.40837,1.43506,1.45237,1.45341,1.46616,1.46507,1.46562,1.46776,1.46724,1.47457,1.46961,1.4727,1.47246,1.4776,1.47547,1.47196,1.48213,1.47998,1.47977,1.48205,1.48198,1.48141,1.47754,1.48296,1.48063,1.48121,1.48595,1.48119,1.48051,1.47842,1.4887,1.48801,1.48991,1.4896,1.48212,1.48147,1.4813,1.48564,1.48552,1.48345,1.4847,1.49227,1.49198,1.50661,1.51651,1.51558,1.52178,1.53029,1.53144,1.53881,1.54558,1.54559,1.54238,1.55175,1.55659,1.55553,1.55894,1.56364,1.56772,1.56733,1.57187
0.960178,0.00355805,0.960403,0.963165,0.969549,0.973707,0.975388,0.976927,0.981492,0.977604,0.988111,0.987847,1.11103,1.11324,1.12171,0.99949,0.997095,0.996146,0.995636,0.994666,0.997833,0.998851,0.999982,1.00091,1.00453,1.01996,1.01199,1.0119,1.01249,1.01288,1.01259,1.01434,1.01611,1.01716,1.0155,1.01769,1.01798,1.02111,1.02243,1.02614,1.02904,1.03211,1.03911,1.04191,1.04695,1.05036,1.05001,1.04484,1.04561,1.045,1.04731,1.04894,1.04874,1.04902,1.04894,1.05088,1.05225,1.05317,1.05275,0.00339419,1.17444,1.46303,1.17263,1.46442,1.4684,1.22353,1.33582,1.30992,1.08584,1.087,1.08802,1.08827,1.08695,1.08465,1.08361,1.08496,1.09855,1.12072,1.11339,1.09157,1.02769,1.05008,1.04387,1.03343,1.03477,1.04548,1.02629,1.00883,0.999888,0.986292,1.10261,1.11138,1.10271,1.11035,1.08446,1.04561,1.04677,1.0184,1.0744,1.10517,1.09646,1.09357,1.09373,1.13351,1.14737,1.18222,1.20888,1.22682,1.25026,1.25192,1.27572,1.2832,1.2944,1.3046,1.35091,1.41805,1.42807,1.46565,1.48224,1.47209,1.52522,1.50625,1.56449,1.61731,1.61392,1.68266,1.69081,1.70228,1.72755,1.75065,1.75012,1.75966,1.80985,1.81457,1.83727,1.83773,1.83683,1.86553,1.85777,1.85422,1.8517,1.862,1.84939,1.84916,1.85514,1.81023,1.80486,1.81012,1.8008,1.81493,1.80601,1.80259,1.82067,1.81726,1.77021,1.76552,1.76074,1.74881,1.74182,1.72024,1.71894,1.70183,1.6866,1.67593,1.68588,1.66351,1.66058,1.67871,1.64737,1.65565,1.65422,1.64816,1.6409,1.62629,1.62453,1.62483,1.57841,1.58231,1.57489,1.56172,1.55347,1.53313,1.54337,1.52642,1.52574,1.49533,1.49728,1.50857,1.46752,1.46845,1.46841,1.46962,1.40674,1.40574,1.42403,1.42285,1.42262,1.41067,1.39283,1.38166,1.34105,1.33966,1.36172,1.38174,1.38797,1.38752,1.38795,1.39513,1.36123,1.36168,1.35779,1.3475,1.35821,1.35143,1.35141,1.35166,1.35062,1.34857,1.31935,1.32316,1.30559,1.29724,1.30548,1.28567,1.27808,1.28825,1.29345,1.29383,1.27783,1.30221,1.30506,1.30274,1.35768,1.34315,1.47283,1.39979,1.40243,1.4028,1.40474,1.40719,1.43362,1.44895,1.45373,1.45959,1.46332,1.46108,1.46531,1.46465,1.46572,1.46989,1.4741,1.47714,1.47731,1.47494,1.47324,1.47264,1.47417,1.47812,1.47665,1.47786,1.47696,1.47777,1.47727,1.47582,1.4794,1.4811,1.48792,1.48761,1.48713,1.48808,1.48618,1.48713,1.48659,1.4876,1.48809,1.47632,1.47666,1.48526,1.48754,1.48703,1.48906,0.00332993,1.50788,0.00337307,1.52319,1.52397,1.52822,1.52709,1.54096,1.53878,1.541,1.54763,1.55619,1.5578,1.55692,1.55944,1.5584,1.55762,1.56466,1.56381
