1.06314,1.14393,1.07405,1.07954,1.08402,1.08495,1.08503,1.0855,1.08668,1.08608,1.09085,1.09267,1.09572,1.09643,1.09727,1.09794,1.09494,1.09616,1.09437,1.09596,1.09544,1.09692,1.09612,1.09789,1.08852,1.08918,1.08339,1.08381,1.07864,1.0779,1.08039,1.08124,1.07994,1.08017,1.0809,1.31507,1.08396,1.08453,1.08605,1.08486,1.08898,1.08932,1.09798,1.09921,1.09676,1.10501,1.10864,1.10897,1.1107,1.11632,1.11685,1.11813,1.12189,1.12694,1.13121,1.53836,1.14643,0.0034551,1.39649,1.38939,1.16362,1.16498,1.42322,1.42648,1.43283,1.17882,1.17982,1.18071,1.18376,1.18721,1.19008,1.19048,1.19296,1.20668,1.14186,1.17155,1.14956,1.14972,1.14657,1.14265,1.13059,1.15347,1.10865,1.10925,1.10957,1.10646,1.12067,1.10475,1.17216,1.17242,1.17354,1.12655,1.1303,1.13632,1.14913,1.15793,1.17412,1.17372,1.17143,1.18926,1.21395,1.21524,1.22861,1.23405,1.21639,1.24116,1.26457,1.2602,1.25758,1.30373,1.28555,1.31554,1.29616,1.33059,1.31202,1.30782,1.32912,1.35637,1.36083,1.33957,1.37091,1.36045,1.38583,1.38504,1.37385,1.38423,1.51671,1.51481,1.41252,1.41526,1.44814,1.44818,1.46915,1.44629,1.47261,1.47771,1.47673,1.49317,1.49171,1.48753,1.49575,1.49748,1.50426,1.51081,1.50722,1.48475,1.5299,1.51674,1.52037,1.4995,1.58758,1.54391,1.53778,1.51125,1.5162,1.52162,1.54255,1.59707,1.59953,1.59982,1.60313,1.54915,1.5335,1.51226,1.51383,1.50115,1.4769,1.48116,1.49839,1.48288,1.48185,1.49602,1.48993,1.48166,1.46819,1.48515,1.48407,1.48791,1.49153,1.50791,1.50818,1.48628,1.49483,1.49557,1.49303,1.49237,1.46894,1.5727,1.4284,1.42959,1.4221,1.42973,1.44782,1.44658,1.44572,1.44607,1.45366,1.45435,1.43418,1.43317,1.43432,1.40171,1.39897,1.41816,1.47147,1.41772,1.44009,1.41362,1.41426,1.40698,1.40734,1.4162,1.40271,1.38143,1.36305,1.36307,1.3926,1.39358,1.36041,1.38558,1.38841,1.39006,1.39671,1.3988,1.51233,1.51084,1.42233,1.42967,1.43139,1.46429,1.45715,1.4503,1.45269,1.45421,1.51222,1.48284,1.48536,1.50022,1.5102,1.50909,1.50256,1.50621,1.51306,1.51463,1.51727,1.52388,1.52809,0.00361832,1.54141,1.5455,1.53809,1.53645,1.53787,1.54035,1.54024,1.54324,1.5428,1.54584,1.54825,1.55445,1.55539,1.55353,1.55744,1.7202,1.56611,1.57617,1.5739,1.57123,1.57388,1.57458,1.58019,1.57916,1.58082,1.58479,0.00373167,1.58435,1.58149,0.00355175,0.00373974,1.60279,1.60284,1.59039,1.59225,1.59695,1.60039,1.60022,1.60124,1.59756,1.59602,1.59569,1.60894,1.60331,1.60053,1.6084,1.6046,1.61305,1.61576,1.61954,0.00368159,1.6278
1.05228,1.21492,0.00436996,0.00333035,1.07389,0.00361118,1.07069,1.0729,1.07715,1.07794,1.08122,1.08744,1.08866,0.00322137,1.08822,1.08676,1.08637,1.08736,1.09411,1.08001,1.07352,1.07357,1.07492,1.07406,1.07604,1.075,1.07519,1.0755,1.07724,1.07611,1.07666,1.07906,1.08282,1.08296,1.07933,1.07844,1.07808,1.07856,1.07987,1.08044,1.08364,1.08403,1.08306,1.08354,1.0885,1.09111,1.09677,1.09753,1.10179,1.10627,1.11134,1.11649,1.11802,1.12354,1.12875,1.13387,1.1365,1.14196,1.14487,1.14935,1.39511,1.15884,1.15993,1.41325,1.40858,1.1654,1.1706,1.40146,1.45307,1.17183,0.00335032,1.41321,1.41349,1.09145,1.16482,1.14024,1.16094,1.16122,1.16051,1.15954,1.1334,1.13368,1.14547,1.1413,1.1306,1.10178,1.09978,1.12282,1.1103,1.11267,1.11328,1.12019,1.13218,1.12572,1.13455,1.13764,1.15099,1.16332,1.16689,1.17571,1.17718,1.19297,1.19094,1.20979,1.26137,1.24429,1.23869,1.23716,1.23653,1.2763,1.26637,1.30209,1.32999,1.32755,1.33355,1.31506,1.35119,1.35794,1.39487,1.39425,1.39152,1.38986,1.38084,1.38589,1.38763,1.39143,1.50553,1.49061,1.43345,1.44913,1.45006,1.45146,1.43377,1.46188,1.46475,1.4754,1.49971,1.49784,1.48885,1.48604,1.47469,1.49823,1.49809,1.46707,1.53566,1.46999,1.47117,1.49991,1.5026,1.48368,1.52049,1.49261,1.49153,1.5196,1.51753,1.52383,1.54117,1.59034,1.59162,1.58229,1.56858,1.55703,1.56861,1.51578,1.51592,1.49045,1.51241,1.47578,1.49928,1.48939,1.48271,1.48017,1.49346,1.47825,1.48962,1.50207,1.49324,1.49547,1.51704,1.52028,1.50768,1.44802,1.46847,1.4772,1.4607,1.45686,1.47041,1.46261,1.46785,1.4397,1.42704,1.43505,1.46361,1.45352,1.49333,1.45412,1.45362,1.42481,1.45497,1.45755,1.50573,1.50581,1.50563,1.49767,1.41719,1.43301,1.43742,1.44379,1.45416,1.45475,1.4065,1.4236,1.39257,1.40232,1.3766,1.36031,1.37943,1.3756,1.37544,1.37615,1.37536,1.37599,1.42992,1.41723,1.39371,1.39748,1.40855,1.40693,1.45136,1.43124,1.44333,1.47388,1.47094,1.47988,1.48877,1.49311,1.48976,1.50057,1.49952,1.49773,1.50095,1.50139,1.51218,1.51706,1.52258,1.5225,1.52349,1.52255,1.52268,1.5334,1.53379,1.53188,1.53356,1.53404,1.53521,1.53981,1.54102,1.54203,1.54804,1.54949,1.5568,1.55376,1.55206,1.56042,1.68272,1.56855,1.56762,1.568,1.57297,1.60326,1.60377,0.00357463,0.0038044,0.0036235,0.00347229,0.00361273,0.00405938,0.00339373,1.59608,0.00355974,0.00312789,1.61065,1.591,1.59048,1.59357,1.59268,1.59337,1.59212,1.59351,1.59884,1.59571,1.5939,1.59518,1.59832,0.00363559,0.00340611,1.61756,1.61091,1.60641,1.61057
1.03574,1.04279,1.04545,1.14024,1.14134,1.06491,1.06619,1.06656,1.06724,1.06064,0.00358885,1.07417,1.07748,1.07518,1.07589,1.07465,1.07343,1.07457,1.07432,1.07365,1.07353,1.07371,1.07804,1.07821,1.07714,1.07749,1.0778,1.07339,1.07333,1.07484,1.07342,1.08146,1.08307,1.07284,1.07398,1.06843,1.06612,1.06401,1.06794,1.06963,1.07582,1.07119,1.07218,1.28085,1.08129,1.08809,1.09199,1.09475,1.09598,1.09935,1.10206,1.10496,1.33041,0.00366348,1.3808,1.38447,1.13309,1.13617,1.14078,1.1421,1.1465,1.14655,0.00392618,1.14908,1.15633,1.15685,1.15485,1.15569,0.00350916,1.12892,1.12707,1.11994,1.07311,1.07758,1.07005,1.18069,1.20104,1.10437,1.11234,1.11003,1.15819,1.16154,1.14256,1.1375,1.1432,1.1034,1.10003,1.10615,1.1692,1.17094,1.14668,1.14753,1.1263,1.12875,1.11474,1.14759,1.14058,1.13774,1.12456,1.15057,1.18676,1.18858,1.19316,1.18397,1.24236,1.23162,1.23394,1.24622,1.22266,1.25443,1.27288,1.27196,1.27497,1.33552,1.33398,1.30598,1.30644,1.32233,1.3233,1.43141,1.45536,1.47864,1.38998,1.3949,1.38561,1.37208,1.39051,1.39116,1.3917,1.43463,1.43925,1.44674,1.46144,1.43329,1.42856,1.45875,1.48567,1.46982,1.49555,1.57703,1.57318,1.57432,1.57722,1.50737,1.51551,1.57398,1.48436,1.47152,1.51269,1.51089,1.53145,1.5327,1.53019,1.51357,1.60118,1.55503,1.55245,1.55885,1.55714,1.54807,1.57127,1.56494,1.54952,1.51895,1.53409,1.50242,1.50374,1.5051,1.51608,1.47826,1.4747,1.48879,1.48071,1.47863,1.50175,1.52446,1.50415,1.4972,1.51255,1.50937,1.44629,1.44435,1.47041,1.46717,1.4668,1.45532,1.46067,1.45168,1.46376,1.42266,1.44896,1.45805,1.47243,1.4718,1.4609,1.45749,1.4527,1.45018,1.43686,1.43824,1.50739,1.50804,1.50095,1.49827,1.43063,1.43078,1.4298,1.4439,1.41325,1.41218,1.41371,1.42112,1.41288,1.38874,1.38812,1.37126,1.37099,1.39359,1.38806,1.39037,1.39935,1.39369,1.39692,1.3935,1.39894,1.40209,1.41688,1.4099,1.41646,1.43659,1.45348,1.46197,1.46845,1.52321,1.51189,1.49445,1.49378,1.49855,1.50196,1.4999,1.50356,1.50453,1.50405,1.51253,1.51723,1.51689,1.51938,1.51999,1.52068,1.52687,1.52441,1.52568,1.52692,1.62082,1.53314,1.53472,1.53365,1.53377,1.54454,1.54302,1.54717,1.55383,1.55831,1.55691,1.55569,1.68073,0.00383467,0.00382459,1.55895,0.00349933,0.00385284,1.58807,1.54534,1.5488,1.59964,1.55822,1.5558,1.55887,1.56163,1.56849,1.57198,0.00363471,1.58644,1.58656,1.58641,1.58201,1.58244,1.58363,1.58693,1.58229,1.58712,1.58995,1.59014,1.59691,1.59627,1.59668,1.59586,1.60044,1.60259,1.60496
1.03154,1.03224,1.03507,1.03946,1.04961,1.04995,1.05022,1.04346,1.05082,1.05124,0.00355521,1.14709,1.06355,1.07815,1.20993,0.00330108,1.06247,1.23691,1.06016,1.06843,1.06674,1.09171,1.06562,1.06697,1.0686,1.06843,1.06845,1.06619,1.06707,1.06179,1.07138,1.19819,1.20091,1.2012,1.40104,1.27169,1.27137,1.27161,1.23249,1.06082,1.06245,1.06549,1.07414,1.0748,1.08121,1.08349,1.08479,1.08841,1.09232,1.09333,1.09551,0.004032,0.00360582,1.11909,1.12174,1.12297,1.12661,1.3795,1.13114,1.13233,1.13516,1.13788,1.13994,1.1395,1.13902,1.14074,1.13865,1.33305,1.1184,1.11932,1.1196,1.11933,1.12849,1.09,1.16161,1.16874,1.10147,1.10318,1.1099,1.11159,1.11311,1.21345,1.10747,1.10864,1.11187,1.12487,1.10968,1.10905,1.07516,1.06378,1.09208,1.10286,1.10702,1.10627,1.12643,1.13606,1.14505,1.14405,1.11223,1.11582,1.11802,1.15662,1.15614,1.17163,1.19289,1.21203,1.21941,1.23781,1.24728,1.25064,1.26425,1.27814,1.27592,1.2747,1.29469,1.28156,1.2865,1.2876,1.32374,1.30522,1.37919,1.39637,1.39822,1.39817,1.38015,1.38061,1.41049,1.39076,1.38679,1.40289,1.41884,1.4094,1.41057,1.41865,1.41271,1.41307,1.44066,1.44053,1.54314,1.55209,1.55433,1.55676,1.55171,1.55581,1.47978,1.56247,1.56284,1.475,1.4735,1.53015,1.52853,1.52756,1.55977,1.5605,1.54225,1.54115,1.53291,1.57012,1.57105,1.55875,1.55794,1.56055,1.54393,1.54421,1.5065,1.62348,1.62361,1.5239,1.51282,1.50701,1.49032,1.50914,1.47891,1.48117,1.49492,1.50931,1.49951,1.48831,1.47658,1.47211,1.45419,1.5597,0.00342726,1.551,1.45325,1.46119,1.45686,1.44662,1.42566,1.42462,1.4271,1.42668,1.44351,1.4377,1.4604,1.456,1.45591,1.45013,1.46606,1.45155,1.44144,1.44913,1.44363,1.43392,1.42993,1.4336,1.43762,1.40673,1.41329,1.41008,1.42178,1.39316,1.39473,1.39212,1.37886,1.38913,1.38138,1.39551,1.39497,1.39539,1.43173,1.40346,1.42417,1.41617,1.4155,1.41458,1.41633,1.41276,1.41495,1.44061,1.44154,1.44357,1.51843,1.5155,1.51492,1.50492,1.49922,1.49786,1.49484,1.50214,1.49865,1.49785,1.4993,1.51586,1.51431,1.51317,1.51328,1.51332,1.51385,1.51661,1.52132,1.52043,1.52158,1.52575,1.52935,1.52956,1.53356,1.53275,1.53356,0.00355589,1.57075,0.00350735,0.00376059,0.00367197,0.00335148,0.00356817,1.53273,1.53474,1.53478,0.00339537,1.58634,1.58572,1.5952,1.54215,1.54353,1.54106,1.54755,1.54769,1.62394,1.55738,1.56817,1.56638,1.57965,1.57126,1.57462,1.57337,1.58659,1.58228,1.58186,1.58209,1.57977,1.58301,1.58522,1.59507,1.59221,1.59741,1.59701,1.59999,1.60029,1.60231
0.00342117,1.03219,1.03524,1.03763,1.03948,1.04247,1.03938,1.03726,1.03704,1.04221,1.04312,1.0463,1.0475,1.0491,0.00337585,1.14829,1.04789,1.05044,1.05239,1.05373,1.05493,1.05492,1.05648,1.05963,1.05839,1.05748,1.05847,1.06049,1.06087,1.0603,1.05589,1.04716,1.25292,1.27548,1.27751,1.25519,1.25575,1.25695,1.27989,1.27954,1.25908,1.05868,1.06668,1.0672,1.06882,1.07104,1.07048,1.07941,1.08144,1.08644,1.09096,1.09239,1.09858,1.3314,1.30813,1.31464,1.11385,1.11721,1.11975,1.12623,1.12859,1.12931,1.12911,1.13017,1.13238,1.29272,1.12371,1.12005,1.11521,1.11497,1.10891,1.11483,1.11857,1.11811,1.13322,1.12883,1.1015,1.11104,1.0965,1.10863,1.08854,1.09553,1.11384,1.12018,1.12632,1.11421,1.11472,1.07829,1.08069,1.06379,1.094,1.09459,1.06617,1.06841,1.0817,1.08381,1.09683,1.10183,1.09975,1.10235,1.12454,1.13285,1.1556,1.19154,1.21018,1.26841,1.23626,1.24287,1.25195,1.2497,1.25391,1.2558,1.27077,1.27235,1.27126,1.28451,1.28804,1.28785,1.30346,1.32875,1.33754,1.3347,1.34197,1.36892,1.3691,1.38664,1.37918,1.37858,1.40601,1.6344,1.6671,1.57923,1.58473,1.57065,1.43456,1.43453,1.40984,1.40901,1.47094,1.46035,1.47128,1.49374,1.48454,1.46485,1.51195,1.51275,1.49589,1.47647,1.47447,1.47596,1.4957,1.49414,1.50031,1.54838,1.53571,1.54361,1.549,1.55863,1.56017,1.55883,1.55826,1.52973,1.52791,1.51532,1.61145,1.61361,1.61562,1.61375,1.618,1.51251,1.5136,1.48537,1.48957,1.50639,1.50633,1.47655,1.4706,1.46812,1.48675,1.46911,1.46272,1.46325,1.46475,1.46206,1.43897,1.46208,1.46771,1.45482,1.43376,1.43446,1.45862,1.43038,1.50906,1.50809,1.46148,1.46078,1.46081,1.44482,1.4356,1.4356,1.45255,1.45244,1.43686,1.46141,1.43674,1.43478,1.44096,1.41756,1.4153,1.41437,1.43724,1.43001,1.4063,1.41202,1.39105,1.39821,1.39431,1.40665,1.43851,1.43287,1.44097,1.43888,1.43665,1.43189,1.44992,1.42634,1.43821,1.43262,1.44749,1.43074,1.46475,1.44438,1.44466,1.46416,1.48778,1.48815,1.47868,1.51994,1.5166,1.51275,1.51331,1.49995,1.50906,1.51667,1.51573,1.50934,1.51114,1.51226,1.51711,1.51871,1.51993,1.51751,1.51301,1.519,1.5164,1.51665,1.51719,1.51442,1.51583,1.51747,1.51777,1.51732,1.51545,1.51817,0.0037584,1.52533,1.5252,1.56679,0.00379742,1.51819,1.52241,1.52201,0.00352171,1.53258,1.53937,1.5396,1.53976,1.54849,1.55373,1.55948,1.55836,1.56176,1.56087,1.56455,1.57033,1.57268,1.57444,1.57616,1.58333,1.58325,1.58378,1.58374,1.5887,1.59132,1.59156,1.60294,1.60049,1.60206,1.6026,1.60345
1.00845,1.02405,1.13497,1.02786,1.03214,1.03251,1.03377,1.03445,1.03532,1.03573,1.0373,1.03589,1.03929,1.03072,1.03158,1.03302,1.04482,1.04975,1.05076,1.05061,1.04681,1.04648,1.09915,1.04745,1.04661,1.04631,1.04396,1.04263,1.04612,1.04738,1.04809,0.00358487,1.20833,1.20519,1.00027,1.00096,1.00162,1.26038,1.26177,1.0439,1.0454,1.04987,1.05444,1.05572,1.05927,1.05948,1.06184,1.06286,1.07086,1.31251,0.00377659,1.0939,1.09752,1.09902,1.10098,1.34242,0.00339081,0.00355594,1.34665,0.00367235,1.12573,1.12986,1.13048,1.12853,1.11699,1.11553,1.11421,1.11267,1.11328,1.11435,1.11319,1.11747,1.11965,1.12322,1.12314,1.10729,1.12257,1.08034,1.08139,1.08393,1.09456,1.12928,1.13044,1.14252,1.14314,1.11635,1.11752,1.11942,1.07458,1.04324,1.09189,1.09271,1.13858,1.12035,1.12014,1.12921,1.11892,1.10116,1.10249,1.16691,1.15591,1.14976,1.15153,1.1598,1.18536,1.22614,1.24362,1.28262,1.28866,1.24707,1.24789,1.29601,1.29705,1.28841,1.27469,1.29191,1.29608,1.31539,1.32218,1.33279,1.34771,1.34451,1.35874,1.37523,1.3707,1.38571,1.38323,1.37803,1.38688,1.68214,1.70356,1.70367,1.58588,1.58475,1.57665,1.43895,1.4108,1.40976,1.42153,1.4243,1.44851,1.48953,1.46825,1.4383,1.44404,1.45113,1.49867,1.47532,1.47476,1.49066,1.51407,1.51514,1.50526,1.50391,1.53381,1.55052,1.54381,1.56226,1.55227,1.54662,1.55799,1.55833,1.52367,1.50796,1.50815,1.51008,1.54374,1.56632,1.56613,1.51934,1.50502,1.48273,1.48807,1.48667,1.47566,1.47599,1.4829,1.47917,1.45893,1.47005,1.44876,1.45416,1.45569,1.46772,1.47535,1.46391,1.46085,1.46147,1.46553,1.43722,1.4541,1.47499,1.44737,1.44756,1.45711,1.45479,1.45634,1.44204,1.44723,1.45106,1.44233,1.4393,1.4395,1.44835,1.43423,1.43767,1.46541,1.46507,1.41983,1.45242,1.43424,1.41174,1.41084,1.42475,1.42707,1.41274,1.40218,1.40238,1.41498,1.44119,1.43437,1.44289,1.42737,1.43377,1.43235,1.42875,1.42706,1.43401,1.43404,1.46349,1.45,1.45357,1.47374,1.4755,1.4782,1.51978,1.49799,1.4933,1.51005,1.51061,1.49821,1.49794,1.50003,1.50141,1.50063,1.5064,1.50965,0.00330427,1.50681,1.50695,1.50931,1.50651,1.50887,1.50643,1.50583,1.50663,1.5058,1.50517,1.50727,1.50813,1.50437,1.50367,1.50356,1.49947,1.50072,1.50151,1.49969,0.00364588,1.50817,1.51593,1.51604,1.51318,1.52101,1.52393,1.52472,0.00370937,0.00340653,1.54612,1.54276,1.55135,1.54836,1.55329,1.55447,1.56222,1.56651,1.56741,1.57118,1.57187,1.57831,1.58053,1.57927,1.5793,1.58538,1.59435,1.60009,1.59806,1.5946,1.59885,1.59741,1.6026
1.01733,1.01753,1.01667,1.0092,1.01492,1.01545,1.01625,1.02473,1.02586,1.0302,1.03185,1.0243,1.02497,1.02926,1.02938,1.02756,1.0302,1.04057,0.00360342,1.03628,1.03705,1.03754,1.03556,1.03684,1.03438,1.03958,1.03909,1.04244,1.0431,1.04873,1.04798,1.19146,1.21182,1.19585,1.05923,1.18143,1.18986,1.20593,1.04349,1.04558,1.04793,1.0483,1.04719,1.04798,1.04976,1.0514,1.05938,1.30007,1.07412,1.08183,1.08313,1.09486,1.09535,1.09508,1.3541,1.09249,1.36413,0.00359251,1.10982,1.11178,1.11379,1.11632,1.11388,1.11264,1.10958,1.10973,1.10991,1.11227,1.11857,1.11909,1.12954,1.12993,1.13202,1.13877,1.13959,1.13622,1.11444,1.11622,1.05773,1.06106,1.06184,1.09259,1.06354,1.0899,1.11219,1.09787,1.07251,1.06098,1.04487,1.07201,1.15043,1.12945,1.11442,1.11205,1.13733,1.13774,1.10954,1.11109,1.13007,1.10853,1.12213,1.13935,1.13959,1.1618,1.16387,1.25297,1.23394,1.33456,1.25378,1.24816,1.25842,1.32775,1.32953,1.32886,1.30015,1.30115,1.31086,1.31166,1.34612,1.41405,1.41639,1.44226,1.43188,1.44412,1.40012,1.41051,1.39975,1.39194,1.39538,1.39452,1.39077,1.40918,1.49054,1.43194,1.45992,1.46371,1.43021,1.44861,1.41437,1.41428,1.42261,1.42617,1.44843,1.43131,1.43464,1.43477,1.49,1.48931,1.52494,1.52726,1.53661,1.57942,1.5277,1.55818,1.49807,1.51935,1.529,1.5822,1.57875,1.56851,1.53685,1.53477,1.53022,1.53254,1.51608,1.52043,1.51741,1.52061,1.51848,1.52353,1.5139,1.48902,1.49238,1.4854,1.4903,1.48858,1.46796,1.47107,1.4776,1.49156,1.48115,1.4746,1.46519,1.46732,1.44021,1.4751,1.47804,1.47783,1.45105,1.44066,1.43504,1.43385,1.44972,1.45877,1.46191,1.4622,1.45768,1.44011,1.46081,1.44589,1.44321,1.45591,1.44752,1.43002,1.44346,1.42309,1.50234,1.48905,1.44773,1.41889,1.41912,1.40909,1.42016,1.41725,1.41622,1.43986,1.42416,1.43032,1.4162,1.43009,1.43991,1.42801,1.43458,1.43868,1.43222,1.41966,1.41915,1.41866,1.43301,1.45217,1.44933,1.46386,1.46166,1.47634,1.46503,1.4647,1.45434,1.49596,1.47927,1.48799,1.48698,1.49517,1.49641,1.49503,1.49713,1.49939,1.4999,1.50323,1.50029,1.50516,1.50117,1.50109,1.49708,1.4975,1.49679,1.4966,1.49872,1.49843,1.49724,1.49698,1.49376,1.49108,1.49124,1.49041,1.48879,1.49401,1.49802,1.49573,1.49934,1.50194,1.50083,1.51337,1.51407,1.51303,1.51493,1.52235,1.52337,1.52635,1.54064,1.54041,1.54109,1.5401,1.73482,0.00308011,1.56184,1.56616,1.57099,1.56915,1.57124,1.57568,1.57663,1.57902,1.59,1.59008,1.59308,1.59355,1.59523,1.59365,1.59912,1.60631
1.01358,1.01448,1.01084,1.01106,1.01127,1.01724,1.01875,1.02078,1.02161,1.02257,1.02194,1.02222,1.02227,1.02095,1.02297,1.0285,1.02854,1.02857,1.02675,1.026,1.02553,1.0246,1.02845,1.02851,1.02996,1.03084,1.03229,1.0352,1.03892,1.04265,1.04773,1.04639,1.19665,1.0326,1.03104,1.03322,1.03959,1.04265,1.04611,1.04623,1.0457,1.04506,1.04303,1.05032,1.05269,1.06058,1.06395,1.06077,1.06383,1.07097,1.07409,1.07722,1.07961,1.08226,1.08364,1.08519,1.24028,1.32104,1.36934,1.09872,1.10217,1.10547,1.10758,1.10908,1.10971,1.11179,1.11319,1.11526,1.11917,1.12323,1.12415,1.45989,1.12519,1.12915,1.14021,1.14293,1.1192,1.06897,1.08702,1.08873,1.0551,1.05451,1.06034,1.0796,1.08318,1.11728,1.11753,1.07005,1.04792,1.07134,1.07298,1.15279,1.09585,1.09557,1.1063,1.11611,1.12066,1.13387,1.13918,1.14304,1.14913,1.11988,1.14238,1.16425,1.16337,1.16792,1.18757,1.20597,1.26047,1.25982,1.30884,1.32053,1.391,1.29108,1.31031,1.30369,1.297,1.29564,1.33543,1.4167,1.4154,1.43035,1.41982,1.42928,1.38894,1.39194,1.46709,1.45645,1.39043,1.39019,1.39484,1.3955,1.42963,1.42907,1.44631,1.43771,1.48511,1.4513,1.43016,1.43067,1.41974,1.42063,1.45096,1.45596,1.45669,1.44941,1.46142,1.54599,1.53147,1.50727,1.52568,1.51137,1.50305,1.52706,1.48773,1.48796,1.52098,1.54185,1.52833,1.54665,1.53985,1.52999,1.52248,1.54626,1.51593,1.52702,1.52577,1.51371,1.52429,1.4924,1.48965,1.49352,1.49207,1.51436,1.49909,1.49658,1.48239,1.58673,1.58338,1.58521,1.47821,1.48005,1.46765,1.46692,1.45815,1.45844,1.46363,1.45248,1.54347,1.5307,1.5439,1.46087,1.46214,1.44929,1.48955,1.474,1.4517,1.45098,1.44914,1.4599,1.45407,1.44668,1.44125,1.42278,1.42594,1.41983,1.41684,1.41927,1.41737,1.41722,1.41994,1.4426,1.43527,1.4274,1.43973,1.40901,1.42081,1.43001,1.41109,1.44218,1.42743,1.43462,1.43598,1.42091,1.42413,1.42471,1.4123,1.42061,1.43663,1.43807,1.43368,1.44376,1.46187,1.46353,1.46226,1.46768,1.46461,1.44835,1.46471,1.47846,1.4821,1.48641,1.48735,1.50582,1.49095,1.48984,1.49354,1.49936,1.49796,1.4942,1.49493,1.49597,1.49641,1.4955,1.49023,1.49396,1.49324,1.49276,1.49204,1.49282,1.49235,1.49151,1.48751,1.48671,1.48426,1.48871,1.49156,1.49526,1.50091,1.50192,1.5046,1.50997,1.51057,1.51025,1.5098,1.50973,1.51328,1.51567,0.0034892,0.0033985,1.53457,1.53279,1.53515,0.00332007,0.00340031,1.55687,1.56285,1.56107,1.5719,1.57151,1.57537,1.57368,1.57306,1.586,1.59101,1.59053,1.59581,1.59597,1.59832,1.59945
1.00106,1.00154,1.00526,1.00634,1.00612,1.00598,1.00798,1.00955,1.01093,1.01518,1.01785,1.01321,1.01769,1.02081,1.02181,1.01891,1.02027,1.01778,1.01543,1.01685,1.02077,1.02027,1.02059,1.02263,1.02302,1.02642,1.02852,1.03217,1.03658,1.03704,1.03973,1.03865,1.03398,1.02618,1.02745,1.02812,1.0359,1.03802,1.04342,1.04256,1.0415,1.04267,1.0459,1.04808,1.05452,1.06128,1.06303,1.06224,1.06453,1.06655,1.06726,1.07366,1.07507,1.08073,1.08158,1.08488,1.08658,1.30649,1.18665,1.18758,1.09772,1.23635,1.10515,1.10378,1.10692,1.10855,1.11049,1.11062,1.11341,1.11467,1.11297,1.11373,1.11126,1.11361,1.10822,1.11089,1.09799,1.10494,1.05412,1.05516,1.0772,1.05278,1.05548,1.05588,1.09089,1.08449,1.06642,1.06758,1.0564,1.04623,1.05454,1.09259,1.09765,1.11118,1.11481,1.1156,1.1016,1.13954,1.14796,1.1198,1.13956,1.15744,1.18005,1.1957,1.17521,1.17703,1.18014,1.23061,1.24009,1.26159,1.30193,1.29622,1.28864,1.31254,1.31342,1.31841,1.30833,1.33573,1.35513,1.33974,1.37116,1.37078,1.36528,1.36496,1.38579,1.38656,1.39532,1.46472,1.40266,1.40989,1.42027,1.41005,1.40929,1.42498,1.5072,1.45941,1.43846,1.43789,1.47491,1.47927,1.46474,1.46387,1.46502,1.45963,1.45123,1.45247,1.47564,1.54518,1.60762,1.48231,1.49271,1.55855,1.52417,1.48733,1.48832,1.53708,1.52624,1.5385,1.53998,1.53049,1.59919,1.58681,1.59594,1.58902,1.52225,1.51618,1.55472,1.52474,1.52339,1.49408,1.49241,1.4913,1.49016,1.48795,1.48891,1.49891,1.49857,1.49643,1.4928,1.47058,1.47012,1.44243,1.44265,1.47153,1.47185,1.46514,1.45635,1.4721,1.48102,1.4624,1.4516,1.45843,1.45375,1.45412,1.46441,1.4413,1.45103,1.45385,1.43718,1.44922,1.43355,1.41542,1.42982,1.43001,1.42279,1.39881,1.399,1.42024,1.39494,1.46804,1.46763,1.46423,1.38997,1.40636,1.41294,1.41882,1.40486,1.40842,1.40852,1.40245,1.4142,1.4214,1.42138,1.42262,1.42282,1.41311,1.41148,1.4374,1.44701,1.44677,1.45129,1.43427,1.43458,1.43618,1.47085,1.47879,1.47919,1.48182,1.45792,1.49245,0.00345804,1.46799,1.50681,1.50362,1.50261,1.48492,1.48966,1.48941,1.49264,1.49131,1.49089,1.48727,1.48827,1.48665,1.48299,1.4874,1.48283,1.4873,1.48648,1.48863,1.48804,1.48934,1.48652,1.48296,1.48803,1.48574,1.48996,1.48974,1.48915,1.49103,1.50208,1.50536,1.50402,1.50359,1.50646,1.50947,1.50876,1.51226,1.50792,1.50694,1.5102,0.00331441,0.00357424,1.5325,1.53406,0.00375279,1.5619,1.56175,1.56106,1.56568,1.57204,1.57077,1.57155,1.57771,1.57608,1.58058,1.5843,1.58643,0.00327132,1.60015
0.993735,0.995689,0.997972,1.00063,1.00223,0.998704,1.00446,1.00738,1.00902,1.01144,1.01341,1.0141,1.015,1.02239,1.02121,1.01819,1.01576,1.01187,1.01142,1.01145,1.01158,1.01415,1.0164,1.01822,1.02124,1.02377,1.02711,1.02828,1.03192,1.03251,1.03483,1.03273,1.02825,1.02808,1.02229,1.0222,1.02333,1.03518,1.03548,1.03753,1.04085,1.04607,1.05228,1.05336,1.0598,1.0585,1.05991,1.05684,1.05477,1.05707,1.0558,1.06036,1.06519,1.07052,1.0724,1.07417,0.00323977,1.08077,0.00356056,0.00350723,1.18811,1.09257,1.09538,1.0982,1.09894,0.00347949,0.00324836,1.10867,1.1114,1.10244,1.10205,1.10095,1.10096,1.10257,1.11478,1.06962,1.06488,1.06175,1.06189,1.07961,1.06126,1.05776,1.05586,1.05623,1.02638,1.03911,1.04206,1.03043,1.02869,1.02313,1.05649,1.04904,1.06794,1.07159,1.09122,1.10613,1.0985,1.08104,1.12528,1.12155,1.12304,1.13616,1.13828,1.19349,1.21722,1.14747,1.15763,1.18553,1.2054,1.32372,1.24945,1.2511,1.271,1.28239,1.34098,1.34338,1.33853,1.31772,1.31992,1.31894,1.35385,1.37302,1.37827,1.37574,1.38094,1.38102,1.39585,1.39957,1.40551,1.40486,1.46269,1.41839,1.43068,1.44527,1.44679,1.49222,1.43973,1.43807,1.45075,1.4465,1.50562,1.47089,1.44976,1.47132,1.48127,1.48932,1.49007,1.49121,1.48434,1.60969,1.60908,1.49861,1.52147,1.48771,1.48532,1.53286,1.56297,1.56323,1.57713,1.54465,1.52962,1.54656,1.57566,1.56912,1.56154,1.55889,1.52045,1.50499,1.65476,1.54724,1.60118,1.51057,1.50948,1.50871,1.49001,1.48952,1.48633,1.48243,1.48695,1.56603,1.56544,1.4865,1.48432,1.49273,1.46634,1.47555,1.46231,1.47456,1.46602,1.48803,1.46696,1.45372,1.44733,1.42281,1.46876,1.44021,1.44524,1.43501,1.42327,1.42228,1.40972,1.41447,1.46328,1.40298,1.39835,1.4021,1.41955,1.40674,1.40816,1.39038,1.38678,1.38948,1.38968,1.42002,1.3982,1.39781,1.39724,1.40574,1.41632,1.41504,1.40922,1.41001,1.4151,1.40937,1.39312,1.40245,1.40609,1.40039,1.40393,1.40703,1.39839,1.41507,1.46575,1.466,1.49814,1.40894,1.40684,1.4061,1.47165,1.46882,1.47482,1.49519,1.47508,1.48857,1.48896,1.48787,1.48619,1.48334,1.48948,1.48607,1.48634,1.48589,1.48443,1.48595,1.48379,1.48125,1.48604,1.4865,1.48662,1.489,1.49644,1.49573,1.49143,1.48934,1.4893,1.49143,1.49165,1.48922,1.49389,1.49784,1.49586,1.4962,1.50212,1.50099,1.49983,1.5022,1.50535,1.50424,1.50604,1.50506,1.50494,1.5076,1.5192,0.00335426,0.00351451,0.00384553,1.56066,1.55753,1.55932,1.56437,1.56498,1.56469,1.56774,1.56672,1.57263,1.58301,1.58508,1.57927,1.58289,1.58818
0.990695,0.991054,0.990883,0.990194,0.990667,0.991488,1.00095,1.00269,1.00338,1.00519,1.00771,1.00902,1.01615,1.01585,1.01624,1.0091,1.00839,1.007,1.00589,1.00817,1.00762,1.00906,1.01369,1.01454,1.02276,1.02411,1.02594,1.02694,1.02807,1.02837,1.02806,1.02771,1.02589,1.02538,1.02833,1.02652,1.02833,1.03029,1.03289,1.0352,1.03532,1.04558,1.05089,1.05362,1.05734,1.06046,1.05814,1.05714,1.05277,1.05286,1.05319,1.05423,1.0571,1.06181,1.0628,1.06724,0.00357882,0.00353571,0.00326543,1.07529,0.00346706,0.00358723,0.00344933,1.08957,1.09227,0.00364837,1.09431,1.09695,1.0977,1.09772,1.09766,1.08985,1.08831,1.08475,1.08506,1.09044,1.06163,1.06288,1.10346,1.04644,1.0455,1.04419,1.05736,1.02501,1.01501,1.02194,1.02355,1.0295,1.01538,1.06043,1.06083,1.16161,1.14636,1.14709,1.07832,1.0967,1.12565,1.18532,1.10737,1.11175,1.10205,1.12015,1.13376,1.16429,1.17498,1.12716,1.1714,1.14915,1.19445,1.24984,1.25215,1.2623,1.26142,1.26164,1.27141,1.34218,1.34193,1.40185,1.32253,1.31914,1.40276,1.39235,1.39265,1.43604,1.36149,1.35805,1.40235,1.40188,1.41375,1.41543,1.41639,1.41696,1.50138,1.50101,1.44574,1.44516,1.4654,1.47952,1.48138,1.53386,1.53727,1.49377,1.45461,1.52422,1.50421,1.59545,1.48994,1.47625,1.47625,1.51113,1.48728,1.50544,1.49233,1.51794,1.58509,1.49948,1.50086,1.51082,1.5104,1.57145,1.56958,1.51284,1.51183,1.49978,1.49858,1.49811,1.50072,1.50075,1.50629,1.51483,1.51164,1.50975,1.50914,1.49752,1.49289,1.51932,1.49602,1.49662,1.50861,1.48406,1.48844,1.4646,1.49299,1.48417,1.47117,1.47574,1.47708,1.47283,1.47095,1.44841,1.45029,1.437,1.43468,1.4097,1.42993,1.42749,1.42548,1.40947,1.42797,1.41624,1.397,1.39506,1.41546,1.41009,1.42938,1.4226,1.41666,1.41286,1.41452,1.41934,1.40094,1.3925,1.40247,1.39287,1.39517,1.39888,1.41353,1.4046,1.3944,1.39349,1.39787,1.43111,1.42316,1.38517,1.32088,1.33607,1.33583,1.43403,1.34943,1.40858,1.36279,1.36152,1.36772,1.45289,1.45875,1.45958,1.46844,1.40384,1.48868,1.44175,1.45248,1.45345,1.4995,1.49267,1.47824,1.48313,1.48356,1.48241,1.48287,1.48189,1.48523,1.4852,1.48289,1.48284,1.48268,1.48572,1.48667,1.48882,1.48964,1.48984,1.49509,1.49376,1.4911,1.48927,1.49132,1.49133,1.49393,1.4848,1.48933,1.49585,1.49375,1.49366,1.49247,1.49056,1.49413,1.49519,1.49459,1.49566,1.49987,1.50019,1.50275,1.50967,1.68024,1.52702,0.00375199,1.54376,1.55292,1.55101,1.55438,1.55861,1.5606,1.57134,1.57073,1.56977,1.56844,1.56896,1.57475,1.578,1.58183,1.58571
0.971857,0.973221,0.974714,0.980263,0.985211,0.986003,0.988665,0.992046,0.992069,0.994407,0.996029,1.12338,1.1313,1.00738,1.0075,1.00534,1.00462,1.0024,1.00429,1.00693,1.00696,1.00847,1.00991,1.01357,1.0151,1.02159,1.02091,1.02006,1.02056,1.02072,1.02126,1.02235,1.02199,1.02291,1.02332,1.02559,1.02748,1.03107,1.03213,1.03394,1.03954,1.04378,1.0498,1.05235,1.05448,1.04722,1.04726,1.04635,1.04798,1.05045,1.05275,1.05129,1.05259,1.05184,1.05278,1.05239,0.00344606,1.42304,1.17552,1.17641,1.17278,1.18473,1.46986,1.47175,1.22279,1.27884,1.29876,1.08297,1.08426,1.08462,1.08509,1.08147,1.08108,1.08149,1.11564,1.11242,1.11619,1.08838,1.09036,1.01352,1.00869,1.02196,1.00839,1.0082,1.01486,1.00546,1.0258,1.02258,1.00298,1.00477,1.08147,1.08294,1.1117,1.10691,1.09556,1.10269,1.10205,1.11604,1.07821,1.0805,1.08164,1.25371,1.09566,1.09652,1.12696,1.14016,1.14983,1.1683,1.17013,1.23713,1.23053,1.25084,1.27372,1.26633,1.2667,1.28789,1.27098,1.28287,1.29124,1.32107,1.3382,1.34053,1.36546,1.36661,1.35172,1.37183,1.37838,1.40961,1.38904,1.38874,1.39519,1.40623,1.41725,1.42931,1.45711,1.4598,1.4644,1.46473,1.51975,0.00342288,1.46677,1.46418,1.4633,1.49704,1.46826,1.47538,1.48653,1.47564,1.47677,1.47648,1.47871,1.48013,1.51159,1.49568,1.54029,1.544,1.51264,1.50574,1.5053,1.50683,1.50966,1.50643,1.50584,1.50327,1.49952,1.49562,1.51656,1.4993,1.5136,1.51015,1.50887,1.50244,1.50117,1.49911,1.51199,1.50969,1.50277,1.50284,1.50837,1.5041,1.47458,1.48578,1.47857,1.47575,1.47563,1.45879,1.45751,1.46053,1.49063,1.45511,1.45482,1.43769,1.44476,1.43685,1.42534,1.46449,1.42639,1.41609,1.41863,1.41754,1.41946,1.40371,1.42781,1.4049,1.42263,1.42179,1.4223,1.38934,1.39498,1.39868,1.39722,1.39175,1.3769,1.37708,1.38575,1.3654,1.37245,1.34408,1.33575,1.33331,1.33285,1.33431,1.30666,1.29939,1.29988,1.29949,1.29868,1.33119,1.30471,1.31584,1.31577,1.31921,1.34414,1.44682,1.47216,1.40012,1.40025,1.40532,1.40566,1.44063,1.45481,1.48315,1.47792,1.47571,1.47208,1.47558,1.47766,1.47708,1.47985,1.48076,1.48371,1.48809,1.48276,1.48195,1.48553,1.489,1.48816,1.48996,1.48803,1.48759,1.48301,1.49172,1.49171,1.48949,1.49461,1.49215,1.48902,1.48888,1.49391,1.49421,1.49911,1.49773,1.49396,1.48877,1.48855,1.49283,1.49485,1.48889,1.49225,1.49697,1.50188,1.51749,1.5214,1.5245,1.53371,1.53428,1.5397,1.54569,1.55617,1.55578,1.55505,1.56216,1.56801,1.56649,1.56764,1.57431,1.57291,1.57874,1.58042,1.58204
0.967598,0.966775,0.973905,0.976198,0.976861,0.976824,0.976928,0.981449,0.986839,0.00349129,0.994546,0.996925,0.997685,0.997609,0.994257,0.996028,0.99493,0.995433,0.997795,0.999938,1.00172,1.00382,1.00587,1.01103,1.01377,1.01389,1.01444,1.01243,1.01352,1.0159,1.01674,1.0181,1.01814,1.01843,1.01984,1.02265,1.02845,1.03162,1.03261,1.03289,1.0387,1.04135,1.04297,1.04496,1.04362,1.0432,1.04257,1.04411,1.03965,1.0395,1.03799,1.03473,1.03634,1.07717,0.00324045,1.15534,1.03978,1.03969,1.0337,1.13228,1.19154,1.19375,0.00339929,1.19573,0.00359531,1.25327,0.00324088,1.08804,1.08866,1.08846,1.09012,1.09055,1.09438,1.1131,1.09824,1.09791,1.11113,1.1096,1.03591,1.03648,1.07334,1.01486,1.01521,1.00091,1.02891,1.03517,1.032,1.01738,1.02009,1.02642,1.03358,1.07884,1.09974,1.12346,1.07316,1.07478,1.07753,1.13897,1.13674,1.12244,1.10095,1.11939,1.11964,1.11998,1.15348,1.15618,1.1988,1.19955,1.18702,1.18561,1.21754,1.22645,1.25443,1.2502,1.2535,1.28964,1.28161,1.29793,1.2924,1.36708,1.37372,1.33597,1.35058,1.37238,1.3652,1.37445,1.40506,1.38993,1.43932,1.44031,1.43954,1.4394,1.44409,1.4876,1.479,1.44758,1.44766,1.44434,1.45834,1.47801,1.47834,1.47226,1.48917,1.47415,1.53197,1.49241,1.51206,1.50818,1.50586,1.5132,1.49765,1.49663,1.47895,1.48091,1.48066,1.51893,1.50243,1.50197,1.50842,1.50873,1.50704,1.50656,1.50968,1.48302,0.0033147,0.00348811,1.50654,1.52541,1.52443,1.52722,1.51571,1.52545,1.5229,0.00362161,1.49946,1.50016,1.49005,1.53324,1.49191,1.49534,1.46791,1.48666,1.46438,1.5011,1.51044,1.57149,1.57066,1.48219,1.45458,1.45967,1.46401,1.40531,1.40415,1.41673,1.40533,1.41928,1.41323,1.38998,1.3956,1.39514,1.39566,1.39502,1.40592,1.40452,1.40404,1.38365,1.38845,1.38486,1.38186,1.36576,1.37278,1.3683,1.36163,1.36248,1.36601,1.37794,1.39096,1.33018,1.33233,1.31254,1.29023,1.30555,1.28642,1.28609,1.2843,1.26552,1.29467,1.27801,1.31027,1.31169,1.30901,1.3285,1.38835,1.39178,1.48639,1.48774,1.40806,1.40902,1.40964,1.45546,1.4561,1.45609,1.46734,1.46936,1.47404,1.4763,1.4789,1.47633,1.47941,1.47776,1.48505,1.48473,1.48267,1.48244,1.48038,1.48437,1.47952,1.48132,1.48598,1.47999,1.48541,1.48502,1.48431,1.4852,1.48867,1.49588,1.49297,1.49602,1.49577,1.49482,1.4957,1.49537,1.49285,1.49327,1.49316,1.48362,1.48942,1.49399,1.49243,1.49599,1.50524,1.51659,1.52638,1.53259,1.53198,1.53752,1.53704,1.54851,1.5493,1.55006,1.55443,1.57125,1.56632,1.56645,1.57045,1.56949,1.56923,1.57212,1.57403,1.57569
0.958429,0.96432,0.967714,0.969257,0.969744,0.972397,0.973746,0.974373,0.975792,0.978508,0.984825,0.990417,0.984917,0.983274,0.983669,0.986468,0.991833,0.993429,0.994453,0.995406,0.997938,0.998928,1.00199,1.03298,1.00507,1.00694,1.00606,1.00669,1.00727,1.00815,1.01022,1.01076,1.01029,1.01398,1.01723,1.02101,1.02517,1.02541,1.02696,1.0287,1.03007,1.03425,1.03439,1.0321,1.03324,1.03438,1.03262,1.03527,1.0285,1.0259,1.02578,1.02503,1.02289,1.02252,1.02052,1.1773,1.02929,1.0314,1.03289,1.0331,1.03219,1.03305,1.29287,1.18754,1.18916,0.00320456,1.08499,1.08672,1.08626,0.00351664,1.25304,1.25401,1.08154,1.08032,1.08374,1.08754,1.04726,1.04944,1.0391,1.01471,1.01614,1.04076,1.01496,1.01251,1.03499,1.02937,1.03073,1.09974,1.02886,1.01812,1.01728,1.01901,1.08597,1.07061,1.0512,1.05183,1.08144,1.08702,1.05669,1.09408,1.09252,1.10145,1.12038,1.12257,1.14947,1.15739,1.16519,1.17703,1.18253,1.18373,1.1911,1.22765,1.2283,1.2503,1.36003,1.34828,1.26663,1.2579,1.29512,1.30603,1.31362,1.32929,1.37189,1.36898,1.36744,1.38235,1.39595,1.39811,1.4759,1.47643,1.47575,1.47504,1.43789,1.53617,1.53564,1.5091,1.50281,1.47014,1.46065,1.48144,1.48044,1.45149,1.49363,1.48483,1.53907,1.5011,1.46032,1.46234,1.50021,1.50699,1.54896,1.57119,1.53035,0.00348504,1.5099,0.00342398,0.00391254,1.52508,1.52387,0.00343677,1.49074,1.48834,1.49448,1.54154,1.53262,0.00387162,1.54197,1.53018,1.55186,1.57435,1.53034,1.51413,1.52955,1.52027,1.52658,1.51747,1.49851,1.5575,1.50544,1.52591,1.47901,1.47457,1.57354,1.48272,1.48839,1.51008,1.50383,1.42755,1.42783,1.43858,1.43042,1.40967,1.42245,1.43046,1.41567,1.4126,1.3955,1.39335,1.38201,1.3731,1.37428,1.38822,1.38598,1.38621,1.41541,1.40495,1.39254,1.36649,1.37858,1.35439,1.35582,1.37097,1.37426,1.36815,1.38851,1.40924,1.40985,1.40951,1.31935,1.29004,1.29203,1.26438,1.24751,1.24296,1.24387,1.24338,1.49939,1.28442,1.31282,1.31334,1.32963,1.35209,1.3522,1.35615,1.38294,1.41016,1.41087,1.41152,1.43954,1.43834,1.44727,1.45536,1.46298,1.46189,1.46909,1.46771,1.47068,1.4726,1.47381,1.47523,1.47559,1.47629,1.47517,1.47512,1.47642,1.47648,1.47794,1.47701,1.47762,1.47802,1.47838,1.47788,1.47737,1.4825,1.48326,1.48857,1.49376,1.49229,1.49437,1.49419,1.49563,1.49686,1.49624,1.5003,1.49661,1.495,1.4976,1.49658,1.49661,1.49627,1.50564,0.00341973,0.00353032,0.00330889,1.53059,1.54023,1.53888,1.54127,1.54675,1.55619,1.56086,1.5562,1.5684,1.56532,1.56711,1.5681,1.5642,1.56793,1.56495,1.56677
0.948793,0.952184,0.95387,1.03555,0.96681,0.967564,0.97405,0.976002,0.977521,0.97872,0.00331072,0.972994,0.975648,0.976019,0.980335,0.977324,0.980158,0.981134,0.986595,0.988006,0.995054,0.997432,0.996974,0.997377,0.998573,1.00137,1.00247,1.00262,1.00276,1.00401,1.00524,1.00571,1.01127,1.01524,1.01214,1.01171,1.00929,1.01489,1.01536,1.01724,0.00333598,0.00354561,1.0313,1.03197,1.02903,1.02427,1.02512,1.02605,1.02481,1.02496,1.09362,1.00819,1.00773,1.00781,1.0081,1.01004,0.00331265,1.02407,1.02559,1.0262,1.02898,1.03075,1.03295,1.19151,0.00350994,0.00367779,0.00364594,0.00353333,1.21393,1.06839,1.07153,1.06463,1.05609,1.03985,1.03689,1.03624,1.02877,1.02736,1.03197,1.02312,1.0255,1.02774,1.04313,1.04559,1.04652,1.01237,1.01617,1.02914,1.01248,1.01472,0.982173,1.00228,1.02589,1.02903,1.06994,1.06624,1.06487,1.14953,1.09182,1.07869,1.0819,1.09992,1.10511,1.1293,1.14589,1.11278,1.13274,1.21142,1.16145,1.18936,1.22043,1.22386,1.21742,1.24443,1.23767,1.22606,1.24696,1.278,1.27794,1.32252,1.32259,1.31212,1.34576,1.3812,1.3784,1.36549,1.39571,1.39613,1.4014,1.42447,1.42332,1.41976,1.4192,1.41989,1.44473,1.44099,1.44067,1.45024,1.46377,1.52392,1.49132,1.45729,1.46115,1.46137,1.46426,1.45983,1.48737,1.48884,1.49783,1.49389,0.00326263,1.56533,1.48954,1.4863,1.49661,1.49594,1.48768,1.48363,1.48576,1.48856,1.48788,1.48597,1.64745,1.55504,1.55431,1.53014,1.50263,1.49747,1.48923,1.55747,1.52276,1.48552,1.48596,1.51452,1.52713,1.52264,1.52633,1.51326,1.57092,1.45729,1.45541,1.44248,1.44156,1.44871,1.45681,1.45827,1.4761,1.44935,1.43628,1.43297,1.44697,1.43397,1.41127,1.40328,1.39651,1.38746,1.38446,1.39245,1.37918,1.38595,1.38575,1.38181,1.37668,1.3954,1.39138,1.37092,1.36886,1.36899,1.36307,1.37188,1.34557,1.3427,1.35884,1.354,1.36103,1.37203,1.39261,1.32481,1.32022,1.30315,1.27353,1.24954,1.23526,1.23142,1.23328,1.2362,1.50043,1.27964,1.28125,1.3345,1.3348,1.35344,1.35444,1.36321,1.40554,1.40457,1.4049,1.41709,1.47049,1.4667,1.45075,1.45736,1.46436,1.4634,1.466,1.46696,1.47545,1.47312,1.47072,1.47019,1.47087,1.47048,1.46895,1.47496,1.47314,1.47381,1.46872,1.46519,1.46541,1.47005,1.46705,1.47062,1.47409,1.47162,1.4767,1.48444,1.48943,1.49256,1.49285,1.49248,1.49365,1.49741,1.50274,1.49853,1.49794,1.50091,1.50147,1.50211,1.50045,1.49412,1.49302,1.65665,1.59496,0.00366684,0.00345491,1.53385,1.53783,1.54402,1.54659,1.54733,1.54985,1.55148,1.5541,1.5583,1.55946,1.56235,1.56357,1.56499,1.56841,1.57106
0.942092,0.942838,0.946537,0.953839,0.943908,0.00335251,0.959975,0.962372,0.960703,0.960592,0.960953,0.961007,0.963143,0.967248,0.966548,0.968475,0.971351,0.972236,0.977841,1.06207,1.05921,0.989151,0.992994,0.994894,0.99729,0.995625,0.99621,0.997922,0.9998,1.00194,1.00361,1.00797,1.00843,1.00556,1.00898,1.00815,1.00716,1.00724,1.00507,1.00422,0.00345251,0.00354294,1.09313,1.07952,1.07574,1.00713,0.00375513,0.00362051,0.999116,0.998443,1.00139,1.00058,0.999905,0.999105,0.99931,0.996455,0.998371,1.24005,0.00297682,1.02235,1.02557,1.08874,0.00333395,0.00343663,0.00349102,1.04918,1.05267,1.05105,1.05578,1.05376,1.06013,1.04983,1.04788,1.04217,1.04286,0.00333697,1.08279,0.00359358,1.02879,1.03261,1.02551,1.02902,1.02987,1.03003,1.03299,1.01164,1.01228,0.991722,1.00533,0.990626,0.993656,0.974092,0.974,1.01124,1.03617,1.03323,1.07351,1.07455,1.08201,1.03524,1.04384,1.04298,1.04209,1.04261,1.07205,1.10096,1.12264,1.13726,1.16721,1.16861,1.18647,1.20012,1.1943,1.2028,1.20683,1.20662,1.23622,1.23753,1.28069,1.27757,1.29775,1.31641,1.3264,1.3672,1.38754,1.38801,1.37878,1.37788,1.40094,1.39895,1.38705,1.38733,1.4022,1.41357,1.43307,1.48356,1.48217,1.48293,1.43053,1.42999,1.47169,1.46914,1.44273,1.50844,1.47572,1.47873,1.48548,1.46719,1.47383,1.49531,1.54194,1.54116,1.54201,1.4926,1.48953,1.49202,1.49292,1.49255,1.48083,1.49262,1.49362,1.49686,1.50533,1.46623,1.46682,1.48864,1.48954,1.48649,1.48401,1.54691,1.49849,1.49832,1.48745,1.50368,1.50367,1.50379,1.48768,1.48762,1.45394,1.45433,1.45295,1.45079,1.4834,1.48255,1.51516,1.46435,1.46567,1.46847,1.41822,1.42396,1.4725,1.47124,1.39897,1.39969,1.39576,1.397,1.39436,1.38669,1.39535,1.37146,1.38148,1.39352,1.39597,1.37845,1.37784,1.36907,1.36911,1.37398,1.36741,1.33489,1.3343,1.33761,1.32984,1.3292,1.3307,1.32403,1.32601,1.31925,1.2972,1.30644,1.29803,1.23203,1.22992,1.23335,1.23322,1.24173,1.5057,1.29884,1.29968,1.36107,1.38796,1.36263,1.38164,1.42684,1.42508,1.40925,1.43927,1.43286,1.44097,1.44035,1.44882,1.45964,1.46082,1.4605,1.46494,1.46407,1.46541,1.46653,1.4653,1.46447,1.46616,1.47439,1.47251,1.4731,1.47491,1.46643,1.46494,1.46164,1.46032,1.46261,1.46119,1.46541,1.46964,1.46845,1.47779,1.48162,1.48631,1.49082,1.49625,1.49795,1.49893,1.50106,1.50012,1.49942,1.49751,1.50588,1.50186,1.49976,0.00351539,1.48673,1.48652,1.5793,1.61905,0.00342649,0.00365946,1.54359,1.53899,1.5385,1.54259,1.54358,1.5472,1.55312,1.55241,1.55899,1.55771,1.56267,1.56444,1.56339,1.56585,1.56458
0.934348,0.936937,0.937722,0.937821,0.936337,0.93905,0.944874,0.944578,0.947237,0.954531,0.00313771,0.952733,0.00321728,0.00353875,0.96005,0.959954,0.964748,0.967442,1.05836,0.00334527,0.00329913,0.98004,0.987108,0.988499,0.991615,0.988983,0.988759,0.991338,0.994337,0.99427,0.998851,1.00052,1.00178,1.21526,1.22821,0.00345399,0.998411,0.997521,0.00317212,0.00340958,0.00322651,1.15056,0.981072,0.983951,0.987323,1.2129,0.00330906,0.98459,0.986308,0.993941,0.987826,0.98814,0.990175,0.989477,0.994406,0.997128,0.998221,1.00511,1.0115,0.00337586,1.02115,1.02283,0.003344,0.00339153,1.03549,1.03585,0.00305144,1.04603,1.04707,1.0483,1.04944,1.04876,1.04656,1.04585,1.0668,1.06852,1.08117,1.08116,1.08459,1.09267,1.0162,1.03825,1.0395,1.01496,1.01861,1.0009,1.00614,0.993886,0.992306,0.990697,0.985174,0.977506,1.00374,1.0039,1.07383,1.0337,1.04432,1.04586,1.03369,1.02663,1.02922,1.04016,1.02919,1.04754,1.04941,1.09474,1.09424,1.15679,1.14443,1.15868,1.1436,1.15226,1.15203,1.1617,1.16362,1.21218,1.21192,1.26049,1.27236,1.25664,1.25675,1.31369,1.33731,1.32943,1.40561,1.40611,1.35764,1.38991,1.41737,1.3861,1.40527,1.4143,1.41611,1.41044,1.46935,1.46896,0.00323385,1.43741,1.41876,1.43074,1.43365,1.44986,1.47062,1.50896,1.46801,1.45701,1.49194,1.49209,1.49292,1.51936,1.46844,1.47204,1.47475,1.46907,1.46579,1.49015,1.474,1.44613,1.49678,1.46029,1.50065,1.49303,1.48775,1.48805,1.50986,1.48519,1.45818,1.46071,1.45155,1.4758,1.49303,1.49351,1.48975,1.50301,1.48271,1.475,1.49124,1.48253,1.48609,1.47082,1.44715,1.44512,1.4973,1.45808,1.45198,1.44993,1.45783,1.45245,1.44449,1.47729,1.419,1.38427,1.41639,1.39188,1.39415,1.39305,1.37504,1.37807,1.3724,1.37759,1.40627,1.39951,1.3636,1.37109,1.37146,1.36397,1.36573,1.37619,1.35863,1.3648,1.3396,1.32958,1.33097,1.32278,1.31676,1.31854,1.32729,1.29872,1.29122,1.31664,1.31586,1.28179,1.27814,1.27947,1.2782,1.30155,1.30155,1.31072,1.32271,1.35666,1.36616,1.36371,1.41298,1.41281,1.41123,1.42461,1.44598,1.45158,1.45155,1.44095,1.45088,1.45676,1.45614,1.45667,1.45819,1.46039,1.4589,1.4615,1.46431,1.46434,1.46448,1.46703,1.46779,1.46849,1.46716,1.46583,1.46544,1.46516,1.46097,1.45972,1.46202,1.46602,1.4665,1.47225,1.47543,1.48307,1.48569,1.48926,1.49624,1.49836,1.4968,1.49636,1.49556,1.49548,1.49633,1.4996,1.50804,1.50737,1.50039,1.49845,0.0034075,0.00368249,0.00338737,0.00338857,0.00346998,1.53858,1.53891,1.53946,1.53571,1.53516,1.54585,1.5488,1.54838,1.54658,1.55088,1.55276,1.55108,1.55549,1.56056,1.55948
0.918092,0.917838,0.918034,0.923232,0.924605,0.926296,0.93389,0.93279,0.933078,0.00341323,0.00342563,0.00336106,0.942417,1.04563,0.947484,0.953398,0.949841,1.14597,1.12493,1.06442,0.969842,1.05288,1.09054,1.12158,0.976191,0.977241,0.97756,0.980249,0.982851,1.14389,0.98094,0.978683,0.979491,0.982531,0.983173,0.976888,0.975487,1.05078,1.06044,1.0551,0.968177,0.970532,0.978299,0.981217,0.973644,0.973969,0.97717,0.976308,0.977225,0.980627,0.983159,0.986689,0.989068,0.992175,0.992034,0.997887,0.999518,0.999917,1.00726,1.00817,0.00357824,1.02018,1.02386,1.02387,1.42498,0.00331386,1.03589,1.04024,1.043,1.04556,1.04657,1.04638,1.04649,1.04616,1.04888,1.04995,1.06062,1.06628,1.05602,1.06968,1.06603,1.06488,1.01513,1.01663,1.01824,0.999803,1.02076,0.994547,0.987877,0.990553,0.983467,1.00103,1.00312,1.02315,1.00953,1.01447,1.01598,1.02872,1.02132,1.02028,1.05904,1.04981,1.04757,1.17674,1.07264,1.07511,1.07034,1.07176,1.09844,1.1304,1.13539,1.17996,1.18156,1.18641,1.22087,1.16954,1.17131,1.22282,1.21864,1.2593,1.27867,1.31362,1.31261,1.32968,1.32455,1.32235,1.40631,1.37026,1.36807,1.34813,1.39009,1.38995,1.38884,1.44105,1.41103,1.40923,1.41917,1.49731,1.61329,1.49526,1.49409,1.50235,1.45946,1.45919,1.45824,1.4723,1.49094,1.48975,1.48431,1.4666,1.44828,1.44745,1.44957,1.45904,1.44444,1.4585,1.43385,1.43366,1.42401,1.45017,1.45238,1.45761,1.49231,1.4579,1.45064,1.44689,1.459,1.49342,1.4591,1.45913,1.45047,1.4438,1.42797,1.4664,1.47151,1.47128,1.50854,1.50023,1.52359,1.51849,1.43046,1.43226,1.44225,1.42164,1.4387,1.50647,1.50502,1.43327,1.42355,1.41318,1.39707,1.38414,1.38395,1.39804,1.44786,1.39726,1.36435,1.36433,1.37659,1.36661,1.3717,1.37846,1.37466,1.36499,1.36143,1.35566,1.35267,1.35308,1.34604,1.32558,1.32689,1.4053,1.37128,1.34698,1.34787,1.30236,1.2999,1.32075,1.32186,1.33269,1.35597,1.33595,1.38743,1.38199,1.28777,1.29962,1.33406,1.35367,1.36087,1.37085,1.36744,1.395,1.39403,1.39542,1.41422,1.41944,1.42756,1.43928,1.43843,1.44009,1.44831,1.44802,1.45402,1.45166,1.45041,1.45147,1.4578,1.45658,1.46139,1.46003,1.4653,1.46471,1.46937,1.46865,1.469,1.4706,1.46702,1.46726,1.46167,1.46529,1.46327,1.4692,1.46761,1.47524,1.47548,1.48321,1.48835,1.48771,1.49681,1.49841,1.49605,1.49623,1.49908,1.4996,1.4995,1.50007,1.50047,1.50331,1.4989,1.49728,1.50332,0.00344061,1.7315,1.53351,1.53091,1.53107,1.53657,1.53558,1.53802,1.54008,1.54021,1.5476,1.54704,1.54109,1.5468,1.54602,1.54855,1.55959,1.55889,1.56097
0.914558,0.917587,0.918922,0.920595,0.921767,0.922879,0.923822,0.920268,0.00334722,0.920151,0.92409,0.922559,0.928811,0.933479,0.935083,0.942917,1.06134,0.947246,0.955328,0.959531,0.959426,0.962561,0.963291,0.964797,0.972169,0.971934,1.13472,0.968332,0.971894,0.972503,0.973847,0.974965,0.976623,0.979102,0.980896,0.977294,0.950632,0.951837,0.953305,0.958602,0.96573,0.967081,0.974111,0.974532,0.976158,0.976981,0.975973,0.977512,0.978619,0.980216,0.980564,0.984028,0.985043,0.985995,0.988357,0.990263,0.991926,0.998592,1.00517,1.007,1.00626,1.00887,1.01143,1.01497,1.01969,1.02326,1.02456,1.02554,1.02987,1.04311,1.04052,1.0409,1.04028,1.03927,1.04219,1.06368,1.06457,1.07232,1.07594,1.0768,1.0196,1.02954,1.00976,1.00769,1.00866,1.01884,1.01861,1.00326,1.02191,1.02357,0.999823,0.99357,1.0348,1.05519,1.06089,1.03192,1.01584,1.01831,0.999484,1.02937,1.07498,1.07503,1.07668,1.05411,1.03548,1.05908,1.07717,1.07802,1.07111,1.10246,1.09616,1.15195,1.16092,1.22542,1.23665,1.23896,1.18521,1.21674,1.21756,1.23266,1.22694,1.28,1.29892,1.33955,1.33345,1.32206,1.33472,1.33454,1.34431,1.34958,1.34914,1.36757,1.36883,1.38502,1.37893,1.39954,1.48417,1.48989,1.49062,1.49935,1.49973,1.50109,1.46038,1.47132,1.46781,1.48248,1.47455,1.49268,1.48624,1.48884,1.45703,1.45335,1.45207,1.44454,1.4537,1.43328,1.44064,1.42466,1.42595,1.44016,1.47924,1.47929,1.47635,1.47657,1.49877,1.48887,1.48739,1.44698,1.49297,1.48944,1.46893,1.4325,1.4405,1.43392,1.43127,1.47209,1.47204,1.48319,1.47416,1.48964,1.4475,1.44557,1.4154,1.4137,1.48611,1.48219,1.48986,1.41949,1.4244,1.40282,1.39947,1.406,1.39648,1.38618,1.35848,1.35941,1.35979,1.34813,1.34726,1.33692,1.3432,1.34384,1.35483,1.35718,1.34527,1.34843,1.35118,1.35014,1.32972,1.33432,1.33606,1.33793,1.31387,1.31245,1.34355,1.30827,1.30908,1.3134,1.31618,1.33014,1.32926,1.3293,1.35029,1.34995,1.34056,1.35112,1.34976,1.36981,1.3704,1.37486,1.36257,1.39982,1.39304,1.4098,1.44717,1.43458,1.43356,1.43623,1.43847,1.45155,1.44876,1.4508,1.45059,1.45047,1.45022,1.45427,1.45326,1.45183,1.45655,1.45627,1.46107,1.46039,1.46071,1.46389,1.46882,1.46755,1.46787,1.46401,1.46508,1.46492,1.46505,1.46695,1.47164,1.47141,1.47239,1.4797,1.48038,1.48628,1.48678,1.48867,1.49257,1.49322,1.49639,1.49922,1.49849,1.50359,1.50353,1.50282,1.49993,1.50051,1.49937,1.52291,1.52217,1.53004,1.53099,1.52895,1.53079,1.53182,1.53655,1.53489,1.53562,1.53909,1.54153,1.54287,1.54312,1.54565,1.55256,1.55583,1.56298,1.56313
0.912476,0.00357998,0.916733,0.00333958,0.90304,0.906745,0.907131,0.908305,0.910024,0.913004,0.915863,0.920886,0.924952,0.925817,0.929792,0.935382,0.943114,0.948498,0.948676,0.947785,0.951114,0.949967,0.950929,0.957864,0.960667,0.962771,0.963528,0.965187,0.967603,0.967899,0.00333704,0.00359742,0.00361494,0.947958,0.95309,0.953263,0.949893,0.954304,0.955308,0.957557,0.962072,0.964887,0.967547,0.969788,0.973276,0.974508,0.976377,0.980603,0.980823,0.982031,0.983375,0.983428,0.985104,0.98737,0.989579,0.994283,0.994499,1.00029,1.00619,1.00788,1.00874,1.00961,1.00884,1.00981,1.01741,1.01894,1.02186,1.02496,1.02816,1.02938,0.00347189,1.03273,1.03467,1.03442,1.0288,1.05593,1.0571,1.02688,1.02645,1.02117,1.01994,1.02041,1.0128,1.01292,1.00546,1.09533,1.02446,1.05264,1.05352,0.991405,1.00851,1.03335,0.999998,1.06444,1.0864,1.00889,1.00813,1.0185,1.01858,1.01458,1.03542,1.02436,1.03225,1.06795,1.04408,1.07796,1.07705,1.08122,1.10286,1.07787,1.09219,1.16341,1.15124,1.17135,1.1819,1.16057,1.17316,1.17482,1.2135,1.22782,1.22305,1.22677,1.28499,1.28637,1.28134,1.31818,1.29695,1.29551,1.29815,1.33438,1.33398,1.34107,1.36619,1.36486,1.35297,1.39937,1.39732,1.48865,1.48809,1.56078,1.56025,1.43063,1.44721,1.45371,1.44696,1.45959,1.45171,1.45001,1.45762,1.45591,1.46363,1.44139,1.44846,1.42945,1.43162,1.42442,1.39565,1.39606,1.42372,1.43167,1.44092,1.50068,1.50286,1.48848,1.48478,1.48521,1.47711,1.47438,1.45227,1.45378,1.42503,1.42898,1.43035,1.43012,1.47218,1.47859,1.44037,1.45162,1.43488,1.45577,1.42867,1.42768,1.46117,1.42867,1.42275,1.4024,1.42418,1.42638,1.40697,1.39945,1.41051,1.41527,1.37196,1.36685,1.36377,1.3719,1.36862,1.35368,1.35488,1.36044,1.36703,1.35127,1.34172,1.35093,1.34919,1.33105,1.33727,1.3153,1.33982,1.34022,1.34279,1.34053,1.34379,1.3408,1.34308,1.33046,1.33633,1.30711,1.33926,1.31291,1.32179,1.36419,1.32962,1.35029,1.35364,1.34108,1.34399,1.34882,1.34934,1.35143,1.36192,1.38489,1.38524,1.436,1.43519,1.43533,1.45815,1.44449,1.45098,1.44997,1.45391,1.44999,1.44969,1.44794,1.44833,1.44802,1.44727,1.44785,1.45487,1.45838,1.45708,1.45789,1.45976,1.46019,1.46556,1.46406,1.46461,1.46393,1.46153,1.46586,1.46411,1.46286,1.46574,1.46607,1.47487,1.47679,1.47975,1.48573,1.48453,1.48847,1.4933,1.49348,1.49709,1.49983,1.505,1.51352,1.51286,1.51239,1.50612,1.50843,1.51264,1.51452,1.52123,1.5212,1.52833,1.52639,1.5245,1.52823,1.5339,1.53367,1.53973,1.53861,1.5406,1.54358,1.54042,1.54198,1.5529,1.5529,1.56145,1.56387
0.901412,0.901218,0.900512,0.898253,0.895029,0.89779,0.89827,0.900877,0.906278,0.906265,0.913041,0.915021,0.921472,0.925162,0.00353021,0.942351,0.944437,0.94806,0.94891,0.949312,0.949259,0.951139,0.950566,0.952222,0.954765,0.95679,0.958015,0.956995,0.9445,0.937326,0.937879,0.941595,0.941284,0.942238,0.942931,0.944515,0.946345,0.947216,0.948956,0.00342309,0.961644,0.962527,0.963343,0.964124,0.973385,0.975689,0.981115,0.983461,0.983964,0.984202,0.985315,0.987545,0.989092,0.992903,0.992726,0.994215,0.9981,0.999864,1.00144,1.00271,1.00822,1.00862,1.00917,1.0095,1.01063,1.01185,1.1697,1.01677,0.00364595,1.01948,0.00353294,0.00371959,0.00352505,1.02205,1.0213,1.02245,1.025,1.02486,1.02828,1.02836,1.01207,1.00832,0.99435,0.984417,1.00235,1.05644,1.05675,0.967646,0.992233,0.993734,0.978235,1.00515,0.993467,0.995,1.00124,0.974705,0.976533,1.00963,1.00851,1.00511,0.999056,0.995803,1.02353,1.03273,1.03216,1.02827,1.18841,1.07088,1.05236,1.0816,1.11287,1.08897,1.10536,1.14675,1.15804,1.1703,1.18651,1.18914,1.1946,1.21142,1.23761,1.24032,1.24454,1.2666,1.30794,1.30952,1.40244,1.40464,1.30846,1.30356,1.30583,1.33031,1.32627,1.31061,1.36462,1.38308,1.38948,1.40207,1.4208,1.42288,1.41959,1.42705,1.43917,1.43424,1.44061,1.43934,1.43722,1.45582,1.45838,1.48831,1.45365,1.44314,1.44574,1.44641,1.436,1.39088,1.3989,1.39748,1.41479,1.43319,1.4332,1.42465,1.42727,1.42634,1.4507,1.44721,1.46168,1.4634,1.46119,1.4608,1.4258,1.4839,1.46834,1.44543,1.44579,1.44648,1.44825,1.44963,1.44547,1.43655,1.43357,1.43434,1.40173,1.43153,1.42515,1.41777,1.41373,1.41856,1.38851,1.37358,1.39444,1.36674,1.36213,1.36377,1.37543,1.36953,1.36091,1.35849,1.3412,1.33973,1.33431,1.34444,1.33669,1.32642,1.30452,1.3068,1.33066,1.37507,1.36191,1.36732,1.3197,1.33306,1.33499,1.42351,1.3387,1.34751,1.33442,1.31307,1.3413,1.34574,1.35004,1.33359,1.33352,1.33052,1.34699,1.36182,1.34672,1.34557,1.35692,1.34747,1.39431,1.395,1.39208,1.40389,1.41963,1.43006,1.44252,1.44264,1.44493,1.45024,1.44973,1.44976,1.44813,1.44965,1.45075,1.44747,1.45292,1.45269,1.45414,1.45366,1.45683,1.46054,1.46056,1.46008,1.46133,1.46055,1.46085,1.46143,1.46391,1.45569,1.46678,1.46523,1.46561,1.46326,1.46416,1.47645,1.47889,1.48023,1.48216,1.48336,1.49187,1.49156,1.49461,1.50212,1.50899,1.51155,1.51127,1.51177,1.51347,1.51248,1.51181,1.51817,1.51727,1.52192,1.52333,1.52939,1.52843,1.52819,1.52998,1.53421,1.53463,1.5373,1.53515,1.53984,1.5436,1.54504,1.54672,1.54637,1.5562,1.55603
0.890056,0.888023,0.890808,0.888857,0.89126,0.893605,0.893853,0.895334,1.01258,0.904832,0.909812,0.0034557,0.00328497,1.06769,0.934153,0.943098,0.943588,0.944734,0.946255,0.947292,0.948968,0.9493,0.950279,0.952231,0.952153,0.944747,0.00364046,0.926361,0.933665,0.932613,0.934165,0.934066,0.935219,0.936104,0.937159,0.938611,0.941194,0.936623,0.945594,0.946065,0.944396,0.949908,0.00382666,0.966652,0.966158,0.978013,0.980166,0.981155,0.982415,0.9816,0.982858,0.983587,0.988312,0.990612,0.990635,0.991036,0.990306,0.991343,0.996474,0.995695,1.00144,1.00414,1.0048,1.00826,1.0041,1.004,1.00425,1.00574,1.00734,1.0057,1.00823,1.009,1.01092,1.01151,1.0124,1.01208,1.01372,1.01756,1.02039,1.02177,1.02208,1.01881,1.02634,1.02764,0.94338,0.945447,0.946444,0.946647,0.993944,0.99565,0.965482,0.976341,1.00295,0.97072,0.980786,0.984309,1.02365,1.01636,0.984747,1.00069,0.988804,1.00436,1.00413,1.02249,1.03578,1.03555,1.02572,1.02729,1.03576,1.03241,1.05093,1.05313,1.11188,1.12583,1.14666,1.17386,1.16854,1.18247,1.19363,1.1986,1.21587,1.22246,1.22427,1.22536,1.26086,1.26163,1.26851,1.28031,1.2953,1.30345,1.29876,1.28078,1.31339,1.35322,1.35971,1.4004,1.38771,1.3949,1.41942,1.41961,1.39345,1.43414,1.41981,1.41736,1.42102,1.41541,1.4027,1.40228,1.4237,1.42862,1.39781,1.39491,1.38839,1.3839,1.38428,1.42908,1.40272,1.39276,1.40554,1.41884,1.41903,1.40943,1.45567,1.44916,1.51443,1.45189,1.45819,1.44474,1.44957,1.44994,1.45559,1.49037,1.46108,1.43462,1.42639,1.42161,1.43962,1.43942,1.41949,1.41578,1.41475,1.47284,1.43068,1.41894,1.41001,1.41553,1.39468,1.39345,1.37704,1.37635,1.37548,1.36758,1.365,1.331,1.34089,1.34676,1.34262,1.34346,1.33754,1.32425,1.32943,1.31541,1.3156,1.31339,1.31618,1.33295,1.33543,1.35657,1.35157,1.34324,1.31097,1.32591,1.34144,1.35717,1.33306,1.33354,1.33903,1.31319,1.31406,1.34815,1.346,1.33802,1.34467,1.34351,1.3351,1.34812,1.34644,1.33446,1.33467,1.3368,1.38648,1.37777,1.42991,1.40394,1.42108,1.42416,0.00343355,1.45039,1.45045,1.44854,1.44726,1.44455,1.45012,1.45001,1.45014,1.44869,1.45016,1.44691,1.45102,1.45574,1.45544,1.45566,1.45881,1.45841,1.45526,1.45841,1.4582,1.45461,1.45799,1.45631,1.46072,1.46105,1.46462,1.463,1.466,1.46887,1.47241,1.48003,1.47944,1.48438,1.48857,1.49446,1.49511,1.49991,1.50888,1.50903,1.51715,1.5173,1.51594,1.51648,1.51372,1.517,1.5176,1.51919,1.52219,1.52022,1.52692,1.52438,1.52746,1.52611,1.532,1.53181,1.5307,1.53338,1.5381,1.53624,1.54037,1.54569,1.55776,1.55655
0.88111,0.883233,0.884195,0.885449,0.886718,0.890997,1.05194,0.898679,0.901627,0.902383,0.909766,1.16639,0.984189,0.931798,0.935404,0.935065,0.932148,0.939465,0.940834,0.934868,0.936977,0.937857,0.00327327,0.00361815,0.00329871,0.0037692,0.921254,0.924856,0.924982,0.920977,0.92085,0.928027,0.929575,0.932833,0.934327,0.929593,0.929391,0.930697,0.931288,0.936748,0.941837,0.944556,0.00324778,0.960281,0.962725,0.964157,0.969054,0.00369654,0.971702,0.970932,0.974228,0.976284,0.978181,0.986775,0.986966,0.985282,0.984345,0.984646,0.986826,0.987895,0.992918,0.00345393,0.992963,0.00348466,0.992335,0.995105,0.998205,0.997952,1.00093,1.00289,1.00261,1.00287,1.00365,1.00458,1.00694,1.00809,1.00933,1.01123,1.01629,1.01892,1.01461,1.01873,1.02144,1.02201,0.954035,0.955633,0.954274,0.951915,0.953076,0.952309,0.975465,0.981595,0.980833,0.978175,0.98783,0.970329,0.97383,0.960435,0.97709,1.00436,1.00825,1.00779,1.14785,1.06021,1.02189,1.0229,1.0344,1.0339,1.03983,1.05296,1.05506,1.09266,1.10887,1.11541,1.174,1.16175,1.1499,1.14949,1.14981,1.20645,1.19341,1.22025,1.21756,1.22609,1.29125,1.29083,1.2906,1.28819,1.26317,1.264,1.31978,1.3152,1.3139,1.3554,1.35136,1.35434,1.37782,1.40753,1.40631,1.40535,1.42536,1.45206,1.44911,1.44424,1.40889,1.40283,1.38735,1.38761,1.38799,1.38612,1.38692,1.38733,1.38905,1.42393,1.40709,1.42003,1.40153,1.39008,1.38977,1.41615,1.42126,1.41976,1.43781,1.42499,1.40767,1.40808,1.4394,1.42228,1.45713,1.47952,1.48018,1.49344,1.49893,1.45262,1.42418,1.42501,1.42282,1.42224,1.43023,1.41646,1.41612,1.41322,1.3986,1.39798,1.40586,1.42609,1.37093,1.37757,1.36872,1.35852,1.34113,1.33926,1.36496,1.33092,1.34666,1.33583,1.32796,1.34693,1.34638,1.3552,1.31188,1.30757,1.29938,1.30559,1.30965,1.30519,1.30488,1.30071,1.30185,1.31265,1.31122,1.30474,1.32271,1.32925,1.30847,1.3092,1.3012,1.29712,1.32817,1.32855,1.30922,1.31315,1.33559,1.31656,1.32881,1.32727,1.3274,1.33275,1.32901,1.36415,1.38521,1.40063,1.40222,1.41942,1.41886,1.42748,0.00328022,1.45228,1.45085,1.44945,1.44753,1.44615,1.44188,1.44561,1.44713,1.44472,1.44275,1.44727,1.4484,1.44838,1.45545,1.45646,1.45166,1.45158,1.45189,1.45706,1.45421,1.45733,1.4576,1.45827,1.45902,1.45789,1.45587,1.46157,1.4631,1.47072,1.4726,1.48069,1.4799,1.4813,1.48577,1.49206,1.49356,1.50235,1.50857,1.5138,1.51418,1.51642,1.51528,1.50874,1.50807,1.50841,1.51079,1.52073,1.52308,1.52318,1.52036,1.51982,1.52307,1.53136,1.53093,1.53027,1.53321,1.53133,1.53155,1.53694,1.54027,1.54668,1.54834,1.54735
0.88002,0.879356,0.87991,0.881081,0.88397,0.888195,0.89417,0.898244,0.90512,0.906462,0.915386,0.925852,0.927955,0.928923,0.930205,0.926166,0.928622,0.929985,0.931942,0.931752,0.00343427,0.00338409,0.00334123,0.0034663,0.902767,0.902628,0.910156,0.909399,0.911117,0.914457,0.919513,0.919467,0.920705,0.00346172,0.00372227,0.00333908,0.909324,0.921614,0.93581,0.92952,1.10176,1.19463,0.00340272,0.00347244,0.959448,0.960215,0.962179,0.961946,0.961917,0.958327,0.960374,0.968251,0.968478,0.967988,0.968739,1.20892,0.00356167,0.98412,0.982795,0.984022,0.985165,0.980564,0.980298,0.980853,0.98146,0.984794,0.98917,0.990475,0.993416,0.997161,0.997525,0.999376,0.999605,0.99953,1.00051,1.00134,1.00237,1.00429,1.00429,1.00622,1.00972,1.01639,1.01806,0.967687,0.970013,0.979331,0.98223,0.981839,1.05286,1.05396,0.949607,0.961195,0.979164,0.98893,1.00438,0.994913,0.994466,0.964035,0.96965,1.01201,1.01898,1.01583,1.00906,0.987901,1.01483,1.02919,1.05099,1.05344,1.05143,1.06353,1.07435,1.08467,1.13975,1.13671,1.13818,1.14017,1.14313,1.12795,1.13767,1.17169,1.19193,1.19509,1.20545,1.20504,1.21342,1.29618,1.30613,1.26536,1.26683,1.2577,1.3125,1.30332,1.31273,1.31687,1.35429,1.36563,1.3507,1.37269,1.37752,1.37197,1.41055,1.40906,1.40401,1.40361,1.40048,1.38547,1.35177,1.37834,1.37735,1.37901,1.40047,1.41011,1.42019,1.42171,1.42106,1.41972,1.47108,0.00335473,1.39162,1.39139,1.41334,1.42341,1.41654,1.42057,1.41376,1.41362,1.43047,1.43004,1.45132,1.45707,1.4465,1.43727,1.44479,1.44226,1.43308,1.41771,1.41562,1.41544,1.38962,1.40896,1.40886,1.40082,1.4001,1.41547,1.36487,1.35722,1.32509,1.3218,1.31602,1.31183,1.30276,1.32302,1.32259,1.32602,1.32777,1.33397,1.30922,1.3132,1.34285,1.34221,1.32366,1.29879,1.30738,1.29572,1.29573,1.3217,1.29771,1.32009,1.28931,1.29184,1.29392,1.29814,1.29407,1.29316,1.30665,1.27591,1.27448,1.276,1.29081,1.32087,1.30357,1.3036,1.30584,1.31628,1.31521,1.32344,1.34126,1.35316,1.3569,1.37772,1.40209,1.44057,1.43979,1.43979,1.44067,1.42822,1.4428,1.44111,0.00343766,1.43816,1.43708,1.43813,1.44383,1.44391,1.44146,1.43604,1.43815,1.44314,1.44363,1.44365,1.44836,1.44613,1.45353,1.45302,1.44978,1.45025,1.4526,1.45541,1.45571,1.45655,1.45382,1.45722,1.45813,1.45838,1.46801,1.46882,1.4723,1.47402,1.47951,1.47846,1.47556,1.47848,1.50177,1.49759,1.50366,1.50075,0.00324989,0.0036552,0.00362162,1.50901,1.50669,1.50743,1.5076,1.51983,1.52299,1.52288,1.51885,1.51887,1.52604,1.53031,1.52981,1.53383,1.53058,1.53247,1.53174,1.53357,1.53858,1.54115,1.54467,1.54628
0.871526,0.874651,0.87628,0.879674,1.36759,0.894082,0.895136,0.900382,0.905732,0.914755,0.916769,0.919665,0.921223,0.925737,0.918767,0.916891,0.00355151,0.957805,0.884806,0.883381,0.00334915,0.891254,0.892522,0.898953,0.900666,0.903989,0.906183,0.907461,0.907389,0.907335,0.905416,0.899283,0.903205,0.900442,0.89913,0.899659,0.906025,0.906856,0.907508,0.93156,0.935997,0.93842,0.941971,0.945858,0.945778,0.946076,0.950354,0.952181,0.953295,0.955804,0.955582,0.955874,0.956191,0.961379,0.961313,0.961642,0.964235,0.966726,0.965523,0.966873,0.966791,0.969541,0.972429,0.975563,0.979637,0.98055,0.98294,0.990657,0.99261,0.993111,0.995608,0.997061,0.998114,1.00016,1.00068,1.00167,1.00498,1.00645,1.00832,1.00983,1.01156,1.00467,1.00594,0.957615,0.944225,0.944148,0.00327635,0.00326176,0.937223,0.944057,0.00360547,0.98867,0.989499,0.989924,1.00152,0.993221,0.967577,0.970638,0.959965,0.962482,0.962018,1.01233,1.00424,1.00584,0.989484,1.01926,1.01995,1.02869,1.04721,1.03899,1.06031,1.08279,1.07825,1.1216,1.11892,1.1229,1.12588,1.13605,1.13206,1.15773,1.1558,1.1575,1.1853,1.18911,1.27086,1.27228,1.23676,1.21806,1.23901,1.25119,1.26248,1.33996,1.37128,1.31229,1.32795,1.32368,1.33058,1.36169,1.36081,1.35915,1.36417,1.38277,1.39353,1.37777,1.37534,1.33987,1.33675,1.33624,1.34867,1.3712,1.36449,1.35991,1.35954,1.53934,1.51192,1.50996,1.5041,0.00361409,0.00355661,1.36486,1.36461,1.42872,1.44853,1.43623,1.43708,1.45183,1.43638,1.43749,1.42727,1.42649,1.42372,1.49989,1.41804,1.41631,1.40283,1.40154,1.40256,1.4159,1.40071,1.39905,1.38577,1.39447,1.36814,1.33599,1.32423,1.31973,1.32233,1.31697,1.30553,1.30919,1.30862,1.30965,1.30741,1.31575,1.33194,1.29915,1.32551,1.32776,1.3339,1.29887,1.30597,1.28775,1.30382,1.29557,1.3131,1.31681,1.31068,1.30977,1.30688,1.32306,1.31894,1.28632,1.28093,1.28313,1.26147,1.28049,1.30779,1.28481,1.3032,1.33014,1.34015,1.35165,1.35133,1.31608,1.31947,1.33409,1.32906,1.33347,1.33995,1.3852,1.43815,1.40306,1.40285,1.41314,1.43962,1.43268,1.4293,1.43516,1.43661,1.43641,1.4342,1.43623,1.44249,1.43776,1.43426,1.43806,1.44008,1.44067,1.43896,1.43858,1.44295,1.44324,1.44254,1.44749,1.44631,1.44363,1.44801,1.44937,1.45838,1.45083,1.45545,1.45518,1.45697,1.45634,1.45795,1.46158,1.47051,1.47059,1.47176,1.47168,1.47852,1.49102,1.48915,1.48879,1.49653,1.49557,1.49549,1.49349,1.50547,1.47913,1.50206,1.66586,1.50943,1.50982,1.51958,1.51674,1.51903,1.52074,1.51707,1.52311,1.52038,1.52364,1.52647,1.53381,1.53398,1.53109,1.52827,1.53645,1.53499,1.53651
0.87088,0.871083,0.870585,0.879722,0.886026,0.89086,0.893578,0.900801,0.904962,0.906754,0.00330967,0.00333343,0.0034463,0.00355056,0.00407556,0.00349723,0.876259,0.876042,0.877616,0.878264,0.884417,0.890895,0.894266,0.901681,0.905895,0.907657,0.909078,0.908402,1.14591,1.14578,0.894313,0.896619,0.897521,0.895805,0.896748,0.899491,0.90435,0.904263,0.905206,0.00326451,0.926804,0.926523,0.00341826,1.11477,1.08408,0.00336373,0.943866,0.945679,0.946799,0.941949,0.943428,0.946169,0.953422,0.954795,0.959758,0.958943,0.959365,0.960176,0.967387,0.969006,0.966152,0.966091,0.969081,0.972618,0.975087,0.976413,0.985928,0.988026,0.992126,0.993023,0.993042,0.994942,0.994423,0.995422,0.997915,0.999695,1.00214,1.00403,1.0056,1.00636,1.00667,1.01026,1.00944,1.00434,0.956014,0.932876,0.933458,0.939136,0.93681,0.980253,0.983822,0.983944,0.99417,0.995875,1.00598,1.00773,0.968301,0.983196,0.973016,0.971489,0.988976,0.984865,0.973522,0.97482,1.00129,1.02313,1.00994,1.05382,1.01018,1.05799,1.05632,1.05419,1.07196,1.10857,1.1068,1.18201,1.12015,1.13807,1.14313,1.13092,1.1681,1.18353,1.16458,1.20261,1.19773,1.20135,1.19896,1.23897,1.28035,1.27934,1.26892,1.33682,1.33673,1.30258,1.30521,1.33371,1.33498,1.35864,1.36005,1.35797,1.35084,1.34568,1.32581,1.35438,1.33443,1.37907,1.36315,1.44728,1.36015,1.39153,1.35547,1.34656,1.33091,1.35847,1.36525,1.35034,1.36085,1.35659,1.37199,1.37105,1.39601,1.39825,1.40162,1.37279,1.40932,1.43725,1.43011,1.42312,1.40151,1.4003,1.3857,1.40684,1.41285,1.40333,1.40149,1.40905,1.3965,1.38101,1.39261,1.37717,1.35936,1.34948,1.35028,1.31957,1.3179,1.30501,1.31325,1.30527,1.30696,1.29148,1.27736,1.30267,1.28319,1.29358,1.30486,1.30562,1.30597,1.29643,1.30635,1.28926,1.29114,1.29651,1.30313,1.30506,1.31785,1.31864,1.30919,1.32615,1.33778,1.34604,1.3572,1.29179,1.29285,1.30691,1.30976,1.30887,1.29554,1.297,1.32357,1.32195,1.32162,1.32948,1.32796,1.32322,1.33206,1.3291,1.33707,1.33001,1.3894,1.38103,1.42668,1.43831,1.43668,1.41409,1.43603,1.42608,1.42507,1.42831,1.42643,1.43141,1.42998,1.42789,1.42637,1.42365,1.42983,1.43495,1.43674,1.43786,1.4392,1.43701,1.43578,1.43657,1.43937,1.43971,1.43968,1.44092,1.44032,1.44788,1.4516,1.451,1.45592,1.45346,1.44974,1.4537,1.45457,1.4606,1.46114,0.00351431,1.46921,1.47503,1.47839,1.49007,1.48951,1.48773,1.48467,1.49156,1.49186,1.48961,1.48388,1.48803,1.48793,1.49193,1.49393,1.4963,1.5099,1.51308,1.51299,1.51179,1.51875,1.51752,1.5195,1.52008,1.5253,1.5252,1.5237,1.5398,1.53996,1.53888,1.53842,1.54092
0.870708,0.871013,0.877833,0.878794,0.876886,0.87718,0.00346464,0.889126,0.889638,0.899533,0.902211,0.902591,0.902173,0.893124,0.888808,0.8875,0.874917,0.876499,0.877398,0.879117,0.88264,0.890332,0.891428,0.899234,0.00356975,0.00349961,0.882099,0.892879,0.885315,0.886634,0.885959,0.88742,0.888315,0.893846,0.892058,0.89212,0.893984,0.896083,0.90279,0.907008,0.00322525,0.911396,0.920032,0.922791,0.927092,0.926761,0.927572,0.928647,0.933812,0.934998,0.936903,0.939414,0.943209,0.945777,0.957223,0.958937,0.957776,0.962638,0.963096,0.963558,0.963285,0.962694,0.958538,0.959123,1.02748,0.971765,0.00328878,0.97501,0.981223,0.981802,0.990073,0.990841,0.991776,0.993731,0.9947,0.998554,1.00019,1.00235,1.00521,1.0058,1.00954,1.01094,1.01101,1.01068,1.01344,1.01564,1.01532,1.01774,1.01584,1.00579,0.983877,0.99407,0.996562,1.02625,1.00827,0.988545,1.01548,0.980365,0.988703,0.988903,0.978629,0.981014,0.984217,0.9804,1.00339,1.01154,1.01479,1.0338,1.00949,1.02601,1.05099,1.12746,1.08071,1.07892,1.12011,1.10235,1.10075,1.11024,1.12029,1.11706,1.12438,1.17671,1.16044,1.18432,1.18262,1.18395,1.17967,1.21291,1.22158,1.22509,1.21949,1.26688,1.26346,1.26501,1.26601,1.30962,1.33817,1.3379,1.34662,1.35706,1.31563,1.31303,1.30992,1.32398,1.35511,1.3688,1.36935,1.37057,1.35849,1.38926,1.35637,1.32596,1.34634,1.35764,1.35792,1.36103,1.33153,1.35386,1.3538,1.33671,1.33374,1.35127,1.36854,1.45751,1.39578,1.39548,1.41408,1.39305,1.37383,1.39837,1.37442,1.39941,1.40075,1.40161,1.40554,1.40642,1.38559,1.37919,1.3742,1.36571,1.31326,1.30698,1.30265,1.27785,1.27132,1.27178,1.2786,1.29781,1.29867,1.27912,1.28035,1.27532,1.28956,1.28655,1.28103,1.27907,1.28223,1.28483,1.31602,1.3515,1.28288,1.29513,1.29995,1.29938,1.30625,1.30826,1.31834,1.32012,1.30671,1.3084,1.30799,1.30571,1.3038,1.30594,1.31077,1.30271,1.32421,1.32619,1.30491,1.32797,1.31451,1.31609,1.31564,1.33448,1.33063,1.33724,1.34107,1.41049,1.37861,1.38078,1.39243,1.41004,1.41013,1.41939,1.42207,1.42206,1.42116,1.42569,1.42751,1.42575,1.42544,1.42494,1.42531,1.42612,1.40857,1.43228,1.43152,1.43243,1.4315,1.43356,1.43323,1.43665,1.43919,1.44019,1.44094,1.4421,1.43802,1.43974,1.44188,1.44314,1.44992,1.45098,1.44549,1.44749,1.44788,1.45002,1.4515,1.47251,1.47116,1.47096,1.47874,1.47753,1.48205,1.47813,1.47903,0.00350796,1.47251,1.4765,1.48131,1.4812,1.48221,1.48504,1.48499,1.49102,0.00365737,1.52075,1.51686,1.51297,1.51278,1.51246,1.51799,1.51864,0.0031985,1.52775,1.54174,1.54212,1.53939,1.53924,1.54542,1.54498
0.846495,0.8511,0.00335784,0.00340197,0.873229,0.874563,0.87737,0.00360071,0.8886,0.00352368,0.898312,0.898345,0.889351,0.872017,0.873102,0.00346229,0.870787,0.871178,0.871519,0.873454,0.877877,0.877943,0.876384,0.873408,0.873193,0.878421,0.881515,0.880644,0.883237,0.884538,0.885597,0.8867,0.886297,0.883883,0.884352,0.890794,0.89553,0.897383,0.898495,0.901197,0.902906,0.907512,0.911329,0.912778,0.919312,0.921958,0.923716,0.925435,0.925634,0.928421,0.935114,0.938729,0.939614,0.945305,0.952519,0.953902,0.956903,0.957581,0.954258,0.954156,0.956828,0.956007,0.95504,0.954443,0.958444,0.963941,0.966778,0.967842,0.97133,0.97423,0.00359061,0.00362096,0.988681,0.991181,0.00337654,0.00355921,0.997532,0.00317725,1.00404,1.00742,1.00909,1.00832,1.00963,1.01158,1.01485,1.01632,1.01836,1.01832,1.01813,1.0131,1.01326,1.01247,1.0054,1.00609,1.00632,1.00347,1.01866,0.998122,0.974863,0.97546,0.9778,0.984496,0.986252,1.00384,1.00616,1.01568,1.01467,1.04985,1.05286,1.01852,1.02879,1.06338,1.0617,1.07392,1.0878,1.06813,1.05835,1.07412,1.0874,1.10479,1.12324,1.1235,1.13705,1.15019,1.16625,1.16758,1.17019,1.20262,1.2051,1.2129,1.22735,1.23064,1.22959,1.24119,1.24629,1.28151,1.33678,1.36991,1.31481,1.29708,1.31264,1.32211,1.31841,1.326,1.29919,1.31316,1.31326,1.33058,1.34326,1.34307,1.32209,1.34365,1.36835,1.36822,1.33703,1.34411,1.37311,1.37326,1.34418,1.34157,1.35027,1.34785,1.34849,1.4174,1.40877,1.46227,1.46253,1.37747,1.37254,1.38438,1.38124,1.38206,1.39115,1.39477,1.3711,1.37152,1.33946,1.34084,1.33001,1.31003,1.32435,1.29348,1.30031,1.34798,1.39221,1.39988,1.27933,1.27128,1.27217,1.25792,1.25724,1.29416,1.26267,1.26766,1.27854,1.26768,1.27471,1.28507,1.28462,1.28452,1.28339,1.2844,1.31965,1.29927,1.30691,1.31663,1.31559,1.3167,1.3123,1.30793,1.3037,1.30833,1.3053,1.28903,1.3071,1.31237,1.30641,1.30724,1.31036,1.31104,1.31374,1.31399,1.31678,1.32771,1.34072,1.39417,1.37915,1.37334,1.37965,1.38142,1.40067,1.40275,1.40222,1.41737,1.41654,1.4235,1.42181,1.42312,1.42153,1.42105,1.42209,1.42,1.41851,1.42412,1.42249,1.42424,1.42934,1.43007,1.43689,1.43735,1.43615,1.43815,1.43755,1.4388,1.43481,1.43272,1.43572,1.43441,1.43991,1.44231,1.44042,1.44165,1.44635,1.44674,1.44629,1.44857,1.45631,1.45373,1.46183,1.46936,1.47152,0.00353052,1.4628,1.46355,1.46424,1.46383,1.46732,1.46783,1.46991,1.47485,1.47817,1.48468,1.48452,1.4929,1.49691,1.50146,1.51277,1.50704,1.51182,1.51436,1.51572,1.51016,1.51604,1.52417,0.00359928,1.53916,1.53677,1.53696,1.53971,1.53973
0.84321,0.8457,0.852224,0.853881,0.857986,0.859402,0.863793,0.870986,0.86637,0.0035174,0.873581,0.874493,0.868734,0.867817,0.866715,0.858279,0.863366,0.861129,0.00317344,0.00327757,0.868501,0.866312,0.870191,0.869805,0.867537,0.873761,0.878208,0.88135,0.883764,0.880607,0.880163,0.879056,0.879806,0.882118,0.887327,0.889227,0.891972,0.89244,0.89287,0.898796,0.902769,0.903138,0.909559,0.913401,0.914662,0.922787,0.924971,0.926182,0.926235,0.930903,0.932469,0.935198,0.935662,0.942539,0.00355714,0.941471,0.943368,0.944166,0.949169,0.949163,0.949472,0.951149,0.95091,0.953259,0.955824,0.957177,0.958389,0.963298,0.966813,0.967706,0.970344,0.970147,0.970734,0.981768,0.98574,0.987243,0.992041,0.99374,0.996906,1.00435,1.0063,1.01002,1.01463,1.01454,1.0125,1.01518,1.01461,1.01486,1.01329,1.01495,1.01476,1.01456,1.01198,1.01193,1.01189,1.00472,1.03259,1.02801,0.981,0.983606,0.999492,0.998095,1.00559,1.00099,1.02681,1.0331,1.02584,1.02217,1.01589,1.03027,1.02384,1.04326,1.05066,1.07053,1.05746,1.05517,1.0552,1.0761,1.08102,1.06687,1.09528,1.10654,1.12547,1.13384,1.14634,1.13911,1.14168,1.14791,1.14609,1.18485,1.22282,1.22275,1.22719,1.23345,1.25025,1.24365,1.27611,1.27743,1.29429,1.29839,1.30695,1.3038,1.32353,1.27003,1.28131,1.27454,1.27521,1.31424,1.31009,1.31553,1.32928,1.30355,1.30622,1.31734,1.31713,1.33626,1.33396,1.33415,1.32595,1.32673,1.32514,1.32981,1.33003,1.3568,1.35726,1.36188,1.35684,1.35399,1.35747,1.35643,1.35858,1.34266,1.35237,1.35026,1.33342,1.32658,1.31517,1.30704,1.35849,1.29243,1.29439,1.28785,1.28756,1.27812,1.25417,1.29953,1.28902,1.27138,1.27143,1.2414,1.2495,1.25091,1.24701,1.25105,1.24321,1.2446,1.27202,1.27224,1.27928,1.282,1.29597,1.28298,1.2926,1.29096,1.29054,1.30649,1.30308,1.31268,1.30286,1.30158,1.32624,1.30441,1.30506,1.31986,1.34026,1.32217,1.323,1.30565,1.30913,1.30947,1.31398,1.31474,1.32036,1.33313,1.3714,1.37162,1.37251,1.37826,1.37788,1.41008,1.39308,1.39885,1.40638,1.416,1.41434,1.41615,1.41447,1.41547,1.42025,1.41909,1.4189,1.41438,1.41341,1.41796,1.41991,1.42262,1.42662,1.42998,1.42924,1.43351,1.44043,1.44087,1.44046,1.43975,1.43124,1.4324,1.43386,1.43492,1.43549,1.44122,1.44204,1.44227,1.44204,1.44367,1.44157,1.45148,1.4514,1.45474,1.45757,1.46139,1.45613,1.45485,1.46101,1.46084,1.46379,1.4679,1.46691,1.46752,1.46948,1.47405,1.47826,1.48357,1.48606,1.48957,1.49513,1.50036,1.50117,1.49996,1.50764,1.51111,1.51555,1.51282,1.51267,1.51252,1.5233,1.5277,1.53337,1.53022,1.52788,1.53199
0.846009,0.848915,0.847616,0.840588,0.853756,0.846889,0.85573,0.859055,0.8671,0.865969,0.86614,0.87464,0.867464,0.864911,0.853176,0.855454,0.854015,0.853554,0.856677,0.857722,0.863092,0.863939,0.865387,0.862596,0.862666,0.869931,0.869785,0.868286,0.87132,0.875321,0.876728,0.878839,0.879791,0.877854,0.879229,0.88197,0.885432,0.890761,0.896369,0.897396,0.898692,0.900553,0.904498,0.904579,0.90994,0.913145,0.917918,0.922181,0.922648,0.92451,0.923293,0.926208,0.928265,0.929851,0.931825,0.933674,0.934242,0.93825,0.939896,0.942981,0.945474,0.947444,0.946289,0.948106,0.950422,0.954028,0.956264,0.957606,0.959289,0.962483,0.966637,0.968677,0.971135,0.974586,0.982561,0.987278,0.989086,0.991429,0.992898,0.00331929,0.00346205,1.00543,1.00799,1.01112,1.01437,1.01409,1.01505,1.01703,1.01628,1.01626,1.01866,1.01518,1.00996,1.01117,1.01087,1.00863,1.00705,1.01117,1.00383,1.00225,1.00251,1.01258,1.01189,1.01814,1.00255,0.997782,1.00789,1.01426,1.00772,1.01501,1.01572,1.02891,1.07288,1.06151,1.06402,1.06729,1.04292,1.04604,1.05397,1.0682,1.08139,1.084,1.09159,1.09179,1.10901,1.11239,1.12689,1.12767,1.13726,1.14953,1.1589,1.18829,1.2065,1.22616,1.21464,1.22231,1.24101,1.25809,1.25709,1.27474,1.27789,1.27871,1.30648,1.31022,1.32144,1.24459,1.26832,1.26921,1.27367,1.2853,1.28335,1.28209,1.27998,1.28961,1.29293,1.32296,1.32235,1.32245,1.2902,1.30206,1.30032,1.3197,1.31475,1.31373,1.33041,1.33145,1.3295,1.3267,1.35031,1.35078,1.28601,1.28604,1.28492,1.30208,1.31376,1.31459,1.28578,1.29248,1.27557,1.27683,1.27806,1.27361,1.26466,1.27203,1.2516,1.24493,1.24064,1.24332,1.24415,1.2483,1.24573,1.24251,1.24057,1.24275,1.24178,1.24751,1.25695,1.25804,1.26782,1.27528,1.24958,1.25359,1.27067,1.2587,1.27432,1.29871,1.30591,1.30945,1.31222,1.31815,1.31711,1.29605,1.31927,1.32216,1.31673,1.31251,1.33804,1.2961,1.30126,1.30239,1.30643,1.30929,1.31975,1.3814,1.37917,1.36737,1.36952,1.38831,1.40564,1.40308,1.39505,1.39783,1.40745,1.40764,1.41192,1.41272,1.41343,1.4136,1.41287,1.41353,1.41463,1.41569,1.41673,1.41934,1.41471,1.41598,1.42156,1.42016,1.42757,1.42975,0.00332948,1.44063,1.43957,1.43738,1.43454,1.4337,1.43593,1.43163,1.44025,1.43995,1.44341,1.44277,1.44351,1.44315,1.44242,1.44836,1.45132,1.4507,1.45206,1.45341,1.45395,1.45701,1.45885,1.46085,1.46037,1.46052,1.46801,1.46816,1.47007,1.4746,1.47507,1.48614,1.48854,1.4935,1.49699,1.49825,1.49864,1.50159,1.50589,1.5075,1.51073,1.51059,1.51425,1.51819,1.5298,1.53065,1.52767,1.52613,1.52809,1.52843
0.828647,0.828021,0.828457,0.83878,0.839857,0.849369,0.850345,0.857851,0.860704,0.86108,0.864415,0.867125,0.864937,0.857145,0.859369,0.852449,0.852648,0.853141,0.856654,0.859901,0.861649,0.860542,0.86154,0.861356,0.862537,0.863422,0.864147,0.86371,0.865159,0.871862,0.873572,0.875682,0.877073,0.876986,0.880658,0.882317,0.88225,0.890695,0.895637,0.901761,0.900441,0.901535,0.901991,0.902323,0.907176,0.904899,0.904463,0.91258,0.915746,0.918675,0.922938,0.923906,0.928329,0.928118,0.928593,0.929994,0.931649,0.933897,0.93623,0.9401,0.940663,0.941098,0.943684,0.945609,0.947186,0.954111,0.954216,0.956733,0.957886,0.960802,0.96291,0.968644,0.969985,0.971745,0.982538,0.985662,0.987032,0.987908,0.988217,0.00335064,0.988048,0.987449,0.00341666,0.00351136,0.00351055,1.01719,1.01497,1.02228,1.0224,1.02212,1.0217,1.01269,1.01168,1.01554,0.999153,0.998572,1.01242,1.00711,1.02351,1.00587,1.01927,1.02089,1.02143,0.999542,1.0064,0.99588,0.985714,0.98133,0.992834,1.00653,1.01363,1.08213,1.06788,1.08478,1.09107,1.04172,1.04372,1.04662,1.07062,1.06785,1.06911,1.05293,1.06537,1.08733,1.08897,1.10578,1.10594,1.08522,1.1227,1.11087,1.10616,1.15198,1.15848,1.16102,1.18574,1.1782,1.18168,1.19651,1.20222,1.21894,1.20154,1.21463,1.22553,1.22429,1.22578,1.23248,1.22894,1.22924,1.26177,1.26138,1.2703,1.27888,1.26164,1.27829,1.27004,1.31567,1.31837,1.27889,1.2799,1.34043,1.29176,1.29292,1.29755,1.29825,1.29892,1.27054,1.27249,1.27129,1.255,1.27552,1.27454,1.26843,1.27041,1.25997,1.26846,1.25252,1.25548,1.26138,1.2712,1.26728,1.26919,1.29554,1.29278,1.24766,1.23641,1.25062,1.25743,1.26388,1.25695,1.24028,1.23897,1.23695,1.26464,1.26283,1.22922,1.22855,1.25091,1.25288,1.26625,1.26487,1.29871,1.30902,1.29402,1.29438,1.27013,1.2997,1.29504,1.29376,1.28601,1.30124,1.30879,1.30812,1.28347,1.3006,1.30155,1.29052,1.29204,1.29172,1.29224,1.28574,1.30556,1.31272,1.32388,1.37541,1.3788,1.39677,1.39729,1.37933,1.3846,1.39273,1.39429,1.40066,1.40238,1.40307,1.40613,1.40888,1.41151,1.41076,1.40923,1.41141,1.40985,1.40798,1.41038,1.40964,1.41097,1.40995,1.416,1.42466,1.42458,1.42942,1.43021,1.42983,1.4358,1.43318,1.43176,1.43388,1.43262,1.42773,1.43441,1.43551,1.43899,1.43963,1.4477,1.45037,1.44318,1.44727,1.44669,1.44876,1.45549,1.45687,1.45525,1.45644,1.45549,1.45448,1.45533,1.4613,1.46693,1.47437,1.47246,1.48323,1.48279,1.49279,1.49218,1.4918,1.49124,1.49938,1.49673,1.49675,1.50312,1.50379,1.507,1.50616,1.51447,1.52111,1.51767,1.52434,1.52329,1.52079,1.52437,1.52076
0.814563,0.821108,0.822809,0.991072,0.842988,0.846621,0.84882,0.849744,0.853197,0.854816,0.852934,0.853034,0.853837,0.856323,0.856266,0.856592,0.856005,0.856292,0.860283,0.862158,0.865074,0.866602,0.856089,0.856927,0.855745,0.856948,0.858328,0.861785,0.869731,0.870719,0.877079,0.877921,0.878215,0.88537,0.887829,0.889956,0.890016,0.890401,0.892121,0.894681,0.896549,0.896579,0.8994,0.900055,0.901184,0.901196,0.902834,0.905897,0.910501,0.911399,0.914026,0.922111,0.92389,0.923987,0.923571,0.926379,0.92945,0.932637,0.933463,0.935508,0.935247,0.939844,0.944351,0.940056,0.941684,0.940779,0.94405,0.944818,0.94799,0.95696,0.958315,0.962672,0.968804,0.00324734,0.982614,0.98724,0.986986,0.980645,0.981675,0.983674,0.982672,0.979876,0.98207,0.00342388,0.00364806,1.01775,1.01837,1.01212,1.01524,1.00686,1.00758,1.00817,0.985608,0.986169,0.987247,1.06797,1.02001,1.01991,1.02905,1.01181,1.01251,1.01387,0.990156,0.971468,0.972465,0.985823,0.972613,0.972128,0.983421,1.00539,1.03167,1.03544,1.0342,1.03538,1.03135,1.03286,1.08111,1.06012,1.06171,1.06832,1.04962,1.03396,1.03541,1.03607,1.0657,1.06339,1.06493,1.0871,1.07851,1.10408,1.10073,1.10135,1.13304,1.13108,1.14296,1.15194,1.15346,1.23156,1.25555,1.20329,1.19499,1.18405,1.17763,1.18454,1.20846,1.19155,1.2251,1.22068,1.22068,1.34432,1.34555,1.26432,1.24352,1.2453,1.23336,1.23247,1.25317,1.26843,1.26868,1.28335,1.26793,1.25985,1.26106,1.25763,1.25465,1.23974,1.24306,1.24357,1.25083,1.29226,1.2946,1.25025,1.25109,1.24004,1.28474,1.25403,1.28842,1.28832,1.29717,1.23698,1.23444,1.28545,1.28563,1.22714,1.22964,1.25593,1.26374,1.26639,1.23175,1.24791,1.24444,1.24127,1.22179,1.21551,1.21688,1.21964,1.2354,1.23607,1.26827,1.26305,1.31559,1.31791,1.30862,1.3035,1.28535,1.26907,1.28643,1.29188,1.28009,1.28198,1.26798,1.29547,1.30382,1.28861,1.2883,1.27091,1.29655,1.27663,1.27741,1.29209,1.36801,1.35339,1.35525,1.37601,1.37733,1.37471,1.37775,1.37868,1.38183,1.38733,1.3928,1.39554,1.40263,1.4004,1.40338,1.40465,1.40744,1.40794,1.40881,1.40319,1.40398,1.40431,1.40831,1.40963,1.41171,1.41235,1.42343,1.42227,1.42229,1.42519,1.42948,1.4291,1.42925,1.43038,1.43077,1.43067,1.43047,1.43115,1.43258,1.44282,1.44631,1.44625,1.44799,1.44759,1.44847,1.4508,1.45801,1.45483,1.45434,1.45679,1.45465,1.45481,1.45371,1.45585,1.45725,1.46237,1.46746,0.00329276,1.48428,1.48347,1.49001,1.48643,1.49032,1.48881,1.49568,1.49674,1.50249,1.50147,1.50495,1.50685,1.50836,1.50633,1.51059,1.51571,1.5151,1.52011,1.52284,1.52415,1.52461,1.52363
0.811786,0.813886,0.00324524,0.829716,0.832219,0.840839,0.842175,0.845922,0.846705,0.847744,0.851873,0.844557,0.847756,0.849877,0.851261,0.853171,0.854172,0.855646,0.857681,0.856839,0.853043,0.857585,0.856599,0.854337,0.852613,0.850739,0.852335,0.86107,0.865968,0.866717,0.871895,0.876071,0.876323,0.880221,0.881331,0.883673,0.881615,0.885317,0.886897,0.888141,0.889007,0.887422,0.89105,0.893249,0.895774,0.897429,0.898749,0.905284,0.906834,0.908145,0.91246,0.912535,0.915349,0.917029,0.919254,0.922152,0.925243,0.92792,0.929416,0.930687,0.931771,0.932226,0.932433,0.933377,0.934005,0.935273,0.94004,0.941017,0.955783,0.95692,0.9581,0.956859,0.960049,0.961108,0.970172,0.968829,0.974071,0.980426,0.980443,0.981356,0.977942,0.980004,0.98137,0.00355687,0.00343578,1.0134,1.00572,1.00606,0.999993,1.00294,1.01326,1.00928,0.986037,0.986948,0.986598,0.986564,0.987837,0.987106,1.0121,1.01259,0.995801,1.00532,0.989568,0.992852,0.985313,0.981429,0.968081,0.970454,1.01147,1.01315,0.993455,1.02953,1.02379,1.01105,1.036,1.04318,1.03419,1.04141,1.04102,1.02606,1.06107,1.04061,1.04241,1.0539,1.03906,1.05675,1.03166,1.07915,1.06805,1.09832,1.10078,1.10413,1.10555,1.0989,1.10144,1.10531,1.09963,1.10678,1.14478,1.15545,1.15088,1.16189,1.21558,1.20898,1.15988,1.16023,1.17203,1.19455,1.18239,1.18385,1.19425,1.22882,1.23572,1.23934,1.22874,1.22802,1.23726,1.24441,1.22698,1.23315,1.23444,1.21289,1.20958,1.22584,1.22211,1.22089,1.22278,1.22394,1.22814,1.23001,1.25758,1.24083,1.24612,1.21407,1.23052,1.24763,1.27402,1.27412,1.27844,1.23644,1.2366,1.2277,1.22623,1.23008,1.23276,1.23238,1.23685,1.23645,1.23416,1.25047,1.20921,1.20701,1.20571,1.20638,1.2262,1.22766,1.22895,1.26122,1.26209,1.25034,1.25052,1.28247,1.28981,1.29207,1.26539,1.26758,1.2727,1.26342,1.26562,1.25724,1.25009,1.27067,1.27799,1.27306,1.28917,1.27811,1.28599,1.28149,1.32663,1.34354,1.35153,1.34911,1.35308,1.36601,1.36893,1.37214,1.37506,1.38463,1.38792,1.38528,1.38716,1.38652,1.39019,1.39294,1.39672,1.39882,1.40001,1.40488,1.40813,1.402,1.40513,1.40815,1.40761,1.40918,1.40902,1.41921,1.42131,1.41801,1.42184,1.42285,1.42305,1.42746,1.4371,1.43481,1.42972,1.43409,1.43638,1.44392,1.44149,1.44163,1.44151,1.4502,1.45087,1.45152,1.4564,1.45899,1.46088,1.46271,1.45643,1.45296,1.45366,1.45438,1.45525,1.46184,1.4684,1.46887,1.46923,1.47519,1.47781,1.48597,1.48895,1.48721,1.49148,1.48914,1.49211,0.00346538,0.00349674,1.50884,1.51304,1.5161,1.5148,1.5176,1.52599,1.52946,1.52804,1.52986,1.52568,1.52966,1.52837,1.52503
0.808435,0.809884,0.815041,0.81696,0.824292,0.827743,0.831629,0.83309,0.833239,0.837091,0.838943,0.843965,0.844424,0.849441,0.852626,0.841104,0.850129,0.851746,0.842956,0.843746,0.845668,0.85259,0.844578,0.84572,0.844836,0.845226,0.845005,0.86212,0.865807,0.868066,0.872795,0.873798,0.875024,0.87777,0.877726,0.879458,0.881113,0.882182,0.881779,0.880872,0.880665,0.8834,0.883561,0.883973,0.889774,0.00344932,0.00353069,0.912701,0.913263,0.912746,0.913738,0.914625,0.914763,0.91478,0.913246,0.915833,0.921348,0.922329,0.929334,0.931662,0.922378,0.929086,0.930009,0.9322,0.936026,0.937146,0.938835,0.00353177,0.00335545,0.00348604,0.954541,0.957598,0.960915,0.961936,0.966213,0.969512,0.972584,0.97482,0.975083,0.975869,0.977293,0.976744,0.0035055,0.00332644,0.990089,0.995591,0.996946,0.997621,0.994716,1.002,0.983997,0.975386,0.978012,0.971381,0.987077,0.985909,0.973657,0.977016,0.998764,1.04017,1.02715,1.02722,1.02963,0.993509,0.990126,0.970239,0.971784,0.971021,0.972804,1.03333,1.03401,0.993789,0.993101,1.00199,1.02008,1.06309,1.06557,1.03111,1.03289,1.04209,1.04183,1.04994,1.05114,1.05128,1.05481,1.05744,1.06032,1.06792,1.0857,1.08912,1.04907,1.0502,1.07848,1.07665,1.08259,1.08616,1.08258,1.08909,1.10481,1.10735,1.11163,1.11301,1.13469,1.15855,1.15723,1.15699,1.17134,1.15046,1.15096,1.16739,1.1886,1.17485,1.1929,1.2002,1.1868,1.18508,1.18998,1.20251,1.20248,1.19623,1.19801,1.21891,1.20162,1.20335,1.20561,1.18423,1.19478,1.21077,1.21164,1.22593,1.19346,1.1966,1.20074,1.19298,1.21593,1.22261,1.22375,1.24342,1.22247,1.23369,1.22998,1.22994,1.23735,1.24299,1.24042,1.23402,1.25532,1.23798,1.23759,1.26585,1.22384,1.20729,1.23244,1.21381,1.21548,1.231,1.23339,1.24019,1.2336,1.26115,1.23833,1.23943,1.23898,1.2398,1.24476,1.24403,1.25711,1.24846,1.26036,1.25369,1.25302,1.24646,1.24727,1.27519,1.26747,1.27979,1.29118,1.37728,1.37726,1.37305,1.34352,1.37715,1.35144,1.36141,1.36864,1.37243,1.38142,1.38107,1.37991,1.38197,1.38074,1.38293,1.38809,1.38802,1.38956,1.39552,1.39617,1.39746,1.39911,1.39938,1.40198,1.40328,1.40905,1.40943,1.41213,1.4157,1.42612,1.42132,1.42477,1.42869,1.42748,1.43353,1.43259,1.43186,1.4316,1.42928,1.43623,1.43748,1.44076,1.44051,1.4384,0.00335776,0.0035658,0.00328077,1.46035,1.46374,1.46202,1.46549,1.46781,1.4686,1.46748,1.46595,1.46749,1.46432,1.46431,1.46862,1.47286,1.47396,1.47458,1.49309,1.49528,1.48739,1.49122,1.49215,1.49476,1.5051,1.50147,1.50958,1.51687,1.52162,1.5202,1.52287,1.51913,1.5206,1.52045,1.5271,1.52733,1.52621,1.52853,1.52603
0.00315103,0.805818,0.80957,0.811203,0.819014,0.823266,0.827665,0.830515,0.831477,0.83602,0.00347066,0.82223,0.823717,0.829605,0.828733,0.834708,0.83549,0.842003,0.843444,0.845175,0.839351,0.842537,0.84035,0.842409,0.843421,0.8468,0.851964,0.866756,0.868843,0.869567,0.869826,0.867317,0.864971,0.874985,0.878783,0.880006,0.877992,0.878191,0.87798,0.877111,0.880002,0.875159,0.878145,0.881475,0.88276,0.00330589,0.903147,0.907561,0.909723,0.913424,0.914735,0.916159,0.917536,0.917823,0.91532,0.916406,0.914902,0.915791,0.918793,0.918588,0.918383,0.921842,0.923922,0.925448,0.928711,0.931036,0.934539,0.935468,0.937997,0.940533,0.952345,0.952901,0.00343752,0.994381,0.00352652,0.97002,0.971329,0.97139,0.973697,0.973992,0.976072,0.976804,0.984206,0.984589,0.988652,0.990686,0.990561,0.991492,0.9913,0.989895,0.979122,0.979915,0.974566,0.975522,0.985453,0.984955,0.984522,0.978842,0.00332022,1.03913,1.021,1.0426,1.027,1.02245,1.00195,0.995485,0.990886,0.999029,0.99047,0.991953,0.986332,0.985337,1.01388,1.00508,1.01494,1.04419,1.06154,1.03614,1.08729,1.08357,1.09216,1.05141,1.05345,1.06699,1.06324,1.05973,1.06099,1.06322,1.10518,1.09515,1.11792,1.05657,1.06825,1.08017,1.10424,1.11589,1.087,1.08829,1.12955,1.1184,1.11152,1.11893,1.11017,1.11037,1.12976,1.15069,1.15055,1.1405,1.14024,1.14247,1.14076,1.14711,1.1458,1.14631,1.15426,1.18886,1.14395,1.14602,1.14918,1.15686,1.15655,1.15357,1.17689,1.17446,1.1734,1.16671,1.1573,1.15293,1.16726,1.19438,1.19529,1.18663,1.18954,1.18997,1.20515,1.19293,1.21397,1.24471,1.23495,1.23301,1.23524,1.26074,1.25994,1.27824,1.23641,1.23555,1.2393,1.23977,1.22252,1.21981,1.21049,1.20572,1.21037,1.20864,1.21098,1.38098,1.37611,1.24928,1.25359,1.24979,1.25271,1.2502,1.25316,1.25185,1.23782,1.23589,1.24795,1.23671,1.23119,1.23552,1.23651,1.24351,1.25253,1.25818,1.32349,1.31956,1.31943,1.32286,1.33384,1.33872,1.35341,1.35759,1.35981,1.36409,1.37315,1.3761,1.37471,1.3776,1.37898,1.38052,1.38078,1.38133,1.38402,1.38318,1.38615,1.39007,1.39161,1.39363,1.39939,1.40198,1.40176,1.40559,1.40639,1.40588,1.41172,1.42009,1.42039,1.42405,1.42674,1.42093,1.42159,1.42542,1.42633,1.42481,1.42555,1.43244,1.43622,1.435,1.43957,1.44125,1.44175,1.44853,1.44947,1.4514,1.458,1.45756,1.46024,1.46383,1.46722,1.46439,1.46966,1.46767,1.46675,1.46683,1.46736,1.47006,1.47088,1.47282,1.47267,1.47948,1.48648,1.48868,1.48815,1.49078,1.49937,1.49855,1.50296,1.50411,1.51253,1.51408,1.52084,1.52041,1.52556,1.51519,1.51805,1.51866,0.0035406,1.53305,1.52508,1.52301
0.793824,0.79519,0.793542,0.00296402,0.00358868,0.00325166,0.00357153,0.00349986,0.917051,0.808583,0.810097,0.820265,0.823399,0.826841,0.82993,0.825607,0.827136,0.828412,0.835201,0.83915,0.840043,0.836307,0.837906,0.838651,0.838451,0.838703,0.00318535,0.00339997,0.853575,0.855002,0.857732,0.00327625,0.85956,0.860553,0.86003,0.861521,0.863759,0.862807,0.864419,0.868469,0.871781,0.870987,0.873125,0.876175,0.885022,0.00342191,0.00367213,0.00339613,0.912271,0.00339353,0.931069,0.931709,0.932033,0.902895,0.902708,0.905092,0.905841,0.913636,0.917179,0.918283,0.92273,0.924179,0.926583,0.927993,0.928698,0.00341128,0.938763,0.935681,0.93609,0.938782,0.00339559,0.943432,0.00327686,0.00307487,0.00348637,0.958084,0.960199,0.9646,0.971239,0.97268,0.973204,0.975793,0.978887,0.977864,0.980424,0.983486,0.98609,0.987719,0.989668,0.994731,0.990361,0.989902,0.986322,0.981832,0.98313,0.981197,0.979697,0.979299,0.980612,0.982487,0.994705,1.00536,1.02916,1.0222,1.02486,1.0233,0.990825,0.992992,0.97846,0.980461,0.997405,0.998713,1.01333,1.01198,1.0119,1.02702,1.04168,1.08764,1.08089,1.0993,1.04875,1.10754,1.03985,1.04133,1.06551,1.05296,1.05994,1.04618,1.04753,1.08244,1.08351,1.06083,1.06809,1.06742,1.10494,1.07029,1.07668,1.09958,1.10844,1.12792,1.10385,1.10608,1.10163,1.09386,1.09991,1.10028,1.10639,1.10456,1.12075,1.10473,1.13902,1.12766,1.12739,1.12956,1.12545,1.1232,1.14056,1.14201,1.11835,1.11881,1.14739,1.1466,1.15429,1.16572,1.16774,1.17379,1.1553,1.15371,1.16827,1.1651,1.17115,1.19207,1.18917,1.16706,1.18549,1.18398,1.18872,1.21923,1.23177,1.23011,1.23616,1.28284,1.24486,1.24725,1.26114,1.26498,1.22518,1.22981,1.23381,1.20688,1.20637,1.20976,1.20839,1.21002,1.25867,1.22465,1.22105,1.22217,1.24038,1.23381,1.26459,1.26473,1.2567,1.26042,1.2272,1.22735,1.22647,1.22486,1.23325,1.23325,1.24157,1.25949,1.31428,1.30774,1.30863,1.35106,1.32437,1.32668,1.34231,1.34371,1.35581,1.35716,1.36226,1.36455,1.36862,1.37078,1.36921,1.37168,1.37411,1.37858,1.37748,1.3817,1.38135,1.38111,1.38272,1.3874,1.38895,1.39285,1.39536,1.3959,1.40181,1.4031,1.40127,1.40895,1.41858,1.41326,1.41191,1.41833,1.41587,1.4194,1.41942,1.4201,1.4264,1.42654,1.43077,1.42964,1.43557,1.43769,1.44009,1.44031,1.44171,1.44213,1.44096,1.44783,1.44887,1.44794,1.45188,1.46133,1.46192,1.46042,1.46811,1.46875,1.46846,1.46699,1.47205,1.4722,1.47079,1.47899,1.47778,1.48343,1.48664,1.48684,1.49608,1.49328,1.49957,1.49702,1.49888,1.4986,1.50931,1.51104,1.51208,1.51134,1.51305,1.50885,1.50975,1.51635,1.51766,1.52319,1.52198,1.52232
0.786154,0.787239,0.791876,0.00334872,0.767105,0.768624,0.00324068,0.00327872,0.898233,0.89461,0.802814,0.814785,0.815506,0.816316,0.817899,0.81898,0.818944,0.810886,0.00305992,0.00326043,0.822219,0.827708,0.828875,0.82908,0.829402,0.825123,0.826411,0.826764,0.00339593,0.848733,0.840556,0.841999,0.843581,0.845064,0.854773,0.855716,0.85762,0.862571,0.863653,0.872378,0.873867,0.871554,0.871694,0.87387,0.882573,1.01262,0.00331563,0.909485,0.911798,0.914611,0.913001,0.00352875,0.896755,0.900097,0.904007,0.906128,0.906873,0.916163,0.917989,0.91973,0.924622,0.924777,0.921969,0.919999,0.924406,0.924879,0.927606,0.928468,0.929042,0.930852,0.932742,0.935903,0.938685,0.00334225,0.0034459,0.00355531,0.956089,0.957684,0.961748,0.966179,0.96871,0.969751,0.976402,0.976033,0.981887,0.98352,0.986966,0.989369,0.991601,0.993961,0.994157,0.994197,0.991553,0.988907,0.983948,0.984255,0.983085,0.982044,0.985681,0.982859,0.987145,0.990199,1.02996,1.03169,1.02676,1.02598,1.05102,1.03731,1.03804,1.03707,1.00147,0.997161,0.991897,0.996903,0.998407,1.00508,1.02494,1.04231,1.03388,1.03715,1.03906,1.07794,1.08201,1.07552,1.03551,1.03637,1.0366,1.0707,1.07165,1.08463,1.06117,1.0741,1.09161,1.0929,1.12701,1.06524,1.07423,1.06582,1.08304,1.07501,1.07397,1.11501,1.08855,1.08214,1.08308,1.09837,1.09755,1.10258,1.13019,1.10129,1.08648,1.09523,1.12445,1.12336,1.12653,1.12359,1.13184,1.13942,1.14072,1.13279,1.12141,1.13204,1.14481,1.12823,1.12938,1.13182,1.13401,1.17616,1.18931,1.18833,1.18767,1.16729,1.15883,1.17079,1.17197,1.1631,1.19213,1.18583,1.18646,1.1979,1.22974,1.28472,1.28436,1.23708,1.22972,1.23969,1.24713,1.22775,1.23631,1.23387,1.20047,1.20266,1.22434,1.22431,1.22299,1.22753,1.22872,1.2321,1.23149,1.23298,1.22806,1.2855,1.26459,1.21873,1.22198,1.22239,1.2223,1.23903,1.24054,1.25958,1.30572,1.30849,1.30751,1.31935,1.31728,1.31796,0.00357077,1.34291,1.3488,1.35038,1.35284,1.35547,1.35755,1.36246,1.36383,1.36275,1.37009,1.36638,1.3674,1.36849,1.37259,1.37514,1.37524,1.38113,1.38546,1.38524,1.38929,1.38841,1.38659,1.39244,1.39014,1.39924,1.40265,1.40283,1.40809,1.41183,1.41415,1.41441,1.4198,1.417,1.41983,1.42077,1.42343,1.42108,1.42323,1.4238,1.42428,1.42395,1.43131,1.43291,1.43431,1.43728,1.44185,1.44403,1.44655,1.44885,1.45117,1.45525,1.46003,1.46186,1.46498,1.46433,1.46479,1.46269,1.46648,1.46765,1.47223,1.47525,1.48308,1.48337,1.48437,1.48948,1.49073,1.4955,1.50079,1.49975,1.49932,1.50699,1.50393,1.50909,1.50926,1.51053,1.51077,1.51079,1.50848,1.51417,1.51659,1.52121,1.52487,1.52476
0.768248,0.769024,0.772421,0.764974,0.764173,0.767501,0.768888,0.00345744,0.0033486,0.795219,0.801174,0.807641,0.809686,0.811115,0.812942,0.8119,0.810663,0.810924,0.81066,0.811042,0.82126,0.821718,0.825839,0.826398,0.826588,0.828874,0.829257,0.826546,0.830609,0.838631,0.838756,0.83666,0.841608,0.845552,0.849429,0.851064,0.853437,0.86255,0.864325,0.86391,0.864391,0.867501,0.867613,0.877604,0.880254,0.00340493,0.892238,0.89394,0.894668,0.910245,0.909123,0.891357,0.89333,0.894177,0.90565,0.90756,0.908979,0.908424,0.904698,0.90707,0.918281,0.917284,0.915452,0.917516,0.922293,0.921567,0.924393,0.924819,0.927983,0.928006,0.929604,0.932072,0.933764,0.937191,0.943126,0.944622,0.946751,0.00330783,0.956368,0.00338792,0.966946,0.967791,0.972843,0.974106,0.980039,0.983815,0.981526,0.983787,0.990777,0.993333,0.996197,0.997711,0.996474,0.989755,0.991891,1.00191,0.993079,1.04088,0.994265,0.99473,0.987593,0.984337,1.04675,0.987688,0.00342511,1.01232,1.04913,1.0162,1.01691,1.04939,1.04964,1.07898,1.06163,1.03609,1.00531,1.08467,1.02465,1.03082,1.03571,1.03694,1.04649,1.05657,1.03649,1.05078,1.05065,1.03616,1.03727,1.06683,1.05274,1.05465,1.08249,1.05198,1.05622,1.05744,1.04648,1.04308,1.08042,1.05713,1.03247,1.03376,1.06807,1.0743,1.07696,1.10802,1.08546,1.06434,1.07228,1.07345,1.1268,1.0851,1.09377,1.07916,1.1184,1.11972,1.09637,1.09737,1.12437,1.11546,1.10176,1.10518,1.11207,1.12313,1.14672,1.18375,1.18264,1.17049,1.16496,1.16424,1.13996,1.13713,1.12148,1.13003,1.15794,1.14445,1.15907,1.16171,1.15988,1.16501,1.1681,1.17479,1.20609,1.20835,1.20842,1.22354,1.22854,1.2046,1.20564,1.19922,1.20142,1.19806,1.19303,1.21281,1.21391,1.21602,1.20585,1.20655,1.25056,1.26008,1.26024,1.23437,1.21565,1.21517,1.21256,1.22742,1.21894,1.24012,1.23876,1.23577,1.31192,1.29907,1.29924,1.31209,1.31175,1.31917,1.32722,1.34062,1.34085,1.34534,1.34901,1.35333,1.35169,1.35354,1.36165,1.36224,1.36813,1.3679,1.36915,1.36759,1.37001,1.36978,1.37707,1.37756,1.37769,1.38449,1.3863,1.38972,1.38943,1.38595,1.38915,1.38741,1.38768,1.39169,1.39628,1.39858,1.40138,1.39525,1.40622,1.40526,1.40615,1.40866,1.4129,1.41347,1.41874,1.42084,1.41964,1.4225,1.42457,1.42591,1.42792,1.42882,1.42849,1.43709,0.00344685,1.4449,1.44537,1.44986,1.44981,1.45515,1.45105,1.46199,1.46207,1.4622,1.46402,1.46105,1.46528,1.46475,1.47333,1.47996,1.48101,1.48591,1.48386,1.48819,1.4871,1.50626,1.49709,1.50459,1.5007,1.50293,1.49886,1.49937,1.5022,1.50967,1.50686,1.50828,1.50961,1.50918,1.51554,1.5087,1.51471,1.51714
0.768513,0.767896,0.761737,0.764012,0.765126,0.766639,0.0033751,0.00349328,0.792172,0.79842,0.801226,0.802084,0.80857,0.810677,0.812217,0.819582,0.815474,0.811192,0.81027,0.810935,0.812259,0.816375,0.81553,0.816096,0.817721,0.818502,0.817835,0.816401,0.821365,0.82316,0.831492,0.834906,0.834249,0.834858,0.83537,0.836094,0.852142,0.860939,0.862598,0.860682,0.858249,0.860014,0.862862,0.863789,0.865045,0.866189,0.00323083,0.88959,0.00332625,0.00354515,0.00336937,0.883651,0.00362511,0.895994,0.898828,0.904882,0.901942,0.901788,0.906312,0.904236,0.905285,0.904955,0.907694,0.00351141,0.00326652,0.920567,0.921002,0.92286,0.923964,0.924869,0.924998,0.926125,0.930404,0.933562,0.939441,0.943164,0.947841,0.952336,0.953096,0.960009,0.00325226,0.964873,0.969224,0.970318,0.973336,0.976852,0.979258,0.984129,0.987308,0.991197,0.996204,0.997922,0.993879,0.991313,0.994226,1.00404,1.0034,1.00339,1.0084,1.0074,1.00734,0.997047,0.99606,1.00027,0.999877,1.00392,1.0288,1.04128,1.04032,1.02271,1.07572,1.04612,1.06054,1.09782,1.08623,1.08579,1.085,1.06159,1.08545,1.06071,1.05294,1.04554,1.04409,1.0575,1.03098,1.03139,1.03253,1.01032,1.0117,1.00177,1.02288,1.03642,1.04471,1.05348,1.05842,1.05245,1.03413,1.03915,1.02368,1.05736,1.05614,1.06068,1.06536,1.0713,1.07721,1.05772,1.07193,1.09544,1.09768,1.08085,1.0755,1.07853,1.1057,1.09283,1.09579,1.09775,1.10013,1.1021,1.09856,1.09711,1.12817,1.13277,1.11607,1.13422,1.18979,1.1862,1.12505,1.11782,1.11942,1.11043,1.11151,1.14741,1.122,1.14568,1.14389,1.15095,1.12801,1.12987,1.13301,1.15262,1.15268,1.17588,1.1776,1.22077,1.22272,1.22101,1.2294,1.19309,1.20913,1.19081,1.18306,1.18407,1.20784,1.21557,1.18766,1.18873,1.19974,1.20158,1.21171,1.20838,1.2119,1.21196,1.2267,1.22658,1.23627,1.23625,1.29056,1.29208,1.29983,1.3081,1.31068,0.00335782,1.3319,1.3372,1.33733,1.34408,1.34342,1.34645,1.34641,1.34651,1.34867,1.35103,1.35669,1.36125,1.36474,1.36262,1.36375,1.36469,1.36466,1.36868,1.36887,1.37393,1.38059,1.38002,1.38443,1.38726,1.38868,1.38737,1.38556,1.38958,1.39042,1.39196,1.39289,1.39601,1.39391,1.39394,1.39525,1.40658,1.41069,0.0035737,1.41179,1.41173,1.41223,1.41624,1.41967,1.42216,1.43024,1.42801,1.42708,1.43275,1.43744,1.43857,1.44594,1.44653,1.44527,1.45014,1.45054,1.44782,1.4513,1.45164,1.45407,1.46562,1.46527,1.4649,1.46597,1.46682,0.0032129,1.47279,1.47789,1.48731,0.00324449,0.00344343,0.00327759,0.00360956,1.49571,1.5128,1.50286,1.50302,1.50699,1.50682,1.50155,1.50012,1.50681,1.50405,1.50644,1.50726,1.51253,1.5119,1.51038,1.51974
