0.998583,1.00094,1.0023,1.00921,1.01254,1.01673,1.01814,1.01966,1.01983,1.02024,1.02076,1.0211,1.02059,1.02689,1.0263,1.01456,1.01719,1.02186,1.02981,1.03603,1.03724,1.03811,1.03973,1.03721,1.03734,1.03654,1.03686,1.03566,1.03662,1.03891,1.0387,1.03607,1.0349,1.03518,1.21795,1.22319,1.2293,1.22956,1.18924,1.22594,1.23489,1.26702,1.22596,0.00379244,1.23603,1.36867,1.05283,1.05226,1.05348,1.28386,1.06542,1.07031,1.07829,1.08469,1.08922,1.09577,1.09949,1.10395,1.1071,1.11186,1.11505,1.12291,1.12412,1.1267,1.12876,1.12617,1.12842,1.12276,1.11749,1.11837,1.11402,1.11398,1.11307,1.11402,1.11593,1.11771,1.13171,1.09437,1.09175,1.10876,1.08071,1.0808,1.09985,1.08685,1.12372,1.12623,1.10832,1.1039,1.06301,1.08719,1.08754,1.04823,1.03756,1.02666,1.00288,1.023,1.00281,0.993754,1.02423,1.03201,1.064,1.08799,1.11912,1.19448,1.20473,1.20917,1.23354,1.26792,1.268,1.30214,1.33558,1.39201,1.38804,1.45126,1.53033,1.65855,1.65897,1.72285,1.72331,1.79891,1.85092,1.85199,1.87343,1.88991,1.89288,1.89385,1.95753,1.95317,2.03562,2.00837,2.032,1.98771,1.98653,2.011,1.9788,1.98142,1.97684,1.96789,1.98262,1.95496,1.95271,1.95749,1.94384,1.95534,1.95463,1.91736,1.91633,1.9036,1.89671,1.86955,1.89166,1.86747,1.83536,1.82423,1.82126,1.82203,1.82039,1.79124,1.81699,1.80793,1.80976,1.77047,1.75803,1.74296,1.74504,1.73181,1.72335,1.70673,1.67863,1.70587,1.67874,1.69902,1.66798,1.62802,1.62422,1.64407,1.59984,1.61628,1.5853,1.57315,1.56946,1.60541,1.56996,1.56316,1.60695,1.60617,1.60065,1.56784,1.50158,1.49243,1.52032,1.49593,1.52323,1.43422,1.4326,1.43268,1.45342,1.4168,1.42267,1.41425,1.43826,1.43347,1.43632,1.43103,1.43078,1.39411,1.381,1.41889,1.40119,1.40746,1.41159,1.39936,1.39952,1.40623,1.4019,1.40178,1.41299,1.40664,1.40765,1.37977,1.41612,1.4196,1.43099,1.44974,1.43719,1.4227,1.42086,1.41003,1.40829,1.41447,1.45515,1.44958,1.43668,1.46335,1.47377,1.47294,1.45708,1.46167,1.4906,1.48563,1.48203,1.4855,1.48553,1.48739,1.48702,1.48899,1.49008,1.49331,1.4915,1.49385,1.49288,1.49051,1.49263,1.4921,1.49512,1.49289,1.49207,1.49567,1.4947,1.49155,1.48847,1.48921,1.48657,1.48858,1.48821,1.49203,1.48966,1.4912,1.49007,1.49342,1.49504,1.49709,1.4993,1.50866,1.51027,1.51339,1.51326,1.51942,1.53232,1.53213,1.53408,1.53242,1.53698,1.53781,1.54792,1.55783,1.55673,1.55986,1.55986,1.5626,1.56586,1.56715,1.56834,1.5771,1.58317,1.58283,1.58295,1.58481,1.58392,1.59045
0.99467,0.995139,0.997095,1.00008,1.00214,1.00462,1.00817,1.01016,1.01213,1.01568,1.01819,1.02101,1.02154,1.01938,1.01051,1.01426,1.01514,1.01857,1.02159,1.02993,1.0317,1.03234,1.07511,1.02711,1.02549,1.02621,1.02798,1.02874,1.02815,1.02926,1.02931,1.03035,1.19836,1.19851,1.18922,1.05019,1.1789,0.957734,0.961739,1.26011,1.25615,1.25326,1.23223,0.00362801,1.24606,1.24672,1.23575,1.05103,1.05281,1.06015,1.06524,1.28208,1.28785,1.09008,1.09082,1.08911,1.33009,1.33361,1.33625,1.10536,1.11205,1.11238,1.35739,1.27693,1.12265,1.11593,1.11456,1.11272,1.11131,1.11315,1.11521,1.11843,1.36357,1.12958,1.13596,1.13839,1.13999,1.11484,1.12493,1.12481,1.10533,1.08253,1.09469,1.09468,1.09552,1.08568,1.10981,1.11648,1.05512,1.0982,1.04641,1.0187,1.03672,1.00968,1.02126,0.994656,1.00131,0.994211,0.995714,1.01571,1.03893,1.0745,1.07516,1.16476,1.16642,1.19495,1.20834,1.26308,1.27094,1.28781,1.31031,1.38133,1.38091,1.46122,1.47609,1.66857,1.63193,1.69696,1.71105,1.82424,1.8333,1.90443,1.88022,1.88644,1.88201,1.98069,1.9767,1.97635,2.02788,2.02696,2.04838,2.04012,2.04192,2.02501,2.04063,2.02756,1.97764,1.9933,1.96288,1.96528,1.95608,1.95513,1.95078,1.94535,1.93185,1.92908,1.9265,1.91431,1.93775,1.9063,1.8995,1.92624,1.86204,1.87958,1.84403,1.8383,1.83236,1.80622,1.78518,1.7955,1.78245,1.7822,1.74529,1.74322,1.72402,1.7229,1.75045,1.70383,1.69217,1.68733,1.69738,1.68938,1.68875,1.66806,1.62622,1.626,1.62254,1.60643,1.58294,1.58128,1.6005,1.57338,1.59935,1.59734,1.55891,1.55775,1.54647,1.52267,1.52414,1.50372,1.50298,1.48191,1.4712,1.46772,1.46123,1.46054,1.44419,1.43606,1.43397,1.41955,1.41388,1.41374,1.39266,1.38894,1.38805,1.37134,1.36611,1.36875,1.38295,1.39853,1.40234,1.39927,1.37935,1.38198,1.42028,1.42423,1.4334,1.39689,1.40316,1.42655,1.4304,1.42308,1.4175,1.41665,1.415,1.40286,1.39889,1.39953,1.40853,1.43292,1.4328,1.43148,1.4706,1.46703,1.46457,1.46151,1.44926,1.4504,1.46146,1.46452,1.46416,1.47474,1.47684,1.48184,1.4831,1.48183,1.48467,1.48532,1.48539,1.48345,1.48481,1.48569,1.4861,1.48295,1.48374,1.48601,1.48714,1.48482,1.48508,1.4858,1.48791,1.4856,1.48343,1.48511,1.47772,1.48173,1.48123,1.48478,1.48924,1.49599,1.49372,1.50026,1.50488,1.50393,1.50308,1.50469,1.50367,1.51244,1.51953,1.51924,1.5198,1.52531,1.52474,1.53332,0.00355756,0.00345851,1.54863,1.55399,1.5545,1.56142,1.56,1.56523,1.56423,1.57021,1.57524,1.58157,1.58307,1.58445,1.58474,1.58899
1.0536,1.06032,1.00047,1.00003,0.998782,0.99386,0.994704,0.999408,1.00445,1.00533,1.00856,1.01103,1.00763,1.01174,1.01122,1.00879,1.01106,1.01778,1.018,1.01829,1.01948,1.01882,1.01817,1.0171,1.0172,1.01749,1.02031,1.01939,1.0198,1.0251,1.0275,1.02847,1.17109,1.20681,1.2302,1.23111,1.21607,0.959116,0.960022,1.23998,1.28551,1.28605,1.2536,1.22629,1.29995,1.26754,1.04193,1.04399,1.05591,1.05637,1.05789,1.07091,1.07227,1.07237,1.07658,1.07733,1.07941,0.00360082,1.09445,1.32231,0.00342969,1.33713,1.10781,1.11111,1.11087,1.10895,1.11129,1.11263,1.11342,1.12181,1.12581,1.12748,1.1286,1.12767,1.12773,1.13134,1.14307,1.11413,1.11326,1.07848,1.07513,1.06314,1.08282,1.05561,1.05814,1.06408,1.09151,1.07325,1.05543,1.06071,1.06065,1.03649,1.00155,1.03446,0.99925,1.00196,1.02692,1.01838,1.00622,1.03291,1.13205,1.11354,1.11363,1.1228,1.16021,1.18372,1.20449,1.22607,1.25443,1.26098,1.27339,1.30316,1.39575,1.4402,1.49547,1.56054,1.59569,1.65635,1.69917,1.70077,1.84106,1.85198,1.89388,1.89225,1.94622,1.94523,1.99082,1.9899,2.06602,2.01023,2.09014,2.01644,2.02531,2.02521,2.02806,1.99625,1.98744,1.98254,1.97825,1.96845,1.9762,1.96507,1.94702,1.94669,1.93297,1.93858,1.93857,1.93448,1.91892,1.92362,1.91381,1.88578,1.90129,1.88175,1.85903,1.84573,1.83614,1.80764,1.81567,1.83492,1.77362,1.77057,1.76656,1.7642,1.72045,1.71633,1.71077,1.70623,1.67953,1.69103,1.67549,1.67352,1.65853,1.68181,1.65912,1.62377,1.62561,1.62353,1.5961,1.5938,1.58385,1.58236,1.5521,1.55506,1.53503,1.54723,1.52967,1.52434,1.53334,1.48702,1.49118,1.46242,1.46512,1.46647,1.48155,1.46788,1.46767,1.43614,1.43348,1.41564,1.39177,1.39226,1.38124,1.38468,1.40589,1.39999,1.3654,1.36703,1.40855,1.40359,1.3767,1.37746,1.37676,1.35921,1.3603,1.39918,1.39945,1.40063,1.41577,1.44527,1.39565,1.40964,1.41951,1.43907,1.41415,1.41292,1.41471,1.41052,1.41322,1.42286,1.42158,1.46839,1.48192,1.4825,1.48453,1.48948,1.4546,1.47361,1.44641,2.1454,2.14526,1.65392,1.50503,1.50818,1.49317,1.49464,0.00366178,1.47409,1.4792,1.48005,1.48073,1.48155,1.47878,1.48094,1.47741,1.48081,1.47988,1.48181,1.47969,1.48306,1.48331,1.47928,1.47932,1.47784,1.47842,1.47891,1.48036,1.48223,1.48878,1.4839,1.48585,1.49643,1.49892,1.49728,1.5006,1.49945,1.49982,1.49917,1.50281,1.50284,1.50073,1.50927,1.51048,1.81427,1.51835,1.52012,0.00339609,1.54511,1.55158,1.55445,1.56254,1.5616,1.56008,1.56134,1.56196,1.56524,1.56919,1.57435,1.57521,1.59115
0.969339,0.00339304,0.986234,0.99114,0.992981,0.997156,1.00148,1.00315,1.00256,1.00343,1.00166,1.0035,1.00826,1.00867,1.00994,1.00985,1.01019,1.01288,1.01502,1.01032,1.00966,1.00809,1.0084,1.01005,1.01116,1.01429,1.01292,1.01495,1.01845,1.02017,1.02465,1.02528,1.18392,0.00348137,1.22862,1.27765,1.23176,1.1709,1.23899,1.21755,1.24089,1.23306,1.28734,1.22832,1.03744,1.04216,1.04341,1.05415,1.05646,1.05603,1.06009,1.06141,1.06754,0.00329187,1.0738,1.07655,1.07764,1.08335,1.08553,0.00366117,1.09341,1.09685,1.09864,1.10329,1.10662,1.1084,1.10971,1.10999,1.11416,1.11501,1.11574,1.11857,1.1186,1.12207,1.20597,0.0033851,1.11191,1.12073,1.10309,1.10299,1.08057,1.05672,1.06877,1.05951,1.05647,1.1015,1.09663,1.0982,1.06037,1.05487,1.06656,1.02926,1.02949,0.99535,0.997217,1.00029,1.01437,1.08811,1.08744,1.0298,1.10452,1.12492,1.11853,1.14038,1.15429,1.1749,1.18276,1.21506,1.2313,1.23449,1.2945,1.2938,1.39786,1.39788,1.46134,1.55176,1.62351,1.71,1.70662,1.76522,1.82424,1.86612,1.89871,1.92951,1.95444,1.95553,1.97394,1.99335,2.06531,2.03525,2.07614,2.01787,2.02807,2.02522,2.00095,1.99913,2.02505,1.98937,1.99091,1.96936,1.96038,1.96467,1.95395,1.93759,1.94154,1.94586,1.92835,1.92029,1.91687,1.92818,1.91534,1.89186,1.86988,1.85647,1.86209,1.8415,1.85663,1.82655,1.80831,1.8344,1.79914,1.78245,1.77362,1.75415,1.72936,1.72485,1.71607,1.7064,1.71731,1.6959,1.67743,1.68146,1.64448,1.64316,1.63507,1.63325,1.63724,1.60679,1.59847,1.69554,1.59053,1.58978,1.55102,1.65939,1.53159,1.52229,1.51823,1.53149,1.4769,1.47874,1.4793,1.49773,1.43565,1.44947,1.44644,1.44656,1.46416,1.46455,1.49394,1.40583,1.38013,1.39189,1.38868,1.38554,1.37191,1.3635,1.36656,1.36537,1.39276,1.38808,1.39897,1.37142,1.36762,1.35361,1.35488,1.37238,1.38051,1.39498,1.37604,1.39392,1.38291,1.39511,1.39122,1.40298,1.40317,1.39341,1.39678,1.40618,1.43636,1.40163,1.40149,1.40674,1.40809,1.43306,1.47033,1.49154,1.47334,1.46927,1.46486,1.47134,1.46243,1.49226,1.49003,1.49368,1.49686,1.49591,1.50216,1.4753,1.47698,1.47598,1.47291,1.4758,1.47574,1.47799,1.47811,1.47808,1.48133,1.47755,1.48169,1.47946,1.48133,1.48602,1.48959,1.47955,1.48271,1.48247,1.48498,1.48242,1.48565,1.48449,1.48553,1.49049,1.48966,1.49519,1.49455,1.49646,1.49892,1.49872,1.49706,1.49897,1.4937,1.49642,1.50311,0.00365923,1.91862,0.00327685,1.54104,0.00345584,1.5472,1.54937,1.55299,1.55457,1.55445,1.55748,1.5578,1.56403,1.57486,1.57238,1.57179,1.57764
0.971543,0.974397,0.00310766,0.985183,0.989389,0.99031,0.990731,0.991363,0.993484,0.994883,0.997163,0.999684,1.00127,1.00177,1.00471,1.0068,1.00604,1.00679,1.00481,1.00384,1.00183,1.00358,1.00512,1.00445,1.00494,1.0088,1.0111,1.01445,1.01551,1.01804,1.02127,1.02343,1.02453,1.15759,1.18558,1.18744,1.1829,1.1839,1.24331,1.27149,1.26959,1.22762,1.2366,1.03734,1.04093,1.04886,1.04989,1.05426,1.05343,1.05274,1.05479,1.05587,1.05647,1.23582,1.06999,1.0716,0.00342881,1.28576,1.07932,1.0819,0.00342736,1.09244,1.09452,1.09616,1.09837,1.10247,1.10524,1.11105,1.11526,1.1152,1.11706,1.11726,1.10989,1.11111,1.10597,1.10719,1.11249,1.11247,0.0038477,1.07713,1.06056,1.06039,1.0607,1.06086,1.05487,1.06456,1.08475,1.10795,1.02678,1.00313,1.03013,0.994738,0.991737,1.0144,1.00528,1.07253,1.01878,1.02717,1.07822,1.0801,1.08314,1.09287,1.15161,1.11483,1.14585,1.15281,1.1751,1.20463,1.24392,1.25764,1.28114,1.31177,1.33357,1.38307,1.45063,1.52659,1.58532,1.6407,1.71703,1.74435,1.82074,1.88219,1.89348,1.93374,1.93121,1.94624,1.95273,1.98652,1.99218,1.98362,2.00771,2.00203,2.0026,1.98825,1.98539,1.9846,2.00055,1.97536,1.96848,1.96348,1.95762,1.97303,1.95057,1.95847,1.96838,1.93821,1.93948,1.92363,1.93693,1.90939,1.89493,1.89441,1.87354,1.86595,1.86611,1.82687,1.83302,1.81855,1.80839,1.80704,1.7884,1.78481,1.82969,1.757,1.72822,1.72767,1.72173,1.7062,1.69039,1.67967,1.65578,1.65537,1.6543,1.64533,1.63446,1.62037,1.69953,1.58905,1.58806,1.57677,1.56753,1.54318,1.52542,1.53584,1.53727,1.50871,1.5125,1.50641,1.51046,1.45775,1.44481,1.44681,1.50364,1.42827,1.42711,1.44106,1.44189,1.45698,1.41157,1.41018,1.39969,1.39997,1.39297,1.39446,1.37558,1.38243,1.38255,1.39302,1.39349,1.39416,1.40257,1.38604,1.37791,1.37194,1.35949,1.39412,1.37852,1.37006,1.37503,1.37678,1.37839,1.39145,1.38803,1.38303,1.38089,1.35842,1.36407,1.4134,1.34283,1.33815,1.33717,1.35891,1.35743,1.36081,1.48494,1.48623,1.48965,1.48874,1.48298,1.48064,1.43347,1.44511,1.44471,1.49459,1.46608,1.46488,1.47049,1.46882,1.47396,1.47473,1.46983,1.47575,1.47232,1.47734,1.47735,1.47539,1.48163,1.47883,1.4835,1.48229,1.48246,1.4863,1.48654,1.48298,1.48271,1.48455,1.48434,1.48551,1.47935,1.48598,1.48862,1.48659,1.48892,1.4848,1.48307,1.48885,1.49044,1.49167,1.48973,1.49384,1.49529,1.49645,1.50041,1.50656,0.00340199,1.52368,1.534,1.54176,1.54062,1.54119,1.55026,1.55852,1.56382,1.55981,1.55938,1.55814,1.55937,1.56406,1.56561,1.57049
0.966713,0.973049,0.978738,0.97941,0.977384,0.977326,0.978468,0.9842,0.988692,0.990673,0.992414,0.995005,0.996213,1.00061,1.0084,1.00962,1.00873,0.997459,0.999243,0.99915,0.999425,0.998588,0.99644,1.00336,1.00332,1.00503,1.01046,1.01282,1.018,1.01811,1.019,1.01814,1.01994,1.01969,1.02024,1.01932,1.01859,1.01332,1.01994,1.02321,1.02716,1.02812,1.02899,1.03936,1.04371,1.05262,1.05512,1.05359,1.05371,1.05018,1.04996,1.04952,1.0513,1.05164,1.05655,1.06337,1.06403,1.06625,1.5204,0.00372675,0.00392377,0.00362233,1.09013,1.092,0.00338407,0.00346807,1.09859,1.09873,1.10084,1.10079,1.10247,1.1033,1.10098,1.09963,1.2133,1.09199,1.07863,1.07679,1.08083,1.08845,1.0882,1.09865,1.04777,1.04965,1.02264,1.02543,1.03288,1.01725,1.02365,1.01876,1.057,1.05883,1.05644,1.04927,1.02083,1.00794,1.03005,1.06341,1.06559,1.0773,1.07879,1.11695,1.12883,1.11803,1.15449,1.17097,1.20999,1.20977,1.23082,1.24712,1.25322,1.28098,1.32889,1.33737,1.39871,1.45402,1.50974,1.6502,1.65421,1.68027,1.776,1.80267,1.896,1.90869,1.92872,1.93021,1.93731,2.00627,1.98784,2.0066,1.99027,1.98861,1.9962,1.9795,1.99449,1.97096,1.96941,1.96628,1.96639,1.9569,1.95671,1.96772,1.93842,1.93797,1.93492,1.93371,1.92316,1.92346,1.93026,1.94182,1.9,1.89808,1.89646,1.92398,1.8915,1.84553,1.84274,1.83096,1.82904,1.8338,1.80385,1.80268,1.77395,1.76731,1.77953,1.72759,1.72746,1.71044,1.69248,1.69035,1.65908,1.6691,1.6451,1.65539,1.62362,1.61523,1.60986,1.60406,1.64994,1.56709,1.56491,1.54497,1.52101,1.5108,1.50068,1.52344,1.49109,1.50009,1.49005,1.44995,1.44874,1.46921,1.49349,1.48578,1.48664,1.48294,1.40876,1.42642,1.40596,1.37504,1.38224,1.38944,1.38488,1.37993,1.37991,1.37926,1.37933,1.38914,1.39768,1.38794,1.3895,1.38964,1.36138,1.37457,1.3675,1.37009,1.36351,1.37126,1.37286,1.3661,1.31989,1.29883,1.41207,1.34936,1.32422,1.28509,1.28576,1.34451,1.32947,1.29609,1.29757,1.37449,1.35431,1.36544,1.43138,1.45325,1.39861,1.39835,1.40782,1.40963,1.43679,1.44083,1.4441,1.47391,1.46507,1.46615,1.46753,1.46746,1.46906,1.47055,1.47195,1.47268,1.4791,1.47497,1.47311,1.48217,1.48034,1.47953,1.48155,1.48276,1.48177,1.4776,1.48433,1.48026,1.48152,1.48683,1.4812,1.48,1.47828,1.48891,1.48715,1.48924,1.48957,1.48187,1.48122,1.48206,1.4866,1.48641,1.48366,1.48483,1.49287,1.49224,1.50632,1.5161,1.5157,1.52311,1.52651,1.53201,1.53814,1.54574,1.54553,1.54749,1.55136,1.55674,1.55564,1.55732,1.56361,1.56635,1.56762,1.57177
0.959453,0.962852,0.964496,0.966976,0.970518,0.973988,0.975695,0.978315,0.984108,0.987991,0.990189,0.991837,0.993622,0.995739,0.00338769,0.997102,0.999255,0.996457,0.995102,0.994201,0.994629,0.996901,0.997425,0.998921,1.00162,1.02239,1.0116,1.01449,1.0123,1.01256,1.01506,1.01484,1.015,1.01533,1.01575,1.01595,1.01654,1.01808,1.02055,1.02331,1.02798,1.02951,1.02911,1.0426,1.04392,1.04958,1.05146,1.05183,1.04727,1.04928,1.04764,1.0475,1.04944,1.05128,1.06293,1.05356,1.05361,0.00310835,0.00339106,0.00362569,0.00345096,1.17209,0.00340582,1.18186,0.00379091,0.00356394,1.29475,1.29857,1.32397,1.0882,1.08766,1.08794,1.09068,1.08541,1.08364,1.08474,1.0963,1.12008,1.11133,1.10593,1.12337,1.04772,1.07051,1.0853,1.0876,1.02697,1.03687,1.01326,0.99874,0.997754,1.05118,1.07221,1.08294,1.09995,1.07751,1.12258,1.01349,1.0175,1.0437,1.07388,1.09925,1.08837,1.12265,1.165,1.14747,1.19758,1.20658,1.22632,1.25285,1.24685,1.25736,1.30345,1.25989,1.32752,1.35727,1.42064,1.48596,1.61742,1.61668,1.63675,1.67235,1.78581,1.83047,1.82128,1.94537,1.9419,1.9732,1.9605,1.93395,1.98466,2.0035,1.98908,2.00817,1.9797,1.99226,1.96803,1.96907,1.96839,1.97191,1.95912,1.9489,1.95021,1.98614,1.94339,1.94607,1.92498,1.94609,1.90073,1.9165,1.88314,1.90577,1.91046,1.90737,1.86853,1.86889,1.83476,1.83323,1.82987,1.80567,1.80512,1.7789,1.78718,1.76957,1.75219,1.75819,1.75809,1.70958,1.70895,1.6786,1.67329,1.67522,1.67066,1.68869,1.63893,1.61673,1.65347,1.60576,1.58323,1.57342,1.6058,1.55446,1.52102,1.52165,1.52294,1.50076,1.54232,1.49826,1.49828,1.49951,1.46521,1.48294,1.483,1.48537,1.41501,1.41422,1.41462,1.41981,1.42303,1.45298,1.34981,1.37141,1.3534,1.361,1.40159,1.39944,1.39583,1.39046,1.38919,1.36815,1.36562,1.3466,1.3615,1.35448,1.36994,1.34377,1.34594,1.34342,1.34633,1.31756,1.29707,1.29904,1.29559,1.31315,1.31896,1.28811,1.28745,1.29137,1.29149,1.278,1.30766,1.30072,1.30219,1.31344,1.34473,1.45243,1.39953,1.40081,1.40524,1.40526,1.40721,1.43349,1.44238,1.45045,1.46016,1.46292,1.46104,1.46618,1.46463,1.46461,1.46874,1.47511,1.47338,1.47309,1.47601,1.47581,1.47302,1.47474,1.4767,1.47666,1.48117,1.47683,1.47598,1.47828,1.47728,1.48203,1.48206,1.48866,1.48772,1.48609,1.48812,1.48672,1.48674,1.48665,1.48706,1.48805,1.47594,1.47661,1.47861,1.48746,1.48713,1.48898,1.49767,0.00341941,1.51644,1.52133,1.5237,1.52799,1.52705,1.54109,1.53902,1.54037,1.54681,1.55691,1.55611,1.55652,1.55904,1.5592,1.55763,1.56457,1.56365
0.947798,0.953631,0.954068,0.956938,0.961419,0.96807,0.969685,0.973886,0.976439,0.976742,0.978422,0.980096,0.985747,0.987442,0.988719,0.991768,0.992735,0.992024,0.989727,0.988788,0.989397,0.994661,0.994896,0.995446,1.00054,1.0029,1.00427,1.00532,1.00721,1.00801,1.00885,1.00679,1.0111,1.0118,1.0127,1.01547,1.01613,1.02075,1.0217,1.02537,1.02759,1.0322,1.03728,1.03865,1.04178,1.04415,1.041,1.04202,1.04114,1.04168,1.04271,1.03656,1.0397,1.0396,1.24108,1.0746,1.04326,0.00333955,1.04249,0.00316248,0.0035506,0.00358759,1.19127,1.19421,1.19157,1.19196,0.0035448,1.27891,1.26912,1.0868,1.08859,1.09028,1.08979,1.08927,1.08844,1.12062,1.12226,1.10477,1.11944,1.10772,1.02689,1.05535,1.05167,1.05106,1.02246,1.01775,1.04045,1.04108,1.01374,1.03029,0.991163,0.992518,1.15429,1.15563,1.09792,1.07413,1.08257,1.0511,1.03324,1.10427,1.10778,1.1098,1.1153,1.1389,1.1197,1.17549,1.20851,1.20958,1.21252,1.19856,1.22975,1.27796,1.28244,1.3023,1.32603,1.33997,1.37729,1.46951,1.47158,1.63458,1.64896,1.67549,1.68553,1.84458,1.84443,1.91104,1.9476,1.96222,1.93819,1.93323,1.97026,1.97074,1.96381,1.99439,1.96323,1.96187,1.95936,1.95375,1.96153,1.96266,1.93272,1.94155,1.91127,1.8984,1.93096,1.93213,1.88946,1.89252,1.88354,1.89619,1.87083,1.86998,1.87375,1.90211,1.88334,1.84194,1.81399,1.81158,1.81356,1.79735,1.78848,1.77068,1.74397,1.7537,1.74766,1.72045,1.72085,1.68001,1.6668,1.66467,1.65711,1.67272,1.67175,1.61717,1.60662,1.6044,1.55885,1.55253,1.5474,1.5501,1.54522,1.55556,1.52572,1.52371,1.48073,1.47776,1.47519,1.56714,1.44194,1.45129,1.50292,1.41422,1.41069,1.44649,1.41258,1.41053,1.4058,1.42278,1.40031,1.3868,1.38405,1.37206,1.36096,1.34242,1.3519,1.37424,1.36604,1.38824,1.37545,1.33935,1.37392,1.33709,1.34256,1.3334,1.34409,1.3649,1.3855,1.38451,1.29836,1.30202,1.31983,1.32117,1.28512,1.28958,1.24865,1.27119,1.24495,1.50232,1.27965,1.30826,1.32465,1.31393,1.42739,1.40852,1.34867,1.40656,1.40603,1.4004,1.40942,1.41229,1.43975,1.43851,1.44912,1.44802,1.45807,1.45748,1.456,1.4616,1.46209,1.46274,1.46553,1.46641,1.46574,1.46579,1.46601,1.46682,1.46702,1.47308,1.47149,1.4693,1.4727,1.47136,1.47026,1.46898,1.47603,1.47593,1.48142,1.48626,1.48457,1.48263,1.48813,1.48716,1.49031,1.4891,1.49105,1.48721,1.48706,1.49005,1.48963,1.48872,1.4899,1.49615,1.50369,1.51555,1.51988,1.52106,1.53037,1.52841,1.52985,1.61508,1.54813,1.54986,1.54613,1.55435,1.55321,1.55787,1.55861,1.55226,1.55392,1.55333
0.943109,0.947659,0.952548,0.95724,0.957148,0.963937,0.965154,0.964362,0.961132,0.963672,0.966914,0.968906,0.979068,0.984698,0.985275,0.977868,0.975191,0.984213,0.985236,0.986896,0.987791,0.990631,0.9911,0.99413,0.995617,1.00232,1.00158,1.00488,1.00046,0.999079,1.00234,1.00559,1.00718,1.00766,1.00575,1.0062,1.01492,1.01744,1.02261,1.02329,1.02553,1.02726,1.03074,1.03261,1.03295,1.03216,1.03219,1.03307,1.03365,1.03514,1.0299,1.02351,1.02338,1.02648,1.02544,1.19741,1.17448,1.17439,0.00349507,1.03176,1.03207,1.03423,1.03703,1.03976,1.23177,1.23309,0.0036268,0.00320919,1.08857,1.09171,1.09182,1.09728,1.09722,1.09506,0.00342978,1.09024,1.09036,1.08917,1.12206,1.04677,1.05867,1.06505,1.02493,1.06778,1.04066,1.04353,1.04274,1.03328,1.03577,1.01763,1.01703,1.00234,1.06708,1.10399,1.07412,1.0476,1.04996,1.0741,1.01853,1.04605,1.08287,1.08428,1.09563,1.10864,1.11228,1.13222,1.1367,1.13624,1.1714,1.21011,1.24093,1.25124,1.22896,1.25651,1.28105,1.31924,1.36667,1.41887,1.45588,1.45634,1.5647,1.63757,1.63825,1.74042,1.74861,1.7618,1.87554,1.8634,1.92767,1.9202,1.91672,1.9342,1.9439,1.93631,1.93353,1.93394,1.90664,1.95151,1.96177,1.92807,1.9118,1.90467,1.90203,1.88552,1.93211,1.91606,1.88719,1.88358,1.89369,1.88533,1.87609,1.86112,1.85939,1.89859,0.00353435,1.81165,1.79889,1.80042,1.78102,1.81024,1.79714,1.74024,1.75065,1.72087,1.74413,1.71472,1.70853,1.67546,1.67207,1.68234,1.66974,1.69739,0.00333608,1.61311,1.61338,1.71288,1.57102,1.54065,1.53822,1.55898,1.5175,1.51251,1.5293,1.48825,1.49866,1.48307,1.45087,1.45351,1.44351,1.41478,1.435,1.44854,1.42266,1.41371,1.40606,1.41537,1.40398,1.42101,1.40609,1.3961,1.39621,1.449,1.44893,1.37645,1.34141,1.37118,1.40173,1.34781,1.35448,1.34639,1.3448,1.33414,1.33994,1.32975,1.32763,1.37145,1.37764,1.39438,1.32186,1.32223,1.31869,1.27138,1.24258,1.2409,1.24042,1.24106,1.24371,1.49905,1.27924,1.30236,1.36543,1.33402,1.33465,1.34627,1.35416,1.40183,1.39892,1.40778,1.46702,1.45123,1.44171,1.44364,1.45078,1.45338,1.45419,1.45687,1.45569,1.46493,1.46419,1.46334,1.46269,1.4644,1.46358,1.46028,1.46491,1.46394,1.46497,1.47106,1.46402,1.45992,1.46112,1.46099,1.46259,1.46713,1.46312,1.46811,1.47474,1.48238,1.48146,1.48339,1.4882,1.48751,1.49023,1.48912,1.48849,1.48912,1.49273,1.49316,1.4907,1.49125,1.48245,1.48411,1.64451,1.58118,0.00347813,1.52316,1.52454,1.52313,1.53633,1.53617,1.53974,1.53963,1.54213,1.54227,1.54775,1.54759,1.55195,1.5514,1.55483,1.5573
0.938358,0.936581,0.939625,0.942073,0.954167,0.959373,0.957227,0.961805,0.96574,0.966136,0.969141,0.973536,0.974628,0.972069,0.967208,0.968786,0.971068,0.979833,0.972395,0.977974,0.98006,0.982972,0.986897,0.989238,0.989869,0.98954,0.996226,0.997914,0.997019,0.997913,0.999324,0.999179,1.00079,1.00086,1.00568,1.00944,1.01341,1.01178,1.01484,1.01535,1.01659,1.02203,1.02426,1.02676,1.02925,1.03067,1.03037,1.01896,1.02062,1.02386,1.02248,1.02315,1.02317,1.01243,1.01196,1.01272,1.00988,0.00339023,0.0033431,1.02532,1.02828,1.02906,1.03036,1.03588,1.0379,0.00309232,1.06659,0.00360444,0.00339813,0.00351038,1.49251,1.07725,1.0772,1.08095,1.08857,1.07791,1.06304,1.06372,1.02628,1.02836,1.02779,1.03104,1.03225,1.04948,1.01941,1.0303,1.0115,1.02396,1.03532,1.01525,1.00331,1.01142,1.01996,1.01882,1.03109,1.04883,1.05108,1.03626,1.0477,1.04844,1.04933,1.03685,1.0935,1.11248,1.12656,1.14269,1.13436,1.13014,1.14882,1.18495,1.18631,1.24143,1.25459,1.27221,1.24851,1.29607,1.3,1.39997,1.38858,1.45532,1.50047,1.50724,1.64751,1.6894,1.74584,1.74381,1.817,1.83309,1.86588,1.87307,1.88776,1.88872,1.90018,1.91641,1.88088,1.90719,1.91939,1.87389,1.89751,1.87852,1.90576,1.90866,1.90546,1.88231,1.87115,1.86825,1.8963,1.88622,1.87897,1.85277,1.84894,1.84628,1.80585,1.80473,1.79009,1.78666,1.77118,1.76539,1.74599,1.76511,1.76484,1.73012,1.74142,1.72264,1.73226,0.00323185,1.7037,1.69592,1.7082,1.66259,1.66033,1.6234,1.62035,1.61402,1.59212,1.59006,1.58953,1.51999,1.53273,1.50971,1.50391,1.51928,1.5098,1.52385,1.489,1.45219,1.45001,1.44528,1.4479,1.42437,1.42655,1.42521,1.42386,1.41619,1.39758,1.3979,1.38422,1.38513,1.38649,1.38605,1.41726,1.41375,1.41607,1.36149,1.33576,1.33954,1.34008,1.35433,1.35622,1.33749,1.35415,1.321,1.31886,1.32874,1.33377,1.32423,1.32997,1.31859,1.32715,1.29534,1.29835,1.28056,1.24573,1.24318,1.23744,1.24022,1.24294,1.33413,1.29774,1.31662,1.38869,1.35546,1.37638,1.37204,1.41444,1.41764,1.41946,1.4648,1.425,1.43434,1.43826,1.44732,1.44587,1.45347,1.45215,1.45456,1.45366,1.457,1.45965,1.45904,1.45488,1.45877,1.46177,1.46662,1.46565,1.46787,1.45917,1.45865,1.45737,1.45568,1.457,1.45541,1.46086,1.45949,1.46116,1.46847,1.48151,1.4795,1.48316,1.48679,1.48668,1.48618,1.49274,1.49201,1.48923,1.48764,1.49318,1.4933,1.49718,1.48314,1.47812,1.47835,1.61442,0.00342328,0.00347361,0.00345592,1.53244,1.53253,1.52853,1.53145,1.53413,1.53122,1.54108,1.54063,1.54807,1.54752,1.54858,1.54878,1.5496,1.55452
0.926502,0.931668,0.935755,0.939334,0.939129,0.945352,0.947075,0.95125,0.00342694,0.951851,0.950184,0.950696,0.952601,0.954132,0.959156,0.962004,0.00335725,0.966653,0.967701,0.968462,0.974596,0.977333,0.98099,0.983937,0.986834,0.988714,0.98963,0.992198,0.992256,0.992962,0.995144,0.997069,0.997632,1.00319,1.00454,1.00495,1.00411,1.00496,1.00567,1.00439,1.00258,1.00127,0.00344725,1.01295,0.0034848,0.00362357,0.00332121,1.10492,1.01677,0.00365764,0.0034457,0.998277,1.00344,1.00218,0.9998,0.99838,0.999527,1.14806,1.1505,1.24295,1.02226,1.02522,1.02784,1.03362,1.47672,0.00342344,0.00365873,0.00357687,1.06095,1.25888,1.06296,1.06506,1.06677,1.05403,1.04625,1.04737,1.0483,0.0034914,1.08917,0.00280809,1.03863,1.03925,1.0336,1.03901,1.03747,1.01756,1.01487,1.02118,0.996179,0.998528,0.988632,0.982441,0.971851,1.01645,1.0289,1.00403,1.06472,0.986337,0.986798,0.987007,1.01842,0.985847,1.03282,1.03685,1.02669,1.03621,1.09112,1.08887,1.14986,1.14476,1.15728,1.19912,1.20844,1.26468,1.26096,1.24979,1.25985,1.34073,1.33865,1.42002,1.43859,1.51724,1.51515,1.53419,1.55019,1.69691,1.7407,1.79775,1.79556,1.79066,1.82804,1.85794,1.84185,1.87352,1.87231,1.86763,1.87149,1.8506,1.84234,1.87143,1.86748,1.8583,1.90794,1.86543,1.87393,1.87467,1.88024,1.83521,1.85969,1.85499,1.81679,1.81591,1.80993,1.80823,1.78753,1.77882,1.77612,1.74576,1.73873,1.7097,1.70803,1.7172,1.7067,1.70311,1.69985,1.68487,1.67514,1.69101,1.68725,1.66746,1.61959,1.62725,1.60053,1.70052,0.00362963,1.53759,1.52617,1.52363,1.52349,1.51198,1.51729,1.52184,1.47881,1.47536,1.46375,1.44995,1.45185,1.43062,1.44335,1.41545,1.45596,1.41938,1.41559,1.41445,1.44689,1.3982,1.37107,1.33955,1.33965,1.37415,1.33759,1.36055,1.33387,1.40874,1.37016,1.34866,1.35534,1.3407,1.33231,1.33403,1.34621,1.33406,1.30902,1.32398,1.31883,1.34106,1.31233,1.31252,1.29928,1.30107,1.30288,1.30848,1.25361,1.24487,1.25091,1.25764,1.26546,1.30421,1.33002,1.34441,1.37783,1.3684,1.38774,1.39687,1.40752,1.41049,1.43753,1.43506,1.44474,1.42793,1.43797,1.44455,1.44467,1.44812,1.44714,1.44964,1.45001,1.45372,1.45234,1.456,1.45504,1.45645,1.46023,1.46374,1.46245,1.46021,1.4555,1.45919,1.45429,1.45519,1.45399,1.45755,1.46104,1.46047,1.46758,1.4706,1.47504,1.47821,1.48124,1.48669,1.48881,1.487,1.48726,1.48645,1.48775,1.49146,1.49221,1.49888,1.49944,1.48943,1.48824,1.49511,1.4949,0.00346872,0.00326885,1.52582,1.52783,1.52787,1.52833,1.52559,1.52478,1.53533,1.53755,1.53559,1.5353,1.53589,1.5412,1.54026,1.54721,1.54884
0.922597,0.92931,0.931382,0.930662,0.930867,0.931672,0.930664,0.931988,0.941211,0.917727,0.949351,0.95088,0.951004,0.951969,0.951658,0.956702,0.955693,0.957213,0.959664,0.963069,0.969786,0.967252,0.974271,0.975169,0.983696,0.985245,0.98507,0.986132,0.984983,0.987293,0.989177,0.989424,0.994364,0.997243,0.998969,1.00106,0.997976,0.998982,0.999502,0.998371,0.998333,0.999756,1.14708,0.00335726,1.04854,1.22216,1.22177,0.999204,0.00367075,0.00352277,0.99096,0.998069,0.987382,0.988616,0.987921,0.991644,0.994705,0.997329,1.00262,0.00339047,1.01588,1.01977,1.02502,1.02718,0.00336562,0.00342957,0.00352387,1.04695,1.19569,1.05314,1.05285,1.04461,1.05649,1.0516,1.05172,1.05158,1.07549,1.08529,1.08687,1.09703,1.09842,1.09829,1.02622,1.02441,1.02464,1.0063,1.0014,1.00265,0.986974,0.988373,0.990399,0.991068,0.993806,0.998286,1.0191,1.02398,1.05073,1.00452,1.01716,1.01841,0.981171,0.993656,1.00862,1.00975,1.00466,1.01191,1.04335,1.04422,1.06814,1.15129,1.1523,1.18405,1.19959,1.21536,1.23318,1.25277,1.25542,1.30993,1.31248,1.3503,1.39689,1.42033,1.48498,1.48319,1.54031,1.55413,1.67313,1.65129,1.76934,1.86587,1.83741,1.83385,1.79746,1.77277,1.78876,1.80329,1.80219,1.82104,1.79584,1.81636,1.8113,1.81194,1.81954,1.82764,1.82842,1.83618,1.80624,1.803,1.80992,1.77601,1.79233,1.78558,1.76542,1.77921,1.75321,1.73867,1.73535,1.72754,1.72105,1.70567,1.71025,1.69202,1.69997,1.69076,1.66968,1.68685,0.00365711,1.67688,1.73516,0.00346159,1.69717,1.67578,1.67414,1.56269,1.55789,1.54624,1.53181,1.50795,1.50647,1.50753,1.50819,1.52675,1.54523,1.46597,1.46392,1.44709,1.44791,1.43093,1.42804,1.42995,1.41615,1.39074,1.41918,1.41688,1.3798,1.37877,1.35709,1.35954,1.357,1.3206,1.32292,1.34388,1.34567,1.3471,1.33,1.33658,1.34768,1.32933,1.32982,1.33402,1.32906,1.31467,1.31511,1.36255,1.2985,1.33177,1.34073,1.29663,1.30836,1.30967,1.35157,1.32575,1.32708,1.33713,1.38649,1.27695,1.28785,1.34098,1.3406,1.35721,1.3782,1.355,1.34264,1.34252,1.40487,1.40613,1.41189,1.43289,1.42797,1.43217,1.43418,1.43928,1.43954,1.44275,1.44202,1.44372,1.44882,1.4477,1.44848,1.45239,1.45313,1.45504,1.45719,1.46189,1.4639,1.46147,1.46116,1.45953,1.45607,1.4601,1.45517,1.45484,1.45582,1.46121,1.46411,1.46988,1.47244,1.47916,1.48031,1.48459,1.4871,1.48605,1.48691,1.48919,1.4899,1.49071,1.48999,1.4924,1.4931,1.4903,1.48852,1.49529,1.50081,1.59615,1.52111,1.5214,1.51974,1.52425,1.52368,1.52731,1.52906,1.5311,1.53763,1.5286,1.53065,1.53472,1.53421,1.53795,1.54496,1.54813
0.00324647,1.10176,0.906663,0.908077,0.908649,0.919563,0.919382,0.92228,0.925922,0.931514,0.00334176,0.00346116,0.00358342,0.00370373,0.934019,0.00327557,0.00302139,0.945552,0.946912,1.11413,0.956984,0.957691,0.965449,0.00355499,0.976515,0.976418,0.974646,0.97547,0.979131,0.981024,0.981469,0.981819,0.00348162,0.00317126,0.977443,0.977497,0.983986,0.973742,0.971639,1.13236,0.00345994,0.968842,0.969235,0.971634,0.979651,0.985467,0.983337,0.975516,0.97659,0.977206,0.979022,0.983018,0.985018,0.987427,0.991132,0.992328,0.994326,1.0029,1.00426,1.00375,1.00975,1.01422,1.17776,1.02555,0.00358815,0.00336214,0.00330737,1.42765,0.00341995,1.05122,1.05064,1.05252,1.0531,1.05216,1.05206,1.05273,1.0657,1.06721,1.06952,1.08004,1.07611,1.07029,1.06372,1.03042,1.01957,1.04856,1.00808,0.99639,1.00572,1.00506,0.988909,1.00644,0.982906,0.994108,1.02791,1.02874,1.02178,1.04235,1.01571,1.01726,0.999879,0.970086,0.969392,1.0211,1.03545,0.997626,1.01562,1.02293,1.0643,1.0749,1.08789,1.0817,1.17765,1.16878,1.20575,1.20713,1.22331,1.24565,1.24641,1.26118,1.26245,1.31609,1.38555,1.45104,1.44637,1.56218,1.59439,1.62622,1.65102,1.71946,1.70902,1.72227,1.6974,1.70542,1.68982,1.69047,1.74468,1.72823,1.73364,1.75383,1.73708,1.74799,1.76185,1.76195,1.76076,1.75265,1.75655,1.76573,1.76932,1.77117,1.75637,1.79025,1.76668,1.74493,1.74047,1.75563,1.73213,1.71968,1.72422,1.70979,1.70076,1.7023,1.69907,1.68193,1.64449,1.64837,1.64554,0.00343232,1.58594,1.59436,1.59981,1.67476,1.58336,1.60658,1.64723,1.52985,1.50455,1.50297,1.54931,1.50494,1.50531,1.50954,1.52856,1.47327,1.48173,1.42731,1.47189,1.51543,1.43442,1.43449,1.39432,1.38518,1.37663,1.40255,1.37514,1.37833,1.35357,1.35483,1.35718,1.31721,1.31761,1.31534,1.35329,1.32476,1.32313,1.31919,1.32015,1.33038,1.32317,1.32194,1.31999,1.30263,1.31666,1.32689,1.32563,1.3245,1.29816,1.29155,1.2885,1.31395,1.31374,1.31906,1.32753,1.32293,1.32793,1.32994,1.34671,1.33693,1.35976,1.36655,1.36146,1.37625,1.38925,1.38673,1.40293,1.4195,1.43915,1.42755,1.42776,1.43482,1.43762,1.44047,1.44077,1.44178,1.44306,1.44497,1.44372,1.44707,1.44701,1.4453,1.44902,1.45215,1.45358,1.45539,1.45669,1.46124,1.46162,1.46007,1.46074,1.45645,1.45551,1.45542,1.46118,1.46204,1.46367,1.46808,1.4714,1.47141,1.47784,1.47751,1.48148,1.48297,1.48707,1.48738,1.48989,1.48815,1.4941,1.49409,1.49236,1.48979,1.49166,1.49232,1.5093,1.51219,1.51788,1.5172,1.5166,1.51979,1.52119,1.52124,1.52367,1.5235,1.52744,1.53069,1.532,1.52957,1.53084,1.61387,1.54578,1.55045
0.901525,0.904648,0.908256,0.908203,0.911223,0.911427,0.915573,0.91374,0.917882,0.00332271,0.00346427,0.913419,0.0036066,0.00347535,0.92286,0.926601,0.935231,0.935931,0.936472,0.941428,0.949923,0.95267,0.96091,0.9629,0.962743,0.966917,0.969611,0.969844,0.973651,0.970194,0.967274,0.968546,0.97478,0.972036,0.973169,0.976825,0.976251,0.976413,0.947026,0.948907,0.949633,0.959746,0.962991,0.963979,0.974828,0.974988,0.974819,0.974553,0.97477,0.975736,0.979115,0.982513,0.982521,0.984688,0.987489,0.988336,0.991244,0.990986,0.997831,1.00204,1.00436,1.01223,1.01512,1.01256,1.20937,0.00321724,1.02659,1.03021,1.03112,1.03113,1.04514,1.04699,1.04813,1.05002,1.04723,1.04594,1.04912,1.05021,1.04805,1.08309,1.0839,1.02913,1.03776,1.02008,1.021,1.0417,1.04253,1.02599,1.01159,1.00804,0.992308,1.00423,1.00414,0.994364,1.05379,1.01219,0.994053,1.02548,0.989795,0.991286,0.996273,0.996332,0.970262,0.992941,1.0012,0.980624,0.981493,0.985894,1.00951,1.01167,1.01316,1.10045,1.09184,1.1887,1.18061,1.19055,1.18565,1.18743,1.19192,1.24699,1.28466,1.28553,1.27832,1.39324,1.43138,1.45831,1.45234,1.55251,1.5626,1.56345,1.66539,1.6652,1.68378,1.66144,1.63836,1.63583,1.65852,1.63435,1.6418,1.69257,1.72715,1.7244,1.71158,1.71237,1.71029,1.71902,1.72567,1.72374,1.73651,1.74518,1.73394,1.7303,1.70787,1.70558,1.69061,1.70848,1.69632,1.68262,1.66977,1.68103,1.66205,1.66992,1.63833,1.64609,1.63765,1.6525,1.64883,1.59489,1.56235,1.55584,1.55799,1.62798,1.54572,1.57837,1.50742,1.47482,1.47866,1.47695,1.4797,1.49941,1.51026,1.47453,1.50364,1.4216,1.4226,1.45501,1.40935,1.41025,1.40242,1.52503,1.37463,1.37291,1.38941,1.38908,1.38753,1.36257,1.35387,1.34435,1.31623,1.31528,1.31619,1.3435,1.3347,1.32083,1.32196,1.33843,1.32375,1.31579,1.30495,1.30526,1.31711,1.33064,1.32313,1.33666,1.32692,1.31675,1.31719,1.29167,1.29245,1.30255,1.33112,1.35852,1.352,1.31996,1.33305,1.35212,1.35332,1.37197,1.35588,1.34622,1.35021,1.37296,1.37557,1.37928,0.0035342,1.42683,1.45131,1.43695,1.43375,1.43969,1.44023,1.44177,1.43921,1.44046,1.43973,1.44032,1.44117,1.44089,1.44206,1.44872,1.44871,1.4508,1.4535,1.45378,1.45513,1.45728,1.4578,1.45724,1.4538,1.45194,1.45803,1.45639,1.45407,1.4572,1.45697,1.46751,1.46753,1.47083,1.47564,1.47429,1.47831,1.48369,1.48432,1.49154,1.49196,1.50231,1.50206,1.50018,1.50161,1.49718,1.49644,1.4994,1.50574,1.50757,1.5105,1.51606,1.51577,1.51419,1.51848,1.52557,1.52354,1.52928,1.5262,1.5244,1.52581,1.52998,1.53015,1.54162,1.53999,1.55007
0.896695,0.902623,0.90617,0.906894,0.911019,0.911544,0.904579,0.897661,0.906227,0.902692,0.907481,0.907845,0.909921,0.91367,0.91618,0.925344,0.92507,0.929687,1.15702,0.945669,0.949441,0.950305,0.951282,0.951604,0.956931,0.956901,0.957474,0.958789,0.959845,0.962806,0.963054,0.963667,0.964459,0.963782,0.97055,0.00344253,0.951168,0.951795,0.951394,0.953311,0.955164,0.962954,0.963732,0.966052,0.967831,0.974345,0.976699,0.976447,0.977331,0.979368,0.981161,0.982585,0.983362,0.985163,0.987182,0.989239,0.991935,0.992609,0.99577,1.00818,1.00868,1.01066,1.01159,1.01127,1.01364,1.01736,1.02097,1.02639,1.02891,1.03324,1.03449,1.03993,1.04036,1.04335,1.04019,1.0441,1.06732,1.06751,1.06271,1.02378,1.02441,1.0259,1.02508,1.01754,1.01061,1.01991,1.09984,1.0323,1.05927,1.06013,1.02623,1.02226,0.9982,0.997924,1.08651,1.08878,1.00806,1.00922,1.01183,1.00849,0.997389,1.00047,1.02006,1.01929,1.02333,1.03654,1.00856,1.00148,1.00593,1.01322,1.04713,1.02903,1.10635,1.12929,1.11551,1.18024,1.18922,1.20283,1.20407,1.2395,1.26057,1.28424,1.31282,1.3819,1.40992,1.41388,1.47174,1.47367,1.48148,1.51569,1.52383,1.59778,1.60716,1.60769,1.59708,1.57908,1.59405,1.64158,1.59596,1.60732,1.60034,1.59458,1.61629,1.62531,1.69415,1.69345,1.72522,1.67202,1.7232,1.70657,1.7013,1.68737,1.69642,1.6788,1.69762,1.66029,1.66869,1.66119,1.66224,1.68009,1.67803,1.63281,1.63257,1.63671,1.61953,1.59359,1.59175,1.58128,1.55471,1.561,1.50639,1.5072,1.50703,1.50506,1.48894,1.48779,1.47783,1.46931,1.45862,1.47262,1.45459,1.46196,1.46355,1.41512,1.42116,1.4951,1.37211,1.36287,1.36117,1.37463,1.36026,1.34785,1.34637,1.34717,1.35531,1.34515,1.34562,1.34843,1.32123,1.33663,1.33339,1.32288,1.29768,1.29572,1.29542,1.32041,1.30857,1.33608,1.31642,1.32292,1.35705,1.33621,1.33057,1.33649,1.41818,1.32901,1.32922,1.32986,1.30226,1.30518,1.33751,1.329,1.32417,1.32581,1.34864,1.33284,1.35138,1.3503,1.34784,1.33424,1.35995,1.38476,1.38936,1.39552,1.41305,1.41292,1.42773,1.43282,1.43467,1.44627,1.44124,1.43955,1.44052,1.43871,1.43938,1.44049,1.43883,1.44284,1.44394,1.44419,1.44754,1.4477,1.45229,1.45344,1.45079,1.45142,1.45207,1.45385,1.45395,1.45071,1.45018,1.45751,1.45755,1.45735,1.45532,1.45827,1.47163,1.46731,1.4717,1.47241,1.47843,1.47916,1.47957,1.48649,1.49033,1.50108,1.50238,1.50179,1.50275,1.50611,1.50274,1.50466,1.5062,1.50641,1.51334,1.51575,1.51782,1.51943,1.51606,1.52016,1.52085,1.52309,1.5242,1.52169,1.52617,1.53032,1.53393,1.53539,1.53453,1.54205
0.885602,0.892238,0.893329,0.895136,0.89402,0.891471,0.894046,0.891006,0.897166,0.894435,0.89955,0.902149,0.905528,0.909907,0.915688,0.918509,0.921884,0.935431,0.939694,0.941153,0.943089,0.943664,0.943208,0.943767,0.945344,0.949632,0.952046,0.955405,0.955248,0.952924,0.945641,0.946416,0.939186,0.938908,0.939222,0.941585,0.942583,0.943017,0.946725,0.949269,0.953631,0.956919,0.961068,0.962891,0.96611,0.969721,0.974988,0.976367,0.98384,0.98451,0.985062,0.985756,0.98696,0.988294,0.992254,0.993238,0.995139,0.997226,1.00083,1.00239,1.00736,1.01068,1.0122,1.01278,1.01355,1.01474,1.01601,1.15403,0.00361622,0.00307834,1.15279,1.15073,0.00368538,0.0033186,1.03033,1.02722,1.02969,1.0336,1.03306,1.03326,1.03446,1.0355,1.01785,1.01918,1.00583,1.00572,1.00589,1.06081,1.01532,1.00546,0.998172,0.978,0.995451,1.02015,0.973909,0.988804,0.978712,0.950149,0.987099,0.95146,0.982248,1.00117,0.979974,1.01568,1.01196,1.02292,1.02287,1.01956,1.02174,1.01236,1.01221,1.06625,1.07043,1.072,1.10508,1.14723,1.20047,1.1886,1.20867,1.23454,1.24457,1.27245,1.29168,1.31982,1.29973,1.30484,1.33075,1.38998,1.45126,1.44841,1.49091,1.50043,1.51274,1.55157,1.62085,1.58135,1.58963,1.56074,1.57865,1.58642,1.61073,1.62429,1.61177,1.61432,1.6303,1.61115,1.64853,1.66143,1.66463,1.62593,1.62148,1.64245,1.64483,1.6465,1.64508,1.65302,1.63825,1.62619,1.62448,1.62252,1.62755,1.62646,1.58898,0.00315052,0.0038189,1.50841,1.50469,1.50002,1.49778,1.48951,1.58223,1.49222,1.46188,1.46196,1.45795,1.44348,1.43866,1.44248,1.45235,1.45323,1.41776,1.4198,1.45336,1.39383,1.39503,1.41358,1.36151,1.36386,1.38766,1.36052,1.35463,1.34758,1.34445,1.3198,1.31735,1.33039,1.331,1.32376,1.3339,1.30313,1.30366,1.3057,1.31619,1.29115,1.29816,1.29341,1.31074,1.32992,1.35176,1.35816,1.33337,1.31583,1.3035,1.30891,1.33486,1.29815,1.32281,1.32589,1.27451,1.29844,1.29963,1.32884,1.32822,1.32538,1.32003,1.32309,1.33905,1.34007,1.34022,1.32596,1.3872,1.37632,1.42288,1.4217,1.42254,1.41706,1.42633,1.4429,1.44229,1.43986,1.43806,1.43826,1.43901,1.43943,1.43906,1.44063,1.43955,1.44223,1.44152,1.443,1.44698,1.44706,1.4481,1.44883,1.45017,1.44734,1.44995,1.451,1.45123,1.44964,1.44792,1.4511,1.4545,1.45201,1.45351,1.45241,1.46478,1.4638,1.46953,1.47418,1.47913,1.48205,1.48471,1.48603,1.4932,1.49636,1.49805,1.5109,1.50711,1.50601,1.5067,1.49819,1.50231,1.50874,1.50633,1.50895,1.5125,1.51593,1.51255,1.51634,1.51749,1.52048,1.52082,1.52348,1.5235,1.52487,1.52574,1.52885,1.53774,1.54514
0.883457,0.884209,0.883916,0.884119,0.884135,0.882601,0.887182,0.887065,0.889903,0.892562,0.895092,0.899977,0.905319,0.908829,0.914854,1.05865,0.92991,0.936527,0.937498,0.940262,0.941822,0.943409,0.943247,0.945317,0.946332,0.946785,0.946554,0.942229,0.00352132,0.929805,0.932244,0.932204,0.934801,0.934537,0.935427,0.939161,0.939292,0.938922,0.941824,0.943375,0.946939,0.947802,0.947916,0.959802,0.0035365,0.965146,0.97881,0.981003,0.981873,0.983579,0.983935,0.985442,0.986182,0.988205,0.991186,0.992773,0.994482,0.995355,0.99781,0.999781,0.999201,1.00411,1.00772,1.00808,1.00836,1.01091,1.00809,1.00828,1.00964,1.01467,0.00331579,1.01181,1.01476,0.00330186,0.00335331,1.01961,1.01881,1.02224,1.02355,1.02573,1.02949,1.02668,1.02505,1.02579,1.0279,0.951284,0.953297,0.956107,0.950103,1.00548,1.01175,1.00542,0.976675,0.967045,0.969563,0.976337,0.967176,0.968667,1.01299,0.985473,0.994981,0.994941,0.995614,1.01164,1.01809,1.02526,1.02327,1.02615,1.00674,1.00786,1.01582,1.06075,1.05967,1.12255,1.10977,1.16414,1.16349,1.17681,1.19013,1.20441,1.21501,1.24036,1.28313,1.28418,1.30867,1.28293,1.28153,1.28156,1.2895,1.29244,1.4433,1.44133,1.43811,1.53611,1.51927,1.54351,1.58188,1.57183,1.57203,1.60372,1.5752,1.60603,1.59559,1.59037,1.5604,1.59102,1.57147,1.60028,1.59799,1.59919,1.58648,1.60289,1.71475,1.71403,1.61072,1.61022,1.60896,1.67524,0.00353557,1.62641,1.62289,1.6252,1.52936,1.54558,1.52105,1.48886,1.49266,1.49441,1.47906,1.46827,1.49583,1.44915,1.46531,1.46783,1.45155,1.45091,1.43576,1.43655,1.44194,1.43738,1.41239,1.40378,1.41991,1.39994,1.41603,1.3629,1.36252,1.39011,1.3564,1.33426,1.32884,1.29137,1.28837,1.28696,1.28881,1.30546,1.30287,1.30348,1.31023,1.30263,1.3004,1.30101,1.28336,1.28448,1.30263,1.28107,1.28182,1.28815,1.28974,1.29079,1.29069,1.29849,1.30239,1.3014,1.30575,1.31718,1.28898,1.28914,1.27065,1.31614,1.31697,1.29189,1.35051,1.31002,1.31305,1.31614,1.31626,1.31439,1.3142,1.33087,1.38735,1.38884,1.4031,1.41018,1.41014,1.41977,1.42134,1.44289,1.4428,1.44106,1.43985,1.43754,1.43311,1.43599,1.43669,1.43806,1.43659,1.43529,1.43843,1.44184,1.43978,1.44705,1.44737,1.44172,1.44344,1.44449,1.44725,1.44653,1.44987,1.44865,1.45028,1.45187,1.45259,1.45056,1.45811,1.45763,1.46006,1.46558,1.47006,1.47,1.47356,1.47684,1.48135,1.48489,1.49461,1.49858,1.4977,1.50507,1.50549,1.50414,1.49879,1.49874,1.4979,1.50352,1.51056,1.51404,1.50795,1.50869,1.51602,1.51267,1.5194,1.52084,1.51757,1.52114,1.52054,1.52365,1.52351,1.52769,1.52938,1.53776
0.881885,0.879885,0.874417,0.877188,0.87773,0.871103,0.883496,0.884199,0.886354,0.89272,0.894644,0.897746,1.15101,1.08464,0.976503,0.927085,0.93214,0.930819,0.935153,0.935726,0.937443,0.938982,0.933001,0.936735,0.942817,0.941665,0.943047,0.00347137,0.919156,0.922109,0.925651,0.927943,0.929313,0.928913,0.930037,0.931658,0.932524,0.934531,0.934558,0.933169,0.933604,0.00342883,0.944029,0.946551,0.964392,0.966281,0.966846,0.971912,0.973381,0.975965,0.976177,0.976064,0.978227,0.00330641,0.989514,0.990314,0.993037,0.990769,0.990082,0.989825,0.992973,0.996424,0.999504,0.00344019,1.00122,0.998297,0.00319115,1.00155,1.00482,1.00718,1.00758,1.00907,1.00953,1.01082,1.01211,1.013,1.01477,1.01637,1.01817,1.02324,1.02518,1.02582,1.02535,1.02832,1.02934,0.972085,0.971557,0.965221,0.964983,0.963143,0.956916,0.965386,0.973358,0.974406,0.991684,0.966996,0.967086,0.971554,1.01194,0.968736,0.96975,0.959712,1.00623,0.999789,1.08309,1.01303,1.01003,1.00093,1.03384,1.03645,1.044,1.03,1.08243,1.10182,1.09242,1.11254,1.14351,1.15844,1.16781,1.17421,1.19328,1.19551,1.22087,1.25694,1.2702,1.27124,1.30735,1.29741,1.34096,1.32864,1.37704,1.38109,1.41234,1.47159,1.45224,1.46787,1.50607,1.53047,1.56806,1.54029,1.55312,1.58771,1.55832,1.53977,1.55819,1.56394,1.56426,1.57486,1.55367,1.57583,1.68534,0.00348514,1.57956,1.59081,1.5921,1.59163,1.57856,1.57912,1.58121,1.57864,1.5123,1.51658,1.51613,1.51552,1.51576,1.51471,1.4862,1.47484,1.48563,1.44369,1.45274,1.47814,1.43593,1.42954,1.44618,1.41391,1.42057,1.41766,1.41534,1.42267,1.4191,1.44948,1.35524,1.34037,1.34041,1.36081,1.36805,1.36401,1.30783,1.31883,1.31562,1.30454,1.28607,1.30578,1.3081,1.31175,1.31405,1.28937,1.29489,1.29564,1.28609,1.28557,1.30404,1.29915,1.27306,1.27243,1.28423,1.29885,1.28142,1.27815,1.25064,1.25791,1.2787,1.28176,1.27703,1.27576,1.271,1.2823,1.27662,1.27739,1.30949,1.31805,1.3,1.30506,1.30205,1.313,1.30905,1.42939,1.33679,1.34047,1.39286,1.39311,1.43147,1.43049,1.43131,1.41374,1.41961,1.43682,1.43348,1.4382,1.42814,1.4288,1.43141,1.43545,1.43608,1.43228,1.43062,1.42987,1.43621,1.43581,1.43394,1.4393,1.43651,1.44025,1.43936,1.44064,1.44025,1.44575,1.44822,1.44766,1.44449,1.44422,1.45071,1.44987,1.4518,1.46104,1.45977,1.46437,1.46528,1.46665,1.46941,1.47074,1.47465,1.48858,1.48839,1.48804,1.48834,1.49265,1.49332,1.49924,1.49745,1.49935,1.4982,1.49968,1.50743,1.51263,1.51062,1.50634,1.50715,1.51322,1.51373,1.51928,1.51725,1.51607,1.52217,1.5211,1.52296,1.52472,1.52898,1.53297
0.871895,0.872829,0.873367,0.873628,0.87464,0.876882,0.880428,0.882522,0.889574,0.892433,0.898499,1.15408,0.00335332,0.920423,0.922928,0.925507,0.925293,0.923966,0.924019,0.926006,0.927413,0.92818,0.92851,0.00350375,0.00313655,0.0035766,0.00343516,0.905894,0.908499,0.90706,0.910923,0.915484,0.920616,0.918922,0.920667,0.921484,0.00332354,0.00356991,0.91625,0.913432,0.914064,0.938288,0.943231,0.94941,0.957517,0.960079,0.960995,0.962738,0.966701,0.963389,0.963273,0.00342167,0.00341944,0.969891,0.970906,0.970206,0.977838,0.00355692,0.987411,0.985968,0.987116,0.987473,0.985811,0.983916,0.984582,0.98563,0.991941,0.992605,0.994329,0.996026,0.999475,1.00298,1.00455,1.0033,1.00673,1.00519,1.00712,1.0078,1.00895,1.01022,1.01225,1.01887,1.02346,1.02588,0.985326,0.962879,0.963162,0.96449,0.957554,0.958054,1.06036,0.96124,0.993848,0.995522,0.997269,1.02699,0.986101,0.983778,0.976356,0.960334,0.99825,1.05183,1.0156,0.973918,0.982929,0.983964,1.00427,1.04391,1.02042,1.02161,1.01613,1.01637,1.06208,1.06323,1.06311,1.06305,1.0648,1.07992,1.14953,1.15733,1.17202,1.17346,1.19849,1.20803,1.23109,1.25657,1.26425,1.274,1.25959,1.25649,1.28755,1.36727,1.3944,1.38518,1.40558,1.3788,1.40328,1.46535,1.48624,1.51398,1.51253,1.51577,1.6339,1.50703,1.5353,0.00328253,1.54449,0.00364466,1.5592,1.5508,0.00338254,1.61129,0.00334208,1.59189,1.58961,1.58129,1.58091,1.62945,0.00331182,0.00364708,1.46703,1.46513,1.49228,1.44209,1.44175,1.46548,1.46205,1.41875,1.41607,1.42415,1.46876,1.47255,1.47929,1.46326,1.42026,1.42273,1.44631,1.40744,1.38947,1.37314,1.37326,1.36679,1.34432,1.34423,1.31584,1.31619,1.31169,1.30767,1.30887,1.41529,1.35842,1.35998,1.29155,1.27936,1.29732,1.28733,1.28919,1.29062,1.34475,1.30731,1.27294,1.2744,1.28663,1.28505,1.2926,1.27088,1.30147,1.29578,1.29506,1.29295,1.29593,1.27438,1.27499,1.25411,1.26743,1.26475,1.26862,1.2949,1.2648,1.28148,1.31791,1.31642,1.34529,1.30289,1.30028,1.31236,1.3192,1.3198,1.32146,1.40128,1.40191,1.39539,1.43323,1.39563,1.40382,1.42508,1.42266,1.41968,1.42636,1.42712,1.42619,1.42486,1.42683,1.43526,1.42674,1.43083,1.42985,1.43375,1.43224,1.43117,1.43238,1.43316,1.43437,1.43494,1.43609,1.43597,1.43617,1.44011,1.44616,1.44307,1.4427,1.44625,1.44564,1.44965,1.44882,1.44903,1.45376,1.46156,1.46096,1.46303,1.46478,1.46472,1.47846,1.47864,1.4788,1.48498,1.47769,1.488,1.48535,1.48544,1.49001,1.48851,1.48901,1.49729,1.5099,1.50953,1.50424,1.50584,1.50296,1.50637,1.50863,1.50774,1.5131,1.51338,1.51522,1.52037,1.51874,1.52481,1.52302,1.52591
0.864257,0.86609,0.864933,0.869321,0.870001,1.35202,0.878735,0.888704,0.888924,0.895007,0.901284,0.90906,0.911563,0.915148,0.9187,0.91908,0.912943,0.913268,0.914621,0.00367388,0.880621,0.884645,0.888108,0.893987,0.89354,0.896492,0.898189,0.90056,0.903502,0.903277,0.904557,0.907818,0.907379,0.899773,0.902973,0.897906,0.898996,0.900352,0.905707,0.905318,0.9296,0.933561,0.936723,0.938872,0.942949,0.949908,0.945582,0.959737,0.953933,0.95628,0.95644,0.956848,0.963454,0.963917,0.965436,0.965816,0.96385,0.966395,0.967761,0.968383,0.968958,0.970911,0.972866,0.974498,0.980001,0.981714,0.984497,0.987132,0.996836,0.99542,0.994982,0.998657,0.999126,1.00185,1.00312,1.00631,1.00695,1.00946,1.01307,1.01404,1.01575,1.01696,1.01316,1.01261,1.0133,0.974071,0.97087,0.958013,0.956216,0.954056,0.95333,0.0035075,1.06258,1.01095,0.993945,1.01793,1.00538,0.964057,0.978353,0.954911,0.956647,0.977394,1.00116,0.998891,1.00509,1.00521,1.00568,1.01241,1.01276,1.03599,1.00078,1.0291,1.02914,1.02664,1.04564,1.0439,1.05025,1.06782,1.1321,1.12994,1.1463,1.1484,1.19776,1.19797,1.20812,1.22689,1.25269,1.25302,1.24974,1.25202,1.25031,1.30599,1.3164,1.3236,1.37091,1.35973,1.36808,1.42217,1.42954,1.46207,1.46532,1.56239,1.48661,1.50399,1.46143,1.45794,1.43959,1.49618,1.47263,1.47799,1.47864,1.47463,1.46442,1.47156,1.47482,1.44054,1.43943,1.46103,1.46104,1.48509,1.48569,1.48084,1.44913,1.45041,1.47516,1.49933,1.45221,1.41837,1.41722,1.39392,1.39374,1.49231,1.48948,1.42485,1.38127,1.38157,1.38222,1.36163,1.37384,1.36974,1.36773,1.36904,1.31218,1.30156,1.29074,1.29311,1.34065,1.39224,1.29878,1.36887,1.35414,1.25364,1.27031,1.28081,1.28196,1.27079,1.27051,1.27818,1.29164,1.29909,1.29199,1.28173,1.28226,1.26623,1.26885,1.29239,1.29607,1.29902,1.31906,1.31621,1.35129,1.31924,1.29188,1.29333,1.29599,1.29579,1.29757,1.27936,1.28785,1.3127,1.32366,1.32149,1.32263,1.30402,1.31515,1.31727,1.31775,1.31699,1.39196,1.37452,1.3743,1.42454,1.43022,1.42723,1.42842,1.41959,1.41646,1.41688,1.41809,1.42269,1.41989,1.42131,1.42047,1.41658,1.41538,1.4226,1.42804,1.42831,1.42992,1.42992,1.43032,1.43034,1.42927,1.43028,1.4313,1.43132,1.43263,1.43288,1.43956,1.44375,1.44117,1.44494,1.44124,1.44157,1.44718,1.44246,1.44745,1.45312,1.45445,1.46186,1.46351,0.00339925,1.47991,1.47731,1.47405,1.47236,1.48105,1.4796,1.47747,1.47781,1.47774,1.47698,1.4778,1.48339,1.48517,1.49191,1.50178,1.49959,1.49942,1.50561,1.50439,1.50818,1.5101,1.51526,1.51004,1.51329,1.52085,1.52424,1.527,1.52683
0.861273,0.862654,0.86381,0.864795,0.869603,0.87999,0.881657,0.882796,0.890177,0.895182,0.8995,0.909702,0.9124,0.913775,0.00343737,0.908097,0.00360051,0.887865,0.871243,0.873635,0.876658,0.877649,0.884033,0.887463,0.894191,0.897359,0.902844,0.904965,0.90441,0.904779,0.90111,0.900858,0.894093,0.89474,0.895762,0.894788,0.898399,0.901472,0.903463,0.904074,0.00327643,0.924066,0.00352677,0.00328285,0.00333504,1.07957,1.12313,0.94589,0.944742,0.947482,0.94685,0.947064,0.946864,0.952815,0.956048,0.956881,0.962643,0.962364,0.963065,0.965159,0.969723,0.971003,0.969691,0.972896,0.976213,0.978757,0.979356,0.988486,0.991,0.997033,0.997544,0.997212,0.998482,0.996822,1.00075,1.00113,1.00564,1.00865,1.00791,1.01087,1.01157,1.01297,1.01513,1.01551,1.01436,0.00336884,0.956615,0.947417,0.945459,0.949271,0.992688,0.98596,0.987189,1.06225,1.00203,1.00957,1.07892,0.962827,0.967529,0.977452,0.976029,0.975395,0.992916,0.993387,0.987324,0.987903,1.00133,1.00863,1.00983,1.00579,1.0249,1.03931,1.06101,1.01823,1.02108,1.03776,1.03878,1.04842,1.04999,1.11947,1.14121,1.12803,1.14641,1.16169,1.17472,1.19194,1.22922,1.23748,1.23114,1.24003,1.24952,1.27806,1.29019,1.29896,1.30539,1.33578,1.3394,1.37897,1.35688,1.35187,1.38627,1.41515,1.45472,1.45957,1.50154,1.48794,1.48876,1.42954,1.4256,1.4479,1.42471,1.4271,1.42678,1.42437,1.39923,1.40311,1.40152,1.37892,1.38085,1.37447,1.38666,1.43476,1.44249,1.45237,1.44668,1.41578,1.42557,1.40343,1.40155,1.42345,1.4229,1.36833,1.36717,1.36654,1.38667,1.36817,1.37734,1.33482,1.33528,1.32971,1.3088,1.28239,1.28623,1.27142,1.27619,1.27048,1.27246,1.28529,1.26685,1.25598,1.2467,1.24781,1.26778,1.32738,1.26606,1.27076,1.27178,1.27908,1.28403,1.28378,1.34135,1.26925,1.27148,1.29016,1.29212,1.33117,1.30648,1.30829,1.3187,1.29472,1.29476,1.30058,1.28837,1.28785,1.28709,1.28227,1.2998,1.30168,1.31688,1.31736,1.30958,1.30566,1.30382,1.3033,1.32418,1.33345,1.32333,1.39115,1.37443,1.37323,1.38473,1.39719,1.40629,1.40199,1.40938,1.41376,1.41353,1.4143,1.41596,1.41651,1.41593,1.41537,1.41301,1.41267,1.41113,1.41748,1.41825,1.42363,1.42254,1.42601,1.42457,1.4248,1.42745,1.43248,1.43166,1.4335,1.4341,1.42778,1.4324,1.4329,1.43505,1.44007,1.43669,1.43651,1.44007,1.43792,1.43888,1.44477,1.45838,1.46064,1.46099,1.467,1.46646,1.46934,1.46766,1.46679,1.46488,1.4627,1.46556,1.46693,1.46801,1.47343,1.47261,1.46973,0.00355141,0.00337988,1.50387,1.50351,1.50513,1.50193,1.50028,1.50591,1.50299,1.51547,1.67097,1.52868,1.52852,1.52438,1.52686,1.53043
0.857755,0.862617,0.863874,0.864996,0.872742,0.873798,0.874946,0.883328,0.880956,0.882705,0.888083,0.894469,0.896833,0.8974,0.897735,0.881907,0.881363,0.870248,0.870911,0.871705,0.873521,0.878413,0.880499,0.887622,0.888772,0.898055,0.898539,0.00344356,0.889569,0.889963,0.88237,0.884624,0.884399,0.884993,0.889709,0.887794,0.889511,0.890676,0.89274,0.90163,0.903815,0.00355842,0.00368498,0.00334216,0.00334231,0.926854,0.927522,0.926673,0.930753,0.932429,0.934391,0.940238,0.947529,0.00347784,0.950291,0.958476,0.957772,0.958981,0.962376,0.964523,0.968493,0.967691,0.965607,0.965404,0.962866,0.970878,0.974727,0.00317737,0.00370848,0.00333527,0.984755,0.993279,0.993567,0.996397,0.996641,1.00105,1.00319,1.00431,1.00618,1.00771,1.01357,1.01389,1.01541,1.01684,1.01544,1.01925,1.02046,1.02113,1.02205,1.01876,0.00350734,1.03472,1.00018,1.00548,1.04222,1.02016,1.0121,1.01669,0.988333,0.992108,0.992063,0.987748,1.00168,0.977594,0.969936,1.01415,1.01969,1.01191,1.0132,1.02224,1.02168,1.03674,1.03733,1.03602,1.07168,1.06694,1.02967,1.03035,1.04999,1.05894,1.06861,1.06977,1.09251,1.09535,1.15138,1.13598,1.17376,1.19244,1.19551,1.22633,1.2436,1.25525,1.26139,1.26186,1.28895,1.30651,1.32387,1.3161,1.33484,1.34212,1.35181,1.42138,1.40363,1.39853,1.45163,1.39808,1.41373,1.41297,1.42903,1.42546,1.38864,1.39904,1.38368,1.36521,1.36497,1.35087,1.34397,1.35015,1.34948,1.36213,1.38908,1.3677,1.37013,1.3907,1.39287,1.40719,1.39658,1.409,1.40145,1.42454,1.36066,1.45359,1.37707,1.36257,1.38942,1.40963,1.33467,1.31967,1.29522,1.30267,1.28808,1.28823,1.29874,1.29648,1.33177,1.33972,1.38527,1.38145,1.25177,1.24113,1.24694,1.26758,1.2844,1.24859,1.2617,1.28181,1.2738,1.2619,1.26902,1.26616,1.27763,1.30862,1.28024,1.28437,1.31222,1.31309,1.29654,1.30678,1.31876,1.32113,1.29191,1.29193,1.29468,1.27899,1.28091,1.30419,1.30939,1.31609,1.3162,1.31029,1.30015,1.30255,1.30419,1.30267,1.31419,1.33246,1.38003,1.36495,1.3644,1.37327,1.37802,1.39031,1.39055,1.39883,1.4079,1.4069,1.41207,1.41238,1.41131,1.41113,1.41219,1.41309,1.41064,1.41045,1.41384,1.41338,1.41573,1.42032,1.42264,1.42962,1.42708,1.427,1.43022,1.42702,1.42893,1.42693,1.42401,1.42942,1.42689,1.42942,1.42908,1.43147,1.43637,1.4359,1.43333,1.43738,1.44465,1.44412,1.44831,1.45165,1.45963,1.46013,0.00356904,1.45102,1.45141,1.4539,1.45397,1.45544,1.4584,1.45944,1.46481,1.46852,1.47399,1.47419,1.485,1.48819,1.48799,1.49414,1.49632,1.49594,1.49821,1.49819,1.49632,1.50199,0.00389074,0.00360717,1.52502,1.52588,1.52316,1.52701
0.855751,0.858794,0.859304,0.00348989,0.00342499,0.868706,0.868658,0.871216,0.87409,0.883,0.884304,0.893306,0.892575,0.893254,0.885639,0.886297,0.8804,0.866345,0.866072,0.866662,0.868391,0.873194,0.876305,0.871351,0.00341314,0.870251,0.876918,0.877309,0.878779,0.879365,0.879766,0.882036,0.883036,0.884007,0.881117,0.881658,0.884002,0.891586,0.8945,0.897126,0.898517,0.90428,0.905211,0.909745,0.91214,0.918833,0.925628,0.925272,0.924729,0.924921,0.927445,0.93249,0.936153,0.941652,0.945423,0.949737,0.956739,0.957289,0.959331,0.959918,0.957813,0.960389,0.959236,0.95848,0.959237,0.961188,0.00354587,0.968582,0.971006,0.00348027,0.976631,0.00332881,0.00324574,0.992719,0.994216,0.995423,1.63853,0.999735,1.00427,1.00823,1.01131,1.01427,1.01335,1.01431,1.01718,1.02065,1.01996,1.0232,1.0248,1.02047,1.02156,1.01956,1.01678,1.01563,1.01205,1.01177,1.0101,1.02239,0.980434,0.980745,0.972745,1.02813,0.985807,1.00115,1.00443,1.022,1.01407,1.0145,1.02657,1.05005,1.02477,1.01645,1.05354,1.05137,1.06317,1.05497,1.06403,1.06668,1.0395,1.03872,1.03917,1.05381,1.06781,1.09607,1.09994,1.11556,1.12407,1.17369,1.14591,1.16639,1.17713,1.22058,1.22802,1.2435,1.24983,1.24565,1.27148,1.27302,1.26888,1.29886,1.30419,1.30839,1.30654,1.31554,1.33268,1.39759,1.35796,1.35762,1.34886,1.36847,1.37512,1.38945,1.36233,1.34025,1.32933,1.34707,1.33029,1.33678,1.43769,1.38978,1.39602,1.39614,1.39604,1.39865,1.35659,1.38085,1.38016,1.35729,1.35799,1.36099,1.35359,1.35501,1.35075,1.33759,1.33658,1.31869,1.33345,1.33557,1.27758,1.27828,1.264,1.2618,1.25728,1.24847,1.25925,1.2445,1.24028,1.24205,1.23616,1.21962,1.22131,1.25258,1.24188,1.2511,1.25881,1.26199,1.26419,1.26087,1.26072,1.26083,1.28207,1.27735,1.27822,1.28109,1.2808,1.28624,1.29073,1.30286,1.3126,1.3035,1.32257,1.31065,1.28876,1.33716,1.33373,1.31293,1.33293,1.29583,1.30804,1.305,1.31378,1.30821,1.3029,1.3092,1.315,1.37102,1.36703,1.36726,1.36922,1.40311,1.38799,1.38707,1.39332,1.39722,1.40649,1.40387,1.4052,1.40399,1.40633,1.41166,1.40994,1.40643,1.40634,1.40928,1.41045,1.41187,1.41406,0.00327885,1.41978,1.42197,1.42475,1.4317,1.43295,1.4308,1.43351,1.42279,1.42085,1.4267,1.42576,1.426,1.43204,1.43415,1.4326,1.43191,1.43471,1.43629,1.44389,1.44218,1.44356,1.44773,1.44415,1.4461,1.44689,1.44823,1.44795,1.45092,1.45463,1.45655,1.45709,1.45815,1.46288,1.46381,1.46661,1.47348,1.48014,1.48484,1.48483,1.48895,1.49161,1.49621,1.49743,1.50205,1.49903,1.50049,1.50674,1.51444,1.51499,1.5142,1.51267,1.51362
0.83286,0.839524,0.841753,0.843944,0.845467,0.854843,0.854561,0.0036095,0.867139,0.867482,0.869332,0.00337128,0.870189,0.864156,0.865846,0.867323,0.865502,0.860417,0.86274,0.864279,0.866885,0.870983,0.867586,0.865282,0.86631,0.869893,0.870532,0.872154,0.875996,0.879884,0.879874,0.879704,0.877783,0.878242,0.879978,0.880591,0.885688,0.88698,0.891008,0.891256,0.899574,0.899883,0.90136,0.902323,0.912761,0.913251,0.917184,0.924407,0.925651,0.926834,0.929776,0.934925,0.93721,0.938589,0.942846,0.943635,0.00387622,0.944389,0.946613,0.947264,0.952287,0.951761,0.954223,0.955666,0.955096,0.958834,0.959162,0.962086,0.96288,0.969531,0.97143,0.973365,0.973632,0.976103,0.98321,0.987038,0.989219,0.00339186,0.998932,1.0008,1.00142,1.00717,1.01309,1.01791,1.01955,1.01933,1.02075,1.0214,1.02122,1.02032,1.0206,1.01979,1.01816,1.01924,1.01444,1.01465,1.00946,1.03916,1.03612,1.03226,1.0083,1.01677,1.01052,1.0002,1.03079,1.01718,1.03946,1.05596,1.01605,1.01631,1.01843,1.02941,1.03755,1.04605,1.0441,1.06849,1.02755,1.05299,1.05261,1.06722,1.06932,1.04466,1.0458,1.10011,1.10315,1.09183,1.09348,1.13673,1.11938,1.11945,1.12036,1.1968,1.21943,1.19584,1.19625,1.23866,1.23086,1.26178,1.26805,1.26702,1.28868,1.2881,1.27527,1.30975,1.28756,1.31255,1.30102,1.3183,1.33391,1.30202,1.33621,1.32877,1.32741,1.34749,1.32723,1.32985,1.33362,1.32758,1.31578,1.31572,1.33616,1.35299,1.35711,1.35063,1.37739,1.36683,1.31377,1.31084,1.35375,1.3099,1.32858,1.32803,1.2949,1.27762,1.27728,1.28926,1.28053,1.2635,1.26336,1.24093,1.23683,1.23067,1.22983,1.23265,1.2455,1.25647,1.22853,1.22989,1.21699,1.21803,1.24447,1.23806,1.23583,1.2359,1.24683,1.22603,1.2412,1.2284,1.22609,1.22769,1.23889,1.23617,1.23699,1.24047,1.27774,1.28059,1.29172,1.2908,1.29811,1.29888,1.3044,1.28634,1.287,1.3031,1.30868,1.30474,1.29864,1.29439,1.29757,1.29777,1.299,1.30436,1.29561,1.30196,1.37364,1.3621,1.36228,1.36834,1.37932,1.39612,1.38345,1.38785,1.38966,1.39364,1.39798,1.40178,1.40472,1.40353,1.40574,1.40973,1.40628,1.40894,1.40713,1.40983,1.40968,1.40102,1.41042,1.41285,1.41147,1.41997,1.42071,1.42335,1.42809,1.42696,1.4269,1.42101,1.42343,1.42254,1.42839,1.43082,1.43074,1.4329,1.43154,1.42728,1.43408,1.43806,1.43777,1.44037,1.43983,1.44139,1.44127,1.44485,1.44687,1.44825,1.45021,1.45044,1.45167,1.45736,1.45646,1.45965,1.46052,1.46852,1.47561,1.47539,1.47999,1.48534,1.48551,1.48616,1.4882,1.4907,1.48962,1.49646,1.49617,1.5008,1.50185,1.51084,1.51442,1.51316,1.51723,1.51428
0.83162,0.834462,0.840105,0.844409,0.845562,0.851754,0.853907,0.855261,0.00347535,0.863285,0.861811,0.862269,0.868835,0.869168,0.86587,0.860584,0.856656,0.850873,0.84931,0.852144,0.852905,0.854174,0.860541,0.863301,0.862371,0.859807,0.863023,0.86872,0.871321,0.87627,0.876785,0.87742,0.876394,0.876628,0.00346974,0.887002,0.881325,0.884801,0.886119,0.889142,0.897864,0.89818,0.900322,0.902492,0.903639,0.95713,0.913263,0.921309,0.923316,0.926723,0.926707,0.928253,0.926149,0.930877,0.931614,0.933594,0.935151,0.937039,0.940954,0.943139,0.946651,0.948214,0.951271,0.950934,0.953298,0.952553,0.956223,0.958863,0.961793,0.962516,0.964494,0.96807,0.971021,0.973308,0.975775,0.979836,0.984756,0.991476,0.991596,0.994098,0.00336074,0.00368973,1.0064,1.01192,1.01382,1.01766,1.01878,1.02049,1.01955,1.01972,1.01947,1.02163,1.02167,1.01332,1.01331,1.01516,1.0153,1.01526,1.01137,1.01775,1.00246,1.00404,1.01457,1.0155,1.01935,1.0048,1.00429,1.01219,1.00908,1.00897,1.01124,1.02752,1.03662,1.01566,1.06388,1.05308,1.02913,1.03572,1.03379,1.04701,1.04739,1.06815,1.07146,1.04665,1.07725,1.0876,1.093,1.08858,1.0757,1.0993,1.10916,1.13571,1.18401,1.16839,1.17049,1.16437,1.19536,1.21599,1.21911,1.23566,1.236,1.24307,1.26142,1.23118,1.26873,1.26037,1.24149,1.2486,1.25951,1.27431,1.31596,1.28098,1.30018,1.30252,1.31467,1.29782,1.30662,1.33394,1.28171,1.27256,1.31372,1.31333,1.28863,1.31003,1.29951,1.3125,1.2681,1.28259,1.25316,1.28126,1.24813,1.2484,1.25317,1.25626,1.27301,1.25776,1.24479,1.25091,1.23356,1.22519,1.24696,1.28868,1.28318,1.26372,1.2183,1.22096,1.2205,1.2373,1.24304,1.24711,1.23754,1.24239,1.2382,1.23872,1.25266,1.23047,1.24066,1.24171,1.22894,1.22924,1.24524,1.27483,1.29839,1.28171,1.28206,1.28114,1.28171,1.27858,1.29326,1.27778,1.29277,1.28167,1.28206,1.27504,1.29106,1.28531,1.2873,1.28716,1.27858,1.2808,1.27384,1.29511,1.30634,1.34742,1.38436,1.392,1.39164,1.38988,1.37203,1.37859,1.37976,1.38697,1.39227,1.39217,1.39441,1.39575,1.40182,1.40173,1.40063,1.39941,1.40199,1.40165,1.40145,1.40265,1.40056,1.40423,1.4091,1.40792,1.41461,1.41811,1.41968,1.42105,1.41975,1.42405,1.42258,1.42276,1.4241,1.42319,1.41805,1.42603,1.42586,1.42712,1.43315,1.43799,1.43967,1.43497,1.43754,1.43765,1.43801,1.44508,1.44506,1.44686,1.44009,1.44779,1.44384,1.44414,1.4482,1.45598,1.4586,1.46289,1.47427,1.47068,1.4795,1.47679,1.4786,1.47823,1.48546,1.48708,1.48649,1.49153,1.49146,1.49373,1.49511,1.50177,1.5039,1.5074,1.50775,1.50764,1.50804,1.50801
0.814786,0.822944,0.824194,0.823811,0.834953,0.836949,0.836942,0.845576,0.852647,0.857363,0.858633,0.858068,0.863753,0.863738,0.860686,0.85919,0.850471,0.852877,0.850012,0.849535,0.853081,0.856347,0.8578,0.85882,0.858383,0.860432,0.860745,0.862602,0.862243,0.861892,0.86796,0.869959,0.873638,0.877126,0.874788,0.880203,0.881297,0.882082,0.882702,0.89574,0.899823,0.901292,0.901387,0.904201,0.904568,0.903146,0.90899,0.907103,0.908377,0.916779,0.919539,0.924364,0.925662,0.92828,0.930839,0.931526,0.932011,0.934109,0.935525,0.938848,0.941224,0.94525,0.944366,0.946103,0.948786,0.94971,0.956205,0.957414,0.959672,0.962196,0.963179,0.965919,0.967121,0.973061,0.975075,0.984794,0.987097,0.989666,0.990447,0.991755,0.988953,0.98969,0.991245,0.00327193,0.00344531,0.00351258,1.0168,1.02163,1.0228,1.02775,1.02831,1.02628,1.0218,1.0173,1.00861,1.0052,1.00464,1.01875,1.00634,1.01099,1.00204,1.01199,1.02122,1.02191,1.01084,1.00305,0.994881,0.999667,0.990926,1.00862,1.01551,1.08024,1.06666,1.08501,1.08327,1.03596,1.03205,1.03228,1.02127,1.04429,1.05989,1.06007,1.0523,1.05104,1.05606,1.04982,1.07098,1.07112,1.08051,1.09178,1.09254,1.079,1.08102,1.12047,1.13642,1.15614,1.16112,1.15799,1.15978,1.16356,1.16474,1.16828,1.169,1.21194,1.21236,1.21464,1.21387,1.21566,1.30216,1.2607,1.27502,1.24991,1.25673,1.25437,1.24643,1.25023,1.24994,1.24916,1.26096,1.26556,1.25757,1.26073,1.25329,1.26123,1.26203,1.22266,1.23028,1.20991,1.22947,1.24449,1.28057,1.28212,1.26298,1.22505,1.2361,1.22895,1.24061,1.24381,1.27534,1.24135,1.25019,1.28982,1.25487,1.21933,1.22241,1.22734,1.23014,1.23457,1.26117,1.26385,1.22878,1.2256,1.23032,1.21731,1.21854,1.2251,1.2298,1.22335,1.22376,1.24878,1.25434,1.28813,1.29539,1.29503,1.28869,1.26567,1.27423,1.29037,1.28183,1.27456,1.27907,1.29467,1.284,1.28556,1.27067,1.26931,1.26793,1.26851,1.27941,1.29318,1.30206,1.36225,1.33824,1.3401,1.36772,1.37837,1.37142,1.37033,1.37232,1.37656,1.37829,1.3832,1.38784,1.39408,1.39327,1.39363,1.39554,1.40195,1.39939,1.39927,1.39449,1.39839,1.39781,1.39748,1.40217,1.40592,1.4149,1.41406,1.41218,1.4135,1.41687,1.42019,1.42009,1.42122,1.41835,1.41996,1.42315,1.42301,1.42269,1.43321,1.43738,1.43547,1.43437,1.43724,1.43714,1.43944,1.43836,1.44524,1.44346,1.44375,1.43836,1.44355,1.44158,1.44202,1.44618,1.45021,1.4574,1.46141,1.46578,1.47489,1.47446,1.47867,1.47747,1.47539,1.47936,1.47823,1.48138,1.48833,1.48706,1.4917,1.49284,1.49274,1.49412,1.50509,1.50598,1.50764,1.50905,1.50911,1.50919,1.51062
0.805522,0.809196,0.815209,0.818724,0.820231,0.984886,0.840835,0.845315,0.846018,0.850475,0.851895,0.859307,0.862554,0.850864,0.855359,0.855314,0.8531,0.85246,0.853715,0.855292,0.856808,0.86129,0.864611,0.8631,0.85615,0.853022,0.855428,0.859534,0.857677,0.861114,0.867766,0.87094,0.874648,0.876371,0.877623,0.883654,0.886774,0.888307,0.889255,0.891098,0.893054,0.894965,0.897126,0.901818,0.900654,0.902612,0.903639,0.90405,0.908164,0.910607,0.91354,0.916543,0.921804,0.925558,0.925677,0.925782,0.927158,0.93135,0.934008,0.93746,0.939177,0.939866,0.942659,0.946357,0.947443,0.944661,0.945944,0.948792,0.947844,0.952036,0.957688,0.96232,0.962723,0.965968,0.00347691,0.00356276,0.987852,0.990771,0.980211,0.983073,0.984281,0.984514,0.981927,0.982728,0.987793,0.00339799,0.00340423,1.02074,1.02047,1.01823,1.01231,1.01298,1.01385,0.996179,1.00154,1.00899,1.00942,1.04325,1.02654,1.02911,1.09135,1.01645,1.01683,0.99421,0.994449,0.970774,0.973853,0.968371,0.971048,0.971559,0.986997,1.03547,1.03461,1.01623,1.01897,1.01505,1.03216,1.05303,1.06078,1.055,1.07418,1.02005,1.02381,1.02537,1.02642,1.01484,1.06037,1.05932,1.05341,1.06198,1.06287,1.08762,1.09681,1.08854,1.0809,1.12666,1.12857,1.12156,1.10209,1.14721,1.15172,1.15092,1.16468,1.15689,1.15087,1.1452,1.16379,1.16105,1.14992,1.19459,1.19521,1.19302,1.19352,1.19484,1.19674,1.18082,1.22083,1.17044,1.15476,1.18356,1.17166,1.19302,1.17804,1.19417,1.20885,1.21641,1.19824,1.20519,1.20838,1.21681,1.24011,1.23894,1.23656,1.24459,1.24119,1.24951,1.26373,1.25629,1.27038,1.26469,1.2414,1.24,1.24034,1.25344,1.22322,1.22549,1.22806,1.22941,1.2197,1.21786,1.22033,1.24989,1.2196,1.21417,1.22458,1.20828,1.22032,1.22297,1.25192,1.25734,1.2862,1.30303,1.30192,1.26895,1.26339,1.26663,1.26792,1.27101,1.26472,1.26339,1.26381,1.26089,1.26459,1.26545,1.26898,1.27916,1.26558,1.28953,1.27302,1.33535,1.34587,1.34427,1.34346,1.36412,1.36036,1.36151,1.36174,1.36936,1.3759,1.37745,1.37716,1.3773,1.37629,1.38234,1.38379,1.38864,1.38929,1.39565,1.39614,1.39521,1.39496,1.39856,1.39898,1.39801,1.39906,1.40199,1.40673,1.41118,1.4102,1.41653,1.41375,1.41633,1.42066,1.42893,1.42626,1.42279,1.42348,1.42575,1.43297,1.43194,1.43429,1.43313,1.43996,1.43712,1.44363,1.44698,1.44663,1.44995,1.44955,1.44469,1.44392,1.44453,1.4422,1.45989,1.4532,1.45835,1.46102,1.45868,1.461,1.46775,1.47554,1.47709,1.47664,1.48165,1.48125,1.48951,1.49199,1.49368,1.49368,1.49835,1.50126,1.49965,1.50532,1.50985,1.5163,1.51295,1.51266,1.51079,1.5106,1.51483
0.803996,0.806642,0.810529,0.810636,0.860235,0.838695,0.839406,0.839289,0.840977,0.84326,0.845684,0.849109,0.849279,0.844479,0.850328,0.848837,0.850498,0.851614,0.8526,0.855645,0.857918,0.860824,0.855307,0.856113,0.852285,0.85182,0.850462,0.850855,0.853495,0.863347,0.869767,0.870477,0.874345,0.874226,0.878198,0.878918,0.882293,0.884899,0.883901,0.885029,0.888791,0.889575,0.892869,0.89293,0.897879,0.896889,0.900576,0.90022,0.906225,0.908227,0.910974,0.913952,0.914269,0.916167,0.919055,0.921648,0.924785,0.925341,0.929279,0.931777,0.932265,0.933614,0.93715,0.935966,0.942189,0.937081,0.938681,0.939962,0.944809,0.00310798,0.960549,0.961153,0.960562,0.961087,0.961228,0.969427,0.973363,0.972549,0.974898,0.983849,0.98402,0.981922,0.980738,0.983618,0.984168,0.0032633,1.01038,1.01189,1.00183,1.00465,1.00874,1.01512,1.00855,1.00858,0.990969,0.989624,0.994506,0.977233,1.00593,1.0224,1.09611,1.04899,1.0103,0.979123,0.993572,0.986369,0.97397,0.974256,0.964432,0.964924,1.01077,0.991616,1.04042,1.02905,1.03087,1.04918,1.03842,1.02158,1.04498,1.03883,1.03942,1.06323,1.06105,1.05425,1.05586,1.05439,1.03187,1.01529,1.06728,1.07818,1.04759,1.07186,1.047,1.05945,1.07518,1.08082,1.08735,1.07957,1.11968,1.1173,1.14768,1.11846,1.13923,1.13269,1.15443,1.13817,1.16365,1.12896,1.13601,1.16711,1.16715,1.16639,1.17564,1.16539,1.1671,1.16849,1.18775,1.14981,1.18253,1.19805,1.20221,1.1806,1.20074,1.22061,1.18742,1.20211,1.20445,1.19903,1.19456,1.20119,1.20244,1.23731,1.20917,1.21534,1.234,1.23302,1.23005,1.23035,1.215,1.23136,1.23307,1.23125,1.22829,1.22567,1.22511,1.222,1.23062,1.23921,1.21042,1.21037,1.19924,1.21339,1.19742,1.2152,1.22192,1.20695,1.21433,1.22602,1.22242,1.24469,1.2607,1.23991,1.24773,1.23097,1.23259,1.23314,1.24531,1.25441,1.23492,1.25689,1.22681,1.24065,1.24061,1.25608,1.28045,1.26003,1.26855,1.32571,1.33228,1.33693,1.33639,1.34346,1.34308,1.35115,1.35362,1.3614,1.36759,1.36756,1.3714,1.37211,1.37284,1.37183,1.37606,1.37657,1.3791,1.38132,1.38669,1.38688,1.39012,1.39044,1.39451,1.3963,1.39831,1.39995,1.40174,1.40487,1.41109,1.41247,1.41689,1.41441,1.4182,1.41966,1.41869,1.42147,1.42267,1.42099,1.41981,1.42713,1.42706,1.42644,1.42983,1.43343,0.00346583,1.44318,1.4476,1.4487,1.45002,1.45253,1.45283,1.45444,1.45685,1.45435,1.45638,1.45617,1.45394,1.45441,1.45597,1.45853,1.46189,1.46393,1.46585,1.4787,1.47616,1.47957,1.47981,1.48478,1.48528,1.49091,1.4903,1.49994,1.50621,1.50628,1.50095,1.50837,1.5093,1.50845,1.51403,1.51435,1.5099,1.51289
0.800962,0.803422,0.805983,0.812243,0.81904,0.821099,0.828578,0.826501,0.829885,0.832974,0.836427,0.835824,0.840199,0.842108,0.847495,0.00333227,0.851143,0.852273,0.849621,0.849936,0.84938,0.846322,0.851102,0.851895,0.843494,0.845476,0.843833,0.843499,0.857785,0.863105,0.864647,0.868335,0.870204,0.872036,0.876887,0.880016,0.879905,0.880727,0.883703,0.883429,0.881717,0.883312,0.882532,0.887599,0.884246,0.887724,0.893117,0.00339618,0.00330323,0.914148,0.913902,0.915557,0.916116,0.916538,0.917286,0.917752,0.91573,0.924884,0.924389,0.931722,0.932468,0.932855,0.932507,0.934733,0.935533,0.934926,0.939527,0.941757,0.942381,0.00323143,2.02989,0.957638,0.959914,0.963057,0.964572,0.966283,0.969776,0.973752,0.97509,0.977161,0.97726,0.979628,0.97859,0.980211,0.988706,0.992456,0.996054,0.999552,0.993924,0.995644,0.996049,0.995063,0.9867,0.983852,0.982625,0.993992,0.9936,0.991778,0.992891,1.04265,1.04462,1.04671,1.02232,1.03902,1.01891,0.968286,0.970365,0.972174,0.995636,0.982078,0.974871,1.0364,1.03722,0.994431,0.990304,1.01487,1.0437,1.05747,1.0429,1.03374,1.03923,1.0403,1.04379,1.04434,1.05252,1.04924,1.07526,1.08097,1.03547,1.05921,1.05846,1.0603,1.02146,1.05131,1.05318,1.07788,1.0686,1.06878,1.09204,1.09976,1.10003,1.12209,1.12218,1.13351,1.141,1.14392,1.14035,1.13967,1.13238,1.13365,1.1548,1.15121,1.15387,1.13356,1.13448,1.13563,1.17105,1.17607,1.14538,1.18057,1.17642,1.17982,1.21593,1.13748,1.13891,1.13957,1.17508,1.17059,1.17865,1.19237,1.19244,1.17954,1.17713,1.17755,1.30924,1.29581,1.22164,1.2251,1.22671,1.22654,1.2274,1.21166,1.26106,1.2548,1.23346,1.23444,1.2332,1.23678,1.23563,1.24458,1.20779,1.20869,1.19764,1.21148,1.2123,1.2217,1.21174,1.25011,1.24341,1.24182,1.24098,1.25335,1.23334,1.2338,1.23709,1.27498,1.22563,1.22635,1.22771,1.22964,1.2287,1.25038,1.2381,1.24004,1.26024,1.30883,1.31039,1.31535,1.31934,1.3259,1.34332,1.34587,1.35021,1.35353,1.35461,1.36195,1.36544,1.36505,1.36715,1.36832,1.37183,1.3705,1.37275,1.37377,1.37278,1.38236,1.38215,1.38281,1.39121,1.39069,1.38947,1.39608,1.39591,1.39677,1.39905,1.40475,1.41093,1.41254,1.41873,1.41534,1.41111,1.41329,1.41404,1.41662,1.41764,1.41805,1.42136,1.42514,1.42622,1.42917,1.43262,1.43769,1.44166,1.44182,1.44328,1.44774,1.44666,1.4476,1.45105,1.45794,1.45518,1.45843,1.45659,1.45525,1.45583,1.46064,1.4591,1.46088,1.46414,1.46221,1.46952,1.47505,1.47534,1.47531,1.48223,1.48535,1.48472,1.4901,1.49576,1.4984,1.50619,1.50606,1.50585,1.49973,1.50083,1.50282,1.50565,1.51854,1.51088,1.50909
0.792808,0.801391,0.804749,0.80724,0.810495,0.811114,0.818919,0.826083,0.827569,0.830036,0.832366,0.836849,0.838306,0.835613,0.833909,0.835293,0.835985,0.835105,0.838434,0.841889,0.842675,0.841241,0.844903,0.839159,0.839847,0.842672,0.84655,0.849538,0.853506,0.867236,0.868197,0.868811,0.872082,0.872891,0.873529,0.878039,0.879792,0.879357,0.878707,0.879909,0.879685,0.880838,0.880264,0.880428,0.881211,0.884408,0.953295,0.00347551,0.90817,0.911079,0.914099,0.916678,0.918418,0.917685,0.918248,0.918382,0.918472,0.918651,0.920367,0.922109,0.922979,0.924645,0.922695,0.926067,0.928287,0.932006,0.93325,0.93681,0.940233,0.940874,1.03934,0.955011,0.956404,0.956648,0.00350135,0.00327453,0.971539,0.972968,0.974353,0.977024,0.975991,0.978255,0.980178,0.00341645,0.00363677,0.989953,0.989705,0.991296,0.994844,0.993703,0.994977,0.995199,0.983808,0.983804,0.984632,0.985042,0.992761,0.991105,0.981179,0.98765,1.02475,1.05252,1.05403,1.03801,1.04172,1.00843,0.981286,1.00903,0.972259,0.972913,0.979277,1.00704,1.00919,1.02261,1.02188,1.01255,1.05344,1.05472,1.0543,1.1014,1.09943,1.16413,1.03682,1.05037,1.05552,1.07706,1.07821,1.05518,1.03746,1.04354,1.07913,1.10037,1.04852,1.03629,1.03938,1.0621,1.10046,1.10105,1.08392,1.08937,1.09512,1.09612,1.09128,1.10076,1.11244,1.11882,1.11205,1.13701,1.12309,1.11338,1.10676,1.10634,1.11829,1.12419,1.11317,1.12932,1.12686,1.12255,1.12331,1.1319,1.16765,1.14063,1.13867,1.14798,1.1622,1.17151,1.16295,1.15875,1.16208,1.16505,1.17137,1.17197,1.17871,1.1935,1.19512,1.18749,1.18973,1.22294,1.22691,1.22619,1.22957,1.22171,1.24647,1.24748,1.23024,1.24969,1.25155,1.22636,1.22717,1.24715,1.22906,1.2097,1.21946,1.21969,1.24947,1.26474,1.21671,1.21668,1.21947,1.22874,1.24697,1.25824,1.22971,1.22337,1.22469,1.25141,1.22075,1.21844,1.22605,1.22697,1.23454,1.24665,1.30822,1.31173,1.30312,1.34578,1.34656,1.31871,1.33378,1.33529,1.34387,1.34839,1.35116,1.35275,1.35729,1.36349,1.36115,1.36335,1.36467,1.36378,1.37024,1.36739,1.37277,1.37077,1.37353,1.37629,1.38095,1.38124,1.38542,1.38648,1.38774,1.39471,1.39362,1.39321,1.40231,1.40396,1.40203,1.40254,1.40868,1.40619,1.41025,1.41132,1.41264,1.41412,1.41793,1.42269,1.42129,1.41799,1.39698,1.42648,1.43115,1.42942,1.4328,1.43648,1.43602,1.44075,1.44092,1.44249,1.44789,1.44841,1.45137,1.45625,1.45438,1.45289,1.45642,1.46067,1.46024,1.46169,1.46639,1.46499,1.47812,1.47558,1.47593,1.47849,1.47878,1.4861,1.48352,1.48197,1.48562,1.49418,1.49848,1.49889,1.49535,1.49678,1.4931,1.49725,1.50037,1.50327,1.51118,1.50869
0.789721,0.790655,0.791772,0.00355834,0.808999,0.00379696,0.00347856,0.00353518,0.00341026,0.914649,0.914249,0.808432,0.81131,0.822594,0.825473,0.830096,0.830145,0.828406,0.827972,0.83481,0.835422,0.83858,0.839245,0.838759,0.838957,0.837597,0.839257,0.843577,0.00328085,0.852705,0.855463,0.85712,0.865646,0.860032,0.860944,0.861173,0.862673,0.863579,0.864182,0.867768,0.872133,0.873984,0.873272,0.874643,0.87437,0.885582,0.890823,0.898776,0.00379794,0.909938,0.00324809,0.931053,0.933208,0.933972,0.906923,0.905796,0.907428,0.907954,0.909672,0.918383,0.919851,0.923599,0.926249,0.928947,0.931483,0.932251,0.933081,0.940322,0.939456,0.939373,0.940724,0.943411,0.947818,0.94778,0.946996,0.00362685,0.95979,0.963479,0.964725,0.970695,0.9745,0.97568,0.976578,0.978349,0.979236,0.98184,0.984825,0.988696,0.990014,0.992232,0.995127,0.995369,0.996536,0.992781,0.990654,0.990696,0.986771,0.986849,0.987322,0.989898,0.990475,1.00228,0.999937,1.04019,1.04172,1.04165,1.03579,1.08993,0.99575,0.997398,0.992097,0.989605,0.990841,0.984971,0.998157,1.01595,0.999013,1.00651,1.01897,1.03024,1.02744,1.04572,1.0457,1.0404,1.04018,1.04611,1.05311,1.03733,1.04601,1.09476,1.07684,1.07921,1.06759,1.08547,1.08872,1.07868,1.05134,1.0511,1.0708,1.05702,1.07649,1.07318,1.07243,1.07328,1.07131,1.07337,1.06891,1.07882,1.08108,1.08807,1.09391,1.08876,1.11286,1.11126,1.11111,1.12992,1.11255,1.10571,1.11934,1.11939,1.12062,1.11769,1.12221,1.13152,1.12185,1.15476,1.1329,1.15709,1.14713,1.14848,1.1297,1.14488,1.14467,1.14925,1.18074,1.16226,1.17528,1.18481,1.199,1.22327,1.21881,1.21931,1.22662,1.22627,1.21589,1.2372,1.23264,1.22123,1.22182,1.20841,1.20289,1.19812,1.19791,1.21406,1.22034,1.22135,1.22713,1.22748,1.23204,1.22608,1.23241,1.22164,1.25999,1.22895,1.21294,1.21439,1.20975,1.21235,1.2269,1.25463,1.25402,1.29674,1.30155,1.30701,1.30523,1.31203,1.31618,0.00370463,1.33485,1.34119,1.34586,1.34647,1.34807,1.35119,1.35469,1.35422,1.35793,1.35964,1.35777,1.3579,1.36424,1.36901,1.36876,1.37165,1.37461,1.37726,1.37756,1.3812,1.37983,1.38488,1.38363,1.38248,1.39403,1.39502,1.39353,1.40049,1.40368,1.40589,1.40618,1.4109,1.41079,1.41103,1.41333,1.41562,1.41074,1.41352,1.41536,1.41563,1.42264,1.42005,1.42533,1.42681,1.43102,1.43098,1.43174,1.43706,1.44077,1.44032,1.44705,1.44777,1.45105,1.45433,1.45451,1.45163,1.44888,1.46016,1.45715,1.45878,1.46592,1.46639,1.47318,1.47203,1.47812,1.47817,1.48739,1.4861,1.48512,1.48686,1.48995,1.48894,1.49315,1.49386,1.49362,1.49739,1.4976,1.49839,1.50287,1.50384,1.50798,1.50795
0.790009,0.783323,0.785079,0.00325106,0.794408,0.87714,0.769435,0.00347188,0.00372103,0.894816,0.00346694,0.00310322,0.815126,0.814873,0.816503,0.824847,0.821103,0.819613,0.819421,0.824927,0.00349436,0.819122,0.824422,0.82763,0.830205,0.830499,0.825493,0.826912,0.82755,0.00344995,0.851152,0.841075,0.847689,0.843976,0.846042,0.855193,0.856059,0.859902,0.862261,0.866416,0.874558,0.876103,0.877338,0.874808,0.877411,1.0124,1.09861,1.09916,0.911939,0.91168,0.916386,0.916916,0.919229,0.00328547,0.900559,0.903317,0.905035,0.909485,0.9096,0.920007,0.921891,0.925585,0.928813,0.924851,0.922166,0.925178,0.928349,0.930282,0.931535,0.932727,0.93242,0.93431,0.938573,0.939998,0.943484,0.00328946,0.00353583,0.00364668,1.38882,0.963109,0.968013,0.971665,0.973138,0.974282,0.978238,0.982208,0.984858,0.988741,0.989998,0.991578,0.995023,0.996149,0.99816,0.998634,0.991611,0.991043,0.991621,0.997123,0.995562,0.997561,0.99836,0.999009,1.00415,1.00403,1.00439,1.04636,1.05649,1.05684,1.05496,1.05383,1.02638,1.04575,1.04485,1.07799,0.998108,0.994993,0.992772,1.01951,1.02885,1.05372,1.04331,1.04908,1.07676,1.07656,1.07703,1.03282,1.03486,1.05308,1.07765,1.08706,1.08763,1.05976,1.06288,1.05556,1.0508,1.04903,1.04339,1.0461,1.0753,1.10004,1.10112,1.07514,1.07392,1.08839,1.07733,1.07532,1.07202,1.0848,1.08561,1.08903,1.07989,1.08128,1.07847,1.09193,1.09151,1.11515,1.12892,1.12902,1.10405,1.07925,1.12992,1.11227,1.11483,1.1284,1.1283,1.13001,1.1416,1.12898,1.12787,1.12881,1.13708,1.12219,1.12168,1.16007,1.13743,1.13804,1.15948,1.15801,1.16175,1.18177,1.20192,1.21042,1.20534,1.2052,1.21989,1.20215,1.21109,1.19846,1.20483,1.22615,1.21926,1.21641,1.20389,1.20604,1.2065,1.21609,1.22337,1.2269,1.25678,1.22546,1.22728,1.22745,1.20348,1.21976,1.21712,1.21953,1.23023,1.2293,1.22865,1.30672,1.28898,1.29611,1.30592,1.3047,1.317,1.30848,1.3336,1.33588,1.34152,1.34238,1.34348,1.34392,1.34398,1.35337,1.35843,1.35758,1.35841,1.35762,1.36349,1.36148,1.36165,1.36731,1.36858,1.36954,1.37637,1.3815,1.38139,1.38165,1.38199,1.38087,1.3799,1.38149,1.38513,1.39023,1.38957,1.38607,1.38654,1.39693,1.39574,1.39928,1.39925,1.40406,1.40377,1.40637,1.413,1.41156,1.41227,1.41602,1.41805,1.41854,1.41708,1.41878,1.4264,1.43206,1.43485,1.43539,1.43878,1.43866,1.44151,1.44121,1.44749,1.45349,1.45154,1.45263,1.45205,1.45009,1.45758,1.47016,1.46752,1.4706,1.47273,1.46917,1.47277,0.00338753,1.48867,1.48251,1.48967,1.48855,1.49247,1.48384,1.48816,1.48891,1.48803,1.49318,1.49478,1.4957,1.49529,1.48885,1.48715,1.50403
0.766969,0.76819,0.767696,0.770834,0.763534,0.765854,0.769462,0.769252,0.00343292,0.778133,0.795897,0.799507,0.802949,0.808782,0.811265,0.811626,0.814155,0.810849,0.810123,0.810619,0.810947,0.814952,0.821705,0.822283,0.829308,0.827251,0.827876,0.829619,0.832244,0.830222,0.831824,0.839827,0.836908,0.83963,0.842668,0.850753,0.852417,0.853559,0.856662,0.865677,0.867242,0.867409,0.870331,0.870337,0.871995,0.882157,0.884065,0.893426,0.895127,0.89363,0.00308618,0.91282,0.893044,0.894854,0.896998,0.902301,0.909945,0.910948,0.909709,0.909319,0.910532,0.91917,0.918122,0.917851,0.919714,0.922228,0.924631,0.926176,0.92831,0.931086,0.930797,0.931882,0.935379,0.936264,0.938816,0.940444,0.947713,0.94925,0.95242,0.958344,0.959966,0.968295,0.970157,0.97451,0.976933,0.97897,0.981138,0.98282,0.985544,0.98802,0.998089,1.0012,1.00074,1.00264,0.994864,1.00051,1.00652,1.00772,1.0048,0.9985,1.00081,0.997142,0.997645,0.998389,1.05009,1.00791,1.01575,1.01222,1.01598,1.01959,1.0209,1.01868,1.02014,1.06696,1.10106,1.10135,1.08065,1.0823,1.05176,1.0537,1.05729,1.04382,1.03974,1.04658,1.0479,1.04797,1.0347,1.04275,1.03981,1.04305,1.02831,1.04534,1.04333,1.0199,1.01992,1.02118,1.02321,1.02485,1.02619,1.03197,1.04117,1.05866,1.06842,1.06534,1.0739,1.08632,1.08047,1.07009,1.07545,1.13022,1.07501,1.07557,1.07728,1.09512,1.08937,1.09548,1.08865,1.09411,1.1194,1.08633,1.09198,1.09483,1.12979,1.12752,1.1702,1.17158,1.18462,1.18492,1.12479,1.14081,1.14249,1.13964,1.11573,1.11887,1.11297,1.12157,1.1289,1.12388,1.13088,1.13757,1.14544,1.14113,1.16636,1.16989,1.21284,1.21534,1.21056,1.22938,1.22097,1.21548,1.18456,1.17676,1.21082,1.20998,1.18654,1.21416,1.18249,1.19157,1.20501,1.20573,1.20297,1.20089,1.19986,1.19774,1.23018,1.24013,0.00336779,1.28751,1.29229,1.29742,0.00330496,1.36513,0.00339416,1.32834,1.32984,1.33308,1.33608,1.33432,1.33534,1.3394,1.33649,1.33784,1.34319,1.3481,1.35511,1.35679,1.35457,1.35677,1.35631,1.35671,1.36105,1.36131,1.36593,1.37128,1.37188,1.3748,1.3767,1.3803,1.37955,1.37746,1.38094,1.38171,1.38618,1.38559,1.3858,1.38563,1.38554,1.38807,1.39265,1.39807,1.39995,1.40206,1.40127,1.40485,1.405,1.40924,1.40842,1.41859,1.42231,1.41718,1.42483,1.42926,1.42984,1.43294,1.43853,1.43938,1.43776,1.43763,1.44056,1.43968,1.43972,1.44019,1.44937,1.45176,1.45101,1.4532,1.4556,1.45877,1.46133,1.46162,1.46403,1.46432,1.46982,1.47634,1.47843,1.47954,1.50137,1.49004,1.48485,1.49254,1.49207,1.48505,1.49138,1.48961,1.48937,1.49147,1.49184,1.49746,1.49536,1.49591
0.765237,0.768998,0.767329,0.762713,0.763022,0.764566,0.765892,0.769681,0.00345945,0.793169,0.794045,0.799749,0.80215,0.805155,0.809632,0.811948,0.819124,0.81558,0.814334,0.809674,0.810185,0.813571,0.815942,0.817962,0.816383,0.825576,0.826606,0.818021,0.818651,0.81952,0.823678,0.954096,0.834821,0.835893,0.835831,0.837077,0.838008,0.85284,0.853859,0.864086,0.864632,0.860932,0.861484,0.863507,0.865507,0.867556,0.867884,0.00335075,0.891163,0.89199,0.00384028,0.00334503,0.00348592,0.00312362,0.898496,0.901137,0.903117,0.903452,0.904173,0.905002,0.908088,0.908157,0.908935,0.91119,0.911266,0.00336118,0.9221,0.924577,0.925223,0.928659,0.928302,0.929649,0.928534,0.930761,0.935626,0.939259,0.942681,0.949909,0.95152,0.954578,0.959726,0.964774,0.968373,0.971308,0.973063,0.975671,0.978094,0.982084,0.984478,0.988093,0.993796,0.995239,0.997372,0.995047,0.997408,0.994581,0.996526,1.00782,1.00601,1.00976,1.01451,1.01469,1.00011,1.00412,1.00657,1.00775,1.00878,1.01178,1.01412,1.04319,1.05392,1.03599,1.1019,1.10236,1.05601,1.0771,1.07379,1.07368,1.0864,1.10409,1.10509,1.02908,1.06696,1.01621,1.01747,1.01825,1.0226,1.01083,1.00574,1.00303,1.011,1.02938,1.02651,1.02538,1.04058,1.04338,1.05205,1.05432,1.04052,1.04024,1.02432,1.02693,1.03337,1.03488,1.034,1.06976,1.07219,1.08186,1.09416,1.09499,1.07995,1.08058,1.08927,1.0899,1.14992,1.11023,1.08545,1.08817,1.08612,1.08754,1.09687,1.1024,1.10524,1.13711,1.11284,1.12154,1.12641,1.13795,1.09967,1.12347,1.09244,1.08781,1.09377,1.12929,1.12154,1.16125,1.16263,1.11631,1.1173,1.1191,1.13184,1.14791,1.15361,1.16429,1.17844,1.17823,1.18434,1.18497,1.16857,1.16802,1.17182,1.17294,1.189,1.20395,1.17564,1.19133,1.19272,1.19256,1.20143,1.19595,1.19798,1.2054,1.20961,1.22151,0.00378984,1.28182,0.00360275,0.00356854,1.3026,0.0034178,1.31945,0.00339906,1.32688,1.33302,1.33941,1.32985,1.33391,1.33227,1.33117,1.33483,1.33585,1.33466,1.3388,1.34333,1.34522,1.34742,1.35147,1.35009,1.35011,1.35314,1.35309,1.35729,1.35847,0.00355581,1.41187,1.37601,1.37553,1.37632,1.3803,1.38301,1.38295,1.38265,1.37979,1.38372,1.38111,1.3829,1.38214,1.38432,1.38577,1.38866,1.39045,1.39471,1.39664,1.40521,1.40893,1.40946,1.42032,1.41941,1.4249,1.42616,1.42616,1.42818,1.42896,1.43442,1.43769,1.43623,1.43544,1.43611,1.43722,1.43809,1.4409,1.43763,1.43948,1.48193,1.45102,1.48926,1.49659,1.47409,1.46139,1.463,1.46271,1.46692,1.46648,1.46916,1.5022,1.4846,1.47885,1.49952,1.48457,1.48352,1.48301,1.4863,1.48708,1.48883,1.49047,1.48942,1.49212,1.49254,1.494,1.50228
0.758569,0.767055,0.761912,0.762413,0.762744,0.766324,0.766948,0.773341,0.785825,0.787615,0.789298,0.801861,0.802312,0.802778,0.800817,0.798634,0.00341055,0.801946,0.801431,0.80569,0.807978,0.807532,0.810516,0.812832,0.814559,0.817536,0.820452,0.821412,0.817069,0.820415,0.820633,0.822061,0.823463,0.82379,0.832393,0.836811,0.83768,0.00375299,0.847675,0.85348,0.854088,0.85355,0.854868,0.856551,0.857436,0.867226,0.00321227,0.00367418,0.86933,0.872725,0.00362896,0.88044,0.881253,1.26545,0.883519,0.897873,0.895475,0.899094,0.901301,0.90414,0.899097,0.901421,0.899683,0.900345,0.902001,0.904958,0.918107,0.917141,0.918542,0.923186,0.925118,0.926891,0.928624,0.930414,0.936337,0.938396,0.942073,0.943456,0.947792,0.951092,0.953697,0.960021,0.960042,0.96081,0.969959,0.975406,0.976206,0.981415,0.984075,0.984916,0.989932,0.988497,0.990589,0.990535,0.997187,0.998841,0.999955,1.00613,1.00886,1.00913,1.00949,1.01091,1.00981,1.00896,1.01521,1.01801,1.02613,1.02871,1.03166,1.03078,1.02996,1.02036,1.02162,1.021,1.02263,1.01428,1.015,1.02341,1.03495,1.03632,1.00427,1.00575,1.06073,0.982378,0.983486,0.982859,1.00562,0.968661,0.97079,0.983249,0.983195,0.989892,0.984289,0.993072,0.994916,1.00228,1.03205,1.03879,1.07332,1.03762,1.0264,1.01801,1.0189,1.01313,0.998654,1.01655,1.0365,1.04737,1.05006,1.07831,1.08426,1.08717,1.08821,1.10912,1.10582,1.11814,1.09384,1.08471,1.08618,1.1075,1.0943,1.09566,1.10326,1.10557,1.14823,1.16787,1.11961,1.10211,1.10326,1.09245,1.09184,1.08789,1.08845,1.10163,1.11221,1.15295,1.16059,1.12056,1.12152,1.14731,1.14741,1.14834,1.16087,1.15673,1.16163,1.16114,1.17116,1.18862,1.19341,1.18982,1.19092,1.17256,1.19394,1.17786,1.1908,1.17803,1.18083,1.18736,1.20087,1.20138,1.21313,1.22054,1.27412,1.27676,1.28565,1.2882,0.00332337,1.30488,0.00328243,1.32005,1.3199,1.3255,1.32576,1.3295,1.32892,1.32729,1.32938,1.3291,1.33172,1.33225,1.34065,1.33986,1.34105,1.34296,1.34398,1.34536,1.35407,1.35351,1.35119,1.35039,1.35114,1.35338,1.35686,1.36305,1.36859,1.37275,1.37279,1.37793,1.38508,1.38626,1.39178,1.39297,1.38694,1.37949,1.38116,1.3813,1.38142,1.38633,1.38798,1.38875,1.38026,1.38388,1.38469,1.43056,1.42629,0.00344692,0.0034203,0.00355552,1.42054,1.433,1.42744,1.42968,1.42626,1.42308,1.42345,1.42414,0.00339138,1.42291,0.00342545,1.41987,1.41869,1.42359,1.42359,1.47935,1.4817,1.48294,1.44043,1.49242,1.49242,1.45089,1.49251,1.50223,1.47006,1.47153,1.46497,1.4659,1.4702,1.47049,1.47616,1.47595,1.48079,1.48234,1.48356,1.48818,1.48907,1.48977,1.48941,1.49345,1.49083,1.49768
0.755979,0.755755,0.756472,0.757987,0.764408,0.765118,0.775683,0.779891,0.782845,0.78389,0.787063,0.786293,0.787552,0.788698,0.789328,0.798828,0.796723,0.796547,0.800499,0.804087,0.805245,0.804545,0.80457,0.806067,0.804479,0.804867,0.805304,0.80673,0.807376,0.810351,0.80879,0.815844,0.822901,0.825275,0.825124,0.836435,0.839584,0.847663,0.850838,0.851703,0.852956,0.850859,0.849967,0.850302,0.850879,0.855411,0.853021,0.854969,0.856763,0.857209,0.00350687,0.869886,0.876834,0.877207,0.877551,0.879242,0.00328655,0.883827,0.884706,0.00350209,0.898965,0.899142,0.899421,0.897994,0.898107,0.902052,0.905594,0.910291,0.913587,0.917043,0.920346,0.931389,0.933117,0.934867,0.935449,0.938789,0.94019,0.947802,0.95012,0.951434,0.95653,0.962391,0.964367,0.967095,0.973893,0.974628,0.979993,0.984456,0.984019,0.985524,0.987853,0.987962,0.991756,0.996273,0.999084,1.00319,1.00758,1.00912,1.01036,1.01357,1.01455,1.01527,1.0208,1.02311,1.02835,1.02982,1.03215,1.03349,1.02862,1.03258,1.035,1.03575,1.02979,1.01992,1.02022,1.04795,1.05405,1.05196,1.05425,1.05511,0.994242,0.995301,0.989446,0.997947,0.988036,0.974767,1.04327,1.00217,1.00219,0.990888,0.997735,1.00133,0.971839,0.971141,0.971246,0.973077,0.974314,0.975149,0.987802,0.992497,0.993295,1.03361,1.00411,1.00434,1.00824,1.01911,1.0154,1.04982,1.07437,1.08365,1.10229,1.09923,1.1054,1.09682,1.0944,1.09576,1.07442,1.10425,1.10565,1.10795,1.10857,1.1069,1.12631,1.11479,1.11773,1.12683,1.1072,1.10938,1.26396,1.26365,1.11562,1.11771,1.08437,1.10906,1.10937,1.1049,1.14743,1.11475,1.11644,1.1453,1.16708,1.1876,1.18865,1.17912,1.18117,1.15317,1.15268,1.15032,1.15704,1.15939,1.16354,1.16383,1.16273,1.17212,1.19925,1.18777,1.19584,1.19542,1.22419,1.27227,1.27367,1.28535,1.2742,0.00340066,1.29275,0.00342028,0.00323276,0.0033123,1.31299,1.31714,1.31856,1.32035,1.32017,1.32567,1.32918,1.32922,1.33148,1.33256,1.32635,1.32815,1.33373,1.33329,1.33526,1.33659,1.34237,1.3428,1.35079,1.35144,1.34971,1.35086,1.34925,1.34843,1.35056,1.36006,1.36035,1.37342,1.37057,1.37427,1.3792,1.38125,1.38131,1.38282,1.38381,1.38132,1.38362,1.3866,1.38744,1.38829,1.38901,1.37193,1.37401,1.37487,0.00325475,0.00364279,0.00330009,0.00359939,1.40379,0.00302453,1.41082,1.41223,1.41356,1.41194,1.41405,1.41372,1.411,1.41148,1.40744,1.40874,1.40939,1.41151,1.41778,1.41751,1.42104,1.42261,1.42698,1.42907,1.48741,1.44148,1.44036,1.44137,1.44854,1.44903,1.44942,1.45416,1.45865,1.46204,1.46383,1.46921,1.47292,1.47785,1.47745,1.47662,1.48229,1.48371,1.48304,1.48965,1.49015,1.49191,1.49601,1.50221
0.750627,0.750754,0.762097,0.762494,0.76535,0.769627,0.776773,0.77638,0.77782,0.777765,0.780242,0.78023,0.783293,0.782608,0.787837,0.784175,0.787174,0.787835,0.791376,0.792829,0.801869,0.806051,0.807145,0.807352,0.804354,0.802419,0.804292,0.803767,0.801144,0.802409,0.807128,0.809958,0.81146,0.827859,0.829996,0.833364,0.839073,0.8388,0.84431,0.844257,0.846761,0.848888,0.848581,0.849128,0.848182,0.848291,0.852323,0.855502,0.855453,0.857029,0.859078,0.860307,0.865714,0.871078,0.871367,0.873187,0.874018,0.879223,0.883126,0.884518,0.894843,0.8922,0.892275,0.894173,0.897768,0.901954,0.905814,0.907687,0.00327351,0.915444,0.923155,0.931368,0.933847,0.93457,0.93635,0.940487,0.941885,0.949894,0.00327202,0.955122,0.960005,0.960172,0.964153,0.969684,0.971087,0.974335,0.979148,0.982848,0.985726,0.987377,0.988539,0.988931,0.991711,0.995212,0.998284,1.0044,1.00598,1.01044,1.01399,1.01617,1.01577,1.01664,0.00326218,1.01713,1.04969,1.02584,1.02766,1.02878,1.02855,0.00361756,1.03445,1.03548,1.03676,1.02709,1.02723,1.02789,1.04422,1.04051,1.04271,1.05286,1.02588,1.03915,1.07758,1.08006,1.09136,1.09249,0.968594,0.986633,0.993225,0.974652,1.00517,1.02161,0.962944,0.966571,0.9734,0.965604,0.964583,1.022,0.975424,0.970819,0.969731,0.995624,0.997917,1.02563,1.01227,1.02196,1.01793,1.04545,1.04298,1.09451,1.07718,1.06896,1.05557,1.06444,1.0702,1.06562,1.08737,1.08717,1.107,1.0798,1.07403,1.0683,1.0864,1.07515,1.08667,1.09524,1.11025,1.1114,1.11112,1.1194,1.11717,1.10295,1.11534,1.12618,1.13374,1.11299,1.11615,1.1331,1.12442,1.12552,1.14549,1.13557,1.1326,1.13141,1.15579,1.2158,1.13622,1.1483,1.1477,1.15501,1.1574,1.1634,1.16659,1.17867,1.21587,1.21617,1.29553,1.29492,1.262,1.26432,1.26398,1.27792,1.28205,1.29131,1.2929,1.30518,1.30261,1.30845,1.3115,1.31572,1.31772,1.31987,1.314,1.31849,1.31876,1.32213,1.32607,1.32472,1.32612,1.32752,1.33003,1.33656,0.00331579,1.34406,1.34627,1.3484,1.34711,1.34563,1.34697,1.34901,1.34882,1.35133,1.3535,1.35978,1.36024,1.36609,0.00336555,1.37849,1.37945,1.37973,1.38115,1.37058,1.36904,1.36883,1.37455,1.37899,1.38419,1.38545,1.37358,1.36857,1.36917,1.37162,1.38202,1.38181,1.38802,0.00337815,1.39669,1.39835,1.40186,1.39984,1.4059,1.40532,1.40187,1.40651,1.40739,1.40717,1.40737,1.40651,1.41175,1.41284,1.4203,1.4235,1.42595,1.43302,0.00353328,1.43362,1.43447,1.43684,1.43925,1.43927,1.44035,1.44501,1.45003,1.45487,1.45582,1.45815,1.46418,1.46533,1.47208,1.47163,1.47898,1.47834,1.47922,1.48232,1.48424,1.4821,1.4918,1.49191,1.50022,1.49937
0.751867,0.75241,0.757055,0.763027,0.764377,0.766358,0.76876,0.775001,0.77382,0.774011,0.77939,0.780424,0.767067,0.775539,0.77702,0.779329,0.785269,0.78558,0.789991,0.790147,0.787462,0.00335584,0.802627,0.802553,0.799313,0.800477,0.800756,0.796471,0.8015,0.794893,0.801267,0.808409,0.948884,0.00327588,0.830632,0.831151,0.830904,0.832283,0.834801,0.833879,0.839102,0.836274,0.837569,0.840188,0.844367,0.844959,0.847835,0.852478,0.851625,0.851701,0.853755,0.857066,0.85885,0.862708,0.866676,0.870003,0.873622,0.875523,0.877941,0.878874,0.885948,0.887253,0.890716,0.89432,0.89871,0.89898,0.908254,0.909545,0.913959,0.00346729,0.00350545,0.928669,0.930832,0.933685,0.93513,0.936715,0.00356334,0.00356661,0.953666,0.955192,0.957171,0.963055,0.96396,0.0032369,0.974122,0.979028,0.980052,0.981028,0.984761,0.9855,0.986082,0.987974,0.993238,0.995375,1.00025,1.00469,1.00955,1.01263,1.0151,1.01242,1.0121,1.00842,0.00324289,0.00349088,0.00362592,0.00322399,0.00334095,1.02161,1.02344,1.02761,0.00372402,0.00320695,0.00341481,1.02888,1.029,1.023,1.02102,1.02019,0.00331277,1.02493,1.00985,1.00955,1.02719,1.02836,1.09426,1.09335,1.0946,0.994816,0.993336,1.00915,1.03317,0.992283,0.994513,0.992824,1.00323,1.00153,1.00643,0.974643,1.04648,1.05264,1.05533,1.06608,1.02674,1.03373,1.012,1.01387,1.01526,1.02652,1.04691,1.06201,1.08121,1.06837,1.05827,1.07577,1.07148,1.03609,1.10483,1.07742,1.07688,1.07297,1.0811,1.05969,1.05585,1.06394,1.08228,1.1018,1.0812,1.13177,1.12704,1.10732,1.10847,1.09353,1.11339,1.10561,1.09471,1.12614,1.13219,1.11159,1.11202,1.12834,1.13993,1.13041,1.13254,1.14014,1.14696,1.14014,1.15701,1.14973,1.14386,1.16372,1.16078,1.16468,1.23401,1.24665,1.24837,1.2495,1.25409,1.26032,1.26334,1.26596,0.0035361,0.00341987,1.47673,1.29917,1.30242,1.30497,1.3046,1.30702,1.31343,1.31214,1.31173,1.31162,1.3136,1.31341,1.31533,1.31819,1.32597,1.32435,1.33021,1.33078,1.33281,0.00306361,1.3455,1.34725,1.35363,1.35028,1.35011,1.35012,1.35047,1.34901,1.35326,1.35348,1.35477,1.35826,1.35874,1.3665,1.36849,1.37225,1.36898,1.36693,1.3787,1.37852,1.38133,1.38319,1.38377,1.38793,0.00342096,1.35316,1.36933,1.37234,1.37225,1.38195,1.38244,1.38265,1.38682,1.38948,1.39078,1.39091,1.39505,1.39907,1.39888,1.40104,1.39987,1.40222,1.40972,1.41005,1.41136,1.41671,1.41992,1.42121,1.42364,1.43061,1.43125,1.43527,1.43669,1.44126,1.4426,1.44664,1.4472,1.44795,1.44815,1.44756,1.45415,1.45578,1.45509,1.46415,1.46276,1.46613,1.46853,1.46928,1.47409,1.47535,1.48074,1.48105,1.48506,1.48965,1.48949,1.49143,1.4915,1.49217
