1.05092135891728,1.05175749232901,1.05020255010935,1.05092840371313,1.04960756862491,1.05130970649252,1.0494875344509,1.07954646748304,1.08015091520102,1.0802251552274,1.07838567483223,1.07222493735328,1.07832539561257,1.0812274543587,1.07889156226947,1.07595938832621,1.07068477232291,1.08184087722347,1.05434055153562,1.06827699663498,1.03141640148254,1.03055433107672,1.02917071975027,1.03044363131732,1.02605376570846,1.0958991403895,1.01624179429547,1.0086771858612,1.01194129660596,1.01466338455671,1.01065087468571,1.00282207961002,1.00577670929866,0.989591265897395,0.992678811948049,0.982253199526534,0.991461423706163,0.991329837694472,0.992906833816559,0.980685968890731,1.01136499395931,1.00969005920637,1.01192394437677,1.00983461055997,1.01584573795427,1.08416858115088,1.03681297343172,1.0367414076319,1.01608029181696,1.01638072714624,1.01569824160603,1.01774486653616,0.996883989284973,0.979682305749601,0.97945668015759,0.982183949359904,1.00860207394308,1.0143972784179,1.01223411304671,1.01430086742748,1.01406424150504,1.03315877804858,1.00612009323487,0.999218509910185,1.00939509273546,1.00868791732219,1.01727573042945,1.04188365936271,1.04296097103735,1.04195798095422,1.04453122895689,1.04686702704416,1.05260442997459,1.06576098032795,1.07118763104758,1.07248727913363,1.13457062650878,1.16082281093695,1.16128394261192,1.16095722761783,1.1812975850287,1.20996321133834,1.21095947539439,1.21080138822621,1.22410884438104,1.23297953657972,1.24276475957744,1.25132846115368,1.26757292820372,1.29944686390614,1.31097472225439,1.36732900209371,1.36728572920527,1.36518302101358,1.36753240897505,1.36897589618145,1.39750899361443,1.41376071531498,1.41923027991765,1.42470907326007,1.43019015570256,1.43784713646593,1.45974243501338,1.48511510639769,1.48330312066047,1.48129940730609,1.47819293922369,1.46818359537397,1.48182306377342,1.49236807113704,1.50468196289586,1.51636802004972,1.53063376769388,1.54037520486294,1.55982045677295,1.56313385420683,1.57231421547383,1.57782757643871,1.58403181839859,1.59680912157855,1.59407052969117,1.58912315100892,1.59703316479694,1.59933310815936,1.6087419093428,1.61280540241245,1.61183904522697,1.60574020957861,1.61485670197194,1.61670462376098,1.62983703772237,1.63129675048256,1.632937541616,1.63202856211829,1.63855820507613,1.63555960339557,1.64831735984014,1.64821754457489,1.67604675355882,1.7047170302923,1.70539717604271,1.70548665805142,1.7064451820507,1.70670348995073,1.68794807182989,1.68153284939074,1.68501549574201,1.68896418198065,1.69444372379204,1.7159712313672,1.6847942849358,1.68369653813405,1.68484362448098,1.6833564370269,1.67787655609373,1.66367803762328,1.66341710442148,1.66424979320712,1.66441364882991,1.66422980072861,1.66736791428062,1.6699760037377,1.66949508907556,1.66739492951302,1.66931728465131,1.65939158975639,1.6547887675561,1.65069460134188,1.65959637973802,1.67150927722968,1.6712913196219,1.6700127387796,1.65741638631557,1.65218723276465
1.04985049655281,1.05013105722398,1.04948915740747,1.04948610226643,1.04930276464139,1.04997537178271,1.05098037561968,1.05429934823183,1.05805948017514,1.0611147604689,1.06502840193377,1.07069008679056,1.07518548188239,1.07912489134161,1.07895883118316,1.07871514649119,1.06255702552167,1.0578897934303,1.0454158231396,1.03883817091698,1.0302027626006,1.02982450861235,1.02682366631791,1.02380733508618,1.02211390535589,1.01903872925345,1.01706362380163,1.01577126950904,1.0135539626031,1.01238263733371,1.01005564529098,1.00664367709006,1.00431748321308,0.999810060230748,0.994624225312518,0.994119779819086,0.993276684030077,0.994088929616078,0.995203428257221,0.996253329815488,1.01075433721535,1.01095940689526,1.01181677067249,1.01265490763972,1.01333521106311,1.01223814966658,1.01167888549123,1.0121023033599,1.01266019817095,1.01208876925379,1.00750084537653,1.00404510466574,1.00154541596083,1.0048067676968,1.0073430583989,1.00895649178984,1.00778533182609,1.00896122865233,1.0108794223483,1.01289161092058,1.01569659420465,1.01721365438095,1.00848268117585,1.00304479485226,1.00638935901288,1.00844293684978,1.01290697964639,1.02046099633199,1.02682595962542,1.03349417742818,1.03905642949649,1.04347846091929,1.04673079187072,1.06680190575696,1.06930389332711,1.08460830633803,1.12504117831095,1.13293407808581,1.14509426372045,1.15536916412781,1.16900652092711,1.17613503595166,1.1880042162636,1.19962080221873,1.21016515222262,1.21894478748838,1.23029547349004,1.24166034809454,1.25449973219921,1.26614736164663,1.27669454295565,1.28682723478191,1.30060249096237,1.31577700969232,1.32767762639834,1.34000877179343,1.35389934335886,1.3685777090738,1.38267175746604,1.39900947628187,1.41167927532304,1.43070433267804,1.43939549521812,1.44934308351968,1.46122140039818,1.47365997379105,1.47403659697809,1.47130306709162,1.47977147060633,1.48170158366678,1.49630184632441,1.51751510241566,1.52821357956357,1.54969651744921,1.5592569339559,1.56309420073368,1.56853642116083,1.57263223018493,1.57471164618038,1.58020121413539,1.5864593817935,1.59239922225109,1.59528481220618,1.5991457609838,1.60366582728763,1.61585902434302,1.61748178738521,1.61975966360161,1.621248717464,1.62345340731503,1.62741628197423,1.63055007368986,1.63322073290131,1.63520000672974,1.63774898468328,1.64109163283163,1.64561982483266,1.64660362914591,1.66887357723952,1.67216957253043,1.6734648621477,1.68415219453454,1.68155224993053,1.67992129939345,1.67948427428218,1.6804938613703,1.68147876966279,1.68318085515793,1.68303367095655,1.68248905317757,1.68052546923939,1.67722996787682,1.67366828930547,1.67151780181599,1.67168569281574,1.66721109310562,1.66351632453504,1.6630191512918,1.66367937696724,1.66420461252085,1.6666688436012,1.66924975649214,1.67023463441297,1.67052732438641,1.6694910891978,1.66583365375407,1.65121921498184,1.65006223752188,1.64941724820511,1.64988710379175,1.64991302435845,1.650114355838,1.65021743402098,1.65154042771102
1.04897819151756,1.04942888149871,1.04873645136713,1.04900247867476,1.04864007095628,1.04999375615022,1.05012736051074,1.05370528448115,1.0523446855661,1.05015545961326,1.05298747528204,1.04260487521525,1.07460282243808,1.08085832077028,1.08012152618742,1.08162753305118,1.05899209239294,1.05279304450922,1.0412716557821,1.03371654205838,1.0277920684622,1.02017152046261,1.02253385276705,1.02104888720946,1.01985887999432,1.01886626279672,1.01724328110642,1.04022444380571,1.01451995526,1.00959033034817,1.0105912552623,1.00886097682198,1.01144788225805,1.01311118192517,0.992896978182813,0.993084546345274,0.994451989229113,0.995264827361641,0.996422508931092,0.999487078787041,1.01028638290082,1.00978182649429,1.01301828645144,1.01421095209026,1.0137368906732,1.01077549740999,1.01018330221199,1.0107834354108,1.01235021592774,1.01239412566618,1.00257397405434,0.998978533305989,1.0012071280974,1.00671722220286,1.00589650280728,1.00859805788318,1.0028035791276,0.967259092181078,0.983163914051859,0.968598109370784,1.01827872366308,1.01858938342332,1.01276093294138,0.976548414233287,1.00398993080578,1.00727439240087,1.00500516887447,0.993170781068448,1.00585939534997,1.00573128405335,1.00861316302097,1.01890713406295,1.03584042077203,1.06649361926032,1.06800218952298,1.10501925845119,1.11625963816385,1.1219262732549,1.13768300638871,1.1509021750393,1.16428750098734,1.17072491072646,1.17008001625171,1.16963488329343,1.18984444374699,1.19632480822577,1.21170776276779,1.22613803869365,1.21702362780162,1.20611060632026,1.22101482737204,1.24071956000288,1.24614301277145,1.26841009432872,1.29868056396542,1.32698071868285,1.32643216528871,1.32674723610147,1.33428433102573,1.34391022695344,1.38184286268055,1.41986259903932,1.41607812333071,1.41188676060855,1.43579947023749,1.47433725892213,1.47359042050501,1.47306422174507,1.47631342917712,1.47868718142971,1.48817305453355,1.51842791690154,1.52373295168689,1.58849883468264,1.55355629753218,1.5461390207064,1.54988313246321,1.55184677558862,1.55682381473103,1.56186056924121,1.57187599806787,1.59453580358945,1.5947280189742,1.59972639050523,1.59981525774726,1.62289173553635,1.62039665023334,1.64742873858783,1.64477134596483,1.64907150136364,1.64984899424928,1.6691127030527,1.65716851107008,1.66414077836864,1.66235992145847,1.66510429727837,1.64661247112875,1.64571041807326,1.6653213312853,1.66588727900342,1.66914274072601,1.68516955295145,1.68012426866809,1.67478632621828,1.671743209989,1.66911524484093,1.67680311410114,1.68542555978103,1.67466140356675,1.66623941166013,1.66831293283457,1.67068232469189,1.66987019399575,1.67066647543087,1.67067548231523,1.67038555464523,1.6612825064044,1.66067290250309,1.66186671693851,1.66035509364495,1.66437819744726,1.66933650765141,1.67060416727335,1.67516551571212,1.67082788138122,1.67190419285059,1.64970322909664,1.64378032398608,1.6461281931246,1.65055300715484,1.64970349420538,1.65024443766531,1.64926267779351,1.64841817494423
1.04737313067164,1.04749249187158,1.0470717718078,1.0469160264995,1.04727842497474,1.04787651086902,1.0474338562658,1.05445930845599,1.05411039276387,1.05291088346104,1.05387530272825,1.05541908253304,1.0720066473545,1.07337854193614,1.06311451858255,1.05839507571297,1.05232453693343,1.0452978078649,1.03823538120684,1.02761590982194,1.02562050634029,1.02240945730066,1.0226713265442,1.02084201770239,1.01820978918464,1.01671850915852,1.01695250091352,1.01769684984951,1.01652990603228,1.01597874629733,1.01300351622646,1.01224861081915,1.0122142698631,1.01282462456559,0.992014209240113,0.993506543912831,0.995334557395844,0.997873174900629,0.999872455380771,1.00345400654366,1.00938538531454,1.01128193492297,1.01323826940683,1.01479388647046,1.01393007721534,1.01247460145242,1.00645532280307,1.00715639812374,1.00483624549772,1.00337919730402,1.00219654827906,1.0000413773101,0.997732814644116,0.99710467111462,0.997209957294305,0.996621083136078,0.997324844829179,0.996318444109468,0.995501390078481,1.00946364790266,1.01988689617419,1.01873734270686,1.0172122642047,0.996021547825144,0.999318815452501,1.00098008669554,1.00182446064773,1.00004430939114,1.00430439419371,1.00505728010571,1.00647575972978,1.00945547279612,1.02845379998697,1.04022668998066,1.05254078352141,1.0639416982034,1.0789805955171,1.09135210570344,1.10341730658224,1.11550620535748,1.12837650735754,1.14225811019357,1.1566404393293,1.17490681156236,1.18733274677764,1.19118181453154,1.19379561487063,1.1959793635962,1.19837698665311,1.20161131909481,1.21482243807987,1.22932705153745,1.24051735633964,1.25767531025171,1.27027949978933,1.284000717129,1.29820737378672,1.31906673550294,1.32565145874263,1.331740534489,1.35140370664396,1.36468395200687,1.38073848361471,1.39680115685116,1.41281071623806,1.42788316506299,1.44471828207925,1.46904785115508,1.47270617188831,1.4749158105216,1.48127424719829,1.50382999660614,1.50846237581134,1.51510067125131,1.52168743852281,1.52849050965216,1.53679858481309,1.54445072325128,1.55132236477766,1.55618045887135,1.56340048817827,1.58554603951121,1.58976999293846,1.59766368641995,1.59734587327729,1.61579748799244,1.62109993631991,1.62747883697978,1.64161088578783,1.64683685669342,1.64730056413674,1.64807648515667,1.65295349128347,1.66094249180213,1.65819089108922,1.65394875284664,1.64928618870146,1.64821628771007,1.66214917246055,1.66704566470062,1.66875828848214,1.66995114936065,1.67156179105638,1.67328581961764,1.67190648844552,1.66998664656022,1.66926112837997,1.66897795456713,1.66815746740717,1.66627732462362,1.66372088340454,1.66123562837768,1.65978079976671,1.65950537523461,1.66012740826098,1.66107942770906,1.66166697319291,1.66177044621902,1.66197985129718,1.66057024747607,1.65810046407541,1.65531866446005,1.65237571508126,1.65060495419089,1.64945691964384,1.64865877465668,1.64710079006267,1.6447312638657,1.6449491847163,1.64592077258453,1.64668974360688,1.64797905338996,1.64893902899912,1.64917325909571
1.0461117446168,1.04578783482827,1.04536554492393,1.04270067228961,1.04473824298491,1.04273700311315,1.04525221751856,1.06423736097643,1.05799322724869,1.07124602926552,1.05513349670554,1.05767317003315,1.06565512937266,1.07924089035718,1.05108402857277,1.02349062638007,1.02496064420695,1.02426495835949,1.02439268040172,1.02504887092451,1.02400723486496,1.02255702349166,1.02379165811311,1.00989856291136,1.01316874707414,1.01417684268787,1.01653996505885,1.02080734619156,1.01811858105885,1.02110456310784,1.01846949454564,1.05875428654569,1.0190597217677,1.0124339851913,0.992285100410595,0.994025775093649,0.995110561504519,1.02546117382811,1.01322590345305,1.01944821720157,1.01358593652745,1.08761887934655,1.04493901346071,1.07527902714815,1.04358873889286,1.06431435687585,0.999734336766571,0.981473217251413,0.992985417330714,0.989741811288563,0.991296492518504,0.989769118450894,0.993246146512812,0.99080650018099,0.993232863218797,0.990984661644659,0.995029550790152,0.99698034026756,0.996499703042602,1.0208975499485,1.02163331248527,1.02328765601827,1.01960574203253,0.995566861816626,0.997621112139163,0.998714262591146,1.00034150376118,0.980891626828776,0.986316492481432,0.982562006356046,0.997207459747027,0.994171720351409,0.996771828242415,0.986405371594702,1.02857287133131,1.04071766576667,1.04070322938238,1.040350874081,1.08039287880307,1.09818061263909,1.09773677146465,1.09842050911104,1.13311306200407,1.18046075396868,1.1834869015674,1.18359717975116,1.16930888702781,1.15561940605721,1.18859314443267,1.18669183267004,1.18961931400975,1.19052330897034,1.19747419990423,1.19942108875019,1.23687314896418,1.24680831930178,1.28316083646216,1.3113233790388,1.31163603794548,1.31186479421885,1.34012547666961,1.34458546000452,1.36387259474974,1.37918320046342,1.38332808846573,1.38785437337248,1.41847988958389,1.46245391403596,1.46144520087026,1.45983852169306,1.47493119877195,1.49730001266311,1.50522558647666,1.50657459733589,1.51283083975703,1.52255164313927,1.52082739686585,1.52025219992339,1.53809169967897,1.54438071652555,1.55569007531189,1.57658763133363,1.5860948324643,1.59684949436235,1.59611581812179,1.60371891938668,1.62218279176991,1.6207414709993,1.63720830320948,1.6421792382503,1.6423397241896,1.64164201360487,1.64941405862656,1.66343942163744,1.65262720868559,1.64605152514694,1.64930155219703,1.65120853046106,1.65733132276253,1.66644741019613,1.66063565480487,1.65680992557622,1.66732598164351,1.67520372368901,1.67324122115929,1.69181216221641,1.66529156351541,1.65722035430471,1.65752252324383,1.65734520579255,1.6544085971536,1.6505884259902,1.64950436670766,1.64682234200695,1.64464542168767,1.64177809191829,1.64046537776968,1.64075726192715,1.63831029049615,1.63991193165764,1.65255070622084,1.65622476574059,1.65278914951991,1.6511020959061,1.64677664915401,1.6439299188749,1.6443632323606,1.64299158121506,1.64312935044386,1.64405226388496,1.64283920220388,1.63511107160822,1.6351555365804,1.63477304947728
0.964403064793087,0.964403064793519,0.964400968671728,1.03265061385894,1.03308155807438,1.03394834174604,1.03340625636554,1.03199561215778,1.03049272598846,1.02865718543649,1.02734293245265,1.02742190819539,1.02771557200251,1.02875447844076,1.02859769312857,1.02708670306461,1.02653625575143,1.02583295992366,1.02447050849041,1.02344477799809,1.02306129329901,1.02298395551714,1.02387874669791,1.01143408162022,1.01336918123037,1.01469430897636,1.01571307961171,1.01543663176238,1.01576798489115,1.01658427863944,1.01646631206571,1.04331306600291,1.03062891527111,1.01964424127863,0.992636434015335,0.993416572501264,0.994461498400228,1.00237259928581,1.00790188937458,1.015075214236,1.01183905591111,1.00687937554119,1.00235660934517,0.999069266283154,0.996757728491186,0.995149842603239,0.994594653690525,0.992957735571477,0.99384798771036,0.993704924076195,0.993680310419385,0.994218122254952,0.992871414767652,0.992199049400287,0.992011475165717,0.993207427494571,0.993876408971272,0.995376738012448,0.996423559534987,1.02155551549444,1.02202561874328,1.02248627846411,1.02113670972805,1.01786274971525,1.01429626995439,1.01086674838574,1.00747417644848,1.00384204857666,1.00062774157148,0.999192477877692,0.999514401725475,0.996231286873087,0.998380918218766,1.0147701540796,1.01989388684517,1.02331186196033,1.02859794367774,1.03261691057421,1.06958025828545,1.07317026262019,1.08102167954752,1.08869969609959,1.1086682472402,1.12383172136657,1.13753648205069,1.1498966759504,1.16534408412408,1.17273972382826,1.19016597545848,1.19056596870421,1.19060921210909,1.19142512662929,1.19437407639115,1.19655813898066,1.23006036293982,1.24271501412763,1.26453249890238,1.28202801355837,1.29777975353871,1.31503675620008,1.3342843542754,1.33929541988988,1.34797052641396,1.35949418505484,1.37131151502723,1.38144554971709,1.39141755969126,1.40321246713479,1.42373607392271,1.44439784549819,1.4576329376336,1.49887166318091,1.50276865544234,1.50403787473846,1.50771322681002,1.51117844639719,1.51560223603884,1.52220855404841,1.53403166551289,1.53873678056015,1.54872124912982,1.55545355361174,1.56728413660992,1.57604875306201,1.58520450193093,1.61364372542764,1.62490713131415,1.62457954039972,1.63233923316425,1.63321288711997,1.63574189417,1.64575409017758,1.64913498382278,1.65143013082729,1.65172174163019,1.6497207682272,1.65012358183148,1.65136338355869,1.65259521416498,1.6534986757166,1.6547331553556,1.65466445909294,1.65427514684583,1.65412215279533,1.65381454425756,1.65258984872974,1.65076837727261,1.64843702378509,1.64621637473048,1.64569653473119,1.64700663505821,1.64865858001272,1.64830694653481,1.64657018433454,1.64459197381299,1.64199133006428,1.63960049188182,1.63790965345185,1.63642415148939,1.63686420556162,1.63745009590363,1.63954054253218,1.64158434386989,1.64339767162748,1.64526072912656,1.64483454612938,1.64353174230401,1.64232888139575,1.64110568255916,1.64194565749743,1.64068899837584,1.63811485723918,1.63671528370422,1.63670728868605
0.838550090402765,0.00339143431531539,0.17423117515386,1.03220902929924,1.03255265676812,1.03238493030769,1.03316078996946,1.03282570769176,1.03208955835315,1.03054572859926,1.02876172919243,1.02930233121765,1.02907199341812,1.0299346808989,1.02941906563995,1.02889062196899,1.0280641306296,1.02755458822965,1.02478813654534,1.02118036396105,1.02235879943019,1.02067055213067,1.02334645371609,0.999284042853835,0.99910905056749,0.999453909262271,1.0005467568679,1.00341922950564,1.01127123300671,1.01409248386916,1.01422174664008,1.05941751102427,1.04506590184351,1.05969337153967,0.993141002829239,0.991820732881178,0.992373945562313,0.991500046577604,0.99540496128145,1.02633283643652,0.999767893717363,0.992592620209452,0.993463063362494,0.993950612777455,0.994628211599568,0.994791532810003,0.994916495698783,1.01610162863393,0.99619647919733,0.995752634615942,0.997135554103121,0.998219764783328,0.994093522121429,0.989360662845811,0.992843483794544,0.992598690398966,0.993771580853064,0.992219072208653,0.996394180019462,1.02237306241341,1.02244833654638,1.02302037895253,1.02332541504802,1.06149865843696,1.02636568043953,1.0389237387895,1.02232535824333,1.02588555455014,1.01555657569288,1.01228995046356,1.00604639109145,0.992436107000893,1.00160513447921,1.03430970841237,1.01539200705035,0.996306180927969,1.02850513233411,1.02988264319787,1.06391638334687,1.06754300449633,1.06870434263045,1.06641585550636,1.06861168880694,1.06434559274559,1.11519140652814,1.12209694832832,1.15975213893095,1.18895950767426,1.19040155424039,1.19420234026983,1.19055662288279,1.19020253813315,1.19149639660404,1.1920831830231,1.22264924771044,1.2376400833991,1.23956822503389,1.23936110280863,1.28112361939086,1.31810032031865,1.32793109663041,1.33527771178315,1.33469453414535,1.33370990131977,1.34021725650878,1.34695561531325,1.364642499042,1.38158772317749,1.38110622052006,1.38137164829721,1.42524104856755,1.49683301429461,1.49251598876964,1.48984187253864,1.50367696452714,1.50721672101603,1.51069807939212,1.52440153805267,1.52365087766359,1.52521092020529,1.53134032247393,1.54017238549622,1.55672962366582,1.56424135297294,1.575361913518,1.62894664728894,1.6270811318469,1.62703196896045,1.62852545162107,1.62687131465034,1.63271796478054,1.65244329267459,1.6278763996974,1.61427175261537,1.60982767147867,1.59041089322342,1.61619894976374,1.62019197059468,1.63408520088581,1.65226953864476,1.64514682729717,1.63704014801247,1.63454109630457,1.63178603201278,1.64312377769574,1.65211716796741,1.65003062911581,1.6470855046869,1.64531550185946,1.64554624217177,1.64192830985111,1.63925263268475,1.6356831176401,1.6248283331022,1.62834608162141,1.63231074042293,1.63308214129118,1.63389084347851,1.63435001218619,1.6347000822837,1.63470104684355,1.63588256674794,1.63227800519551,1.6308689253777,1.63982140884805,1.6536902447247,1.63821353329423,1.63049773156718,1.63680451543115,1.64316588436436,1.64109706323757,1.64072265001207,1.63879145797506,1.63929910135427
0.838656108434916,0.0799215779236277,0.116967358861786,0.152325906397326,0.18809702635131,0.224472319861911,0.261606692469319,0.299608951059951,1.02145761295709,1.02305008204583,1.02546644008564,1.02751243462964,1.02788689694176,1.02923229275236,1.02847450922255,1.02855150320652,1.02771124457717,1.02747698935759,1.02527922301527,1.02362556809584,1.02325875681486,1.02341600270006,1.02391730642973,0.999294475594719,0.998627933707514,0.9987586197434,1.00015481656686,1.00357200770608,1.00830372602435,1.01113664965479,1.0123438541966,1.03163876678768,1.01867493194572,1.00810661999564,0.99436205469435,0.994373822302159,0.991419454154892,0.990005203744616,0.987760854231687,0.986918562781592,0.988157757684091,0.991343263385809,0.993256840467577,0.994207825382774,0.994985092364215,0.995650353379804,0.996513341850503,0.998073809951743,0.997637613364227,0.99806634438897,0.998133574582877,0.998522174263415,0.994141240432596,0.992871006350258,0.992334387025478,0.9941191564573,0.99299970003874,0.993091414306488,0.995377910615393,0.998169411231526,1.0007402492378,1.00510252055667,1.00917902561509,1.01287798853097,1.01628872909825,1.01820919447323,1.01964180819721,1.0195239340287,1.01702403268167,1.01437147363004,1.00912208657064,1.0076057860133,1.00436291092101,1.00346965332805,1.00288268960591,1.00284087729547,1.02660424708311,1.02893395432237,1.05984521990076,1.07089491419162,1.07138044279802,1.07273981528809,1.07327547808803,1.07546865344085,1.11166727154318,1.1203502167288,1.1551677806765,1.17301949960254,1.17866915102616,1.18659507925608,1.18722167862497,1.18783730555635,1.18924447095339,1.19145493701431,1.21667073609194,1.22193335308398,1.22741038786412,1.24406683958511,1.26388224032483,1.28295943157908,1.30028275206894,1.32825813645046,1.33079652744722,1.33318644185698,1.33841496313665,1.34129767475448,1.35096950988584,1.35909560891353,1.3662110842323,1.37288241342793,1.40248573559448,1.41661993933849,1.42578077348212,1.43877946016813,1.45207913559101,1.46270528923591,1.4730490048771,1.4833690429661,1.49369219828633,1.50374879029725,1.5138823339939,1.52342367246987,1.53320436243784,1.54303621549287,1.55322648785369,1.56324881647872,1.57170038308174,1.57756945626115,1.5833372972721,1.5956017535665,1.59590077958688,1.59658078984662,1.5987383642056,1.60203469162341,1.60579587386509,1.60893196691113,1.61195946020298,1.61336930496847,1.61409095683609,1.61546828638745,1.61795435853091,1.62119480048057,1.62448953964371,1.6273719277586,1.62981442878297,1.63199649505465,1.63395604316829,1.63543603038788,1.6360519500345,1.63569119099846,1.63387537459153,1.63214237926877,1.63092324374046,1.62808856290844,1.62881782601057,1.63043453384386,1.63103267160376,1.63050049905691,1.62919496337297,1.62716899255666,1.62428322145777,1.62146380157804,1.61985615558756,1.6194519413277,1.61976966232698,1.62064971761789,1.62216650968282,1.62410416082358,1.62623110875688,1.62890105747156,1.63240628192614,1.63633279693835,1.63944640726784,1.64093135227857
0.838730224414062,0.00343667060294403,0.0799242522093419,0.00340079442306266,0.102488225462903,0.00359417149540389,0.112374456458541,0.00342719155011215,1.02074552252374,1.02190894901541,1.02372923116032,1.02472583469948,1.02668911524473,1.02857909222025,1.02782800152737,1.02740237090977,1.02753547797898,1.02825898529926,1.02580725533444,1.02338988507421,1.0242362466631,1.02395181108284,1.02485241364042,1.00076612162507,0.998357695013771,0.997118176685497,0.989931082631118,0.951992949925245,0.95360418262213,0.950027391068584,0.997239430401132,1.04831452575081,1.00750099742468,0.992683415379495,0.99560044112091,1.00192136331411,0.987160635188323,0.983813392508921,0.983444180107409,0.983978916204796,0.984732069621581,1.02794472047922,0.98211085372588,0.975649847289346,0.973384807889987,0.972649770594459,0.971183860701389,0.970227398572543,0.997563163414895,0.998972676650502,0.999611629546482,1.00092803077747,0.993506743446759,0.991109848887919,0.99371490737354,0.993836093000485,0.993608280457389,0.989485381798964,0.9939612339617,0.991874779258388,0.998481282334642,0.996771018859743,0.997189690425109,0.998079817051745,1.01750556411795,1.01831464096877,1.01845256352849,1.01786428172274,1.0177042732374,1.01818706912718,1.00911105585309,1.00650637754825,1.0055002366238,1.00274038091161,1.00317120713179,1.00142649063963,1.02156937855012,1.01441599780138,1.05403171407795,1.07366831282843,1.07283986107919,1.07844726975433,1.0762604528623,1.07752318386174,1.10556655127955,1.11902687010351,1.15010886211643,1.16386859077659,1.17432222563173,1.18724800286695,1.18470719061491,1.18243069348048,1.18336073642116,1.18085117975286,1.20539727387936,1.20731953661094,1.22256044966266,1.24899250539376,1.24150628585321,1.23046158416632,1.27749867233509,1.32611366039665,1.3252161496265,1.32485901963528,1.32779731888313,1.33090254214765,1.33383864302465,1.33646075231698,1.33836315666587,1.33993690695349,1.37682249455645,1.41209716571751,1.41347146824291,1.41480581500601,1.41707083575148,1.41919515706753,1.44184701162909,1.46179231619686,1.46297482862701,1.46453317833973,1.48659287439016,1.50091443620133,1.5083516467291,1.51642498009092,1.51650991364012,1.51544047111061,1.54721548667952,1.57151620722003,1.58120592032416,1.59497693209527,1.58825501839948,1.58250949259967,1.58248815007422,1.58199561106406,1.59134929097368,1.6405191120937,1.61010059670977,1.60710981937676,1.60637114831,1.60615351206933,1.58653521463782,1.57587871307881,1.57764759185242,1.5787870008517,1.59419262272337,1.60271581126302,1.60314023618027,1.60457183998381,1.62202371404471,1.63720167422201,1.63163680804779,1.62364287003148,1.62751520863343,1.69286939968775,1.60274714069803,1.59396534426851,1.60499450435177,1.60767191794777,1.61217502839201,1.61697760158931,1.61591724634949,1.6138396412053,1.61520780492053,1.61399370849898,1.61363569869774,1.61071987032235,1.60608480174873,1.60326849287301,1.60283837099081,1.60150155738198,1.60287160094771,1.60338495491216,1.60115521505805,1.60329276665898
0.838738196193076,0.572324067517025,0.572475697846729,0.57265329650479,0.572726704816214,0.572646440560034,0.572463735563832,0.572309614819008,1.01850881051414,1.01977653959131,1.02045888194379,1.02223742727374,1.02327414360831,1.02533755790918,1.0251264699229,1.02570348085822,1.02549036772196,1.02586983042997,1.02487821099613,1.02464238300087,1.0244982065079,1.02519085664433,1.02528600165559,1.01086161709793,0.996481463924041,0.987104697291988,0.977688674678167,0.955756871454971,0.957816910302483,0.960741502540314,0.963993704049553,0.964049175009254,0.963435742632502,0.963539336955955,0.9648427990146,0.96754309274785,0.971699676133371,0.976521980320109,0.979759798854361,0.980266933411477,0.977197635959919,0.975530955862954,0.974253891422833,0.973202669918229,0.972161069128537,0.970543272160957,0.970045490835306,0.969499749581796,0.996512516957989,0.998398665681308,0.999447153911826,1.0010273729587,0.993878015077243,0.993582841192492,0.993690982048017,0.994938307823748,0.99507599134258,0.99522663527964,0.996575268312924,0.996381266695883,0.99904416317468,0.999225560197339,0.997589924172715,0.996357231976829,1.01653094123545,1.016437368655,1.01620613445533,1.01646338917104,1.01564438144008,1.0153454735657,1.01014145607364,1.00784261422125,1.00513087030659,1.00484981416535,1.00574521653895,1.01965472881288,1.02355266667032,1.02922413919058,1.04662812831854,1.05447701580121,1.06253458659981,1.08422290243137,1.08884379841183,1.09010894851127,1.10067988606997,1.1313095531043,1.14555043524512,1.14726804520983,1.15472764114231,1.18510209687897,1.18232352513046,1.18238586433976,1.18281540322714,1.18941862791865,1.20453618207535,1.21231140424554,1.21691127538172,1.22108978983781,1.22543493463548,1.22820716184028,1.25034466268219,1.25942141807062,1.26990659383082,1.28106381322363,1.29175783197036,1.30297939367723,1.31355865025707,1.32062704525008,1.32686356335415,1.33313159180294,1.35248506478962,1.36865409434208,1.38422589885696,1.40468775059775,1.40935384408892,1.41385232921773,1.4322019832739,1.44775683661592,1.45274700226138,1.45801455875742,1.47627302454386,1.48881694847506,1.4976122432734,1.51851799564613,1.51746473046183,1.51671168760258,1.52144021394075,1.52897479513782,1.53720319702737,1.54615060939,1.55602970758628,1.56588502386771,1.57290522163808,1.58304434477122,1.5822593459666,1.58003838931943,1.57632889060405,1.57430102225612,1.5743661484488,1.575732453236,1.57630872651564,1.57681824419072,1.57799896872273,1.57934205187283,1.58147092849004,1.58272432952015,1.58225589921674,1.58194647474462,1.58212606003361,1.58348111414728,1.5859070094706,1.58858147151262,1.590836671151,1.59264525549243,1.59437834006412,1.59633403505126,1.60066220346537,1.60105044851462,1.60026243945217,1.59996618337775,1.5998142178574,1.60001611286832,1.60015042379711,1.60113446662482,1.60204366764326,1.60208748794947,1.60288781374389,1.6025493769763,1.60246419702204,1.60251839530136,1.60256243545973,1.60165583876731,1.59944941974413,1.59895023637576
1.00999937496342,1.01175148800997,1.01074769930892,1.01153007099328,1.01164972874896,1.01325328859126,1.01310698393007,1.01463664006208,1.01593469786118,1.01712148572754,1.01805104499504,1.01874983877181,1.02083069891334,1.02324037212904,1.02299630367709,1.0236254734813,1.02362430967254,1.02373289222251,1.023972236428,1.02415520742074,1.02453371207953,1.02538274842585,1.02522322865074,1.04011384165637,0.99343643969598,0.960735276428625,0.961562545365108,0.956249177227808,0.959607486724181,0.962671763437668,0.963935611334869,0.965267499671602,0.963282210762154,0.961263588852412,0.962031000852788,0.962153723161457,0.966558731373511,0.970137824141843,0.972178101393163,0.972352253725573,0.975826024668099,0.975844032134924,0.974991621557323,0.971361340079017,0.971838344584428,0.967227919331257,0.968400104318973,0.967617841399509,0.994429081685646,1.08615977218393,1.01173260367683,1.02232293387205,0.979748371389174,0.975265776418942,0.977404036644366,0.979943028286306,0.997784238618902,1.0022493106784,1.0008815570458,1.00712282017569,1.0031113825974,1.0027549594156,0.999618396005917,0.995016188863124,1.01370546107799,1.01277529283354,1.01468586891955,1.01320955214416,1.01563115026952,1.01469792118261,1.0111601061582,1.00534006284365,1.00539163241244,1.00501329670897,1.01099999638064,1.02420998916192,1.02497084539171,1.03929470979727,1.03627921638996,1.02910982580536,1.05441014897456,1.10844336837299,1.09025421850786,1.09665667072219,1.09800948435263,1.14246231649638,1.14261714147489,1.11806362594512,1.14553515027745,1.18666211287618,1.17563580872578,1.17022732287988,1.17753782931982,1.20289797790623,1.20406455991535,1.2182271191789,1.21511378928635,1.21187844477577,1.2200149420252,1.22111047907092,1.23753776124339,1.24477001736764,1.25402211954358,1.27375893804864,1.27629255325002,1.28076959374465,1.28583497490534,1.29118744994425,1.3018054050926,1.31967544789486,1.32070492318522,1.32249267364591,1.35996924912606,1.39986161592257,1.40102410443119,1.40149819021377,1.41957113799778,1.44155132953682,1.44412679890524,1.44586042085716,1.46430112327928,1.47750679627434,1.49038656846999,1.52275607375365,1.50747574007759,1.49970427616951,1.49968686193013,1.49879161401099,1.51779209955877,1.53337111431324,1.53250178997413,1.53150956621007,1.55470064061152,1.58411688535014,1.58291963236677,1.58155809504606,1.57325064456218,1.56454042559252,1.57076843532275,1.57738147444484,1.57025781328702,1.55401074057005,1.57372555336916,1.58187579708092,1.58233935204026,1.58586391784827,1.58126935118539,1.57647141030713,1.57623363564371,1.57612190800743,1.5768018365318,1.57902007837594,1.57640723720025,1.57496417145522,1.57442666378758,1.57421298050918,1.59012948600007,1.60160204150313,1.5996821632159,1.59765791230609,1.59900042335979,1.60099908275226,1.59801921369975,1.5946165118678,1.59605403047917,1.60024833958482,1.60072405982108,1.59988248681274,1.60184722829407,1.60234507568198,1.6026884051267,1.60283534715318,1.59944510968966,0.00331391158722646
1.00784871883407,1.00871455394094,1.00899421523557,1.00952534698114,1.01024541841309,1.01118248255286,1.01162125042133,1.01241258932005,1.01323734609333,1.01430682006153,1.01491327468618,1.01614468879604,1.01728777205581,1.01854994425852,1.01934409041636,1.02034012638924,1.02066244395916,1.02161015951263,1.02187901647196,1.02272269863249,1.02298752492829,1.02395287604,1.02407411634904,1.02437817166541,0.989081417002419,0.961185940724223,0.961512906050194,0.960388659174105,0.961846129518778,0.963205666034382,0.964530853754713,0.964400764753718,0.963070412852826,0.961597979061867,0.961467138884447,0.961970053086046,0.964222313406977,0.967516052520984,0.974410919193334,0.974713528492329,0.976336761780133,0.975681279275011,0.975466502882115,0.976685597528596,0.97918687966382,0.982158197852822,0.985027659658026,0.988061282253907,0.991574718725973,0.990609121815542,0.988691005031288,0.985202303752735,0.980541835226396,0.976552221318556,0.976102994126668,0.986089718994658,1.00140850470181,1.00208135667662,1.00151297808179,1.00267448060483,1.00289933175029,1.00289720981429,1.00243367602187,1.00365197552867,1.01057138929165,1.01448354833262,1.01471142950292,1.01592573374875,1.01522854553142,1.01541276152536,1.01172400588326,1.00619545099921,1.00353180818604,1.00352566899955,1.01501153574998,1.02687339779413,1.02683066310644,1.03936319064005,1.03842514282688,1.03943367603131,1.04781716867445,1.07723623297312,1.08156769098842,1.08519943828964,1.08875290957649,1.14129352897611,1.14101766388487,1.13937973694635,1.14454667505428,1.15142113826821,1.15685419946211,1.16191639571955,1.16903651388725,1.17543186676401,1.18383879297065,1.20033853541258,1.20491169745563,1.21552828499987,1.21798316647813,1.21868289379051,1.2299387126208,1.24198318028425,1.25117786654734,1.25653358179638,1.26308836316762,1.26793451769028,1.27890503830838,1.28594495710817,1.29247616205481,1.30088121729309,1.3080228602047,1.31411257920038,1.32977304399988,1.34300346853174,1.36390459851383,1.38602640324387,1.40184314994843,1.42906158800326,1.43721512793275,1.44434623589986,1.45151075039085,1.45903149357653,1.46635190794504,1.4824555444234,1.48598568983645,1.48928987716709,1.49288218647381,1.49701974571816,1.50781995748879,1.51583958032108,1.52048537021004,1.53500348740627,1.5384605945686,1.53915259464443,1.54281170932868,1.54621378694323,1.54825086509798,1.55165154510151,1.55422517519656,1.55805590962179,1.55755986011117,1.55654954908714,1.55742878373921,1.55978455999771,1.56291779726001,1.56582827016461,1.56833093323371,1.57083083971933,1.5736591878288,1.57482733476083,1.57501183304097,1.57732323798915,1.57612204580033,1.57456176378983,1.57504610112646,1.5761898015902,1.57625235384854,1.5757904380569,1.43730240656349,1.43737774660415,1.43749974303084,1.58912697849378,1.59015776755032,1.59249534498949,1.59397476765137,1.59714269048091,1.59864744471347,1.59890868870024,1.59484481367205,1.59462569212242,1.59045813234076,1.58292765827445,1.57718647158179,1.55474309553982
1.00537410103037,1.00660325976479,1.00676003229191,1.00772319722805,1.00836789415587,1.01016062513988,1.00977801087196,1.010683384492,1.01097112838071,1.01183275314602,1.01253074550877,1.01305470939301,1.01460505707033,1.01539071417206,1.0163008539539,1.01552101398597,1.01808800649021,1.01918601390516,1.02021852012129,1.02076076096141,1.02172502426394,1.02294529360048,1.02285797904542,1.0244510301763,0.984536862045911,0.96136532247809,0.962283591338869,0.962612216009058,0.963080871347737,0.965345520632272,0.965366807689618,0.965272242003495,0.96204767925018,0.960447325732752,0.959447157640734,0.958744549151593,0.959137860470452,0.957037303348101,0.976846170454205,0.975243952614532,0.979400258731252,0.999866166672663,0.997694404875667,1.01289922111272,1.00726274037269,1.01418015025581,0.997127110770997,0.996884293156585,0.993014200547918,0.964538796035224,0.965692903718582,0.956129439284714,0.972434104833147,0.974021392525697,0.975270756540749,1.00420751561534,1.00330632727958,1.04156855375732,0.998935217411547,0.968663954184523,0.984229106289653,0.970342024137552,1.0048972218506,1.00579747681646,1.0083972114841,1.02929461084398,1.01555479388175,1.01855416334765,1.0174195778573,1.01552843756303,1.01629161238001,1.00188380496985,1.00211426869577,1.00243303619761,1.01687900266264,1.02925515259001,1.02903585584323,1.03861734947121,1.03898754789942,1.03998478277038,1.04588262384859,1.06880464777015,1.06828862292694,1.06904636758314,1.07882881927671,1.13963424257156,1.13915736501506,1.13603551979789,1.10884863837407,1.0862354443324,1.08762326322406,1.08699997502836,1.14933887518948,1.1520294830065,1.16991245084159,1.18957944058603,1.19951300578984,1.21649650419696,1.21705669117946,1.21643053871039,1.22466014818343,1.24242896573,1.23521781102077,1.2280323941392,1.24808282766817,1.26509320367189,1.26801192052548,1.27063850071151,1.2795073844748,1.28877603307331,1.28907339875254,1.28928623186185,1.30684090351691,1.32510614665899,1.32280266475929,1.32147410297036,1.36756183342431,1.41785622014068,1.40836140733931,1.39464458478853,1.39848638672362,1.40226075865334,1.43797113474883,1.4784653147256,1.47848475501687,1.47760818244986,1.49250408918794,1.49767013924255,1.50222681840592,1.50663912105941,1.51810017157817,1.53361243764406,1.52130704999595,1.51057331024356,1.51207657148272,1.51193652002444,1.54043184359245,1.55268772726915,1.55326612542387,1.56284934475692,1.55948890082112,1.5588434781452,1.5583453635233,1.56036640859566,1.56307877033712,1.56572344400869,1.56436799620554,1.56282345482333,1.56540838448036,1.56892094244642,1.57155775016738,1.57944818698747,1.57755510471141,1.59542452008001,1.57675476123776,1.57999412784316,1.57713451979916,1.57556021617833,1.43737774660415,0.00347555153426782,1.3838549093451,1.58878250796909,1.59004322081616,1.59126322218377,1.59004431604398,1.5862952217267,1.59785025602969,1.65169911379554,1.57246832265088,1.55881997237299,1.55764131260874,1.55631634829597,1.55560693536293,1.55871438303152
1.00280710006474,1.00353734904007,1.00448091286837,1.00508045965655,1.00627140535227,1.00706213642414,1.0076612284754,1.00796382910168,1.00885092837316,1.00963125900454,1.01055602475969,1.01149321677696,1.01252832654382,1.01353371603557,1.01426286585515,1.01495638056952,1.01600157244898,1.01722053606609,1.0180824813319,1.01936071310533,1.01981289003676,1.02074219547579,1.02027496066583,1.0012633212094,0.98116142517602,0.970322810565923,0.964216503471483,0.963426687297304,0.964615362775562,0.966746281434294,0.967670445611778,0.965554646438023,0.960416959061871,0.958241978358965,0.957145705079949,0.957235602356534,0.957175764718134,0.957400811550892,0.980856207320254,0.98220182317967,0.982366311580689,0.99409137441766,0.994413056848195,0.992298801184669,0.991954285798869,0.99309858977996,0.995136338311484,0.995245013980249,0.994108983630587,0.978521816377217,0.966827778412736,0.968799221310541,0.970898892828975,0.972946521267166,0.975100234576887,0.978177315092031,0.981069561035318,0.987791167186443,0.996771887773906,1.0001207457829,1.00324130827994,1.00535963884447,1.00658461576191,1.00723565662298,1.0089523421337,1.01094259653672,1.01309981016019,1.01713250638829,1.01732771332452,1.01825358870284,1.0182321011854,1.00065955249971,0.999737900729787,1.00136163738825,1.01787308962778,1.03047886539154,1.0317519273854,1.03527269509012,1.03790437841136,1.03973770256614,1.04387323905387,1.04566116243644,1.04708449816786,1.04892795147361,1.05164664086838,1.05596602973957,1.06125021554826,1.06990188214453,1.07232485445751,1.07542722768927,1.07959213143644,1.08409882277841,1.14722265939724,1.14814788145286,1.16005863358282,1.16517445877868,1.17303009439248,1.18191732036949,1.19130418113113,1.19953245921204,1.20591676294527,1.21291102252134,1.21802399377364,1.22316133233461,1.2334886362126,1.24209972752225,1.25182827640821,1.25990839016176,1.26524418466306,1.27104615088686,1.2784034886183,1.28548832994469,1.29232214676247,1.29780339217308,1.30385334372121,1.31134547809282,1.32552321991932,1.33831759084131,1.3559875469807,1.37256725829842,1.38624783745615,1.39711475200222,1.40457992290276,1.41928161688099,1.42355559417253,1.43335710356555,1.44427099154791,1.45379610652411,1.46062342157226,1.4692107780728,1.47759300121342,1.48526968355111,1.49253558296271,1.49968420361773,1.50440412271201,1.51629331700295,1.52636634964567,1.53077754747234,1.53089663801609,1.53128144613292,1.53211497209605,1.5336316118995,1.53568504261939,1.53802871793799,1.5405121570026,1.543098948503,1.5458068864796,1.54862846933063,1.5514379552262,1.55392836820198,1.55568643964248,1.55646534214385,1.55654765044222,1.55679533305501,1.55805701283927,1.5603714481142,1.56099630117106,1.56087758309572,1.43749974303084,1.3838549093451,1.38385490955338,1.3838549093451,1.43749677480407,1.58951853044772,1.58962766482618,1.59185653151651,1.59532644149628,1.59536738216906,1.56321553635139,1.55207067509456,1.54508570122567,1.54080434790085,1.53517425874082,1.53106639372713
1.00049063921512,1.00138092974503,1.00225965625827,1.00314099217992,1.00418358673273,1.00565248257694,1.0055762597627,1.00604840700251,1.00695005045955,1.00816043352247,1.00905090223959,1.01016397355472,1.01101559771317,1.01196540903709,1.01272978184882,1.01355878916443,1.01440473741032,1.01501202826761,1.01660867141146,1.01812110926055,1.01869714778949,1.02044637669345,1.01858631800107,0.00352234151893781,0.979092357652956,0.977555569916466,0.96270830297155,0.964020622635111,0.963484798773827,0.971096490306984,0.97069101474976,0.973075187110172,0.956051280998199,0.956456637187592,0.953987484578735,0.951408432645805,0.956227946367807,0.958304742756297,0.984053243285115,0.985286712992277,0.986263281704881,0.989554054345984,0.991533117474102,0.991426798706708,0.991083960810604,0.992625405401061,0.993858247811049,0.993697798828816,0.993263749636258,1.00580390915321,0.966334795155041,0.96714872848752,0.970021507362471,0.969157741288925,0.974053493081495,0.974777642138923,0.977193743990662,0.977107625430252,0.996511222620632,1.01629902824607,1.00372400043586,1.00914696712709,1.00881855863368,0.945497230190246,1.00905975447916,1.00511906153134,1.01225212485306,1.01900184176245,1.01839792072224,1.01769760334086,1.01899541848835,0.99410905139205,0.996111718380682,0.995313155607137,1.01911721653554,1.03006040047231,1.03221171070177,1.03163223190862,1.03657479101427,1.01544049678096,1.02077063774776,1.01496771840522,1.04276564564455,1.04529143347221,1.04308055100313,1.04265061477569,1.05514587221811,1.07106442107958,1.06339041443234,1.05728997963908,1.06835660758491,1.07729194258664,1.14346791152351,1.14622745900575,1.14454963135251,1.14272544025417,1.14560220032206,1.14700339754965,1.1650190463342,1.17409598358324,1.19370968087412,1.20590752842985,1.20195385159942,1.20041468838836,1.220525748099,1.22889091197533,1.22913815436236,1.21585857215894,1.25273167814926,1.26767817284005,1.26364571975839,1.25988076483529,1.26503887174853,1.27776804928491,1.28663224628648,1.3020884148794,1.31294071093738,1.32941758165478,1.32136970051458,1.31310325395685,1.34279885697212,1.36123021605473,1.38800534867157,1.41419462199314,1.41607699707933,1.41920610700368,1.40547103802688,1.39172383760705,1.41443508145223,1.44303708450482,1.44350587778862,1.44426109133586,1.46247416165777,1.48285142649278,1.49783739342227,1.52012516179002,1.52271463773819,1.53368384309011,1.52332256770711,1.51297667582447,1.50513017809539,1.4984803015594,1.50342625214357,1.5086805485936,1.50864480083687,1.50904450899694,1.50864131519702,1.50806227220791,1.50187537085995,1.49565527586638,1.49126408279907,1.48605407337704,1.50103392721159,1.51899997478281,1.53933098886933,1.56224206752338,1.56119965770977,1.55995861699696,1.51328998835319,1.55909961154257,1.3838549093451,0.00345715154029627,1.43737477837739,1.58746832345725,1.58794478280123,1.59623871249251,1.59581786396389,1.5955823286697,1.55580097121143,1.54154550530727,1.50697979748428,1.47998339404074,1.48998320503765,1.49995581113355
0.999688218312585,1.00031103793092,1.00150269458611,1.00227938454345,1.00338547435454,1.00399430386736,1.00472751201216,1.00501185263598,1.00619567567798,1.00706216590244,1.00820530061524,1.00909192329013,1.00979308549533,1.01037013110565,1.01126896663921,1.0121715979098,1.01288952413952,1.01376478953783,1.01471380434903,1.01595106317918,1.01633905817003,1.0169499425391,1.01643741634321,1.00492302061669,0.999517069826168,0.966012878236663,0.960906749104836,0.96098164354971,0.958643614358339,0.953576329177153,0.951299172254056,0.951654602110588,0.952899557721314,0.953621151004051,0.951946963242339,0.951567182381465,0.971589006653913,0.97661221488925,0.985791845996213,0.986743250626178,0.988176606342231,0.989955561766927,0.991209631281711,0.990806923225151,0.990605789658564,0.991784045388566,0.994111595778421,0.990610941589396,0.991120066950378,0.980238162237965,0.965297297472401,0.967227723137153,0.969811978100567,0.97241784945586,0.973851516842939,0.973989851984512,0.977449661347653,0.984373147254695,0.997011673692061,0.998012429443442,1.0009811660464,1.00877185554995,1.01052619686677,1.01204394771614,1.01122650805284,1.0102193082094,1.01276274909794,1.01581438214179,1.01789890125151,1.01873098173974,1.01884845082001,1.01947894489505,1.01961186628814,1.0198332808339,1.02060804077146,1.03364587750733,1.03450584429664,1.03524325456373,1.03839825823916,1.04040923668142,1.04111449387664,1.03995571045106,1.03957350917,1.03887406029484,1.04118140824182,1.04256962372426,1.04421611675679,1.04627802289855,1.04903816329973,1.05263466670216,1.06143080496392,1.1036375753214,1.1412517384201,1.1443190427706,1.14453406091551,1.14645510278872,1.14647854599593,1.14612144373594,1.16027293480827,1.16627272649127,1.18092310418603,1.20154812041684,1.20052263459795,1.20040466527651,1.21572790139227,1.22865403351587,1.22680319771862,1.22246175101326,1.23511924780146,1.2390917572664,1.24711041875511,1.25602258139876,1.263173388461,1.26849519196767,1.27761244640565,1.28591897635226,1.29345374126852,1.29970856467082,1.30519861939716,1.31406448723891,1.32863202724185,1.34601502275559,1.36188792206751,1.37719387691652,1.37916950442318,1.38183475073644,1.38448361839256,1.38791724873455,1.40462413889491,1.41347168204012,1.42368249318628,1.43483851098132,1.4440905967686,1.4525166349496,1.46161397566217,1.4714427695876,1.48056731063064,1.48966556058059,1.49856103396845,1.50534814210678,1.50351608463655,1.50030686120198,1.50140533653757,1.50246094056826,1.50357179759921,1.50426787103488,1.50385669328831,1.5020382922325,1.4991625331524,1.49582108428374,1.49237480538382,1.49025500798884,1.49164451896045,1.49399953031446,1.49198514581522,1.4892890462356,1.48658320734916,1.48423578009792,1.48289960924748,1.48184451566097,1.43749677480407,1.43737477837739,1.4371721231393,1.44550487426105,1.44819291903031,1.4529360817218,1.45859997845963,1.47909276840715,1.47421342283532,1.46899976628771,1.46514309072451,1.46264396999978,1.46110350914689,1.46049265907798
0.998846275352374,1.00008570852072,1.00049490693122,1.00284414356331,1.00226927319727,1.00420698595484,1.00353183087486,1.00490199531096,1.00519459621081,1.00691579981003,1.00739121685816,1.00878605041908,1.0087300132426,1.00868990488289,1.0100321370582,1.01107007511553,1.01179985734776,1.01212032340746,1.0135669521786,1.01403031913274,1.01498833444151,1.01481489276517,1.0150897580458,1.01414990439819,1.00622013205077,0.00360549149169508,0.957919548941991,0.95442702406927,0.956491923110977,0.945788298026406,0.950791499999206,0.947425826066618,0.950314842028559,0.94542873602278,0.946487519524293,0.945784883800326,0.971796518500119,0.989168887279814,0.992722700377124,1.06174923698194,1.03087084717546,1.06370878255674,1.00998808425044,1.01153688389586,1.01103039721039,1.0101357915376,0.997641029510317,0.985216795741672,0.989285582030533,0.964429180175363,0.964740799121171,0.965685170047346,0.971207066818286,0.973570146783153,0.975623127083621,0.958337982892392,0.977823406052544,1.00086951157693,0.996479876606961,0.994314157768026,0.997347361565139,1.01233197118655,1.0119896819546,1.02197534623097,0.996531258547375,0.963945954457776,0.971157900748687,0.964627056802487,1.01806715990144,1.06756860616235,1.01809641467329,1.01824743391448,1.01932529933608,1.02005220943183,1.02175593687349,1.03547537265723,1.03658471750788,1.04512685305269,1.04414704963934,1.04346746518941,1.04166835453301,1.03676748362634,1.03806121795588,1.03493602614812,1.03285268893521,1.02985983128912,1.03742015411694,1.03944609024815,1.04099588237111,1.04233876827746,1.05501704855383,1.12919331104876,1.13918865660999,1.14371670166158,1.14351948472054,1.1523210863517,1.14734057376882,1.14498384526165,1.14472417959437,1.14373229548706,1.16054157572506,1.22140036758502,1.20019073092305,1.20135454623589,1.20987012707971,1.22926351890223,1.22631854842671,1.22295742287847,1.23142150247804,1.23669515414013,1.24079359177625,1.24406504634956,1.25528823308199,1.26521642994362,1.25573191772039,1.24668741936164,1.24357898242502,1.23958111539851,1.28955694409824,1.31339103604991,1.31286483253395,1.3123743468132,1.34238464881557,1.37568884782203,1.3788247905095,1.38264288056653,1.37886562466306,1.37448512783032,1.39123338857425,1.40200355604051,1.40404859940014,1.4059154304698,1.42346208804264,1.43635882852626,1.43554913848133,1.43486277858356,1.46316393857429,1.47781257413757,1.49386142322235,1.52652296396164,1.46646125791281,1.428114322754,1.42949820223181,1.43021288460041,1.43961182271866,1.4528867621226,1.45118227822832,1.44991297936681,1.45439610116066,1.45900841486836,1.45954132716597,1.4601572955104,1.48059514425993,1.49725275244834,1.49251593695384,1.48936022906814,1.48627987455964,1.48292533373426,1.48213228839544,1.48021290636174,1.43535211732542,1.44507786544063,1.43237231500458,1.44485633996019,1.44703173874966,1.44888025080139,1.45559523651879,1.48186930974674,1.45042325429339,1.43523597794637,1.43430732026404,1.433556486156,1.43624313072329,1.43900644897049
0.998106094438206,0.998255364170117,0.999109015620808,0.999579425028591,1.00059572260117,1.00116178033256,1.00229133709173,1.00299339462721,1.00431100555913,1.0053119543815,1.00649093433846,1.00741296748359,1.00795635222614,1.00840750108225,1.00921196154371,1.01005899276029,1.01100234017391,1.01212521551991,1.01283429102521,1.01396812004712,1.01422144266148,1.01496805199111,1.01490950565872,1.01506890850624,1.01049985664952,1.00428501722183,0.997855487511822,0.991297187380396,0.984644871598582,0.977846023570439,0.970036325390468,0.961712911159345,0.954630173447676,0.944518554042289,0.945164934042997,0.945210878495753,0.974501321394553,0.986707200522749,0.994570536531668,1.00186186969989,1.00390400937928,1.00527788057273,1.00790461714381,1.00914263441452,1.00979420713558,1.0087745026044,1.00331428058463,0.996961046117359,0.989978116365064,0.983068698174417,0.978144674836914,0.96969475877491,0.973220590939679,0.975423147409951,0.976993012057952,0.977178165886043,0.977579639880218,0.983809427844237,0.993623824148293,0.994918328753384,0.994323771132198,0.992071311575983,0.989294995882623,0.985862640792432,0.983236569557865,0.981590012794486,0.986501314215571,0.991885947957662,1.01650933448342,1.01532343822344,1.01580582082193,1.01631030640017,1.01726312719514,1.01851971160659,1.02332937275988,1.03703121838869,1.0397157802808,1.04368792781755,1.04448969652157,1.04410252728359,1.04235969908714,1.03924200787885,1.03771172318321,1.03567059638234,1.03199651469815,1.03116158661352,1.03455739811307,1.03826472585835,1.04017267412102,1.04291945241421,1.04913110833987,1.06272271272661,1.07092558624828,1.07960632241482,1.08923941817513,1.0997518325661,1.11074110335543,1.12171938042176,1.13198028861718,1.14084137751777,1.14869773720502,1.15809865428217,1.16972141241861,1.19250775991288,1.19797761703491,1.20300245232539,1.20775035985761,1.21210754657123,1.21519832761064,1.21687419792948,1.21953711411246,1.22447953519923,1.22571619221853,1.22717868414806,1.22880817397901,1.2307706375738,1.23320921857943,1.23630245898386,1.26856340531358,1.28287255894426,1.28989607603097,1.29971433968105,1.30655679278927,1.31382228923356,1.32276302142772,1.33309064947845,1.34359260704259,1.3505555242549,1.35905433162029,1.36695550242117,1.37438010120553,1.38131310527981,1.38765809266512,1.39344572329445,1.39593173691751,1.39889410739643,1.40402435735255,1.41116522437577,1.41941174113773,1.43418425767345,1.43213660789651,1.42996581258472,1.43014370714408,1.43107031776957,1.43248950636605,1.43303328266227,1.43251866605826,1.43106092873594,1.42906198118203,1.4271793300408,1.42619795148686,1.42669203136662,1.42353606133454,1.42244062265907,1.42329828081084,1.4255095081656,1.42821516166814,1.43053198470028,1.43193192356783,1.43250802762276,1.43255901786534,1.43186070452432,1.43118304169881,1.43015450904266,1.42792750685366,1.42425687217456,1.42321567129851,1.42144236753018,1.41938995111719,1.41761199645452,1.41651353623051,1.41625257517346,1.41669781189842,1.41749895212085
0.996830641624999,0.996853807988925,0.996979731261773,0.997476243207151,0.998103685395767,0.999531647115461,1.00024890422933,1.00215924976838,1.00276577719636,1.00450702399397,1.00527770662351,1.00670262230166,1.00710995533952,1.00776540898478,1.00852050323407,1.00886965284963,1.01065024526847,1.01210665112189,1.01288271402166,1.01378735706423,1.01441300547852,1.01493659657862,1.01514424889297,1.01490630152227,1.01570560559489,1.01588009340739,1.01697334602826,1.01826575130116,1.01829515547225,1.01885641939698,1.01917594229847,1.01992665203655,0.984504308823754,0.00346910153638102,0.149879034066439,0.00348622153077193,0.979257803930139,0.984817367789415,0.996145383188484,0.999322164084539,1.00383844044811,1.00113608461536,1.00703034781733,1.00737624203091,1.00945314615425,1.01161581057576,1.01445981960016,1.02015239440037,1.01658937229259,1.01689761253034,0.985721149458541,0.967847847710716,0.977663943362973,0.981809283370614,0.979541653970458,0.975577157387049,0.977030693828468,0.974180825834044,0.988881406251031,0.99748006182713,0.993195541402842,0.992182799674906,0.990183493194296,0.969487765742384,0.976577563455011,0.969628392200076,0.995662729385317,0.999924161974913,1.01492643347544,1.0128940192302,1.0136007590066,1.01189789711746,1.01466174590618,0.999721531115685,1.02307862486393,1.04529367187003,1.0422809904141,1.04285223635036,1.04493329247743,1.02117799728451,1.04497354254136,1.05089416663954,1.04026960149933,1.02557229443029,1.02857622349377,1.02752376611721,1.03124806475227,1.02985254388976,1.03776669627888,1.04538911947824,1.04391169005455,1.04510825519339,1.04307543696368,1.04267961363436,1.05328240172564,1.05288549438153,1.05901666627225,1.05899515768464,1.08787570519754,1.08880234630431,1.09042133284338,1.09084421106888,1.14712114001236,1.18634457760975,1.18045325584595,1.17202870995636,1.17834918919836,1.18506090725025,1.19111264063442,1.19999771503369,1.21492244893175,1.22511110724147,1.2255066313996,1.22668463064496,1.22842043132522,1.23053773871439,1.23073477827336,1.23068297429,1.25835703700159,1.27774313554483,1.27706159497521,1.27789907457346,1.28428877947143,1.2953213779542,1.29689605928763,1.29894757502365,1.30652757590389,1.31214347269688,1.31580571249761,1.32020437281555,1.33426429548774,1.35668636873354,1.35860942307715,1.36118000933367,1.35936004551346,1.35806026741774,1.367150395844,1.38418812195973,1.40478460867147,1.43409712085726,1.41544038836207,1.39815026839815,1.40205826495189,1.40478336344017,1.40637106150376,1.40664120268263,1.40798881384916,1.40919093395478,1.40851793707274,1.40924871028555,1.41984803655648,1.43181023380831,1.41998212840556,1.41084321817089,1.41196808573544,1.41365451997598,1.40883644853615,1.39942525462265,1.39827121782742,1.39877723824865,1.39872038596433,1.39844254827937,1.39932535260713,1.39926182450856,1.41017547296292,1.42044587644332,1.41582144554808,1.41170646049329,1.39753033196782,1.38860903829475,1.37933464242393,1.37300794549965,1.37602459364848,1.37847032504094
0.996466599419859,0.995764157821995,0.995798194989292,0.9956790879707,0.996672392768134,0.9973628299902,0.998826995387159,0.99989255356857,1.00128576063382,1.0024454659244,1.00382306586489,1.00503798111315,1.00593780037881,1.00688529204317,1.00801493591406,1.009410237728,1.01024813647417,1.01152965271961,1.01191598294368,1.01307114622501,1.01331973093954,1.01451141795186,1.01445547879297,1.01522539626591,1.01550110364125,1.01619526762808,1.01674619348801,1.01762989514416,1.01805651105226,1.01873135312139,1.01923841441629,1.02007795480563,1.02013805950579,1.02038602616827,1.01916622754121,1.01806307381242,1.01685223535496,1.01611745705242,1.01521174643064,1.01317208360033,1.00917219883153,1.00834490671581,1.00828419993829,1.00837290346839,1.00976040033233,1.01192499692987,1.01488461131839,1.01661380589141,1.01550999968174,1.01558097308047,0.991021285804905,0.986112335543379,0.986057242042288,0.984074465738488,0.982717215524558,0.982524790592989,0.979403341427039,0.978273202056216,0.985706195120398,0.985560584238277,0.98795794924825,0.988742440635458,0.988611865731874,0.988879595413534,0.995631796544969,1.00060255999128,1.00475155127232,1.00805555193582,1.01488415227601,1.01379736493662,1.0133482206831,1.01276410561403,1.01277781230528,1.00623291699591,1.02131412978829,1.03673132877186,1.03953613263713,1.04211452073729,1.04421972822302,1.04728791175277,1.04786058865767,1.04783339073183,1.04433245359354,1.04209570453625,1.03929154059088,1.03608824798884,1.03291653021873,1.03208360077038,1.03542850645386,1.0381720955559,1.04080432644169,1.04198231691169,1.04136326906051,1.04073438029274,1.05374313781066,1.05467480399133,1.05754121923153,1.058968620388,1.0864054754804,1.08597563600481,1.09019772256681,1.09877087905728,1.11252782384676,1.12492626275188,1.13566488608268,1.14788774094847,1.16005581714157,1.17188180249983,1.18245667661611,1.19273115883945,1.20256997861384,1.22489116519762,1.22473119153492,1.22624657860206,1.22805103883779,1.22984568045346,1.23092284024264,1.23165015924172,1.24815409485453,1.25302653172147,1.2610282044291,1.27119951835479,1.27777176158385,1.29538680410328,1.29670488919454,1.3002980906816,1.30643500606955,1.31053687253688,1.31385825381264,1.31692968554506,1.31952526182285,1.32235886781585,1.32656017045309,1.33130761250505,1.33692067183005,1.34388207373677,1.35234875084016,1.36096545654355,1.368165483158,1.3742428411837,1.38249377963404,1.38967699352537,1.39412196740441,1.40170020493429,1.40322781804214,1.40598307930018,1.40785848933138,1.40959329748098,1.40709486702158,1.40353679273476,1.40087339414743,1.39914623509813,1.39799138160318,1.39694919224604,1.39577548785445,1.39452120524945,1.39329861063064,1.39201148412911,1.39060973418331,1.38925434972105,1.38802090302043,1.38669671036589,1.3849667055981,1.38273880927972,1.3802569998475,1.37795535293924,1.37621181681335,1.37519683946402,1.37484653399393,1.37488990195019,1.37499479147998,1.37485262544745,1.37624503795296,1.37737049022962
0.995310673412154,0.994085024052149,0.993630641176509,0.994413629594065,0.994248123815673,0.996410803886348,0.996541061013426,0.998834507568681,0.999079090926124,1.00086702342736,1.00192874212812,1.00366627576694,1.00452181653679,1.00549861029658,1.00747957384195,1.01007891330768,1.01012951602293,1.01118330988072,1.01151858620358,1.01192217710783,1.01313354599184,1.01351501619717,1.01462185067132,1.01439555448675,1.01571418140581,1.01580583673739,1.01687053850228,1.01734507516152,1.01819679208637,1.01907746288861,1.01977063209683,1.02137743256661,1.02095239965779,1.02210987135317,1.01998525654777,1.01861798491088,1.01762451007143,1.01660660333874,1.01547704409547,1.01224518668761,1.01124509621982,1.00871128400653,1.01000686697344,1.03741009541879,1.03007851912959,1.03940796016773,1.01576347344819,1.01790727925718,1.01536570519731,1.01716797525972,1.000153410156,0.985508561473114,0.986980178767449,0.98867091872412,0.985177866143692,0.983252646628118,0.980654444694094,0.978532208545235,0.984816094089308,0.984123854259604,0.986047365002995,0.984859217263678,0.986581855688284,0.985480705797773,0.999659192461343,1.00853625109933,1.01264450660652,1.01564017545077,1.01543573545417,1.01554689078893,1.01386402035579,1.03348717221694,1.01375770626524,1.00114863208638,1.01916915055454,1.03587200377161,1.03850832681644,1.03915886965473,1.04143510714115,1.06775760977813,1.05394078188688,1.05807707212575,1.05174522314968,1.06465118504599,1.05349671778948,1.0716097666903,1.03254469661407,1.02981797687092,1.03355735721708,1.03281042964772,1.03944363136084,1.03963608736524,1.04059609406644,1.03858144098176,1.05313178268363,1.0747684756538,1.05742500696538,1.05956679346432,1.08520631840012,1.08239054427828,1.08913398687368,1.10568829456811,1.10691166270276,1.10711404109204,1.11364557525637,1.1149087894122,1.12437653732039,1.13978803743966,1.14095030642334,1.14275580797973,1.1730446919173,1.22563060692631,1.22053447240707,1.21265900940611,1.21328735481781,1.21256011291872,1.22107841138857,1.23261062074436,1.24439527623904,1.24761576752577,1.25235004005366,1.25635742153114,1.27027484542288,1.29456949388135,1.29332676432772,1.28950641512988,1.2860953053247,1.28355706608251,1.29080845015978,1.29642572310065,1.29936944386354,1.30251382443058,1.31244277538215,1.3241359584784,1.32421366985409,1.32537193131425,1.32689957724521,1.32924881069122,1.32396355158607,1.31310302559353,1.31215582187816,1.31248560511973,1.35383063617803,1.39995985670872,1.39902116956707,1.39515070630243,1.39951641500882,1.41431278359257,1.40121933067238,1.38472133635475,1.3754445602317,1.36850880275658,1.37946755812817,1.38935425128674,1.38889255283501,1.38730996863955,1.37437908152577,1.36346991990546,1.36330265051883,1.34383956907749,1.35007699504959,1.34534012483388,1.34465670037653,1.3441628663383,1.34275509669647,1.34129081116855,1.34164560422831,1.34077866420083,1.34941959237618,1.36525724779071,1.36363239203246,1.36310821514566,1.36414177950361,1.36647720764162
0.983264062439229,0.986153871514659,0.98944145817767,0.989962203801062,0.991463162394587,0.992362236138913,0.993950267294782,0.994745889804355,0.996496268874681,0.997867203364035,0.999651366588303,1.00121261661077,1.00271497909734,1.00428218914886,1.0058274159393,1.00780527059697,1.00837497667192,1.00963166810764,1.01002562854883,1.01129248250364,1.01206276490961,1.01384763226667,1.01405966335081,1.01529921774913,1.01541319702095,1.01648834304276,1.01675899663835,1.01777509826485,1.01818566191576,1.01916234015246,1.01947938514674,1.02034194007565,1.019996900188,1.02027050125422,1.01932885666745,1.01899828759198,1.01782746081675,1.01739610050666,1.01581653396073,1.01472780732284,1.01279406412324,1.01234400042546,1.01180111042614,1.0121918369875,1.0116716575114,1.01262117786358,1.01409197836608,1.01431586529551,1.01319741323497,1.01121435107204,1.00756441356888,1.00334920924896,0.998488541085322,0.993187702572499,0.987974419354717,0.983404938494778,0.982466171436569,0.982812328949696,0.984556605173422,0.986935896103642,0.991192162508666,0.996782121044951,1.00214144972794,1.00564817574109,1.00766193985775,1.00993543346759,1.01449797279836,1.016591698645,1.0169679910277,1.01558932175738,1.01533595374878,1.0159704602687,1.01574983801786,1.01696186623082,1.01808041669085,1.03804757910627,1.03813931811187,1.03794077855587,1.03899917416936,1.03735408610442,1.0365227669417,1.03630860468422,1.03697319596932,1.03918455358756,1.04310642809273,1.04699016026169,1.0329262643556,1.03395369073477,1.03491331463505,1.03612667882977,1.03836803659731,1.04015462270886,1.04199467117742,1.04765972802419,1.0524134540268,1.05352210832984,1.05636179889323,1.05852834654631,1.08579073642672,1.08580430162537,1.08765421312895,1.09275263114807,1.09840912748889,1.1103248956574,1.11148695757671,1.11276243089835,1.11729592555882,1.13088904607643,1.13406440716768,1.1383266638784,1.14501880299842,1.15293125275726,1.1614059482448,1.17063752014806,1.180239622785,1.18874617865369,1.1958237801272,1.2032267529228,1.210286286925,1.21700038748102,1.22352265938475,1.23011794987632,1.23710032005759,1.24440837743446,1.25185570846798,1.25781599589513,1.26206554636676,1.26698220492983,1.27408389169653,1.28086572015455,1.28669196505837,1.28921601274174,1.29109443147706,1.29446965368175,1.29897199863944,1.30404087646464,1.30649558212832,1.30812128978705,1.31044903801291,1.31171505023266,1.31191629874851,1.31246431980375,1.3161054639763,1.31783802939925,1.31993064201514,1.32336788980212,1.32720637129953,1.33121654822284,1.33461818705745,1.33891616893107,1.34369558562465,1.34853857025688,1.35313552568342,1.35750415721738,1.36140338229541,1.36400102863904,1.36441940446083,1.36341066689649,1.36311015326669,1.35863720772817,1.35522783613988,1.35225952888,1.3433748903263,1.3430471981308,1.3427162679918,1.3422656598201,1.34279497003888,1.34436077039311,1.34918108799106,1.35306479450758,1.35552156986343,1.35652598314298,1.3568830387626,1.35783507166494
0.973421472263596,0.975048501703229,0.983008511553926,0.986596530217862,0.987785242421949,0.989770241228376,0.990702960572696,0.991482138076054,0.993318590295141,0.99536229075448,0.996987960221921,0.998905752979511,1.00060686348464,1.00273209582957,1.00405557899494,1.00633183635109,1.00690302297499,1.00802194248372,1.00921520218361,1.0098098864052,1.01211317528302,1.01362448714021,1.01475602430187,1.01521218526199,1.01603207340812,1.01636049730494,1.01730688961004,1.01804541680049,1.01861794922966,1.01957557929826,1.01965966578831,1.01992570819966,1.01973705975636,1.0182945291892,1.01938596863963,1.01833338653218,1.01870749156147,1.01712777195808,1.0171524549608,1.01504428249752,1.01499512362646,1.01368153375952,1.01373966665825,1.01363012370714,1.01258023152028,1.01225109870639,1.01326379116018,1.01223635730043,1.01218437343213,1.00862279866856,1.0169725547777,1.02497253266099,1.0136621343365,1.01291997983679,1.00540579101427,0.98144696789953,0.995759163593684,1.02585803878275,0.992567122584711,0.987879290733606,1.00198517933171,1.01619443016368,1.01586738554497,1.01586298445034,1.01883666122143,1.02142830078863,1.01825262919212,1.02210198214472,1.01859111047017,1.04268627350474,1.01691706758187,1.0201286280381,1.01784139834935,1.01956755234283,1.01992397818377,1.03912078897559,1.03745955815827,1.03361787604913,1.03060007859775,1.02214476617049,1.03667051986164,1.0373676961923,1.03723954910371,1.04018450727597,1.04351123524278,1.04839938859467,1.03414619013626,1.03530008431211,1.03662016078052,1.0368816665718,1.03876261224849,1.03970378414229,1.04502592538719,1.07345422692949,1.05176519510707,1.05374457709545,1.0555802540334,1.04694867062115,1.08427912816014,1.08725431758234,1.08793455098924,1.08825864520448,1.09382422893197,1.11175781893904,1.10897586582367,1.10359114251003,1.11193917032916,1.12543792126837,1.12305470128218,1.12084941012791,1.11892014541698,1.11701149186044,1.12664487045868,1.14745554464559,1.1522970153475,1.15700148194983,1.16096602339085,1.16572064655669,1.18080221487432,1.19677410244545,1.20510309213454,1.21389631528288,1.20590761549152,1.19808273973933,1.21676491810339,1.23090451016013,1.24697893596608,1.26679619022696,1.27069405234567,1.27330479166973,1.26994025931043,1.26539700251979,1.26962898389658,1.27428191056181,1.29225524874947,1.30637368353904,1.30648530662142,1.30595528870836,1.30437465425506,1.30292318338264,1.29238315699807,1.28138669547823,1.2811247508565,1.28285400502208,1.30559549808492,1.30812583811387,1.31513949176331,1.32508475656655,1.32195319449617,1.31998047924259,1.32169138191401,1.3250662951387,1.33138983034352,1.33705218985175,1.3396436705698,1.34252833249935,1.36017307695245,1.37955240211294,1.36747090262447,1.37240744663505,1.36771825526844,1.37418030551351,1.34250345071367,1.34199373614779,1.33160364888826,1.307388790271,1.31211903350768,1.31369974585717,1.32106337742856,1.33269951971309,1.33237384743129,1.3311410637634,1.34423010399654,1.35877424874743
0.973097500959265,0.974822421994252,0.979205108857854,0.982009833263559,0.985298730039201,0.987984484857057,0.989440136737836,0.989828035770043,0.991521649082929,0.992618236791468,0.994722689568893,0.996383525788273,0.998053116042969,0.999533446418148,1.0008969100279,1.00266217180816,1.00400957886041,1.00636025536959,1.00777176111662,1.00970003887865,1.01118971492357,1.01358594097495,1.01390062388277,1.01509190089251,1.01513189865822,1.01651417956347,1.01653083291628,1.01769524300489,1.01771036935612,1.01871288441746,1.01864488586163,1.01946660154864,1.01902311219004,1.01949573831052,1.01903683989454,1.0195240942683,1.01848581705006,1.01862697583429,1.01701468105231,1.01709890813679,1.01497033605415,1.01512145561035,1.01349648384793,1.01379376299714,1.0125339827972,1.01329289692393,1.01315624906049,1.0137715101492,1.01435914012266,1.01612706028935,1.0173022467362,1.01952990992883,1.01662511554085,1.01439665374141,1.01255854517547,1.01177504949627,1.01119450178206,1.01185477427392,1.01114190030352,1.01285077831024,1.01398471026436,1.01528654677462,1.01642295499097,1.01714136742355,1.01894797095529,1.01929025220849,1.01600788217189,1.01520475999513,1.01693388145216,1.01658818305956,1.01706349728048,1.01797147306316,1.01827878171928,1.02029512798866,1.02245996354605,1.02527101042983,1.02642483698127,1.02759145992569,1.03042281241034,1.03393527908787,1.03635764027661,1.03699409508978,1.03636094741245,1.03702837687261,1.03434108948164,1.03434342627186,1.03520083746436,1.03640290494629,1.03784964926818,1.03826901722028,1.03960466192831,1.04134311767757,1.04608260104413,1.04905387721964,1.05219328405734,1.05439048867814,1.06070798557485,1.06378905572579,1.0795759455114,1.08551883032567,1.08840804852908,1.0903624013489,1.09386725226408,1.09675764256221,1.09877416789671,1.10023102511522,1.10210114146647,1.10632660913922,1.1098628053255,1.11186560862877,1.11260510338979,1.11383835815698,1.12611940027858,1.12998491736912,1.13832953599781,1.14609200579938,1.15498149424214,1.16042124383882,1.17230093318722,1.18308409976997,1.18809780100842,1.1928409078837,1.19731180637137,1.20389370177945,1.21322296195019,1.21868761564188,1.22451961891945,1.23357748245366,1.23913291261619,1.24515641484649,1.24944467058027,1.24992923817999,1.25254800373804,1.2574296756597,1.25899681520504,1.26193248754009,1.26577765414815,1.26998699167998,1.27385610228365,1.27681443675502,1.27867527175533,1.27992377289923,1.28005948516414,1.28610099613845,1.29836173137021,1.30091618233146,1.30499507278399,1.30831517852554,1.31072714591923,1.31231056623324,1.31329381720378,1.31383147492563,1.31404595052945,1.31416129487406,1.31429190667405,1.31436358290177,1.31445402792365,1.31483448018943,1.31564825204709,1.31671959223933,1.31766955465168,1.31816237451134,1.31819486803543,1.31819460193478,1.31863862038549,1.31722299843209,1.31424971343898,1.31597968921301,1.31980729009964,1.32435362665358,1.32930682969118,1.33267527580698,1.33689274344664,1.33971491128557
0.971810615172125,0.97357442795898,0.976010060863724,0.977757626365095,0.982544538350666,1.01980672922168,0.987623078541254,0.988549228762584,0.989104860693236,0.990260559331101,0.992132789766565,0.994458471651852,0.995309691576964,0.99643305359645,0.997760817750985,0.99869339647925,1.00135421928875,1.00465104454155,1.00733341839766,1.00854422241846,1.01138932575568,1.01397401571437,1.01423478857763,1.01430928612428,1.01506757651801,1.01626732439651,1.01653777089301,1.01695922528034,1.01741001018403,1.01741998519023,1.01833623936367,1.01808523352722,1.01924858905698,1.01857836364677,1.01987893634087,1.01864082886856,1.0197752547573,1.01777205067491,1.0186367776368,1.0169224780425,1.01658239267636,1.01400206911755,1.01460915557762,1.01245559754428,1.0133893226607,1.01255472055252,1.01363868507287,1.01359678509433,1.01492446517114,1.0370018351224,1.03666973058469,1.03746193421675,1.02364190569698,1.03127529748564,1.01416979305488,1.02105457508109,1.00899651565625,0.992716724923107,1.00750948142168,1.01957763418015,1.01856162469842,1.0247893682591,1.0204359328632,1.0317227845225,1.01838343411596,1.00670636679164,1.01062345330705,1.01223141644918,1.00854154228944,1.00678926636625,1.01160978100473,1.03936233338485,1.01326685627456,1.00689771925437,1.00751916715595,1.00946454715136,1.01006334751058,1.01057060544028,1.03062768368531,1.03807591295058,1.03663679348852,1.01996244155285,1.03284073896319,1.02902067465497,1.03160964365776,1.03033708324078,1.03671412885539,1.07318976957876,1.04023134314492,1.02737328049513,1.0417340941356,1.05534260959102,1.04979295416309,1.04846532960091,1.05490975176904,1.07161059462229,1.06671259003054,1.06934172205339,1.07328279118123,1.08111138946533,1.07632723561052,1.0469205856101,1.07531501253835,1.0763087780675,1.08567454903667,1.09346761522802,1.09833681985358,1.10613113352345,1.09836997453828,1.09159262262651,1.09698402588003,1.10719966999311,1.10778202600696,1.10623851295416,1.10941429281682,1.11235084542674,1.1137101393141,1.11437403204488,1.14598292599342,1.17792020971012,1.1784910867807,1.17765254174018,1.19063196988789,1.20851726233335,1.19766753621086,1.18871924919597,1.2099723132612,1.23035795113968,1.23135172529723,1.23102396682663,1.2210229033717,1.2126158897114,1.24269011335994,1.26084790791107,1.25846967275337,1.25555966134704,1.25955359779452,1.26291407402065,1.26096433526766,1.2584385903744,1.25769155801,1.25610471581668,1.27228404001366,1.29180104678755,1.29636625184555,1.29936254002166,1.29225337310977,1.28443574343061,1.29351462263757,1.30258998830881,1.30521184511621,1.30488769156737,1.31013591466427,1.31275966687395,1.31282231819712,1.31150141201784,1.31318846884299,1.31474630390118,1.31184589560203,1.310205246824,1.31229081937274,1.31550429896271,1.31617535858595,1.31708570365296,1.31957303787693,1.32771136563924,1.31122422182831,1.30813781210971,1.30653042598109,1.30589242191405,1.31211609798478,1.31993700373814,1.3226880484451,1.32375343678288
0.97175231034913,0.973000919649567,0.975277653571053,0.976975610086182,0.980126110187657,0.982309608937255,0.985360101908039,0.986445406422973,0.987934093236786,0.98869038350617,0.990391724763202,0.991545294098887,0.992834571421972,0.993790140552022,0.994752943759527,0.996100378031062,0.997566337518484,1.00034759292968,1.00394163720529,1.00792049383445,1.01047457685592,1.01219331587654,1.01319406645592,1.01294648888613,1.01318443893519,1.01464364593045,1.01474411663328,1.01556313361963,1.01559796714407,1.01661967008305,1.01671012209764,1.01785208917006,1.01796601051206,1.01924614120889,1.0192259987927,1.02085507927035,1.01949067832027,1.0202614757501,1.0177293223824,1.01775035393909,1.01520872991201,1.01540995091576,1.01313698346306,1.01304228904484,1.01150741237873,1.01245440397638,1.0120761290383,1.01292403684862,1.01517969055982,1.03629400245217,1.033374913884,1.02748457050636,1.01993285010247,1.0144227517915,1.00998314472237,1.00590301109195,1.00555977249342,1.00430170129983,1.00432907259516,1.01990110076608,1.0198214823143,1.02071373016509,1.01933526958895,1.01843288142036,1.0145763891641,1.01068887145281,1.0085153025848,1.00776615813393,1.00685627420177,1.00666910125004,1.00822012560881,1.0087885161776,1.00806222274176,1.00671611153971,1.00699670956539,1.01087823966286,1.01138696475433,1.01151205876822,1.03072408586579,1.03603856077056,1.03526823739609,1.03372732893112,1.03309338940114,1.03300619522829,1.03303481877354,1.0341230562513,1.03723258664115,1.04030538694326,1.04150671337339,1.04331724042818,1.04408572247535,1.047014285483,1.04873622524814,1.04831439327585,1.05703289442738,1.05978301536988,1.06461965548603,1.0683481541108,1.07070611937885,1.07227668069817,1.07360773183345,1.07343048186455,1.07406219080755,1.07692482657681,1.07975526389298,1.08152101069187,1.08304041681272,1.08519346100686,1.08832504252913,1.09187215993466,1.0969680839302,1.10127153024429,1.10411014289127,1.10678192558622,1.10958860693779,1.11220008769686,1.11394041122377,1.11482411518016,1.12138821412448,1.13390746146827,1.14706381331051,1.15924193673062,1.1688707518911,1.1779433346206,1.18049521246162,1.18278283243629,1.18588227066662,1.18968931228496,1.19339210098835,1.1965501583774,1.19951215452112,1.20337469844876,1.2087469312161,1.21465001856793,1.21981881376979,1.22392755567759,1.22733937509703,1.23055025031108,1.23391094843995,1.23750896685597,1.24111156107014,1.24431933235906,1.24700658578985,1.249603962116,1.25271684824544,1.25651214139758,1.26065327231792,1.26463401000141,1.26813775009902,1.27115788745461,1.27382097042283,1.27615396650064,1.27802655183737,1.27928702433945,1.27996252234918,1.28039017579797,1.28121804311158,1.28317644113985,1.28458124134441,1.2853172904506,1.28594989912285,1.28784271967921,1.29076944541997,1.29404796119399,1.29701255312674,1.2994197115153,1.30133804787723,1.30278650133383,1.30360399784162,1.30363627751794,1.30292517102957,1.30166033552685,1.29998092412344,1.29792594226703
0.970590863731976,0.973851245226587,0.973896779509817,0.976278324271561,0.978239669063111,0.982307353099909,0.984024416929498,0.985858766867997,0.986560979109218,0.987810814003055,0.988455210340442,0.989604119647144,0.990246412176639,0.991507884813393,0.991852024184202,0.99371485454174,0.992993806594235,0.993025207031148,0.988179880940739,0.00345834153990635,0.148977606509608,0.00328549159653781,1.00708657817367,1.01008356872106,1.01174774336971,1.01342592979537,1.01413508230814,1.01330468734152,1.01497933955849,1.014104152105,1.01664296956346,1.01544528953313,1.01832813990849,1.01725225975543,1.02033117509862,1.02091783850777,1.02095188768024,1.02169136863739,1.01858971123597,1.01552626790701,1.01577814287151,1.01412745982256,1.01374871109173,1.00929967057957,1.01127274311747,1.00926541786939,1.01130155561432,1.00943392482508,1.01711283655086,1.06420891579802,1.03042875763347,1.01091636628346,1.01537933828221,1.00187033956384,1.00558553225002,1.00359228412468,1.00339871140316,1.00390313643349,1.00328523609462,1.01928008123041,1.01954464648056,1.0202283996685,1.01942933887602,1.02061044601924,1.01356935650034,1.0136006943471,1.0061511581944,1.00498238540641,1.00474373098475,1.00275909952509,1.0011000240423,0.996632698244225,1.0017240675728,1.00399682661389,1.00390097254132,1.01670417758505,1.0135137268965,1.0131621455369,1.03047289471883,1.06364259652436,1.04958795623602,1.06434326375395,1.04610696223212,1.08475861622359,1.0338513999794,1.03526870132184,1.03750231943819,1.04046080668713,1.04160681376142,1.04096297767399,1.04492671068444,1.04612537962367,1.04957654874397,1.02808373609563,1.05719585157306,1.05614060967748,1.06142691861634,1.04148751697311,1.0694219123053,1.07397681710143,1.07357352281697,1.07374012583947,1.0705651093522,1.06427304780157,1.06352620870885,1.06374804143369,1.06480818178501,1.06474424771338,1.06632798261119,1.06536426948427,1.08828037025491,1.10006501959447,1.08835844379653,1.0811345197437,1.08233861285559,1.08252774533216,1.09353118373042,1.09019946278885,1.09478871313021,1.09180601387331,1.09917748430013,1.09486554470925,1.14843388983904,1.17482563801215,1.17573810400124,1.17710096803235,1.17471776298804,1.172429519023,1.17895555081011,1.18915449166481,1.19473713602607,1.2028661755377,1.19179305536721,1.18285063895905,1.18327554086224,1.18391124314261,1.19263731610779,1.20607745188704,1.20595863634673,1.2062233201952,1.19898940680777,1.18961055458493,1.21654772481605,1.24158586579936,1.24181744934836,1.24146464514846,1.23801970366728,1.23368501188967,1.2466723195147,1.25696484710851,1.25767452061643,1.25856959333415,1.25406750429329,1.24933215969388,1.24839470929028,1.24772100571708,1.27932705243337,1.28484989705899,1.28612776140655,1.28628944500652,1.28553783980718,1.28517198388699,1.27811725092389,1.26454335374592,1.26510412529783,1.26643697907709,1.27024871322857,1.27411629688243,1.27541983527054,1.27592674811336,1.27821106645297,1.2795526336244,1.27621549412089,1.27293956735484
0.969092961497546,0.970998471391117,0.972327853325354,0.974511529489222,0.97544824448831,0.982134699225664,0.98423766018619,0.985577798944668,0.986527003613782,0.987216289635505,0.987363319513297,0.987596118089496,0.987845243924573,0.988006685415612,0.988052282742429,0.987733445155795,0.986640363878745,0.985247627220367,0.984712206902848,0.983865807082708,0.983291953044189,0.983653261176986,1.00015107428909,1.00231762741646,1.0063228701303,1.01416994927939,1.01405414924695,1.01418655128081,1.01463329866763,1.01686185587889,1.01720818558565,1.01910207788773,1.01920956699845,1.0200805195933,1.01917646172165,1.01973059765992,1.01725280120067,1.01598350400092,1.01498762811628,1.01494307747118,1.01366998925092,1.01384269627883,1.01263263192374,1.0112566702785,1.00958711558374,1.01030554008243,1.01120538738544,1.01333922601313,1.01955227058822,1.02355102073114,1.02576198605507,1.02108031457573,1.01620260669835,1.01318525736794,1.00938462664363,1.00246677763893,1.00112040046818,1.00193208449181,1.00316482018688,1.01519267258466,1.01119286941556,1.01195484459825,1.01159607495656,1.00969699387997,1.00719060533489,1.00527615985886,1.00445247317645,1.00453237266456,1.00489812137343,1.00428098083099,1.00276995121419,1.00087815164376,1.00153575286111,1.00232258416728,1.00155722237822,1.01448245161593,1.01393186484959,1.02181737983427,1.03070051534219,1.03079520417478,1.02965702008993,1.02862191925757,1.02892153071622,1.03046017278074,1.03287077193451,1.03471603233681,1.03613496032101,1.03915866280952,1.04030435967617,1.04229390556487,1.04493010776575,1.04986394062759,1.05247471409352,1.05560392116103,1.05790079685846,1.06022232921677,1.06286756790083,1.06562593875187,1.06640102376441,1.06496480656051,1.06461663805307,1.06517366417407,1.06527494898044,1.06426068872701,1.06254107637512,1.06412308533038,1.06522483267241,1.06772242226782,1.06848742204634,1.07156269200731,1.07441636842293,1.0768819763671,1.07884765748426,1.08060264236904,1.08261024487636,1.08629829724826,1.09452966680083,1.09575884745917,1.09810230272671,1.10140469849004,1.10327206326611,1.10811971516153,1.11331410181297,1.1258730032306,1.13716228527009,1.14804232284415,1.15756277847823,1.16759239976497,1.17488255064649,1.19217414935227,1.19310489187692,1.19198162176633,1.18891930405216,1.18505465091124,1.18377835300613,1.18391929310242,1.18480043809092,1.18624954015693,1.18893848102002,1.19080139767497,1.1915435288146,1.19184796821594,1.19508447518951,1.19910425848398,1.20344824882249,1.20737143729547,1.21054270323042,1.21405392039742,1.21911323363197,1.2263602785311,1.2327172123199,1.23746834414657,1.24049160057286,1.24235800215436,1.24466520676318,1.25717799213356,1.27524793858124,1.28695828266919,1.28854600544618,1.28950914122497,1.2840826495437,1.28239168560104,1.27756960030812,1.26328664905799,1.26451369953317,1.26578035494778,1.26590908518891,1.26442902004313,1.26184777464172,1.25899892894016,1.25660475474825,1.25507862691894,1.25442109511551,1.25424361197648
0.966747564331687,0.97092202253306,0.969300988074441,0.00357863150049532,0.970852676607244,0.983786953805817,0.985030779493894,0.987146113935646,0.986445135106058,0.988182356783612,0.985635244728258,0.986585262528866,0.985339403363419,0.984915281553918,0.984923827301213,0.983522294847603,0.984469976601167,0.983181420142781,0.983562173478442,0.983036465903827,0.983078968864784,0.983159135538537,0.982547731400401,0.986489447704702,1.00102083572046,1.09907003221419,0.782960586517216,0.00336226157138538,1.01359190622348,1.02033741926665,1.0180871197331,1.02302269001928,1.02145021739589,1.02249001438053,1.01972246835675,1.01783038131151,1.01519228553446,1.01110505443273,1.01336316603354,1.01163726952934,1.01371578471438,0.989486855592358,1.00157548606632,1.00259891433325,1.00732764226995,1.00723632516672,1.01089715573913,1.02413039961835,1.02282125735358,1.02533334140581,1.0270180149948,1.02815374144513,1.01433563561352,1.01779001258572,1.0093131438874,0.995495291824196,0.99776488201528,0.997126768739292,1.00239374727773,1.01893063821239,1.00746837481806,0.992282282881602,0.991943454612459,0.968486354000726,0.971116624672326,0.969856608978349,0.97119206168797,0.970078409429377,0.97828476213216,0.980701608490346,0.978171869765649,0.978750773568742,0.981721353890047,0.985307618022822,0.999693189582827,1.01331641556924,1.0143424223588,1.03244115689113,1.03165567683855,1.03238394995897,1.02918304436408,1.02444930225739,1.02373210279556,1.01384039490199,1.01597668306301,1.01884294610258,1.02989922441959,1.03889449214342,1.03963065138146,1.03983451856352,1.04487622674876,1.05380404699815,1.05491411478474,1.05895846583729,1.05965928855172,1.06139422802811,1.06265877498815,1.08985269257171,1.06453932198195,1.06368177347984,1.06336873959644,1.05105584517995,1.05216036145232,1.05194674797601,1.0556730303408,1.05419946267208,1.06330382858652,1.07134887735832,1.06933506479039,1.08864940677991,1.07483695387578,1.07571021337263,1.07797886344426,1.0793323787194,1.08143789381989,1.10166944436182,1.0989760401266,1.10175332405013,1.10061722933075,1.10392927145161,1.10350222964965,1.11110546962393,1.1073520040665,1.10323678952091,1.10357444964911,1.10307267983457,1.13201410269923,1.14920262905133,1.1635153363232,1.19560452564041,1.17748983322922,1.16174040618745,1.1528334804184,1.14685231440653,1.14727554681613,1.14817715210804,1.16687660416551,1.18500402580578,1.16841491246066,1.15548083803349,1.16504590076409,1.17169724892607,1.17047586479045,1.1701626166959,1.16747586573861,1.16651047249403,1.16559411311008,1.16510240211062,1.16921273000504,1.17266641004203,1.16719064261856,1.16411434455725,1.18359330779627,1.19989480532019,1.22117793348677,1.26596264401247,1.27062581494333,1.33269941194409,1.29108619199415,1.2932273240957,1.24536740163488,1.21194853803273,1.22243640745398,1.23357900320681,1.23777360182524,1.24113378483499,1.23935974254523,1.23710248799856,1.21690081675413,1.20138225062118,1.20143994931062,1.20288089159242,1.20212180412797,1.20303314338657
0.963815504448243,0.964238849209058,0.965692436678125,0.965113793364482,0.967522838287571,0.967651289988292,0.969080159688999,0.971642816208226,0.974711326385116,0.977636782552976,0.980577091272445,0.981941642132694,0.982470296803966,0.982561948599851,0.982435377708265,0.982472357691722,0.981765859918964,0.982259848658243,0.981089068799312,0.981760361815262,0.981026690229265,0.981478096308023,0.9808469791171,0.982408758176767,0.783351744564437,0.783230542996532,0.783039619139863,0.782960586517216,1.01238360562918,1.0118082680384,1.01167555520184,1.01024616022425,1.01121707092225,1.01263994497379,1.0136330411815,1.01349622372473,1.01224362296554,1.01233337180669,1.01259096367317,1.01370132546019,1.01432555667285,1.00343247230923,1.00112074950779,1.00391993418369,1.00677539723002,1.00749142234307,1.00734748830456,1.00719567401665,1.00660129926499,1.00580579365573,1.00588292467661,1.00750346595494,1.01014685548955,1.01192876412252,1.00909258947478,1.00662306624847,1.00450492916651,1.00226625480868,1.00163778413911,1.00172415740478,1.00399948340183,0.99144564694384,0.991260227457524,0.985742992190432,0.974280237467393,0.971896830815418,0.972267853509797,0.972005918153972,0.974213519895942,0.974688115406712,0.975319591644604,0.978414530132266,0.981186366254588,0.983236543051621,0.997484813668691,1.01475523703212,1.01563299986941,1.01668573064505,1.01724430382493,1.01832413549077,1.02043820748023,1.02333688681647,1.02209723963642,1.01856228696557,1.01715101338911,1.02006767510318,1.02611187648276,1.03067069414771,1.03462499947317,1.03672780063569,1.04799754136141,1.05383897681614,1.05509892771625,1.05831462997621,1.05899749905059,1.06076743780471,1.06108804970914,1.06143970342691,1.06168719862763,1.06113662746926,1.05947466823282,1.05579944791978,1.05463920284814,1.05569903736709,1.05665287382319,1.05765541118262,1.06117775405114,1.06368551426835,1.06694531147615,1.06975956386608,1.07241818053183,1.07534359331361,1.07792478959795,1.07957556387396,1.08104556731357,1.09167913579041,1.09584982379217,1.09979045879001,1.09988132335716,1.10088913397181,1.10273962114201,1.1070950962607,1.10709592980836,1.1051242208768,1.10417444932333,1.10330188041869,1.10494859342991,1.10706687016736,1.11240479863989,1.12271804999857,1.12299626059319,1.12404751616399,1.12648326985579,1.13001611786046,1.13413056347667,1.13846349377,1.14240288844054,1.14500868435447,1.1460702228781,1.1464643167545,1.14726134726606,1.14885833094231,1.15107536557019,1.1536080183576,1.15615417400837,1.15851019987138,1.16084604184043,1.16333970050822,1.16389277675357,1.16377899645198,1.16447914590391,1.16397852618731,1.17089461860151,1.17136741305747,1.17210117946256,1.17322659119159,1.17520158980889,1.17793303551133,1.17998907354699,1.18195296899176,1.18381663700987,1.18599922076964,1.1886860777541,1.19164620154786,1.19435909589669,1.19639112640034,1.19757788513156,1.19804125485538,1.1980119825776,1.19765563571864,1.19712267439777,1.1966392996357,1.19629802189437,1.19567513580692
0.961330251660836,0.961818724819526,0.963532980112592,0.964604802626079,0.965822734256604,0.967071706647141,0.968919121200159,0.972347434173789,0.973337354122022,0.974737277591306,0.977253386138177,0.979027708947009,0.979980570236003,0.980498635716023,0.980943737451831,0.980477792954372,0.980835152009093,0.97978285369563,0.980419874164634,0.979348818500345,0.980356521137358,0.980534530094418,0.980094322304277,1.12875003221419,0.17833403558865,0.00344327154484379,0.182006328476691,1.02679987419835,1.01185650544422,1.01082176853596,1.00981191465209,1.00834577430593,1.00513747167295,1.00422010693873,1.00489121796168,1.00563386582218,1.00969173405324,1.01060822659316,1.01191923613205,1.04240014865567,1.02502330875682,1.04327260231871,0.997232205558945,0.988543424336089,0.988346057347733,0.988786067395488,0.989371403991936,0.989241058516955,0.997224041780909,0.997952942061348,1.002124410313,1.00723288785675,1.00748047933067,1.03557475092208,1.03592420257254,1.0366047061933,1.02060046871454,1.00218477063517,1.00101049400592,0.999520119942126,1.00219404974403,0.992278125517849,0.991267378481452,0.991466912798368,0.978615759031303,0.973026541966372,0.973179310676322,0.969632549287409,0.97142701949619,0.966638186661534,0.970568065717489,0.96647061922422,0.968481150977522,0.964091433308146,0.993753569382226,1.01433644334995,1.00340111892259,0.992525690499215,1.00312980974825,1.00395175829069,1.01430909886951,1.02711216722394,1.02367216222556,1.04064560475946,1.01490712765654,1.00927273128331,1.02282706354259,1.01592315859834,1.02662100283265,1.01691605774598,1.0513122554815,1.0510554653124,1.05279612370348,1.0595580849537,1.05806540996056,1.05930009893521,1.05951203828867,1.05982436643979,1.05933950925389,1.05712256581249,1.05744662592612,1.05708003211435,1.05676769986461,1.05915439351209,1.0587903077485,1.05955504593062,1.06097091621886,1.01606131190399,1.06484852144002,1.06255160721824,1.06337974697807,1.06100029397489,1.0591446573703,1.05824876918715,1.0618067608126,1.06399728266438,1.07392208336046,1.09889558792739,1.09863941634911,1.09775111746502,1.09932901189404,1.10858806797276,1.09517064107886,1.08372556782702,1.09617695934248,1.10226700117851,1.10378310892479,1.10555721808417,1.11021952795403,1.12207279406373,1.12060851393101,1.11949262436988,1.11698278602188,1.11251420069931,1.11876896890161,1.13445049032776,1.12334524554298,1.11502978186833,1.13040513818944,1.13491972478453,1.13918444839998,1.13905401268127,1.14357906807332,1.149285700964,1.14251549118989,1.12808701360525,1.14574477734272,1.15053459953909,1.15815032964929,1.16274586558406,1.1633653626864,1.16334494972937,1.16284787743743,1.16374323669412,1.16264491653644,1.1647500841369,1.17547025694258,1.17951731426132,1.18105051144178,1.18331253475846,1.18117098188885,1.1799238698623,1.17438378091604,1.1716412469406,1.17905265169981,1.17801523556986,1.17542144397119,1.17373112866136,1.17163871342828,1.16954745211975,1.16994308236912,1.16844310230634,1.1690967871592,1.15979615239285
0.960603439542027,0.961718486108291,0.963135586798541,0.964144640130363,0.965498882563838,0.966440944027619,0.968446657892562,0.970238687335138,0.972192661551694,0.973668662830806,0.9754931473241,0.976840691407364,0.978334240037015,0.979589260678698,0.979623339270023,0.979945865072606,0.978752313547308,0.978853771762421,0.978160268772283,0.979071878403267,0.978748725661413,0.244239752661399,0.205313456055569,0.166387127984703,0.127460793811616,0.0885345123789827,0.143080074157562,0.182006328778907,1.00258396264525,1.00895530833197,1.0075335525212,1.00606911404864,1.00288949901189,1.00318168813581,1.00319670465528,1.00602166589761,1.00763058061057,1.00973780203514,1.010573425403,1.01051972519024,0.995026359827292,0.995070624637995,0.994568132321925,0.990681120248644,0.989204183860533,0.989383096589499,0.990314986302842,0.991964357260856,0.994579231328904,0.996892106673966,1.00045826435799,1.0037583611608,1.00594276945087,1.03573287401573,1.03678642231985,1.03589280058869,1.02687750754486,1.01727854120056,1.00927059290935,1.00378190854983,1.00213249239266,0.997876197856599,0.996736251482217,0.988399387732736,0.984068683199343,0.981095646625457,0.977055929200268,0.972634865421164,0.974168179265055,0.974023128843065,0.973858146411437,0.97585838347901,0.973782597131851,0.974816585764571,0.989029764629147,0.991347322742749,0.995476289686702,0.99719327271187,1.00160072911077,1.00262487742682,1.00220919361701,1.0036812077755,1.00622575229056,1.00945143344161,1.01321176045496,1.01919527998685,1.02571448525896,1.03070654997255,1.03274806053077,1.04010983004351,1.05343915877339,1.05259833646803,1.05211913210808,1.05192427177344,1.05351233846618,1.05373849353187,1.05563081656499,1.05509757378476,1.05547457033727,1.05451764307875,1.05381300750525,1.05483839383878,1.0548199532354,1.05847972841787,1.05947075644997,1.06070772510189,1.06293667220532,1.06406828529379,1.06476178964152,1.06481189725865,1.06658857925879,1.05996732586596,1.05916215159927,1.05971761603721,1.06191772845818,1.063333473331,1.06492648799151,1.06732180128859,1.06994853855663,1.07228485805881,1.07434991098402,1.07642383559922,1.07889994899938,1.0822379726299,1.08509235760068,1.08818046762514,1.09088252098117,1.09297139463203,1.09465434764522,1.09658996906032,1.09919182707825,1.10238231349036,1.10622119847691,1.11085918961244,1.11175479236719,1.11147337076101,1.1109744591246,1.11184220575061,1.1269693591538,1.1397399985978,1.14095764112053,1.14162339839695,1.14019927876536,1.1394610663169,1.13561848391715,1.13180458331768,1.13297616705639,1.13611061670402,1.13961299649903,1.14220440301504,1.14463374625582,1.14747665582,1.15058648807048,1.15374196485155,1.15685251887527,1.15988110500337,1.1627147725107,1.16525224658838,1.16748821760515,1.16939792621108,1.1708308337304,1.17177093654336,1.17287355200739,1.17398334763619,1.17864677252617,1.176823415895,1.17433704380436,1.17272459107266,1.1715495322612,1.17085729528613,1.17111785117395,1.17024353937635,1.17048195122283,1.17242218090194
