0.830360683193913,0.8310875516149,0.831202633920873,1.17576246268458,1.0806209233956,0.833910174258127,0.834117596044178,0.834613076207364,0.83579932491723,0.835390570725054,0.830341427431596,0.830770141672029,0.830125736368244,1.03684879700186,0.837998449546012,0.838565093768035,0.839870084708306,0.840696526068893,0.840257631705692,0.84116598732985,0.840104396842291,0.841481482391514,0.840277261917275,0.989053784162171,1.22557169798145,0.849760155930643,0.850266110351717,0.850014942645779,0.851384748100864,0.852145094317599,0.852455124312405,0.857038960675674,0.868861877928581,0.869447833169603,0.869103609761716,0.86802677865421,0.867670990387328,0.86925452430252,0.871333209312414,0.873146197801739,0.872588522486571,0.872007412216875,0.872608022592153,0.870572325767628,0.851912146903326,0.852725016353811,0.854239069002508,0.852537343937579,0.910524984382959,0.830383982636984,0.923185063891375,0.922741016237283,0.922293939550138,0.885099311757699,0.918663620690232,0.861875924637203,0.863050456750238,0.862886410930709,0.869611302198727,0.908889587004363,0.876461477047777,0.877831513132928,0.878799286325235,0.879980771738689,0.884680035538797,0.901106211527302,0.900456701934006,0.901023663957168,0.900675346635166,0.899082767730705,0.898940441861583,0.901296480575457,0.892779313474737,0.896018047366688,0.897369855771441,0.898651770060856,0.900280939486387,0.900681543091036,0.900513129935403,0.902544031279794,0.900351127567053,0.90108888450839,0.899588941720953,1.0861980504905,1.06036022047337,1.05299024956059,0.983699616760254,1.05218658989654,0.916329186107497,0.915730853114565,0.916071756414822,0.956336180289181,1.216861563558,1.21857523948753,1.03254836450227,1.03287055338911,1.04386853255099,1.21862590851243,1.22517209756799,0.925739624001535,0.92427656617905,0.924605123154499,0.924254959720039,1.17014504851746,1.16380388490063,1.13556799251129,1.01123827472765,0.936451158331086,0.936374368508068,0.936527967787428,0.996854179290532,0.996741911603642,0.99855546811742,1.00135206989612,0.929006212203984,0.929891201046624,0.930119439589657,0.929350790117055,0.929499140312182,1.14596148775006,0.986185657448688,0.961968448469531,0.915838549716689,0.914764818289877,0.914232140273636,0.913217395784387,0.913015214685144,0.912775073607396,0.911589765962786,0.912153845793352,1.16898234073088,0.972634525740955,0.907272572581043,0.90947266868816,0.910283039316378,1.26006463810452,0.982974245966109,1.03028125053458,0.903207590348354,0.900791519237094,0.900997563392755,0.901425862208948,0.900833658718637,1.31689756535391,0.917826839179842,0.91873070696854,0.919029091155682,0.919308096168484,0.919897466567758,0.918735008116817,0.917533793747097,0.918077762862118,0.916423549465763,0.918091203980105,0.918841402208589,0.914157967935492,0.913932917179612,0.912300778774458,0.91235888307121,0.912513620771455,0.914680607637233,0.915296045315554,0.915331961392573,0.916964939853872,0.918733936638638,0.920094342077203,0.920155860816848,0.921883725322662,0.92165739678496
0.830511781651346,0.830335385213622,0.831398693376173,0.831054565693502,0.832953827308126,0.833905679857092,0.833951970820349,0.834583347035067,0.834370143522379,0.833252354118035,0.83111310430375,0.830705540042602,0.829816904823528,0.836786038560926,0.838315507974287,0.838892316997132,0.840976804568626,0.841402922157565,0.844882167300497,0.844380912351517,0.843948962437107,0.843815836473339,0.846692245352131,0.846835912988204,0.847826527614231,0.84895378904261,0.851256843403765,0.850873335475518,0.852489229502036,0.855371488185072,0.866418388943916,0.860888163118296,0.869193370822246,0.964962344233942,0.867310848695168,0.867053292593861,0.86652436149455,0.867295914401398,0.869104209226921,0.870623075210244,0.871320234480521,0.870496769514744,0.862910812378262,0.859527009609717,0.852859909744356,0.854014973909927,0.854138408731875,0.8438492755932,0.828148229116531,0.852219423034784,0.79984412377202,0.868351789089988,0.923306871419182,0.849531573654915,0.858170152034363,0.834206233887907,0.850651031368459,0.928716143355785,0.911599660146781,0.909359014950104,0.909105223127057,0.896314231832655,0.881226876607174,0.88232659483601,0.884401540845493,0.885571332510076,0.894350325948502,0.899643153520096,0.900456662254943,0.899385254955621,0.898861836128852,0.899599252903909,0.898936987081106,0.899105985577279,0.899996896503615,0.900569440465113,0.90130625360068,0.902902202097377,0.902995445446514,0.903282544902379,0.903098880918119,0.918079900484134,1.10576726394202,1.05569752074578,0.916080128944944,0.919579481889276,0.919652152387597,0.920152119847328,0.916101303402371,0.914970084804565,0.915835542247941,0.916987236348353,0.917174565804491,1.04709135882019,1.07279890789177,1.07189997158086,1.04596223352649,1.04746419874805,1.04820457964761,0.926494378540087,0.925483548211745,0.976791290688941,1.14551753685911,1.1307387202698,1.12042263406092,0.936178461986142,0.936651829282131,0.936502749089297,0.936556043277337,0.936531165471485,0.99650385684349,0.995902344835074,1.02824867073653,0.928501809112704,0.929969503863379,0.930436311451517,0.93041862703892,0.929985444181366,1.09404278977644,1.01899830079097,0.918290936203338,0.919101568590787,0.9171276740896,0.916332081371974,0.915341092399805,0.914007544079291,0.912771948156856,0.911524728526635,0.91200952442654,0.912109351505205,0.905482492083192,0.9066693205486,0.906360340135827,1.24028034550543,0.907496598092021,0.905714447832592,0.90452015810064,0.902857336659422,0.902068685868142,0.90081274372841,1.26150333116011,0.975369090898438,1.02073266500294,0.919925533298924,0.919203772692655,0.918748411130204,0.918220406627806,0.91938592680308,0.919711220499464,0.911230290444949,1.17646840627777,0.917240840361419,0.916156527895316,0.916893191196842,0.916406887705494,0.915728573225799,0.9140844900305,0.912260735833156,0.911717162841458,0.913736757986857,0.915698548769757,0.916391997395643,0.916650124037321,1.18879923380336,1.21333022828903,0.919667207957085,0.919856233480317,0.919774593681751,0.922492092761196
0.827605285361884,0.829186346424208,0.828656618935812,0.829207259604162,0.833891833026502,0.834230512426909,0.83368991163769,0.833884541560566,0.83304756286351,0.832235449696848,0.828710917788588,0.830158193249995,0.828968380107056,1.00757912747934,0.983387167568597,0.991859858526907,0.844111172753898,0.845623461488102,0.844812602677855,0.846279152023372,0.844496818233601,0.844960462185779,0.845250972571987,0.847060297498097,0.847007618534754,0.856578490033973,0.854506792480849,0.856622199059226,0.855938390120311,0.857178659795248,0.857164227816305,0.856231585626935,0.855234227686634,0.862061081005505,0.891786065401332,0.882942891774814,0.864654657470424,0.868121615329036,0.870903527015705,0.871727220936428,0.873481609421153,0.867816397306908,0.857438149781754,0.901313769081526,0.845274756405457,0.891423733040906,0.870094436273801,0.891438117448969,0.84352471792596,0.803655802266631,0.802863265061136,0.813627511722625,0.809161600611189,0.808845385807382,0.873124971841513,0.832425514441088,0.847697483868536,0.832434780288315,0.846880418546983,0.913657806143543,0.917333045723499,0.91539764830627,0.916889550858482,0.880448448420705,0.882329162719713,0.884255020160347,0.886047533699502,0.887736880290904,0.888602270188466,0.889476759996459,1.15676453488953,1.18590524168063,1.25676900972079,0.899654031863431,0.900155128304032,0.901422465150295,0.901284785934305,0.902873238375456,0.903083289891742,0.903167279406746,0.903419718706521,0.927682275642079,0.939637747089389,1.01896255892691,0.919007500624802,0.919575987894271,0.919446240855213,0.91913885412261,0.916367301146812,0.913952014389632,0.915600437297433,0.917393157974597,0.916983798015463,1.08412464867662,1.3777248823015,1.04794651182579,1.04669027454276,1.24969951451137,1.04841518795322,0.931056517810616,1.05086427203257,1.00847884000728,1.12941069816931,0.935591075931362,0.936441394075538,0.936686782648565,0.936872345405568,0.936700560666144,0.936520847561261,0.935080293838209,0.93496149319518,0.935532869567797,0.927646759077232,0.927433842937208,1.04251783923757,1.15156322884937,1.03553735448436,1.02150585014801,0.916725501573898,0.917161011279756,0.918295315519626,0.920332191723057,1.02408288609161,0.916159945048673,0.909642234971251,0.912056022141563,0.912760464400423,0.912620929349011,0.912682298608721,0.909509113018533,0.908503341324855,0.907956404068261,0.906800148949929,0.906756956590966,0.905555024787999,0.90468469849201,0.904396882136379,0.903414634815449,0.902295315043377,1.2605471797111,1.36207795531821,0.958766750178616,0.921140522535226,0.920672605226701,0.920318791018311,0.919540510770344,0.914457034101183,0.908795649742952,0.910079649628011,0.910926701650111,0.91198521736864,0.916243767467301,0.91668483691909,0.916534227732385,0.916347646979339,0.915917965402991,0.914624042164054,0.912544283682127,0.913150998671995,0.914193988343488,0.916159381997046,0.916872414004621,1.06752169048317,0.953201973703751,0.996305657492701,0.996931145000987,0.918445964699412,0.918914689072357,0.917823376443293
0.827625867931359,0.829235942962996,0.827550830315479,0.83344375068073,0.833249982771974,0.832425433462311,0.833160433214203,0.833233771926544,0.832778711395694,0.830426031222857,0.828234493965894,0.833975940012288,0.997042565673891,0.842042193788428,0.842592837433528,0.843490110027506,0.844778605763589,0.845599926783689,0.847886549380229,0.846683586357986,0.846656500342045,0.844825155965465,0.845335479196002,0.855052657980655,0.857530822549914,0.855181240392711,0.854338503521316,0.855674081538075,0.85672308455467,0.859215116750806,0.848996097139689,0.848229279292507,0.849007918185523,0.864320880540646,0.89163016612816,0.882613097238606,0.860916759760742,0.856506741442684,0.864695274775288,0.864915183403797,0.877752873401114,0.864941867229183,0.848786440287572,0.848328666074031,0.83901419019978,0.905203334805847,0.848585978419674,0.824808720040498,0.812729863439162,0.812459940731371,0.851973207051047,0.819053179744178,0.808224697030041,0.847398515657937,0.846510650215142,0.902641876169853,0.905448258884807,0.909139038684145,0.846355972904074,0.848245823375853,0.914639616566607,0.912040174238441,0.906937605495294,1.02541434932434,0.913181798295072,0.885974309263142,0.885962026916279,0.886554722639211,0.888227860586304,0.88577432593689,1.25656261235266,1.20574002929737,1.25648904182041,1.03120957099192,0.896356393522407,0.897543692740253,0.899423062211761,0.899212316079338,1.04941643149287,0.938439766505541,0.938303109062528,0.937874225488794,1.0708538831393,0.918742924482578,0.917754403591548,0.918787408973928,0.919010424755901,0.918909525918324,0.916759362277469,1.00327065693426,1.04370662581854,0.919360340881673,0.918718399306386,0.919642338366873,0.921083210159997,0.924628967788543,1.04104780867157,1.21899417322264,1.04718666356567,0.989312713437274,1.12952762532791,0.980965449967314,0.935652436621764,0.93651175860695,0.936894820504224,0.936898231448428,0.937005161775785,0.936964560587552,1.05631501951748,0.933685468781941,0.935021549803368,0.935308782902718,0.935442992719262,1.14424022430564,1.14450830738049,1.16745264552795,1.04559741651481,1.02199393305008,1.02213484388273,0.923141577811074,0.921882079334241,0.921464477437741,0.920364141247898,0.912361407680988,0.910437004980125,0.910503622425995,0.912746841437181,0.913251495293766,0.913404445988887,0.910332485148316,0.909611043523805,0.909562385872447,0.907492166040025,0.90569095776231,0.906015315908783,0.906258241558806,0.950665076678596,1.23897568814191,1.35246282485904,0.922086506375163,0.9220538631069,0.921947365017643,0.921596175641161,0.921786993908481,0.92172583590621,0.908700048612489,0.910435931551288,0.909783117104761,0.910255545106063,0.911945317785029,0.92816376220383,0.922632748360822,0.918423676470518,0.919043251401013,0.917271172660684,0.916269959838791,0.915475451454341,0.914816092033793,0.912550904770383,0.915562667841162,0.915091694510562,0.916508498670326,1.04878997631488,0.903829237301526,0.914812379053628,0.915861662975172,0.916923688270985,0.915713020608753,0.91767094926073
0.834097195936883,0.832755246919768,0.834696406657779,0.835119852228936,0.830247871394826,0.832198019964708,0.833154163236463,0.834327512514662,0.833185849813922,0.825746183583466,0.968393766183078,0.84223445227859,0.841528500181438,0.840720753646095,0.839610532038805,0.841831456658551,0.844767762262357,0.846130145434926,0.846654457263913,0.848054006164278,0.847093483578835,0.844544277188331,0.856519306220646,0.856943032723445,0.855313998614852,0.853536248540033,0.852033391693689,0.893892358755438,0.873635866983608,0.859869783096869,0.847045628431308,0.847314759251593,0.846495892143762,0.848889718884907,0.87192415082707,0.857631674450661,0.860096516220339,0.856280390464899,0.856556950905392,0.859116082594955,0.861074843430754,0.862424739057599,0.861476501130362,0.919229193521578,0.837177137682331,0.820603396324562,0.82082633448201,0.820748978297208,0.81915630396721,0.849795251897273,0.805008491591582,0.825712528333555,0.845863241909394,0.904047230875195,0.845931862367944,0.909612599923711,0.906263022481583,0.905362412004514,0.844651765777046,0.847079981939203,0.85386186974056,0.910808096789099,0.91801712453982,0.914445990649363,0.918449279390289,0.885826164118955,0.885181620279446,0.883241067475888,0.881828541564678,0.880631403805116,0.881150722001541,0.881395820904077,0.881239342756953,1.02533855957969,0.893206386379862,1.04453737830448,0.933994977205754,0.930175959924883,0.947972059693473,0.947893192385566,0.947403002668502,0.936341875179522,0.916464596249329,0.917294428942002,0.916329027339509,0.917874638092996,0.918704480177039,0.91889574815686,0.920167560330163,0.922173120586679,0.922359190948558,0.920956799010059,0.919741037472469,0.919606490708926,0.920856235469153,0.922315257469288,1.0338001518027,1.12058269318559,1.05024105967769,1.05034708978693,0.935301111171592,0.936285585440628,0.936456661523563,0.936943634238771,0.937020699392546,0.936880657598438,0.936580340872292,1.03418056027271,0.931001214725943,0.931841181799332,0.934353037869978,0.934690455299448,0.93522917634758,0.936012709000329,1.2097470633656,1.18643194716322,1.06565601071244,1.10176446330289,0.929020732404662,0.924541728146301,0.922862509835528,0.922066939681012,0.920358702928036,1.18135325369058,1.20534186611015,0.914460676242594,0.914426149914461,0.913676184525131,0.913710867601486,0.915065480127719,1.01461073155075,0.912772622240177,0.906610785825712,1.23735231680174,1.23707827962632,0.998920349011559,0.981190517166913,1.00031400355194,0.923647592761408,0.922981136049172,0.922399146822365,0.921481160185686,0.922311510455282,0.922115268032782,0.90861352828963,0.909188903629063,0.909595756468213,0.908695282454892,0.909294121356464,0.911867740288281,0.932991529066772,0.927588207141539,0.918278044207551,0.919255419539634,0.919781017853647,0.917282208238267,0.916057702213157,0.914926889950236,0.914493631361087,0.913971909087535,0.914632835792358,0.915333449600716,0.904390609855664,0.90374686169207,0.913229589738101,0.91552741826622,0.916121365611893,0.916604563094519,0.917014963745973
0.833083064664357,0.832610700198443,0.833045012398517,0.832339061677429,0.831616449259106,0.83249519193426,0.832956357535151,0.83318569841311,0.829112255480347,0.908095109745301,0.83957756079357,0.841035323293924,0.84019814917397,0.832931316577642,0.831377265014985,0.848671642636103,0.846834658841281,0.847107429701824,0.847280381378285,0.843577425072436,0.842156513737281,0.842537990774295,0.856227215137568,0.855093747378682,0.85288882455366,0.850848072870658,0.850167377232345,0.890548285049594,0.889482000547521,0.987475156009492,0.989417240436513,0.911001503528638,0.911452211510487,0.871829143408219,0.941791873205382,0.86376206803422,0.863017387277409,0.865675133772254,0.856394517469348,0.88661343265728,0.862162545862597,0.875728418732669,0.897214258905312,0.876109269949075,0.83827076385599,0.819939704012722,0.820626741774265,0.820918149803936,0.855509768755369,0.840513517203189,0.814225435346288,0.832101483901794,0.836532672340499,0.847900013135584,0.928682712048535,1.06600163793546,0.904575853986565,0.904456462429924,0.915321644369718,0.891540021893237,0.906523007598687,0.909386492583448,0.907805052659823,0.981120245586505,0.920140573099621,0.946889447665473,0.918582982252002,0.920001557530313,0.920395261383945,0.880838181816254,0.880580966831616,0.881096855031647,0.880621417601863,1.01672032853683,0.98822559729609,0.934422642889075,0.936999271958116,0.943852132757252,0.943826350179271,0.912880687693463,1.17091021748074,0.932578042986849,0.916765763846384,1.0433587677331,1.02429648850056,0.918036109601305,0.918587379460705,0.918718439061872,0.920658259524122,0.922117177602213,0.922645891518039,0.921607410264354,0.919947571508985,0.920929498332881,0.921597825184489,0.921967878701823,1.0302946340438,1.00747670165352,1.13863339859469,0.935418502169858,0.935389214453817,0.936408417269002,0.936396508679352,0.936748710559245,0.936927602057934,0.934913823823496,0.934863533651782,0.932682655816868,0.932018424660464,0.932101663770354,0.933372650130229,0.93391248427291,0.934935209470839,0.936402922447599,0.937358031202897,0.937548082014916,0.937419359497116,0.933632378236319,0.931184457469261,1.1744935514158,1.02420115719144,1.01359246872746,1.1776457167801,1.18885869483348,1.13913292952538,1.23944036198948,0.916340722531636,0.914500689513603,0.91434939412528,0.916348835817868,0.916613402223582,0.916755157076728,0.917023745182514,0.996355897243535,0.996455286658122,0.997026689624929,0.964707846638799,0.924161490578287,0.924327349814803,0.92421729951506,1.37569641147043,0.91883718314307,0.910792691682567,0.909894022422893,0.909267894486034,0.909537720339558,0.909678443715413,0.909581618590465,0.908872082159742,1.13202076789121,0.931755140993356,0.93090196989047,0.918722435924031,0.919724455320725,0.920203865828064,1.04699482522346,0.915517552965546,0.914110498711065,0.913763129830477,0.914617757912652,0.914879308801637,0.913335953882131,0.908711473162863,1.04800454430649,0.913401268124894,0.914593838269397,0.916004443700623,0.916149310903841,0.918459928072891
0.831799784248062,0.832131277971506,0.832457868948217,0.832222436088249,0.832062830211468,0.832438269051835,0.832529316601055,0.832000797429993,0.829833267310341,0.869766654791336,0.840137212420187,0.840456238010277,0.839503147491117,0.836375969673014,0.841470593769569,0.846868546620197,0.846174288173849,0.846206670226111,0.845653696430599,0.843631324445727,0.841858298154386,0.842206589911349,0.843121938456174,0.845516574262264,0.848005671256427,0.848679568765614,0.848754374569649,0.871857768409861,0.909958468060413,0.919701904419123,0.915364169816215,0.910565975691997,0.910108298876708,0.869529588277963,0.868655709794512,0.864395007990256,0.863580479416928,0.86322891777425,0.869405827809207,0.888014605938547,0.886129379971804,0.887812661649082,0.888800087090838,0.87534385092858,0.852474269851516,0.847320052670059,0.840511157816683,0.833931542542126,0.846299755719562,0.839704390504643,0.83841071123432,0.836312084791832,0.835786280696706,0.848234156413183,0.892324496927571,0.896762944689004,0.903040198126485,0.902992167368788,0.899318985014242,0.8972661192869,0.900614794719531,0.913021741944809,0.938818101223292,0.957992568521761,0.946372703323724,0.933224904417382,0.919673789209823,0.920644983326777,0.920101041901083,0.911142733433938,0.897235323517182,0.910168819753411,0.921357572617045,1.01416579885034,1.00642385768539,0.938933060570654,0.941219672286341,0.943922286164591,0.945815932746429,0.925957255965907,0.982334795534295,0.928597172808495,0.927320069483032,0.945808848261876,0.946599769279986,0.940665972673112,0.937010540311337,0.935901482155053,0.936240745606947,0.922178027025486,0.922520212868276,0.921783569996555,0.920754406088272,0.920921203137132,0.921281925059702,0.983038529770586,1.0419365789735,1.04882892257862,1.06692333206899,0.935911547651623,0.936201725049734,0.93668459170872,0.936517504840352,0.936484829970894,0.936058536484814,0.934953104340751,0.934352610238087,0.932952526838552,0.932012685732623,0.932072441268378,0.932514507602453,0.933270649500949,0.934484894616173,0.935926126011974,0.937131034102154,0.937951599351547,0.938354286425917,0.938058988422906,1.01334294521576,1.05092317857007,1.02332358445756,1.00728795669856,1.00098713045275,0.989702490292993,0.977596412631216,0.959740806819455,0.919056631785711,0.918194200002852,0.917440052680352,0.917598992558253,0.917477561383483,0.917724968611152,0.964980875229525,0.996437818405435,0.996356794341523,0.967994150719022,0.950514343947411,0.924388948496579,0.924981972556244,0.925187932168071,0.914431337127721,0.915386642195822,0.909505430286632,0.908856005968223,0.908661931535698,0.909263940826968,0.910018268818346,0.910016416757082,0.909902112349613,0.939825597745762,0.946198806704398,0.955557747972417,0.967519280113324,0.980040118130681,0.992351739638099,1.00273063675165,0.914672556498996,0.913521833719019,0.913326495281974,0.913923823795575,0.91390269478392,0.913122017636092,0.91185571272953,0.913023583050121,0.913836438921073,0.91491147245133,0.915961141183136,0.916952077722674,0.918904310063357
0.831265953220326,0.832040878215599,0.83266819144678,0.831905619001886,0.831602080030668,0.832375309111978,0.832346676265102,0.832350400288799,0.822931139742212,0.938788813127916,0.840205009458771,0.840620374335853,0.840294979209299,0.832758655318599,0.844618042759475,0.845241033126677,0.845324877512252,0.846053711772552,0.83723287867105,0.836737563316958,0.840178666087473,0.841967542896577,0.842497732740362,0.844330765334338,0.847157263089273,0.848599477453111,0.849444423777648,0.852288513277051,0.932820309022627,0.929697394112294,0.910636722604271,0.910181873059423,0.908119506479061,0.868472415903861,0.868177342854545,0.866026413604194,0.863833372080923,0.861489213193665,0.876009118905366,0.930939556876359,0.880485944175267,0.888232218421258,0.931758652323031,0.874823384182055,0.857730571608314,0.892452769260412,0.843732442743522,0.822439799256361,0.851475929263952,0.824593248400627,0.874406398240504,0.835051005701056,0.83498279385542,0.847271289921841,0.85385826767026,0.894930897593774,0.942082753266744,0.981074443451757,0.880129386369714,0.880045238273194,0.896579678020015,0.91846599337213,0.980784243109662,0.980904068276419,0.978877774679548,0.923264012174838,0.921940752176582,0.924222787556064,0.920204437871314,0.919587276747466,0.880920440964269,0.921162552919587,0.937922034397745,1.01566588259379,1.01616631149048,0.927983638826781,0.943132814367347,0.942245189237568,1.34578763670569,0.911174773659636,1.03113400840184,0.927790784760655,0.914018042038258,0.914631600490188,0.954068550955656,1.05258911286724,0.998582672260079,1.13566665379023,1.05123958715776,0.921293768425296,0.922465040983868,0.920959421153363,0.91938174518836,0.920531044725069,0.920989834241521,1.21956670944189,1.06859812497857,1.05182484504951,1.10447261832343,0.935424367955891,0.935923991547177,0.936366910398687,0.935649739701437,0.935935480855256,0.935305309302483,0.933727277060589,0.933683975235962,0.932228757609544,0.931144459499734,1.16662902967591,1.16354915344286,1.14983566497991,1.15617143397466,0.935696151544513,0.936661951589655,0.937442879255532,0.938402256438522,0.938125412524512,1.09640538589294,1.09631011813453,1.02142980587981,1.00122360516441,0.978596638782987,0.978597445651396,0.924879030891652,0.923676662430251,0.921581321255331,0.920306252320807,0.919268075394442,0.918644329962418,0.917194588730521,0.918256990439604,0.98777628217437,1.16494990680009,0.996054115265227,0.922359929732819,0.923105548749571,0.923606634556187,0.924696921290225,0.987490937669517,0.913001221483042,0.913463114003273,0.907498763387069,0.906707375815115,0.90678017328316,0.908871728790836,0.91070814971608,0.91000946385047,0.901200405595414,0.901493579649641,1.05417955682266,0.994818568164517,1.24691932744762,1.28256593325457,1.03918503342648,1.01196605447776,0.912526274740702,0.910721206044875,0.911171584381169,0.913507475615637,0.912817865769755,0.912395155870937,0.911771408267942,0.912719219173165,0.913878869399764,0.91450482149998,0.915538948112573,0.915845558450733,1.0765729177283
0.837750657796985,0.840069039943252,0.841467878844338,1.08154133298054,0.832441157740322,0.832592601767006,0.831560296713231,0.831310915200877,0.934454855625407,0.98133010700403,0.839532097801606,0.831824527116786,0.827559861595072,0.83019115627149,0.839442504681761,0.844202574381471,0.843750967879848,0.843751717613721,0.840297360966407,0.836008047454416,0.838196576810439,0.842952405018973,0.844079008720127,0.84450054076926,0.846866829079801,0.855337732334721,0.885209373247871,0.901982009532837,0.944660392995491,0.934760704205668,0.911711965593528,0.911439057046187,0.912128567552725,0.915540543504873,0.89304085375601,0.896020514140354,0.878640366581787,0.869715758099333,0.875278471421102,0.929276058611594,0.901258891367583,0.890707325157659,0.878360279990733,0.875246430821827,0.873726261355153,0.858195201718677,0.849931561246205,0.84484170611562,0.848791790683472,0.832514701504494,0.832144509127806,0.83484499248588,0.835595579273143,0.928824801495871,0.928292393666036,0.980530802891922,0.978815287019643,0.980500932880708,0.880247053975778,0.894666414448831,0.944577073912091,0.926839153774572,0.981147821024131,0.980999892737175,0.97531999081879,0.974905944775392,0.943538535059083,0.941838267278611,0.939182011170683,0.925848648490138,0.934558871223427,0.930995021391678,0.926864082426326,0.926696134099407,0.960344433505973,0.936542146032142,0.94479615908,1.02077657460189,0.947358463153915,0.948055130684045,0.931855676731563,0.929811828445129,0.931239124178617,0.951142561947404,0.984601857198323,0.957988678426882,0.967727497388686,0.977794633259405,1.0066131807746,1.09217814445996,1.09254749891378,0.918856470004892,0.917305657910933,0.917914674000722,0.9325292114997,0.932509805088633,1.08155523443513,1.10242699375991,0.933820831769863,0.934699346473956,0.935698655531156,0.936338633420208,0.936300519957724,0.935124392031009,0.934656838801214,0.934677278407844,1.0095670180137,1.32046302729928,1.01161895432722,1.01137590101581,1.1188714989771,1.14501597823045,1.14728569764139,1.10434554808113,0.935768724800013,0.936813569838386,0.93816099350416,0.938132819067216,0.98543470201702,1.05673475552149,1.1519837835384,0.991162297585933,0.983966489989706,0.983947495781559,0.924381194636143,0.924047207506988,0.922513849729176,0.919213633391083,0.918951563817081,0.918677028768087,0.917886365946399,0.918602336242668,1.33687591085097,1.34142460336774,1.35286974723626,0.922349793107368,0.922431127279631,0.922794402703011,0.916328344258139,0.915554233611883,0.914617794539226,0.913452505757113,0.906470723985527,0.906650633733805,0.907030585454381,0.907554868744416,0.914185385127878,0.917730304989013,0.901330820079919,0.901132588601912,0.912696853031591,0.912734852717736,0.912532090708032,0.910664952951602,0.908154791864772,0.908571281002162,0.910327021394158,0.909259991859073,0.909761551183694,0.910659438425563,0.911353014140239,0.911415972033235,0.910810282907919,0.912387194295025,0.913133900120535,0.914708729087439,0.915453574848514,0.915775971926197,1.14479030453262
1.05129880034745,0.854496222495419,0.853600841985628,0.855297458629247,0.838742456968055,0.834080419718445,0.829882317789956,0.818027081372519,0.817384416805806,0.981568400200045,0.825590992978346,0.825830673510308,0.825823987339403,0.8314303824647,0.839558239287092,0.841369246372494,0.841913460124689,0.840406035262733,0.840153370561409,0.839128444688013,0.838995010486739,0.85875926756297,0.872787796631736,0.873184518737201,0.913929516551494,0.926789175277473,0.927603198307828,0.929359629864825,0.98107899110457,0.981630461995389,0.983545303001805,0.956454646267162,0.957074381500583,0.926075437153837,0.912284856124669,0.891174030392948,0.885983853636968,0.880192364639503,0.892653892364886,0.907809264209718,0.910526472848519,0.924280575087825,0.941549701937353,0.944222686913718,0.938099453616471,0.924971075672712,0.924761626960022,0.925663495114075,0.852159720582375,0.833234829177706,0.833542210734932,0.85852790743963,0.87683009825295,1.00535304088489,0.911123585240365,1.2096298831681,0.976315338684651,0.943667990411039,0.933402678097417,0.944070499795821,0.90631052728781,0.906183218634989,0.906520052049785,1.01941629037637,0.976178659639975,0.943424647593381,0.943724699703614,0.943600603346512,0.984004972324883,0.998306292024779,1.00285477562282,0.99485567679994,1.00695168380769,1.00814182432827,0.905819541028202,0.905817161028442,0.94505518190073,0.952674602736523,0.907859571435242,0.971698957390578,0.973990418353977,0.954308876886425,0.957230935241133,0.956790608053059,0.985304853152447,0.902838722521202,0.956108303904248,0.906246926278053,0.909687585872759,0.911237090105629,0.914442148453796,0.91698126017278,0.916545718094641,0.917736781099088,1.15127410739268,1.13270525945285,1.08705100427124,1.04005001756714,1.13299545055598,1.0055358113143,1.00482981113049,1.0053292268824,1.00571908647002,1.13695535813772,1.13722119942206,1.17929430165664,1.1473330538563,1.15011550822907,0.919646101586884,1.01202643569241,1.18858570130382,1.13762456418873,1.12709482942859,1.1282875448606,1.16627421911362,1.0407935758971,1.01822206550272,0.979250529854907,1.05554745435179,1.02988465590892,1.03057573887222,0.979697346088759,0.941592174817926,0.938329027588734,0.994023625798875,0.924886564438053,0.92427379301005,0.918222137090269,0.917807514815308,0.918572847011534,0.918539695821224,0.918610254224716,0.919311436427353,1.05400952861536,1.15272546584456,1.09263983646956,0.920310049718321,0.918910008108896,0.916386048084281,0.914867353096218,0.913555587522689,0.913054706059201,0.912766167948895,0.909379454820124,0.908099929680556,1.42269080838939,0.917497757044268,0.916027842472079,0.915852477232859,0.915320290092391,0.913467731523894,0.912615756270085,0.911613446516235,0.911218202495706,0.909725344542128,0.908945444643059,0.909948862370622,0.909658857399955,0.909564856266393,0.909263774878238,0.910083562054232,0.910786921942355,0.910590353657354,0.911079896353837,0.911507603008589,0.925776427296247,0.927969654725513,0.928253743896416,0.935558154786068
0.852120964215022,0.852867524187075,0.852953386892028,0.853361764083696,0.922981078099229,0.836504600538575,0.82735386622179,0.815855742817922,0.816460442309793,0.830617793348293,0.825447592210001,0.826210780922018,0.826969546701102,0.831995159375546,1.01799747359839,0.957286319950315,0.892248316216969,0.894014408723988,0.83910413462427,0.838779792472199,0.879316443793716,0.876575522547787,0.870148734182186,0.874531058231149,0.879864811887224,0.923719622640076,0.927204516262185,0.928131512751679,0.938747756242427,0.938039401163833,0.949355412382325,0.953689006605149,0.917593228532113,0.925483955589978,0.952042506312648,0.891327354427613,0.907605186006123,0.922174346926787,0.974628327698271,0.990037953045664,0.952109190448047,0.944736045316814,0.938153665046484,0.944739451288354,0.94521132561512,0.924863113444748,0.924116216349285,0.92320149427795,0.876151608051478,0.86251189538207,0.910032992718403,0.903514422428055,0.896879147514622,0.913423550396868,0.912089958280113,0.972213078741087,0.970547709415973,0.90520554066086,0.908504601378658,0.909677039118863,0.90404713362728,0.905069596139228,0.904412796099072,1.02571285869551,0.981394274898504,0.941852877245595,0.943372846784293,0.943823421955458,0.913112064713375,0.91363636767608,0.982265595766044,0.9888736785823,0.993261647501471,1.01552221915162,0.906484425951653,0.906431849402858,0.956260824181917,0.965566230527809,0.947763743481372,0.970550945741582,0.950804722110813,0.952618523337978,0.893271779924728,0.89414847056732,1.00934807638543,1.11131607330558,1.03746634334937,1.03776334034289,1.08723798752342,1.04318180707979,1.04423031732271,0.977309523759419,0.915860612732201,0.916545520504596,1.03973874483906,1.14911394764147,1.10617769424826,1.14840101003313,1.08668781095733,0.928217524873707,1.0457883978309,1.07772796340693,1.17994954054649,1.1790382235468,1.14328633917983,1.14512234041118,1.14698091143274,1.15015879612489,0.917601946217868,0.918854414041615,0.919653743969718,1.00151413452503,1.00268039535718,1.14271570083583,1.14200609111817,1.17970491587555,1.12637955457438,1.1074184764431,1.14118142659884,0.942780116342182,0.943478570952694,0.943459668022626,0.943516497510119,0.937733625510645,0.936786522360452,0.975919493694537,0.951197920237245,0.921698485841469,0.91689051163234,0.917989518827923,0.919178587981479,0.91756726105842,0.915751591395454,0.909122307130821,0.907978752583005,0.91342640293182,0.918457270173875,1.15762239313799,0.914172166578295,0.913817386376902,0.913080076941574,0.912902551211083,0.912940283517741,0.911503281414105,0.913101467148141,0.956546263561048,0.91813860072286,0.917090947052346,0.915774042150283,0.915382238203133,0.914556022758698,0.912373563195565,0.911292018869013,0.909929759226323,0.910115598048606,0.910390879811046,0.910419709193911,0.910140563504571,0.909942927752842,0.909861414339584,0.910598820902783,0.910927091999848,0.911224731578515,1.06568725709582,1.06582595084396,1.04518675350263,1.04679760187537,1.05046767511509,1.05684037182761
0.847331938150422,0.850086513681051,0.951102616147294,0.843027625719385,0.830165377585791,0.819601521184162,0.824428213776839,0.823570431470043,0.829653007580335,0.829402252654301,0.825944186885149,0.826353221726978,0.826826369832328,0.845014326626482,0.950070892066198,0.886273470034949,0.889714877975922,0.878235092242855,0.849087724734322,0.849174774552822,0.87832802818822,0.878742523105527,0.877623190172548,0.878840184974432,0.899417485853182,0.966750182829196,0.969591758287308,0.973302434053573,1.08407200942533,0.97928729521898,0.950093802123416,0.953149511972244,0.934968966420813,0.934762770113976,0.935864063082453,0.937154253145811,0.933108760953997,0.927088804934289,0.962980617733073,1.0369216659432,0.967114991497628,0.975325285697403,0.987135918759988,0.9744450419758,0.966077424264523,0.939631426702225,0.941263685143286,0.942694147191379,0.906810719931464,0.920751548020308,0.981970822550849,0.982523138190316,0.98333128633704,0.973458764207783,0.966001842904016,0.961412116669204,0.965599125648794,0.960508489905627,1.03577200396041,0.985103183953834,1.00243391064103,0.955555540940006,0.920030811176275,0.917987522633862,0.993027982920579,1.02346656277899,0.991919659933268,0.989808728032117,0.95567828117491,1.00146083312133,1.00498124340935,0.983863117418785,0.975795650586242,0.98413096309481,1.15697900150875,0.90710347104204,0.978701298395563,1.02196493153555,0.968050647792136,0.954005767104009,1.07131861886124,0.953860839140654,0.89417085888839,0.893716494758963,0.895160081735088,1.03764310489328,1.03743130300072,1.08632299229258,1.08643336289235,1.10872728599204,1.08852539328758,1.01005892345474,0.913553162462807,0.914230534462972,0.915739741669798,1.00298375260757,1.0360260783026,1.03494163839098,1.01103216710438,1.27874980333698,1.14231449081222,1.10850113886007,1.15511877886389,1.17889591715803,1.17844136564587,1.14289479297845,1.00838809828766,0.915948607467776,0.917949449768326,0.919602890078368,1.04034743370725,1.002234202182,0.994283193238485,1.01189815599135,1.10742693534931,1.14164491494411,1.14143572110727,1.14328741822109,0.942381564429261,0.943376704137634,0.943631554727089,0.943202742758748,0.943252855269889,0.937564546462399,0.937579444343544,1.02175980324446,0.979511978241774,0.922835496378835,0.915036231691996,0.915169986139982,0.91388446732054,0.917155388269828,0.915234418604641,1.05652948127855,0.909140547104171,0.913064894204167,0.915229590459004,0.913946748178895,0.913276242706984,0.913169870776626,0.91296806974109,0.914881965303935,1.08618805030282,0.921148977508129,0.92141514519611,0.921353945461349,0.919654966687733,0.917421628361188,0.915187232737126,0.914409346236106,0.911640476983178,0.910618084316501,0.908106769340467,0.908904130231006,0.909538221937306,0.910478541098542,0.910771413237052,0.91110136139601,0.910843948064732,0.910820676268245,0.911914951416251,0.963029862476244,1.07434257300918,1.06393134049387,1.06390598829299,1.04695658913412,1.04757392711119,1.04912867204475,1.05572729245268
0.84544116813284,0.848766098244898,0.858250215274585,0.827304024075199,0.829147103837829,0.86068525712462,0.836984528158513,0.823414293774179,0.825613443061409,0.827793993619063,0.947394648571065,0.890577857590593,0.863832724848856,0.965759132381456,0.939797300577903,0.897595044081994,0.895765388991594,0.892657776670947,0.891814595289088,0.87136886758817,0.859053955956973,0.882524867711814,0.88392452517968,0.882674582991894,0.916363942023328,0.943442718272324,0.978009922096812,1.08221060056779,1.08362639968851,1.08533083253588,0.979940452840412,0.961724013677977,0.949242845828819,0.958492347647161,0.945518780754952,0.953645757518538,0.960857612338212,0.996275522245529,1.03167600690162,1.01834202887817,1.02482042975908,1.03444889161837,1.04310739300957,0.975161787667584,0.975611039055742,0.968993961854359,0.948550376829004,0.937680754250623,0.936837940951906,0.978418326948816,0.980835645932263,0.982104634602309,0.982693922203208,0.970128879471705,0.969210015251687,0.966854652444224,0.976450572151222,0.99647913022861,0.977911106035323,0.957142280549003,0.959820139895598,0.976179834048647,0.990151711518698,0.991655704254795,0.95597194592597,1.06304426580795,0.993573587610464,0.92605076633075,0.926511430132139,0.998765199401759,0.978555624925523,0.980048708224467,0.978165507171541,1.05929997846098,0.972495151043781,1.06446128153418,1.03952676206769,1.0591313174529,0.966824974149365,0.968014033189052,1.01495427721318,0.95721459957413,0.893660194315733,0.893108148336156,1.07937882222671,0.892454640441669,0.893806663303546,0.894829225630584,0.897128119703133,1.08639942515205,1.08704226574261,1.08738525434665,1.08747031771393,0.91342353180547,1.02773528640296,1.0283437067759,1.03378586552703,0.97860707234586,1.17929350981737,1.08638463584351,1.18869352611104,0.974669209954425,0.90767400871645,1.17854877648041,0.911804246162072,0.912889215169957,0.975620100704066,1.20350872669548,0.918681558282671,0.919497313700219,1.13833851625054,1.00456193728358,1.00787817967086,0.913642917272486,1.12959982233777,1.13984827877636,1.13969383230743,1.13733354410517,0.942813131870887,0.943888066539954,0.943917608045112,0.942541371738054,0.939915787491559,0.937930209408144,0.937293204705826,1.14800726267882,1.01325495704337,1.31879199626223,0.914927356962463,0.914077308107629,0.914020355993753,0.921071355138837,1.13688194697456,1.39023527509225,0.914267673470735,0.914149691797829,0.914955667055281,0.914373975514963,0.913826819038454,0.913233860692107,1.03373375841484,0.923176459231383,0.92306426610597,0.921440508900127,0.922475487390988,0.923166898719733,0.921651944179098,0.915835455086895,0.914713874845277,0.91337838435688,0.910965827347389,0.910090792097161,0.908379663039055,0.90826367904108,0.908814586276353,0.910399090876171,0.910901733923053,0.911298152040372,1.02279609860245,1.11354113638883,1.04884541109424,1.0089690938756,1.01771527441533,1.02817218964904,1.02949246660233,1.03596376112941,1.03891545072857,1.04241250971328,0.974118613532143
0.900222444627459,0.838432773273101,0.822439795377623,0.825421611561546,0.860853701548097,0.825174028006908,0.838952796341431,0.867466239434714,0.933285664436547,0.910391244458603,0.870498620113102,0.898485298620384,1.00012448810811,0.882737187096689,0.943788733333211,0.931743470733815,0.912995863271249,0.901291820913536,0.901970617256983,0.903430868163232,0.929491306696561,0.908490342297305,0.883107100913059,0.919714252986022,0.920015908198855,0.966271246459138,0.990580036650158,1.08054006984958,1.0778990807744,1.06277630720004,1.02431107675489,1.01559240787861,1.00621336975565,0.964150520568307,0.968116587547573,0.95362401951955,0.965399697918647,0.972924342381899,1.03051937457539,1.09581689482546,1.1105601237887,1.08857120008791,1.07084446832022,1.04705126231628,1.04739486912333,1.04867456763563,1.02327602034976,0.996807729036932,1.00635864573888,1.00673440133033,1.04182145222616,1.03272976661359,1.01676275809912,1.1299202185852,1.09001212841388,0.996905390841621,0.989029754751575,0.982093278464536,0.981091082126211,1.11425600213624,0.987558275009176,0.985725658379165,0.982448347549631,0.983871289113209,0.929422639960503,0.994496198958699,0.994421320840462,0.925824998808063,1.05598781751065,0.998822251408854,0.999007504941822,0.995999593761829,0.992298145758158,0.991799134649626,0.993037851180033,1.05417469504187,1.02886068159051,1.01072961570517,1.01051915637419,0.960074307432223,1.02736618003832,0.962429049590871,0.962278399303223,0.926565183502204,0.890192564052102,0.890613524421845,0.893419139355773,0.893049695212926,1.08261309812427,1.07566384662533,0.928896654513344,1.08728700003682,1.09293778593944,1.09279052454586,1.15477122151336,1.02534043665706,1.08044034269676,1.17854238517804,1.14443069901544,0.903254846243005,0.903945009471074,0.903450410634093,0.902006596653459,0.90639661545709,0.911782047056785,0.913180717945474,0.915069549958531,0.915320068535412,0.917223546477066,1.20996051497757,1.00667955147856,1.0050882326306,0.963227351683543,1.11363220665065,0.976185945231375,1.24347014076725,1.15290395722439,0.941289705319821,0.943519897363965,0.944660047695641,0.944504220766205,0.943025000104799,0.940708094825935,0.938235154510235,0.93587817691186,0.934745250680024,0.934020894020095,0.932762311795211,0.931943838085623,1.1769688219894,0.925158997424511,0.923940029746518,0.924125900683927,0.92124103977108,0.915976865279528,0.914786292485401,0.915701650377864,0.914615343087702,0.914700567457691,1.08872530424788,1.10495420385075,0.925604495740718,0.926523055668867,0.921034339404231,0.923290189668472,0.924892279554526,0.937937123418523,0.959101400088857,0.965200841539179,0.972106324258223,0.982297618410661,1.02627289503868,1.26279904829809,2.09047770356981,0.00404674252643305,1.00992271631162,0.995555180204183,1.50670703197411,1.30333272305546,0.99073033733547,1.00249776465768,1.00370183005755,1.52474880557734,1.01102942333179,1.0298825671056,1.02748469658716,1.02742829659512,1.02829991819875,0.976889959552637
0.826174703673758,0.833566416699781,0.823291032151969,0.823924371527797,0.824254930331806,0.824869561385289,0.840871559552002,0.877233251293257,0.876271901301471,0.888530492914826,0.895681271289062,0.907224711635576,0.999796883464362,0.97003007118659,0.936016524892273,0.950949886961841,0.959023087166715,0.967613050135822,0.942749713114148,0.911398239173275,0.938805483936217,0.918206007492783,0.918001159004601,0.929955988767326,0.951254633038907,0.968515124031514,1.00550624551535,1.06876780801468,1.09566508283673,1.09737602494364,1.0980960169035,1.05750541526669,1.03748599781633,0.980841021018221,1.03046086455788,0.970412543776703,1.0019259413645,1.02897156394454,1.0036275279073,1.10630428830762,1.10984965032465,1.10962689695163,1.10981269770537,1.0538921919055,1.0523747746534,1.1234882662085,1.086400043212,1.09493615190675,1.09646668982639,1.02471655429128,1.09060410167626,1.05269365873785,1.02490148472839,1.13454461122923,1.14814769394048,1.02464473842302,1.04608908286967,1.06321529995793,1.03814675979119,1.02549437415681,1.0778866721386,1.06473172319613,1.03868254520064,1.04708024463389,1.05262097587072,1.03828229010076,1.00391414895094,1.03796028755601,1.05528484766632,0.964226797323234,1.000912588553,1.00212686639306,1.00249822786259,1.00301780806481,1.00131140524445,0.983075682798594,0.985333209338713,0.98442405781238,1.05628874783358,0.958840776565233,1.04447598738103,0.965121151368373,0.966989166929422,1.05946942358438,1.24549003050329,1.0706304811527,0.949966732576709,0.937421976640305,1.07431240952461,0.925795870269213,1.08676770465884,1.08700556094612,1.21987053326681,1.04649400188622,1.17897678544619,1.17925079865703,1.11990123321623,1.27957318938497,1.27986424941913,0.901113053007723,0.90254391990231,0.903127033272299,0.902312415874378,0.906850629916865,1.18174957923443,0.914785407385134,0.91515479960332,0.914974707535565,1.20004155857813,1.00286594232728,0.990257316445589,1.00489884371891,1.13961586252787,1.06896645978074,1.26412311953143,1.26257614919115,1.16165368599341,1.14916000328464,0.944047365497424,0.945963882471633,0.94474913748115,0.943901699329462,0.940770998770065,0.939034981727501,0.936879600210842,0.935490681646178,0.934222157126686,0.932375423231826,0.930144481303715,0.927689007473359,0.925747579483788,0.924592405034092,0.922820378193798,0.920379478167688,0.918416389266495,0.915943416891213,0.918107183913929,0.922191105154827,0.924796478662317,0.926080928908293,1.27020699225987,0.928339962694008,0.927833033596576,0.92674093210719,0.925560902148299,0.925612926283692,0.950503959077621,0.965946131701965,1.46380887437633,0.976157191435141,1.0290244872254,1.06347270502624,1.47135921395268,1.08000433763557,0.96625875843893,0.966792478335288,0.984976430179064,1.37781424013466,0.981470275817606,0.990456714884695,0.991579055213153,0.999441280384235,1.0106648468842,1.00454996901113,1.01066251644823,1.01171227409151,1.00514239179556,0.974609084661144,0.974066633546299
0.824366243845859,0.847954502698474,0.867748942651186,0.875726460982306,0.894867359833554,0.847361588240622,0.848434933306264,0.850485634398906,0.851390841065124,0.873744511834174,0.87425012641587,0.913580182170563,0.955052233622177,0.9503692717012,0.949095309476776,1.0033357153876,0.996659374871569,1.00418981867478,0.946813553606244,0.928378421542269,0.920339791446259,0.921409670226444,0.928234870415339,0.941856230047028,0.984918946681034,0.985132448351288,1.01924816955763,1.0690759150342,1.10193100177129,1.10362904371954,1.08697137896555,1.09642305843969,1.1026089493516,1.00998078582747,1.02950016829951,1.01854837600437,1.01856184900987,1.018630334792,1.02243903594184,1.10272306995158,1.14287855051564,1.14089558178194,1.13992047251471,1.12954261191681,1.13143126205778,1.07384297725231,1.07506984642618,1.07392695921724,1.09590044381183,1.04637934321557,1.04552853284825,1.05719315982022,1.06766588965108,1.0815825094181,1.08445319067238,1.07463055369543,1.08090558184047,1.0910756991759,1.10315064116444,1.08938611993463,1.09018884198805,1.0655865446071,1.07229778894531,1.01913055820001,0.997112470614699,0.963118405400517,0.961618122444687,0.955648174353404,0.986217457561632,0.996953452154969,1.0009295046229,1.0027507561443,1.0041514957525,1.00438868385651,0.951761346025581,0.992227127166871,0.988678156922001,0.988860109218792,0.980547382829015,0.868591842673229,0.868174194555539,0.95848153917541,1.05815585320924,0.939886560280518,0.981415904127335,0.97529517009087,0.962201086072759,0.931807258102502,1.08848737866239,1.08658683330489,1.08417001117498,0.986576272611189,0.890292845961131,0.890773851580513,0.891871486500476,1.14108178699476,0.985585214393865,0.895629603630084,1.28035955693182,0.899535647359649,1.17674611710637,1.01809772288377,0.972591955632078,0.972907687935425,0.984175195590331,1.06660474275784,0.984343600932518,0.913333908332562,1.3040401570388,1.30182998764577,1.01070498747097,1.00617307652477,1.15501193969258,1.1557566124336,1.31938210098233,1.26435833501962,1.17225818940365,0.967160581670447,1.22028158902994,0.946617893413941,0.946590204692789,0.946614290999372,0.947681870410186,1.16090190324814,0.937791703681156,0.9342952399122,0.934695452828355,0.933648963388099,0.93192493963493,0.928880689865474,0.926642302587341,0.925397783119279,0.923571585753667,0.920106434827046,0.91946146585817,1.06213313962081,1.03187217001767,1.03490060629865,0.928845712584134,0.929353255215558,0.931360581107202,0.931897925202117,0.934093118761575,0.92821887983488,0.929332779898335,0.977784815592203,0.960658601417439,0.968147418128328,1.45551809767527,0.94566370226844,1.47342938715072,1.09657988061639,1.47405192706764,0.957537278341389,0.965669781893818,0.967776571004396,0.978723938305461,0.979598059979151,0.982626639430873,0.983395852612518,0.984315623899957,0.982814822643428,0.982162077760778,0.98411226925543,1.00473101964281,1.05138433167584,0.996725660804826,0.975202314519137,0.975834423945878
0.847790067527873,0.857132641918857,0.868072426369428,0.870180568454896,0.88949941621524,0.883757860838281,0.877747158741805,0.87309030837227,0.869529075570829,0.895902627196717,0.914498995137654,0.915391440537647,0.941315823036632,0.959872419332701,0.967027380108191,0.970339916075442,0.969139903119627,0.968781537116138,0.944572253667155,0.943123321458069,0.943573745164896,0.960797602506874,0.969207861989765,0.97731229139053,0.986468430555384,0.988146783489868,1.03327012040552,1.07403208831427,1.09201062042682,1.10344320032758,1.10272932294678,1.10141045204808,1.10123274937057,1.05599446991777,1.02921628074694,1.02912398914616,1.02877960033606,1.02882052784568,1.04956612267639,1.10709872225058,1.14138831795022,1.1406809203092,1.1398965189903,1.13610748328316,1.10714291687577,1.08082568135239,1.07764457270747,1.07441153725694,1.07231378847995,1.07168189358206,1.07188458499953,1.07589002743233,1.0788149951313,1.08074032209371,1.08095753198479,1.07958874326393,1.08159245458668,1.08586810576022,1.08696009631267,1.0883246507114,1.07966703751176,1.0609570234201,1.05939016966627,1.01729320689929,1.01325653171369,0.964060968224191,0.962076242157765,0.960497918630913,0.994630337115231,0.998701614310993,1.00225030676056,1.00351582464588,1.00504082094928,1.0045887056217,0.998995634826746,0.988902884878498,0.954032251088378,0.932591319718572,0.912827019809466,0.868755182995889,0.868721692344663,0.933119479973182,1.0140688963747,1.00481220731201,0.993166257882061,0.987895068605984,0.988270228466875,0.987331246740127,0.987106544257129,0.987240697019831,0.971080729477502,0.947503945131598,0.892393999589263,0.892588147835587,0.893117519064393,0.894531256372358,0.89536181654174,0.895393066767141,1.13648359927209,1.12919759653785,1.12908835096449,1.07488136939352,1.07435392634821,1.05842145646337,1.05975439186629,1.06227337908732,1.07415886739469,1.09492844792958,1.11718321855778,1.07555728457,1.00660401685739,1.00493668644723,1.06380930654348,1.22502478266022,1.23250797634301,1.24296169712233,1.18683619780992,1.15917173625829,1.12779164865154,0.946738166700402,0.946792189816529,0.94733015272957,0.947974313225739,0.948704126272995,0.941632432785154,0.936394829274468,0.935353445614961,0.933539588324534,0.931719209605207,0.929683651362046,0.928057245198898,0.926556685746263,0.925134153355801,0.925256846467672,0.973233851337581,1.02641013178064,1.02908818986564,1.0318644754116,0.931308535380357,0.931763540203954,0.932985083143753,0.933514686783783,0.93402494294713,0.934291992798575,0.939253959982143,0.939963089273399,0.940926279390971,0.942479533429951,0.944546072436679,0.946235433984837,0.955867439482912,0.957020222219067,0.957413316619432,0.95926563438351,0.968517996800418,0.970882794282029,0.978426730120722,0.979062485131393,0.981134845826728,0.982233168164729,0.982863568326669,0.982410138769013,0.98237781101822,0.982530177796071,0.981053282296389,0.979159782080358,0.97773285560751,0.977000401939713,0.977962411161707
0.867327611476067,0.867418410762718,0.867289991684806,0.865553384197918,0.91473872533542,0.915267623775763,0.902065073991456,0.922054342506299,0.86502534504037,0.962060158445022,0.922556121840332,0.92176440627419,0.92319243831628,0.994048348102295,0.972237475333649,0.97339744729685,0.970372336080149,0.970632677619172,0.944704699108643,0.959335768754599,0.945307390398678,0.967976778955899,0.985077533389906,1.01047196050066,0.991059163830119,0.990530480484096,1.04848404687652,1.08083798757505,1.08083078475448,1.13465717906535,1.12361462348869,1.11349272743929,1.10464274060279,1.07419737959562,1.02929677243705,1.02977320232349,1.02928815336964,1.02996489087001,1.0643219530818,1.11153536352867,1.14104555781869,1.14660938818763,1.15127180925264,1.15127215478906,1.08369694323066,1.08415730041027,1.08010954748629,1.07436885441174,1.04293871417429,1.13381792603815,1.06929947997255,1.0794658032914,1.12993932091715,1.14444858396664,1.14539515472858,1.14603739658771,1.12759725824396,1.12437590005956,1.08743129227304,1.09000519791921,1.05884966253593,1.05962357124,1.06021242025031,1.01504272969429,1.03469934431185,0.96844792124665,0.964284296202835,0.960849349765142,0.997882472572234,0.998081203583124,1.00336100972001,1.00440426595115,1.00834635643348,1.01153062654052,1.02058896413849,0.987287878239244,0.929075722545686,0.874543884488363,0.874475430480893,0.868043762566059,0.868318084774061,0.906453699970818,1.0272867221953,1.01659241824964,1.00084190598206,0.987549296560317,0.988988458159903,0.985576255755841,0.984890648848476,0.984805326356167,0.884276997129241,0.885496086899814,0.88537917547851,1.08339108179926,0.892362925937795,0.893622276862792,0.894721509298323,0.894327802341152,1.17555057173995,1.13010427029312,1.1297691410903,1.09912936581226,1.09156604021442,1.06055797939052,1.06163919068319,1.06237382934259,1.10356918284198,1.18571719689633,1.1508852800761,0.893426014225613,0.894190737551921,0.972493087669546,0.994594537023185,1.29971364421586,1.18943454388891,1.33577929025276,1.20204920380181,1.21778433102355,1.08850334863512,0.946099602594352,0.945437991138355,0.946574066793542,0.946820064441432,0.947538883786896,1.10716083021702,0.938366790211005,0.936713910081306,0.931813065050131,0.931762080476286,0.92942443480823,0.92911658142483,0.927220935259714,0.924956033539168,0.925008527389405,1.05244547682781,1.02381634809286,1.02640248779391,1.09365855158666,0.930633107481332,1.58009835768155,0.934273853444271,0.934392090100836,0.934399235707685,0.93463252990248,1.60726378202717,0.941644963144532,0.94234031649583,0.943429883896812,0.946506997581171,0.949439806260998,0.953568355987058,0.957202273044854,0.95560320883366,0.960996611516791,1.1059008549431,0.975156638133646,0.977250384553593,0.977742541189293,0.980693209867146,0.982062458710819,0.982761270812994,0.982374785818061,0.983102434769967,0.983259998011382,0.982811777165586,0.980252168993988,0.978515176446695,0.977940090393954,0.977806265659107
0.892190783020501,0.872211873977908,0.865043042278923,0.866216648255289,0.902012380370491,0.868904035261223,0.885081958145438,0.868478345748464,0.868664357793307,0.916993161267511,0.973069433521007,0.966604627239867,0.973746936160231,0.941003084823742,0.970571258487349,0.997944407220479,1.00496111864208,1.01215225802998,1.01228481198593,0.969179582343754,0.981208245774227,0.993834511943408,1.01505236449022,1.00475771264116,1.0058059904358,1.05493396000182,1.05498695460476,1.05501483709297,1.15979581410019,1.17324892499622,1.13636304585454,1.1387388299576,1.14171018663446,1.06578697259244,1.05642987477002,1.04916598607263,1.05071668972546,1.05219817561597,1.080639117087,1.1040776884639,1.19583327783417,1.19753759505253,1.20226208422093,1.18383195115085,1.20281167226523,1.08117759611303,1.08151319783927,1.0612156542442,1.05988473860453,1.08607127863945,1.08477129891777,1.08259242122537,1.0808282605478,1.14167754745714,1.13706475536584,1.14531503656406,1.13250596316587,1.11968769327288,1.12462241662355,1.11143448779074,1.08954013370095,1.08259540617634,1.07723149200195,1.07805068649823,1.0309579097128,1.03027568669225,1.00503114444786,0.97853487741045,1.0257339125383,1.02562317301093,1.0119043785469,1.00261094023402,1.00429144783173,1.00610140382365,1.01144946250281,0.879983545231378,0.881763044293574,0.874645600879261,0.874662457261221,0.865281637842987,0.862919448031432,0.864031661092784,0.861602405646388,0.853924691000692,0.854670436410616,1.08185409280031,0.992351593340978,0.859583719614152,1.17402414623738,1.17450564074356,0.883910284330825,0.885462329060985,0.885441781005623,1.17736602106112,1.17028275769768,0.894372582439798,0.894844140402982,0.895103898189152,1.14443049200821,1.12917854461634,1.12860697672529,1.10142536352283,1.07502783070092,1.05831680475645,0.909042155483346,0.909813206315528,1.13561295660095,1.25031546772258,0.997033621217671,1.23538342032734,0.895247544492145,0.947858599866782,0.897361394679412,0.897540127275083,1.33652994604054,1.03472566248224,1.12075306029094,1.15106411255789,1.05752833385168,1.20442837164069,1.19552070770816,0.945401724725496,0.945736364024598,0.946341523363772,0.943869023384323,0.938602444326199,0.937207286270218,0.933651790392803,0.932013982952722,0.930417257668578,0.930149720701099,0.927941932007941,0.926213290494357,0.926337537146371,1.07559987988148,0.928753872361355,0.931819590974273,0.93515737236876,1.42894600478476,0.93479635514472,0.935369254979578,0.934977077668675,0.934446306701973,0.935420393814311,0.940417339102383,0.944591526662225,0.94465965740181,0.946133181676616,0.947655093889814,0.952616060497812,0.954365656084725,0.960101299957632,0.961981627073922,0.965963026974094,0.974208179987821,0.977245407480769,0.977765216709415,0.978363102026442,0.980929415738335,0.982647676314297,0.981711603045855,0.981697685097064,0.982708565802716,0.982041822199416,0.981716131704945,0.980692316273947,0.979150368961735,0.978216667893219,0.978265443091775
0.892469052078853,0.879379035548163,0.862074277052946,0.898489625464375,0.90721926277899,0.907315271190037,0.897378778986924,0.891869929209815,0.891723943274595,0.916707249049767,0.953972120755096,0.961424544486585,0.944451827155294,0.987591813773272,0.988497336375111,1.04605407549792,1.05031845353369,1.05603284662696,1.02127194622201,1.03050965272159,1.04261194007889,1.04429162840159,1.04668312313412,1.04628915012379,1.03720118135395,1.05845412542328,1.07774425515615,1.09828739356247,1.16901870002986,1.17310170040782,1.14226644925275,1.14887090166439,1.15207497342969,1.1002810708173,1.07761722583172,1.11470531090725,1.10405009369839,1.09254053675045,1.09800696322741,1.09910743925797,1.20025532372928,1.198338593293,1.1990537571709,1.18387558494763,1.18317318283545,1.1678082686427,1.13309270737874,1.10459627635164,1.06519312932866,1.09757212755266,1.08607146911833,1.08362585220752,1.08202672716292,1.10700722508786,1.12286011024769,1.12314922116439,1.13659869986887,1.1411381034831,1.12206477194004,1.12377177447404,1.1267682873442,1.10675816944158,1.09847577514342,1.07134369163753,1.05727681481201,1.04566762827376,1.02097221314036,1.01266838913816,0.974255879532681,1.00991547570167,1.01808538260984,0.999487133399657,0.964078287323594,0.909335443917092,1.03381963881854,0.880168740790158,0.881102650030859,0.879751683672977,0.97899459995526,0.864581599127454,0.864504908955144,0.866201343740709,0.851749610635348,0.852947500545549,0.852923221871723,0.857955581065868,0.992140894288861,0.98847727606766,0.860604647622444,1.17571462828216,1.17562421496238,1.11686303781405,1.17654684025102,1.17851524725672,1.13169847226711,1.0502585507331,1.04345840049853,1.06647793987888,1.0583942415221,1.05163431684344,1.10494993928983,1.10177445403569,1.11497028343638,1.24695553365878,0.909169814251365,1.29245734538628,1.21925135049329,1.14331586038362,1.23947759110826,0.999874533238807,1.07023933929609,1.02840386268493,0.998507128306085,1.10934121084521,0.915948403943924,1.11439358428173,1.0977655402319,1.0833860484863,1.07735466943994,0.93841188926697,0.939675211723571,0.942681233437406,0.944116082253892,0.945793429201998,0.944328091452416,0.938368949528547,0.939816277792152,0.939710492998852,1.08262258835746,0.930489134526369,0.928446803483146,0.927711856917853,0.926042253928688,0.926251862729431,0.927922718982285,0.928747284698592,0.929996166021578,0.929428455893478,0.930765179073756,0.934160607969924,0.934879727655886,0.935366834984213,0.936168631125634,0.936721611158258,0.944726215630021,0.946514433620534,0.946523713869591,0.948525738995275,1.11774104812006,0.961295045019667,0.961105505323594,0.963183378613935,0.964954086048743,0.967276064128699,0.967886602044884,0.967046887431953,0.977515836872857,0.977975920722554,0.978888489326712,0.979615797528514,0.979908560523262,0.980062287878136,0.980100956859382,0.979670171480263,1.06142640119999,0.980263616203639,0.979443305222567,0.979866847555224,0.980444061200213
0.914396123564162,0.915157856644556,0.915494626632223,0.921642526308425,0.920824720167421,0.947549174707019,0.961701764190369,0.972154021008235,0.891373579805644,0.937886720432314,0.94380136609602,0.976743448193472,0.995022489954932,1.01285941270935,1.06503137273917,1.08183319176396,1.08201956043138,1.08227637155885,1.06576042235366,1.04982166795342,1.04313395422267,1.04366315253511,1.04335223063299,1.0435114049075,1.05620554001815,1.06873560119642,1.09710314636945,1.11358625595915,1.13263643807139,1.18470297319425,1.1812389049664,1.18462475351542,1.1881771992868,1.14634614218219,1.16651490253333,1.16616530323247,1.15809349580389,1.14196656196043,1.1414549103285,1.14876738038847,1.19806662583626,1.19724806369716,1.19531875490851,1.20611692254886,1.20911690286899,1.18257174050007,1.16266089838375,1.14527229719208,1.09946668011325,1.19674418030126,1.08763753715774,1.09476995988847,1.09691125220401,1.14032421157088,1.19415095896639,1.18185667392679,1.17528997432296,1.17537714779935,1.14082684193239,1.13512619147444,1.12569982529644,1.10990182908218,1.11918692114546,1.11984177802679,1.05809139780137,1.05230723320025,1.03630902486415,1.00116986803812,0.990669048798658,0.988153038147299,1.02464770501711,0.99712044777762,0.928859891733103,1.0087040368385,1.03370574995026,1.04861846756332,0.972694597640275,0.972591301302118,0.980408892990677,0.983336901179274,0.864533408818408,0.867130763875692,0.852104854693236,0.852228810602372,0.852402740462262,1.04577054559385,0.991982509195386,0.859038347055428,0.859776183122983,0.857645670078646,1.05325856275608,1.07871681480775,1.12075272943898,0.886607293054995,0.886961214348307,1.06225586100054,1.04115985746367,1.04318252722079,0.981964561543163,0.893873370692044,1.11713140243449,0.954337648332502,0.895382824341457,0.895691303783014,0.973657062919358,1.33356346768624,1.26567007966252,1.33302703605913,1.23851846514982,1.10168215000994,1.00231361345349,1.05233496743431,1.36049628422967,1.13925685315832,1.13900951856733,1.14715152575857,1.0856489621641,1.07803314788767,1.07739261056506,0.938173624572791,0.938764404644206,0.940791619637082,0.941783193058072,0.944174722654928,0.944878684247143,0.944974126942619,0.943192168708972,0.943562041457448,0.937820489149897,0.937473961262775,0.930293472576294,0.928135620302864,0.925846482036324,0.925099660494742,0.926734995565585,0.928705711483597,0.929550984541454,0.929206319779229,1.05945154947934,1.11231723342713,1.29735161942085,1.24519612366934,1.38277371727671,1.52273840583501,1.47283247646107,1.48140722625719,0.968147451023652,0.960354265318424,0.965452730950215,1.47441234658428,0.965250878089959,0.965456673148889,0.966344316246633,0.967700477545867,0.967343632973695,0.967209644643219,0.976051995461169,0.977355521129572,0.977280566984936,0.978005813716502,0.978534646930683,0.978749103521476,0.978098363108201,0.978107558944836,0.977507100417864,0.978292830214039,0.978905620798016,0.980154460475186,0.981709244027831
0.952067487535502,0.954868311645092,0.956942683685442,0.943789874462068,0.94397925232533,0.985677190450496,0.962036143495852,0.914776962957035,0.90779882796782,0.938708821981677,0.991340062098695,1.00168656435056,1.00813291763734,1.02540666965803,1.06554964425918,1.13927377376576,1.1293957884535,1.10937586399771,1.13657795743779,1.13629950813051,1.08405535849486,1.08513250026542,1.0860594033338,1.08629413579549,1.08687436000518,1.10541827486497,1.11573128041429,1.1285460972503,1.18649131497175,1.18652854033171,1.25310828680861,1.24661496693765,1.25324528492309,1.21752375087632,1.12858775495393,1.19761365780856,1.16401459484319,1.16385288395965,1.16434513114951,1.16617207214571,1.20691450367053,1.207063994274,1.20815389425731,1.20796666656767,1.22182155811038,1.20950491292948,1.19712208785006,1.17273071279449,1.19568135179788,1.09345164070072,1.12589677892351,1.12615894113869,1.12624731939115,1.14243903011249,1.18273861653462,1.18108969778108,1.17629153915279,1.17610477467553,1.21351410843215,1.17020197795242,1.0971724204959,1.1050095722052,1.09721052315543,1.07440776310708,1.07216921067001,1.0585906227162,1.04613099570133,1.0180766201692,1.03420894507588,1.03695940758896,0.99573047102758,0.995884365870695,0.935812305889875,0.933008240928615,1.04695185622449,1.04706395682622,0.971685279780058,0.969686160389662,0.982270277325179,0.989750806525844,1.00272353857595,0.950580524331892,0.999391324115005,0.994016073140317,0.987562738694932,0.857095045844095,0.987108414968896,0.982025798911761,0.979655461948688,0.863760651228086,0.97483740966291,1.0202961811994,1.06003293387107,0.969037155696974,0.885246521586544,0.884092423857111,0.946922369748353,1.25259414640947,0.981595202933824,0.890023393773519,0.891146889383184,0.892303159329377,0.893655362500514,0.894474106482403,1.33016751770696,1.22625082935941,1.04150347707028,0.993200081461825,0.87759662304412,1.0902458988673,1.30512886013576,1.07187893807548,0.953434579024893,1.13863001849206,1.13881601815374,1.05172897970725,1.07627092322485,1.05183564815828,1.18250913879673,0.936196833576797,0.937499031347427,0.939243341796665,1.15705048946756,0.944605770640836,0.944772385885568,0.945183590645688,0.944506884914003,0.944616106142582,0.938615502858826,0.936592165101327,1.07758268726176,0.92837457443677,0.927861644147869,0.926882995566848,0.92732795594446,0.928285706132541,0.998763406956064,1.10743390983341,1.24899293836936,1.04363383366136,1.29734311647359,1.24011737171542,0.954041436625718,0.962599678757225,0.965564252711016,0.967691984083037,0.970046199106063,0.971494331478541,1.06764586098796,0.969247273428908,0.969052358083528,0.967129767578115,0.966937656123638,0.968229536917989,0.968480159715707,0.969416675611801,0.971975656668651,1.07432180314232,1.03265358996511,1.03758700099417,1.03921060870479,0.99864747656578,0.972642679129907,0.974774343966127,0.975690552096868,0.97622692706027,0.977904883103097,0.978589253304156,1.68193295499824
0.928896762266983,0.955766227575233,1.01460832084674,1.01777685555714,0.977854829655011,0.963602793577209,0.963105416031745,0.964506159691368,0.999468083609398,0.998995678039887,0.997045843854127,1.01444059876215,1.02990656115667,1.08330873425987,1.08337490755491,1.10360932513913,1.13367556281037,1.15797745260457,1.16911652622947,1.11835013359715,1.11871407284913,1.12828518070946,1.13708505721973,1.09930540831247,1.1489177114111,1.13019717518916,1.13349611095016,1.13652543242214,1.17831664730971,1.17781590926899,1.22783191831216,1.22699653828767,1.22768951730965,1.22053643139592,1.22420208457365,1.19597493873814,1.16949473578007,1.16822307757204,1.17870055671849,1.17044461323745,1.21633655738363,1.2065860915828,1.20518128350735,1.24345111463341,1.24904283755464,1.2293787786073,1.2207351534163,1.20778734360608,1.21349112787572,1.1790233635278,1.13336647773335,1.1398445992542,1.14425881673856,1.18519732792596,1.18379423461272,1.17137376876719,1.1735990832018,1.1732333457373,1.21935189308359,1.15581005903594,1.11818581352334,1.1095362509662,1.10259281813717,1.10498060950068,1.10394494207055,1.07698326521551,1.07711668091017,1.07735488189184,1.04595625228399,1.08363344217901,1.02187516553084,1.03658625760824,1.05218082294592,1.04553660094808,0.917260101539691,0.917683031920093,0.955260935360984,0.913607817124124,0.895778860320059,0.982670983071408,0.867259263173542,0.921455192104155,0.846993797976549,0.989636221517837,0.985670202560819,0.985512050711119,0.984782569779921,0.864961404223174,0.973220145162617,0.943529966256535,0.949521301659521,0.994559779600676,1.03359098467378,0.882631446035391,0.883800276977655,0.883406248161334,0.884577037480555,0.884441660870203,0.887016586904521,0.889601450872537,0.890682706074049,0.891534207814235,0.892066728700674,0.893112856055107,0.96040498467336,0.887225411583819,0.891124475808288,0.882255795133826,0.876903536268205,1.212529609304,1.21115347025253,1.08931269399561,1.009481784323,1.1123544049468,1.09900637513448,1.09970302927823,1.09951664067802,1.09950612644916,1.04354406227751,1.09268559517105,0.937639443687885,0.938640222956594,0.938740176068796,0.943039853982865,0.944019400957662,0.945208357572193,0.952907842811066,1.07101770967398,1.06909944529055,0.994540621846671,0.928300719912496,0.929234020489671,0.92807706139687,0.926669129450493,1.0100176283663,1.10623691374105,1.0962580943567,1.10755898376895,1.41343311772423,1.08102762165852,1.28624358013335,1.23219195524849,0.961337330910247,0.963505132613496,0.9653079757289,0.969620751230848,0.971840953245855,0.973637558675401,0.973277832318246,0.979996780953574,1.46490444806331,1.05085858326207,1.0538591132266,0.969060205591188,0.968825551944055,0.968678043951441,0.969344239793832,0.966758681501908,1.03640353051289,0.968330761763126,1.15057212241818,1.01496007208993,0.971778308328465,0.969380954499158,1.10944333848321,1.11238557670011,0.956976183733134,0.922391886059132,0.92275802817208
0.960399969446574,0.962867327953352,1.03620918212609,1.01157489372232,1.0110779945823,0.992693890313189,0.99558125835074,0.998514556687219,0.999180481673053,0.998931862802928,1.03030053556254,1.03018978082277,1.03022189892687,1.06503474225912,1.1051890085049,1.10459594019585,1.14725246088694,1.20423682731053,1.18439186541626,1.15708665308106,1.14639320272607,1.1485413781791,1.15075790433577,1.20779673330981,1.22778600912491,1.15768787430571,1.16451825283367,1.17387985598473,1.28660453894481,1.20435542323702,1.22803751636358,1.22662136108804,1.22637099512001,1.22202373989183,1.20664854192832,1.17527976817358,1.17214350793247,1.17039378013977,1.21852900592692,1.1826147219005,1.20411509088389,1.20573046550203,1.20365403421468,1.23454392568531,1.22133000341838,1.2444982721961,1.22795274991189,1.20119070213026,1.22518829799732,1.19283142681747,1.1762102896236,1.16568687305253,1.15757351896556,1.18929632073659,1.18509429208865,1.19632999697074,1.18288553416855,1.17778887961779,1.20650767490451,1.17292444324778,1.11926533534167,1.11911283432191,1.11821482024334,1.1429349787038,1.09952724305314,1.09926752173671,1.09772053278819,1.09633450405997,1.06169082423058,1.07671026800721,1.04466717059988,1.04144454947686,1.00636978748535,0.973095054930494,0.97858003622622,0.956230700875926,0.995867894828176,1.04109699293982,0.977982086542359,0.891097127205011,1.00048795025584,0.994713380497049,0.983799384592822,0.981254412090763,0.985072742152313,0.976939374683699,0.979411492345601,0.975186926625379,0.967481964602251,0.966968925924476,0.994740843748246,0.980044823706508,0.967507719097481,0.88204107599945,0.883623505578031,0.884839405256752,0.885107893333863,0.885118570758307,1.24867124467008,1.13068036654829,0.890185921805577,0.890963472443975,0.89064689235307,0.887983245043123,0.888099201708025,0.888987623522834,0.892015754499234,0.992601374117833,1.20442913416509,1.09244167142402,1.1391136358302,1.10616437311554,0.908679865917985,0.909702034378799,0.913812810827465,0.914992257312822,1.10595286156893,1.15533456842845,1.1711060398508,1.22899430183193,0.937356569139656,0.938113084217946,0.93809697826009,0.941878035485768,0.943964361906519,0.94472152324451,0.96344551422908,1.2764711246501,0.931452811254814,0.928549962569904,0.927875476780498,0.932285178148091,0.936026796052631,0.935647156228698,0.943835717292635,1.03837890978368,1.08602262072553,1.08808597346064,1.09717647311089,1.0672565030917,1.22004134726621,1.22371043011748,1.21920803768003,1.03942697111398,0.974509337136833,0.974863095925502,0.973956374952698,0.97474185091709,0.975344453556712,0.976895216963759,0.976467487732283,1.05049638460138,1.05414521089945,1.01033844016776,1.0924700556922,1.0238603740467,1.00709804761666,0.964200208286404,1.14508518813201,1.317386571455,1.07556291686225,1.03044694623883,0.959415758290152,0.959638795171152,1.11080569281053,0.924505037638735,0.924574999540913,0.923804577398893,0.923592604723889
0.984600897354639,0.967522375707102,1.0366320830825,1.00936267235082,1.03100900471637,1.07528632029019,1.03952028716283,1.00389287922313,1.04565834579379,1.03905703207615,1.03005538653238,1.04191730956171,1.05580562298894,1.05654666778886,1.10583000326595,1.162015550413,1.17394389201132,1.18737212904341,1.18562030677281,1.18227747434341,1.17237127053296,1.19313117606447,1.21157796346741,1.23410292780401,1.23315472672586,1.21637758008911,1.21640496505255,1.21613776837134,1.20161171272066,1.21603056948999,1.28140488029298,1.25390220703572,1.23375492718224,1.26897344517569,1.30520295526208,1.17628179393537,1.17445541897071,1.17528253502163,1.20368385521471,1.21386586054814,1.21255250326514,1.21085781184745,1.20905911427648,1.22930288663305,1.22919390615915,1.25264176515351,1.23547932183536,1.20899911372714,1.20911552568814,1.19792911842634,1.2097866309349,1.2139572785395,1.276818355396,1.27863532279139,1.18932457084625,1.22943411137539,1.20998442400679,1.20172433212554,1.20544218004246,1.176026905466,1.14576797879515,1.1380443718462,1.13319383863471,1.12104742704437,1.12147623244573,1.12059070780488,1.11271509858628,1.10687675447275,1.09372094896162,1.09408569192895,1.09371125184058,1.05785909505864,1.03154396203967,0.978913559455935,0.978873522660683,1.01150072697699,1.03124456669559,1.07560112139959,0.905190281309831,0.889825274321669,0.999831345376877,0.997846307277707,0.995761084167244,0.869155066909101,0.974740915675076,0.904697605943092,0.978598963931429,1.12170862983369,0.965615152537073,0.876115386865293,0.876335659127687,0.973635882948296,1.16334142984233,0.959577902467111,0.883316153265308,0.958960846300131,0.959959607130854,0.959098681761442,0.964107205949739,0.890937405358998,0.889801083130653,0.932555562843726,0.968179220046584,0.887756647301061,0.88979266032523,0.893007035779354,0.893208801063999,0.893503010385742,1.07814565070665,1.14971938363722,1.15480770092996,1.13918427733521,1.14153585831393,0.909973797896412,1.13890138598821,1.14173440329776,1.11821132821876,1.15529885785282,1.19511951559068,1.06865599748987,0.936249539778032,0.937667108508223,0.937566232637966,0.940164694596911,0.939154146583879,0.938810943744699,0.976198657658514,1.02527102699959,0.93401760210562,0.938405304576843,0.939408685485653,0.942681258760976,0.944812630199103,0.950197358306311,0.952799427968345,1.06778586506518,1.07509357792953,1.26650749039175,0.965704023271698,1.17073149546838,1.21713565070541,1.10542227145772,0.975863196139927,1.0278102500301,0.972601910012717,0.972945667977855,0.973977860698844,0.974341700125254,0.975586171486768,0.976539992397293,1.11574898710091,1.04883199335895,1.05172291730398,1.05276805431174,1.16048190725948,1.51627645915353,1.12018690256896,1.13653883120677,1.34064176605564,1.31702325422533,1.36159603153858,1.04498149545151,0.951626973705962,1.11136968379163,0.922017591584199,0.923966435543451,0.925265318231461,0.925154205425233,0.92360977126207
0.960862113983067,0.968151103962822,0.962302900397314,1.05282304576912,1.09537431874383,1.07821442834264,1.10016686940806,1.14368375107986,1.04357817521214,1.12497862746252,1.12514861764279,1.07761201093041,1.0559090724103,1.05742249616209,1.15245853862351,1.19225794103757,1.17904070537201,1.18125092287022,1.18556616847813,1.17330204450229,1.24980227779657,1.24979709252446,1.24867133143731,1.24831615842301,1.23493476588894,1.23846843373661,1.2388725367945,1.23775464842509,1.23536542023493,1.29682871831085,1.29373605007111,1.28402426139557,1.27738174572527,1.28698636290127,1.31483362501111,1.25291296376725,1.22812653135072,1.21524125491597,1.21477991175084,1.21472221116842,1.21413335809836,1.21349583406616,1.21415546091459,1.22927161973402,1.23915261443712,1.26453697471461,1.26489165137827,1.26351109008755,1.26370991133995,1.20648510106607,1.24432829803897,1.22355527916909,1.19677824522729,1.19684379785355,1.28074946061713,1.28047732254398,1.28319250700666,1.2820567348957,1.22991216015434,1.20250650169735,1.16018974666245,1.15524203147249,1.15149113866176,1.14518726886143,1.15492285160949,1.14164219422193,1.13986547427064,1.13890844254013,1.15109119054812,1.13428041437626,1.09449780821896,1.06761958330771,1.04771502851864,1.0407861228097,1.04952037469287,1.07671465951113,1.07780428502365,1.09045819281057,1.00035780699422,1.09975070268651,1.10141337328379,0.998551899540682,0.995331808207624,0.975209282748479,0.974766101220706,0.977020720820549,0.975653111282358,0.973611519650935,0.963531894119382,0.875730990131585,0.875946794402246,0.95794094510407,0.959305831662617,0.958547342523298,0.959528557469724,0.95975327613241,0.960768343371017,0.942776771023113,1.23573192412651,1.03276950816318,0.992565384078506,0.98950694237843,0.977937122587079,0.888834372049981,0.890210367337884,0.89231560414701,0.893390335379849,0.893654992168045,0.894050118190854,1.13210075912433,1.06569820743934,1.13464972126466,1.15057989818739,1.15177674284516,1.15111804340092,1.12910832763456,1.10057216810488,0.923025701079977,1.04657311312249,1.04563189769533,0.936247132024842,0.938058086323455,0.938403481011879,0.939904723682893,0.938142800192914,0.938327464000629,0.989093965202385,1.02755440424568,1.01525518213194,0.943746572367449,1.00025068043328,1.01796289560068,1.05889299542907,1.05011525049434,0.957091835036204,1.06779904315216,1.0665732599728,1.06625874182926,1.20106026731253,0.97161828206257,0.970534810422314,1.0600603363753,1.43752455984127,0.972753487159542,1.03714824236688,1.03718991097555,1.05847577324758,1.11373861704131,1.12298094716704,1.1235176453963,1.04407568256952,1.04603657014695,1.04390081767218,0.962871301277152,1.5179278310019,1.51891743051924,1.10908794033379,1.08657090212514,1.08464952023564,1.08438710503948,1.14350894137617,1.05873079728927,0.947629683682538,0.953120358598551,0.923241265006297,0.926359648594876,0.92692710038585,0.927696059224588,0.928318295031035
0.962535156172436,0.973062452347979,0.975280726873766,1.06838797089951,1.09507467601107,1.1048032664767,1.11050985256369,1.12671642300727,1.11999287015167,1.12234139144702,1.12320126555206,1.09928146668222,1.08699339004687,1.09167238856629,1.13513064727784,1.17481473510351,1.17864102721137,1.18015568556712,1.17780243111936,1.1758942400041,1.21339256127254,1.24802389997072,1.249324769357,1.24805778427533,1.24496312006552,1.24020598435665,1.23984451858185,1.24021536042485,1.24163457666782,1.26653894245971,1.28057293139854,1.28617702513033,1.28412149188317,1.2868199410291,1.29055397812143,1.25563569051674,1.23025133127048,1.21629609492588,1.2160435323014,1.21545133555594,1.2144407936306,1.21484049968118,1.21530799139402,1.23164640162787,1.23988048457765,1.26305936926206,1.26404025194987,1.26500181208558,1.2644386470105,1.26491620852564,1.26639201523985,1.26838964451671,1.27040175498547,1.27103399785882,1.2850029788467,1.28294495995756,1.28376195816107,1.28275523616267,1.23622910815534,1.21129784098148,1.17215334441728,1.1693996432789,1.16483551346761,1.16004484929927,1.15534601603476,1.15234249503225,1.15170485834475,1.15262201891621,1.15257800661354,1.14091507581702,1.09129582965649,1.07282965256137,1.07120827877639,1.06678697633002,1.05997239057659,1.07280473723165,1.07877731660757,1.0803198337359,1.09806439895404,1.09834534643278,1.09871483433212,1.00243429285506,0.999748482818732,0.976246364011287,0.975812300984761,0.976346766044622,0.973200717124179,0.969902771545146,0.960533738010496,0.959753733241621,0.959559328943499,0.958549726988043,0.958648187654045,0.959488784234288,0.95999167903986,0.960685333328377,0.961423149749984,0.961706209659114,1.03166307782579,1.03160237375323,0.99360895987757,0.990134414587295,0.989493786553677,0.888864249746077,0.889978181065946,0.891988094536335,0.893302972575414,0.893604331267315,0.893753170517475,0.968297201583006,1.05699856567869,1.13116636709195,1.1486947726135,1.14602980400372,1.13955897169625,1.10116222449321,1.08541956044506,1.0761426593891,1.06767328395172,1.05874982158846,0.93820311474184,0.938994680117036,0.939349373563569,0.939903590938493,0.939432388575269,0.939077040181906,1.00044428163666,1.01801055578873,1.01575304197382,1.01375940941094,1.00624014704085,1.02748487334877,1.05051309703286,1.04476036005067,1.03964138120585,1.05730518146221,1.04823461560242,1.04132232081528,1.01739032316679,0.973029500406424,0.972375122878977,1.02268982855967,1.03666238634368,1.04768623845855,1.05803233815148,1.06880407533685,1.08155447999246,1.11273119475546,1.11686341276132,1.12000326672715,1.09083882589581,1.04937668186764,1.05050447735953,1.09159722607347,1.11302675144094,1.10555777815836,1.09892543856087,1.09247317039468,1.1072115192797,1.11569095805414,1.12799062804336,1.07419766679137,1.00045405831274,0.934876777830028,0.928876520076341,0.928119171175066,0.928016425747885,0.927979840183645,0.927656686222685
0.965062475304218,0.97491099800768,0.975968850347971,1.08077375959003,1.09559230249516,1.11336333384847,1.11916318276764,1.13030541694617,1.11698377344739,1.12064528535773,1.12176753398216,1.10498356465715,1.08398364616332,1.09780008965754,1.11653389940464,1.17274587682122,1.18043410993868,1.18313356587045,1.17500169575269,1.17543517146224,1.19162354294434,1.24146832198411,1.23298818081891,1.24825049454494,1.2452256057512,1.23703291012411,1.2393378378856,1.24054030988119,1.24173240374148,1.26146550683578,1.27139491338573,1.28739006532814,1.28456981389699,1.2846169304916,1.33318381159503,1.25649022052174,1.23629532876599,1.21718318756052,1.21719881482869,1.21694856024707,1.21194804117947,1.21468652859431,1.21581788993212,1.23378039760283,1.23911286875609,1.2559634118717,1.25914869522805,1.25369901157479,1.26956174628253,1.28105724752383,1.28193944701173,1.28149999778115,1.27196133773606,1.34169819387076,1.31467709608793,1.27758527963649,1.28136554097749,1.2796144103376,1.24056389921664,1.21934004446468,1.17175941671689,1.16930310668649,1.16333598584305,1.17131128816679,1.16311545887528,1.16314939538916,1.18505309611862,1.21300063634436,1.17861986159708,1.2080517768233,1.08331766201326,1.08327908784448,1.08073934921475,1.07873016607364,1.04580911834213,1.00860337701868,1.07980493988802,1.07710577150936,1.09983121406087,1.11632044256526,1.12786724787861,1.01040169040575,1.0233979805436,0.977526302941414,0.975856314063873,0.975900781289529,0.937468470935305,0.878043560617776,0.959527137114015,0.959363987554089,0.961799595591179,0.960097774456587,1.02741636887981,0.961495951831197,0.960148277955752,0.960749362616248,0.961227238576469,0.960578830709467,1.03354473575864,1.03167948342268,0.995974801118036,0.991367606018828,1.03867575818074,0.887543888246865,0.888348404434629,0.89148908613245,0.892939874617657,0.892769442328457,0.892962372537457,0.894434202275659,1.04280327443888,1.12507519647489,1.20313219653308,1.14258267787671,1.12792221085142,0.92043426058673,1.08296946098039,1.09290575826902,1.070703799146,1.07157468502135,0.938240186309487,0.939015091187153,0.939168217303338,0.940324871007388,0.94017883230835,0.939024564441828,1.00761367928975,1.02137674920242,1.02436158325114,1.02738603409438,0.984904284679326,1.05186104655776,1.2724231189828,1.04037015163944,1.03036944094748,1.10771518381354,1.04268167755342,1.02901249554903,0.974684642137619,0.974135333834799,0.972571778759617,1.00739481375247,0.973075262441411,1.11090871175123,1.1113191201475,1.11165300982458,1.09190773040285,1.10917094352718,1.10328448965225,1.2813144296284,1.57798946289682,1.05182481527379,1.054593218803,1.12100458243862,1.12301253025252,1.07597237822783,1.07949415398897,1.08285650534249,1.26153192641002,1.26139610120446,1.2619036637958,1.09034377475621,1.11829603275128,0.92868362383308,0.929759775045556,0.929345308092901,0.928685131660867,0.928157078067394,0.926982578504033
0.959826077472786,0.97895537258263,0.983836512881589,1.04002687857057,1.14288688932387,1.15393799016121,1.15384671189164,1.15372356965905,1.25133459668981,1.17993816835109,1.17077981406525,1.16492265165524,1.15543506206188,1.16154837135467,1.16142861692593,1.1665269832136,1.18162562445185,1.18212422152821,1.17324087447297,1.18211532697543,1.29964890732408,1.2994664706651,1.3083274615452,1.22293131199835,1.25013722138276,1.27107672959388,1.25259008439776,1.25321808556566,1.25180860777181,1.27543221550655,1.29224014201689,1.2951078952845,1.29501292533038,1.28803003475572,1.3315683574248,1.28593607615813,1.25673089716976,1.25154038436486,1.22287533850506,1.3024135350638,1.30181621742842,1.25734748851347,1.23067458315685,1.2325379092254,1.27929453444239,1.2985040226604,1.30085014003762,1.30168328567991,1.30220876129574,1.31929542019781,1.32055873984352,1.3028142104626,1.29721708642541,1.29700121649033,1.30561980133522,1.28180968435042,1.28146975054513,1.27977937031965,1.25067557699044,1.21683744684302,1.17083352832059,1.17451000537026,1.1770769153475,1.1881279540082,1.18898963881447,1.20399241792573,1.20981186380256,1.21539668740569,1.20751697416173,1.2051374617759,1.24336434801813,1.12954163803038,1.09338202858155,1.08887935024912,1.09265857840267,1.04322254066821,1.08302790029118,1.08995508130104,1.09518466155353,1.05917150862018,1.06792522235262,1.00444572418512,0.948426639428242,0.965954226375884,0.971991949123902,0.877234084484115,0.91805474699904,0.878633334641238,0.87889783988125,0.963417516378789,0.963658508622411,0.961440657155599,0.961496382861013,0.957804213851951,0.959040053883146,1.03411881925889,0.990779895024272,1.02736808146705,1.02732454929497,1.03348007744392,1.02032138686383,0.946244449460814,0.886835620845646,0.887871922222373,0.889747559897028,0.891626804614595,0.893246800660511,0.892578935999335,0.892517909946379,0.897496132222742,0.901119796569038,1.11826782682986,1.19169655743409,1.05810221214156,0.916609667562863,1.08004341726087,1.07536669381491,1.04647029046537,1.19771075431229,1.197788199601,0.937385179121753,0.938679701043381,0.938229052565855,0.940771392797291,0.940938527765394,1.02897726008451,1.02971259886259,1.03075181258485,1.03153333654154,1.27017124616513,1.48590403596207,1.07612094997506,1.08666863683319,1.08753512365251,1.42034957562321,0.976259601446364,0.976349418426539,0.975420376544212,0.974881538606101,0.974488065737684,1.10630941412124,1.10671484264873,1.11055704154932,1.10802427285549,1.08487844028518,1.05315826253345,1.07393536092602,1.0334562885879,1.2733172917814,1.60319790437018,1.11439004582042,1.05400756010207,1.058085439649,1.35121178557996,1.06766274351931,1.11414211410952,0.990359167830169,0.922909373833142,0.923822653635105,0.924445942669649,0.925703001399422,0.990088939000881,1.2898572449362,0.930344271923495,0.929522726768413,0.929619985616149,0.928714490474158,0.928294444109228,0.927361379400547
0.953573005832041,0.983398700767182,0.990524367088421,1.03842755927678,1.09422858932232,1.20210314388627,1.19373717339568,1.20433916000298,1.18612522207151,1.22662744091938,1.19418882870763,1.17686193012476,1.1561038660605,1.16369526430637,1.16377096574365,1.16497040529414,1.18016282649911,1.17936687655007,1.19469549061651,1.19493379160413,1.31863354005543,1.30145538312816,1.30493389768143,1.22350080184005,1.23390053276621,1.24980110299108,1.25302789962111,1.25505698571125,1.27955474870665,1.32743248751628,1.3096733093816,1.30973240113739,1.30028443013329,1.30235287828822,1.32159213305066,1.29845571730392,1.26708512576032,1.2601624855323,1.28156274797078,1.28121411145777,1.2911765018237,1.29177679552687,1.29137255223158,1.28113503037558,1.31704115589702,1.31598039896988,1.32661797313984,1.32684700824263,1.33687262826937,1.31987565277124,1.31732695695737,1.32695030016233,1.32784862845879,1.31244315720806,1.37173953508226,1.29853796055209,1.29794803728164,1.29644979401383,1.23750812364803,1.2375595542554,1.23664164774544,1.22078413736804,1.20619651260695,1.20486794466884,1.22550046088149,1.26797821135563,1.23852885019634,1.22013487118402,1.20495280345739,1.20411330518344,1.17547819281403,1.14669169492031,1.1223443449586,1.10555295332462,1.08320556214945,1.083404531607,1.08426677402086,1.05471362903369,1.03396545916715,1.01898120406697,0.981270636711461,0.988068280864747,0.96502008894562,0.967923970925345,0.966005588779368,0.966387086467581,0.964711398251876,0.963855899672668,0.963808248719276,0.863545123606472,0.863644464169856,0.864117873549236,0.86452703811415,0.863672829559611,0.864422782873635,0.97311657497959,0.973952423608162,0.974896096194676,0.974654269666221,1.07092633131449,0.883701614722942,0.884461213789752,0.885261435740797,0.887249022834592,0.889621720172114,0.892543310144735,0.894784722031712,0.89482038922423,0.898278192626747,1.16058974519465,1.1088451358097,1.11304350661038,1.10592752678784,1.10552977948771,1.17059188885146,1.09199532957068,1.06575463420533,1.05599839260602,1.08380335455333,0.935500727539859,0.937076969469194,0.939655360412038,0.942717437668555,0.942917751440647,1.02958512773241,1.04279295791282,1.03965791171366,1.04488084180144,1.02240292117593,1.00856119177187,1.02805952503757,1.06366363521242,1.21424085651098,1.00989190231502,1.47026604497363,0.975738333852133,0.976592466017328,0.97689462463685,0.977390137906152,1.10690188293128,1.10399911727495,1.10601845180876,1.10470881749564,1.02378799191551,1.08643327177805,1.26372839599323,1.135322957926,1.35771718983115,1.28219851768972,0.931821953048435,0.931287906789687,0.930184687810219,0.928462350523727,0.928298800582859,0.927740942327217,0.925900961197612,0.92468060453056,0.923125658159292,0.923624430547002,0.923541131766101,0.924533719958952,0.925156208677945,0.926238014759588,0.926744084610022,0.927605097139412,0.927637417377339,0.928429005723838,0.928406970199624,0.929763476850619
0.991458874377954,0.995561423504425,1.00237411370528,1.03773205718862,1.08411588696943,1.17546045065123,1.18248594635356,1.18579304676167,1.18619915969734,1.28439837993873,1.2235321129466,1.22467725465886,1.22873371839741,1.23054432620391,1.23158541861626,1.1762980982393,1.178010951795,1.17649631307468,1.22013145424423,1.22026748193461,1.22138290683291,1.23279214488921,1.22592840230601,1.23519948367615,1.23674792565434,1.27550132610401,1.27217803216875,1.26845865005804,1.3130073515955,1.34304654548914,1.34967930331754,1.35198826150023,1.35017212707696,1.31078457757267,1.34908250664735,1.32946721887978,1.3268146319848,1.32300654539885,1.36442042935904,1.2807528312738,1.29308968594915,1.2928355361788,1.29347029881808,1.31162937834646,1.32677162549122,1.33254651732683,1.34023245033401,1.34935145324565,1.34970180775806,1.3489197639661,1.37365119522604,1.36419889530482,1.37231911729722,1.34146337266804,1.33846680108739,1.30818616815928,1.31083960104217,1.31200417190332,1.29607290182393,1.28779853608248,1.23010167481756,1.24545574545365,1.26008722978361,1.26113138541483,1.26028023287036,1.26199943223233,1.25764221165685,1.26538576827661,1.22646586789933,1.19655252045345,1.19311676935203,1.16078215820911,1.12299361091534,1.16375921608418,1.1636183102678,1.08156786181529,1.08413899076245,1.06941902287069,1.10441887840423,1.00033514888163,0.998385423740836,0.991464654474985,0.962377954910514,0.965696000777403,0.966616365101495,0.962416696263041,0.964330967331859,0.964507297061789,0.965997375830024,0.862187877032935,0.863464317016241,0.86354520386365,0.862456083908406,0.862681739117074,0.864018398114084,0.864746693129616,0.923599991718159,0.97451843689266,0.88574614105011,0.895296711719181,0.882679066171537,0.884061644428815,0.884018032072017,0.888003033377,0.889730331575732,0.891969169858338,0.898995970525261,1.21529530390334,0.900415850036849,0.901159316183259,1.12044496211296,1.12599403964141,1.15951797923798,1.16673551569346,1.15587270166337,1.05572557032156,1.0607076498851,1.25116438723338,1.01174174778339,1.25594601165506,1.23292515245146,1.07774731031544,1.03465195962701,1.03516375002328,1.0350230305385,1.00398440516361,1.00507452431667,1.0003672080294,1.01122630443415,1.39283564959375,1.102969846838,1.04757092417661,1.00018256170799,1.01155488058938,1.01381539294817,1.10319349729735,1.0135940995858,0.97885368784721,1.05172494446979,0.975549948838278,1.10731817196004,1.10762734817409,1.0740509888349,0.954385523493899,0.952201866598361,0.94167131302725,0.944006870219538,0.938740276309288,0.938611738839903,0.932119056523977,0.931325553265062,0.930531312932024,0.927870359579162,0.927886196292653,0.927035306189385,0.925403840076415,0.924682335104005,0.92460563872317,0.923227397989395,0.923350721806548,0.923705692525952,0.924921047722323,0.924715209410153,0.927188346081132,0.927505141871082,0.927349115900145,0.928251484401481,0.928645193900156,0.929815488543596
1.02518144723126,1.02916349139182,1.07155168139495,1.08577969776524,1.08558729595618,1.15191165938133,1.17206357663169,1.18059512170534,1.23160450783885,1.26259348970021,1.2039783245343,1.22320237719022,1.21912723685386,1.23030260130624,1.21603778911256,1.17694622049752,1.18213101045405,1.19986804044116,1.23484767997469,1.23350517255943,1.21864898693449,1.23593932748294,1.2361663723132,1.23825057708745,1.25645498809853,1.27770627091478,1.27985680138166,1.28119968867803,1.29658978907366,1.33334110926733,1.33424273920944,1.35340331676516,1.35052993650158,1.35783683218826,1.35014927136065,1.35020067303962,1.34008507560939,1.33354379295887,1.34336423894271,1.28627679186547,1.29904210047394,1.30292740943912,1.33977688305986,1.31261238300653,1.3310039411599,1.3932811804942,1.36360708904695,1.40068560447118,1.34843720256002,1.34789992338687,1.344387611106,1.36137903001578,1.37357798096594,1.35297506504856,1.44248403698428,1.32618098045426,1.32893472369204,1.32979824969302,1.28802361168074,1.28034825104294,1.27523691722953,1.26534268916796,1.25469409440185,1.2627216999527,1.26263773268529,1.24173731849065,1.25038577731439,1.24344326162003,1.26644271944828,1.26778250815298,1.20180624795308,1.18367093942278,1.18438914909667,1.15240343903511,1.12725481557824,1.11371049220799,1.09426325326016,1.06861243570653,1.03087088140425,1.03150242163506,0.998118519428047,0.994403553744716,0.972272258808989,0.964003911601832,0.981472551679264,0.964084531950214,0.965234654282791,0.965567525993357,0.966150911795367,0.873478063802098,0.978079948461558,0.925289526987637,0.865087771950015,0.86484945370567,0.865337052120323,0.865912163446361,0.869219909464826,0.859886951889026,0.860316802899461,0.860493984674803,0.883403712588701,0.884462234963817,0.884984830260718,0.890157874117808,0.89119524459866,1.12050227052887,0.901347637624593,0.901215017638608,0.901294929762365,1.14293474177346,1.14234471447781,1.13367368948864,1.16073801437133,1.07748438916547,1.07894988816544,0.931175023315356,0.93191737727384,0.931545445859115,1.06267793000507,1.11215604904208,1.15152793368363,1.10916667656489,1.07411552600786,1.01617140372027,1.07640374260747,1.01430474282899,1.00587953606389,1.00591908908026,1.00348839565526,1.00105775673641,0.998641501704494,1.01799895891213,0.997710162414295,0.996924444756203,1.07610016644467,1.03381553897744,1.02417427108674,0.983881205572474,1.05077177099835,0.974972092568028,1.10738619824579,1.10818817647141,1.2777579068509,1.27690005134525,0.952701112513046,1.16675497775989,0.94579548263221,0.939535663369649,1.27922340894872,0.938504494540022,1.5007645953985,0.937770631299062,0.933629755064941,0.934308643978693,0.926100560724764,0.925123605694375,0.9243975591169,0.922967962541203,0.923673854532699,0.92409906573171,0.924995325055774,0.925356750124394,0.925327626800025,0.926462602683017,0.928648861179418,0.928280951544689,0.929353010685848,0.929350184833445,0.931222117929849
