1.04763, 1.04792, 1.04652, 1.04452, 1.04246, 1.04126, 1.04366, 1.04161, 1.04341, 1.04318, 1.04231, 1.04293, 1.04193, 1.04092, 1.04178, 1.03799, 1.04258, 1.04038, 1.11923, 1.03995, 1.04055, 1.11541, 1.03372, 1.03345, 1.11919, 1.1258, 1.12518, 1.03283, 1.03024, 1.02736, 1.02631, 1.0236, 1.02922, 1.02748, 1.02763, 1.03, 1.02956, 1.03335, 1.0342, 1.03433, 1.03217, 1.03172, 1.03431, 1.03394, 1.03344, 1.0322, 1.03184, 1.0316, 1.02777, 1.0278, 1.10784, 1.11021, 1.09882, 1.09809, 1.11136, 1.10715, 1.02209, 1.10633, 1.09384, 1.06895, 1.01511, 1.01468, 1.01443, 1.01456, 1.01465, 1.01477, 1.01486, 1.01465, 1.01234, 1.01336, 1.09473, 1.00692, 1.00678, 1.00707, 1.00737, 1.00778, 1.00835, 1.00484, 1.00504, 0.997737, 0.994663, 0.994404, 1.10474, 1.06692, 1.10221, 1.10375, 1.0195, 1.01839, 1.02071, 1.02163, 1.02178, 1.02286, 1.02391, 1.02509, 1.0244, 1.02427, 1.02391, 1.02033, 1.02144, 1.11118, 1.11676, 1.07479, 1.01654, 1.01777, 1.01881, 1.01881, 1.02008, 1.02156, 1.07921, 1.01969, 1.01871, 1.01761, 1.01696, 1.01724, 1.01672, 1.01704, 1.03302, 1.0331, 1.06375, 1.02184, 1.02109, 1.02117, 1.02083, 1.021, 1.02332, 1.02338, 1.02489, 1.02497, 1.02471, 1.02385, 1.02414, 1.02446, 1.02249, 1.02514, 1.02514, 1.0252, 1.02545, 1.02732, 1.0284, 1.02983, 1.03038, 1.03044, 1.03201, 1.03197, 1.03184, 1.032, 1.03316, 1.03395, 1.03396, 1.03301, 1.03278, 1.06771, 1.0359, 1.03652, 1.03729, 1.03713, 1.03776, 1.06955, 1.03948, 1.03903, 1.03945, 1.0406, 1.0388, 1.03976, 1.03992, 1.04067, 1.04068, 1.03929, 1.09222, 1.08767, 1.08806, 1.05135, 1.05481, 1.0546, 1.0489, 1.12027, 1.12205, 1.08976, 1.09346, 1.06498, 1.06392, 1.06459, 1.11838, 1.06751, 1.11287, 1.051, 1.05152, 1.05104, 1.05047, 1.05294, 1.05396, 1.05201, 1.05215, 1.05326, 1.04932, 1.05002, 1.05145, 1.05268, 1.05335, 1.05344, 1.0543, 1.1017, 1.049, 1.04853, 1.04632, 1.04775, 1.08827, 1.24109, 1.09532, 1.05272, 1.05257, 1.05116, 1.05204, 1.05094, 1.11231, 1.41884, 1.11548, 1.15334, 1.18432, 1.1322, 1.19884, 1.09889, 1.18187, 1.18152, 1.09078, 1.08771, 1.08804, 1.06827, 1.06959, 1.11814, 1.07516, 1.25564, 1.25613, 1.12645, 1.05307, 1.0496, 1.05045, 1.05075, 1.05609, 1.05649, 1.05479, 1.08068, 1.05601, 1.05966, 1.05765, 1.05782, 1.05737, 1.06, 1.05984, 1.06, 1.05988, 1.06091, 1.06248, 1.06361, 1.06301, 1.06384, 1.06371, 1.06401, 1.06355, 1.30148, 1.09906, 1.09123, 1.12273, 1.14589, 1.1018, 1.10062, 1.09656, 1.13041, 1.11945, 1.11749
1.04875, 1.0476, 1.04799, 1.04636, 1.14387, 1.13372, 1.1452, 1.12669, 1.04506, 1.04444, 1.04544, 1.04662, 1.04659, 1.0422, 1.04275, 1.04377, 1.04412, 1.10503, 1.12321, 1.11937, 1.12319, 1.09234, 1.1093, 1.08815, 1.24591, 1.24741, 1.03495, 1.03527, 1.03218, 1.02841, 1.11305, 1.02862, 1.02972, 1.03013, 1.02995, 1.02962, 1.02867, 1.02872, 1.02849, 1.02706, 1.02829, 1.03001, 1.02882, 1.02845, 1.03224, 1.03081, 1.03087, 1.02956, 1.02694, 1.02591, 1.02574, 1.02506, 1.11464, 1.11196, 1.02293, 1.10032, 1.02163, 1.01913, 1.01836, 1.01815, 1.01746, 1.01496, 1.01444, 1.01448, 1.01466, 1.01463, 1.01483, 1.01456, 1.01311, 1.01387, 1.01466, 1.01092, 1.00727, 1.00688, 1.00715, 1.00716, 1.00665, 1.00435, 1.00129, 0.998719, 0.995162, 0.996027, 1.10504, 1.10472, 1.10376, 1.35732, 1.0201, 1.02094, 1.02084, 1.02154, 1.022, 1.02403, 1.02412, 1.02416, 1.02309, 1.02269, 1.02017, 1.0203, 1.01906, 1.01763, 1.0156, 1.01611, 1.0154, 1.09161, 1.02207, 1.02144, 1.02014, 1.0201, 1.07577, 1.01473, 1.01559, 1.01632, 1.01722, 1.01702, 1.01653, 1.01672, 1.04261, 1.04349, 1.02013, 1.01999, 1.02077, 1.02077, 1.02183, 1.02289, 1.02333, 1.02301, 1.0232, 1.02316, 1.02282, 1.02305, 1.02318, 1.02306, 1.02396, 1.0239, 1.025, 1.02762, 1.02778, 1.02841, 1.02979, 1.02782, 1.02874, 1.02972, 1.03217, 1.03187, 1.03193, 1.03203, 1.03277, 1.03447, 1.03352, 1.03255, 1.03317, 1.03486, 1.03623, 1.03651, 1.04086, 1.03926, 1.04014, 1.04156, 1.04244, 1.04211, 1.03819, 1.03857, 1.04052, 1.03948, 1.04055, 1.04029, 1.03984, 1.03936, 1.03939, 1.03905, 1.12295, 1.05132, 1.05464, 1.05558, 1.04611, 1.09458, 1.09267, 1.0979, 1.09543, 1.09481, 1.06547, 1.10059, 1.64708, 1.07, 1.05704, 1.05021, 1.05372, 1.05345, 1.05469, 1.05453, 1.05381, 1.07906, 1.09036, 1.09484, 1.04789, 1.09871, 1.09328, 1.0879, 1.08799, 1.09538, 1.04905, 1.04943, 1.08056, 1.04725, 1.04764, 1.04711, 1.04708, 1.04687, 1.04817, 1.09219, 1.04794, 1.04904, 1.09985, 1.10171, 1.10187, 1.12132, 1.12752, 1.1225, 1.10793, 1.10454, 1.02865, 1.03277, 1.03447, 1.03506, 1.09352, 1.09473, 1.06726, 1.14452, 1.12009, 1.11721, 1.25648, 1.33735, 1.27504, 1.0823, 1.04915, 1.05011, 1.04967, 1.0528, 1.07895, 1.07736, 1.08147, 1.08357, 1.29248, 1.05347, 1.05593, 1.05617, 1.05643, 1.05912, 1.06005, 1.0604, 1.06163, 1.06128, 1.06293, 1.06327, 1.06208, 1.06453, 1.06593, 1.0668, 1.1189, 1.12315, 1.1257, 1.12592, 1.10246, 1.10537, 1.14038, 1.09572, 1.13271, 1.11985, 1.13245, 1.13218
1.14645, 1.04771, 1.13939, 1.05522, 1.14287, 1.14396, 1.05653, 1.05319, 1.05285, 1.0527, 1.04587, 1.0489, 1.04828, 1.14258, 1.27514, 1.04833, 1.048, 1.11241, 1.11101, 1.11992, 1.12145, 1.23633, 1.12828, 1.08054, 1.11858, 1.12914, 1.03518, 1.03578, 1.03148, 1.03717, 1.11788, 1.12018, 1.1255, 1.10817, 1.11511, 1.10675, 1.09901, 1.04105, 1.04052, 1.03732, 1.02929, 1.02748, 1.02761, 1.02679, 1.02512, 1.03002, 1.02979, 1.02893, 1.02545, 1.02557, 1.0251, 1.02416, 1.02329, 1.02231, 1.02162, 1.02171, 1.02016, 1.01965, 1.01851, 1.01805, 1.01711, 1.09837, 1.01342, 1.01458, 1.0147, 1.01429, 1.01453, 1.01454, 1.01271, 1.01464, 1.0117, 1.01083, 1.01019, 1.00652, 1.00546, 1.00667, 1.00645, 1.00338, 1.00239, 1.00165, 0.996741, 1.00268, 1.00568, 1.00925, 1.10171, 1.01855, 1.01841, 1.0182, 1.02124, 1.02154, 1.02163, 1.02323, 1.023, 1.02228, 1.02158, 1.02148, 1.02249, 1.08866, 1.01806, 1.01637, 1.01611, 1.01619, 1.02052, 1.02192, 1.02518, 1.02519, 1.10083, 1.08559, 1.05985, 1.01592, 1.01566, 1.01601, 1.01696, 1.01668, 1.01627, 1.01623, 1.07875, 1.04542, 1.01962, 1.02005, 1.02102, 1.02282, 1.02461, 1.02287, 1.02342, 1.02213, 1.02161, 1.02223, 1.02161, 1.022, 1.02271, 1.02197, 1.02335, 1.02468, 1.02614, 1.04061, 1.05469, 1.02961, 1.03108, 1.03009, 1.02999, 1.02966, 1.03038, 1.03195, 1.03209, 1.03205, 1.03218, 1.03361, 1.0335, 1.03379, 1.03511, 1.03544, 1.036, 1.03998, 1.04125, 1.04092, 1.04114, 1.0413, 1.0422, 1.04218, 1.04225, 1.04115, 1.0423, 1.04199, 1.04155, 1.04144, 1.04082, 1.03958, 1.12848, 1.03872, 1.03913, 1.05012, 1.0515, 1.10453, 1.04075, 1.03988, 1.24377, 1.26722, 1.26777, 1.08603, 1.08859, 1.06642, 1.08799, 1.07425, 1.04951, 1.05023, 1.05073, 1.05296, 1.05501, 1.05514, 1.05527, 1.06847, 1.08827, 1.04461, 1.04537, 1.09307, 1.09879, 1.09293, 1.08235, 1.08842, 1.04715, 1.04942, 1.0435, 1.04412, 1.04622, 1.04585, 1.04733, 1.04731, 1.04401, 1.04448, 1.04454, 1.04526, 1.04604, 1.04487, 1.04626, 1.06643, 1.10382, 1.1038, 1.02523, 1.02431, 1.02688, 1.0295, 1.03246, 1.03266, 1.03255, 1.11891, 1.06483, 1.07027, 1.12535, 1.10572, 1.25715, 1.09596, 1.39826, 1.08575, 1.04791, 1.04866, 1.04873, 1.07697, 1.0816, 1.05198, 1.08424, 1.05226, 1.05319, 1.05359, 1.05602, 1.05867, 1.06118, 1.0607, 1.06031, 1.06046, 1.06012, 1.06076, 1.0628, 1.06408, 1.06479, 1.06749, 1.06902, 1.27596, 1.0918, 1.09858, 1.10219, 1.10426, 1.10299, 1.14649, 1.14485, 1.11371, 1.13324, 1.13679, 1.13242, 1.10115
1.15296, 1.15394, 1.14833, 1.05636, 1.05659, 1.05726, 1.05543, 1.05302, 1.05339, 1.05303, 1.05036, 1.04752, 1.04835, 1.14004, 1.27356, 1.04639, 1.11498, 1.09117, 1.12184, 1.1215, 1.12252, 1.10834, 1.12635, 1.04277, 1.04133, 1.03719, 1.03559, 1.15354, 1.03913, 1.11269, 1.11794, 1.09515, 1.10528, 1.08408, 1.08398, 1.0974, 1.09571, 1.04009, 1.04024, 1.03843, 1.03643, 1.03573, 1.03491, 1.0328, 1.03089, 1.03077, 1.03009, 1.02911, 1.02859, 1.02695, 1.0259, 1.02527, 1.02349, 1.02475, 1.02193, 1.02116, 1.0198, 1.01875, 1.01839, 1.01824, 1.01855, 1.01931, 1.01877, 1.01433, 1.01422, 1.0136, 1.01332, 1.01331, 1.00967, 1.01066, 1.01013, 1.01171, 1.00806, 1.1122, 1.10225, 1.0082, 1.00569, 1.00294, 1.00137, 1.00135, 1.09867, 1.00565, 1.01121, 1.01121, 1.01465, 1.01746, 1.01792, 1.0189, 1.02034, 1.02064, 1.0208, 1.02226, 1.02393, 1.02159, 1.02206, 1.01994, 1.01864, 1.01658, 1.01607, 1.01886, 1.01878, 1.02094, 1.02337, 1.02416, 1.02543, 1.09851, 1.09853, 1.05354, 1.01721, 1.01651, 1.01631, 1.01695, 1.01691, 1.01645, 1.01604, 1.01536, 1.03916, 1.01746, 1.01905, 1.02056, 1.02374, 1.02423, 1.02527, 1.02399, 1.02394, 1.02204, 1.02132, 1.02051, 1.02142, 1.02137, 1.02177, 1.0228, 1.05812, 1.06446, 1.04629, 1.02683, 1.02782, 1.05701, 1.03181, 1.03196, 1.03184, 1.03329, 1.03439, 1.03317, 1.03268, 1.03219, 1.03253, 1.03301, 1.03387, 1.03466, 1.03552, 1.03614, 1.03968, 1.03895, 1.04079, 1.04084, 1.04206, 1.04116, 1.04234, 1.04221, 1.0401, 1.04196, 1.04159, 1.04065, 1.04007, 1.03999, 1.03522, 1.03577, 1.11688, 1.03946, 1.0459, 1.04612, 1.103, 1.10196, 1.04089, 1.03645, 1.03451, 1.07719, 1.0776, 1.06899, 1.08258, 1.08139, 1.07987, 1.08099, 1.0479, 1.05062, 1.05137, 1.0545, 1.05321, 1.07721, 1.07808, 1.08627, 1.0442, 1.04466, 1.04569, 1.09363, 1.071, 1.09448, 1.31964, 1.08032, 1.64227, 1.04693, 1.04161, 1.04306, 1.04612, 1.04681, 1.04668, 1.04763, 1.04572, 1.0449, 1.0447, 1.04486, 1.04543, 1.04466, 1.0455, 1.10563, 1.10916, 1.02262, 1.02323, 1.02404, 1.03, 1.02963, 1.1803, 1.03677, 1.03366, 1.03433, 1.25605, 1.12493, 1.04304, 1.28825, 1.25632, 1.09216, 1.31636, 1.04664, 1.04613, 1.04721, 1.04571, 1.04518, 1.04993, 1.05081, 1.05125, 1.05273, 1.05095, 1.0579, 1.06166, 1.06112, 1.06178, 1.0631, 1.06051, 1.06039, 1.10902, 1.11179, 1.11263, 1.10983, 1.06768, 1.069, 1.07784, 1.09015, 1.29571, 1.19678, 1.28528, 1.19096, 1.09881, 1.08271, 1.08699, 1.08895, 1.12507, 1.10492, 1.22656, 1.12137
1.14401, 1.05998, 1.06019, 1.06086, 1.05699, 1.056, 1.05632, 1.0562, 1.13033, 1.14267, 1.05313, 1.05332, 1.05225, 1.05238, 1.0539, 1.19861, 1.12461, 1.26121, 1.11179, 1.12203, 1.1226, 1.04722, 1.04564, 1.04229, 1.04273, 1.03935, 1.12408, 1.12031, 1.05016, 1.11265, 1.10174, 1.08565, 1.08024, 1.10489, 1.09542, 1.04229, 1.04264, 1.04045, 1.03991, 1.03945, 1.03868, 1.03744, 1.03571, 1.03546, 1.03199, 1.03087, 1.03085, 1.02923, 1.02915, 1.02915, 1.02722, 1.02627, 1.02592, 1.02334, 1.0232, 1.02343, 1.02269, 1.02249, 1.02184, 1.0216, 1.01977, 1.01831, 1.01879, 1.01201, 1.12679, 1.0121, 1.1124, 1.11223, 1.01004, 1.01135, 1.01227, 1.01249, 1.10622, 1.10903, 1.11171, 1.09048, 1.01166, 1.00555, 1.0049, 1.10414, 1.10411, 1.09831, 1.09031, 1.01471, 1.015, 1.0171, 1.0181, 1.01798, 1.02026, 1.01999, 1.01999, 1.02075, 1.02129, 1.01932, 1.0184, 1.01818, 1.01846, 1.01797, 1.01818, 1.01979, 1.02304, 1.02219, 1.02303, 1.02498, 1.02528, 1.02538, 1.09187, 1.01822, 1.01783, 1.017, 1.01682, 1.01698, 1.01685, 1.01656, 1.01663, 1.0512, 1.06042, 1.01902, 1.0216, 1.02276, 1.02528, 1.02498, 1.02505, 1.02604, 1.0232, 1.02018, 1.02001, 1.0191, 1.01924, 1.01989, 1.02168, 1.05684, 1.05679, 1.07421, 1.0705, 1.06879, 1.03831, 1.03082, 1.03349, 1.03402, 1.03242, 1.03249, 1.03325, 1.03347, 1.03263, 1.03228, 1.03255, 1.03296, 1.03551, 1.0352, 1.03738, 1.03908, 1.03953, 1.0373, 1.04039, 1.04166, 1.04187, 1.04225, 1.04195, 1.04141, 1.0418, 1.04229, 1.04298, 1.0391, 1.03814, 1.03771, 1.03531, 1.0354, 1.03434, 1.03331, 1.04298, 1.04359, 1.04135, 1.04236, 1.03565, 1.03495, 1.03475, 1.06755, 1.05759, 1.0597, 1.07881, 1.59929, 1.07763, 1.06283, 1.06295, 1.06538, 1.04687, 1.04722, 1.07837, 1.06743, 1.06059, 1.07086, 1.07777, 1.04286, 1.08412, 1.08497, 1.08792, 1.07392, 1.07785, 1.038, 1.03932, 1.04334, 1.04287, 1.04517, 1.04592, 1.0498, 1.05047, 1.04932, 1.04728, 1.04751, 1.04873, 1.047, 1.04705, 1.04594, 1.1067, 1.10789, 1.0381, 1.02352, 1.02365, 1.02841, 1.03484, 1.03906, 1.04097, 1.03769, 1.0338, 1.12779, 1.0997, 1.03997, 1.04176, 1.04351, 1.04383, 1.04418, 1.0446, 1.0458, 1.04655, 1.0472, 1.0463, 1.04729, 1.0489, 1.05035, 1.27533, 1.07478, 1.08821, 1.10074, 1.06162, 1.06193, 1.06224, 1.06319, 1.08519, 1.11154, 1.11365, 1.10875, 1.11487, 1.07391, 1.07605, 1.07536, 1.07899, 1.25391, 1.18402, 1.12849, 1.15837, 1.15666, 1.08544, 1.08887, 1.09155, 1.09146, 1.09239, 1.09456, 1.09107, 1.09125
1.06274, 1.06158, 1.06141, 1.06237, 1.12647, 1.13057, 1.14609, 1.09575, 1.11362, 1.09533, 1.16877, 1.10641, 1.05477, 1.05579, 1.05336, 1.05348, 1.05462, 1.0528, 1.05307, 1.05277, 1.04945, 1.04921, 1.04718, 1.0493, 1.11281, 1.11248, 1.11961, 1.10918, 1.05186, 1.05184, 1.10867, 1.04952, 1.04932, 1.04669, 1.04886, 1.04673, 1.09056, 1.03953, 1.0793, 1.08133, 1.07435, 1.03608, 1.09066, 1.08481, 1.03417, 1.03339, 1.03048, 1.02913, 1.02926, 1.0291, 1.02855, 1.03024, 1.03007, 1.02808, 1.02897, 1.02709, 1.02589, 1.02549, 1.02646, 1.02551, 1.02398, 1.01879, 1.01502, 1.01478, 1.12848, 1.12728, 1.02423, 1.10937, 1.1073, 1.01462, 1.01214, 1.01283, 1.1106, 1.11225, 1.10927, 1.10825, 1.10606, 1.10608, 1.10169, 1.09505, 1.07054, 1.09438, 1.02523, 1.02426, 1.01725, 1.06956, 1.01619, 1.01763, 1.01799, 1.02042, 1.02053, 1.01872, 1.08973, 1.37892, 1.0184, 1.01806, 1.01718, 1.01761, 1.09953, 1.02301, 1.02244, 1.02371, 1.02448, 1.02513, 1.0253, 1.02531, 1.01864, 1.01815, 1.01805, 1.01723, 1.01672, 1.01633, 1.01635, 1.01705, 1.01634, 1.07333, 1.01849, 1.02362, 1.02523, 1.02487, 1.02503, 1.02504, 1.0261, 1.02609, 1.01939, 1.01991, 1.01859, 1.01842, 1.05973, 1.05662, 1.0737, 1.07199, 1.05738, 1.0785, 1.07417, 1.0359, 1.06152, 1.03155, 1.0334, 1.03257, 1.03352, 1.03331, 1.03305, 1.03275, 1.03201, 1.03288, 1.03353, 1.03457, 1.03518, 1.03594, 1.03961, 1.03888, 1.03912, 1.03977, 1.04028, 1.04124, 1.0408, 1.04246, 1.04409, 1.04266, 1.04314, 1.0423, 1.04234, 1.03931, 1.03798, 1.03688, 1.03579, 1.03524, 1.0353, 1.04024, 1.04084, 1.04079, 1.04167, 1.04039, 1.03458, 1.03325, 1.03405, 1.0664, 1.05677, 1.03977, 1.04145, 1.07825, 1.05996, 1.06374, 1.06154, 1.07095, 1.07074, 1.06505, 1.33047, 1.0653, 1.07434, 1.07088, 1.06764, 1.08504, 1.07323, 1.07052, 1.07523, 1.04094, 1.0418, 1.03991, 1.03876, 1.04154, 1.04419, 1.04489, 1.04846, 1.05003, 1.04994, 1.05073, 1.05326, 1.05446, 1.05268, 1.05339, 1.05453, 1.10438, 1.13934, 1.11613, 1.23826, 1.03342, 1.03272, 1.03645, 1.03652, 1.03926, 1.04395, 1.04875, 1.04775, 1.1288, 1.11011, 1.15367, 1.04243, 1.04335, 1.04275, 1.04404, 1.04597, 1.04605, 1.04567, 1.04641, 1.04703, 1.04767, 1.0785, 1.10291, 1.09582, 1.10472, 1.08896, 1.08899, 1.10258, 1.10116, 1.10205, 1.09391, 1.26773, 1.11902, 1.24066, 1.11778, 1.20547, 1.07794, 1.07757, 1.08318, 1.08122, 1.08276, 1.0833, 1.08392, 1.18558, 1.15667, 1.08868, 1.09312, 1.09366, 1.09404, 1.09383, 1.09434, 1.09209, 1.09219
1.06658, 1.06428, 1.06769, 1.14029, 1.14341, 1.09557, 1.13204, 1.09284, 1.11617, 1.09402, 1.11181, 1.23101, 1.05655, 1.05769, 1.05333, 1.05285, 1.05415, 1.05304, 1.0532, 1.05157, 1.05456, 1.05229, 1.05068, 1.05087, 1.29256, 1.09902, 1.10346, 1.05399, 1.05295, 1.05072, 1.04958, 1.04949, 1.05012, 1.05325, 1.05024, 1.05075, 1.05198, 1.05295, 1.05421, 1.07125, 1.07287, 1.35461, 1.07175, 1.0858, 1.10123, 1.10144, 1.03258, 1.03249, 1.02994, 1.03046, 1.0305, 1.03211, 1.03286, 1.03049, 1.02872, 1.02868, 1.0256, 1.02741, 1.02636, 1.02614, 1.02594, 1.02531, 1.11518, 1.11652, 1.02113, 1.02314, 1.02456, 1.1744, 1.17471, 1.01696, 1.01552, 1.01622, 1.09824, 1.11141, 1.11012, 1.10157, 1.09442, 1.09491, 1.1002, 1.09237, 1.0923, 1.02481, 1.02488, 1.02481, 1.01715, 1.1006, 1.07796, 1.01658, 1.01649, 1.01653, 1.01445, 1.01192, 1.01141, 1.01094, 1.00997, 1.07882, 1.06727, 1.10906, 1.09237, 1.0225, 1.0228, 1.02429, 1.02485, 1.02494, 1.02502, 1.02555, 1.07353, 1.01819, 1.018, 1.01742, 1.01695, 1.01614, 1.01588, 1.01673, 1.01733, 1.05606, 1.02324, 1.02438, 1.02491, 1.02545, 1.02549, 1.02547, 1.01997, 1.01822, 1.01822, 1.01802, 1.01769, 1.01778, 1.07498, 1.04081, 1.04257, 1.06519, 1.08062, 1.03935, 1.07213, 1.08369, 1.03219, 1.03342, 1.03311, 1.03366, 1.03369, 1.03344, 1.03287, 1.0327, 1.03366, 1.0329, 1.03376, 1.03529, 1.03542, 1.10573, 1.03921, 1.04031, 1.0393, 1.03546, 1.04274, 1.03954, 1.04227, 1.04351, 1.04373, 1.04381, 1.04249, 1.04151, 1.072, 1.03886, 1.03792, 1.03693, 1.03589, 1.03531, 1.03551, 1.04059, 1.04155, 1.04184, 1.0422, 1.03553, 1.03333, 1.03467, 1.06706, 1.06071, 1.03666, 1.03979, 1.03977, 1.04083, 1.04262, 1.0418, 1.07002, 1.06792, 1.05956, 1.06287, 1.06477, 1.06724, 1.07076, 1.05307, 1.05353, 1.06773, 1.06744, 1.0675, 1.03946, 1.03968, 1.0404, 1.04258, 1.04299, 1.04515, 1.04608, 1.0498, 1.04971, 1.05128, 1.05127, 1.05301, 1.05347, 1.05554, 1.05647, 1.05585, 1.05477, 1.05482, 1.05596, 1.27901, 1.09148, 1.04122, 1.04129, 1.04356, 1.04289, 1.1142, 1.04627, 1.04633, 1.04753, 1.04918, 1.04763, 1.04637, 1.04382, 1.04386, 1.04459, 1.04445, 1.04395, 1.04643, 1.04622, 1.1986, 1.20002, 1.19838, 1.09422, 1.09956, 1.09423, 1.09391, 1.09167, 1.12523, 1.13312, 1.14607, 1.14425, 1.13308, 1.1147, 1.12525, 1.12871, 1.13015, 1.12601, 1.08297, 1.08222, 1.08163, 1.08172, 1.0842, 1.08343, 1.08434, 1.11596, 1.09142, 1.09103, 1.09294, 1.09543, 1.09537, 1.09558, 1.09644, 1.09801, 1.09452
1.06974, 1.06721, 1.06665, 1.06775, 1.13852, 1.06782, 1.06809, 1.06704, 1.0655, 1.06714, 1.06337, 1.06222, 1.06232, 1.06022, 1.05982, 1.05734, 1.05321, 1.05219, 1.05142, 1.10105, 1.05731, 1.05687, 1.0589, 1.1074, 1.10732, 1.05817, 1.05632, 1.05493, 1.05491, 1.05496, 1.05472, 1.0536, 1.05333, 1.05272, 1.05248, 1.05339, 1.05314, 1.05348, 1.05461, 1.06795, 1.07169, 1.07759, 1.07688, 1.07201, 1.09973, 1.10637, 1.03617, 1.03602, 1.02898, 1.03041, 1.03277, 1.0337, 1.03394, 1.0333, 1.03218, 1.03, 1.12701, 1.1251, 1.02495, 1.12555, 1.10433, 1.10466, 1.11486, 1.11607, 1.11741, 1.03197, 1.02555, 1.13296, 1.10659, 1.0201, 1.02194, 1.02158, 1.0873, 1.02641, 1.09766, 1.02834, 1.03089, 1.03024, 1.06459, 1.09328, 1.07454, 1.02366, 1.0289, 1.06815, 1.08246, 1.02493, 1.0239, 1.08176, 1.01538, 1.06577, 1.01473, 1.01251, 1.01151, 1.01023, 1.00911, 1.01068, 1.09551, 1.05339, 1.1048, 1.04807, 1.02346, 1.02507, 1.02556, 1.0242, 1.02526, 1.02033, 1.01796, 1.01888, 1.01946, 1.02108, 1.01801, 1.01709, 1.01802, 1.01598, 1.01694, 1.05989, 1.05722, 1.02581, 1.02521, 1.02523, 1.02518, 1.01953, 1.01842, 1.01807, 1.01793, 1.01724, 1.01701, 1.01708, 1.01765, 1.03915, 1.03987, 1.07088, 1.03791, 1.06636, 1.03703, 1.03209, 1.03227, 1.03272, 1.03341, 1.03223, 1.03321, 1.03294, 1.033, 1.03276, 1.03443, 1.03217, 1.03308, 1.08537, 1.03711, 1.03928, 1.03959, 1.03997, 1.03556, 1.03619, 1.03651, 1.04208, 1.04269, 1.04327, 1.04385, 1.08153, 1.04097, 1.04018, 1.03932, 1.03878, 1.03797, 1.03702, 1.03601, 1.03612, 1.03724, 1.04119, 1.04057, 1.04222, 1.04121, 1.03293, 1.03269, 1.06407, 1.08237, 1.06814, 1.04004, 1.03994, 1.04218, 1.04167, 1.04084, 1.04281, 1.04309, 1.04121, 1.04218, 1.04131, 1.06076, 1.04044, 1.055, 1.06332, 1.07094, 1.03667, 1.06693, 1.03939, 1.03881, 1.0391, 1.04084, 1.04275, 1.04263, 1.0462, 1.04754, 1.04904, 1.04963, 1.0492, 1.04973, 1.0547, 1.05602, 1.05466, 1.05711, 1.05713, 1.05695, 1.05648, 1.05602, 1.0536, 1.05201, 1.09101, 1.28253, 1.09952, 1.10183, 1.04896, 1.04757, 1.04763, 1.04782, 1.04813, 1.04721, 1.04667, 1.04356, 1.04381, 1.04307, 1.23606, 1.09844, 1.15146, 1.19749, 1.19821, 1.12646, 1.13624, 1.09574, 1.12968, 1.20858, 1.11904, 1.21238, 1.22024, 1.13247, 1.09794, 1.08857, 1.24707, 1.09922, 1.14072, 1.19129, 1.12582, 1.12535, 1.08172, 1.0834, 1.0827, 1.08421, 1.08594, 1.08248, 1.08717, 1.09407, 1.09273, 1.09463, 1.09576, 1.09594, 1.09844, 1.09952, 1.10302, 1.10239, 1.10043
1.07024, 1.06887, 1.06715, 1.06617, 1.06691, 1.0679, 1.0678, 1.06661, 1.06567, 1.06634, 1.06628, 1.06669, 1.06339, 1.06311, 1.05859, 1.05867, 1.10239, 1.09853, 1.10051, 1.10066, 1.05751, 1.05941, 1.05922, 1.06072, 1.05866, 1.05803, 1.05966, 1.05993, 1.05716, 1.05744, 1.05575, 1.05508, 1.05487, 1.05445, 1.05456, 1.0547, 1.05608, 1.05544, 1.05617, 1.05758, 1.08186, 1.07508, 1.0724, 1.09765, 1.09673, 1.03793, 1.03775, 1.03806, 1.09837, 1.09108, 1.10134, 1.11022, 1.03579, 1.03436, 1.03521, 1.03564, 1.13, 1.12942, 1.12685, 1.03614, 1.03462, 1.03075, 1.03084, 1.13569, 1.03211, 1.03272, 1.03261, 1.03131, 1.02924, 1.12564, 1.02621, 1.0253, 1.08816, 1.02812, 1.09775, 1.03112, 1.03007, 1.43845, 1.07761, 1.06286, 1.08004, 1.02861, 1.0284, 1.02783, 1.03019, 1.0295, 1.02639, 1.02206, 1.02186, 1.01506, 1.0146, 1.01457, 1.00915, 1.00815, 1.00903, 1.00804, 1.00842, 1.11966, 1.18611, 1.01818, 1.01678, 1.01553, 1.01911, 1.01837, 1.01807, 1.01608, 1.01557, 1.01825, 1.02063, 1.02081, 1.01832, 1.0172, 1.01656, 1.01746, 1.0196, 1.0198, 1.02076, 1.02607, 1.02485, 1.02506, 1.01958, 1.01816, 1.01811, 1.01776, 1.01706, 1.01678, 1.0168, 1.01665, 1.01747, 1.44148, 1.08455, 1.07464, 1.07561, 1.09666, 1.09994, 1.03178, 1.03195, 1.032, 1.03261, 1.03071, 1.03142, 1.03379, 1.03463, 1.03353, 1.03215, 1.03417, 1.03388, 1.03323, 1.08557, 1.03885, 1.04008, 1.03949, 1.03836, 1.03589, 1.03575, 1.08516, 1.04144, 1.04166, 1.04066, 1.03962, 1.04035, 1.04025, 1.03929, 1.03881, 1.03796, 1.03705, 1.03587, 1.03566, 1.04233, 1.0403, 1.04258, 1.04235, 1.04195, 1.03612, 1.0827, 1.08042, 1.08113, 1.03958, 1.03952, 1.0404, 1.04124, 1.0414, 1.04205, 1.04231, 1.04253, 1.04033, 1.04084, 1.04256, 1.03945, 1.04114, 1.03904, 1.03923, 1.0375, 1.03705, 1.03708, 1.03864, 1.03977, 1.0388, 1.04091, 1.04309, 1.0437, 1.04409, 1.04696, 1.0499, 1.05261, 1.0538, 1.05837, 1.05619, 1.05656, 1.05638, 1.05652, 1.05532, 1.05451, 1.05528, 1.05572, 1.05266, 1.05141, 1.05122, 1.05219, 1.0531, 1.04963, 1.04891, 1.04851, 1.04789, 1.04924, 1.04865, 1.07695, 1.13079, 1.0778, 1.08462, 1.14262, 1.18038, 1.18361, 1.1306, 1.13313, 1.22177, 1.06059, 1.06064, 1.13066, 1.11858, 1.11917, 1.12371, 1.12635, 1.13972, 1.13483, 1.14013, 1.14097, 1.09611, 1.09352, 1.17326, 1.18963, 1.08058, 1.08146, 1.08268, 1.08441, 1.08683, 1.08604, 1.08733, 1.09083, 1.09063, 1.09145, 1.09431, 1.09585, 1.09783, 1.10046, 1.10064, 1.10285, 1.10301, 1.10153, 1.10119
1.17465, 1.14254, 1.142, 1.13973, 1.18357, 1.06791, 1.06875, 1.07121, 1.07214, 1.07178, 1.07253, 1.07189, 1.06608, 1.05835, 1.05821, 1.10354, 1.10243, 1.10586, 1.0613, 1.06112, 1.06219, 1.06298, 1.06227, 1.06581, 1.06449, 1.06353, 1.05805, 1.06306, 1.05985, 1.05887, 1.05831, 1.058, 1.05597, 1.05623, 1.05531, 1.05686, 1.05405, 1.05672, 1.05762, 1.05732, 1.07929, 1.09633, 1.09941, 1.09861, 1.04237, 1.03877, 1.03884, 1.03889, 1.08964, 1.10591, 1.10543, 1.10875, 1.1012, 1.03635, 1.03568, 1.03629, 1.03796, 1.03707, 1.03653, 1.0351, 1.03336, 1.03212, 1.03252, 1.17126, 1.03216, 1.03282, 1.03526, 1.12788, 1.13351, 1.13631, 1.13193, 1.02856, 1.03178, 1.03191, 1.12499, 1.09457, 1.40713, 1.09277, 1.03846, 1.037, 1.03433, 1.03306, 1.02995, 1.03045, 1.03202, 1.0266, 1.02626, 1.02394, 1.0243, 1.01543, 1.01557, 1.10015, 1.09777, 1.09756, 1.03682, 1.01089, 1.00899, 1.01004, 1.01503, 1.01593, 1.01646, 1.01835, 1.01883, 1.01988, 1.01768, 1.01622, 1.01802, 1.01857, 1.06692, 1.01813, 1.01617, 1.01637, 1.01794, 1.01938, 1.02098, 1.0211, 1.02146, 1.078, 1.02305, 1.01867, 1.01908, 1.0185, 1.01807, 1.01726, 1.01691, 1.0168, 1.02009, 1.0209, 1.01899, 1.09431, 1.14305, 1.08448, 1.10926, 1.08753, 1.02934, 1.03032, 1.03171, 1.03187, 1.03013, 1.02925, 1.03172, 1.0328, 1.03144, 1.03328, 1.03379, 1.03533, 1.03502, 1.03525, 1.04259, 1.03976, 1.0399, 1.04108, 1.03934, 1.08605, 1.03707, 1.03909, 1.04051, 1.04143, 1.04132, 1.03963, 1.0394, 1.03953, 1.03895, 1.03876, 1.03801, 1.03723, 1.03641, 1.03728, 1.039, 1.04057, 1.0402, 1.04041, 1.03924, 1.03864, 1.03886, 1.06402, 1.0799, 1.0667, 1.08008, 1.03942, 1.04192, 1.04084, 1.0401, 1.59018, 1.07162, 1.04118, 1.0412, 1.04075, 1.03983, 1.04008, 1.03937, 1.03868, 1.03727, 1.03765, 1.03622, 1.03615, 1.0341, 1.03307, 1.03528, 1.03851, 1.03976, 1.03828, 1.1126, 1.05112, 1.05497, 1.05619, 1.05857, 1.05788, 1.05686, 1.05717, 1.05656, 1.05567, 1.05619, 1.05372, 1.05286, 1.05343, 1.05259, 1.05266, 1.0527, 1.05276, 1.05282, 1.05174, 1.04993, 1.09086, 1.08711, 1.07726, 1.12644, 1.2988, 1.08364, 1.05369, 1.11583, 1.13239, 1.13388, 1.13336, 1.12853, 1.12085, 1.19672, 1.23445, 1.07006, 1.07041, 1.2511, 1.22055, 1.25915, 1.09139, 1.13923, 1.14659, 1.14146, 1.14202, 1.14241, 1.0905, 1.08072, 1.08094, 1.08101, 1.08199, 1.0847, 1.08791, 1.08973, 1.09041, 1.08991, 1.09082, 1.09132, 1.0931, 1.09658, 1.09881, 1.10034, 1.10266, 1.10431, 1.1038, 1.10306, 1.10263
1.142, 1.17323, 1.1828, 1.17929, 1.17803, 1.19858, 1.18009, 1.07089, 1.07169, 1.07324, 1.07358, 1.07344, 1.06894, 1.08654, 1.10324, 1.12086, 1.06447, 1.06442, 1.0632, 1.06567, 1.06859, 1.06721, 1.06715, 1.06659, 1.06514, 1.06477, 1.06431, 1.0628, 1.06155, 1.06117, 1.05772, 1.05795, 1.05911, 1.10417, 1.05396, 1.05711, 1.0574, 1.05761, 1.05849, 1.05752, 1.07715, 1.04574, 1.04488, 1.04381, 1.04154, 1.03811, 1.08109, 1.09333, 1.09193, 1.10807, 1.04277, 1.30673, 1.09668, 1.03453, 1.03665, 1.03706, 1.03778, 1.03718, 1.03731, 1.03773, 1.03735, 1.16635, 1.13285, 1.13654, 1.13687, 1.03227, 1.03739, 1.03738, 1.03881, 1.13563, 1.03286, 1.03223, 1.0352, 1.03495, 1.03595, 1.03411, 1.09102, 1.03648, 1.03748, 1.0373, 1.03605, 1.03568, 1.03095, 1.03151, 1.02859, 1.02787, 1.02637, 1.02588, 1.09913, 1.50893, 1.10135, 1.09688, 1.09872, 1.0956, 1.09623, 1.09474, 1.18117, 1.05304, 1.01531, 1.01651, 1.01826, 1.01841, 1.01938, 1.0216, 1.01727, 1.01846, 1.01778, 1.01819, 1.0748, 1.0804, 1.01512, 1.01573, 1.07468, 1.07773, 1.07183, 1.07892, 1.08125, 1.06581, 1.02074, 1.01825, 1.01808, 1.01808, 1.01731, 1.01689, 1.01672, 1.08485, 1.02033, 1.02146, 1.01988, 1.11853, 1.09122, 1.08368, 1.0921, 1.02889, 1.02935, 1.03031, 1.03053, 1.03165, 1.02933, 1.02844, 1.02971, 1.03066, 1.03238, 1.03502, 1.03508, 1.03471, 1.03547, 1.03524, 1.0358, 1.03936, 1.04236, 1.04274, 1.04311, 1.04361, 1.04055, 1.03898, 1.03895, 1.03966, 1.03977, 1.03934, 1.0389, 1.03892, 1.03881, 1.03871, 1.03797, 1.0374, 1.03676, 1.03617, 1.03675, 1.03896, 1.03881, 1.03947, 1.03883, 1.03715, 1.08377, 1.08518, 1.08395, 1.08212, 1.0629, 1.07413, 1.04497, 1.04657, 1.04789, 1.48438, 1.07385, 1.06806, 1.08129, 1.07138, 1.03954, 1.04075, 1.03814, 1.03782, 1.03704, 1.03778, 1.03431, 1.03389, 1.03117, 1.03158, 1.03529, 1.03453, 1.03682, 1.03681, 1.11162, 1.10803, 1.05582, 1.0561, 1.05445, 1.05493, 1.05655, 1.0575, 1.05807, 1.05755, 1.05828, 1.05744, 1.05437, 1.0546, 1.0529, 1.05192, 1.0531, 1.05452, 1.05105, 1.05311, 1.05561, 1.0558, 1.08034, 1.29813, 1.10881, 1.10493, 1.0597, 1.05748, 1.12694, 1.0612, 1.0644, 1.06439, 1.06529, 1.06563, 1.06774, 1.06983, 1.07032, 1.07233, 1.12576, 1.22023, 1.22086, 1.07428, 1.07425, 1.08808, 1.12847, 1.1306, 1.09106, 1.08897, 1.10071, 1.08342, 1.08317, 1.08434, 1.08645, 1.08845, 1.08836, 1.09054, 1.09179, 1.09205, 1.09399, 1.09543, 1.09578, 1.10159, 1.10055, 1.10314, 1.10356, 1.10326, 1.11145, 1.10927
1.09462, 1.09435, 1.16765, 1.17352, 1.18008, 1.179, 1.17786, 1.17915, 1.07747, 1.07613, 1.07304, 1.07039, 1.07022, 1.11468, 1.13991, 1.16873, 1.06628, 1.06781, 1.06832, 1.0711, 1.07177, 1.06929, 1.06726, 1.06721, 1.06683, 1.06593, 1.06429, 1.06185, 1.06227, 1.06187, 1.06158, 1.06178, 1.05986, 1.06027, 1.10303, 1.05816, 1.05804, 1.06008, 1.05998, 1.10026, 1.10673, 1.04527, 1.04552, 1.04466, 1.08214, 1.10311, 1.27409, 1.04933, 1.05, 1.05055, 1.1122, 1.09522, 1.11984, 1.11944, 1.11951, 1.08754, 1.03787, 1.0374, 1.03847, 1.03821, 1.03634, 1.03793, 1.10389, 1.10696, 1.09433, 1.03584, 1.03751, 1.03785, 1.03852, 1.13331, 1.03423, 1.03577, 1.0356, 1.03548, 1.03445, 1.03452, 1.09209, 1.0396, 1.03896, 1.03859, 1.03534, 1.03241, 1.03075, 1.03259, 1.02976, 1.08867, 1.10218, 1.02435, 1.07795, 1.02, 1.02001, 1.05544, 1.05689, 1.09931, 1.10213, 1.09433, 1.09299, 1.05366, 1.05508, 1.01828, 1.01877, 1.01935, 1.01926, 1.01839, 1.01762, 1.01866, 1.0155, 1.01526, 1.07241, 1.07206, 1.01452, 1.01459, 1.04379, 1.06421, 1.06976, 1.04358, 1.01771, 1.01797, 1.01859, 1.01889, 1.01828, 1.01737, 1.01704, 1.01683, 1.10002, 1.07567, 1.09611, 1.02089, 1.01886, 1.08474, 1.0242, 1.02597, 1.0264, 1.02842, 1.02841, 1.02897, 1.03087, 1.03253, 1.02774, 1.02887, 1.0296, 1.03398, 1.03386, 1.03526, 1.0358, 1.03467, 1.0356, 1.03673, 1.04051, 1.04162, 1.04218, 1.04319, 1.04386, 1.04315, 1.04181, 1.04143, 1.04131, 1.03986, 1.04085, 1.03941, 1.03915, 1.03902, 1.03902, 1.03885, 1.03802, 1.03763, 1.0366, 1.03551, 1.03521, 1.03744, 1.03752, 1.03751, 1.03769, 1.03673, 1.06292, 1.07829, 1.06479, 1.0895, 1.04805, 1.04913, 1.04725, 1.04703, 1.0476, 1.04862, 1.05034, 1.08103, 1.06149, 1.06667, 1.07799, 1.07412, 1.09369, 1.07455, 1.07279, 1.11501, 1.09158, 1.02692, 1.0311, 1.03094, 1.03163, 1.03379, 1.03687, 1.1107, 1.10785, 1.09859, 1.05112, 1.05084, 1.05184, 1.05651, 1.05721, 1.05891, 1.05852, 1.05844, 1.05978, 1.05766, 1.05682, 1.05715, 1.11549, 1.1046, 1.12452, 1.12399, 1.12575, 1.05833, 1.05893, 1.05684, 1.05493, 1.05643, 1.08353, 1.05984, 1.06017, 1.06088, 1.10794, 1.06539, 1.06441, 1.06652, 1.06683, 1.06762, 1.22508, 1.11393, 1.10643, 1.08691, 1.25711, 1.25229, 1.12397, 1.08074, 1.07953, 1.09321, 1.12939, 1.13338, 1.11127, 1.08318, 1.0836, 1.08455, 1.08421, 1.08575, 1.08598, 1.08767, 1.08822, 1.09137, 1.09189, 1.0919, 1.09189, 1.14026, 1.0976, 1.09992, 1.09906, 1.10056, 1.10123, 1.10401, 1.10769, 1.10826
1.09428, 1.09397, 1.092, 1.09146, 1.08642, 1.08733, 1.08893, 1.08401, 1.08229, 1.07875, 1.07783, 1.07052, 1.07079, 1.07416, 1.07119, 1.07077, 1.0744, 1.06897, 1.06899, 1.07317, 1.07192, 1.07352, 1.06824, 1.0694, 1.071, 1.0636, 1.06498, 1.06318, 1.06444, 1.0609, 1.06113, 1.06246, 1.06061, 1.0602, 1.05776, 1.05821, 1.05918, 1.05871, 1.10625, 1.04971, 1.04846, 1.0449, 1.0466, 1.09926, 1.09833, 1.10211, 1.10752, 1.04917, 1.04977, 1.04998, 1.0497, 1.12369, 1.09683, 1.04243, 1.04304, 1.12789, 1.12723, 1.0389, 1.03901, 1.03939, 1.04066, 1.04125, 1.04119, 1.0406, 1.04139, 1.03688, 1.03728, 1.03673, 1.03764, 1.03712, 1.03415, 1.03514, 1.03598, 1.03546, 1.03552, 1.03557, 1.03555, 1.03657, 1.03725, 1.0366, 1.03508, 1.03413, 1.03406, 1.0307, 1.08497, 1.0252, 1.02395, 1.02341, 1.02353, 1.07859, 1.07676, 1.05497, 1.06365, 1.08295, 1.08395, 1.057, 1.02209, 1.08083, 1.01685, 1.01828, 1.0181, 1.0181, 1.01845, 1.018, 1.01763, 1.09448, 1.01532, 1.05012, 1.10298, 1.10146, 1.01296, 1.08756, 1.09403, 1.09166, 1.01621, 1.0166, 1.01665, 1.01694, 1.01817, 1.01816, 1.01733, 1.01702, 1.01727, 1.08558, 1.09443, 1.09753, 1.08165, 1.02341, 1.08012, 1.02646, 1.02497, 1.02553, 1.02771, 1.02724, 1.02838, 1.0289, 1.02987, 1.03132, 1.02885, 1.02934, 1.03121, 1.03213, 1.03225, 1.03479, 1.03528, 1.03524, 1.03768, 1.03892, 1.04022, 1.04146, 1.0428, 1.04183, 1.04375, 1.04395, 1.04316, 1.04264, 1.04259, 1.0421, 1.04245, 1.04136, 1.03997, 1.04339, 1.04209, 1.04003, 1.03757, 1.03773, 1.03418, 1.03503, 1.03634, 1.03566, 1.03612, 1.0367, 1.0369, 1.03656, 1.07348, 1.07613, 1.07495, 1.29613, 1.04847, 1.04907, 1.04932, 1.0483, 1.04965, 1.04916, 1.04929, 1.0836, 1.0649, 1.06505, 1.06551, 1.06958, 1.06818, 1.07035, 1.12024, 1.0982, 1.09366, 1.02822, 1.02861, 1.03044, 1.03207, 1.03004, 1.03521, 1.04099, 1.04265, 1.27814, 1.05029, 1.05135, 1.05083, 1.05433, 1.05546, 1.05702, 1.05775, 1.06107, 1.06122, 1.05991, 1.06051, 1.06291, 1.06101, 1.06061, 1.05974, 1.06088, 1.06138, 1.06182, 1.11199, 1.28817, 1.09228, 1.11397, 1.10205, 1.06338, 1.06425, 1.06404, 1.06698, 1.06635, 1.06651, 1.06815, 1.06954, 1.07081, 1.11516, 1.07637, 1.19686, 1.07557, 1.07689, 1.0792, 1.08044, 1.08015, 1.08131, 1.11316, 1.11333, 1.11363, 1.08833, 1.08355, 1.08439, 1.08471, 1.08729, 1.08709, 1.08774, 1.08763, 1.091, 1.14569, 1.14611, 1.0911, 1.14703, 1.09815, 1.09782, 1.0975, 1.09882, 1.10276, 1.10446, 1.10553, 1.10664, 1.13806
1.10067, 1.09736, 1.09194, 1.09073, 1.0909, 1.08858, 1.08865, 1.09089, 1.08478, 1.07969, 1.08042, 1.07894, 1.07394, 1.07367, 1.07363, 1.07692, 1.07476, 1.12449, 1.12942, 1.0766, 1.07408, 1.07337, 1.07236, 1.06975, 1.06986, 1.06337, 1.06534, 1.06616, 1.06563, 1.06529, 1.06391, 1.06249, 1.06025, 1.05974, 1.0587, 1.05969, 1.05903, 1.05712, 1.05048, 1.04975, 1.04869, 1.04786, 1.09178, 1.09798, 1.11603, 1.07062, 1.10915, 1.10838, 1.05262, 1.05285, 1.05097, 1.04976, 1.08796, 1.08228, 1.08238, 1.12603, 1.12594, 1.12739, 1.03986, 1.03971, 1.03994, 1.04199, 1.04142, 1.04021, 1.04013, 1.03897, 1.03842, 1.03889, 1.03875, 1.03896, 1.03552, 1.03545, 1.03493, 1.03313, 1.0318, 1.03471, 1.03536, 1.03554, 1.03753, 1.03535, 1.03567, 1.03402, 1.03289, 1.02883, 1.02848, 1.02771, 1.02795, 1.02631, 1.07705, 1.07864, 1.10791, 1.09428, 1.08715, 1.08799, 1.08788, 1.02275, 1.02145, 1.01697, 1.01854, 1.01978, 1.01983, 1.01982, 1.01815, 1.01765, 1.07177, 1.09946, 1.0634, 1.0119, 1.05703, 1.01138, 1.01163, 1.01203, 1.09211, 1.07633, 1.01464, 1.0153, 1.01571, 1.01611, 1.01595, 1.0164, 1.01674, 1.12249, 1.12234, 1.083, 1.08331, 1.02585, 1.0264, 1.02353, 1.0255, 1.02723, 1.02769, 1.0272, 1.02845, 1.02863, 1.02854, 1.02895, 1.02832, 1.02966, 1.03068, 1.03039, 1.03176, 1.03234, 1.03363, 1.03408, 1.03552, 1.03805, 1.03836, 1.03918, 1.04019, 1.04097, 1.0421, 1.0426, 1.04245, 1.0425, 1.04337, 1.04263, 1.04448, 1.04263, 1.04425, 1.04359, 1.04255, 1.04262, 1.04096, 1.04007, 1.03884, 1.03481, 1.03664, 1.03645, 1.0384, 1.0395, 1.03653, 1.03601, 1.07407, 1.0569, 1.05698, 1.05622, 1.05706, 1.07196, 1.04848, 1.04656, 1.04659, 1.0478, 1.04942, 1.04907, 1.05287, 1.0538, 1.08949, 1.06667, 1.07133, 1.10454, 1.10359, 1.07781, 1.07368, 1.07045, 1.10486, 1.09594, 1.0279, 1.03102, 1.02954, 1.02839, 1.02893, 1.03575, 1.10361, 1.10647, 1.04747, 1.04769, 1.04975, 1.05202, 1.05382, 1.05879, 1.06184, 1.06151, 1.06212, 1.06132, 1.06192, 1.06019, 1.06046, 1.06036, 1.06026, 1.06269, 1.06346, 1.06322, 1.0607, 1.06091, 1.06039, 1.06143, 1.06216, 1.0662, 1.06385, 1.06575, 1.06621, 1.06715, 1.07018, 1.07067, 1.07142, 1.07205, 1.07489, 1.07526, 1.07744, 1.07795, 1.07884, 1.07881, 1.08007, 1.08068, 1.11944, 1.11312, 1.11498, 1.13236, 1.08604, 1.08629, 1.08581, 1.08635, 1.08775, 1.08995, 1.08886, 1.13759, 1.14713, 1.14814, 1.09488, 1.09563, 1.14465, 1.14163, 1.10893, 1.11102, 1.11204, 1.21423, 1.10453, 1.10486, 1.10582, 1.10966
1.10151, 1.09944, 1.09638, 1.09224, 1.09076, 1.09062, 1.08902, 1.08899, 1.08414, 1.08255, 1.08049, 1.07764, 1.07761, 1.07242, 1.07187, 1.08022, 1.08004, 1.34055, 1.07986, 1.07858, 1.0733, 1.07461, 1.07718, 1.07367, 1.07322, 1.13247, 1.06817, 1.06729, 1.06599, 1.06567, 1.06455, 1.0637, 1.06278, 1.0617, 1.06079, 1.11852, 1.10688, 1.05077, 1.04995, 1.05223, 1.05281, 1.08051, 1.70453, 1.10153, 1.11963, 1.10237, 1.08991, 1.05291, 1.05314, 1.05276, 1.0517, 1.05029, 1.05433, 1.09322, 1.05258, 1.24619, 1.24684, 1.24646, 1.03881, 1.04005, 1.03758, 1.03755, 1.0399, 1.04193, 1.03929, 1.03852, 1.03893, 1.03555, 1.03868, 1.03873, 1.03725, 1.03689, 1.0343, 1.03339, 1.03042, 1.03369, 1.03438, 1.03588, 1.03654, 1.03613, 1.03468, 1.03465, 1.09252, 1.12226, 1.02839, 1.02849, 1.02547, 1.02543, 1.0265, 1.02469, 1.02466, 1.02602, 1.02565, 1.02413, 1.02309, 1.02217, 1.0225, 1.0223, 1.02021, 1.02014, 1.01904, 1.01877, 1.0188, 1.09903, 1.09694, 1.09709, 1.01135, 1.01143, 1.01084, 1.02867, 1.01111, 1.07275, 1.09632, 1.31391, 1.07901, 1.08062, 1.01434, 1.01503, 1.01532, 1.01604, 1.12192, 1.08189, 1.08263, 1.02258, 1.02335, 1.02517, 1.02646, 1.02602, 1.02633, 1.02805, 1.02894, 1.02822, 1.02921, 1.02962, 1.02959, 1.02883, 1.0307, 1.03092, 1.03209, 1.0323, 1.03242, 1.03357, 1.03371, 1.03403, 1.03544, 1.2719, 1.03966, 1.04153, 1.04219, 1.04244, 1.04291, 1.04174, 1.04356, 1.04363, 1.04445, 1.04506, 1.04459, 1.04375, 1.04484, 1.04571, 1.04206, 1.04251, 1.04208, 1.04156, 1.03971, 1.03907, 1.0401, 1.04014, 1.04232, 1.03947, 1.03994, 1.04252, 1.04092, 1.04211, 1.08464, 1.04825, 1.04427, 1.04506, 1.04644, 1.04642, 1.04992, 1.04938, 1.05148, 1.05419, 1.0541, 1.05475, 1.09226, 1.05123, 1.05147, 1.14756, 1.07374, 1.07305, 1.10448, 1.10726, 1.10614, 1.09801, 1.02991, 1.11123, 1.02786, 1.02869, 1.02881, 1.03062, 1.11221, 1.10132, 1.04189, 1.03761, 1.04332, 1.04887, 1.05489, 1.05718, 1.0621, 1.06207, 1.0634, 1.06216, 1.05761, 1.05915, 1.0605, 1.06226, 1.06126, 1.06362, 1.06446, 1.06339, 1.0631, 1.06091, 1.06136, 1.06266, 1.06503, 1.06677, 1.06705, 1.06765, 1.06833, 1.06906, 1.07037, 1.07329, 1.07374, 1.07455, 1.07726, 1.07788, 1.07718, 1.07915, 1.0797, 1.08168, 1.08352, 1.08311, 1.08555, 1.08617, 1.08636, 1.08715, 1.08582, 1.0869, 1.08721, 1.09136, 1.08968, 1.09077, 1.09779, 1.12895, 1.15008, 1.24478, 1.09494, 1.09825, 1.09858, 1.26773, 1.10771, 1.15751, 1.17155, 1.17724, 1.1773, 1.10716, 1.10952, 1.11099
1.10266, 1.10225, 1.09633, 1.09494, 1.09131, 1.09102, 1.08921, 1.08888, 1.08376, 1.08174, 1.08063, 1.07863, 1.07964, 1.07314, 1.08025, 1.08129, 1.08541, 1.08553, 1.08161, 1.08118, 1.07838, 1.07844, 1.07475, 1.07414, 1.0738, 1.07107, 1.07032, 1.06993, 1.06805, 1.0671, 1.06499, 1.06612, 1.06689, 1.0592, 1.05958, 1.05522, 1.05394, 1.05151, 1.05412, 1.05366, 1.0532, 1.11734, 1.12239, 1.04983, 1.05327, 1.10849, 1.05427, 1.05313, 1.05393, 1.05429, 1.05433, 1.05566, 1.0556, 1.05293, 1.05334, 1.05324, 1.05056, 1.14656, 1.1308, 1.03701, 1.03666, 1.03752, 1.0388, 1.03773, 1.03647, 1.03572, 1.03779, 1.03714, 1.03755, 1.03651, 1.0366, 1.03682, 1.03541, 1.03215, 1.0303, 1.0374, 1.03649, 1.03654, 1.03401, 1.03571, 1.03523, 1.09263, 1.09282, 1.02303, 1.02343, 1.02272, 1.02378, 1.02487, 1.02595, 1.02378, 1.02436, 1.02402, 1.02491, 1.02499, 1.02406, 1.02286, 1.02201, 1.02165, 1.01977, 1.01941, 1.02078, 1.05717, 1.05762, 1.01507, 1.01453, 1.05948, 1.05952, 1.01172, 1.0113, 1.0098, 1.00863, 1.07573, 1.09914, 1.09811, 1.07999, 1.07114, 1.0877, 1.01795, 1.11883, 1.11948, 1.12047, 1.0796, 1.08434, 1.02808, 1.02608, 1.02664, 1.02764, 1.02884, 1.02997, 1.02958, 1.02896, 1.0287, 1.02889, 1.02784, 1.02876, 1.0314, 1.03046, 1.03277, 1.03292, 1.03282, 1.03421, 1.03439, 1.03464, 1.03322, 1.03603, 1.13601, 1.13726, 1.0426, 1.04156, 1.04282, 1.04239, 1.0429, 1.04355, 1.04419, 1.045, 1.04422, 1.04349, 1.04299, 1.04348, 1.0425, 1.03979, 1.03966, 1.04285, 1.04229, 1.04301, 1.04298, 1.04217, 1.03998, 1.03991, 1.04007, 1.04061, 1.04185, 1.04332, 1.04407, 1.04755, 1.04775, 1.04669, 1.04642, 1.04605, 1.04953, 1.04983, 1.05125, 1.05285, 1.05504, 1.05625, 1.05588, 1.05533, 1.05409, 1.0532, 1.05524, 1.05051, 1.06897, 1.07715, 1.08138, 1.09804, 1.08632, 1.09484, 1.09781, 1.11045, 1.02888, 1.03062, 1.0322, 1.02776, 1.02817, 1.03586, 1.03995, 1.03848, 1.11936, 1.11325, 1.10539, 1.10572, 1.05366, 1.05417, 1.05737, 1.05797, 1.06053, 1.06055, 1.06195, 1.06339, 1.06296, 1.06222, 1.06156, 1.06428, 1.06253, 1.06229, 1.06149, 1.06467, 1.06747, 1.06644, 1.06657, 1.11447, 1.07123, 1.25159, 1.07678, 1.0756, 1.07724, 1.07782, 1.07884, 1.08032, 1.08076, 1.08118, 1.0829, 1.08364, 1.08452, 1.08618, 1.08628, 1.08786, 1.08752, 1.08833, 1.08895, 1.09047, 1.09211, 1.09315, 1.09221, 1.09219, 1.15427, 1.1316, 1.249, 1.09871, 1.43461, 1.10751, 1.22663, 1.17318, 1.1746, 1.17541, 1.14653, 1.14549, 1.1097, 1.11, 1.11209
1.10337, 1.09869, 1.09536, 1.09483, 1.09113, 1.09064, 1.08715, 1.08737, 1.18483, 1.08899, 1.08786, 1.08757, 1.16432, 1.08166, 1.08235, 1.08503, 1.08511, 1.08411, 1.08102, 1.08026, 1.08039, 1.07965, 1.07572, 1.07524, 1.07425, 1.07106, 1.07031, 1.06998, 1.06875, 1.06687, 1.067, 1.06617, 1.06574, 1.21181, 1.13341, 1.05654, 1.05319, 1.05277, 1.054, 1.05711, 1.08153, 1.11001, 1.05147, 1.05166, 1.05281, 1.05335, 1.05437, 1.05493, 1.05636, 1.05662, 1.05722, 1.05966, 1.05668, 1.05716, 1.05595, 1.05334, 1.14039, 1.11529, 1.12446, 1.0434, 1.11257, 1.03759, 1.0381, 1.03703, 1.03686, 1.0358, 1.0353, 1.0368, 1.03939, 1.03925, 1.03927, 1.04245, 1.03861, 1.03709, 1.03657, 1.03648, 1.0364, 1.03316, 1.03284, 1.03226, 1.03352, 1.02678, 1.0247, 1.02317, 1.02298, 1.02286, 1.0245, 1.02391, 1.02288, 1.02088, 1.02024, 1.02023, 1.02039, 1.02134, 1.02052, 1.02221, 1.01979, 1.01918, 1.01919, 1.01932, 1.01878, 1.01684, 1.01475, 1.01327, 1.01581, 1.00974, 1.01019, 1.00976, 1.01064, 1.00872, 1.00918, 1.00984, 1.07541, 1.08057, 1.07767, 1.11554, 1.11556, 1.11645, 1.07786, 1.11927, 1.1093, 1.07769, 1.02283, 1.02417, 1.02591, 1.02845, 1.02888, 1.03019, 1.03038, 1.03047, 1.0288, 1.02942, 1.02822, 1.03002, 1.03217, 1.03221, 1.03271, 1.03258, 1.0352, 1.03474, 1.03358, 1.03335, 1.03309, 1.03336, 1.03514, 1.03612, 1.13325, 1.04036, 1.04153, 1.04231, 1.04215, 1.04238, 1.04339, 1.04503, 1.04523, 1.04538, 1.04273, 1.04284, 1.04273, 1.04321, 1.04267, 1.04118, 1.04233, 1.04348, 1.04351, 1.04284, 1.04286, 1.04005, 1.0401, 1.0426, 1.04208, 1.04275, 1.04315, 1.04388, 1.04668, 1.04721, 1.04597, 1.04595, 1.04665, 1.04798, 1.04834, 1.05091, 1.05407, 1.05468, 1.05673, 1.05587, 1.05584, 1.05405, 1.05603, 1.05456, 1.05532, 1.10147, 1.10229, 1.08939, 1.09096, 1.11285, 1.12008, 1.10872, 1.10826, 1.10932, 1.10979, 1.02483, 1.02588, 1.02678, 1.03577, 1.03587, 1.03874, 1.04247, 1.09963, 1.10495, 1.05388, 1.05291, 1.05305, 1.11033, 1.0574, 1.05997, 1.06085, 1.06218, 1.06069, 1.06036, 1.06133, 1.06327, 1.06472, 1.06414, 1.06306, 1.06376, 1.06342, 1.06661, 1.06791, 1.20774, 1.20839, 1.16187, 1.11569, 1.07681, 1.07756, 1.07868, 1.08003, 1.08042, 1.07991, 1.08241, 1.08327, 1.08434, 1.08466, 1.08456, 1.08628, 1.08698, 1.0877, 1.08835, 1.09067, 1.09294, 1.09211, 1.09229, 1.09246, 1.09456, 1.09375, 1.09437, 1.1618, 1.1608, 1.09893, 1.10033, 1.1015, 1.14085, 1.24966, 1.16154, 1.14508, 1.14418, 1.11035, 1.11164, 1.11252, 1.11207
1.09791, 1.09776, 1.09417, 1.0933, 1.17845, 1.08791, 1.08986, 1.09145, 1.09529, 1.0926, 1.09056, 1.09096, 1.08757, 1.08544, 1.08764, 1.08659, 1.08554, 1.08389, 1.08407, 1.08127, 1.08016, 1.07935, 1.07693, 1.07537, 1.07392, 1.07309, 1.07152, 1.07025, 1.06882, 1.06762, 1.06699, 1.0665, 1.06643, 1.05458, 1.05292, 1.05288, 1.05975, 1.05781, 1.05192, 1.05585, 1.0555, 1.05532, 1.05271, 1.0529, 1.05563, 1.05473, 1.05346, 1.18426, 1.18375, 1.18307, 1.0587, 1.05743, 1.05649, 1.05688, 1.0515, 1.05102, 1.05047, 1.05041, 1.0436, 1.04096, 1.04231, 1.0421, 1.041, 1.11543, 1.11881, 1.3495, 1.1209, 1.03702, 1.03871, 1.03918, 1.04062, 1.0414, 1.03783, 1.03749, 1.03653, 1.10856, 1.0285, 1.02968, 1.0318, 1.03249, 1.02611, 1.02564, 1.02373, 1.02409, 1.01931, 1.02028, 1.0253, 1.02199, 1.02203, 1.02035, 1.0197, 1.02023, 1.0209, 1.02135, 1.02178, 1.0203, 1.01899, 1.0202, 1.01958, 1.02073, 1.0186, 1.01815, 1.0179, 1.01653, 1.01573, 1.01307, 1.01305, 1.07907, 1.01293, 1.01323, 1.01226, 1.08118, 1.10897, 1.11088, 1.10894, 1.11138, 1.11209, 1.08472, 1.11817, 1.08149, 1.08108, 1.11796, 1.11961, 1.05643, 1.12805, 1.08499, 1.03005, 1.03159, 1.03179, 1.02823, 1.02663, 1.02742, 1.10592, 1.03223, 1.03219, 1.0321, 1.03517, 1.03554, 1.07893, 1.03221, 1.03223, 1.03237, 1.03329, 1.03641, 1.03519, 1.03567, 1.038, 1.03899, 1.03996, 1.04023, 1.04073, 1.04057, 1.04159, 1.04267, 1.04219, 1.04523, 1.04498, 1.04277, 1.04235, 1.04219, 1.04149, 1.04146, 1.04341, 1.04456, 1.04335, 1.04236, 1.0417, 1.03968, 1.03856, 1.04246, 1.04259, 1.04308, 1.04381, 1.04431, 1.04293, 1.04114, 1.04333, 1.04513, 1.10712, 1.06148, 1.15781, 1.14011, 1.0564, 1.05722, 1.05665, 1.0561, 1.05858, 1.05824, 1.05553, 1.05585, 1.05631, 1.10131, 1.10104, 1.10667, 1.07697, 1.09438, 1.09955, 1.119, 1.11605, 1.11497, 1.11456, 1.11336, 1.0233, 1.02835, 1.08828, 1.09607, 1.09536, 1.0951, 1.10615, 1.11047, 1.05188, 1.05103, 1.10603, 1.09939, 1.05754, 1.0598, 1.06195, 1.09465, 1.06301, 1.06232, 1.06429, 1.06214, 1.06476, 1.06448, 1.06393, 1.06471, 1.22969, 1.10134, 1.08213, 1.14761, 1.09376, 1.09344, 1.07705, 1.07898, 1.0787, 1.07923, 1.08083, 1.08174, 1.08386, 1.08452, 1.0842, 1.0853, 1.08509, 1.0852, 1.08625, 1.08728, 1.08807, 1.09015, 1.09111, 1.09305, 1.09104, 1.09142, 1.09433, 1.0966, 1.09581, 1.1648, 1.16383, 1.1752, 1.16214, 1.09966, 1.1012, 1.10227, 1.10488, 1.14729, 1.14626, 1.11067, 1.11157, 1.11345, 1.11485, 1.11318
1.10305, 1.09829, 1.09751, 1.09877, 1.09851, 1.10027, 1.09922, 1.09623, 1.09494, 1.0944, 1.09381, 1.09089, 1.09012, 1.08511, 1.08859, 1.08818, 1.08717, 1.0855, 1.08524, 1.08476, 1.08078, 1.08067, 1.07812, 1.07672, 1.07389, 1.07338, 1.07243, 1.07163, 1.06605, 1.06763, 1.06755, 1.06655, 1.15177, 1.14788, 1.05305, 1.05857, 1.05829, 1.05724, 1.05627, 1.05597, 1.05818, 1.05614, 1.05467, 1.05594, 1.05632, 1.05114, 1.05155, 1.18414, 1.05726, 1.05746, 1.05637, 1.05478, 1.05603, 1.05261, 1.05278, 1.05193, 1.05195, 1.05009, 1.04518, 1.04171, 1.04105, 1.04273, 1.04265, 1.13858, 1.13894, 1.04194, 1.04072, 1.04092, 1.04425, 1.03988, 1.04124, 1.04163, 1.03871, 1.03738, 1.03638, 1.11119, 1.02838, 1.02845, 1.11185, 1.02438, 1.02486, 1.02515, 1.02641, 1.15788, 1.0199, 1.02127, 1.0215, 1.51459, 1.0201, 1.02001, 1.01946, 1.0203, 1.02485, 1.0201, 1.02132, 1.02181, 1.02141, 1.0206, 1.02135, 1.01905, 1.01802, 1.01808, 1.01829, 1.0183, 1.01693, 1.01442, 1.01464, 1.0165, 1.01576, 1.0168, 1.01728, 1.10501, 1.07787, 1.07809, 1.08771, 1.10993, 1.02317, 1.0235, 1.02559, 1.02443, 1.082, 1.08637, 1.09444, 1.09422, 1.02704, 1.02867, 1.02951, 1.02673, 1.02597, 1.0261, 1.02853, 1.029, 1.07701, 1.03264, 1.03288, 1.03265, 1.04446, 1.08069, 1.08139, 1.03184, 1.03184, 1.03189, 1.03215, 1.12918, 1.12646, 1.12678, 1.03892, 1.0388, 1.03988, 1.0395, 1.04023, 1.04042, 1.04044, 1.04259, 1.04228, 1.0428, 1.04323, 1.0427, 1.04234, 1.04226, 1.0402, 1.04262, 1.04434, 1.04369, 1.0422, 1.04181, 1.04135, 1.04045, 1.03989, 1.03969, 1.04116, 1.04398, 1.04562, 1.04442, 1.04414, 1.04398, 1.04285, 1.04439, 1.04703, 1.11129, 1.08449, 1.1078, 1.05738, 1.05785, 1.05823, 1.05788, 1.05892, 1.0594, 1.0546, 1.05453, 1.0708, 1.10297, 1.24663, 1.10464, 1.09197, 1.23221, 1.13336, 1.13226, 1.09202, 1.09207, 1.10624, 1.10532, 1.09662, 1.03585, 1.10814, 1.09493, 1.10324, 1.08169, 1.0487, 1.05111, 1.0527, 1.05328, 1.05446, 1.05668, 1.05837, 1.06121, 1.06307, 1.11828, 1.06468, 1.06565, 1.06737, 1.06689, 1.06718, 1.06861, 1.07103, 1.14136, 1.08446, 1.12978, 1.09619, 1.08124, 1.09276, 1.07814, 1.07777, 1.07945, 1.07925, 1.08034, 1.0845, 1.08418, 1.08403, 1.08448, 1.08488, 1.08594, 1.08722, 1.08741, 1.08894, 1.0883, 1.08903, 1.08982, 1.09083, 1.09333, 1.0942, 1.09462, 1.09719, 1.09656, 1.09845, 1.09659, 1.09777, 1.10009, 1.10075, 1.10255, 1.10393, 1.10364, 1.14035, 1.14071, 1.11196, 1.11293, 1.11227, 1.11501, 1.11449, 1.11462
1.10323, 1.09581, 1.09531, 1.17794, 1.10172, 1.10262, 1.1754, 1.09639, 1.09557, 1.09448, 1.0949, 1.08772, 1.08828, 1.09089, 1.0906, 1.09089, 1.08788, 1.08412, 1.0831, 1.08548, 1.0829, 1.08067, 1.0802, 1.07696, 1.07343, 1.07369, 1.07252, 1.07016, 1.06939, 1.06872, 1.15413, 1.14713, 1.05614, 1.05573, 1.11931, 1.15817, 1.05837, 1.05927, 1.05849, 1.05926, 1.0576, 1.05781, 1.05967, 1.0602, 1.18408, 1.04956, 1.18086, 1.05803, 1.05683, 1.05725, 1.05641, 1.05592, 1.05459, 1.05221, 1.05256, 1.05253, 1.05065, 1.04968, 1.13604, 1.13634, 1.04221, 1.04245, 1.04264, 1.11822, 1.1224, 1.12296, 1.04234, 1.04425, 1.04504, 1.04225, 1.0423, 1.03671, 1.0369, 1.0358, 1.03264, 1.10346, 1.08009, 1.13731, 1.13779, 1.02341, 1.02345, 1.02267, 1.02164, 1.02092, 1.02046, 1.02106, 1.02039, 1.02003, 1.01932, 1.0193, 1.01967, 1.01909, 1.01993, 1.01915, 1.01981, 1.02153, 1.02179, 1.02169, 1.01848, 1.01815, 1.01804, 1.01811, 1.01795, 1.01757, 1.01775, 1.01749, 1.01747, 1.02473, 1.01983, 1.01781, 1.01711, 1.01387, 1.0138, 1.08032, 1.09373, 1.09255, 1.02263, 1.0245, 1.02499, 1.0261, 1.02607, 1.02958, 1.02732, 1.02915, 1.02746, 1.02825, 1.0275, 1.02546, 1.02547, 1.02679, 1.02743, 1.09761, 1.07785, 1.07798, 1.08468, 1.0842, 1.07072, 1.04882, 1.0312, 1.03135, 1.03148, 1.03132, 1.03133, 1.09235, 1.09448, 1.05299, 1.13149, 1.03912, 1.04063, 1.03961, 1.03934, 1.04048, 1.04141, 1.04135, 1.04198, 1.04188, 1.04236, 1.04261, 1.04361, 1.0442, 1.04367, 1.0422, 1.0428, 1.04267, 1.0422, 1.04158, 1.04195, 1.04266, 1.08744, 1.09148, 1.04269, 1.0436, 1.12975, 1.04439, 1.04596, 1.0456, 1.04709, 1.04764, 1.04723, 1.04845, 1.11641, 1.09993, 1.09912, 1.10009, 1.05895, 1.05718, 1.05739, 1.05528, 1.05486, 1.05369, 1.05353, 1.05261, 1.10578, 1.10587, 1.15032, 1.1124, 1.15721, 1.09492, 1.11023, 1.11154, 1.10619, 1.10626, 1.09853, 1.11221, 1.10957, 1.08387, 1.10631, 1.10907, 1.11251, 1.05118, 1.05332, 1.11549, 1.05425, 1.05591, 1.05688, 1.06481, 1.06758, 1.06768, 1.06848, 1.06888, 1.06906, 1.07442, 1.07365, 1.07199, 1.07496, 1.07518, 1.07351, 1.10677, 1.09477, 1.07679, 1.07617, 1.07763, 1.07742, 1.07807, 1.0791, 1.08382, 1.08375, 1.08422, 1.08464, 1.08603, 1.08522, 1.08769, 1.08779, 1.08816, 1.09208, 1.09092, 1.09077, 1.09123, 1.09261, 1.0937, 1.09556, 1.09669, 1.09782, 1.10041, 1.13962, 1.12453, 1.09983, 1.1009, 1.10156, 1.10193, 1.10362, 1.10544, 1.10778, 1.1116, 1.11083, 1.11152, 1.11147, 1.11321, 1.11462, 1.11678
1.10321, 1.09517, 1.08747, 1.09936, 1.10248, 1.10284, 1.09754, 1.09757, 1.09886, 1.0966, 1.09687, 1.08805, 1.08933, 1.09023, 1.09017, 1.08882, 1.08985, 1.08381, 1.08518, 1.08428, 1.08167, 1.08164, 1.07969, 1.07652, 1.07302, 1.0715, 1.07094, 1.06659, 1.06648, 1.06689, 1.05981, 1.05796, 1.1616, 1.15643, 1.15809, 1.15768, 1.05988, 1.0597, 1.06357, 1.06075, 1.05944, 1.05985, 1.05998, 1.06032, 1.06316, 1.06429, 1.06024, 1.06059, 1.05866, 1.05933, 1.05996, 1.06014, 1.0601, 1.05198, 1.05333, 1.0528, 1.05053, 1.05004, 1.12307, 1.05093, 1.05132, 1.04199, 1.04539, 1.04892, 1.04856, 1.04931, 1.04541, 1.04379, 1.04219, 1.0423, 1.04255, 1.03768, 1.03599, 1.03642, 1.08218, 1.11272, 1.13568, 1.08771, 1.02355, 1.02293, 1.02252, 1.022, 1.02146, 1.02083, 1.02048, 1.02038, 1.02006, 1.01947, 1.01888, 1.01909, 1.0189, 1.01819, 1.01894, 1.0209, 1.02125, 1.02271, 1.0232, 1.02139, 1.01955, 1.01823, 1.01809, 1.01709, 1.01633, 1.01618, 1.01736, 1.01869, 1.01831, 1.02244, 1.02511, 1.01854, 1.01886, 1.01713, 1.01599, 1.01658, 1.01792, 1.10119, 1.10199, 1.09116, 1.08395, 1.02893, 1.0284, 1.0284, 1.02839, 1.02922, 1.02898, 1.02818, 1.02845, 1.02752, 1.02786, 1.0277, 1.02798, 1.02785, 1.09987, 1.09871, 1.06291, 1.0977, 1.09488, 1.03002, 1.03029, 1.03055, 1.03069, 1.03052, 1.04604, 1.04653, 1.07048, 1.05061, 1.04831, 1.07127, 1.03898, 1.03945, 1.03791, 1.03953, 1.0411, 1.04168, 1.04153, 1.04142, 1.04202, 1.04125, 1.04515, 1.0459, 1.04195, 1.04269, 1.04283, 1.04236, 1.04203, 1.04078, 1.04219, 1.04235, 1.0436, 1.04508, 1.04769, 1.04775, 1.04819, 1.0457, 1.04767, 1.04837, 1.05127, 1.04716, 1.04849, 1.04855, 1.0494, 1.05152, 1.05248, 1.05239, 1.09845, 1.05624, 1.05527, 1.05447, 1.05391, 1.05323, 1.05264, 1.05159, 1.24472, 1.1125, 1.14769, 1.1156, 1.077, 1.10233, 1.10069, 1.10089, 1.0757, 1.10803, 1.10814, 1.10617, 1.09125, 1.08408, 1.09137, 1.10296, 1.10316, 1.37578, 1.05605, 1.11803, 1.09994, 1.05601, 1.06668, 1.06637, 1.06661, 1.0689, 1.07409, 1.07155, 1.07476, 1.07687, 1.07646, 1.07567, 1.07585, 1.07491, 1.07979, 1.07942, 1.08038, 1.07557, 1.07776, 1.07696, 1.08066, 1.08397, 1.08465, 1.08684, 1.08667, 1.08582, 1.08682, 1.0878, 1.08733, 1.08761, 1.09066, 1.0912, 1.0948, 1.09109, 1.09137, 1.0925, 1.09313, 1.09534, 1.09562, 1.09629, 1.09849, 1.09555, 1.1015, 1.09964, 1.1023, 1.10078, 1.10091, 1.10208, 1.10485, 1.10495, 1.10738, 1.11097, 1.11048, 1.11155, 1.11168, 1.11569, 1.1188, 1.11885
1.09946, 1.09888, 1.09769, 1.09719, 1.09922, 1.09967, 1.0984, 1.09854, 1.09867, 1.09762, 1.09612, 1.09205, 1.08875, 1.08976, 1.0908, 1.08869, 1.08747, 1.0825, 1.08371, 1.08442, 1.08382, 1.0828, 1.08019, 1.07566, 1.07526, 1.0754, 1.07133, 1.06768, 1.06617, 1.06304, 1.0602, 1.1575, 1.16029, 1.17089, 1.15954, 1.15652, 1.15964, 1.06147, 1.0645, 1.06643, 1.06379, 1.06105, 1.06147, 1.0641, 1.06542, 1.06433, 1.06487, 1.06403, 1.06433, 1.06311, 1.06293, 1.06282, 1.05947, 1.05707, 1.05409, 1.05256, 1.04937, 1.05255, 1.05158, 1.05195, 1.05047, 1.0504, 1.05159, 1.05262, 1.04792, 1.04924, 1.04559, 1.04574, 1.04368, 1.04422, 1.10752, 1.03664, 1.02992, 1.14425, 1.1101, 1.11326, 1.12885, 1.02402, 1.0229, 1.02223, 1.0218, 1.02156, 1.02147, 1.02063, 1.02002, 1.01964, 1.01924, 1.01859, 1.01823, 1.01807, 1.01735, 1.01827, 1.09834, 1.02043, 1.02162, 1.02291, 1.02333, 1.02153, 1.02156, 1.0185, 1.0156, 1.01607, 1.01561, 1.01527, 1.24626, 1.08532, 1.02356, 1.0251, 1.02482, 1.02648, 1.0194, 1.01629, 1.01701, 1.01812, 1.01763, 1.09621, 1.09296, 1.02521, 1.02507, 1.02796, 1.02739, 1.02765, 1.02921, 1.02787, 1.02805, 1.02801, 1.02853, 1.02841, 1.02795, 1.02821, 1.02782, 1.02726, 1.02755, 1.02736, 1.02829, 1.02862, 1.02898, 1.0295, 1.02988, 1.0301, 1.03015, 1.0301, 1.03028, 1.08735, 1.06463, 1.04731, 1.05355, 1.07104, 1.07152, 1.05278, 1.04021, 1.04001, 1.04097, 1.04191, 1.04128, 1.04107, 1.04232, 1.0909, 1.06772, 1.04944, 1.04873, 1.04524, 1.04355, 1.04282, 1.04219, 1.0417, 1.04367, 1.04565, 1.04656, 1.04908, 1.04808, 1.04728, 1.04925, 1.10569, 1.04861, 1.04953, 1.05278, 1.0515, 1.05202, 1.05103, 1.05104, 1.05134, 1.05138, 1.05209, 1.05217, 1.05227, 1.05442, 1.054, 1.05321, 1.05273, 1.052, 1.05048, 1.05245, 1.05178, 1.05213, 1.10173, 1.10073, 1.09791, 1.09932, 1.08579, 1.09727, 1.09332, 1.10565, 1.08597, 1.10799, 1.1056, 1.11642, 1.11308, 1.36426, 1.11243, 1.05735, 1.13528, 1.1095, 1.12374, 1.1251, 1.06745, 1.14338, 1.11549, 1.07415, 1.07519, 1.1161, 1.0785, 1.08029, 1.08, 1.07982, 1.08017, 1.07992, 1.0789, 1.08022, 1.08016, 1.08013, 1.11275, 1.11509, 1.08418, 1.0852, 1.08727, 1.08756, 1.08726, 1.08761, 1.08994, 1.09062, 1.09239, 1.09214, 1.09096, 1.09146, 1.09331, 1.09206, 1.09396, 1.09433, 1.09543, 1.09756, 1.09923, 1.09875, 1.09872, 1.0999, 1.10089, 1.10173, 1.10287, 1.10336, 1.1038, 1.10435, 1.10525, 1.10776, 1.10999, 1.1118, 1.1122, 1.11447, 1.11702, 1.11866, 1.15511
1.19279, 1.27095, 1.19482, 1.09816, 1.09808, 1.25066, 1.24052, 1.24538, 1.24359, 1.09413, 1.09422, 1.09264, 1.0934, 1.09462, 1.09143, 1.09183, 1.09151, 1.09796, 1.08817, 1.08711, 1.08494, 1.08364, 1.08292, 1.08069, 1.07997, 1.07683, 1.17363, 1.07012, 1.06669, 1.06613, 1.17096, 1.12957, 1.16099, 1.17158, 1.14711, 1.1557, 1.14333, 1.16744, 1.16644, 1.06705, 1.06308, 1.06329, 1.06547, 1.06963, 1.06714, 1.06985, 1.07038, 1.07012, 1.06337, 1.06347, 1.06371, 1.0624, 1.06163, 1.05595, 1.05386, 1.05356, 1.05281, 1.05243, 1.05249, 1.05599, 1.05233, 1.05181, 1.05205, 1.0527, 1.04873, 1.04625, 1.04607, 1.04568, 1.04418, 1.04149, 1.03817, 1.03231, 1.02931, 1.02958, 1.11526, 1.02527, 1.02487, 1.02405, 1.02311, 1.02223, 1.02162, 1.02151, 1.02092, 1.02021, 1.01953, 1.01893, 1.01835, 1.01802, 1.0168, 1.08171, 1.08063, 1.07367, 1.09422, 1.02282, 1.02211, 1.02317, 1.02355, 1.02283, 1.02215, 1.01564, 1.01686, 1.01732, 1.01717, 1.09881, 1.09333, 1.08876, 1.02889, 1.02847, 1.02616, 1.02594, 1.01889, 1.0176, 1.01771, 1.01805, 1.09951, 1.01973, 1.02013, 1.02258, 1.02315, 1.02628, 1.0278, 1.02842, 1.02881, 1.02737, 1.02695, 1.02693, 1.02672, 1.02671, 1.02761, 1.02799, 1.02747, 1.02709, 1.02726, 1.02796, 1.02858, 1.02881, 1.02921, 1.02946, 1.02963, 1.02971, 1.02978, 1.02987, 1.03014, 1.1022, 1.0962, 1.04675, 1.10598, 1.09786, 1.10046, 1.09453, 1.09176, 1.04392, 1.0422, 1.04175, 1.04155, 1.04098, 1.0418, 1.08818, 1.04522, 1.04778, 1.04871, 1.0455, 1.04412, 1.04371, 1.04564, 1.04557, 1.11544, 1.04759, 1.04808, 1.0495, 1.04899, 1.05123, 1.05204, 1.05266, 1.05297, 1.05017, 1.05077, 1.05275, 1.05257, 1.05289, 1.05495, 1.05545, 1.05606, 1.05308, 1.05245, 1.05038, 1.05275, 1.05334, 1.05285, 1.0527, 1.05217, 1.05171, 1.05299, 1.08209, 1.05542, 1.10803, 1.10117, 1.09763, 1.09753, 1.04844, 1.04834, 1.10234, 1.10533, 1.10779, 1.33293, 1.08453, 1.11583, 1.05893, 1.10831, 1.10945, 1.0987, 1.12029, 1.09233, 1.0928, 1.13898, 1.14343, 1.14629, 1.0762, 1.07494, 1.1192, 1.11642, 1.08235, 1.08189, 1.08296, 1.08121, 1.08147, 1.07839, 1.08083, 1.08147, 1.08255, 1.12138, 1.08805, 1.08793, 1.08782, 1.08833, 1.08886, 1.09114, 1.08933, 1.09263, 1.0913, 1.09162, 1.09344, 1.09289, 1.09417, 1.09424, 1.09439, 1.09343, 1.09418, 1.09532, 1.09799, 1.09797, 1.0991, 1.10044, 1.10148, 1.10735, 1.10365, 1.10376, 1.10444, 1.10628, 1.10764, 1.10426, 1.1074, 1.11159, 1.11134, 1.11226, 1.11304, 1.11619, 1.15864, 1.1202, 1.12343
1.26801, 1.2719, 1.19088, 1.09614, 1.09887, 1.19981, 1.22109, 1.21869, 1.18479, 1.09458, 1.09425, 1.09365, 1.09436, 1.09377, 1.09388, 1.09188, 1.0914, 1.09111, 1.09125, 1.08819, 1.09125, 1.08765, 1.08612, 1.08372, 1.08279, 1.16347, 1.07101, 1.07019, 1.07107, 1.16558, 1.16633, 1.1755, 1.17473, 1.14612, 1.07794, 1.07747, 1.07794, 1.14078, 1.15658, 1.07322, 1.07106, 1.07014, 1.06853, 1.06915, 1.06778, 1.06938, 1.07101, 1.0693, 1.06623, 1.06586, 1.06593, 1.0642, 1.05688, 1.05448, 1.05387, 1.05249, 1.2839, 1.0584, 1.0575, 1.05496, 1.0542, 1.05357, 1.05188, 1.05246, 1.04509, 1.04601, 1.0477, 1.04673, 1.04405, 1.0394, 1.03661, 1.11189, 1.02908, 1.02845, 1.02628, 1.02535, 1.02497, 1.0243, 1.0233, 1.02226, 1.02161, 1.0214, 1.02062, 1.01991, 1.01926, 1.01865, 1.01808, 1.01798, 1.01658, 1.05803, 1.05614, 1.10861, 1.02384, 1.02232, 1.02261, 1.0237, 1.02594, 1.02511, 1.09179, 1.01763, 1.01816, 1.01835, 1.01856, 1.0911, 1.10263, 1.08941, 1.03111, 1.03163, 1.02725, 1.02153, 1.02177, 1.11815, 1.01672, 1.01602, 1.01544, 1.01861, 1.02146, 1.0218, 1.05752, 1.09506, 1.02803, 1.02797, 1.07835, 1.0257, 1.02601, 1.02609, 1.02627, 1.02691, 1.02737, 1.02717, 1.02673, 1.02643, 1.02642, 1.02644, 1.02744, 1.02845, 1.02856, 1.02883, 1.02896, 1.02908, 1.02923, 1.02948, 1.0298, 1.03032, 1.10161, 1.05226, 1.06087, 1.05325, 1.09803, 1.05481, 1.14137, 1.09044, 1.03942, 1.04101, 1.04171, 1.04072, 1.04283, 1.06509, 1.28292, 1.04839, 1.04558, 1.04485, 1.04341, 1.04304, 1.04303, 1.04403, 1.11415, 1.04865, 1.05029, 1.05047, 1.05177, 1.05337, 1.05336, 1.05299, 1.05301, 1.05116, 1.05183, 1.05249, 1.05179, 1.1185, 1.05582, 1.05587, 1.05595, 1.05491, 1.05125, 1.05302, 1.05531, 1.05489, 1.05467, 1.05362, 1.05397, 1.11342, 1.11235, 1.10123, 1.09266, 1.0985, 1.09153, 1.09231, 1.0953, 1.04854, 1.04952, 1.10185, 1.0996, 1.05933, 1.12452, 1.1127, 1.09991, 1.34266, 1.11234, 1.06279, 1.1023, 1.12342, 1.13187, 1.10311, 1.12919, 1.14141, 1.12907, 1.07682, 1.07913, 1.08035, 1.12175, 1.08307, 1.08233, 1.08201, 1.08582, 1.0847, 1.08128, 1.08338, 1.08305, 1.08404, 1.08833, 1.08847, 1.08874, 1.08974, 1.09093, 1.09203, 1.09179, 1.09462, 1.09611, 1.09519, 1.09422, 1.09456, 1.09669, 1.09635, 1.09714, 1.09804, 1.09648, 1.09767, 1.09809, 1.09802, 1.09981, 1.1015, 1.10127, 1.10102, 1.10272, 1.10448, 1.10491, 1.10565, 1.10815, 1.10802, 1.11024, 1.10958, 1.11004, 1.11173, 1.11478, 1.12183, 1.13984, 1.12569, 1.12724, 1.12887
1.2668, 1.24673, 1.24581, 1.25298, 1.18525, 1.23294, 1.19725, 1.19316, 1.09048, 1.09065, 1.09367, 1.09342, 1.0933, 1.09612, 1.09724, 1.09397, 1.09238, 1.09178, 1.09179, 1.09233, 1.08991, 1.08867, 1.08772, 1.08731, 1.14942, 1.07402, 1.07333, 1.15287, 1.18516, 1.08312, 1.08169, 1.08358, 1.08116, 1.16838, 1.0789, 1.07878, 1.07772, 1.076, 1.07376, 1.07372, 1.07166, 1.0717, 1.07012, 1.0701, 1.14031, 1.0691, 1.06963, 1.06927, 1.0682, 1.0673, 1.06697, 1.05944, 1.05737, 1.05453, 1.05458, 1.05374, 1.1529, 1.05903, 1.05891, 1.05681, 1.05614, 1.055, 1.05336, 1.05329, 1.04798, 1.04714, 1.0467, 1.04498, 1.04626, 1.11906, 1.12304, 1.11969, 1.11668, 1.02681, 1.02648, 1.02579, 1.02515, 1.0243, 1.02319, 1.02198, 1.0215, 1.02088, 1.02004, 1.01937, 1.0188, 1.01829, 1.01802, 1.01796, 1.01732, 1.04376, 1.0992, 1.02489, 1.02454, 1.02361, 1.02382, 1.02396, 1.02496, 1.02526, 1.02286, 1.01925, 1.01933, 1.01932, 1.02046, 1.08861, 1.07232, 1.0918, 1.0283, 1.02764, 1.02505, 1.09889, 1.10842, 1.107, 1.01516, 1.01606, 1.01705, 1.02085, 1.02133, 1.01928, 1.02465, 1.09491, 1.09634, 1.09428, 1.08026, 1.02494, 1.02511, 1.02559, 1.02585, 1.02606, 1.02608, 1.02585, 1.0256, 1.02562, 1.02624, 1.02639, 1.02989, 1.0285, 1.02842, 1.02845, 1.02845, 1.02843, 1.02846, 1.0287, 1.02918, 1.02981, 1.03069, 1.05074, 1.05616, 1.05997, 1.09317, 1.09266, 1.07143, 1.07734, 1.03901, 1.03972, 1.04071, 1.04025, 1.07411, 1.27999, 1.09282, 1.04566, 1.04552, 1.04487, 1.04544, 1.04587, 1.04576, 1.04701, 1.04822, 1.04957, 1.05184, 1.05198, 1.05252, 1.05201, 1.05286, 1.05066, 1.05198, 1.05275, 1.05145, 1.05143, 1.05143, 1.05105, 1.04698, 1.04809, 1.04961, 1.05098, 1.05298, 1.05417, 1.05919, 1.05782, 1.0585, 1.06398, 1.06139, 1.06097, 1.06235, 1.10594, 1.10267, 1.10632, 1.10761, 1.10803, 1.05187, 1.05021, 1.05013, 1.13297, 1.12623, 1.067, 1.06701, 1.1425, 1.11984, 1.11966, 1.0698, 1.11625, 1.12357, 1.12423, 1.10474, 1.13331, 1.0908, 1.14, 1.14028, 1.07792, 1.11887, 1.13028, 1.08369, 1.08398, 1.08486, 1.08433, 1.08508, 1.08541, 1.12353, 1.08706, 1.08725, 1.15106, 1.08942, 1.09038, 1.09178, 1.0942, 1.11493, 1.12401, 1.09752, 1.09825, 1.09804, 1.09794, 1.09737, 1.09622, 1.10038, 1.10159, 1.09858, 1.09981, 1.09899, 1.09958, 1.10076, 1.10103, 1.13885, 1.1032, 1.10159, 1.10301, 1.10484, 1.10755, 1.10791, 1.10828, 1.10816, 1.10872, 1.10901, 1.1119, 1.11932, 1.11919, 1.11991, 1.12301, 1.15294, 1.12801, 1.12713, 1.12695
1.26741, 1.43626, 1.25294, 1.19092, 1.09339, 1.09153, 1.09133, 1.08863, 1.09059, 1.0904, 1.09533, 1.09351, 1.09166, 1.09651, 1.09741, 1.09563, 1.09397, 1.09459, 1.09305, 1.09465, 1.09178, 1.09194, 1.08859, 1.18116, 1.07512, 1.07569, 1.07514, 1.17923, 1.17917, 1.08552, 1.08385, 1.08221, 1.08177, 1.08146, 1.08018, 1.07984, 1.07933, 1.07804, 1.07452, 1.07347, 1.07333, 1.07438, 1.06862, 1.19877, 1.07107, 1.0724, 1.07087, 1.06998, 1.06807, 1.06713, 1.05933, 1.0595, 1.05573, 1.05527, 1.05464, 1.05455, 1.05638, 1.05667, 1.05697, 1.05672, 1.05618, 1.05474, 1.05346, 1.05146, 1.04841, 1.04601, 1.04616, 1.04065, 1.03429, 1.0353, 1.03432, 1.02991, 1.02921, 1.02678, 1.02658, 1.02563, 1.02502, 1.02409, 1.02277, 1.02177, 1.02134, 1.02032, 1.01958, 1.01903, 1.01855, 1.01827, 1.01806, 1.01804, 1.01809, 1.01898, 1.10041, 1.02569, 1.02473, 1.02449, 1.025, 1.02374, 1.02565, 1.02493, 1.02525, 1.02313, 1.01913, 1.01986, 1.02089, 1.08932, 1.02229, 1.07647, 1.02655, 1.02285, 1.02232, 1.02164, 1.02058, 1.02021, 1.01658, 1.0166, 1.01859, 1.01917, 1.01888, 1.01916, 1.09406, 1.07053, 1.07183, 1.07822, 1.02404, 1.02473, 1.02499, 1.025, 1.025, 1.02503, 1.02503, 1.02503, 1.02502, 1.02504, 1.02518, 1.0269, 1.03006, 1.02882, 1.0284, 1.02833, 1.02833, 1.02838, 1.02842, 1.02837, 1.02861, 1.02927, 1.03015, 1.03111, 1.04997, 1.05256, 1.10663, 1.07156, 1.13678, 1.08063, 1.07064, 1.03892, 1.03897, 1.08845, 1.04148, 1.04226, 1.12249, 1.04376, 1.04433, 1.04535, 1.04374, 1.04863, 1.04695, 1.04781, 1.04781, 1.04932, 1.04944, 1.05452, 1.05272, 1.05264, 1.05248, 1.05074, 1.0513, 1.05128, 1.05097, 1.0503, 1.04895, 1.04855, 1.04688, 1.04816, 1.04816, 1.13162, 1.10973, 1.11244, 1.11309, 1.06005, 1.06502, 1.06431, 1.06413, 1.06403, 1.06575, 1.06848, 1.11011, 1.10758, 1.27874, 1.29099, 1.06153, 1.0586, 1.13184, 1.13334, 1.33961, 1.06701, 1.06783, 1.07091, 1.07012, 1.06962, 1.07015, 1.11666, 1.12384, 1.14268, 1.12756, 1.09422, 1.10996, 1.41882, 1.14424, 1.08027, 1.08414, 1.08352, 1.087, 1.13701, 1.08533, 1.08697, 1.09028, 1.08744, 1.09014, 1.08629, 1.0872, 1.14929, 1.09543, 1.09568, 1.14307, 1.14776, 1.14843, 1.14943, 1.09956, 1.10498, 1.10255, 1.09851, 1.10005, 1.10439, 1.10321, 1.10209, 1.10296, 1.29793, 1.10488, 1.15022, 1.14896, 1.10771, 1.10775, 1.10514, 1.10831, 1.10479, 1.10704, 1.10977, 1.10932, 1.109, 1.11052, 1.11216, 1.16182, 1.1195, 1.12002, 1.12213, 1.16134, 1.12572, 1.12635, 1.12671, 1.1273, 1.33486
1.19513, 1.24986, 1.09714, 1.09485, 1.09444, 1.09156, 1.09804, 1.09964, 1.1, 1.09888, 1.09937, 1.20815, 1.10256, 1.10093, 1.09995, 1.09596, 1.09644, 1.09471, 1.09533, 1.09449, 1.16345, 1.17505, 1.30995, 1.08223, 1.1966, 1.19635, 1.19645, 1.17458, 1.16052, 1.08738, 1.0852, 1.08321, 1.08374, 1.08213, 1.08082, 1.08038, 1.07882, 1.07889, 1.07459, 1.07409, 1.0751, 1.07447, 1.0725, 1.07268, 1.07335, 1.07312, 1.07181, 1.06954, 1.0675, 1.06355, 1.05877, 1.05894, 1.05927, 1.05506, 1.05385, 1.05581, 1.0569, 1.0578, 1.05899, 1.05863, 1.1221, 1.0514, 1.06022, 1.04913, 1.04901, 1.04606, 1.04277, 1.04042, 1.03464, 1.03411, 1.03301, 1.0302, 1.02804, 1.02669, 1.026, 1.02523, 1.0248, 1.02359, 1.02268, 1.02232, 1.02138, 1.02056, 1.01987, 1.01935, 1.01891, 1.01859, 1.01827, 1.01825, 1.01896, 1.02, 1.02481, 1.02504, 1.02424, 1.02323, 1.02357, 1.02353, 1.02671, 1.02525, 1.02435, 1.02583, 1.0205, 1.01852, 1.01855, 1.0923, 1.02604, 1.02719, 1.02643, 1.02253, 1.02205, 1.02062, 1.02075, 1.02127, 1.01758, 1.01788, 1.01812, 1.0953, 1.01931, 1.01917, 1.01941, 1.10044, 1.07334, 1.07377, 1.02283, 1.02351, 1.02376, 1.02331, 1.02355, 1.02407, 1.02459, 1.0249, 1.02502, 1.02505, 1.02545, 1.02715, 1.02837, 1.02846, 1.02832, 1.0282, 1.02821, 1.0283, 1.02848, 1.02852, 1.02843, 1.02902, 1.02977, 1.03072, 1.03185, 1.03238, 1.03348, 1.06774, 1.10886, 1.11468, 1.07367, 1.07075, 1.085, 1.0681, 1.04258, 1.0431, 1.10569, 1.04182, 1.04328, 1.0445, 1.04661, 1.04614, 1.04752, 1.04571, 1.04709, 1.04715, 1.04916, 1.0508, 1.05136, 1.05064, 1.05179, 1.04958, 1.05191, 1.05125, 1.05238, 1.05224, 1.04955, 1.04726, 1.04615, 1.09158, 1.09216, 1.08584, 1.08921, 1.10286, 1.31612, 1.0804, 1.06355, 1.06496, 1.06654, 1.10577, 1.06918, 1.07002, 1.07036, 1.06982, 1.11694, 1.06469, 1.06606, 1.06547, 1.06362, 1.13768, 1.14104, 1.07228, 1.0712, 1.07013, 1.07213, 1.13394, 1.12297, 1.12333, 1.11109, 1.1091, 1.12669, 1.11511, 1.12133, 1.12185, 1.132, 1.0885, 1.09085, 1.09093, 1.09523, 1.09505, 1.14343, 1.09232, 1.09195, 1.09138, 1.09094, 1.14097, 1.09474, 1.09756, 1.09779, 1.13703, 1.13819, 1.12683, 1.1305, 1.1503, 1.10553, 1.1027, 1.10222, 1.10246, 1.10651, 1.10767, 1.15278, 1.10755, 1.10857, 1.11038, 1.11148, 1.1125, 1.11052, 1.10781, 1.10828, 1.10835, 1.11016, 1.10952, 1.1113, 1.11155, 1.11353, 1.1405, 1.13995, 1.14929, 1.16028, 1.16206, 1.14897, 1.13103, 1.15025, 1.13337, 1.13239, 1.16007, 1.1777, 1.32661
1.20215, 1.10203, 1.10065, 1.10043, 1.09487, 1.10128, 1.10052, 1.10079, 1.10016, 1.10257, 1.10368, 1.10147, 1.10321, 1.10437, 1.10352, 1.09591, 1.10138, 1.09814, 1.09661, 1.18008, 1.17696, 1.08713, 1.08688, 1.0829, 1.16986, 1.16942, 1.17323, 1.1734, 1.19781, 1.08728, 1.08617, 1.08492, 1.08398, 1.08349, 1.0815, 1.07902, 1.07881, 1.07509, 1.07524, 1.0783, 1.07775, 1.07706, 1.07465, 1.07313, 1.07315, 1.07326, 1.07158, 1.07138, 1.06307, 1.06179, 1.05933, 1.05927, 1.05758, 1.05693, 1.05411, 1.05611, 1.05663, 1.05701, 1.05628, 1.0945, 1.0486, 1.12347, 1.12366, 1.04965, 1.04801, 1.04715, 1.03814, 1.03598, 1.03415, 1.03389, 1.03304, 1.03071, 1.03001, 1.02848, 1.02705, 1.02536, 1.0241, 1.02367, 1.02641, 1.02613, 1.10745, 1.05546, 1.12501, 1.01971, 1.01929, 1.01908, 1.0191, 1.01932, 1.02053, 1.02171, 1.02288, 1.02361, 1.02496, 1.02175, 1.09528, 1.02587, 1.02581, 1.0249, 1.02489, 1.02378, 1.11227, 1.01499, 1.01727, 1.1587, 1.0221, 1.02568, 1.02638, 1.02067, 1.02105, 1.02172, 1.02199, 1.01975, 1.01704, 1.01803, 1.01798, 1.06373, 1.01704, 1.0177, 1.1145, 1.0614, 1.11293, 1.02151, 1.06635, 1.06461, 1.10478, 1.02226, 1.08895, 1.0506, 1.0505, 1.02417, 1.02488, 1.0252, 1.02569, 1.02667, 1.02758, 1.0278, 1.02783, 1.02784, 1.02796, 1.02819, 1.02841, 1.02849, 1.02857, 1.02907, 1.02977, 1.03059, 1.03166, 1.03217, 1.03323, 1.03438, 1.03534, 1.07544, 1.07466, 1.11351, 1.07021, 1.11615, 1.11632, 1.11525, 1.13334, 1.13584, 1.08739, 1.09127, 1.0507, 1.04596, 1.04658, 1.04492, 1.04431, 1.04789, 1.04937, 1.05047, 1.0512, 1.05376, 1.05525, 1.05526, 1.05397, 1.05178, 1.0514, 1.04854, 1.04855, 1.04876, 1.09407, 1.07446, 1.0989, 1.07798, 1.0947, 1.09101, 1.10183, 1.095, 1.09848, 1.0647, 1.06501, 1.06883, 1.06819, 1.06949, 1.07036, 1.07011, 1.07172, 1.07094, 1.13482, 1.06762, 1.06723, 1.14335, 1.13803, 1.06958, 1.06923, 1.06873, 1.11578, 1.12228, 1.1395, 1.11521, 1.14737, 1.13543, 1.13577, 1.13238, 1.12747, 1.13641, 1.08589, 1.09025, 1.09056, 1.21577, 1.09747, 1.09749, 1.09782, 1.09615, 1.09261, 1.09374, 1.09273, 1.09558, 1.09802, 1.1018, 1.14439, 1.10667, 1.10784, 1.10816, 1.11011, 1.10903, 1.10956, 1.10716, 1.10784, 1.1121, 1.1101, 1.11158, 1.11242, 1.11191, 1.11141, 1.11274, 1.11368, 1.11237, 1.11476, 1.11206, 1.11139, 1.11138, 1.11243, 1.16423, 1.15646, 1.12059, 1.14014, 1.17475, 1.14407, 1.14219, 1.13938, 1.16639, 1.16804, 1.16462, 1.16035, 1.15993, 1.16022, 1.17346, 1.1845, 1.17765
1.25443, 1.10362, 1.10678, 1.10541, 1.21267, 1.10056, 1.10036, 1.102, 1.21908, 1.1073, 1.10573, 1.10383, 1.10514, 1.10445, 1.21936, 1.21307, 1.10127, 1.10083, 1.09986, 1.16989, 1.09312, 1.08651, 1.09145, 1.0925, 1.15184, 1.19279, 1.19464, 1.19422, 1.09055, 1.08975, 1.08587, 1.08474, 1.08483, 1.0863, 1.08121, 1.07962, 1.07725, 1.07663, 1.07801, 1.07812, 1.07759, 1.07799, 1.07385, 1.07332, 1.07358, 1.0735, 1.07335, 1.06547, 1.06394, 1.06118, 1.06216, 1.05688, 1.05604, 1.09634, 1.05985, 1.05949, 1.05742, 1.0562, 1.05357, 1.0548, 1.0483, 1.0478, 1.04833, 1.04748, 1.04454, 1.04289, 1.03841, 1.03581, 1.03353, 1.03309, 1.03188, 1.03115, 1.03058, 1.0307, 1.02968, 1.02924, 1.02419, 1.02605, 1.02702, 1.12703, 1.12345, 1.10249, 1.03086, 1.02695, 1.02678, 1.10893, 1.11189, 1.02054, 1.02197, 1.02316, 1.02332, 1.02437, 1.02485, 1.02702, 1.02705, 1.02551, 1.02549, 1.02702, 1.02553, 1.02456, 1.01856, 1.01579, 1.01635, 1.01841, 1.0196, 1.02619, 1.02613, 1.02094, 1.02005, 1.12982, 1.01817, 1.01707, 1.01693, 1.01742, 1.01745, 1.01705, 1.01783, 1.01837, 1.11868, 1.04953, 1.11168, 1.11283, 1.11285, 1.11637, 1.11043, 1.11565, 1.08561, 1.09791, 1.08425, 1.061, 1.08682, 1.07656, 1.04893, 1.02672, 1.02714, 1.02763, 1.02794, 1.02798, 1.02826, 1.0287, 1.02853, 1.02856, 1.02869, 1.02903, 1.02964, 1.03038, 1.03168, 1.03222, 1.03296, 1.03391, 1.03514, 1.03585, 1.09417, 1.07366, 1.07473, 1.09148, 1.11599, 1.0882, 1.08826, 1.04708, 1.04714, 1.04888, 1.05014, 1.04971, 1.04615, 1.04574, 1.04476, 1.11622, 1.04714, 1.05062, 1.05116, 1.05662, 1.05724, 1.05438, 1.05371, 1.05161, 1.05096, 1.04974, 1.04856, 1.04626, 1.06798, 1.08744, 1.09101, 1.09688, 1.07781, 1.07895, 1.0945, 1.08736, 1.06396, 1.06456, 1.06617, 1.06669, 1.06831, 1.07246, 1.07271, 1.07196, 1.07188, 1.07263, 1.13712, 1.06651, 1.0675, 1.13665, 1.13461, 1.13073, 1.21271, 1.21177, 1.11652, 1.11743, 1.12249, 1.12306, 1.12179, 1.11698, 1.11841, 1.19828, 1.12428, 1.16146, 1.14966, 1.09031, 1.20962, 1.21348, 1.10263, 1.10157, 1.101, 1.09837, 1.09312, 1.09347, 1.20826, 1.1356, 1.14758, 1.14738, 1.14948, 1.10964, 1.11271, 1.11209, 1.11192, 1.11269, 1.11145, 1.11578, 1.11297, 1.11338, 1.16109, 1.16136, 1.11552, 1.16806, 1.16884, 1.11865, 1.11615, 1.11554, 1.11541, 1.11435, 1.11539, 1.10939, 1.16697, 1.17779, 1.17751, 1.18399, 1.18502, 1.17036, 1.16683, 1.16729, 1.13712, 1.13695, 1.16699, 1.13942, 1.13898, 1.14349, 1.14253, 1.14372, 1.14248, 1.14289
1.10871, 1.10991, 1.10823, 1.10696, 1.10567, 1.10333, 1.10254, 1.10496, 1.10762, 1.10847, 1.10894, 1.10227, 1.10599, 1.11041, 1.10788, 1.10722, 1.10685, 1.10215, 1.10112, 1.20499, 1.20502, 1.09742, 1.09533, 1.1657, 1.10233, 1.10009, 1.09512, 1.09248, 1.09109, 1.09053, 1.08776, 1.08458, 1.08414, 1.08314, 1.07996, 1.07759, 1.07735, 1.07813, 1.07925, 1.07767, 1.07685, 1.17347, 1.1741, 1.17152, 1.21419, 1.21863, 1.06661, 1.06611, 1.06711, 1.06229, 1.0619, 1.14007, 1.12658, 1.1161, 1.05755, 1.05888, 1.05878, 1.05707, 1.05437, 1.0464, 1.04564, 1.04412, 1.04717, 1.04672, 1.04483, 1.04479, 1.04285, 1.03386, 1.03566, 1.03062, 1.03173, 1.03334, 1.03405, 1.03529, 1.02977, 1.02998, 1.0298, 1.02976, 1.02883, 1.02943, 1.03253, 1.03165, 1.03027, 1.02689, 1.02701, 1.02741, 1.02702, 1.02758, 1.02336, 1.02331, 1.02563, 1.02607, 1.02515, 1.02288, 1.0233, 1.02141, 1.02086, 1.01567, 1.01495, 1.01532, 1.01667, 1.01608, 1.01604, 1.0182, 1.02103, 1.01783, 1.0174, 1.12377, 1.07117, 1.01801, 1.0182, 1.01816, 1.01732, 1.01723, 1.01726, 1.01687, 1.01695, 1.07407, 1.12314, 1.04405, 1.10809, 1.10882, 1.11466, 1.10325, 1.11248, 1.10874, 1.0874, 1.10162, 1.10246, 1.10648, 1.05966, 1.11359, 1.04921, 1.05303, 1.10141, 1.08711, 1.02859, 1.10498, 1.12549, 1.06167, 1.09592, 1.04891, 1.0292, 1.04792, 1.02967, 1.03377, 1.036, 1.03287, 1.03294, 1.03352, 1.03443, 1.03552, 1.03694, 1.03858, 1.06688, 1.29704, 1.12842, 1.04741, 1.04835, 1.04857, 1.04854, 1.04918, 1.05291, 1.04885, 1.04764, 1.04665, 1.0459, 1.12312, 1.12472, 1.10864, 1.11457, 1.05534, 1.05485, 1.05359, 1.05303, 1.05202, 1.05102, 1.04979, 1.04897, 1.04719, 1.0472, 1.10123, 1.10433, 1.10121, 1.09088, 1.09247, 1.09376, 1.0634, 1.06443, 1.06455, 1.06533, 1.06809, 1.06976, 1.07342, 1.07104, 1.07233, 1.07271, 1.07348, 1.07076, 1.06877, 1.07185, 1.1462, 1.20086, 1.13858, 1.14106, 1.14193, 1.2084, 1.1371, 1.0771, 1.16336, 1.17504, 1.17506, 1.08599, 1.0879, 1.09109, 1.09181, 1.0943, 1.17497, 1.16367, 1.21425, 1.10214, 1.1014, 1.10243, 1.17473, 1.17087, 1.09923, 1.20029, 1.20348, 1.20453, 1.18014, 1.10938, 1.1121, 1.11313, 1.11471, 1.11831, 1.11848, 1.11643, 1.1164, 1.11838, 1.12066, 1.11959, 1.12207, 1.12207, 1.1222, 1.12057, 1.11972, 1.12087, 1.11935, 1.15095, 1.17611, 1.15197, 1.13778, 1.13646, 1.17943, 1.17851, 1.1601, 1.17419, 1.20599, 1.17146, 1.1505, 1.13943, 1.13924, 1.14306, 1.14217, 1.43099, 1.14257, 1.14284, 1.14311, 1.14436, 1.14794
1.10949, 1.10845, 1.11035, 1.10934, 1.1071, 1.10462, 1.10393, 1.10582, 1.10645, 1.10907, 1.11127, 1.10666, 1.11097, 1.1114, 1.10744, 1.10741, 1.10602, 1.10544, 1.09925, 1.09991, 1.0999, 1.09989, 1.10211, 1.10178, 1.10125, 1.09937, 1.09815, 1.09748, 1.09224, 1.08902, 1.08811, 1.08573, 1.0826, 1.08179, 1.07872, 1.07862, 1.07891, 1.07975, 1.07798, 1.07506, 1.13893, 1.20398, 1.18495, 1.1871, 1.21964, 1.06704, 1.06656, 1.06685, 1.06666, 1.06703, 1.06689, 1.06368, 1.06132, 1.05881, 1.05672, 1.05833, 1.05781, 1.05698, 1.05824, 1.05742, 1.05534, 1.13123, 1.05001, 1.04566, 1.04528, 1.04388, 1.04399, 1.0356, 1.03622, 1.14014, 1.12966, 1.03595, 1.03806, 1.03758, 1.03678, 1.03551, 1.03535, 1.03526, 1.03596, 1.03203, 1.03326, 1.03348, 1.03321, 1.02898, 1.02659, 1.02639, 1.02721, 1.0275, 1.02565, 1.02581, 1.02558, 1.02562, 1.02359, 1.02212, 1.02086, 1.01854, 1.01845, 1.01554, 1.01524, 1.01689, 1.01761, 1.0166, 1.01611, 1.01609, 1.01812, 1.0182, 1.01544, 1.17492, 1.09706, 1.01721, 1.13237, 1.01829, 1.01751, 1.01704, 1.01694, 1.01655, 1.01645, 1.07455, 1.07128, 1.10836, 1.05757, 1.1076, 1.15175, 1.08799, 1.11133, 1.02896, 1.08522, 1.03185, 1.03208, 1.09439, 1.09555, 1.07107, 1.07708, 1.10146, 1.04958, 1.04976, 1.10131, 1.09957, 1.09256, 1.09816, 1.06635, 1.06483, 1.05093, 1.08489, 1.03058, 1.03302, 1.03371, 1.03305, 1.03309, 1.03345, 1.03407, 1.03531, 1.03649, 1.037, 1.03696, 1.04624, 1.04642, 1.04761, 1.0528, 1.05292, 1.05284, 1.05212, 1.05022, 1.04932, 1.04852, 1.04782, 1.0471, 1.11329, 1.11889, 1.05359, 1.05263, 1.05355, 1.05451, 1.05497, 1.0525, 1.05227, 1.05116, 1.05015, 1.04925, 1.04913, 1.04979, 1.09244, 1.10553, 1.11699, 1.09394, 1.2042, 1.1058, 1.13003, 1.43039, 1.06391, 1.06581, 1.06693, 1.06796, 1.06873, 1.06908, 1.0731, 1.07335, 1.07336, 1.0713, 1.07185, 1.07203, 1.1531, 1.14765, 1.07317, 1.07263, 1.07503, 1.07878, 1.08003, 1.07976, 1.08034, 1.08469, 1.08674, 1.08763, 1.14765, 1.09094, 1.09196, 1.1017, 1.10313, 1.1672, 1.10734, 1.10801, 1.10637, 1.10701, 1.17902, 1.15598, 1.09793, 1.10106, 1.10224, 1.18953, 1.21132, 1.17607, 1.11531, 1.1199, 1.11961, 1.11863, 1.12138, 1.12071, 1.12297, 1.12141, 1.12159, 1.12207, 1.12231, 1.12296, 1.12447, 1.12402, 1.12563, 1.23558, 1.18781, 1.16185, 1.17876, 1.17714, 1.13409, 1.17775, 1.18567, 1.18255, 1.1596, 1.15941, 1.16004, 1.15941, 1.15224, 1.13986, 1.14118, 1.1437, 1.14641, 1.14725, 1.14481, 1.14411, 1.18157, 1.14843, 1.15209
1.10977, 1.10994, 1.10932, 1.1091, 1.10821, 1.10621, 1.19658, 1.10998, 1.1099, 1.11006, 1.10918, 1.11102, 1.1107, 1.11028, 1.10667, 1.10666, 1.10469, 1.10234, 1.10227, 1.10488, 1.10207, 1.21215, 1.1911, 1.10481, 1.10455, 1.10459, 1.10328, 1.10442, 1.17759, 1.08869, 1.08866, 1.0844, 1.08126, 1.08137, 1.07889, 1.07782, 1.07664, 1.07577, 1.19149, 1.18972, 1.1713, 1.1685, 1.16897, 1.06847, 1.06855, 1.0687, 1.06703, 1.06715, 1.06737, 1.06705, 1.0631, 1.06255, 1.0627, 1.13033, 1.13097, 1.13203, 1.05711, 1.05631, 1.05808, 1.05747, 1.05601, 1.05612, 1.05268, 1.05433, 1.04937, 1.04546, 1.15975, 1.12809, 1.04258, 1.14367, 1.13743, 1.14408, 1.03687, 1.03679, 1.03684, 1.03357, 1.03415, 1.03436, 1.03386, 1.03408, 1.03433, 1.03274, 1.03252, 1.03225, 1.02871, 1.02679, 1.0266, 1.02569, 1.02543, 1.026, 1.02542, 1.02512, 1.02375, 1.0243, 1.02128, 1.0188, 1.0186, 1.01416, 1.01456, 1.01528, 1.01597, 1.01583, 1.01518, 1.01467, 1.01597, 1.016, 1.01503, 1.01609, 1.01608, 1.01634, 1.01665, 1.01673, 1.01667, 1.01681, 1.0166, 1.01621, 1.01612, 1.07433, 1.13084, 1.10852, 1.04792, 1.04776, 1.05309, 1.06063, 1.02554, 1.02914, 1.03093, 1.03159, 1.03237, 1.11273, 1.11185, 1.09799, 1.09849, 1.0391, 1.03899, 1.04747, 1.10175, 1.10048, 1.1309, 1.10364, 1.10521, 1.0511, 1.11257, 1.12009, 1.12366, 1.03236, 1.03303, 1.03313, 1.0332, 1.0333, 1.03354, 1.03457, 1.03547, 1.03471, 1.03823, 1.16302, 1.05185, 1.05122, 1.05303, 1.05524, 1.05629, 1.0565, 1.05307, 1.05219, 1.04875, 1.04886, 1.25558, 1.25771, 1.0512, 1.05224, 1.05294, 1.05848, 1.0572, 1.05602, 1.05301, 1.05207, 1.05116, 1.05061, 1.05096, 1.05049, 1.0515, 1.0533, 1.05577, 1.05814, 1.05876, 1.05942, 1.06474, 1.06552, 1.06601, 1.06751, 1.06651, 1.06743, 1.06567, 1.06316, 1.0671, 1.06999, 1.07121, 1.07401, 1.07234, 1.07068, 1.17529, 1.18757, 1.07795, 1.07349, 1.07382, 1.07453, 1.07954, 1.07891, 1.08153, 1.0823, 1.08366, 1.08452, 1.15842, 1.09898, 1.0993, 1.10154, 1.10212, 1.10754, 1.10756, 1.10627, 1.10779, 1.10799, 1.10677, 1.1808, 1.18202, 1.10252, 1.10422, 1.11304, 1.1982, 1.20853, 1.11405, 1.11491, 1.12195, 1.12169, 1.12345, 1.12518, 1.12515, 1.12504, 1.12524, 1.12609, 1.12694, 1.12709, 1.12732, 1.16342, 1.19462, 1.17758, 1.17773, 1.18067, 1.17812, 1.1434, 1.1392, 1.13984, 1.19209, 1.17003, 1.18105, 1.17985, 1.18128, 1.17927, 1.17565, 1.16262, 1.14849, 1.14658, 1.14668, 1.17052, 1.14675, 1.15039, 1.1918, 1.18929, 1.18241, 1.15705
1.10981, 1.11168, 1.11101, 1.10994, 1.10856, 1.11101, 1.11214, 1.11469, 1.21777, 1.11264, 1.11173, 1.11147, 1.1122, 1.11134, 1.10867, 1.10629, 1.10338, 1.19519, 1.10364, 1.10443, 1.21475, 1.19283, 1.1079, 1.108, 1.10648, 1.10773, 1.10439, 1.10353, 1.17883, 1.20033, 1.08937, 1.08745, 1.0857, 1.08245, 1.07677, 1.07696, 1.07685, 1.14297, 1.16875, 1.15287, 1.16442, 1.16645, 1.21175, 1.06873, 1.06823, 1.06747, 1.15307, 1.06978, 1.07016, 1.07061, 1.06836, 1.12591, 1.066, 1.06666, 1.13041, 1.06151, 1.06286, 1.06084, 1.05892, 1.05915, 1.05917, 1.05408, 1.05511, 1.05536, 1.05488, 1.04839, 1.04686, 1.04774, 1.04604, 1.0451, 1.14666, 1.14659, 1.03583, 1.03647, 1.12295, 1.03356, 1.03384, 1.03392, 1.03424, 1.0347, 1.03292, 1.032, 1.03186, 1.02977, 1.02857, 1.02825, 1.02551, 1.02459, 1.02536, 1.0261, 1.02542, 1.02512, 1.02346, 1.0236, 1.0198, 1.02067, 1.124, 1.01468, 1.0146, 1.01516, 1.01551, 1.01526, 1.01481, 1.01472, 1.01504, 1.01481, 1.015, 1.01606, 1.01676, 1.01678, 1.01658, 1.01658, 1.01667, 1.01654, 1.01618, 1.01584, 1.01587, 1.01623, 1.04713, 1.12115, 1.10215, 1.04928, 1.05109, 1.04912, 1.02605, 1.02862, 1.03184, 1.03538, 1.03818, 1.03903, 1.03925, 1.09822, 1.11815, 1.03722, 1.03818, 1.09523, 1.12929, 1.03819, 1.10614, 1.10853, 1.04939, 1.05046, 1.1181, 1.11723, 1.13062, 1.07553, 1.03363, 1.03369, 1.03358, 1.0338, 1.14047, 1.1406, 1.1418, 1.20952, 1.04853, 1.04958, 1.05272, 1.05361, 1.05451, 1.05647, 1.05643, 1.05702, 1.05525, 1.32139, 1.05227, 1.04955, 1.05024, 1.04985, 1.0508, 1.05303, 1.11623, 1.05751, 1.05754, 1.05559, 1.05185, 1.05074, 1.05144, 1.05028, 1.05049, 1.05023, 1.05111, 1.05298, 1.05423, 1.0572, 1.05778, 1.06162, 1.06405, 1.06576, 1.06644, 1.06576, 1.06514, 1.06349, 1.06298, 1.06176, 1.06347, 1.06838, 1.07132, 1.07388, 1.07632, 1.07527, 1.17077, 1.07857, 1.07806, 1.07375, 1.07342, 1.07418, 1.07748, 1.07778, 1.0784, 1.07876, 1.08312, 1.09176, 1.092, 1.09977, 1.09998, 1.09949, 1.10427, 1.10595, 1.10871, 1.10796, 1.10816, 1.18974, 1.11159, 1.11181, 1.20289, 1.16779, 1.16756, 1.16334, 1.19551, 1.11871, 1.11946, 1.12565, 1.12389, 1.12333, 1.12673, 1.127, 1.12772, 1.12856, 1.12748, 1.12685, 1.12883, 1.12856, 1.13381, 1.13552, 1.18017, 1.18058, 1.16099, 1.18403, 1.14511, 1.14481, 1.14402, 1.17464, 1.17223, 1.18071, 1.17943, 1.18017, 1.16748, 1.17556, 1.16412, 1.17202, 1.15074, 1.16821, 1.15047, 1.15174, 1.4155, 1.19686, 1.16069, 1.15952, 1.15802, 1.1565
1.11294, 1.11185, 1.11009, 1.11056, 1.11204, 1.11366, 1.11492, 1.11563, 1.11773, 1.11936, 1.1137, 1.11203, 1.11309, 1.11147, 1.10687, 1.10738, 1.10898, 1.10526, 1.10495, 1.10934, 1.11127, 1.10936, 1.11128, 1.10948, 1.11169, 1.10929, 1.11117, 1.10569, 1.22282, 1.09563, 1.08908, 1.08905, 1.08917, 1.21013, 1.19442, 1.20809, 1.20325, 1.18764, 1.06333, 1.06309, 1.06352, 1.16476, 1.06813, 1.06852, 1.06837, 1.06963, 1.101, 1.07157, 1.07079, 1.07027, 1.07154, 1.06984, 1.06888, 1.06822, 1.06651, 1.06663, 1.0631, 1.06346, 1.06101, 1.06146, 1.0607, 1.06136, 1.05955, 1.05635, 1.05469, 1.05261, 1.04995, 1.05111, 1.04783, 1.04682, 1.1269, 1.11958, 1.14345, 1.14348, 1.03446, 1.03406, 1.03396, 1.03379, 1.03399, 1.03362, 1.03253, 1.03194, 1.03073, 1.02904, 1.0285, 1.02766, 1.02581, 1.02497, 1.02511, 1.02502, 1.02497, 1.02413, 1.02282, 1.02202, 1.10006, 1.08188, 1.01539, 1.01495, 1.01513, 1.0152, 1.01519, 1.01488, 1.01466, 1.01654, 1.01571, 1.01515, 1.01511, 1.01542, 1.01596, 1.01631, 1.01643, 1.01638, 1.01621, 1.01591, 1.01554, 1.01531, 1.01538, 1.12289, 1.10568, 1.05075, 1.04957, 1.09803, 1.09923, 1.1037, 1.11584, 1.11738, 1.03533, 1.03594, 1.11321, 1.0391, 1.03911, 1.04014, 1.12059, 1.12796, 1.1058, 1.11476, 1.05917, 1.0604, 1.092, 1.11101, 1.0434, 1.04302, 1.04367, 1.08843, 1.11569, 1.08931, 1.14776, 1.03432, 1.03388, 1.13877, 1.138, 1.10887, 1.11265, 1.13976, 1.04846, 1.05119, 1.05637, 1.05692, 1.05855, 1.05853, 1.05952, 1.05867, 1.31862, 1.10334, 1.05395, 1.05336, 1.05354, 1.05245, 1.05256, 1.09108, 1.12369, 1.05656, 1.05658, 1.05652, 1.05324, 1.05318, 1.0511, 1.05148, 1.05223, 1.05015, 1.05159, 1.0537, 1.14322, 1.05797, 1.06146, 1.06593, 1.06641, 1.06648, 1.06317, 1.06229, 1.0635, 1.06098, 1.06301, 1.15649, 1.06685, 1.06762, 1.17118, 1.07693, 1.07793, 1.07834, 1.08029, 1.08793, 1.17114, 1.17556, 1.17684, 1.17526, 1.07759, 1.16609, 1.13699, 1.17035, 1.14816, 1.15254, 1.10053, 1.09892, 1.09803, 1.10016, 1.1036, 1.10623, 1.10949, 1.1915, 1.19113, 1.16708, 1.1673, 1.1126, 1.19237, 1.16641, 1.16757, 1.11314, 1.11619, 1.12247, 1.12337, 1.12736, 1.12658, 1.13229, 1.13057, 1.12894, 1.12874, 1.13071, 1.13106, 1.19068, 1.13682, 1.13851, 1.13782, 1.13978, 1.1881, 1.16865, 1.14794, 1.14978, 1.14978, 1.18772, 1.14965, 1.17841, 1.18029, 1.18771, 1.3463, 1.1845, 1.3628, 1.17357, 1.1706, 1.35302, 1.15322, 1.19097, 1.16163, 1.16241, 1.16338, 1.15857, 1.15886, 1.16062, 1.16128, 1.16367
1.10457, 1.10769, 1.10991, 1.10943, 1.11086, 1.11543, 1.11715, 1.11538, 1.11814, 1.11885, 1.12044, 1.11429, 1.11053, 1.11072, 1.11542, 1.11231, 1.11285, 1.11059, 1.11148, 1.11186, 1.11195, 1.112, 1.1129, 1.11305, 1.11159, 1.11101, 1.10939, 1.11026, 1.19139, 1.09487, 1.19803, 1.21794, 1.21533, 1.21056, 1.07878, 1.07675, 1.07569, 1.1811, 1.06051, 1.06104, 1.0634, 1.06267, 1.14801, 1.06746, 1.06809, 1.06877, 1.07055, 1.07206, 1.07226, 1.07233, 1.07197, 1.06979, 1.07154, 1.07095, 1.0688, 1.06855, 1.06726, 1.0652, 1.06519, 1.06197, 1.06429, 1.06465, 1.06482, 1.05965, 1.0566, 1.05513, 1.05655, 1.05313, 1.05279, 1.14031, 1.17519, 1.08041, 1.08023, 1.11536, 1.11054, 1.03446, 1.03404, 1.08217, 1.03426, 1.03303, 1.03246, 1.03178, 1.03042, 1.02884, 1.02832, 1.02674, 1.0254, 1.02499, 1.02507, 1.025, 1.02442, 1.02328, 1.0223, 1.09754, 1.10532, 1.06643, 1.01655, 1.01583, 1.01581, 1.01572, 1.01556, 1.01543, 1.01615, 1.02104, 1.01774, 1.01642, 1.01552, 1.0152, 1.01519, 1.01537, 1.01551, 1.01553, 1.01541, 1.01519, 1.01496, 1.01485, 1.01495, 1.01522, 1.11854, 1.09248, 1.05276, 1.09043, 1.09764, 1.12188, 1.04702, 1.12151, 1.03462, 1.03549, 1.09858, 1.09924, 1.04104, 1.04128, 1.04209, 1.1074, 1.07322, 1.10235, 1.09488, 1.09531, 1.08882, 1.08171, 1.04297, 1.04323, 1.04347, 1.11078, 1.09215, 1.08431, 1.15493, 1.10071, 1.03712, 1.03912, 1.04156, 1.09513, 1.26874, 1.2745, 1.04885, 1.05304, 1.05584, 1.05704, 1.05921, 1.05957, 1.06306, 1.09664, 1.06124, 1.06059, 1.0617, 1.05609, 1.05549, 1.10893, 1.11817, 1.11538, 1.11375, 1.05417, 1.05533, 1.05544, 1.11923, 1.14398, 1.05655, 1.06084, 1.14325, 1.14411, 1.14821, 1.30923, 1.06374, 1.06665, 1.06628, 1.0666, 1.06545, 1.06656, 1.06659, 1.06235, 1.06348, 1.10908, 1.13219, 1.15377, 1.15187, 1.15372, 1.17066, 1.08398, 1.0816, 1.08361, 1.16903, 1.08834, 1.08953, 1.17018, 1.17271, 1.13118, 1.17203, 1.1568, 1.15798, 1.16027, 1.1608, 1.15604, 1.1532, 1.14022, 1.13939, 1.1409, 1.10457, 1.1882, 1.11034, 1.19314, 1.19117, 1.18833, 1.1856, 1.19222, 1.17546, 1.12572, 1.12434, 1.1232, 1.1259, 1.13285, 1.1315, 1.13015, 1.12951, 1.12847, 1.13061, 1.13006, 1.13133, 1.13586, 1.13754, 1.14072, 1.14003, 1.17276, 1.19141, 1.19145, 1.14959, 1.14777, 1.15191, 1.15147, 1.18418, 1.15317, 1.15372, 1.15311, 1.18519, 1.18214, 1.18601, 1.17483, 1.17637, 1.191, 1.19027, 1.26025, 1.16389, 1.16447, 1.16319, 1.16474, 1.16385, 1.16115, 1.16107, 1.1619, 1.16332, 1.17034
1.10111, 1.10648, 1.11084, 1.10987, 1.11039, 1.11995, 1.11881, 1.11819, 1.11922, 1.12029, 1.11865, 1.11855, 1.24159, 1.11624, 1.11552, 1.1147, 1.11194, 1.11202, 1.11279, 1.11444, 1.11529, 1.11539, 1.11544, 1.11548, 1.1135, 1.11391, 1.20152, 1.10547, 1.09971, 1.09746, 1.23752, 1.14365, 1.20061, 1.19843, 1.08036, 1.0779, 1.14974, 1.18804, 1.06469, 1.06464, 1.06208, 1.06135, 1.06053, 1.16282, 1.16291, 1.07347, 1.07431, 1.07325, 1.07509, 1.07227, 1.08043, 1.07153, 1.07178, 1.07262, 1.06833, 1.06864, 1.06746, 1.06674, 1.06625, 1.06651, 1.06204, 1.06504, 1.06581, 1.06396, 1.06064, 1.05705, 1.05669, 1.06664, 1.05499, 1.09833, 1.15889, 1.12573, 1.15384, 1.1505, 1.11932, 1.07597, 1.0343, 1.03435, 1.03374, 1.03302, 1.03201, 1.03112, 1.02977, 1.02852, 1.02804, 1.02678, 1.02575, 1.02516, 1.02505, 1.02484, 1.02388, 1.02263, 1.02152, 1.11201, 1.12668, 1.12984, 1.13156, 1.12855, 1.09026, 1.01626, 1.01599, 1.01623, 1.01772, 1.01836, 1.0184, 1.01605, 1.01549, 1.0153, 1.01507, 1.01483, 1.01472, 1.01469, 1.01465, 1.01462, 1.01461, 1.01462, 1.01474, 1.01498, 1.07695, 1.08333, 1.11609, 1.10687, 1.071, 1.11966, 1.12079, 1.1196, 1.10463, 1.12611, 1.12547, 1.1187, 1.07066, 1.06977, 1.04097, 1.04261, 1.04383, 1.125, 1.14334, 1.09433, 1.09343, 1.04392, 1.04413, 1.09198, 1.08445, 1.10549, 1.10968, 1.13296, 1.06808, 1.10073, 1.03681, 1.04136, 1.04097, 1.09457, 1.09778, 1.04676, 1.05201, 1.05326, 1.05316, 1.05973, 1.0619, 1.06178, 1.06467, 1.0651, 1.06652, 1.06346, 1.06333, 1.14019, 1.11461, 1.11556, 1.07136, 1.07237, 1.12054, 1.13594, 1.05417, 1.10918, 1.11482, 1.11326, 1.12026, 1.06153, 1.06382, 1.14562, 1.30252, 1.14727, 1.0675, 1.06729, 1.06892, 1.07262, 1.07375, 1.06986, 1.12744, 1.13541, 1.12199, 1.16309, 1.16422, 1.1673, 1.16763, 1.15092, 1.08374, 1.08369, 1.08627, 1.16158, 1.16702, 1.09072, 1.09059, 1.16748, 1.15163, 1.15263, 1.13899, 1.15615, 1.14933, 1.15787, 1.16525, 1.16443, 1.16354, 1.17919, 1.11205, 1.15684, 1.32806, 1.15136, 1.1148, 1.11576, 1.12233, 1.12209, 1.18851, 1.16235, 1.12468, 1.12526, 1.12574, 1.12728, 1.12979, 1.13242, 1.1317, 1.13212, 1.13279, 1.13197, 1.13207, 1.13225, 1.20503, 1.21534, 1.19877, 1.1987, 1.18431, 1.18429, 1.19688, 1.14939, 1.15028, 1.1516, 1.15638, 1.1574, 1.18191, 1.17737, 1.18126, 1.18001, 1.19143, 1.27782, 1.24985, 1.18283, 1.18912, 1.1583, 1.20681, 1.16782, 1.16709, 1.16597, 1.16703, 1.16816, 1.16826, 1.16988, 1.1639, 1.2124, 1.26819, 1.18051
1.2124, 1.10333, 1.11155, 1.11134, 1.27379, 1.29509, 1.11795, 1.11818, 1.12155, 1.11993, 1.11994, 1.12093, 1.11967, 1.11759, 1.11617, 1.115, 1.11583, 1.11661, 1.11545, 1.11727, 1.11624, 1.11488, 1.11511, 1.11664, 1.22749, 1.22632, 1.2132, 1.10436, 1.10434, 1.22899, 1.20506, 1.22316, 1.22003, 1.21725, 1.08589, 1.08413, 1.16845, 1.168, 1.18675, 1.06109, 1.0608, 1.06224, 1.13034, 1.1747, 1.38987, 1.07732, 1.07689, 1.07714, 1.07851, 1.0772, 1.07539, 1.07478, 1.07422, 1.07442, 1.07244, 1.071, 1.0705, 1.07006, 1.06686, 1.16411, 1.15346, 1.15433, 1.06475, 1.06471, 1.0631, 1.06383, 1.06398, 1.05955, 1.16316, 1.13127, 1.07025, 1.07068, 1.07361, 1.12607, 1.11534, 1.11989, 1.13286, 1.10202, 1.03294, 1.03234, 1.03174, 1.11586, 1.02951, 1.02855, 1.028, 1.0269, 1.02609, 1.02556, 1.02524, 1.02489, 1.02401, 1.02288, 1.06028, 1.12899, 1.12935, 1.07441, 1.13201, 1.0912, 1.12239, 1.11742, 1.08083, 1.01695, 1.01745, 1.01739, 1.01647, 1.01586, 1.01542, 1.01514, 1.01489, 1.01475, 1.01454, 1.01449, 1.01455, 1.01458, 1.01459, 1.0146, 1.01464, 1.01483, 1.08533, 1.11575, 1.10762, 1.1052, 1.04496, 1.11295, 1.11992, 1.11597, 1.08953, 1.11914, 1.04398, 1.13939, 1.0503, 1.11142, 1.11029, 1.04301, 1.04513, 1.04669, 1.04608, 1.04663, 1.04594, 1.04807, 1.05023, 1.08905, 1.07488, 1.0957, 1.09453, 1.06782, 1.1195, 1.04228, 1.04144, 1.04183, 1.04231, 1.0459, 1.04963, 1.05018, 1.05295, 1.0529, 1.06081, 1.06077, 1.06154, 1.06384, 1.06463, 1.06699, 1.06807, 1.06847, 1.06671, 1.06104, 1.06134, 1.10723, 1.13708, 1.0748, 1.12538, 1.12613, 1.12018, 1.11219, 1.12672, 1.14027, 1.13985, 1.06313, 1.06372, 1.14363, 1.14367, 1.14396, 1.15058, 1.07049, 1.07343, 1.07469, 1.07672, 1.10851, 1.13286, 1.15406, 1.1342, 1.13386, 1.16453, 1.16049, 1.16544, 1.16479, 1.08712, 1.09442, 1.09492, 1.09308, 1.09499, 1.09499, 1.15403, 1.1608, 1.09835, 1.13623, 1.15047, 1.15236, 1.15708, 1.36709, 1.15964, 1.16768, 1.11204, 1.11183, 1.11147, 1.14242, 1.16297, 1.12009, 1.11839, 1.12224, 1.1247, 1.12929, 1.13191, 1.13148, 1.13096, 1.12951, 1.19288, 1.15373, 1.15483, 1.13615, 1.13323, 1.13562, 1.13423, 1.13389, 1.13565, 1.17519, 1.16714, 1.20351, 1.20552, 1.20611, 1.15282, 1.20939, 1.15277, 1.15293, 1.15326, 1.15769, 1.1607, 1.16214, 1.1643, 1.16542, 1.30228, 1.17982, 1.15771, 1.21592, 1.21182, 1.1599, 1.15932, 1.16022, 1.21029, 1.16833, 1.17383, 1.17335, 1.17314, 1.17268, 1.1729, 1.17364, 1.17362, 1.39655, 1.40041, 1.17603
1.11279, 1.11686, 1.24618, 1.2752, 1.2743, 1.26843, 1.2442, 1.1192, 1.12755, 1.12184, 1.12172, 1.12152, 1.12016, 1.11945, 1.11846, 1.11714, 1.1174, 1.11702, 1.11821, 1.11882, 1.11804, 1.11814, 1.11542, 1.11496, 1.22974, 1.23372, 1.19906, 1.10167, 1.10139, 1.33263, 1.33313, 1.20292, 1.16983, 1.09501, 1.09442, 1.2362, 1.19095, 1.1877, 1.19163, 1.191, 1.18898, 1.18199, 1.20314, 1.20375, 1.26712, 1.0809, 1.08056, 1.08019, 1.08017, 1.08202, 1.082, 1.07795, 1.07541, 1.07361, 1.0731, 1.07324, 1.07419, 1.07162, 1.12559, 1.16239, 1.17507, 1.06983, 1.06768, 1.06353, 1.17465, 1.06581, 1.06682, 1.1317, 1.17393, 1.11483, 1.17164, 1.17051, 1.04876, 1.0483, 1.11845, 1.13489, 1.13333, 1.13437, 1.12857, 1.0721, 1.12522, 1.16532, 1.02964, 1.05724, 1.12791, 1.12733, 1.12868, 1.06371, 1.07739, 1.08003, 1.08083, 1.09839, 1.12709, 1.12899, 1.07415, 1.07381, 1.11489, 1.13275, 1.11317, 1.12966, 1.08096, 1.13192, 1.1329, 1.01719, 1.01643, 1.01591, 1.01546, 1.01515, 1.01483, 1.01464, 1.01454, 1.01455, 1.01457, 1.01459, 1.01459, 1.0146, 1.01463, 1.01483, 1.11159, 1.11572, 1.1085, 1.11199, 1.1183, 1.10433, 1.11113, 1.13193, 1.11636, 1.12208, 1.10814, 1.10535, 1.1094, 1.05691, 1.12106, 1.11153, 1.04366, 1.04515, 1.04544, 1.04697, 1.04762, 1.05239, 1.05287, 1.05342, 1.10299, 1.10579, 1.12889, 1.09175, 1.04068, 1.04135, 1.04341, 1.04477, 1.04851, 1.05428, 1.05379, 1.05613, 1.05625, 1.05723, 1.05858, 1.05944, 1.05979, 1.06212, 1.06295, 1.067, 1.06719, 1.0687, 1.07028, 1.14046, 1.13982, 1.10964, 1.11005, 1.07399, 1.13011, 1.11865, 1.14016, 1.12574, 1.11696, 1.1367, 1.1391, 1.07098, 1.07209, 1.11511, 1.25536, 1.13319, 1.14534, 1.14512, 1.14457, 1.07517, 1.07555, 1.15283, 1.12551, 1.15454, 1.1513, 1.16132, 1.13373, 1.16274, 1.08637, 1.16558, 1.09179, 1.0947, 1.16313, 1.1629, 1.10063, 1.10255, 1.15825, 1.09957, 1.09869, 1.15012, 1.10725, 1.10784, 1.10957, 1.11179, 1.11185, 1.11156, 1.10971, 1.16677, 1.15965, 1.17243, 1.12241, 1.12125, 1.12486, 1.12282, 1.12272, 1.13191, 1.13225, 1.1372, 1.18938, 1.13138, 1.13266, 1.13435, 1.13457, 1.13969, 1.13711, 1.13691, 1.13771, 1.13635, 1.17948, 1.16468, 1.20217, 1.19944, 1.19646, 1.15561, 1.1583, 1.15557, 1.15587, 1.19967, 1.16202, 1.16117, 1.16443, 1.16516, 1.16976, 1.18205, 1.20837, 1.23306, 1.32985, 1.16278, 1.16113, 1.34848, 1.33992, 1.37456, 1.17727, 1.17467, 1.17385, 1.17398, 1.17776, 1.17615, 1.17694, 1.17726, 1.17805, 1.17766, 1.17903, 1.18093
