0.941461, 0.939824, 1.27118, 1.25548, 0.900822, 0.900622, 0.899269, 0.903616, 0.899187, 0.89785, 0.897704, 0.897272, 0.898244, 0.896347, 0.895002, 0.897057, 0.897114, 0.898027, 0.897233, 0.897241, 0.902207, 0.903305, 0.904103, 0.904516, 0.904339, 0.903315, 0.903825, 0.900953, 0.902878, 0.904094, 0.903533, 0.90507, 1.11702, 0.928114, 0.928805, 1.18015, 0.909345, 0.910851, 0.91179, 0.916808, 1.02626, 0.91896, 0.898933, 1.00544, 1.12276, 1.21506, 1.04005, 1.04049, 1.05712, 0.991511, 1.07576, 1.07363, 1.36662, 0.966168, 0.926636, 0.927275, 0.927145, 0.926951, 0.929212, 0.930581, 0.932754, 0.934487, 0.932283, 0.934644, 0.937892, 0.94712, 0.940073, 0.942823, 1.25031, 1.18578, 0.940709, 0.940819, 0.942283, 0.942745, 0.944206, 0.94635, 0.953954, 0.958279, 0.957934, 0.960325, 0.961823, 0.968894, 0.97528, 0.976726, 0.969685, 0.964446, 0.949133, 0.950234, 1.05596, 1.21163, 1.02493, 0.980801, 0.980614, 0.987311, 1.0109, 1.00545, 1.01313, 1.01487, 1.01701, 1.00524, 1.01248, 1.01396, 1.01424, 1.01355, 1.39132, 1.02519, 1.04609, 1.03596, 1.02979, 1.01614, 1.33085, 1.1589, 1.03245, 1.03576, 1.0364, 1.23419, 1.25093, 1.04912, 1.04947, 1.11681, 1.13985, 1.03984, 1.04245, 1.04189, 1.1302, 1.29543, 1.13154, 1.03958, 1.32741, 1.31313, 1.03225, 1.02588, 1.41194, 1.16249, 1.01324, 1.02003, 1.17865, 1.01465, 1.09063, 1.05335, 1.02541, 1.02305, 1.02157, 1.02499, 1.02555, 1.02906, 1.03249, 1.03407, 1.03762, 1.03791
0.937497, 0.989107, 1.28597, 0.897886, 0.895851, 0.899163, 0.89847, 0.898837, 0.898144, 0.897876, 0.897101, 0.89575, 0.896322, 0.895235, 0.89581, 0.897022, 0.897943, 0.897474, 0.897572, 0.90365, 0.902719, 0.902709, 0.903409, 0.903661, 0.904121, 0.902735, 0.899743, 0.900943, 0.902771, 0.903051, 0.903171, 0.908239, 1.05632, 0.925539, 0.929388, 0.91217, 0.909079, 0.909357, 0.911369, 0.91362, 0.912933, 0.911786, 0.909659, 1.00241, 1.20531, 1.06384, 0.967509, 0.961497, 1.26347, 1.31866, 1.00389, 0.925673, 0.92683, 0.928494, 0.927684, 0.928206, 0.928263, 0.928694, 0.9267, 0.929245, 0.928629, 0.929599, 0.930248, 0.93282, 1.15313, 0.956515, 0.938794, 1.10696, 1.17374, 0.938901, 0.942207, 0.941662, 0.942151, 0.94158, 0.942254, 1.11497, 0.953451, 0.955649, 0.9568, 0.96109, 0.975032, 0.977428, 0.978541, 0.977697, 0.976806, 0.956884, 1.00786, 1.01911, 1.02399, 1.02546, 0.966806, 0.975297, 0.981709, 0.986636, 0.988723, 1.00465, 1.00683, 1.00812, 0.99984, 1.00577, 1.00659, 1.00561, 1.01059, 1.00841, 1.2888, 1.17914, 1.09057, 1.02564, 1.36158, 1.36594, 1.15693, 1.22285, 1.03723, 1.03624, 1.18009, 1.16818, 1.04904, 1.0492, 1.0505, 1.15049, 1.04023, 1.0408, 1.25742, 1.11566, 1.15382, 1.02372, 1.02326, 1.307, 1.30809, 1.02069, 1.13779, 1.41375, 1.00942, 1.00897, 1.17088, 1.0305, 1.03202, 1.03083, 1.02879, 1.03181, 1.02737, 1.0223, 1.02353, 1.02525, 1.02722, 1.03011, 1.03505, 1.03613, 1.0425, 1.20697
1.02305, 0.90124, 0.898686, 0.895466, 0.897107, 0.897834, 0.899106, 0.898017, 0.897472, 0.8947, 0.897709, 0.897289, 0.890317, 0.894477, 0.896245, 0.897805, 0.898066, 0.90221, 0.901157, 0.902808, 0.901614, 0.901251, 0.901566, 0.902882, 0.901142, 0.899601, 0.90241, 0.905277, 0.905694, 0.905473, 0.903181, 1.01184, 1.0613, 0.928006, 0.922599, 0.918721, 0.914293, 0.912247, 0.911551, 0.912064, 0.911546, 0.909531, 0.892226, 1.04203, 1.10718, 1.10662, 1.22596, 1.06718, 0.916308, 0.918391, 0.919025, 0.924826, 0.926467, 0.928526, 0.928806, 0.928219, 0.927503, 0.927085, 0.926754, 0.926861, 0.928142, 0.928497, 0.932064, 0.933098, 1.20982, 0.935767, 0.936381, 0.931292, 0.931194, 0.940128, 0.941167, 0.942939, 0.941706, 0.950806, 1.37221, 0.952468, 0.954678, 0.955654, 0.973494, 0.974114, 0.973161, 0.976909, 0.977483, 0.97603, 0.955151, 0.956208, 0.930525, 0.930831, 1.0342, 0.991369, 0.933965, 1.02189, 0.983679, 0.984195, 0.992465, 0.992794, 1.0101, 1.00956, 1.00832, 1.00645, 1.00867, 1.00889, 1.01175, 1.00739, 1.02526, 1.17808, 1.35692, 1.02561, 1.17308, 1.15509, 1.17153, 1.17382, 1.03631, 1.03563, 1.27028, 1.04807, 1.04919, 1.0494, 1.11838, 1.04225, 1.04173, 1.04235, 1.13986, 1.02825, 1.02864, 1.02439, 1.02244, 1.02236, 1.01542, 1.01971, 1.15318, 1.0104, 1.0095, 1.00799, 1.02953, 1.03049, 1.0319, 1.02937, 1.02749, 1.03045, 1.03207, 1.022, 1.02326, 1.02643, 1.03069, 1.03212, 1.03363, 1.03526, 1.03555, 1.03569
1.04655, 0.898212, 0.896846, 0.89691, 0.896253, 0.899057, 0.899456, 0.897868, 0.893925, 0.893707, 0.897139, 0.897181, 0.897884, 0.895892, 0.895191, 0.904788, 0.904907, 0.903203, 0.90254, 0.901889, 0.901645, 0.900811, 0.901866, 0.900926, 0.901513, 0.901735, 0.904377, 0.905509, 0.907706, 0.907319, 0.908189, 0.962951, 0.923448, 0.925443, 0.921423, 0.918026, 0.914663, 0.914395, 0.913764, 0.912772, 0.910308, 0.911532, 0.90884, 0.908266, 0.908869, 0.90994, 0.91294, 0.9146, 0.915572, 0.918503, 0.920659, 0.92276, 0.924846, 0.926363, 0.923402, 0.924834, 0.92526, 0.925959, 0.925885, 0.926818, 0.92727, 0.928949, 0.931402, 0.92949, 0.933023, 0.936212, 0.936066, 0.92854, 0.93728, 0.94139, 0.948742, 0.949277, 0.949646, 0.949069, 0.949328, 0.961311, 0.960125, 0.96138, 0.959087, 0.98127, 0.972249, 0.974435, 0.978123, 0.960166, 0.947601, 0.946859, 0.953813, 0.902163, 0.901706, 0.90336, 0.93272, 1.02204, 1.02771, 0.988196, 0.991801, 0.993805, 0.995301, 1.00778, 1.26329, 1.0101, 1.01277, 1.01292, 1.01245, 1.05298, 1.03246, 1.03163, 1.02849, 1.02393, 1.02636, 1.17334, 1.19542, 1.1747, 1.17572, 1.27556, 1.04804, 1.04931, 1.04928, 1.11801, 1.03867, 1.03922, 1.04325, 1.14465, 1.02814, 1.02937, 1.02782, 1.02362, 1.02499, 1.01957, 1.0147, 1.01724, 1.01337, 1.01132, 1.15766, 1.03234, 1.03189, 1.0309, 1.02093, 1.02197, 1.02529, 1.02803, 1.02726, 1.02262, 1.02548, 1.02428, 1.06812, 1.03269, 1.12208, 1.0302, 1.03129, 1.03413
0.89282, 0.897227, 0.897143, 0.896759, 0.898228, 0.897587, 0.897832, 0.89755, 0.893646, 0.897303, 0.898797, 0.901013, 0.896823, 0.896085, 0.906149, 0.906269, 0.904872, 0.904104, 0.903029, 0.90138, 0.900641, 0.900546, 0.901295, 0.904277, 0.903277, 0.903449, 0.903427, 0.907551, 0.911227, 0.914828, 0.917633, 0.921389, 0.925493, 0.926074, 0.918555, 0.917042, 0.915797, 0.914949, 0.911952, 0.909176, 0.908768, 0.907698, 0.908081, 0.908429, 0.908427, 0.908692, 0.912611, 0.918482, 0.917782, 0.919047, 0.921019, 0.920873, 0.921449, 0.92181, 0.92239, 0.923482, 0.924868, 0.924725, 0.924648, 0.924825, 0.928365, 0.928775, 0.928114, 0.927829, 0.935502, 0.934148, 0.935388, 0.927333, 1.13077, 0.945612, 0.94909, 0.949412, 0.947251, 0.947447, 0.960669, 0.960644, 0.959402, 0.964021, 0.952626, 0.998824, 0.98931, 0.972251, 0.984248, 0.950358, 0.941084, 1.00896, 0.943594, 0.954782, 0.905127, 0.949641, 0.931807, 0.949263, 1.02922, 1.02564, 1.02264, 0.993739, 0.995361, 0.991811, 1.40695, 1.00969, 1.00659, 1.00826, 1.01235, 1.05402, 1.02795, 1.03003, 1.02652, 1.06784, 1.02929, 1.0327, 1.03717, 1.17578, 1.24452, 1.2537, 1.04953, 1.04958, 1.05004, 1.04697, 1.04817, 1.28261, 1.14418, 1.02872, 1.02849, 1.03275, 1.02251, 1.02021, 1.0245, 1.02482, 1.01724, 1.01488, 1.01564, 1.38838, 1.03317, 1.03307, 1.03306, 1.03265, 1.021, 1.02266, 1.02537, 1.02887, 1.02634, 1.02154, 1.02543, 1.02636, 1.11343, 1.02879, 1.02721, 1.02949, 1.03198, 1.04348
0.891083, 0.893562, 0.897945, 0.897422, 0.896349, 0.896346, 0.895003, 0.893737, 0.895744, 0.898221, 0.898492, 0.900819, 0.896536, 0.902342, 0.906207, 0.906939, 0.906017, 0.904062, 0.903261, 0.901214, 0.900008, 0.899908, 0.901323, 0.904888, 0.907692, 0.908165, 1.05477, 0.912374, 0.91147, 0.915934, 0.916619, 0.923326, 0.922701, 0.918262, 0.915386, 0.914808, 0.91549, 0.910659, 0.9093, 0.909182, 0.907757, 0.908329, 0.908018, 0.910073, 0.907641, 0.912823, 0.915091, 0.918402, 0.920211, 0.919381, 0.919888, 0.918893, 0.921499, 0.922181, 0.922643, 0.924614, 0.926539, 0.926008, 0.924809, 0.922554, 0.926312, 0.926771, 0.927333, 0.938388, 0.929944, 0.93592, 0.935257, 0.924948, 0.943206, 0.942941, 0.946936, 0.950728, 0.95001, 0.960707, 0.961033, 0.956876, 0.981983, 0.963813, 0.952544, 0.95279, 0.962385, 0.958733, 1.00122, 1.02156, 0.936161, 0.92119, 0.9186, 0.902338, 1.01349, 0.947191, 0.918426, 0.946144, 0.951192, 0.977244, 1.02313, 0.993887, 0.988692, 0.987028, 0.987492, 1.12583, 1.03555, 1.05425, 1.06077, 1.02774, 1.02865, 1.02904, 1.03, 1.03469, 1.02942, 1.03003, 1.25487, 1.17823, 1.18861, 1.04952, 1.0498, 1.04996, 1.04117, 1.04879, 1.04909, 1.04924, 1.31372, 1.04029, 1.03683, 1.03205, 1.32227, 1.0249, 1.02476, 1.02566, 1.01756, 1.38474, 1.38483, 1.44821, 1.03503, 1.03456, 1.01762, 1.02033, 1.01911, 1.02259, 1.02961, 1.03208, 1.02844, 1.02615, 1.02479, 1.02517, 1.01193, 1.0265, 1.02834, 1.03003, 1.03428, 1.03893
0.90271, 0.891933, 0.891851, 0.895133, 0.897111, 0.894712, 0.895532, 0.897647, 0.900705, 0.900144, 0.896345, 0.908578, 0.908243, 0.907802, 0.907111, 0.906152, 0.905032, 0.903384, 0.902307, 0.901766, 0.900707, 0.910962, 0.911857, 0.910943, 0.907445, 0.910574, 0.911812, 0.911286, 0.91071, 0.914978, 0.914845, 0.922831, 0.923262, 0.912104, 0.912038, 0.911534, 0.909336, 0.907641, 0.907758, 0.905897, 0.907418, 0.907483, 0.907628, 0.910895, 0.912239, 0.914553, 0.915006, 0.917781, 0.920576, 0.91979, 0.920542, 0.922565, 0.922745, 0.925312, 0.920228, 0.920668, 0.925545, 0.926416, 0.923904, 0.922403, 0.927647, 0.931963, 0.934821, 0.93501, 0.931916, 0.934316, 0.935767, 1.01807, 0.932765, 0.934043, 0.950977, 0.95045, 0.944218, 0.959951, 0.956004, 0.956088, 0.996899, 1.10711, 0.98433, 0.977417, 0.958206, 0.957884, 0.966264, 1.00549, 0.939367, 0.919323, 0.951106, 0.91313, 0.948506, 0.953617, 1.00908, 1.02595, 1.01065, 1.01564, 1.03018, 1.03222, 1.03053, 0.98681, 0.986802, 1.13989, 1.03715, 1.05635, 1.02324, 1.02702, 1.06131, 1.02919, 1.03097, 1.03395, 1.03008, 1.03254, 1.03264, 1.27407, 1.27756, 1.04917, 1.04972, 1.04653, 1.045, 1.046, 1.04811, 1.04961, 1.05002, 1.04281, 1.03707, 1.3198, 1.27539, 1.36055, 1.02429, 1.02765, 1.02837, 1.11718, 1.11656, 1.0362, 1.03596, 1.02218, 1.02046, 1.02005, 1.01855, 1.26741, 1.02933, 1.03128, 1.03269, 1.02419, 1.02569, 1.01869, 1.1738, 1.02519, 1.02872, 1.02949, 1.0362, 1.03686
0.903072, 0.889679, 0.887734, 0.893769, 0.895823, 0.895088, 0.897532, 0.897901, 0.899916, 0.901539, 0.908988, 0.907927, 0.907362, 0.907032, 0.906162, 0.905397, 0.903953, 0.902672, 0.903042, 0.916365, 0.915538, 0.911761, 0.911418, 0.910135, 0.907848, 0.907999, 0.910246, 0.909457, 0.910567, 0.920774, 0.913474, 0.914225, 1.50666, 0.911359, 0.910969, 0.910082, 0.908053, 0.907051, 0.904566, 0.905543, 0.907638, 0.908639, 0.911379, 0.912133, 0.914289, 0.915699, 0.918258, 0.919722, 0.921368, 0.921261, 0.921516, 0.925072, 0.926416, 0.928231, 1.13918, 0.920693, 0.922905, 0.924166, 0.923788, 0.927715, 0.928513, 0.933388, 0.931921, 0.934966, 0.932342, 0.93278, 0.923207, 0.941828, 0.941727, 0.933487, 0.948156, 0.950492, 0.941759, 0.945057, 0.947938, 0.952507, 1.04824, 1.02009, 1.02168, 0.97341, 0.965043, 0.979943, 1.04301, 0.979122, 0.962956, 0.921389, 0.955546, 0.924876, 0.981395, 0.948627, 1.00266, 0.98622, 1.00356, 1.10085, 1.04047, 1.03659, 1.03183, 1.04788, 1.05122, 1.13819, 1.03759, 1.14694, 1.15532, 1.05759, 1.07429, 1.17885, 1.17753, 1.03428, 1.02984, 1.03188, 1.28146, 1.23673, 1.04904, 1.04821, 1.04935, 1.04515, 1.04459, 1.28044, 1.29444, 1.04911, 1.05027, 1.05273, 1.28281, 1.09715, 1.09668, 1.03698, 1.03219, 1.02868, 1.02764, 1.11531, 1.03439, 1.03581, 1.02587, 1.02134, 1.01528, 1.01938, 1.02077, 1.01128, 1.18173, 1.16415, 1.01978, 1.01966, 1.02527, 1.02183, 1.02274, 1.02516, 1.02908, 1.03388, 1.03485, 1.10321
0.901906, 0.889144, 0.890864, 0.89217, 0.896649, 0.898023, 0.899585, 0.898919, 0.899253, 0.909076, 0.909631, 0.909089, 0.906819, 0.90607, 0.906752, 0.901298, 0.900945, 0.907641, 0.915705, 0.915638, 0.915366, 1.01251, 0.908816, 0.906062, 0.905517, 0.904604, 0.907411, 0.908552, 0.910341, 0.919346, 0.920822, 0.917673, 0.918004, 0.904385, 0.907761, 0.90804, 0.907865, 0.905467, 0.906441, 0.906061, 0.907507, 0.908073, 0.909238, 0.93082, 0.98435, 0.917614, 0.920419, 0.921565, 0.921263, 0.924706, 0.921553, 0.92927, 0.929516, 0.931599, 0.931458, 0.930929, 0.925542, 0.923928, 0.925728, 0.927396, 1.03224, 0.940684, 0.939414, 0.942875, 0.932669, 0.932712, 1.09505, 1.07354, 0.928624, 0.940423, 0.94632, 0.943239, 0.938901, 0.946322, 0.950771, 0.960155, 1.06025, 1.02164, 1.02365, 1.06582, 1.005, 0.98032, 1.03363, 0.983861, 0.980458, 0.961765, 0.946091, 0.933598, 0.935728, 1.03968, 1.09799, 1.01962, 1.05792, 1.09911, 1.099, 1.09169, 1.05791, 1.0482, 1.04369, 1.07723, 1.05123, 1.05221, 1.04568, 1.04455, 1.10236, 1.07356, 1.01975, 1.2234, 1.02666, 1.02894, 1.04548, 1.16674, 1.0471, 1.05008, 1.04665, 1.04806, 1.28845, 1.13342, 1.25352, 1.26009, 1.04992, 1.10534, 1.12182, 1.21245, 1.04711, 1.03607, 1.02986, 1.0296, 1.02912, 1.42951, 1.51142, 1.02823, 1.0265, 1.0174, 1.01671, 1.01813, 1.02787, 1.01032, 1.02335, 1.02182, 1.01841, 1.01829, 1.02083, 1.02123, 1.02311, 1.02539, 1.37261, 1.03775, 1.02737, 1.02751
0.902831, 0.904951, 0.976401, 0.892327, 0.894824, 0.901821, 0.902047, 0.899685, 1.0119, 0.909159, 0.908159, 0.907128, 0.906109, 0.902378, 0.900535, 0.899682, 0.90063, 0.911155, 0.91372, 0.915793, 0.915596, 0.902472, 0.902818, 0.903117, 0.90505, 0.904184, 0.904087, 0.907108, 0.922758, 0.921319, 0.921188, 0.919819, 0.907127, 0.906506, 0.904559, 0.906786, 0.907441, 0.905313, 0.906293, 0.908024, 0.910272, 0.91022, 0.961726, 0.931005, 0.930748, 0.919102, 0.920097, 0.921466, 0.921972, 0.925152, 0.928379, 0.92953, 0.931573, 0.9322, 0.932116, 0.927554, 0.926044, 0.925494, 0.925505, 1.02138, 1.21937, 1.02611, 0.955589, 0.956894, 0.940906, 0.930193, 0.916185, 0.926219, 0.927669, 0.940449, 0.942649, 0.941787, 0.941688, 0.980364, 1.02493, 1.04369, 1.06642, 1.10256, 1.01604, 1.03222, 1.00127, 1.03771, 1.02066, 1.04993, 1.05188, 1.03608, 0.954994, 0.964166, 1.19074, 1.03998, 1.35435, 1.01869, 1.01507, 1.02585, 1.09418, 1.05624, 1.10102, 1.12109, 1.12945, 1.01562, 1.0161, 1.06877, 1.08572, 1.07167, 1.10171, 1.13303, 1.01966, 1.02189, 1.0268, 1.29076, 1.26884, 1.26453, 1.12621, 1.1254, 1.19862, 1.32053, 1.03072, 1.03239, 1.19447, 1.11478, 1.27127, 1.18315, 1.26092, 1.05612, 1.05004, 1.03726, 1.02719, 1.02992, 1.02937, 1.02172, 1.19111, 1.02935, 1.02464, 1.02381, 1.01929, 1.59264, 1.02793, 1.02729, 1.02214, 1.02168, 1.02112, 1.01903, 1.01955, 1.02063, 1.02149, 1.03644, 1.04096, 1.0453, 1.20961, 1.11229
1.21143, 1.12241, 0.924246, 1.16149, 0.897764, 0.901014, 0.902112, 0.901488, 0.91508, 0.908706, 0.905511, 0.902346, 0.899665, 0.897254, 0.897526, 0.898771, 0.914172, 0.9133, 0.912098, 1.13733, 0.902097, 0.902445, 0.901002, 0.901785, 0.904231, 0.904537, 0.904082, 0.906536, 0.918682, 0.919752, 0.908413, 0.907781, 0.90614, 0.905383, 0.9059, 0.907712, 0.907086, 0.905106, 0.907097, 0.907631, 0.909831, 0.914718, 1.04461, 0.922897, 0.92556, 0.920036, 0.920383, 0.928767, 0.92493, 1.08185, 0.935168, 0.935604, 0.936719, 1.1351, 0.931473, 0.928501, 0.924589, 0.925195, 1.01583, 1.00427, 0.962197, 0.962698, 0.955156, 0.955971, 0.946673, 0.91424, 0.932051, 0.931842, 0.925796, 0.935697, 0.983778, 0.940419, 0.98555, 0.983855, 0.984785, 1.04013, 1.10333, 1.06226, 1.06407, 1.03279, 1.04391, 1.05964, 1.11611, 1.09767, 1.05723, 1.05705, 0.983613, 1.02008, 1.0068, 1.09244, 1.08836, 1.01866, 1.01952, 1.03268, 1.11161, 1.05329, 1.07224, 1.02436, 1.10518, 1.01661, 1.01548, 1.08432, 1.06579, 1.00146, 1.00207, 1.24027, 1.16818, 1.16895, 1.17077, 1.22232, 1.03, 1.21426, 1.17786, 1.3203, 1.28013, 1.02565, 1.02801, 1.03052, 1.12385, 1.28176, 1.27875, 1.27764, 1.05714, 1.05765, 1.05135, 1.09204, 1.02558, 1.0246, 1.02518, 1.01866, 1.02173, 1.02609, 1.02378, 1.02493, 1.5879, 1.07014, 1.02711, 1.0257, 1.02203, 1.01951, 1.02072, 1.02005, 1.02142, 1.02167, 1.19264, 1.16983, 1.05109, 1.05248, 1.0876, 1.35767
1.209, 0.921659, 0.922363, 0.930247, 0.925851, 1.06305, 0.983864, 0.917137, 1.16725, 0.903269, 0.900663, 0.89937, 0.898009, 0.897259, 0.897259, 0.914946, 0.91464, 0.913973, 0.908054, 0.902751, 0.900666, 0.900587, 0.900234, 0.901717, 0.907822, 0.916337, 0.918064, 0.914465, 0.910337, 0.908422, 0.906747, 0.90862, 0.90762, 0.90879, 0.90775, 0.907905, 0.905904, 0.90478, 0.906169, 1.07112, 0.914728, 0.914632, 0.918813, 0.923633, 0.924401, 0.921455, 0.921299, 0.941136, 0.944031, 0.94932, 0.938362, 0.937816, 0.939498, 0.945269, 0.928468, 0.925989, 0.924087, 0.980649, 1.01689, 1.01688, 0.96157, 0.954122, 0.94695, 0.965204, 0.929997, 0.921952, 0.931482, 0.92843, 0.965074, 1.10154, 0.973524, 0.965948, 0.953241, 0.984218, 0.984909, 1.07701, 1.21349, 1.10831, 1.05929, 1.05935, 1.04648, 1.14545, 1.14842, 1.12459, 1.0825, 1.04426, 1.06899, 1.09655, 1.10063, 1.08671, 1.08548, 1.11195, 1.13895, 1.10875, 1.1125, 1.15362, 1.11736, 1.12252, 1.09244, 1.28921, 1.0917, 1.08404, 1.07131, 1.00104, 1.00112, 1.12421, 1.25847, 1.25599, 1.02229, 1.02404, 1.12113, 1.12312, 1.43361, 1.29471, 1.32045, 1.02378, 1.03019, 1.03262, 1.4171, 1.02563, 1.27711, 1.19234, 1.05823, 1.05865, 1.05047, 1.03623, 1.02614, 1.02509, 1.02436, 1.01854, 1.02383, 1.02462, 1.02333, 1.03413, 1.03424, 1.03356, 1.02477, 1.02541, 1.01752, 1.01829, 1.02143, 1.02183, 1.02133, 1.25318, 1.25548, 1.16608, 1.17717, 1.07748, 1.10018, 1.0863
0.916784, 0.921837, 0.925865, 0.930084, 0.926411, 0.926152, 0.921715, 0.903803, 0.902911, 0.903369, 0.901065, 0.900425, 0.954212, 0.914294, 0.914892, 0.91581, 0.914735, 0.914772, 0.898965, 0.901517, 0.894441, 0.901578, 0.902871, 0.907592, 0.917894, 0.9181, 0.91776, 0.909738, 0.909759, 0.909468, 0.905522, 0.906835, 0.909301, 0.908557, 0.909605, 0.908628, 1.09147, 0.91493, 0.914269, 0.915743, 0.916632, 0.917995, 0.917846, 0.925668, 0.928626, 0.928646, 0.999314, 0.972238, 0.953727, 0.943639, 0.939952, 0.94186, 0.947361, 0.947271, 0.929707, 0.926018, 1.20737, 0.954055, 0.954123, 0.952448, 0.95363, 0.956332, 0.94666, 0.958885, 0.965841, 0.966135, 1.04661, 1.02075, 0.98984, 1.04927, 1.04639, 0.997876, 0.962589, 1.00222, 1.02792, 1.0818, 1.21472, 1.20196, 1.12664, 1.09799, 1.08804, 1.15515, 1.23201, 1.17741, 1.16148, 1.1053, 1.12631, 1.09539, 1.13089, 1.122, 1.11708, 1.09904, 1.09095, 1.12581, 1.04076, 1.0356, 1.03766, 1.1182, 1.12231, 1.10248, 1.13553, 1.10586, 1.13712, 1.14035, 1.14024, 0.998363, 1.00478, 1.10841, 1.2092, 1.12535, 1.03565, 1.28233, 1.43415, 1.13295, 1.01725, 1.02233, 1.03084, 1.03104, 1.02112, 1.26452, 1.27134, 1.27199, 1.05935, 1.05351, 1.04946, 1.04888, 1.31181, 1.31771, 1.28578, 1.5685, 1.02521, 1.02505, 1.03627, 1.10179, 1.03272, 1.03553, 1.14708, 1.04261, 1.1052, 1.11024, 0.00448737, 1.6863, 1.15186, 1.26388, 1.6241, 1.1563, 1.16217, 1.09691, 1.17081, 1.0873
0.915374, 0.918484, 0.918095, 0.922609, 0.926021, 0.899034, 0.901516, 0.901881, 0.902177, 0.908148, 0.906866, 1.12414, 0.91471, 0.915657, 0.915388, 0.914868, 0.91543, 0.900966, 0.900761, 0.900906, 1.14588, 0.903389, 0.904843, 0.917449, 0.918277, 0.918238, 0.911872, 0.90844, 0.909663, 0.909397, 0.910441, 0.910121, 0.909171, 0.90896, 0.911071, 0.911394, 0.913174, 0.914564, 0.915612, 0.916519, 0.91818, 0.918094, 0.918228, 0.928232, 0.928914, 0.928772, 0.950735, 0.95094, 0.982008, 1.12521, 1.33922, 0.953564, 0.94724, 0.93426, 0.93496, 1.20433, 0.952229, 0.952249, 0.951914, 0.952961, 0.946791, 0.931857, 0.92896, 0.923456, 0.924763, 0.969412, 0.983009, 0.994975, 1.08941, 1.04859, 1.08412, 1.05665, 1.05086, 1.02858, 1.05409, 1.06298, 1.19611, 1.22929, 1.09446, 1.1533, 1.15145, 1.14953, 1.2423, 1.24634, 1.18038, 1.22646, 1.22605, 1.21966, 1.1481, 1.2711, 1.1479, 1.19675, 1.16203, 1.1641, 1.17766, 1.17524, 1.18079, 1.11966, 1.12182, 1.11966, 1.11203, 1.11305, 1.07701, 1.04298, 1.16775, 1.05136, 1.20302, 1.03779, 1.2227, 1.32115, 1.32041, 1.43238, 1.01188, 1.01072, 1.31584, 1.02508, 1.02629, 1.12511, 1.10305, 1.41562, 1.41237, 1.05675, 1.06157, 1.0547, 1.05016, 1.04817, 1.04398, 1.03957, 1.03601, 1.03109, 1.02689, 1.03247, 1.03693, 1.03978, 1.03797, 1.03641, 1.08148, 1.26827, 1.64632, 1.07579, 1.0863, 1.09774, 1.10931, 1.13284, 1.12744, 1.13319, 1.09045, 1.20588, 1.09029, 1.31017
0.909483, 0.912734, 0.995209, 0.900506, 0.901772, 0.902506, 0.90119, 0.90769, 0.90935, 0.907975, 0.907034, 0.907603, 0.914751, 0.914445, 0.914897, 0.915219, 0.907729, 0.900316, 0.900984, 0.901655, 0.901505, 1.1325, 1.15146, 0.918536, 0.915862, 0.909449, 0.909663, 0.908723, 0.909239, 0.909296, 0.909932, 0.909405, 0.90842, 0.909175, 0.910366, 0.911517, 0.91377, 0.916023, 0.916691, 0.918497, 0.919501, 0.919328, 1.04726, 1.07502, 1.08454, 1.09139, 1.00085, 0.980891, 0.987127, 0.956497, 0.953471, 0.953231, 1.09787, 0.935974, 0.943148, 0.955116, 0.955085, 1.02313, 0.958184, 0.952899, 0.965778, 0.923922, 0.973587, 0.922123, 1.00301, 0.951156, 0.95389, 0.980768, 1.06989, 1.06426, 1.12442, 1.08158, 1.03098, 1.05042, 1.10317, 1.15795, 1.23186, 1.23787, 1.26364, 1.12328, 1.14133, 1.146, 1.28157, 1.26488, 1.26681, 1.20217, 1.24727, 1.17085, 1.20645, 1.21504, 1.2041, 1.23563, 1.21986, 1.2022, 1.14208, 1.16575, 1.06954, 1.11641, 1.12231, 1.12593, 1.10955, 1.09812, 0.973339, 1.18723, 1.18188, 1.04328, 1.3764, 1.21751, 0.997145, 0.999139, 1.00241, 1.43306, 1.00798, 1.08946, 1.09097, 1.0227, 1.02373, 1.45568, 1.18919, 1.29395, 1.41901, 1.36614, 1.06123, 1.06235, 1.1912, 1.04693, 1.04612, 1.04165, 1.03646, 1.03074, 1.03239, 1.04033, 1.04246, 1.04641, 1.03991, 1.11235, 1.63046, 1.06111, 1.65009, 1.08016, 1.08256, 1.09669, 1.10121, 1.11287, 1.12261, 1.17767, 1.09262, 1.10042, 1.10468, 1.1121
0.909374, 0.899599, 0.901486, 0.901597, 0.902113, 0.90238, 0.90767, 0.908963, 0.911493, 0.905103, 0.906167, 0.904257, 0.913751, 0.915417, 0.984514, 0.89602, 0.898769, 0.900654, 0.900891, 0.90067, 1.03267, 1.03438, 0.926106, 0.928035, 0.911347, 0.908205, 0.90804, 0.909214, 0.909369, 0.908591, 0.908729, 0.907772, 0.906647, 0.907854, 0.911063, 0.913557, 0.915159, 0.916063, 0.916433, 0.918326, 0.920617, 1.0375, 1.03795, 1.04454, 0.976358, 0.975399, 0.98058, 0.98053, 1.17155, 0.954178, 0.955871, 1.08378, 0.939796, 0.939953, 0.942747, 1.02369, 1.01973, 0.944241, 1.04665, 0.974941, 0.932034, 0.930705, 0.972449, 0.972966, 0.96634, 1.02559, 0.968688, 1.0332, 1.09095, 1.11549, 1.09175, 1.07017, 1.07619, 1.14312, 1.11022, 1.21069, 1.21076, 1.27087, 1.23697, 1.15407, 1.15391, 1.19171, 1.27771, 1.29076, 1.21352, 1.21745, 1.16679, 1.19951, 1.26164, 1.28237, 1.28442, 1.22329, 1.22176, 1.18772, 1.13634, 1.08759, 1.11872, 1.1226, 1.13092, 1.1336, 0.979685, 0.980244, 0.972971, 1.14976, 1.05054, 1.10568, 1.10213, 1.10276, 0.990967, 1.27849, 1.00088, 1.31617, 1.26526, 1.26246, 1.19035, 1.19599, 1.2854, 1.00183, 1.11517, 1.14092, 1.49367, 1.21925, 1.05972, 1.06096, 1.06305, 1.05251, 1.04402, 1.04219, 1.03562, 1.03674, 1.04008, 1.04323, 1.04709, 1.04695, 1.04841, 1.0558, 1.06014, 1.06548, 1.06989, 1.07846, 1.09226, 1.09807, 1.10056, 1.10195, 1.10328, 1.09803, 1.09633, 1.10006, 1.11175, 1.12264
0.900635, 0.900849, 0.901169, 0.901502, 0.902161, 0.903749, 0.90669, 0.908228, 0.90967, 0.907407, 0.90659, 0.907292, 0.960619, 0.90334, 0.898588, 0.897365, 0.897484, 0.898454, 0.901011, 0.901601, 1.30101, 0.922323, 0.924159, 0.927944, 0.909875, 0.907378, 0.907042, 0.908132, 0.908773, 0.90591, 0.904834, 0.90494, 0.907319, 0.909291, 0.91324, 0.914418, 0.914888, 0.91516, 0.917199, 1.07171, 1.07476, 1.01952, 1.03964, 1.01476, 1.12334, 0.975943, 0.978947, 0.980821, 1.16895, 0.953017, 0.954979, 0.941901, 0.939839, 0.941061, 0.919315, 0.921048, 0.971238, 0.945009, 1.05711, 0.919677, 0.970176, 0.988408, 0.999074, 0.970535, 0.970311, 0.973814, 0.973567, 1.02787, 1.09048, 1.08744, 1.13382, 1.13307, 1.09972, 1.13877, 1.21832, 1.18145, 1.29894, 1.27241, 1.2721, 1.20704, 1.17674, 1.23464, 1.33845, 1.32497, 1.3251, 1.2132, 1.18886, 1.19895, 1.25662, 1.2709, 1.26492, 1.26434, 1.21881, 1.20504, 1.15079, 1.09748, 1.14801, 1.14805, 1.12715, 1.1327, 0.984819, 0.981078, 0.969745, 0.964067, 0.957745, 0.962789, 1.21653, 1.3154, 1.31662, 1.31898, 1.00289, 1.27397, 1.26378, 1.2204, 1.01826, 1.01979, 1.28181, 1.38306, 1.00549, 1.11876, 1.21178, 1.18514, 1.34954, 1.33548, 1.06104, 1.05234, 1.04718, 1.04316, 1.03905, 1.04012, 1.04139, 1.05031, 1.04855, 1.04709, 1.05275, 1.05989, 1.06207, 1.0693, 1.07874, 1.08356, 1.23333, 1.09617, 1.10208, 1.10219, 1.10024, 1.09837, 1.09642, 1.09876, 1.10855, 1.13754
0.900984, 0.898967, 0.901581, 0.90505, 0.906375, 0.906263, 0.911269, 0.909022, 0.908176, 0.907291, 0.906781, 0.904844, 0.90276, 0.901364, 0.898252, 0.888191, 0.888033, 0.898152, 0.89859, 1.29594, 0.924111, 0.924176, 0.923874, 0.923934, 0.907644, 0.9036, 0.903702, 0.903364, 0.903344, 0.904017, 0.906052, 0.90788, 0.91105, 0.908266, 0.913128, 0.913633, 0.914755, 0.916391, 0.918051, 1.25111, 1.05626, 1.013, 1.01546, 1.02354, 1.00089, 1.0368, 0.956998, 1.05491, 0.95349, 0.94988, 1.07554, 0.943346, 0.943394, 0.922136, 0.919847, 0.921852, 1.00946, 1.07842, 0.926878, 0.921472, 0.971741, 0.994456, 0.981072, 1.00216, 1.01637, 1.01707, 0.998505, 1.06769, 1.08935, 1.13639, 1.17208, 1.16839, 1.16824, 1.16511, 1.16058, 1.19132, 1.28769, 1.31616, 1.29944, 1.23377, 1.26492, 1.22951, 1.28536, 1.34359, 1.32546, 1.33321, 1.2087, 1.23105, 1.21394, 1.25718, 1.2577, 1.25654, 1.27142, 1.23056, 1.18329, 1.17119, 1.12619, 1.12988, 1.08021, 1.01869, 0.986039, 1.09507, 0.968395, 0.954734, 0.955973, 1.17216, 0.963366, 1.09965, 1.31712, 0.994855, 1.20608, 1.19569, 1.09616, 1.24963, 1.27406, 1.27642, 1.38592, 1.1264, 1.21595, 1.24309, 1.49607, 1.10879, 1.05134, 1.10905, 1.06014, 1.05181, 1.05943, 1.0441, 1.03855, 1.03984, 1.04125, 1.04191, 1.04854, 1.06128, 1.05634, 1.64711, 1.2509, 1.07712, 1.08297, 1.08446, 1.08383, 1.09633, 1.09718, 1.099, 1.0965, 1.09834, 1.09785, 1.10336, 1.28538, 1.04001
0.902602, 0.904152, 0.903776, 0.904486, 0.905094, 0.910471, 0.910864, 0.909694, 0.906073, 0.904745, 0.905007, 0.902586, 0.900971, 0.897834, 0.897292, 0.887751, 0.888145, 0.896558, 0.904608, 0.919415, 0.922254, 0.922969, 0.923349, 0.910151, 0.900768, 0.901895, 0.903264, 0.902116, 0.903421, 0.908741, 0.907717, 0.911744, 0.911633, 0.911951, 0.91234, 0.915012, 0.915472, 0.917283, 1.04927, 0.93145, 0.943088, 0.946954, 1.02585, 1.09413, 1.13674, 0.956122, 0.9568, 0.952039, 1.07179, 1.0734, 0.942573, 0.943631, 0.922573, 0.920479, 0.921846, 0.918424, 0.918387, 0.910219, 0.933592, 0.925515, 0.977622, 0.976835, 1.0258, 1.02556, 1.04585, 1.0165, 1.0369, 1.05143, 1.13715, 1.14524, 1.2092, 1.21667, 1.206, 1.21713, 1.22218, 1.24063, 1.26993, 1.32317, 1.40193, 1.2639, 1.31463, 1.2809, 1.28865, 1.33813, 1.34637, 1.29554, 1.23009, 1.22345, 1.24617, 1.33304, 1.31801, 1.27876, 1.2647, 1.25221, 1.19867, 1.17864, 1.12512, 1.11512, 1.04883, 1.1601, 1.17428, 1.10214, 0.968423, 1.10518, 0.954086, 0.960742, 0.963586, 0.959599, 1.31245, 0.993702, 1.09102, 1.2578, 1.00128, 1.00303, 1.00433, 1.49273, 1.49213, 1.17832, 1.45172, 1.29236, 1.14385, 1.2164, 1.05053, 1.05402, 1.05926, 1.06025, 1.05746, 1.04938, 1.03895, 1.03917, 1.03985, 1.04308, 1.2446, 1.44384, 1.64594, 1.64862, 1.08233, 1.0851, 1.08292, 1.08571, 1.08648, 1.09573, 1.0952, 1.09469, 1.0944, 1.09621, 1.09893, 1.50732, 1.0401, 1.04121
0.904205, 0.906061, 0.911351, 0.911024, 0.911529, 0.910765, 0.91019, 0.904629, 0.904104, 1.22976, 1.24253, 0.901476, 0.900185, 1.51061, 0.892677, 0.893669, 0.895622, 0.90156, 1.12651, 0.920148, 0.920102, 0.978073, 1.00524, 0.899132, 0.899494, 0.901148, 0.903291, 0.904256, 0.905534, 0.90815, 0.909503, 0.911347, 0.911917, 0.913632, 0.912471, 0.915294, 0.916781, 0.919058, 1.19591, 0.933166, 1.10253, 1.0274, 1.02453, 0.982254, 1.31165, 1.10353, 1.06604, 1.14428, 1.07158, 0.935973, 0.937011, 0.92199, 0.918374, 0.917962, 0.917892, 0.919742, 0.906686, 0.921514, 0.92613, 0.966354, 0.983939, 1.04718, 1.04645, 1.07302, 1.05743, 1.0807, 1.04889, 1.11714, 1.1277, 1.19688, 1.27467, 1.27313, 1.24862, 1.24972, 1.23295, 1.26137, 1.30004, 1.36985, 1.36463, 1.37034, 1.3404, 1.31121, 1.31067, 1.35033, 1.35825, 1.34747, 1.31986, 1.26115, 1.28229, 1.32298, 1.30941, 1.39928, 1.29361, 1.22922, 1.20555, 1.20956, 1.17086, 1.16029, 1.16842, 1.16797, 1.02863, 1.0808, 1.12217, 0.950129, 1.10445, 1.10317, 1.1753, 0.969884, 1.16012, 1.08706, 0.990477, 1.4027, 0.997658, 0.999216, 1.0022, 1.49209, 0.98274, 1.23371, 1.49174, 1.27423, 1.178, 1.16878, 1.05002, 1.05131, 1.05936, 1.0595, 1.20525, 1.03852, 1.03869, 1.03784, 1.23999, 1.24046, 1.39913, 1.60596, 1.07837, 1.08889, 1.08982, 1.0875, 1.08629, 1.08649, 1.08621, 1.15343, 1.08827, 1.08929, 1.09206, 1.24514, 1.03358, 1.03806, 1.04158, 1.04235
0.908581, 0.911856, 0.911685, 0.911781, 0.911241, 0.910836, 0.903275, 0.902908, 0.90255, 0.901441, 0.900432, 0.902216, 0.887568, 0.895218, 0.894232, 0.893846, 0.895126, 1.02728, 1.10921, 0.975188, 0.98597, 0.900127, 0.898808, 0.898447, 0.901866, 0.902942, 0.902208, 0.905043, 0.906374, 0.908543, 0.910053, 0.911875, 0.91352, 0.913316, 0.912594, 0.916719, 1.02935, 1.12309, 1.10421, 1.20916, 0.937821, 1.08958, 1.39548, 1.48491, 1.09297, 1.04298, 1.06778, 1.13733, 0.93231, 0.935573, 0.936102, 0.921523, 0.921045, 0.918921, 0.918695, 0.924553, 0.908984, 0.935119, 0.978074, 0.953269, 0.989461, 1.03635, 1.0388, 1.13288, 1.13332, 1.11519, 1.11864, 1.11837, 1.15149, 1.23619, 1.2367, 1.32256, 1.26166, 1.28806, 1.37515, 1.2847, 1.32144, 1.37583, 1.37361, 1.37171, 1.31069, 1.36352, 1.36194, 1.34684, 1.36705, 1.39301, 1.36981, 1.30411, 1.29617, 1.32707, 1.34128, 1.34353, 1.25323, 1.25411, 1.27845, 1.20733, 1.20591, 1.18851, 1.11884, 1.12523, 1.07055, 1.003, 0.988643, 1.10122, 1.1044, 1.10415, 1.08772, 1.1783, 1.1599, 0.990554, 0.991071, 0.991493, 0.996798, 0.999783, 0.994594, 0.991387, 1.11542, 1.35616, 1.01887, 1.02144, 1.23118, 1.31323, 1.05052, 1.05002, 1.05797, 1.05967, 1.11374, 1.03944, 1.0402, 1.0371, 1.23932, 1.86794, 1.19516, 1.6124, 1.08938, 1.09294, 1.09408, 1.09461, 1.09423, 1.13699, 1.08321, 1.0804, 1.44766, 1.08438, 1.08002, 1.03621, 1.03378, 1.03889, 1.04897, 1.05253
0.911386, 0.91073, 0.910327, 0.909157, 0.911718, 0.90268, 0.903246, 0.901913, 0.900442, 0.900755, 0.897234, 0.886443, 0.887291, 0.891803, 0.892789, 0.896017, 1.45362, 1.09937, 0.926321, 0.89589, 0.898332, 0.898171, 0.898585, 0.900456, 0.901143, 0.901224, 0.901171, 0.906012, 0.907706, 0.908548, 0.909933, 0.912563, 0.913399, 1.22261, 0.918251, 1.02207, 1.31285, 0.99411, 0.992624, 1.36766, 1.08163, 1.07825, 0.988809, 0.988411, 0.987177, 1.03682, 1.0596, 1.07026, 0.922487, 0.920671, 0.922189, 0.921246, 0.921305, 0.918401, 0.922754, 0.925635, 0.955376, 0.995027, 0.972975, 0.956586, 0.991325, 1.00962, 1.08982, 1.12966, 1.15514, 1.12646, 1.11948, 1.16403, 1.18105, 1.23958, 1.3301, 1.33388, 1.3018, 1.35602, 1.35429, 1.36349, 1.34409, 1.39324, 1.38083, 1.35462, 1.31644, 1.33236, 1.39895, 1.37834, 1.37458, 1.37125, 1.35302, 1.3554, 1.34444, 1.33104, 1.34029, 1.34871, 1.28538, 1.26737, 1.25523, 1.25301, 1.22512, 1.22448, 1.22499, 1.09705, 1.09466, 1.014, 0.99488, 1.11646, 1.09454, 0.96725, 1.0808, 0.981165, 1.4023, 0.98978, 1.41865, 1.07945, 0.998331, 0.997249, 0.995509, 1.00142, 1.22065, 1.22371, 1.25207, 1.02076, 1.26546, 1.30136, 1.04911, 1.05053, 1.05442, 1.3148, 1.04613, 1.05329, 1.07465, 1.06042, 1.20829, 1.41894, 1.3623, 1.36232, 1.15181, 1.09108, 1.09255, 1.09501, 1.13308, 1.25791, 1.27451, 1.27474, 1.07703, 1.07015, 1.24427, 1.03614, 1.03564, 1.04673, 1.05031, 1.05121
0.909979, 0.908637, 0.907646, 0.90771, 0.904276, 0.903932, 0.900947, 0.899683, 0.902448, 0.897271, 0.894861, 0.890973, 0.892011, 0.893228, 0.89595, 1.33947, 1.1332, 0.931738, 0.89905, 0.898572, 0.897912, 0.897464, 0.897318, 0.899869, 0.899402, 0.901755, 0.904764, 0.906078, 0.911037, 0.912139, 0.917798, 0.919041, 0.917743, 1.21908, 1.12265, 1.22368, 1.22226, 1.06429, 1.05705, 0.987285, 0.987483, 0.982171, 0.98762, 0.988004, 0.987591, 1.27147, 0.925694, 0.921595, 0.921066, 0.920007, 0.922014, 0.91954, 0.91533, 0.919759, 0.929639, 0.927049, 0.95446, 1.00943, 0.970298, 0.96808, 0.990356, 1.02574, 1.13651, 1.15856, 1.22663, 1.20729, 1.15947, 1.26034, 1.1834, 1.29029, 1.32, 1.32832, 1.31964, 1.39814, 1.39231, 1.37907, 1.38232, 1.3846, 1.4262, 1.4548, 1.3348, 1.35931, 1.36011, 1.35979, 1.37496, 1.41424, 1.40642, 1.39505, 1.33955, 1.43155, 1.43306, 1.37867, 1.301, 1.28935, 1.2927, 1.26212, 1.28561, 1.22521, 1.17249, 1.16466, 1.20207, 1.2089, 1.09142, 1.11599, 1.09162, 1.09315, 1.08088, 0.98102, 1.07043, 1.07215, 1.07477, 1.38328, 1.15684, 1.09592, 0.996401, 1.00086, 1.00231, 1.26843, 1.19415, 1.28908, 1.26366, 1.03672, 1.1713, 1.05104, 1.05342, 1.05084, 1.13906, 1.15398, 1.1616, 1.07209, 1.0774, 1.34534, 1.08725, 1.08815, 1.0888, 1.16264, 1.25109, 1.21439, 1.46001, 1.18399, 1.70063, 1.21383, 1.21853, 1.28241, 1.03501, 1.03779, 1.04096, 1.24871, 1.05348, 1.05356
0.908381, 0.908577, 0.904993, 0.904299, 0.902868, 0.901825, 0.898032, 0.897309, 0.897744, 0.896869, 0.89173, 0.892299, 0.891662, 1.38632, 1.4643, 0.934488, 0.934207, 0.931258, 0.899536, 0.897246, 0.897244, 0.897062, 1.16902, 0.909515, 1.15341, 0.904838, 0.908669, 0.909965, 0.915362, 0.921155, 0.921208, 0.918691, 1.08352, 1.21687, 1.16988, 0.982593, 0.979614, 0.987367, 0.987433, 0.987124, 0.987552, 0.981619, 1.0809, 1.02268, 1.26438, 0.925673, 0.923511, 0.921362, 0.921031, 0.920982, 0.920464, 0.917882, 0.919479, 0.91811, 0.937931, 0.931999, 1.03311, 1.06742, 1.01812, 0.965492, 0.987797, 1.01196, 1.08106, 1.09395, 1.22729, 1.25682, 1.26, 1.25537, 1.21314, 1.23087, 1.32929, 1.31524, 1.33358, 1.37745, 1.39807, 1.39215, 1.39023, 1.41222, 1.43801, 1.43944, 1.40642, 1.36351, 1.36156, 1.38242, 1.38714, 1.40224, 1.42026, 1.43646, 1.44393, 1.47065, 1.42879, 1.38896, 1.31283, 1.30243, 1.30145, 1.30244, 1.32721, 1.35351, 1.21159, 1.17857, 1.1293, 1.22378, 1.25989, 1.29244, 1.09246, 1.09257, 1.07431, 1.07194, 1.15031, 1.076, 1.07682, 1.15565, 1.11264, 0.994705, 0.994041, 0.999504, 1.00079, 1.002, 1.17351, 1.28851, 1.03248, 1.19923, 1.20018, 1.05264, 1.05433, 1.05231, 1.14469, 1.15348, 1.42396, 1.15314, 1.15311, 1.09229, 1.09165, 1.09011, 1.24487, 1.24549, 1.16192, 1.43296, 1.18308, 1.256, 1.20461, 1.43934, 1.41225, 1.25365, 1.0427, 1.0424, 1.0402, 1.23991, 1.05147, 1.06748
0.907984, 0.906544, 0.903003, 0.902661, 0.899277, 0.895746, 0.896756, 0.894456, 0.894493, 0.891847, 0.891944, 0.892771, 0.892591, 1.06343, 0.926824, 0.93488, 0.935062, 0.89638, 0.897076, 0.896372, 0.896352, 1.23771, 1.16141, 0.908465, 1.28861, 0.908698, 0.910382, 0.919846, 0.921534, 0.924613, 0.924832, 1.0473, 1.04714, 1.07563, 0.960449, 1.20733, 1.02702, 0.986364, 0.987287, 1.08572, 1.00807, 0.928544, 0.929613, 1.16319, 1.13292, 0.923568, 0.922295, 0.921409, 0.920562, 0.919786, 0.915556, 0.915562, 0.920844, 0.908847, 0.907747, 1.02806, 1.02885, 1.10133, 1.01257, 1.01232, 1.03069, 1.04601, 1.06141, 1.10224, 1.18603, 1.29215, 1.31673, 1.30991, 1.30091, 1.29987, 1.32537, 1.32036, 1.32342, 1.36964, 1.36972, 1.39305, 1.40184, 1.48464, 1.44886, 1.49562, 1.40134, 1.38267, 1.45777, 1.38027, 1.43275, 1.45368, 1.45798, 1.47658, 1.45218, 1.4432, 1.43446, 1.41089, 1.36938, 1.32228, 1.33887, 1.34681, 1.34055, 1.34777, 1.23819, 1.22417, 1.21177, 1.20349, 1.18883, 1.06116, 1.08881, 1.0845, 0.984847, 1.08042, 1.07833, 1.07722, 1.15017, 1.14982, 1.15792, 0.994046, 0.995537, 0.998724, 1.00045, 1.00904, 1.19472, 1.18533, 1.20888, 1.33112, 1.34053, 1.04972, 1.05471, 1.15117, 1.15624, 1.42189, 1.66232, 1.42786, 1.09289, 1.09311, 1.0919, 1.24444, 1.21527, 1.21473, 1.4263, 1.79423, 1.05387, 1.51261, 1.03404, 1.03549, 1.03648, 1.03936, 1.04323, 1.04067, 1.0402, 1.04415, 1.04464, 1.0502
0.904142, 0.901148, 0.900424, 0.898359, 0.89732, 0.894566, 0.893276, 0.893882, 0.893807, 0.89306, 0.890928, 1.48389, 0.922748, 0.925045, 0.931852, 0.927966, 0.896622, 0.897633, 0.898208, 0.896497, 0.892564, 0.886496, 0.888555, 1.35689, 1.19564, 1.19705, 0.91487, 0.918331, 0.922584, 0.923986, 1.11861, 1.04959, 1.05034, 0.959249, 0.959431, 1.11924, 0.977017, 1.0714, 1.15028, 1.15596, 0.931383, 0.928979, 0.929458, 0.927529, 0.923019, 0.922464, 0.921713, 0.92126, 0.921305, 1.04652, 0.915878, 0.916589, 0.914545, 0.9128, 0.912225, 1.02817, 1.09667, 1.09879, 1.07669, 1.04776, 1.02347, 1.05131, 1.06751, 1.11016, 1.21412, 1.34902, 1.32898, 1.36717, 1.30418, 1.31353, 1.3214, 1.32166, 1.3383, 1.46101, 1.38179, 1.40304, 1.43162, 1.46902, 1.46988, 1.47145, 1.44771, 1.4349, 1.44808, 1.44422, 1.47507, 1.47287, 1.51779, 1.50706, 1.48827, 1.49611, 1.45188, 1.41623, 1.38498, 1.34785, 1.35854, 1.36676, 1.36683, 1.34689, 1.25685, 1.24385, 1.21224, 1.23658, 1.14051, 1.07746, 1.08181, 1.08361, 1.07874, 0.966805, 0.968808, 0.967743, 0.967972, 1.09144, 1.18121, 0.991402, 0.994663, 1.0009, 1.00338, 1.34321, 1.25291, 1.3109, 1.19195, 1.20571, 1.04878, 1.05691, 1.05685, 1.17051, 1.17323, 1.15296, 1.12989, 1.12967, 1.09408, 1.09577, 1.2339, 1.11853, 1.07136, 1.41498, 1.23666, 1.04506, 1.04159, 1.04048, 1.03882, 1.03537, 1.036, 1.0379, 1.03945, 1.0391, 1.04177, 1.04306, 1.04619, 1.05031
0.901319, 0.898416, 0.897391, 0.896094, 0.895206, 0.892609, 0.890236, 0.891511, 0.891768, 0.891078, 1.01922, 1.45264, 0.922525, 0.923974, 0.931749, 1.03389, 0.897759, 0.897187, 0.898336, 0.892437, 0.906829, 0.887251, 0.91115, 0.911617, 0.91195, 0.911491, 0.914377, 0.916295, 0.920067, 0.922748, 0.974018, 1.07818, 1.05653, 0.955896, 1.02168, 1.12671, 1.14679, 1.14723, 1.14866, 0.931654, 0.930864, 0.929524, 0.92449, 0.925443, 0.92506, 0.921851, 0.919714, 0.919393, 0.911178, 0.912211, 0.913401, 0.897622, 0.938836, 0.952884, 0.999608, 0.947384, 1.06157, 1.16825, 1.17095, 1.07192, 1.07115, 1.08806, 1.08755, 1.19427, 1.23985, 1.33717, 1.34746, 1.37002, 1.33319, 1.37788, 1.31703, 1.3661, 1.36412, 1.37556, 1.40912, 1.41765, 1.47901, 1.47683, 1.51078, 1.51052, 1.49836, 1.51708, 1.44996, 1.44886, 1.46814, 1.48966, 1.50967, 1.50918, 1.53442, 1.61575, 1.4718, 1.44171, 1.44007, 1.41108, 1.43036, 1.39266, 1.37132, 1.33794, 1.28959, 1.30328, 1.20334, 1.23922, 1.11951, 1.07169, 1.10058, 1.07929, 1.08105, 0.96706, 0.964902, 0.968864, 0.968969, 0.963316, 1.07841, 0.989698, 0.998214, 1.00279, 1.00878, 1.2565, 1.30186, 1.21887, 1.20579, 1.53863, 1.34303, 1.16688, 1.16249, 1.1235, 1.13335, 1.12519, 1.118, 1.14542, 1.23623, 1.17891, 1.23505, 1.24098, 1.0664, 1.06665, 1.05297, 1.24493, 1.04315, 1.0408, 1.03768, 1.03543, 1.03449, 1.03499, 1.0401, 1.04115, 1.04071, 1.04441, 1.04751, 1.04974
0.899657, 0.897897, 0.894588, 0.893159, 0.891476, 0.892379, 0.891523, 0.891032, 0.891601, 1.07751, 0.913541, 0.913133, 0.912761, 0.912462, 1.20931, 0.904422, 0.899548, 0.900816, 0.900764, 0.900584, 1.1211, 0.911175, 0.911115, 0.911196, 0.911076, 0.91171, 0.91448, 1.10531, 0.930735, 0.944246, 0.943718, 0.951926, 1.05335, 1.19654, 0.957503, 0.96323, 1.19391, 1.14129, 0.963608, 0.931034, 1.12356, 1.22334, 0.923707, 0.92449, 0.923556, 0.920514, 0.919592, 0.912807, 0.911537, 0.911477, 0.913831, 0.884511, 0.8841, 0.899055, 0.974218, 0.990741, 1.03552, 1.16847, 1.25421, 1.18834, 1.16052, 1.1338, 1.17056, 1.17467, 1.21616, 1.30767, 1.32654, 1.4022, 1.37452, 1.38836, 1.35573, 1.38424, 1.365, 1.40271, 1.43758, 1.424, 1.46516, 1.50426, 1.51289, 1.51735, 1.52785, 1.50327, 1.51579, 1.50159, 1.50278, 1.56499, 1.5716, 1.50874, 1.50396, 1.51698, 1.49846, 1.45196, 1.46239, 1.44078, 1.44662, 1.47536, 1.42096, 1.42002, 1.28603, 1.28588, 1.20471, 1.21529, 1.17788, 1.09565, 1.06071, 1.10467, 1.10566, 1.11153, 1.09807, 0.967941, 0.968254, 0.963424, 0.96339, 0.990925, 0.998956, 1.00888, 1.01133, 1.27822, 1.17789, 1.20871, 1.04339, 1.04402, 1.41633, 1.20678, 1.13955, 1.33248, 1.12363, 1.11951, 1.12213, 1.2049, 1.22989, 1.10303, 1.19388, 1.29585, 1.31204, 1.47893, 1.05705, 1.05431, 1.04716, 1.04112, 1.03578, 1.03508, 1.03665, 1.04105, 1.04119, 1.04026, 1.04333, 1.04679, 1.0487, 1.04997
0.894471, 0.89445, 0.894096, 0.89366, 0.892441, 0.891633, 0.891834, 0.891915, 1.07116, 0.916058, 0.914125, 0.912699, 0.911627, 0.91164, 0.90601, 0.901616, 0.89899, 0.899699, 0.90065, 0.901146, 0.912272, 1.13765, 1.14107, 1.13553, 0.909544, 0.912482, 0.918658, 0.921071, 0.930176, 0.9426, 0.943161, 1.20072, 0.91827, 1.24706, 0.931349, 1.02627, 0.96639, 1.08038, 1.0846, 1.02564, 1.06011, 0.917594, 0.917465, 0.919949, 0.918833, 0.919151, 0.912908, 0.913258, 0.911074, 0.910169, 0.914901, 0.90851, 0.950647, 0.956484, 0.982744, 0.968159, 1.05359, 1.13116, 1.26399, 1.28828, 1.30227, 1.21318, 1.21191, 1.1915, 1.22716, 1.27494, 1.34534, 1.39896, 1.39085, 1.40007, 1.40617, 1.40667, 1.40396, 1.47082, 1.42202, 1.59525, 1.47994, 1.50658, 1.51364, 1.51239, 1.51023, 1.52947, 1.56518, 1.6167, 1.51751, 1.58127, 1.57272, 1.52992, 1.51139, 1.51845, 1.57929, 1.48097, 1.43327, 1.42486, 1.42728, 1.41083, 1.42973, 1.32342, 1.3027, 1.27517, 1.26788, 1.26804, 1.17707, 1.11972, 1.06644, 1.20506, 1.20599, 1.10117, 1.12907, 1.08696, 0.998716, 1.04434, 1.18933, 1.27454, 1.00631, 1.00938, 1.01134, 1.1781, 1.14797, 1.04263, 1.04315, 1.13382, 1.3561, 1.39591, 1.11324, 1.12564, 1.12636, 1.1995, 1.20279, 1.20501, 1.16637, 1.17467, 1.24551, 1.20229, 1.07695, 1.07193, 1.38113, 1.05927, 1.05553, 1.03796, 1.03491, 1.0356, 1.03626, 1.04113, 1.04343, 1.04438, 1.04501, 1.04789, 1.04812, 1.05001
0.894884, 0.894732, 0.893009, 0.891826, 0.891608, 0.892177, 0.893152, 0.942378, 1.0703, 0.916788, 0.915235, 0.912895, 0.910822, 0.906899, 0.899871, 0.897518, 0.897333, 0.90031, 0.900732, 0.903939, 0.903514, 1.15282, 0.908044, 0.907, 0.908646, 0.988129, 0.91625, 0.942851, 0.935719, 0.937068, 0.915143, 0.918528, 0.917849, 0.918532, 0.918935, 1.06387, 1.10473, 1.10899, 0.915142, 0.915248, 0.914151, 0.914876, 0.915491, 0.91897, 0.917595, 0.912447, 0.908655, 0.908131, 0.907052, 0.907861, 0.939117, 0.911683, 0.922411, 0.963349, 0.985254, 0.990974, 1.01932, 1.13231, 1.28967, 1.29072, 1.2987, 1.24104, 1.20131, 1.20537, 1.23678, 1.29836, 1.34493, 1.3887, 1.41715, 1.40052, 1.4, 1.41691, 1.42693, 1.4726, 1.45328, 1.5232, 1.4941, 1.55559, 1.56306, 1.52946, 1.53086, 1.64565, 1.54651, 1.58887, 1.56145, 1.50558, 1.50559, 1.57824, 1.51466, 1.52569, 1.52506, 1.48319, 1.43445, 1.4304, 1.43683, 1.4131, 1.47802, 1.44106, 1.3173, 1.30186, 1.28301, 1.20662, 1.21849, 1.15448, 1.1562, 1.09421, 1.17849, 1.11651, 1.1436, 1.08754, 0.981472, 1.00575, 1.18991, 1.07501, 1.00714, 1.01015, 1.10361, 1.4375, 1.03895, 1.04179, 1.04251, 1.14654, 1.20311, 1.21432, 1.1115, 1.41599, 1.12611, 1.12739, 1.11459, 1.15157, 1.15788, 1.41701, 1.18175, 1.62842, 1.07836, 1.07095, 1.07051, 1.15846, 1.04564, 1.04509, 1.03377, 1.03585, 1.04009, 1.04323, 1.04387, 1.04574, 1.04739, 1.04994, 1.05103, 1.05358
0.89632, 0.895036, 0.89243, 0.892064, 0.892292, 0.973151, 0.938956, 0.942172, 0.934085, 0.916933, 0.916214, 0.914278, 0.907476, 0.90465, 0.899691, 0.898594, 0.89373, 0.899678, 0.901134, 0.903216, 0.905559, 0.906103, 0.906166, 0.907371, 0.909123, 0.931239, 0.931082, 0.926309, 0.909512, 0.91198, 0.91445, 0.917055, 0.916528, 0.918379, 1.06121, 1.16791, 0.914652, 0.911967, 0.911536, 0.91104, 0.91213, 0.91452, 0.94224, 0.920073, 0.914933, 0.910525, 0.910212, 0.906099, 0.905026, 0.932471, 0.933398, 0.907567, 0.981932, 0.984671, 1.00456, 1.0048, 1.14683, 1.04993, 1.16343, 1.26994, 1.29448, 1.30212, 1.26295, 1.24967, 1.29244, 1.30878, 1.40914, 1.40167, 1.44088, 1.43097, 1.43485, 1.50893, 1.46892, 1.47329, 1.47138, 1.4681, 1.5656, 1.55786, 1.55894, 1.65095, 1.65005, 1.68578, 1.65177, 1.54738, 1.57197, 1.58127, 1.58854, 1.58836, 1.51463, 1.61462, 1.54343, 1.49517, 1.48092, 1.45041, 1.43167, 1.43155, 1.40879, 1.4166, 1.3696, 1.36205, 1.28844, 1.29857, 1.207, 1.15509, 1.18786, 1.14386, 1.11473, 1.13797, 1.03245, 1.08501, 0.982257, 1.07848, 1.07613, 1.10061, 1.10576, 1.00973, 1.16703, 1.03575, 1.04024, 1.04093, 1.14671, 1.2062, 1.28276, 1.12214, 1.12137, 1.11936, 1.20589, 1.17271, 1.17142, 1.1751, 1.13339, 1.09694, 1.09578, 1.09157, 1.41483, 1.07596, 1.0561, 1.0503, 1.04594, 1.04584, 1.0427, 1.03885, 1.04219, 1.04311, 1.04521, 1.04899, 1.04962, 1.05155, 1.05329, 1.07783
0.896324, 0.910512, 0.892795, 0.892756, 0.921854, 0.923005, 0.93165, 0.933481, 0.93637, 0.937655, 1.12462, 1.05213, 1.10457, 0.906063, 0.90317, 0.898144, 0.899843, 0.90175, 0.90199, 0.904128, 0.906185, 0.906766, 0.908272, 0.912361, 0.9077, 0.907152, 0.907843, 0.908959, 0.909011, 0.911252, 0.914292, 0.914057, 0.914633, 0.914438, 0.912411, 0.912409, 0.9118, 0.911128, 0.912149, 0.913844, 0.915648, 0.942318, 0.942497, 0.916243, 0.915369, 0.9087, 0.907677, 0.901211, 0.904948, 0.908178, 0.916623, 0.899216, 0.998372, 1.02186, 1.06029, 1.02804, 1.03221, 1.0874, 1.13314, 1.22661, 1.32189, 1.40972, 1.3834, 1.27857, 1.28163, 1.39867, 1.37094, 1.38596, 1.47635, 1.45235, 1.5324, 1.46134, 1.56931, 1.56836, 1.54248, 1.53854, 1.57564, 1.55803, 1.56007, 1.55484, 1.69577, 1.66248, 1.66285, 1.547, 1.5853, 1.58521, 1.53529, 1.58989, 1.59311, 1.53908, 1.53875, 1.50639, 1.50412, 1.45251, 1.43637, 1.47003, 1.46869, 1.4314, 1.34414, 1.35907, 1.32016, 1.35759, 1.20104, 1.25486, 1.19485, 1.16789, 1.21156, 1.18267, 1.14488, 1.032, 0.98283, 0.984074, 1.00584, 1.29022, 1.04766, 1.00786, 1.01487, 1.21756, 1.21602, 1.05474, 1.14353, 1.53692, 1.1503, 1.12136, 1.12261, 1.11923, 1.16885, 1.43758, 1.17613, 1.17763, 1.0926, 1.18206, 1.17184, 1.14989, 1.14834, 1.05845, 1.05844, 1.05103, 1.0459, 1.04737, 1.42045, 1.04647, 1.04454, 1.04566, 1.04597, 1.04956, 1.05034, 1.05686, 1.06056, 1.06892
1.0865, 0.909646, 0.908744, 0.917434, 0.923088, 0.924118, 0.930778, 0.932744, 1.12921, 1.11602, 0.900749, 0.90223, 0.904435, 0.904784, 0.903851, 0.900758, 0.903384, 0.902296, 0.905532, 0.905937, 0.906437, 0.904691, 0.904829, 0.90442, 0.907127, 0.906365, 0.906951, 0.908254, 0.909083, 0.910468, 0.914559, 0.912773, 0.914387, 0.912693, 0.912285, 0.907796, 0.910633, 0.912666, 1.20381, 1.21174, 0.935373, 0.935829, 0.933941, 0.918118, 0.909064, 0.906862, 0.904176, 0.902877, 0.905489, 0.910464, 0.915722, 0.914526, 0.994075, 1.05707, 1.08321, 1.11259, 1.06119, 1.10208, 1.16589, 1.22838, 1.30807, 1.37254, 1.37784, 1.32998, 1.34999, 1.36032, 1.44428, 1.46803, 1.46421, 1.46408, 1.53965, 1.5384, 1.57938, 1.5761, 1.54697, 1.56209, 1.57974, 1.58035, 1.57914, 1.58832, 1.59571, 1.59255, 1.57931, 1.57044, 1.58876, 1.58934, 1.58123, 1.54354, 1.5969, 1.54001, 1.54678, 1.50424, 1.52385, 1.55072, 1.45302, 1.47026, 1.47523, 1.43044, 1.36292, 1.36397, 1.3663, 1.28541, 1.28812, 1.18711, 1.24395, 1.20502, 1.13756, 1.14392, 1.08586, 1.02567, 1.02614, 0.981287, 1.01915, 0.999041, 1.04263, 1.30897, 1.16818, 1.22679, 1.05277, 1.05631, 1.2097, 1.12662, 1.16283, 1.12103, 1.15804, 1.11034, 1.37291, 1.18932, 1.37266, 1.09033, 1.08973, 1.08633, 1.08107, 1.07558, 1.06699, 1.06478, 1.05779, 1.04935, 1.29835, 1.05239, 1.04898, 1.04709, 1.04718, 1.04727, 1.04653, 1.05232, 1.05413, 1.06716, 1.06905, 1.06981
0.9052, 0.898631, 0.964494, 1.07157, 0.894805, 0.895096, 0.982813, 0.905429, 0.90822, 0.901502, 0.899841, 0.901167, 0.905674, 0.90644, 0.902194, 0.90105, 0.905774, 0.907965, 0.907908, 0.906585, 0.904496, 0.904267, 0.904703, 0.904749, 0.906315, 0.907269, 0.908845, 0.908393, 0.908854, 0.908478, 0.912143, 0.912415, 0.913205, 0.911038, 0.910308, 0.90826, 1.19811, 1.20272, 1.21621, 0.936709, 0.935428, 0.935345, 1.03077, 0.915443, 0.908423, 0.904311, 0.90393, 0.90413, 0.914303, 0.920266, 0.919347, 0.90468, 1.02907, 1.10883, 1.16396, 1.17581, 1.17351, 1.17058, 1.16234, 1.31936, 1.29173, 1.31334, 1.36399, 1.39093, 1.45438, 1.44862, 1.46758, 1.47236, 1.46411, 1.51104, 1.46911, 1.54125, 1.52547, 1.57468, 1.58231, 1.59632, 1.58523, 1.57671, 1.57085, 1.60717, 1.61653, 1.69059, 1.57482, 1.55078, 1.53356, 1.52453, 1.53115, 1.55191, 1.59564, 1.58091, 1.53745, 1.49978, 1.51763, 1.51527, 1.5037, 1.42578, 1.41237, 1.40979, 1.40434, 1.39806, 1.3671, 1.27712, 1.24095, 1.23624, 1.21742, 1.22058, 1.1481, 1.10731, 1.14019, 1.05069, 1.05598, 1.19534, 0.999057, 0.957054, 0.960997, 1.25088, 1.38634, 1.38126, 1.05718, 1.18544, 1.15354, 1.14424, 1.25492, 1.15356, 1.15692, 1.15317, 1.0949, 1.09022, 1.09003, 1.09176, 1.09867, 1.08433, 1.07944, 1.07674, 1.07336, 1.06497, 1.05829, 1.05398, 1.15193, 1.15719, 1.04662, 1.04753, 1.04874, 1.04431, 1.044, 1.1987, 1.15702, 1.16953, 1.32008, 1.20503
0.893923, 0.894061, 0.89404, 0.896309, 0.894204, 0.895023, 0.898314, 0.89955, 0.90181, 0.904139, 0.900513, 0.898134, 0.89941, 0.902402, 0.903575, 0.905768, 0.907037, 0.907309, 0.907862, 0.904239, 0.905175, 0.905572, 0.90466, 0.907745, 0.907764, 0.907695, 0.907933, 0.909178, 0.906826, 0.905623, 0.908712, 0.911527, 0.911364, 0.911493, 0.911086, 1.19574, 0.932993, 0.935084, 0.934015, 0.935636, 0.936049, 0.926016, 0.912181, 0.910215, 0.904864, 0.901097, 0.903771, 0.914788, 0.9155, 0.920749, 0.905246, 0.937533, 1.0351, 1.17205, 1.17303, 1.16732, 1.19217, 1.20214, 1.17768, 1.3095, 1.32926, 1.28802, 1.36549, 1.42708, 1.45577, 1.44815, 1.4504, 1.45756, 1.50408, 1.50571, 1.49962, 1.53174, 1.56222, 1.5745, 1.60935, 1.60724, 1.58907, 1.58311, 1.59883, 1.59978, 1.59874, 1.59638, 1.60966, 1.56178, 1.53455, 1.52742, 1.566, 1.58547, 1.58017, 1.57859, 1.54776, 1.50726, 1.47643, 1.48141, 1.48128, 1.4615, 1.44039, 1.47183, 1.42644, 1.39513, 1.38289, 1.27464, 1.24317, 1.2416, 1.2302, 1.20476, 1.20801, 1.10302, 1.08201, 1.0569, 1.07164, 0.975796, 0.954576, 0.95575, 0.96357, 1.09113, 1.22517, 1.19254, 1.18214, 1.06282, 1.06517, 1.31242, 1.26489, 1.2541, 1.16754, 1.15354, 1.22654, 1.09082, 1.09155, 1.09461, 1.09361, 1.08507, 1.0836, 1.07691, 1.0745, 1.26427, 1.06152, 1.06486, 1.06429, 1.15843, 1.04727, 1.04688, 1.0423, 1.04242, 1.04237, 1.24497, 1.13735, 1.10652, 0.00446912, 1.05423
0.89351, 0.893664, 0.893478, 0.90468, 0.904542, 0.903098, 0.901253, 0.902432, 0.901913, 0.900042, 0.8999, 0.89783, 0.899982, 0.900946, 0.901905, 0.905162, 0.906282, 0.905, 0.904037, 0.904304, 0.904588, 0.905744, 0.911785, 0.911342, 0.909755, 0.909398, 0.909147, 0.908299, 0.908523, 0.908404, 0.908759, 0.914096, 0.916816, 0.917433, 0.92016, 0.929364, 0.932023, 0.933385, 1.1288, 0.924967, 1.13835, 0.914809, 0.914323, 0.921792, 0.923561, 0.902534, 0.918814, 0.91452, 0.894119, 0.938554, 0.949674, 0.925564, 0.987257, 1.10573, 1.16654, 1.25003, 1.25695, 1.20529, 1.19767, 1.25676, 1.3318, 1.31267, 1.40374, 1.4423, 1.44694, 1.45412, 1.45339, 1.45279, 1.49515, 1.50573, 1.5286, 1.53362, 1.63319, 1.62792, 1.62292, 1.62258, 1.59787, 1.58129, 1.57559, 1.59177, 1.5944, 1.65742, 1.65474, 1.60252, 1.63921, 1.57179, 1.66134, 1.58087, 1.5802, 1.58845, 1.57221, 1.56423, 1.47811, 1.47568, 1.50944, 1.47208, 1.44876, 1.49237, 1.42482, 1.39275, 1.36778, 1.31986, 1.30525, 1.27049, 1.20713, 1.19237, 1.19885, 1.09765, 1.09159, 1.07362, 1.05159, 0.970678, 0.970111, 0.96005, 0.967583, 0.968518, 1.40314, 1.07469, 1.19866, 1.05096, 1.05471, 1.05665, 1.26473, 1.28943, 1.3057, 1.30252, 1.28168, 1.28815, 1.27458, 1.27591, 1.09144, 1.09461, 1.08719, 1.08234, 1.07491, 1.07496, 1.06878, 1.06452, 1.06585, 1.50785, 1.03907, 1.03892, 1.03971, 1.16011, 1.15395, 1.18928, 1.5135, 1.13348, 1.05545, 1.05647
0.89229, 1.04326, 0.998509, 0.905579, 0.904391, 0.902018, 0.901247, 0.90088, 0.900893, 0.901101, 0.90062, 0.90041, 0.902113, 0.901406, 0.904904, 0.905233, 0.905064, 0.904455, 0.904699, 0.905881, 0.907514, 0.908302, 0.909623, 0.910095, 0.909367, 0.91003, 0.909232, 0.908249, 0.909094, 0.911417, 0.911042, 0.913461, 0.915566, 0.919211, 0.922031, 0.92413, 1.14784, 0.915825, 0.916713, 0.914262, 0.91352, 0.91388, 0.924896, 0.923136, 0.922796, 0.918615, 0.920021, 0.913959, 0.953255, 0.985326, 0.98651, 0.953694, 0.993193, 1.03443, 1.22946, 1.25104, 1.25079, 1.23725, 1.24568, 1.34277, 1.33985, 1.34009, 1.36088, 1.39527, 1.43668, 1.43713, 1.454, 1.45194, 1.58842, 1.59397, 1.56425, 1.55457, 1.58245, 1.60222, 1.61974, 1.61959, 1.59869, 1.59375, 1.58507, 1.59252, 1.59219, 1.63666, 1.63684, 1.62349, 1.61716, 1.60563, 1.66188, 1.62842, 1.62866, 1.58835, 1.5571, 1.54937, 1.49991, 1.54688, 1.59516, 1.53736, 1.48068, 1.44529, 1.41978, 1.37436, 1.35724, 1.35882, 1.29183, 1.30853, 1.24553, 1.18761, 1.19097, 1.12547, 1.14352, 1.13577, 1.14833, 1.17428, 0.966033, 0.959906, 0.961227, 0.968658, 1.20629, 1.2508, 1.04913, 1.04983, 1.3172, 1.26507, 1.30625, 1.43419, 1.27129, 1.57984, 1.57494, 1.14365, 1.07342, 1.67931, 1.10683, 1.10845, 1.11301, 1.08561, 1.08561, 1.07787, 1.06214, 1.06035, 1.04661, 1.04128, 1.03919, 1.03888, 1.05394, 1.15484, 1.12006, 1.25364, 1.12299, 1.13316, 1.05611, 1.05662
1.03735, 1.07721, 0.989237, 0.906964, 0.904164, 0.902155, 0.900951, 0.901144, 0.90104, 0.901393, 0.901339, 0.90085, 0.90253, 0.904917, 0.906433, 0.905236, 0.904454, 0.902361, 0.907449, 0.905261, 0.904996, 0.905507, 0.907989, 0.908364, 0.909013, 0.911018, 0.910411, 0.910031, 0.90872, 0.91053, 0.911026, 0.9142, 0.914258, 0.917966, 0.920753, 0.91605, 0.917248, 0.917299, 0.915587, 0.915472, 0.940214, 0.945053, 0.910197, 0.909961, 0.912321, 0.923404, 0.915894, 0.915182, 0.983064, 0.964913, 1.01545, 1.00213, 1.00079, 1.09155, 1.1093, 1.24931, 1.30579, 1.30102, 1.2808, 1.26572, 1.33014, 1.41188, 1.36187, 1.39254, 1.43327, 1.47266, 1.45824, 1.55713, 1.53908, 1.58531, 1.57071, 1.56089, 1.56137, 1.67707, 1.62052, 1.63711, 1.62536, 1.59486, 1.58524, 1.60436, 1.60982, 1.64041, 1.63886, 1.6238, 1.64594, 1.63938, 1.61355, 1.62203, 1.67572, 1.58549, 1.57799, 1.58626, 1.57953, 1.65851, 1.58809, 1.53988, 1.48327, 1.45084, 1.42526, 1.39097, 1.35758, 1.33806, 1.31368, 1.3541, 1.2664, 1.24211, 1.18128, 1.16493, 1.14465, 1.14476, 1.27182, 1.16241, 0.962116, 0.961499, 0.961562, 1.06166, 1.04883, 1.317, 1.26453, 1.26143, 1.21948, 1.43829, 1.43735, 1.03584, 1.04099, 1.04976, 1.2907, 1.3397, 1.35468, 1.31998, 1.23216, 1.11027, 1.11901, 1.08849, 1.08762, 1.08804, 1.08825, 1.08176, 1.04663, 1.04574, 1.14021, 1.05687, 1.05501, 1.05495, 1.12345, 1.27885, 1.2356, 1.12573, 1.15322, 1.14833
0.916015, 0.914428, 0.913525, 0.900472, 0.900721, 0.900424, 0.900823, 0.900965, 0.901355, 0.899992, 0.899552, 0.899478, 0.900767, 0.901666, 0.906667, 0.90771, 0.913315, 0.91264, 0.907608, 0.904836, 0.905732, 0.907089, 0.906925, 0.907351, 0.908317, 0.908894, 0.910834, 0.910272, 0.910026, 0.910679, 0.913226, 0.913772, 0.91518, 0.91607, 0.917012, 0.915585, 0.91668, 0.916314, 0.91216, 0.909875, 0.907397, 0.907974, 0.908398, 0.912317, 0.912105, 0.923197, 0.918085, 0.967954, 0.98217, 1.01929, 1.02594, 1.00223, 1.00815, 1.08905, 1.11861, 1.29183, 1.32131, 1.29377, 1.29177, 1.33345, 1.34227, 1.34219, 1.38267, 1.41165, 1.51819, 1.51892, 1.47455, 1.49793, 1.60305, 1.62446, 1.58288, 1.5815, 1.6129, 1.64518, 1.62917, 1.64706, 1.65328, 1.61686, 1.62298, 1.62118, 1.66854, 1.64181, 1.63447, 1.69424, 1.6473, 1.64178, 1.62988, 1.62999, 1.64104, 1.61735, 1.57165, 1.5693, 1.6061, 1.66101, 1.556, 1.5729, 1.47799, 1.47773, 1.47422, 1.39585, 1.38313, 1.39366, 1.3762, 1.36825, 1.496, 1.2677, 1.20999, 1.20192, 1.18646, 1.29166, 1.14294, 1.12873, 1.02558, 1.02553, 0.971617, 1.15175, 1.06312, 1.14202, 1.1586, 1.21567, 1.01971, 1.42356, 1.49871, 1.03789, 1.65514, 1.42995, 1.32618, 1.26404, 1.30969, 1.23277, 1.10801, 1.10842, 1.16044, 1.08564, 1.08691, 1.08751, 1.33003, 1.10896, 1.0653, 1.12048, 1.09207, 1.05848, 1.05444, 1.05323, 1.21861, 1.61305, 1.31216, 1.0997, 1.28475, 1.0779
0.916643, 0.915381, 0.981853, 0.899287, 0.898835, 0.900295, 0.898423, 0.897213, 0.893866, 0.893791, 0.894275, 0.895048, 0.899915, 0.900457, 0.900516, 0.912452, 0.913662, 0.906278, 0.904962, 0.905009, 0.906583, 0.906168, 0.908718, 0.907534, 0.907945, 0.909044, 0.910004, 0.910155, 0.909719, 0.911814, 0.9126, 0.913208, 0.917041, 0.916973, 0.918137, 0.911517, 0.914498, 0.914052, 0.911424, 0.910285, 0.906611, 0.911898, 0.910926, 0.914077, 0.914357, 0.91478, 0.94433, 0.998114, 1.01565, 1.01737, 1.06316, 1.04557, 1.06716, 1.09423, 1.13469, 1.23843, 1.30883, 1.37085, 1.374, 1.37224, 1.37202, 1.35916, 1.38125, 1.39701, 1.41812, 1.48646, 1.49718, 1.50882, 1.60979, 1.60753, 1.59932, 1.59126, 1.59071, 1.65863, 1.65733, 1.68844, 1.67947, 1.66111, 1.62297, 1.64472, 1.63505, 1.64773, 1.63037, 1.62774, 1.648, 1.64922, 1.64588, 1.6548, 1.63676, 1.64429, 1.61105, 1.60639, 1.60625, 1.6066, 1.59604, 1.52401, 1.52158, 1.49958, 1.45716, 1.40016, 1.39463, 1.3936, 1.43739, 1.47601, 1.35896, 1.34124, 1.2254, 1.21176, 1.21312, 1.17591, 1.12731, 1.13975, 1.14572, 1.14753, 0.978809, 0.980054, 1.06305, 1.00624, 1.00771, 1.20961, 1.50474, 1.50329, 1.50235, 1.43337, 1.27886, 1.18985, 1.14407, 1.14647, 1.67485, 1.23336, 1.49092, 1.14527, 1.30894, 1.08421, 1.08569, 1.08496, 1.08385, 1.07884, 1.07775, 1.07529, 1.08845, 1.06455, 1.06582, 1.34315, 1.25435, 1.16131, 1.09836, 1.0996, 1.0916, 1.09206
0.917929, 0.899125, 0.899108, 0.898843, 0.898508, 0.895453, 0.897648, 0.891497, 0.893358, 0.893072, 0.895623, 0.898772, 0.899885, 0.901206, 0.902135, 0.902474, 0.902743, 0.902502, 0.904526, 0.904933, 0.906445, 0.907447, 0.907719, 0.908272, 0.907889, 0.908059, 0.910011, 0.908905, 0.909216, 0.910925, 0.913105, 0.913277, 0.919453, 0.91485, 0.91484, 0.914544, 0.913433, 0.912726, 0.912339, 0.911928, 0.911997, 1.05764, 0.916168, 0.911498, 0.908578, 0.901672, 0.920968, 0.997345, 1.04024, 1.09762, 1.17285, 1.09317, 1.08353, 1.08361, 1.12964, 1.24799, 1.25027, 1.37942, 1.30545, 1.36767, 1.35714, 1.39644, 1.44732, 1.42337, 1.45098, 1.49435, 1.50901, 1.59326, 1.60448, 1.6035, 1.59592, 1.59144, 1.61639, 1.67741, 1.659, 1.68895, 1.68326, 1.66984, 1.65726, 1.63827, 1.63686, 1.64904, 1.64085, 1.62872, 1.64433, 1.65354, 1.63115, 1.63028, 1.63723, 1.69174, 1.63689, 1.61478, 1.62974, 1.66429, 1.5904, 1.58386, 1.5125, 1.48505, 1.46729, 1.42967, 1.44675, 1.4446, 1.52832, 1.44112, 1.41103, 1.34812, 1.23205, 1.21606, 1.20827, 1.20818, 1.10375, 1.19935, 1.12656, 1.17369, 1.09754, 0.997354, 0.98678, 1.08849, 1.00513, 1.33817, 1.4869, 1.07358, 1.49905, 1.31938, 1.05323, 1.05403, 1.14581, 1.14612, 1.07233, 1.11233, 1.30408, 1.51253, 1.08715, 1.08618, 1.08356, 1.08129, 1.08325, 1.07737, 1.07708, 1.08029, 1.08051, 1.06966, 1.06611, 1.40205, 1.13811, 1.27584, 1.1051, 1.09133, 1.09068, 1.09479
0.896869, 0.895651, 0.895728, 1.65676, 0.893406, 0.891355, 0.891754, 0.891034, 0.894052, 0.895879, 0.897154, 0.89903, 0.90033, 0.9013, 0.902896, 0.904299, 0.902398, 0.902401, 0.904851, 0.904964, 0.906639, 0.907286, 0.907418, 0.907908, 0.907743, 0.908635, 0.909431, 0.908909, 0.909844, 0.910208, 0.912968, 0.916122, 0.914379, 0.914204, 0.913446, 0.914969, 0.914852, 0.914847, 1.10992, 1.11622, 0.923542, 0.927163, 0.927179, 0.908025, 0.907832, 0.90071, 0.899893, 1.00056, 1.02627, 1.08752, 1.12632, 1.18063, 1.14384, 1.14438, 1.19751, 1.28787, 1.28579, 1.34177, 1.35231, 1.35753, 1.39898, 1.40519, 1.44091, 1.42486, 1.47276, 1.49199, 1.54772, 1.72073, 1.72011, 1.60621, 1.59594, 1.59429, 1.61726, 1.65365, 1.68188, 1.70832, 1.74749, 1.71848, 1.67303, 1.65963, 1.72847, 1.68218, 1.68803, 1.61965, 1.60897, 1.6078, 1.61067, 1.64273, 1.63551, 1.6922, 1.72994, 1.65268, 1.65409, 1.61438, 1.61277, 1.57275, 1.51628, 1.51648, 1.46863, 1.46796, 1.46743, 1.46704, 1.44548, 1.37036, 1.35094, 1.26734, 1.24045, 1.22639, 1.19442, 1.11672, 1.08586, 1.08769, 1.15482, 1.09893, 0.967999, 0.968647, 0.975139, 0.976393, 1.00575, 1.33894, 1.29454, 1.11908, 1.04834, 1.05167, 1.05375, 1.13989, 1.21002, 1.06491, 1.31107, 1.30917, 1.38574, 1.08623, 1.08701, 1.45403, 1.08157, 1.07722, 1.07503, 1.07522, 1.07734, 1.07947, 1.08822, 1.31605, 1.31761, 1.21309, 1.2312, 1.23091, 1.09111, 1.09212, 1.09049, 1.0944
0.894806, 0.895305, 1.07708, 0.890779, 0.890476, 0.890522, 0.891674, 0.893147, 0.894062, 0.897173, 0.897726, 0.899613, 0.900027, 0.90172, 0.902072, 0.904153, 0.904538, 0.904022, 0.903986, 0.905383, 0.905614, 0.907429, 0.907964, 0.907399, 0.907779, 0.908318, 0.909458, 0.906234, 0.911838, 0.916082, 0.910929, 0.914833, 0.914084, 0.914936, 0.917173, 0.917053, 0.922108, 0.926733, 0.926107, 0.928399, 0.926203, 0.928206, 0.90707, 0.908362, 0.907784, 0.894055, 0.978195, 1.00075, 1.04449, 1.09904, 1.17719, 1.19569, 1.22035, 1.20448, 1.21315, 1.23437, 1.35802, 1.35206, 1.47493, 1.47498, 1.40383, 1.45756, 1.45785, 1.47432, 1.48495, 1.62259, 1.62007, 1.63511, 1.724, 1.60884, 1.59672, 1.60368, 1.65438, 1.73059, 1.75173, 1.75119, 1.72795, 1.76003, 1.72716, 1.71059, 1.73284, 1.78339, 1.68977, 1.64826, 1.63751, 1.61362, 1.6126, 1.64202, 1.69562, 1.63749, 1.6539, 1.65235, 1.65764, 1.64966, 1.61382, 1.55295, 1.55174, 1.52728, 1.47977, 1.47801, 1.46471, 1.46309, 1.39686, 1.37432, 1.32268, 1.27879, 1.23289, 1.20842, 1.1677, 1.16899, 1.07704, 1.07588, 1.06027, 1.03375, 0.964245, 0.961226, 0.963905, 0.965171, 1.00838, 1.22716, 1.12241, 1.04077, 1.2041, 1.14038, 1.13944, 1.14117, 1.06322, 1.06486, 1.0707, 1.07243, 1.38148, 1.08618, 1.08515, 1.40831, 1.28767, 1.07119, 1.07329, 1.24375, 1.31111, 1.31147, 1.17446, 1.07476, 1.07676, 1.12884, 1.08683, 1.08829, 1.08898, 1.09073, 1.14662, 1.14821
0.895347, 0.894221, 0.885596, 0.884793, 1.2923, 1.30136, 0.893474, 0.894287, 0.899477, 0.898555, 0.898725, 0.899284, 0.904328, 0.902897, 0.904602, 0.905102, 0.903624, 0.902967, 0.905925, 0.905729, 0.904942, 0.905405, 0.905848, 0.906213, 0.906512, 0.909351, 0.909152, 0.91109, 0.912591, 0.914572, 0.911096, 0.911319, 0.915566, 0.916864, 0.917109, 0.916166, 0.914697, 0.928293, 0.928592, 0.927681, 0.926298, 0.925436, 0.90678, 0.910008, 0.911276, 0.937468, 0.967006, 0.990766, 1.07798, 1.14161, 1.17377, 1.28617, 1.26665, 1.2423, 1.2479, 1.26316, 1.27158, 1.32694, 1.46772, 1.51291, 1.51518, 1.50993, 1.47984, 1.53136, 1.65246, 1.62246, 1.62046, 1.58992, 1.60823, 1.60922, 1.63796, 1.61801, 1.68186, 1.68094, 1.71601, 1.78298, 1.74208, 1.73023, 1.75412, 1.7247, 1.72453, 1.79836, 1.71993, 1.67882, 1.73148, 1.75096, 1.74772, 1.67631, 1.6792, 1.72297, 1.65424, 1.65399, 1.70766, 1.69239, 1.61332, 1.66234, 1.55368, 1.52395, 1.49258, 1.49192, 1.46384, 1.46439, 1.44649, 1.38169, 1.35084, 1.23942, 1.23826, 1.20753, 1.17859, 1.13167, 1.08174, 1.07105, 1.05302, 1.48297, 0.961737, 0.962809, 0.963692, 0.964795, 1.0977, 1.20679, 1.03293, 1.03999, 1.03957, 1.20457, 1.13895, 1.13994, 1.31363, 1.07102, 1.07026, 1.07097, 1.07222, 1.08456, 1.08522, 1.07196, 1.06777, 1.07273, 1.07323, 1.05718, 1.05586, 1.0563, 1.23702, 1.06693, 1.38896, 1.07665, 1.08571, 1.08653, 1.16398, 1.24438, 1.1393, 1.17612
0.895441, 0.894772, 0.885347, 0.883777, 0.884466, 1.29864, 1.21508, 1.08062, 0.899352, 0.901114, 0.902594, 0.9034, 0.904051, 0.902817, 0.905606, 0.904341, 0.902658, 0.902654, 0.904331, 0.905831, 0.905049, 0.905792, 0.906065, 0.906463, 0.907917, 0.908643, 0.909875, 0.911345, 0.913, 0.914512, 0.909129, 0.90896, 0.917966, 0.917047, 0.919574, 0.916366, 0.912078, 0.910511, 0.923466, 0.921344, 0.921317, 0.905077, 0.905488, 0.910731, 0.9053, 0.93548, 0.995326, 1.02322, 1.12263, 1.14617, 1.18326, 1.28656, 1.29482, 1.24948, 1.28619, 1.26026, 1.27086, 1.30425, 1.46701, 1.48302, 1.4952, 1.48989, 1.51044, 1.54102, 1.64407, 1.64584, 1.6041, 1.59871, 1.60799, 1.61245, 1.61065, 1.64601, 1.65436, 1.70629, 1.6962, 1.78283, 1.74215, 1.78645, 1.7374, 1.72154, 1.73081, 1.73086, 1.77885, 1.74844, 1.68288, 1.72024, 1.69958, 1.6983, 1.72371, 1.65758, 1.65269, 1.65423, 1.70919, 1.70639, 1.68835, 1.68013, 1.55816, 1.52749, 1.52464, 1.50556, 1.46498, 1.4638, 1.39653, 1.33018, 1.30527, 1.32745, 1.32882, 1.21679, 1.17982, 1.12445, 1.10166, 1.05294, 1.05357, 1.03043, 1.06257, 0.965074, 1.02654, 1.06343, 1.20713, 1.27359, 1.02718, 1.27291, 1.04081, 1.04373, 1.17822, 1.20943, 1.07367, 1.07365, 1.06876, 1.0688, 1.07033, 1.08393, 1.08489, 1.45221, 1.06901, 1.26864, 1.2678, 1.26686, 1.05497, 1.13373, 1.07182, 1.07055, 1.06727, 1.17075, 1.29536, 1.15317, 1.08066, 1.17951, 1.17841, 1.1818
0.89724, 0.895672, 0.896171, 0.883754, 0.885801, 0.917725, 0.917138, 0.902309, 0.901022, 0.902337, 0.901132, 0.900863, 0.902548, 0.903519, 0.904114, 0.905351, 0.904391, 0.904206, 0.903951, 0.90518, 0.905659, 0.905733, 0.905801, 0.906862, 0.907174, 0.908837, 0.910673, 0.911251, 0.913006, 0.916258, 0.913754, 1.0595, 0.921027, 0.919051, 0.918474, 0.915682, 0.911929, 0.91023, 0.921286, 0.921678, 0.921687, 0.90408, 0.90481, 0.947014, 0.903009, 0.932994, 0.994642, 1.07127, 1.08801, 1.12574, 1.28612, 1.29017, 1.29281, 1.26443, 1.26085, 1.26779, 1.27409, 1.32405, 1.35701, 1.47851, 1.50634, 1.49462, 1.67428, 1.59997, 1.65613, 1.64877, 1.60267, 1.59818, 1.61289, 1.61756, 1.62095, 1.69264, 1.68606, 1.70726, 1.70783, 1.70763, 1.74251, 1.75433, 1.73404, 1.73387, 1.73398, 1.74507, 1.75159, 1.72755, 1.7149, 1.69415, 1.73037, 1.68826, 1.69661, 1.72748, 1.70293, 1.64915, 1.69573, 1.70375, 1.62556, 1.58575, 1.56454, 1.55792, 1.57483, 1.52324, 1.47432, 1.49241, 1.45336, 1.36238, 1.34477, 1.28483, 1.26219, 1.2335, 1.18261, 1.21916, 1.12903, 1.12221, 1.06012, 1.06899, 1.03413, 0.979997, 0.980715, 1.02078, 1.01975, 1.0208, 1.02615, 1.32749, 1.11811, 1.11471, 1.0614, 1.06569, 1.0696, 1.06737, 1.33805, 1.53465, 1.33074, 1.19113, 1.17502, 1.17546, 1.22851, 1.31933, 1.20867, 1.2622, 1.2683, 1.26141, 1.07188, 1.06827, 1.06776, 1.07011, 1.07192, 1.18276, 1.0793, 1.07917, 1.0665, 1.06737
0.897462, 0.898341, 0.901451, 1.28853, 1.18749, 1.14281, 0.900595, 0.900949, 0.902537, 0.902514, 0.900996, 0.899575, 0.901367, 0.903202, 0.904996, 0.905726, 0.904345, 0.903957, 0.904004, 0.905096, 0.90501, 0.902758, 0.903811, 0.903483, 0.907385, 0.908544, 0.911234, 0.911666, 0.9126, 0.919066, 0.918376, 0.917966, 0.921217, 0.918606, 0.917478, 0.914218, 0.911412, 0.908521, 0.907865, 0.907231, 0.90446, 0.902129, 0.904924, 0.947367, 0.901308, 0.973299, 1.01539, 1.07412, 1.14569, 1.14639, 1.23244, 1.34406, 1.30708, 1.28852, 1.27868, 1.26816, 1.30469, 1.29743, 1.35193, 1.44454, 1.46876, 1.51783, 1.56549, 1.56394, 1.59022, 1.65239, 1.60601, 1.60293, 1.61282, 1.63673, 1.66608, 1.67157, 1.68551, 1.69165, 1.69302, 1.71106, 1.77383, 1.74749, 1.74562, 1.75385, 1.7321, 1.7385, 1.7383, 1.74239, 1.73007, 1.72857, 1.68866, 1.6886, 1.69931, 1.68988, 1.62522, 1.62367, 1.64473, 1.63135, 1.61902, 1.59359, 1.57501, 1.56495, 1.53597, 1.50565, 1.48829, 1.42973, 1.45351, 1.37073, 1.34962, 1.31762, 1.321, 1.24882, 1.21692, 1.21694, 1.11659, 1.11735, 1.09144, 1.12959, 1.13042, 0.979809, 0.984887, 1.00755, 1.01709, 1.13755, 1.14021, 1.1151, 1.05458, 1.05545, 1.06153, 1.53993, 1.07865, 1.07939, 1.31836, 1.53452, 1.32655, 1.25064, 1.09484, 1.16422, 1.257, 1.25867, 1.1052, 1.11193, 1.11821, 1.08068, 1.07776, 1.07009, 1.07517, 1.07631, 1.17703, 1.23393, 1.08068, 1.07859, 1.06518, 1.06741
0.901007, 0.901709, 0.901338, 0.901608, 1.29884, 0.899965, 0.900268, 0.900668, 0.901307, 0.901065, 0.900737, 0.902269, 0.9014, 0.903232, 0.903388, 0.904315, 0.904132, 0.903211, 0.902598, 0.902921, 0.90194, 0.90273, 0.905086, 0.904012, 0.9061, 0.909219, 0.92246, 0.922429, 0.922777, 0.919345, 0.917864, 0.917626, 0.917748, 0.916945, 0.915875, 0.911934, 0.911092, 0.909002, 0.906971, 0.905976, 0.903367, 0.905266, 0.907611, 0.928195, 0.946434, 0.965185, 1.06106, 1.09798, 1.16549, 1.16838, 1.30557, 1.31289, 1.36799, 1.35118, 1.30042, 1.2861, 1.30469, 1.31634, 1.36454, 1.49564, 1.44812, 1.51234, 1.5143, 1.56472, 1.60702, 1.57794, 1.60467, 1.60419, 1.64418, 1.68223, 1.6866, 1.67947, 1.69274, 1.69171, 1.6944, 1.69377, 1.77645, 1.74743, 1.74813, 1.73117, 1.73336, 1.73956, 1.7474, 1.76782, 1.7244, 1.71665, 1.68972, 1.68857, 1.68874, 1.69073, 1.67134, 1.63391, 1.6334, 1.64392, 1.68359, 1.68189, 1.57371, 1.63797, 1.60492, 1.61276, 1.51702, 1.45752, 1.45559, 1.36903, 1.36599, 1.34313, 1.34784, 1.27386, 1.2351, 1.25812, 1.15366, 1.12704, 1.11684, 1.07382, 1.14965, 0.98353, 0.987246, 0.997166, 1.01733, 1.11474, 1.04026, 1.37468, 1.04692, 1.38481, 1.29961, 1.08735, 1.07828, 1.0816, 1.20804, 1.20483, 1.2153, 1.1022, 1.27964, 1.10589, 1.10772, 1.10735, 1.10713, 1.11249, 1.1152, 1.08716, 1.07734, 1.07854, 1.07964, 1.07941, 1.20332, 1.14392, 1.09885, 1.13805, 1.13175, 1.08687
0.899501, 0.899845, 0.899154, 0.898959, 0.898965, 0.899471, 0.900384, 0.900063, 0.901506, 0.9016, 0.90112, 0.901365, 0.900678, 0.903103, 0.903055, 0.903924, 0.903283, 0.903748, 0.902822, 0.901832, 0.902934, 0.903694, 0.905955, 0.922378, 1.30566, 0.924028, 0.923251, 0.922306, 0.921634, 0.920494, 0.906695, 0.913302, 0.912942, 0.915635, 0.914731, 0.912233, 0.911962, 0.908666, 0.904948, 0.904291, 0.903339, 0.902553, 0.890599, 0.915509, 0.997114, 0.991966, 1.01966, 1.16237, 1.20599, 1.28228, 1.30819, 1.38943, 1.41571, 1.41648, 1.31716, 1.31208, 1.31544, 1.32248, 1.35123, 1.3894, 1.48795, 1.51282, 1.50594, 1.5402, 1.60214, 1.59595, 1.68884, 1.60639, 1.65566, 1.69319, 1.68864, 1.66909, 1.66798, 1.69761, 1.69555, 1.73432, 1.78214, 1.78275, 1.85348, 1.81381, 1.74572, 1.74476, 1.74787, 1.76376, 1.71744, 1.6984, 1.68896, 1.68893, 1.68993, 1.69066, 1.69944, 1.63567, 1.63423, 1.64776, 1.60735, 1.64112, 1.57404, 1.56321, 1.59348, 1.54601, 1.5265, 1.44078, 1.4194, 1.41023, 1.40249, 1.40638, 1.403, 1.2747, 1.26457, 1.20252, 1.18862, 1.14057, 1.10163, 1.06793, 1.09874, 0.99047, 0.992962, 1.1335, 1.09124, 1.07598, 1.03964, 1.04106, 1.38876, 1.3577, 1.0926, 1.33378, 1.16032, 1.3287, 1.32264, 1.27456, 1.10939, 1.10601, 1.1034, 1.10339, 1.10592, 1.10681, 1.11209, 1.11158, 1.11153, 1.16373, 1.19799, 1.08147, 1.08153, 1.08269, 1.53759, 1.09545, 1.09745, 1.12036, 1.08719, 1.08625
0.899328, 0.89919, 0.899859, 0.898984, 0.899152, 0.899112, 0.899656, 0.900525, 0.901379, 0.901089, 0.904934, 0.904025, 0.903936, 0.904222, 0.903788, 0.90419, 0.903964, 0.903991, 0.903929, 0.904162, 0.905267, 0.911484, 0.909567, 0.946357, 0.924829, 0.923604, 0.922525, 0.923003, 0.921675, 0.91956, 0.907618, 0.910733, 0.911423, 0.916294, 0.913704, 0.91245, 0.911246, 0.908353, 0.907452, 0.905284, 0.901605, 0.899379, 0.894826, 0.884149, 0.929202, 1.01558, 1.08587, 1.18393, 1.23084, 1.30224, 1.31586, 1.44377, 1.46346, 1.46744, 1.36691, 1.33767, 1.32335, 1.33431, 1.34691, 1.42918, 1.43889, 1.48293, 1.52351, 1.53746, 1.57632, 1.59227, 1.69398, 1.69119, 1.68621, 1.69355, 1.66771, 1.67447, 1.66853, 1.69794, 1.7285, 1.73745, 1.73738, 1.77417, 1.77287, 1.74728, 1.74701, 1.76781, 1.76756, 1.74701, 1.70347, 1.69954, 1.68864, 1.68924, 1.6912, 1.69283, 1.7304, 1.67426, 1.64485, 1.65224, 1.60528, 1.63518, 1.57797, 1.57187, 1.66018, 1.54352, 1.50037, 1.43384, 1.42124, 1.41098, 1.41963, 1.54816, 1.48889, 1.28055, 1.23045, 1.19768, 1.16122, 1.16146, 1.08921, 1.08905, 1.04952, 0.990647, 0.991088, 1.00216, 1.03401, 1.03573, 1.03744, 1.08519, 1.0912, 1.16891, 1.04804, 1.06706, 1.06585, 1.32667, 1.22548, 1.22577, 1.18835, 1.18919, 1.22857, 1.22586, 1.11249, 1.11264, 1.11115, 1.11138, 1.10475, 1.19559, 1.14099, 1.20867, 1.08642, 1.08071, 1.16487, 1.14286, 1.16385, 1.16786, 1.11631, 1.07913
0.901841, 0.902467, 0.901352, 0.901444, 0.901086, 0.900942, 0.903444, 0.904239, 0.90416, 0.903787, 0.904013, 0.904471, 0.905662, 0.903741, 0.903774, 0.904251, 0.903406, 0.904268, 0.905156, 0.904682, 0.90474, 0.909336, 0.914861, 0.9165, 0.923532, 0.919947, 0.92073, 0.921399, 0.921515, 0.919591, 0.903164, 0.909793, 0.911168, 0.914839, 0.913211, 0.912858, 0.91088, 0.909672, 0.907271, 0.905052, 0.904324, 0.90157, 0.887462, 0.886859, 0.927273, 1.04235, 1.09165, 1.13465, 1.3006, 1.36009, 1.40511, 1.4463, 1.47088, 1.46947, 1.45833, 1.41946, 1.36705, 1.37128, 1.36435, 1.40939, 1.47234, 1.47623, 1.52274, 1.53165, 1.582, 1.6103, 1.68936, 1.69334, 1.68572, 1.67425, 1.67294, 1.67261, 1.85213, 1.70369, 1.72855, 1.73704, 1.73604, 1.79595, 1.95537, 1.8005, 1.76031, 1.75981, 1.80936, 1.72039, 1.70583, 1.70277, 1.68555, 1.68472, 1.6906, 1.69058, 1.73848, 1.69433, 1.66622, 1.62171, 1.6057, 1.64769, 1.5743, 1.57265, 1.65781, 1.52723, 1.54564, 1.44403, 1.43089, 1.42581, 1.41447, 1.48253, 1.44032, 1.25605, 1.21549, 1.19356, 1.15793, 1.10159, 1.09925, 1.05025, 1.02942, 1.01624, 1.03242, 1.02924, 1.00801, 1.07765, 1.08081, 1.03016, 1.03201, 1.37802, 1.21321, 1.09188, 1.22016, 1.26756, 1.23608, 1.14112, 1.28877, 1.24363, 1.25044, 1.21559, 1.19489, 1.11389, 1.10475, 1.1037, 1.10444, 1.21201, 1.13962, 1.22956, 1.06349, 1.23251, 1.09457, 1.31206, 1.20261, 1.22414, 1.12559, 1.1625
0.905597, 0.90314, 0.903561, 0.904848, 0.905666, 0.90571, 0.905632, 0.904866, 0.905474, 0.905062, 0.904398, 0.907054, 0.906593, 0.904349, 0.904344, 0.903725, 0.904186, 0.904367, 0.90442, 0.907613, 0.908178, 0.914765, 0.916012, 0.916613, 0.916567, 0.918251, 0.921483, 0.921955, 0.921306, 0.919656, 0.918912, 0.909171, 0.908151, 0.918975, 0.913293, 0.912843, 0.911361, 0.911373, 0.905386, 0.902056, 0.901522, 0.905079, 0.91343, 0.880095, 0.973332, 1.00484, 1.10172, 1.35819, 1.29463, 1.35065, 1.38337, 1.46452, 1.47296, 1.47175, 1.46394, 1.51652, 1.41348, 1.47183, 1.40216, 1.50736, 1.4828, 1.52284, 1.51933, 1.54807, 1.57485, 1.59978, 1.67264, 1.70231, 1.67273, 1.67466, 1.67358, 1.68887, 1.67913, 1.70361, 1.72477, 1.73723, 1.73663, 1.79731, 1.79619, 1.79567, 1.81419, 1.91458, 1.81303, 1.81092, 1.70481, 1.70557, 1.70466, 1.68987, 1.68656, 1.68659, 1.73791, 1.66958, 1.65144, 1.61089, 1.61186, 1.67978, 1.57531, 1.57011, 1.58969, 1.50996, 1.53367, 1.45977, 1.43433, 1.42666, 1.41295, 1.40826, 1.4351, 1.28507, 1.21338, 1.19358, 1.13968, 1.10861, 1.105, 1.05687, 1.05202, 1.03967, 0.990333, 1.02878, 1.01195, 1.01618, 1.02402, 1.02778, 1.42258, 1.05339, 1.05554, 1.31966, 1.23189, 1.23704, 1.13974, 1.14084, 1.23936, 1.1501, 1.15032, 1.16721, 1.16545, 1.11032, 1.10524, 1.10642, 1.09098, 1.07187, 1.05803, 1.05919, 1.06189, 1.05705, 1.05322, 1.05346, 1.05564, 1.05933, 1.06134, 1.06464
0.909685, 0.909152, 0.908073, 0.907677, 0.909562, 0.908028, 0.905582, 0.907088, 0.906575, 0.906302, 0.907211, 0.907472, 0.906722, 0.907887, 0.907505, 0.909358, 0.906101, 0.906817, 0.907167, 0.910815, 0.912155, 0.912991, 0.911448, 0.912642, 0.917065, 0.917244, 0.920027, 0.921632, 0.921154, 0.920425, 0.912556, 0.91293, 0.909545, 0.912125, 0.914362, 0.912649, 0.912849, 0.909552, 0.904697, 0.904663, 0.904968, 0.887143, 0.872567, 0.964469, 0.965608, 1.06875, 1.0915, 1.33406, 1.31093, 1.32834, 1.33992, 1.41224, 1.41042, 1.52006, 1.51027, 1.51174, 1.54478, 1.50429, 1.49686, 1.51454, 1.53738, 1.55393, 1.56085, 1.56954, 1.62084, 1.62026, 1.72806, 1.76349, 1.69105, 1.69876, 1.70063, 1.69969, 1.68633, 1.73961, 1.72628, 1.72711, 1.82054, 1.79614, 1.79612, 1.94309, 1.95886, 0.00443395, 1.80719, 1.80742, 1.70603, 1.71487, 1.75553, 1.68731, 1.68514, 1.68385, 1.7613, 1.66832, 1.67787, 1.60593, 1.60517, 1.62427, 1.5673, 1.57175, 1.5611, 1.54228, 1.45338, 1.45336, 1.44501, 1.43343, 1.41243, 1.38879, 1.44339, 1.2809, 1.20252, 1.20352, 1.14256, 1.11618, 1.105, 1.07324, 1.06728, 1.06046, 1.01962, 1.02389, 0.99205, 0.994091, 1.07364, 1.0406, 1.04112, 1.05041, 1.25769, 1.26705, 1.12882, 1.12921, 1.13214, 1.13567, 1.13582, 1.14976, 1.15241, 1.13677, 1.13915, 1.14009, 1.10583, 1.08967, 1.09068, 1.26702, 1.06169, 1.06168, 1.06177, 1.05689, 1.05591, 1.05502, 1.05623, 1.1203, 1.12616, 1.06476
0.911609, 0.91038, 0.909795, 0.911251, 0.9088, 0.908416, 0.907903, 0.907862, 0.908283, 0.906564, 0.907918, 0.908084, 0.907827, 0.908105, 0.909293, 0.909745, 0.909414, 0.908513, 0.911812, 0.912677, 0.91119, 0.910989, 0.912652, 0.912203, 0.913522, 0.915187, 0.918887, 0.918264, 0.918723, 0.915691, 0.913251, 0.915399, 0.932549, 0.952932, 0.916558, 0.916966, 0.910813, 0.908769, 0.906836, 0.902823, 0.898188, 0.885422, 0.874647, 0.9742, 1.00528, 1.09894, 1.34086, 1.31514, 1.31424, 1.34306, 1.36365, 1.33313, 1.38774, 1.50702, 1.49475, 1.5667, 1.52171, 1.52751, 1.51884, 1.518, 1.63291, 1.62052, 1.71143, 1.6618, 1.6617, 1.62638, 1.72854, 1.69945, 1.86837, 1.70082, 1.70075, 1.69353, 1.69623, 1.82035, 1.7244, 1.7308, 1.82274, 1.79536, 1.79955, 1.80095, 1.96536, 1.79313, 1.80381, 1.74506, 1.77181, 1.74871, 1.75137, 1.7558, 1.67861, 1.68437, 1.72269, 1.66798, 1.67889, 1.60354, 1.60285, 1.57615, 1.56989, 1.61697, 1.54898, 1.51287, 1.45161, 1.44805, 1.44295, 1.43759, 1.42625, 1.39553, 1.31533, 1.31811, 1.19431, 1.17138, 1.15413, 1.1099, 1.11249, 1.09491, 1.05423, 1.02137, 1.08079, 0.975275, 0.977501, 0.980448, 1.06136, 1.26077, 1.0441, 1.04896, 1.2918, 1.27087, 1.12752, 1.12881, 1.13279, 1.13766, 1.13912, 1.14958, 1.14165, 1.13884, 1.13966, 1.17256, 1.15739, 1.08788, 1.08836, 1.09589, 1.06979, 1.06555, 1.06472, 1.05843, 1.05891, 1.05617, 1.05447, 1.05364, 1.05321, 1.05369
0.91284, 0.915185, 0.914281, 0.913198, 0.910802, 0.909383, 0.909739, 0.909359, 0.910341, 0.908924, 0.908592, 0.907473, 0.909858, 0.909151, 0.90878, 0.907023, 0.916477, 0.920807, 0.921516, 0.918645, 0.913097, 0.909813, 0.910824, 0.912996, 0.913242, 0.91456, 0.912709, 0.910353, 0.913012, 0.915539, 0.91495, 0.919078, 0.921481, 0.921962, 0.91785, 0.917723, 0.912434, 0.914414, 0.908836, 0.907815, 1.12275, 0.87195, 0.913622, 0.941121, 0.958315, 1.07146, 1.28836, 1.34683, 1.34652, 1.31846, 1.32074, 1.31268, 1.35049, 1.50697, 1.43679, 1.53068, 1.58207, 1.56924, 1.60612, 1.55005, 1.6211, 1.62039, 1.67587, 1.67669, 1.72193, 1.62751, 1.62642, 1.82706, 1.86526, 1.86581, 1.70332, 1.70299, 1.77156, 1.76032, 1.72778, 1.73133, 1.7298, 2.01022, 1.80026, 1.78797, 1.79649, 1.79783, 1.77583, 1.81051, 1.76966, 1.75789, 1.75118, 1.74891, 1.68322, 1.68492, 1.67718, 1.6742, 1.67843, 1.71344, 1.67953, 1.57686, 1.57265, 1.5586, 1.54338, 1.50953, 1.45806, 1.44935, 1.44199, 1.43636, 1.40953, 1.35707, 1.30768, 1.26502, 1.21318, 1.18198, 1.16353, 1.13892, 1.10607, 1.0907, 1.09204, 1.03062, 0.999615, 0.984384, 0.978605, 0.977374, 1.06327, 1.04318, 1.0433, 1.17454, 1.25825, 1.23257, 1.12651, 1.13027, 1.13156, 1.20728, 1.15653, 1.15075, 1.13839, 1.13916, 1.19669, 1.08518, 1.08449, 1.08913, 1.0907, 1.08116, 1.12004, 1.06991, 1.06407, 1.05725, 1.05946, 1.05748, 1.05301, 1.05425, 1.05291, 1.05369
0.916168, 0.91641, 0.917239, 0.917216, 0.911945, 0.91348, 0.911959, 0.910997, 0.909509, 0.909746, 0.910637, 0.904949, 0.910802, 0.910109, 0.907609, 0.912593, 0.916254, 0.920258, 0.922014, 0.920041, 0.919498, 0.916184, 0.914225, 0.913042, 0.930328, 0.915999, 0.911152, 0.913247, 0.912686, 0.917321, 0.940722, 0.959401, 0.929682, 0.954743, 0.917332, 0.91878, 0.911983, 0.913137, 0.908606, 0.911486, 1.1249, 0.870923, 0.870699, 0.919062, 0.997289, 1.15652, 1.15709, 1.37131, 1.29296, 1.28049, 1.28857, 1.30547, 1.33724, 1.35525, 1.45369, 1.46331, 1.5023, 1.56851, 1.54548, 1.54596, 1.62072, 1.73377, 1.67471, 1.70336, 1.70314, 1.65093, 1.65869, 1.72782, 1.72649, 1.7208, 1.7028, 1.70302, 1.70752, 1.77215, 1.77697, 1.75252, 1.96641, 1.9441, 1.93563, 1.79288, 1.78894, 1.83782, 1.87959, 0.00414653, 1.80322, 1.75595, 1.7525, 1.78524, 1.74635, 1.74762, 1.71039, 1.67841, 1.67122, 1.66585, 1.7089, 1.64832, 1.57019, 1.56193, 1.51244, 1.56986, 1.46387, 1.46445, 1.43754, 1.42625, 1.42404, 1.32357, 1.30239, 1.26056, 1.21419, 1.20796, 1.18149, 1.13496, 1.11143, 1.09184, 1.05464, 1.02263, 1.00562, 1.02621, 0.979455, 0.98868, 0.981356, 1.26854, 1.15423, 1.30282, 1.234, 1.23905, 1.24142, 1.23578, 1.18619, 1.15214, 1.25903, 1.15129, 1.18095, 1.16854, 1.08464, 1.08473, 1.08871, 1.09121, 1.09173, 1.08597, 1.08729, 1.18477, 1.06455, 1.06238, 1.06101, 1.06168, 1.06037, 1.05747, 1.05613, 1.05649
0.917144, 0.917084, 0.915355, 0.915678, 0.91501, 0.913538, 0.912004, 0.911698, 0.910972, 0.909312, 0.910256, 0.911428, 0.912122, 0.912135, 0.910271, 0.911541, 0.925945, 0.923208, 0.922376, 0.919625, 0.919682, 0.919832, 0.922682, 0.923545, 0.921842, 0.916191, 0.916652, 0.915206, 0.931808, 0.942154, 0.939202, 0.932052, 0.930086, 0.921399, 0.921297, 0.921807, 0.912171, 0.909058, 0.902988, 0.911812, 0.959953, 0.87834, 0.871654, 0.916177, 1.09901, 1.15959, 1.2427, 1.26047, 1.26274, 1.27332, 1.29793, 1.31147, 1.32372, 1.43095, 1.41995, 1.42614, 1.46113, 1.50287, 1.55442, 1.55378, 1.63299, 1.63342, 1.66958, 1.65447, 1.65297, 1.66422, 1.66147, 1.7237, 1.72709, 1.72422, 1.72007, 1.72773, 1.72404, 1.7614, 1.87579, 1.793, 1.80503, 1.79433, 1.89316, 1.79336, 1.79258, 1.88944, 1.8552, 1.87606, 1.81489, 1.75809, 1.75379, 1.72319, 1.71678, 1.70379, 1.70295, 1.74444, 1.66395, 1.65791, 1.67905, 1.6791, 1.58622, 1.60369, 1.53503, 1.4891, 1.47539, 1.46566, 1.43868, 1.43333, 1.39276, 1.3746, 1.27663, 1.25455, 1.23991, 1.23009, 1.23507, 1.1722, 1.1061, 1.08461, 1.07787, 1.05182, 0.996245, 0.976556, 0.981526, 0.981197, 1.14655, 1.03066, 1.28266, 1.13276, 1.17148, 1.11268, 1.18067, 1.14946, 1.14954, 1.14867, 1.48037, 1.17787, 1.09813, 1.09832, 1.08325, 1.08584, 1.09065, 1.09112, 1.08601, 1.08731, 1.0794, 1.08042, 1.07459, 1.19744, 1.11255, 1.12247, 1.27363, 1.14326, 1.05635, 1.05527
0.919019, 0.918166, 0.917455, 0.917787, 0.915281, 0.915989, 0.911698, 0.910625, 0.911136, 0.9108, 0.909554, 0.91171, 0.911946, 0.912128, 0.924402, 0.925604, 0.925177, 0.924313, 0.916545, 0.916147, 0.916746, 0.91848, 0.922249, 0.92209, 0.918444, 0.917886, 0.918478, 0.921575, 0.923161, 0.930156, 0.93075, 0.932036, 0.929165, 0.92568, 0.924605, 0.923467, 0.936293, 0.90604, 0.942418, 1.0071, 0.996173, 0.873769, 1.02289, 0.985261, 1.2309, 1.25524, 1.25592, 1.25692, 1.26854, 1.30251, 1.29169, 1.30359, 1.34015, 1.36373, 1.41733, 1.43997, 1.47604, 1.49165, 1.56233, 1.58534, 1.65541, 1.6357, 1.62932, 1.65469, 1.72063, 1.72658, 1.70603, 1.72115, 1.72368, 1.722, 1.73866, 1.73847, 1.79224, 1.75948, 1.87711, 1.79234, 1.80928, 1.79623, 1.79412, 1.7934, 1.89582, 1.86832, 1.87022, 1.9287, 1.76361, 1.76314, 1.75663, 1.75566, 1.71616, 1.69883, 1.71352, 1.70042, 1.66466, 1.6699, 1.67206, 1.64056, 1.55987, 1.55144, 1.56385, 1.52043, 1.47562, 1.46637, 1.51498, 1.42686, 1.38924, 1.36926, 1.27846, 1.26586, 1.26784, 1.25307, 1.23247, 1.15623, 1.12271, 1.09122, 1.03618, 1.02679, 0.994236, 0.975238, 0.976274, 1.10096, 0.966726, 1.13639, 1.24984, 1.22612, 1.22661, 1.13899, 1.51366, 1.14334, 1.14261, 1.16413, 1.13043, 1.11906, 1.11233, 1.09138, 1.08339, 1.0891, 1.09075, 1.09179, 1.17129, 1.16766, 1.07931, 1.08005, 1.082, 1.08231, 1.22849, 1.26564, 1.11449, 1.11884, 1.04779, 1.0491
0.919163, 0.917041, 0.916515, 0.916799, 0.917771, 0.915848, 0.912508, 0.911946, 0.912482, 0.912028, 0.912928, 0.91252, 0.925273, 0.924961, 0.924102, 0.923518, 0.919628, 0.918861, 0.914721, 0.91473, 0.914755, 0.91543, 0.915664, 0.916758, 0.918021, 0.919633, 0.9231, 0.923248, 0.9273, 0.930546, 0.930162, 0.929213, 0.922762, 0.923656, 0.924175, 0.923899, 0.940752, 0.946055, 0.991524, 1.00361, 1.2059, 1.02384, 1.02602, 1.02291, 1.13624, 1.22928, 1.25434, 1.2588, 1.27141, 1.27818, 1.27901, 1.334, 1.35057, 1.36848, 1.4008, 1.48402, 1.4814, 1.49186, 1.55501, 1.56616, 1.65198, 1.69359, 1.65216, 1.70737, 1.80603, 1.70208, 1.70594, 1.70663, 1.72073, 1.71845, 1.74022, 1.75038, 1.78287, 1.83736, 1.81775, 1.85051, 1.8095, 1.79773, 1.79604, 1.88347, 1.88184, 1.8692, 1.87062, 1.93092, 1.75894, 1.77474, 1.75567, 1.74173, 1.78238, 1.69875, 1.69921, 1.69968, 1.74067, 1.68652, 1.68139, 1.60609, 1.55858, 1.57925, 1.56338, 1.57976, 1.50292, 1.47703, 1.51357, 1.42593, 1.38934, 1.36173, 1.33982, 1.29869, 1.30629, 1.27298, 1.18848, 1.16974, 1.17092, 1.0838, 1.04981, 1.00998, 1.01492, 0.976964, 1.10077, 1.10033, 1.08386, 1.24862, 1.1362, 1.13958, 1.13666, 1.13961, 1.13295, 1.13605, 1.13669, 1.20384, 1.255, 1.21907, 1.1071, 1.0966, 1.25702, 1.09096, 1.09132, 1.17244, 1.15814, 1.07413, 1.07723, 1.07987, 1.08189, 1.08243, 1.09435, 1.09902, 1.04303, 1.04664, 1.04798, 1.04937
0.917114, 0.917022, 0.917786, 0.914458, 0.91523, 0.915641, 0.915228, 0.912956, 0.914631, 0.921357, 0.928082, 0.927228, 0.924736, 0.922434, 0.922222, 0.921155, 0.921388, 0.92124, 0.918135, 0.917692, 0.916214, 0.915104, 0.914971, 0.918241, 0.919668, 0.921862, 0.926968, 0.931938, 0.931683, 0.930482, 0.929707, 0.925603, 0.923337, 0.923195, 0.92243, 0.922709, 0.920734, 0.933008, 1.04591, 0.951126, 0.862719, 0.863595, 1.03763, 1.02568, 1.12492, 1.21462, 1.26447, 1.26759, 1.26893, 1.28205, 1.28582, 1.35158, 1.37462, 1.36878, 1.42031, 1.46864, 1.47771, 1.49495, 1.49514, 1.56662, 1.5695, 1.6224, 1.65201, 1.73859, 1.67304, 1.69401, 1.71008, 1.786, 1.78823, 1.72429, 1.72319, 1.78971, 1.81073, 1.91831, 1.82, 1.81472, 1.80435, 1.79683, 1.78262, 1.87308, 1.8696, 1.887, 1.94067, 1.93179, 1.93095, 1.77817, 1.7904, 1.74874, 1.73462, 1.69898, 1.6987, 1.72041, 1.80838, 1.68906, 1.66683, 1.64659, 1.58276, 1.56425, 1.57259, 1.59884, 1.58155, 1.50716, 1.46563, 1.40349, 1.38487, 1.34875, 1.30554, 1.31091, 1.28744, 1.25349, 1.1843, 1.12416, 1.08436, 1.06328, 1.07064, 1.06949, 1.00986, 0.977589, 1.02401, 0.95039, 1.08179, 1.04578, 1.12323, 1.21349, 1.12068, 1.24581, 1.13403, 1.13641, 1.13391, 1.11847, 1.1151, 1.18845, 1.10674, 1.09163, 1.09336, 1.09298, 1.22279, 1.06671, 1.06686, 1.07266, 1.16019, 1.22383, 1.10469, 1.08624, 1.09266, 1.3021, 1.04581, 1.04412, 1.04714, 1.04848
0.921531, 0.919272, 0.917177, 0.917975, 0.915057, 0.915298, 0.91637, 0.918507, 0.919053, 0.920403, 0.922443, 0.925722, 0.920638, 0.921936, 0.919026, 0.92122, 0.922375, 0.920648, 0.922164, 0.923044, 0.924369, 0.923609, 0.938355, 0.925303, 0.928606, 0.929597, 0.931382, 0.932201, 0.931734, 0.930852, 0.930439, 0.992863, 0.923042, 0.923191, 0.922645, 0.943551, 0.928681, 0.957087, 0.864658, 0.86558, 0.860504, 0.862794, 0.88154, 0.973548, 1.15838, 1.23345, 1.25076, 1.25257, 1.32217, 1.35695, 1.34341, 1.36831, 1.38205, 1.45384, 1.4368, 1.48786, 1.48546, 1.50905, 1.52733, 1.56886, 1.6133, 1.61252, 1.65581, 1.66064, 1.67938, 1.68371, 1.69236, 1.69434, 1.79011, 1.79331, 1.77214, 1.78909, 1.78845, 1.80647, 1.80955, 1.81615, 1.81409, 1.79991, 1.80653, 1.86906, 1.99014, 1.88889, 1.88648, 1.93095, 1.8487, 1.79018, 1.78962, 1.787, 1.75186, 1.7503, 1.7215, 1.7208, 1.70621, 1.68767, 1.68553, 1.63212, 1.61011, 1.56407, 1.56506, 1.65384, 1.53724, 1.51419, 1.51193, 1.40588, 1.39595, 1.33935, 1.30754, 1.3074, 1.27823, 1.24341, 1.1554, 1.18119, 1.11946, 1.06397, 1.05712, 1.06882, 1.04403, 1.12878, 0.967663, 1.00684, 1.08369, 1.12606, 1.21175, 1.21065, 1.23664, 1.12969, 1.20216, 1.12888, 1.46296, 1.11563, 1.11315, 1.28222, 1.10689, 1.10577, 1.29579, 1.16727, 1.37075, 1.06764, 1.0677, 1.07029, 1.1184, 1.23483, 1.37548, 1.05917, 1.05829, 1.04523, 1.04634, 1.04679, 1.04907, 1.31861
0.918978, 0.918529, 0.918815, 0.917349, 0.918066, 0.918587, 0.919648, 0.916377, 0.914447, 0.916477, 0.917225, 0.918573, 0.92056, 0.921132, 0.91988, 0.91884, 0.924679, 0.924205, 0.923594, 0.925179, 0.924472, 0.924983, 0.929876, 0.928644, 0.92883, 0.930086, 0.932372, 0.932238, 0.93179, 0.930981, 0.934417, 1.14738, 0.934454, 1.11124, 0.954598, 0.956241, 1.13739, 0.962137, 0.866321, 0.864229, 0.860253, 0.860009, 0.899325, 0.98729, 1.11567, 1.1786, 1.23285, 1.25431, 1.28551, 1.34081, 1.35184, 1.39309, 1.42087, 1.5065, 1.53111, 1.52371, 1.52155, 1.50596, 1.55745, 1.55263, 1.6212, 1.63268, 1.64416, 1.6591, 1.6639, 1.67734, 1.70542, 1.7011, 1.78325, 1.77885, 1.80345, 1.78906, 1.78886, 1.80615, 1.80996, 1.81029, 1.82358, 1.81219, 1.80638, 1.87917, 1.99123, 1.8887, 1.80032, 1.8453, 1.824, 1.78811, 1.74581, 1.78862, 1.77887, 1.77127, 1.71659, 1.71161, 1.70704, 1.69848, 1.61948, 1.61774, 1.58083, 1.56615, 1.56434, 1.58281, 1.58816, 1.59205, 1.54041, 1.40203, 1.38969, 1.3461, 1.31279, 1.33318, 1.23178, 1.18797, 1.16007, 1.10851, 1.08062, 1.05991, 1.0358, 1.02033, 1.0432, 0.983668, 0.969757, 0.974218, 1.02436, 1.00165, 1.10363, 1.19769, 1.19658, 1.11533, 1.1201, 1.18537, 1.11628, 1.10856, 1.10693, 1.1067, 1.10758, 1.10335, 1.15651, 1.32989, 1.22097, 1.07004, 1.06865, 1.05903, 1.05848, 1.04641, 1.244, 1.05728, 1.04725, 1.04708, 1.04693, 1.04934, 1.32677, 1.12005
0.92214, 0.921598, 0.920582, 0.921705, 0.922721, 0.919343, 0.920865, 0.915175, 0.915786, 0.916907, 0.917348, 0.918814, 0.918835, 0.921951, 0.923778, 0.922595, 0.921641, 0.923893, 0.925258, 0.926594, 0.928133, 0.929926, 0.931841, 0.931108, 0.930509, 0.931347, 0.932282, 0.931938, 0.931667, 0.936004, 0.936547, 0.939324, 0.944065, 0.953961, 0.958803, 0.949604, 0.980206, 0.977185, 0.869561, 0.871775, 0.859535, 0.954458, 0.956186, 1.07366, 1.07369, 1.16914, 1.22971, 1.25458, 1.31881, 1.32528, 1.39288, 1.42655, 1.51738, 1.52338, 1.51675, 1.52295, 1.50572, 1.54189, 1.54927, 1.67954, 1.6213, 1.62439, 1.6787, 1.67781, 1.68555, 1.71453, 1.70578, 1.69755, 1.78048, 1.78236, 1.80363, 1.78004, 1.78851, 2.00379, 1.97056, 1.82162, 1.82416, 1.81086, 1.81048, 1.83091, 1.8352, 1.83401, 1.82758, 1.79968, 1.83831, 1.80077, 1.74209, 1.74719, 1.7463, 1.77111, 1.76884, 1.71258, 1.69918, 1.69098, 1.68329, 1.61844, 1.58277, 1.61039, 1.61389, 1.54107, 1.57014, 1.52642, 1.53748, 1.41093, 1.38811, 1.33407, 1.33777, 1.29344, 1.23665, 1.19919, 1.17407, 1.14792, 1.0943, 1.0713, 1.05031, 1.00543, 0.991602, 1.04085, 1.04235, 1.02035, 1.01971, 1.03606, 1.10055, 1.10894, 1.11485, 1.12816, 1.12539, 1.45034, 1.10933, 1.10939, 1.1105, 1.10682, 1.11116, 1.10184, 1.16115, 1.07791, 1.07773, 1.07338, 1.19919, 1.05944, 1.06011, 1.04833, 1.04997, 1.05256, 1.04978, 1.04872, 1.04983, 1.36141, 1.10664, 1.38207
0.927773, 0.926727, 0.926241, 0.925611, 0.923219, 0.920645, 0.92489, 0.926727, 0.928303, 0.92664, 0.922464, 0.918862, 0.91886, 0.919142, 0.921581, 0.921791, 0.920976, 0.921239, 0.92085, 0.923013, 0.927108, 0.931736, 0.931663, 0.930809, 0.930374, 0.930752, 0.932081, 0.931357, 0.930708, 0.930876, 1.11988, 1.18517, 0.946531, 0.967598, 1.0951, 0.970233, 0.967363, 0.882776, 0.868659, 0.873205, 0.960688, 0.957724, 1.05007, 1.0495, 1.13402, 1.2188, 1.2144, 1.2673, 1.34719, 1.34651, 1.42614, 1.43182, 1.48126, 1.56868, 1.57132, 1.50896, 1.52814, 1.53425, 1.54852, 1.64057, 1.63139, 1.62294, 1.6785, 1.67791, 1.73427, 1.68936, 1.70623, 1.70622, 1.74358, 1.74485, 1.78563, 1.78093, 1.7825, 1.77897, 1.78165, 1.83128, 1.93491, 1.85527, 1.87615, 1.83681, 1.83601, 1.79801, 1.80608, 1.85439, 1.8049, 1.83073, 1.74631, 1.74778, 1.74708, 1.78805, 1.79409, 1.70573, 1.69593, 1.68605, 1.65888, 1.659, 1.61022, 1.61951, 1.61161, 1.54105, 1.52524, 1.50469, 1.40927, 1.40714, 1.3726, 1.3415, 1.3307, 1.29328, 1.2164, 1.19267, 1.15713, 1.12661, 1.08426, 1.06372, 1.03605, 1, 1.03616, 0.994981, 0.980877, 1.02106, 1.01953, 1.20968, 1.21139, 1.19805, 1.30439, 1.1905, 1.11156, 1.1115, 1.10773, 1.21742, 1.10977, 1.11283, 1.11404, 1.1001, 1.21209, 1.07889, 1.07917, 1.49179, 1.0659, 1.06127, 1.09384, 1.04512, 1.04819, 1.05072, 1.05261, 1.04685, 1.08165, 1.36188, 1.55174, 1.2555
0.923786, 0.926326, 0.92557, 0.925849, 0.924832, 0.925014, 0.925235, 0.924155, 0.922869, 0.925125, 0.923438, 0.924502, 0.921696, 0.924081, 0.92194, 0.919864, 0.919486, 0.919245, 0.91974, 0.924876, 0.924314, 0.925155, 0.929382, 0.92998, 0.92949, 0.927051, 0.927204, 0.926751, 0.944523, 1.4142, 0.951064, 0.952637, 0.954701, 0.967228, 0.932777, 0.932069, 0.961424, 0.888418, 0.876975, 0.877025, 0.95731, 1.05444, 1.05519, 1.0975, 1.13072, 1.23771, 1.2816, 1.32722, 1.34647, 1.36168, 1.40568, 1.46755, 1.46451, 1.46047, 1.47798, 1.49593, 1.50279, 1.53781, 1.54619, 1.57449, 1.63527, 1.62351, 1.64532, 1.76233, 1.76829, 1.77623, 1.71883, 1.71965, 1.75593, 1.81694, 1.77845, 1.78848, 1.78303, 1.77805, 1.9864, 1.76554, 1.76486, 1.93466, 1.92765, 1.86199, 1.87086, 1.79393, 1.79564, 1.79559, 1.77856, 1.74777, 1.74754, 1.74461, 1.74861, 1.7895, 1.69357, 1.69299, 1.68908, 1.70263, 1.66441, 1.66161, 1.62639, 1.56408, 1.56308, 1.51772, 1.50968, 1.46729, 1.40747, 1.40637, 1.43035, 1.39109, 1.34056, 1.31239, 1.22, 1.22989, 1.17844, 1.09273, 1.09268, 1.06099, 1.04478, 1.02759, 0.994531, 0.998025, 0.99716, 1.01914, 1.06095, 1.20929, 1.17872, 1.20095, 1.1819, 1.35445, 1.18467, 1.17751, 1.26637, 1.31769, 1.21321, 1.11375, 1.19534, 1.20194, 1.42545, 1.08017, 1.07361, 1.07131, 1.07017, 1.0699, 1.0718, 1.30875, 1.07475, 1.0547, 1.05463, 1.11626, 1.0705, 1.25645, 1.25182, 1.24987
0.924532, 0.928313, 0.926204, 0.927408, 0.926081, 0.925568, 0.925026, 0.92337, 0.922293, 0.921108, 0.922479, 0.921894, 0.920306, 0.918193, 0.918965, 0.919878, 0.917874, 0.917617, 0.91867, 0.9233, 0.924738, 0.924167, 0.922781, 0.926141, 0.92666, 0.926647, 0.927916, 0.945167, 1.21959, 0.955719, 0.953909, 0.954113, 0.954762, 1.07454, 0.933225, 0.956966, 0.887708, 0.887781, 0.877629, 0.876944, 0.92981, 1.01477, 0.978985, 1.06354, 1.16249, 1.2172, 1.26897, 1.33742, 1.36516, 1.39995, 1.41531, 1.45134, 1.45408, 1.45437, 1.4716, 1.55101, 1.54854, 1.54814, 1.62992, 1.66601, 1.65516, 1.62458, 1.71313, 1.71988, 1.78277, 1.82978, 1.71873, 1.72168, 1.74759, 1.80615, 1.78705, 1.78827, 1.78807, 1.77926, 1.92442, 1.76276, 1.76557, 1.78593, 1.78773, 1.86638, 2.08497, 1.79511, 1.78961, 1.78851, 1.80111, 1.81708, 1.74237, 1.74454, 1.74889, 1.75851, 1.71008, 1.69297, 1.68901, 1.69422, 1.73618, 1.67584, 1.61697, 1.65178, 1.56528, 1.5298, 1.50244, 1.46937, 1.41352, 1.44165, 1.40366, 1.37696, 1.34541, 1.31578, 1.20171, 1.20172, 1.15031, 1.11915, 1.07994, 1.05262, 1.03999, 1.1154, 0.993867, 1.04917, 1.13678, 1.06271, 1.06291, 1.05491, 1.14613, 1.14613, 1.14668, 1.31273, 1.32278, 1.1778, 1.22312, 1.31354, 1.22974, 1.20472, 1.19806, 1.51847, 1.08001, 1.07988, 1.07438, 1.07107, 1.07057, 1.07088, 1.07219, 1.06743, 1.06027, 1.05412, 1.05165, 1.07183, 1.12461, 1.24955, 1.248, 1.23791
0.928905, 0.928325, 0.926567, 0.925698, 0.925317, 0.926067, 0.924795, 0.924594, 0.923767, 0.921687, 0.92205, 0.92289, 0.921071, 0.918989, 0.918661, 0.918204, 0.914362, 0.916406, 0.918213, 0.923248, 0.925835, 0.922723, 0.921686, 0.924943, 0.926851, 0.926106, 0.941485, 0.973975, 1.01478, 1.01927, 0.959924, 0.958955, 1.05812, 0.988489, 0.986991, 1.0218, 0.887613, 0.887986, 0.877528, 0.877289, 0.922698, 0.994312, 1.0645, 1.06659, 1.16672, 1.20263, 1.28164, 1.51063, 1.43002, 1.41943, 1.42265, 1.44517, 1.44475, 1.46074, 1.45726, 1.5131, 1.50617, 1.54798, 1.63079, 1.58896, 1.69222, 1.61827, 1.73771, 1.72615, 1.78208, 1.7495, 1.71655, 1.72065, 1.73969, 1.8047, 1.78888, 1.92535, 1.78679, 1.78512, 1.75874, 1.76261, 1.81627, 1.77271, 1.78868, 1.78685, 1.79983, 1.79023, 1.78977, 1.78782, 1.80267, 1.80955, 1.74413, 1.74451, 1.74406, 1.71011, 1.70289, 1.6776, 1.6753, 1.68794, 1.70346, 1.64351, 1.62291, 1.65137, 1.54724, 1.52987, 1.50287, 1.47023, 1.44866, 1.4428, 1.37706, 1.37498, 1.39469, 1.30688, 1.23963, 1.19804, 1.15594, 1.0985, 1.07668, 1.05864, 1.08276, 1.01903, 1.01339, 1.00183, 1.13949, 1.19996, 1.19944, 1.13931, 1.36706, 1.14548, 1.14575, 1.27451, 1.27544, 1.18471, 1.20991, 1.21907, 1.22054, 1.59898, 1.28413, 1.08887, 1.08158, 1.0803, 1.07217, 1.07052, 1.06329, 1.14875, 1.07033, 1.06675, 1.05799, 1.05746, 1.12145, 1.24011, 1.13189, 1.30179, 1.23417, 1.24984
0.927274, 0.926361, 0.926386, 0.921625, 0.923876, 0.923181, 0.921848, 0.922558, 0.922041, 0.921977, 0.921971, 0.921744, 0.921273, 0.919159, 0.918207, 0.917739, 0.915553, 0.918028, 1.03412, 0.930205, 0.927901, 0.923892, 0.923232, 0.924776, 0.929191, 0.933428, 0.959192, 0.961573, 0.957466, 0.959344, 0.959583, 0.9593, 1.07046, 0.991805, 1.01526, 0.963903, 0.886873, 0.890398, 0.879131, 0.878409, 1.04329, 0.949827, 0.949387, 1.08937, 1.12534, 1.17784, 1.3822, 1.51014, 1.52872, 1.53362, 1.41612, 1.43058, 1.43699, 1.45407, 1.46855, 1.51566, 1.50734, 1.54756, 1.54898, 1.65223, 1.65547, 1.65744, 1.71976, 1.72746, 1.79113, 1.82924, 1.71712, 1.72013, 1.77954, 1.93127, 1.93125, 1.80343, 1.80315, 1.76142, 1.75037, 1.75114, 1.86824, 1.87118, 1.78801, 1.86659, 1.79911, 1.78682, 1.79275, 1.80115, 1.76615, 1.76519, 1.80701, 1.74723, 1.76436, 1.70984, 1.69779, 1.69886, 1.67169, 1.67261, 1.65816, 1.64563, 1.62995, 1.6293, 1.61399, 1.54405, 1.51333, 1.49648, 1.43044, 1.41925, 1.38964, 1.39902, 1.34821, 1.34366, 1.27048, 1.22145, 1.12727, 1.10875, 1.08399, 1.05927, 1.03226, 1.02736, 1.0118, 1.01188, 1.20569, 1.12735, 1.06725, 1.03028, 1.0307, 1.14964, 1.12191, 1.26084, 1.22871, 1.22668, 1.24312, 1.29631, 1.07022, 1.07019, 1.08786, 1.1751, 1.15014, 1.14417, 1.1304, 1.06362, 1.06013, 1.06482, 1.06657, 1.06435, 1.06262, 1.13919, 1.12647, 1.14812, 1.26094, 1.29544, 1.44976, 1.40587
