1.03197477198711,1.08095735084789,1.0438164380099,0.964956539994601,0.967641194335927,0.966440590982851,0.969168037757773,0.969449797641501,0.969819791270734,0.970285791985747,0.969793322043366,0.96949719423597,0.973365555120402,1.04750641266683,1.05879610489412,1.08899242807491,1.08860042415224,1.08769816560332,1.06798211772764,1.04085500733762,1.03577410987744,0.99558103470154,0.995854792877086,0.995142762776409,0.995600673615934,0.993782977055439,0.994902197135397,0.992619114935269,0.993829911329489,0.991163734198394,0.99295992642747,0.990975140010706,0.9921019597082,1.05702249922625,0.991952714207945,0.990294991154446,0.993117659892035,0.991892407050485,0.993930549593177,0.990890186226825,0.993986350689287,0.991185569701924,0.993587739117683,0.989849569512125,0.993486706116166,0.99062614989237,0.994191495559798,0.990965939958416,0.994544170634278,0.990342666835525,0.995058521301944,0.99104405099029,0.994787589050856,0.989255941107161,0.99447951928663,0.990434075557356,0.994767648103822,0.990938898654485,0.993466575330225,0.989749517112015,0.991649660813493,0.991171873407986,0.991231911133596,0.991834491524279,0.991703389539737,0.992091232161054,0.993052988871939,0.992998118289933,1.0053787750907,1.00633687459648,1.00141291321871,1.04795964646703,0.995434345732646,0.995272859044121,0.995514740879286,0.994841798230823,0.99585652683471,0.995063465664657,0.995912756213026,0.994519189252279,0.995302546431176,0.994132303321692,0.994730444040189,0.994855177147354,0.994459733830052,1.01425802206566,1.01375273036019,1.01045964212032,0.995874513028352,0.995986878243327,0.996218169063117,0.995557408151776,0.997379332352878,1.02224063200464,0.99761569408659,0.996728598930834,0.998786268567631,0.998418538502092,0.999651322947273,0.999298865736067,0.999198832764287,0.998645660677785,0.998611222172005,0.998136939681255,0.998956916598947,0.999114180974799,0.999744759334764,0.999843435922052,1.0006548306861,1.00106646672647,1.00283591511922,1.00425964513683,1.00605332228704,1.00703884271437,1.00744721850114,1.00892456903962,1.0074738104903,1.0080591359962,1.00689348168295,1.00670964090603,1.00784750819892,1.0080688545815,1.00988309647343,1.01025832535999,1.01248621757075,1.01338046868666,1.014837364568,1.01436869403236,1.01616000571344,1.01494710901634,1.01633202219758,1.01476458266367,1.0156657538161,1.01481740368537,1.02284171070512,1.0476456725313,1.04389595052719,1.05353133889314,1.0429270930198,1.03661698209819,1.02829395920037,1.02144967355949,1.02232840479826,1.04230996307762,1.02380244118864,1.02393614214439,1.02412457552003,1.02454479329667,1.02368711934997,1.02394068159055,1.0228339119254,1.02274018753637,1.02185261863404,1.02195787857148,1.02121576275436,1.02149458116557,1.02101009541951,1.02132166486169,1.02154362806431,1.02190844719768,1.02218839470358,1.02182936509997,1.0220775646378,1.02114863064275,1.0213382762812,1.02030545877253,1.02050959593474,1.01976962340389,1.01957309989744,1.01846453895755,1.01841322285797,1.01727832234883
1.03816958019941,1.04190097208057,1.05473768410494,1.09383320222615,1.0255673675443,0.966803498681443,0.968818499769272,0.967457550066389,0.969145919605771,0.968074995606881,0.968996677217495,0.967694238514728,0.967959474845749,0.967340123867941,1.02863024433435,1.08339861561318,1.08043803589214,1.07806151578265,1.07114089403253,1.07347853434835,1.0548121356718,0.993988867503522,0.994635009634104,0.994188763015939,0.994742772796569,0.995407145686777,0.993886362340762,0.994962723324266,0.992154584047654,0.993170651078123,0.991256803854269,0.991796874697271,0.990235345196258,0.990072204924763,0.990213136566088,0.991778929291446,0.990993414942741,0.994045471803413,0.991642957878977,0.994315434336852,0.991513905761526,0.994595084420933,0.990928780826655,0.993677783735203,0.990509051376823,0.99403620276473,0.990814729116682,0.994754142233352,0.991014800953924,0.995012468683908,0.991321191483104,0.99643809681448,0.99117399957727,0.995706200931407,0.991056069565035,0.995736264381761,0.991144642080686,0.994114700076553,0.990684109785746,0.992094547064445,0.990329480141835,0.990027855208109,0.990428212009267,0.990181825333738,0.990574955416743,1.02215399251931,1.01496861762188,1.00512585332322,1.01073768586816,1.0212001426155,0.996597048807412,0.993145331788369,0.994151158399615,0.994193057278469,0.99440739634873,0.995033391206048,0.994466019712055,0.995829112146482,0.994382191796761,0.994947420278451,0.994042053045246,0.99416692722671,0.993737712580017,0.993932116242544,0.993122030938711,1.01352498453821,1.01399408695735,1.01788927891024,0.994323233605555,0.994621588178162,0.99472905746699,0.99447768752915,0.99496786133389,0.995034980811602,0.995984089679105,0.997631075954443,0.997716064332094,1.00046564306365,0.99933545616149,1.00043641173372,0.999304561644327,0.999192817810968,0.998903296603673,0.999092410367428,0.999264907843393,1.0000566545712,0.999808187894706,0.999757802962219,1.00059551602734,1.00075653242569,1.01480982566651,1.04659866731857,1.00716784216879,1.00744064736888,1.00778804476305,1.00784643344453,1.0078733001501,1.0074236496496,1.00738437715869,1.00769605917697,1.00778304567507,1.00950368950372,1.00981919557862,1.01169376926829,1.01256827621492,1.014301783983,1.01452082104178,1.01645508630537,1.01547350224653,1.01730948526464,1.01523082557971,1.01568350604613,1.01463139045868,1.01419095596576,1.02899486363862,1.14361568227553,1.04066854878381,1.03574921485988,1.03167675703474,1.02028763572998,1.02065764215573,1.02091514013359,1.02264665751809,1.02298333989437,1.02329174899216,1.02397106168786,1.02389040492428,1.02376744263433,1.02282633473884,1.02305315553235,1.02225860603604,1.02141120212029,1.02145828198017,1.02054674952572,1.02093654207312,1.02005978375213,1.02066427349038,1.02017086653065,1.02075296100169,1.02056712135571,1.02095197829749,1.02069441587895,1.02088519301355,1.02081590499579,1.02053985402704,1.02065693568693,1.02012727702874,1.02033554216187,1.01933478848351,1.01904038918877,1.01806437329362,1.0175491394041
1.0551378293211,1.06294683404927,1.06539913292205,1.07601360884337,1.07802123117401,1.0905709460231,0.972798939742289,0.970656909135841,0.970749059011491,0.969551560843923,0.96926340036278,0.967427260128495,0.96770493912464,0.964312665374565,0.999988076207673,0.972605861581146,1.04530472480686,1.0749619692643,1.07334418210523,1.07383232521775,1.05938003744351,1.06878288191742,1.00947856542505,0.995258027955853,0.995553520444423,0.995352214938624,0.994194806823371,0.991694632991556,0.99221796111362,0.990588680623564,0.992500640739004,0.990200205752155,0.99024544607421,0.989041500540806,0.990003741294977,0.988734973563008,0.990943352520622,0.989719595341357,0.991929021355498,0.99019728627724,0.992059723108542,0.989327148870096,0.991621777649363,0.988970523234776,0.991313358674369,0.988338102132209,0.991705985628051,0.989153883638774,0.992405599742124,0.989469250346051,0.992663198356971,0.989299386056199,0.99238754143507,0.988695543574395,0.992460194736471,0.989864407722848,0.992127307096137,0.988510892141862,0.991301310816224,0.989433584522316,0.990525073062462,0.990190013007484,0.989664229171975,0.990238751065136,0.989303819395882,1.06115465902072,1.02941270444168,1.333357918827,1.01610219218458,1.01782269175472,0.993970319106007,0.992895452868944,0.993564771133034,0.99372126129587,0.99401907771147,0.99340134621866,0.994300782258885,0.993400516528666,0.994312074055281,0.993278631954613,0.993660373422784,0.992810424145469,0.992698931998254,0.992378366346102,0.991820125801992,1.01125941182725,1.01351448701946,1.81545209642309,0.993361397742621,0.993145058140006,0.993933276823186,0.99388420690055,0.994628376904793,0.994437571124102,0.995883891563367,0.995396494585619,0.997907805851103,0.998150560111544,0.999575095672155,0.999587711513445,0.99944338628511,0.998433687983798,0.999242332020609,0.999377921110789,0.99963598126848,0.999380918275712,1.00013571647631,1.00046996705709,1.00118140387033,1.04489773677423,1.02746018841958,1.04770303402643,1.00712820720112,1.0072385071342,1.00715443762056,1.00754367762664,1.00712067196922,1.00767550964211,1.00720603911364,1.0071121098486,1.00784413442572,1.007605423396,1.01050983557399,1.01230987634877,1.01340677150305,1.01384820800511,1.01491121689428,1.01500281717119,1.01587957147052,1.0151960534308,1.01542940250123,1.01403989850383,1.01445454966279,1.0470234023235,1.03737114407724,1.04552872678449,1.03740258586077,1.03557007508325,1.02740129590441,1.02094934438642,1.02082199447711,1.02210294001405,1.02389185710036,1.02346010735198,1.0278096323919,1.04286274678246,1.044561039333,1.04606604247875,1.02081101451275,1.0211360689543,1.02064909194228,1.02097101160893,1.02035505137099,1.02075984730534,1.02005052926742,1.02051410543668,1.01982375198313,1.02010054921595,1.01989239444954,1.02006638883355,1.02007468331608,1.01989826027561,1.02024147517678,1.02014448791789,1.02029200721092,1.01994835780689,1.02007976709444,1.01961400261012,1.01939532272986,1.01839042530368,1.01803689026961,1.0168056750976
1.05691794127982,1.06080652002674,1.06733291900655,1.07782686617131,1.08173739808158,1.08655422708594,0.974811713824921,0.973278602405959,0.97262755670997,0.971652618706072,0.970655086964919,0.969391817500829,0.969796908101213,0.997335564776334,1.00159540998011,1.0048623874592,1.01189499140144,1.02193761110628,1.03337111576515,1.04412793099646,1.05215921393281,1.05630660160088,1.01530469504088,1.01171844930602,0.995641362498398,0.993801166042908,0.993005364297235,0.99218630915796,0.991174089133755,0.991955573880266,0.993074448654051,0.991508277519432,0.989562906378082,0.989455491748792,0.989219519103898,0.989763837327433,0.98977964420272,0.990701697727451,0.990568393678208,0.991612358111124,0.990720507590438,0.99123032290101,0.990070994648598,0.990637745553048,0.98961252918628,0.990542162501587,0.989886252223925,0.991416926097505,0.990424990784926,0.991856897007553,0.990218293293507,0.991116642812147,0.989732047302319,0.990859915598498,0.990116369125945,0.991413501573199,0.990413099855184,0.990784129500196,0.990995106854649,0.991500292297604,0.990850379275018,0.989856708418666,0.989248442957431,0.988926155456796,0.988564377051364,0.991604576390676,0.998314318548269,1.01966784174434,1.01765317810116,1.01798684438639,0.992865042740451,0.992795223642218,0.992950179796137,0.993140664481227,0.99321781809376,0.993611259135468,0.993485744973173,0.993947823309068,0.993548223301677,0.993669028332104,0.992823281651106,0.992429860229516,0.991621629107075,0.991423303072408,0.990803615446881,0.990792612872422,0.991037953623849,0.991761571979778,0.99243178578582,0.993020517825156,0.993173417979613,0.993794643056349,0.994026691591619,0.995111112738054,0.995222313826126,0.996545464822841,0.997012594469251,0.998725245283674,0.998835142196552,0.999727462058363,0.99942946890981,0.99954971283594,0.999743258397249,1.00000434228107,1.00000751178772,1.0001537742718,1.00036931879613,1.00089717179393,1.00188061504243,1.00327746968583,1.00444711677037,1.00517893499439,1.00626387370367,1.00658305781983,1.00662938771394,1.00650018745229,1.00663217472113,1.00672656871421,1.0068918313393,1.00718489489265,1.00764216619163,1.00811706594406,1.010892845682,1.01244967880608,1.0134332014449,1.01435964317864,1.01466913631321,1.01530211429004,1.0150271469352,1.01525672977074,1.01432705929573,1.01389026763538,1.01339577469784,1.01289942385243,1.01267396598881,1.01313032248802,1.01449839771727,1.01610295336191,1.01734621820277,1.01979743670827,1.02110920341383,1.02319784660324,1.02831283935625,1.030797521744,1.03177412841364,1.04350054010789,1.04376461720038,1.04354393631603,1.01966227982848,1.01965308070879,1.01995682138379,1.01967852322543,1.02002018575782,1.0196109616028,1.01981022261227,1.01940606902034,1.01952811721391,1.01925281602066,1.01943235931452,1.01936226729697,1.01949266918696,1.01945212095353,1.01963378492583,1.01976804126241,1.01975607995901,1.01986000660536,1.01977563313813,1.01977555694003,1.01928967451649,1.018637571159,1.0178248400867,1.0167878878406
1.06289930069783,1.04570143673909,1.06940530821248,1.08755339159192,1.08627013778498,1.08838631017789,0.97538822246263,0.972951504748467,0.97305928500368,0.973124755446072,0.971071904457578,0.968777509534021,0.970312538656735,1.09025940987385,1.03346011595452,1.06857174830962,1.01061254424661,0.97410702135912,0.974312968819925,0.976812775945285,1.01744815972189,1.06250964280757,1.03295041037772,1.03003306359534,0.995362681114415,0.992793716615799,0.992428463931795,0.991786188532025,0.990513860915818,1.00515932111736,1.00211501577533,1.00618700860431,0.989267497302279,0.988363317134006,0.989708272148149,0.987924915016221,0.990074840006788,0.988745691715866,0.990857000678044,0.990367901235936,0.991298821155485,0.989452725384683,0.990580989920608,0.987868638187023,0.990215384049198,0.987510073485005,0.990694528922393,0.988504366441488,0.991263327824692,0.989188271624134,0.990579728141068,0.987212182629049,0.989644235081566,0.987632821496452,0.989969432750102,0.989476147263063,0.990156509372293,0.989456870651326,0.991613042899389,0.994034504258227,0.992125425491019,1.0369034991986,1.01290405121004,1.02846657067717,0.985718692345924,0.985531942997677,0.996811743851087,1.01608833673335,1.01693652619817,1.06937920079845,0.992636805374978,0.992045974988748,0.992401630084859,0.991329873672557,0.99282149742783,0.992223428847501,0.993512776960523,0.993014096783756,0.993715912405567,0.993065232684722,0.992753869492987,0.991093093656282,0.991422836602849,0.990270025748857,0.990871932550257,0.990320309513264,0.991249424691863,0.990996440037363,0.992248683144652,0.991421269710338,0.993092658451771,0.991817719290506,0.994380653371883,0.993624585451288,0.99584185111947,0.994405054637937,0.997607591285685,0.997173550624349,0.999346681034317,0.998742892828149,0.999940572549918,0.999622944208483,1.00041492547798,1.00032622824479,1.00051967530863,1.00013793218106,1.00048024976202,1.00006381729169,1.00164739222753,1.00236288055347,1.00361218863634,1.0036669037738,1.00527093914223,1.00580688084213,1.00602304268286,1.00566014323682,1.00607922257285,1.00618533838338,1.00643914304063,1.00667498096535,1.00692917344049,1.00699772012587,1.01844127161058,1.05737858945481,1.03527642085209,1.01490872810207,1.01499403779941,1.01521234421815,1.01499680273911,1.01403323786626,1.01389496547277,1.01200775980346,1.01266237548768,1.01224447886647,1.01153376430442,1.01052398297372,1.01584255018561,1.01709843195565,1.01771109318888,1.020596536845,1.02091787331892,1.02201435139253,1.03287968238837,1.28595366075348,1.04333667762461,1.04107317032577,1.04261240374517,1.04206692034152,1.01870362938716,1.0201167988617,1.01896175262795,1.0205141301794,1.01911605026655,1.02027954140403,1.01901739944797,1.01979609398041,1.0188266963264,1.0193256740771,1.01875541623931,1.01913188482186,1.01880656603144,1.01896034853524,1.01902002402269,1.01917210938143,1.01933636471147,1.01924116724305,1.0196194311684,1.01968018844496,1.0192575989395,1.01816701255282,1.0174249720289,1.01579394990934
1.0687012872448,1.07096172834826,1.07205054703325,1.08973695427969,1.08816037533819,1.08885828274594,0.975930803433612,0.973049089564636,0.972766329111809,0.971784777503146,0.971355574673105,0.970602983198888,0.971165960301401,0.971717771562629,1.01225016178977,1.06853972430502,0.99526995953644,0.971504797402947,0.972649948629401,0.973499390284591,0.999672472413654,1.05406904858862,1.0336830736225,1.03156802674319,0.995449629383126,0.992444347473211,0.992088032432614,0.991588544941141,0.989630158109216,0.987039948825646,0.987427648724142,0.988125231888086,0.988868220572069,0.989912725701146,0.989993404942432,0.993246771203962,0.989962119625968,0.990838205152215,0.989668648260484,0.992531563372789,0.989913107506634,0.991388705205461,0.989294463190527,0.991524831050195,0.989239229114381,0.992481180818149,0.989158996657944,0.99253735045674,0.988655225418258,0.991786170283837,0.987853373782823,0.990096222191638,0.987432076930969,0.989529890183324,0.988095376415417,0.989270230080693,0.989115047775426,1.0189712878837,0.99234892239173,0.992931998997714,0.992701402750662,0.99279214783443,0.99064723779995,0.984860932215568,0.984629865850744,0.984345309627729,0.985528270707846,0.986420717773063,0.987575486298903,0.98830787341535,0.989744574347884,0.99166498280933,0.991581053642579,0.992395435831599,0.992088996887527,0.993857941323235,0.992792753039979,0.994316065000807,0.993012103513415,0.994635244098727,0.991779872634104,0.991801190586163,0.990384261292186,0.991600891334438,0.990239494999446,0.991617463649437,0.990838042119738,0.992177961517602,0.991597452557849,0.993357601271093,0.992111063929612,0.994462874992489,0.993021258556056,0.996385663338317,0.994283986013776,0.997642708655762,0.996159294590078,1.00026860588169,0.998154956685362,1.00069292401794,0.999385117594007,1.00029932335142,1.00079214087068,1.0010370197207,1.00076827484095,1.00058051682279,1.00033796892621,1.00060428822964,1.00135336907001,1.00241167052879,1.00313490287635,1.00367770585297,1.0047253620085,1.00553493439522,1.00573502838084,1.00634334731721,1.00579391324528,1.00575575975416,1.00582562720927,1.00606830113259,1.01074929364145,1.0300011050322,1.03184041484817,1.05645629742314,1.05176715834353,1.06876368651983,1.0224687521493,1.01457894431493,1.01414609123734,1.01477111031057,1.01328383570688,1.01314182128115,1.01212457910278,1.01113981110445,1.01199824092511,1.01224325988051,1.01441341049394,1.01443273886238,1.01647994043771,1.05354650785239,1.03029767311277,1.04289473118768,1.03470254996518,1.0625972950805,1.05014792198688,1.08566553162435,1.02310230712718,1.01767386954256,1.01833751943362,1.01753754222686,1.01919487595361,1.0177294180979,1.01948803419228,1.01797232528046,1.01929312700438,1.01806481020044,1.01890412058936,1.01805130493058,1.01857594558525,1.01809314070073,1.018423763583,1.01821016838141,1.01846959228856,1.0186330256814,1.01872777829689,1.01921521049563,1.01908593301862,1.01923255164139,1.01921653917177,1.09347619755712,1.01731762249212,1.01492605667668
1.06520266985259,1.08099303320898,1.07606443509674,1.25924662953896,1.03440298507094,0.977590562880303,0.977341334366707,0.971029194635218,0.972036370406229,0.971496525500042,0.971278296149805,0.970470615541646,0.97147470800943,0.971857179323972,0.972737093196989,0.973286502846899,0.971853239204996,0.970872582206906,0.970852699516078,0.970071229764928,0.970325988703908,0.970996650531268,1.01980408470902,1.02837907659533,0.995987620890811,0.991102895918488,0.991016462704567,0.990612698535977,0.989265094609737,0.988437270317129,0.988736027746025,0.990299361099216,0.99062921496363,0.990231949901947,0.991625487227547,0.990698885132944,0.99062028271789,0.987354725807159,0.989561579721298,0.987682780729791,0.990342151365856,0.988363344533406,0.990750266926895,0.988257628582325,0.991146763139044,0.988917944814448,0.990801763103013,0.986341383437912,0.989572173122679,0.985484733139548,0.988708584050084,0.985495052953173,0.988283549353533,0.98610885630872,0.988419459285914,0.987604958882503,0.989116365582206,0.989935587859554,0.990488091931355,0.992167037739266,0.990303178193001,0.990665944481153,0.987545576521586,0.985583107978519,0.984126999539811,0.984035245308099,0.985190014949587,0.985728307507943,0.987667869180068,0.988264659624155,0.99002373247537,0.990476004560245,0.991666840825208,0.991222699293266,0.992345421657643,0.991356923965932,0.992810559365063,0.992375307961134,0.992265635900534,0.990247390097035,0.991062800559282,0.989317969326631,0.99067821718911,0.989418733320747,0.990837838329522,0.989837949037332,0.991186516976072,0.99023763224704,0.991824099584157,0.990311202841603,0.992919275142976,0.991211796817928,0.994284892005382,0.991851748136687,0.995639641145501,0.9933351349011,0.997087391117084,0.994838006673369,0.998443053834177,0.997059942124587,0.999524284205679,0.998994521193095,1.00183405389464,1.03853131050853,1.0015877765962,0.999956119086798,1.00092429852574,1.00022166177947,1.00140722996444,1.00141903529348,1.00275781185191,1.00319252860876,1.00442195284194,1.00529021976078,1.00549001940098,1.00549557640206,1.00549320129247,1.00502791839607,1.00533875088356,1.0049717900553,1.01184368715999,1.02662048483632,1.03339580986969,1.03248172878205,1.04981229410641,1.04820738101574,1.02745456011662,1.01316059688372,1.01386019881256,1.01304371824526,1.0134711943647,1.01204133248699,1.01208417081391,1.01107708069235,1.01191525704348,1.01352358935635,1.01336746009605,1.01482345427462,1.01558910683936,1.01687802539813,1.01696183165397,1.01715174020176,1.01675825484027,1.0163343902646,1.01675064634087,1.01732274795119,1.01698065415402,1.01737057473668,1.01701432167638,1.01867201625948,1.01745100443281,1.01942537886483,1.01783210580931,1.01940182474019,1.01793509294538,1.01891818248592,1.0177957335093,1.01831033073417,1.01759858857213,1.01784734802079,1.01755046369613,1.01764816009169,1.01772566565071,1.01753046818707,1.01826074082386,1.01821169283086,1.01897350205437,1.01893027995339,1.01901941869427,1.01838035642918,1.01732405961303,1.09843621007571
1.06186098657311,1.08230066045511,1.04207288094783,0.976672004986371,0.977766016755139,0.977234595915683,0.976678829590352,0.973548379967648,0.973185716804194,0.971417355448237,0.971827876708506,0.971146784449416,0.971993765982832,0.972571311996019,0.972931088366224,0.972909072013323,0.971598964850792,0.968402083387825,0.969679022011612,0.967923781128378,0.969194683635217,0.968777783076473,1.00704143351698,1.05777408668932,0.996415307361914,0.990724911578497,0.99067255077838,0.989071922718753,0.989637273327823,0.988820346617214,0.989760518088349,0.991121234483573,0.990991285296143,0.992088682597417,0.991123556144651,0.992180747156017,0.989570589036771,0.988932901879295,0.988616420512035,0.989972074783407,0.989789564012347,0.992108444156093,0.990332598535399,0.991956348645303,0.990088636142806,0.992091017656102,0.989307977482881,0.990975697614451,0.987787347497791,0.989049975620668,0.986881966446503,0.988583366216326,0.986956691068268,0.988336080886293,0.987565888836782,0.988380297238179,0.988589126517572,0.98868112190513,0.989649926872011,0.988698841457426,0.989134687641715,0.986659548017458,0.985820399879708,0.982280629760711,0.983359738108812,1.08137953885938,0.997732126595771,0.98616581251672,0.988526133871922,0.989959528128412,0.990362151974316,0.991253232563666,0.991114505684376,0.991965319218656,0.99154348698428,0.992588453373334,0.991536516446291,0.991647471881604,0.990724567530905,0.990404659063048,0.989859360372273,0.990218683782584,0.989735486273657,0.990863320589934,0.990139264211738,0.990995782279648,0.990692228930193,0.990887283811771,0.991391359474129,0.992206850250234,0.992331048408008,0.994463188682702,0.993471700367599,0.995827636959726,0.994635234044469,0.997286738983296,0.995977478398255,0.998405586698292,0.997338232747336,0.998593796054735,0.998908405913424,1.05774484114199,1.00415679226163,1.0038404225635,1.00304095904325,1.00272384327967,1.00167314706469,1.00149122785488,1.00160209867088,1.00207840474944,1.00288356830348,1.0037367572589,1.00426996546697,1.00464460159305,1.00504883007299,1.00531543757233,1.00520980395882,1.0051354142049,1.00524037775286,1.00505217315557,1.01203527636375,1.05360483802369,1.03429897073084,1.03432312713438,1.0512122834077,1.05114746816226,1.03262512979899,1.01180207257606,1.01340374460306,1.01370086724922,1.01331175503248,1.01326349457681,1.01246222192506,1.01194437022222,1.01227938423888,1.01150513461928,1.01335560291088,1.01296508995343,1.01550690175785,1.01634297622462,1.01692519638088,1.01667748243377,1.01692593862636,1.01625327304545,1.01693728279915,1.01620526714425,1.01710868659835,1.01595340172567,1.01749087550345,1.01636781339079,1.01825955137013,1.01694591425796,1.01866090527123,1.017387036257,1.01860774635404,1.01748376868104,1.01823432874305,1.01730774001603,1.01774799762873,1.01711250212485,1.01746706417038,1.01719535522522,1.01753908399528,1.01749435310401,1.01796725512282,1.01818891389513,1.01872144948821,1.01913856008138,1.01893583248761,1.01869412030732,1.01700957892325,1.0301636813155
1.04715033201375,1.02560532424469,1.00973421738337,0.978430607165522,0.978706433399382,0.978443325294252,0.97747522542958,0.976093952546155,0.974876655756908,0.9739346835687,0.972971184371941,0.972344696725323,0.972561703426617,0.972945365002272,0.973121525894207,0.97318371571305,0.972281737313597,0.971341180003064,0.970249195136311,0.969063037861079,0.968839255831195,0.968452348180074,0.993561962802975,1.02815575700353,0.99606734505881,0.99052689293324,0.99060619537475,0.990227432101456,0.990154119738621,0.990024628085624,0.99042558297796,0.991203062655972,0.991615605827749,0.991716316812503,0.991518806293067,0.990435054805632,0.99010404406798,0.988817560185277,0.989673374194766,0.989687280989025,0.990789359480508,0.990928094360679,0.991302735892561,0.990661112965077,0.990900444659053,0.989988902119186,0.990122628281197,0.988929616933087,0.988697772330521,0.987246928204463,0.98769108091911,0.987096962499125,0.987745515553105,0.987496637030704,0.988185472222314,0.988170216934964,0.98886188985032,0.989009414226473,0.988686604473797,0.988286905367411,0.987418763179128,0.986589990586078,0.984893811428917,0.983670183824881,0.983419842850472,1.01901454048313,1.01182091207582,1.00056940559527,0.989905955602816,0.99024556876881,0.990505159429532,0.990659517491304,0.99100430094684,0.991128212126699,0.991595370555941,0.991597498667095,0.99150300833774,0.990812785618288,0.990681045034235,0.99003881087229,0.990159841116382,0.989750671176572,0.990203009609091,0.989984623509227,0.990609311454061,0.990539334313169,0.991428883817679,0.991690832575896,0.992796879783085,0.992741464227001,0.993975092176799,0.993967595545598,0.995274981857453,0.995010319745028,0.99635976205936,0.995997138018568,0.997266294493409,0.996932934175068,0.998204777036275,0.997923184728582,0.998556919138085,1.00773305989498,1.006098201915,1.00521117231347,1.00432512112617,1.0032010320764,1.00282622090428,1.00212289669772,1.00254875007301,1.0025796662345,1.00341408917263,1.00401619240328,1.00442377274995,1.00483203539074,1.00498394179417,1.00516114287482,1.00521625004062,1.00526863715743,1.00547820963458,1.01542481033616,1.01261302495208,1.02547994213807,1.03464431617518,1.03437110388132,1.05258529994108,1.0534043408229,1.03814064578431,1.03306513358369,1.01480867272904,1.01436186828535,1.01417231490869,1.01341719628956,1.01314034089705,1.01275736290398,1.01289901947925,1.01311953043461,1.01378051489792,1.01455781090317,1.01551113417395,1.01642288116452,1.01661011452585,1.01689788156764,1.01667107540576,1.01705808612936,1.01693233426205,1.01758278646914,1.01705472920391,1.01747048383802,1.01702903331375,1.01791976008247,1.01743735105642,1.01842223839074,1.01785033586309,1.01863811839208,1.01798645793454,1.01846291223625,1.01779644477105,1.01798628558105,1.01741896901077,1.01745888749645,1.01721687570913,1.0173201806578,1.01752686290702,1.01776145570273,1.01847706184246,1.01867715074427,1.01931597929312,1.01928611761682,1.01889193750163,1.01789121051616,1.01648154920104,1.01524315797089
1.04040511389241,0.979325345154675,0.979859779771668,0.979308359661603,0.979677917643786,0.979087090766937,0.978869451528882,0.976875937410847,0.976773901308415,0.975219798103006,0.974126894961907,0.972191951456431,0.972953193631116,0.973029765961651,0.973510663679812,0.973257255341682,0.973325105836121,0.972582856712699,0.971083492069593,0.967610901055627,0.968299265365147,0.967045621362918,0.982430493127538,1.11579144384107,0.994653955416538,0.989412507297855,0.990223222369119,0.989747182731699,0.990175556097639,0.989839568332208,0.990155108943658,0.992995589148331,0.991273930576508,0.992642346874092,0.99082110435935,0.990677211297038,0.989309970768324,0.989747975918259,0.989533044740553,0.991279754595137,0.990799408833432,0.992606282674278,0.991079896900462,0.992107793177861,0.990250835849485,0.991139372789413,0.989336410713607,0.990669014336024,0.987937275577571,0.988039832204504,0.987060111164527,0.988187364188772,0.987487103019074,0.988724104518898,0.988119349878233,0.989110105181037,0.988973230968374,0.990145318061385,0.988116886232513,0.9865157521259,0.986398081810009,0.985560171419813,0.984794239284414,0.983988709230719,0.984118197282861,1.03644142894588,1.02152050719407,1.03741450523197,0.990085474406414,0.990265057294545,0.990106415819019,0.990411126861188,0.990375654187589,0.991317965596308,0.991161516889205,0.9924800630419,0.991120919787825,0.991060135955657,0.990288561704888,0.9905856115542,0.989893264948713,0.990719378186547,0.989813874992826,0.990730323409765,0.990067011568794,0.99057963768864,0.991194664310026,1.02726301329169,0.993483646230583,0.994474458905034,0.994222502497807,0.996778793918538,0.995423340404509,0.998173456089917,0.996286162324157,0.998627507321727,0.99677690804675,0.998421450800681,0.997315075907916,0.998124293891792,0.997794116809005,1.0090191698895,1.00643430154695,1.00690707420032,1.00457408397982,1.0042614640169,1.00310856363002,1.00358482277604,1.00304131216365,1.00366834568395,1.00398888256557,1.00466802924459,1.00491759597755,1.00486781955878,1.00518303400696,1.0049268056256,1.00519624120372,1.00512365040029,1.00548144914278,1.0486732113394,1.01356376097913,1.01945071436674,1.03515271471701,1.03601594950583,1.05176114956221,1.10813473617006,1.04235395342487,1.05660457615684,1.01540542961111,1.01547608867771,1.01435387853861,1.01415046212132,1.01327820892499,1.01343370209053,1.0133357944266,1.0138246402868,1.01438343544295,1.01486146641582,1.0159252986621,1.01595239285196,1.01674121687579,1.01535926215823,1.01697344094505,1.01516203856309,1.01792406963572,1.01643822600008,1.01838856967763,1.01551863564399,1.01813556609898,1.01568913920142,1.01833895965108,1.01638611464705,1.01864038030637,1.01711707569395,1.01868393179778,1.01730417146976,1.01838547380739,1.01714265348416,1.0177478627682,1.0169428952579,1.01717061108574,1.01693208549669,1.01737034389303,1.01764076611105,1.01890492168183,1.01995421065146,1.01967490768288,1.02056383467704,1.01897527947004,1.01716451817607,1.01665411735906,1.01432294085347
1.03198636647158,0.980709141391692,0.980729464786509,0.980436235447264,0.980449475229912,0.980805640934055,0.979778126710715,0.980638298811244,0.977814800331716,0.977307109189081,0.974751350028597,0.973126168313298,0.973210061870218,0.973455063965577,0.973354165655611,0.973826406079354,0.972984064215716,0.973259905052652,0.971476484869058,0.971388743329576,0.968196103012079,0.965114323489633,0.964652681308772,0.963347723395398,0.992475252137429,1.07801790032974,1.03101581164364,0.989568156585729,0.989918048456057,1.06016223737134,0.988542534033129,0.986377406096524,0.989195204785667,1.02378618005416,0.989930709842939,0.987763941111628,0.990122164443085,0.988634392893336,0.990773211946604,0.990257504704319,0.991280965671083,0.990524505959561,0.99108833885603,0.989791956151793,0.990061583918995,0.987947018458355,0.988886416255545,0.987150998272477,0.987620349470714,0.985580700178263,0.987132267499027,0.986982300913017,0.987815352893219,0.987296404173122,0.988877262401728,0.988813324642471,0.989645491688873,0.989298798291503,0.987603145210133,0.985191288247792,0.985201657042198,0.984803898434496,0.984310373565966,0.984363731233261,0.984857145278899,1.03456173358735,1.01285994691515,0.989190432559316,0.989492618393375,0.989503272041394,0.989314840476494,0.988781904661593,0.989527689730439,0.989502790466054,0.990490098556432,0.990386461995726,0.990841953114844,0.990108722151428,0.990325176455583,0.989162618482628,0.99007318403668,0.989148220806874,0.990060460275594,0.988742333729544,0.990344315214353,0.989549836154102,0.991872906610242,0.992933373965272,0.9941041697192,0.993290162390262,0.995700926276464,0.994140750354247,0.997133673562008,0.995103777123999,0.997984362977675,0.996020120871976,0.998302034513916,0.996083335600014,0.998349922201256,0.996663718814979,0.998721924916488,1.00066383825493,1.00433976060901,1.00295478146346,1.00437129096965,1.00316603942377,1.00439574488282,1.00360915868476,1.00503263558102,1.00522368277965,1.00533172140896,1.00542767585055,1.00509346953503,1.00571404242948,1.00491686454735,1.0051183932633,1.00504470119849,1.00513093630965,1.00557582259612,1.00566114241062,1.01061338372476,1.0344706501243,1.03529301563572,1.03682977940617,1.05108598848632,1.07146093348794,1.03379622960806,1.01532707846783,1.01560893557188,1.01529131498079,1.01461087116167,1.0132226901989,1.01349127365351,1.0129713950294,1.01387174922364,1.01425416169942,1.0151333999105,1.01601755318152,1.01644966266655,1.01725894248012,1.01645624314153,1.01716589340851,1.01616815642693,1.01860136344811,1.01728174284251,1.02139361319412,1.01801917620902,1.02113941649962,1.01743177665829,1.01987940597268,1.01721824796168,1.01984725182194,1.01746080217129,1.01970717060198,1.01761390539693,1.01949648539424,1.01756826763599,1.01881099965551,1.0171619147056,1.01764302011901,1.01664905236437,1.01639461234301,1.01695594445452,1.07568778336985,1.02042516132524,1.02047142826472,1.02067624016923,1.01972051786129,1.01953445203786,1.01937951689431,1.01731755394598,1.01664959390643
1.02174890111773,0.982026007229447,0.981581318052192,0.981344529534296,0.981411532529267,0.980964763749491,0.98117348220617,0.979873997590525,0.979412355216254,0.97730276225851,0.976275835740642,0.973982905276651,0.974294056367949,0.973655132699191,0.974061556757037,0.973315952078628,0.973925298629263,0.972670129950203,0.972496038927379,0.969035319557055,0.968622538446712,0.966168506131387,0.965349732962083,0.964017422075704,0.990311423590952,1.09402555799593,1.05785353364624,1.09454525121848,0.988597860510772,0.986402271177814,0.987127611010106,0.987726251651245,0.987680285849701,0.987630170476122,0.988840939901638,0.9911725975241,0.989960020669839,0.992617323097246,0.9902835819596,0.991673644687009,0.990122810787597,0.991168810260099,0.989603551419707,0.99066120755031,0.988481921841562,0.989316577380234,0.987216140505026,0.987868283569133,0.986367918648543,0.987161912379399,0.986103520045266,0.98658455730944,0.986895374470705,0.988670906431888,0.988427118979926,0.990589430154112,0.988918348753145,0.99003293050405,0.986638304132851,0.984583858140463,0.984466850669004,0.984060952982801,0.984037429737517,0.984939931350908,0.985979128115642,1.03114596919289,1.00101318361984,0.989630830260636,0.98909760281571,0.988977938903624,0.98867419080043,0.988559861068864,0.98872075421407,0.989229845700946,0.989707023448782,0.990950026350298,0.990341999880992,0.990715968276993,0.990139967641879,0.990643558718838,0.989835418870778,0.990443158169013,0.989598584387745,0.990070381814149,0.990284675708967,0.991626139404753,0.992067415784977,0.993585316561602,0.994015560142239,0.996168050137633,0.99571541816133,0.999304515729337,0.996759265821851,0.999487569032998,0.997037284994241,0.999591341079863,0.99736403119938,0.999455570133548,0.997795458467854,0.999377373178304,0.998208788548553,1.01328121006883,1.0039213836272,1.00479091824799,1.00402245154947,1.00537715122633,1.00415115253583,1.00593477310476,1.00487280492112,1.00677493298395,1.00549395423722,1.00571392826538,1.00555051211003,1.00500174246115,1.00534718066267,1.0046689543564,1.00547776034788,1.00555740360886,1.00608616091681,1.00650163301132,1.00911646487867,1.05158320791469,1.0518668287472,1.05517600832126,1.05283032965499,1.06359048967706,1.02716432262534,1.01506129147451,1.01513115235822,1.0156139822543,1.01369376471769,1.01286442115116,1.01281901583521,1.01261280805024,1.01371966697615,1.0149139556251,1.01526577458968,1.01575812067877,1.01725061013138,1.01758725471232,1.01780620611811,1.01635421828217,1.01786102619918,1.01597131845743,1.01902891602379,1.01770925620126,1.01991678124542,1.01767823687876,1.01953962762686,1.01742516541145,1.0194042092425,1.01781364375487,1.01921785506473,1.01693044398868,1.01893680904824,1.01721351868143,1.01861071060593,1.01692020504382,1.01760501004629,1.01650474050353,1.01643556476684,1.01558496819437,1.0164835413411,1.05229788371008,1.02028431132598,1.02129774615324,1.02007996912637,1.02066978150969,1.01911530797115,1.0178090327924,1.01808118697228,1.01717118208804
1.01056777631662,0.982288528991902,0.982033617060279,0.981537679145422,0.981666055394919,0.982077885978633,0.98120789821663,0.981711072507382,0.979543018165237,0.978844947405851,0.977036829155819,0.976111710476565,0.975080133763011,0.974442482172323,0.974152521183622,0.974339667203494,0.973878761064937,0.974536199018086,0.973922391285427,0.976320657119269,0.968883291634407,0.967274409551682,0.966041527429104,0.964282042843781,0.989007283943459,1.03324728424375,1.03123771669122,1.0281747252672,0.987915602527342,0.985601972034217,0.986504003706843,0.985804357083464,0.987035418064261,0.986355881538389,0.988903542775073,0.989499062173178,0.990526892878718,0.989494089632804,0.990425734199235,0.989336711042513,0.989814230513755,0.988832717751661,0.988807715459669,0.987011218068767,0.987448567794358,0.985835510610237,0.986287107027948,0.984906637805195,0.985804726440025,0.984849092955053,0.985976877280024,0.985553678606529,0.986910525503279,0.987204618291864,0.988377392414539,0.989088444216363,0.988071658983555,0.986293603217079,0.985672333372518,0.983997046099504,0.983926946750488,0.983497596879573,0.982998417818286,1.0456096594469,0.987707868921927,0.988033731185453,0.987800714155071,0.988055460476535,0.987934214678257,0.987756922149365,0.987808130689139,0.987808345116147,0.988156711323841,0.98829673804785,0.989213278988974,0.989966062625314,0.990133940961101,0.990256476867895,0.990335857248713,0.990138546160516,0.990216212732404,0.989363524200513,0.990443235852185,0.990476298313651,0.991339888943826,0.991429199392693,0.99266071890673,0.992855999855247,0.994811618257883,0.995720626605001,0.996972368085584,0.99656977772795,0.998066507812532,0.996892533835114,0.998320884830083,0.996803813304045,0.998749214505158,0.99821536561557,0.999105169513085,0.9983421663475,0.999331790065948,1.00089121402845,1.00300205164961,1.00348787080975,1.00376714492561,1.00307382089444,1.00442845504639,1.00425476238382,1.0052179897861,1.00442751241039,1.00537178310462,1.00546081961514,1.00507498018093,1.00538670637022,1.00493427728045,1.0055485446501,1.00561094910353,1.00651636616008,1.00635365882232,1.00654328822893,1.00912240973727,1.05326421200936,1.05232309919996,1.05184889640572,1.05186109193773,1.19881149759843,1.02353173605768,1.01535743778712,1.01450745988692,1.01261541370398,1.01259603689223,1.01085964088382,1.02400094596087,1.07714186950864,1.02925504594735,1.03046364720172,1.03321683508015,1.07972321943846,1.01806535745215,1.0183903694863,1.01750781815847,1.01840410620795,1.01708984172242,1.01861376279085,1.01762389365777,1.02002528617464,1.01789803975144,1.01970913873996,1.0171070055218,1.01903014298342,1.01714488315268,1.01982455452697,1.01766509919318,1.01929236869663,1.01807173525815,1.0200531200544,1.01781545429641,1.01805980238252,1.01652309440771,1.01632484821064,1.01548740423116,1.01484773895967,1.01582135607731,1.0480045720893,1.01971539205369,1.01967410150536,1.02003588930715,1.01942566087893,1.01898069196485,1.01795484807943,1.01827863779588,1.01889847470536
1.00051230364518,0.982335975651096,0.982245155170578,0.981856243428283,0.981893060950956,0.981581174658116,0.981464374191563,0.980837972107807,0.980127021680178,0.978950795429636,0.978176891890391,0.977131894453758,0.976198166743806,0.97500923381519,0.974742208589276,0.974257516648005,0.974313480326676,0.973991111730806,0.973948069885336,0.973569529773901,0.970991079360712,0.969054439603238,0.966802608694941,0.96462899693838,0.988782006155799,1.03137580801813,1.03019434567399,1.02887481932164,0.987576310170547,0.986600763344689,0.98627515922481,0.986549419329054,0.98674746470915,0.987540457441895,0.988282992178445,0.989611439028128,0.989442417706279,0.990034342148927,0.989234535626228,0.989278861387927,0.988260221022808,0.988087444115382,0.987196624698815,0.98700860862187,0.98583192146868,0.985209408086354,0.984754307671369,0.984623702959792,0.985105334231593,0.985495680112967,0.985796140610019,0.986023564259623,0.986347766554921,0.986906312362064,0.986815278539038,0.986974335211124,0.986111626512423,0.985421594867205,0.984657398360943,0.98394778000913,0.98344263779376,0.982936863656764,0.982427105932386,0.994123445362566,0.988996208668924,0.987829148791129,0.987688178536292,0.987299639994601,0.987552166969179,0.987133359936857,0.987594113749076,0.987546361078347,0.987924591590461,0.988045315715793,0.988567018573761,0.988973842708482,0.989360829847497,0.989708624391111,0.989899734131073,0.990066270619216,0.990105960932207,0.990254080448232,0.99050882592927,0.991034604011009,0.99159299696221,0.992269551172689,0.99316078893836,0.993904997020393,0.994704195725758,0.995746053151203,0.996176919713383,0.997380794757768,0.997247382682235,0.998002856806228,0.997628980000202,0.99817448440028,0.998154348829212,0.99893332899986,0.998764767720531,0.999121629920724,0.999394071561178,1.00027766286467,1.00172912457072,1.00245018320658,1.00300030818666,1.0034473214638,1.00401141021175,1.00474031281132,1.00518266111445,1.00568723543709,1.00564288201285,1.00521391328268,1.00527285608141,1.00472858621412,1.00514709168965,1.00509425296158,1.00572986816409,1.0059802902939,1.00628702344322,1.00626120057599,1.00887911045888,1.05122605684294,1.04562248892491,1.03934146204458,1.03222429819097,1.02625005926577,1.02474395790608,1.02269931145429,1.02199990783245,1.02199366346034,1.02256520585675,1.02327997716455,1.02453983577767,1.02689867921049,1.02820173515796,1.0285067567508,1.0356921241964,1.05300780763429,1.0185913485556,1.01777735109491,1.01766849523044,1.01714592695738,1.01760090729842,1.0175319188228,1.01815396749924,1.0178756083387,1.01786643644368,1.01690100083382,1.01647055632184,1.01570126494627,1.01625355759294,1.0163242260202,1.01737212810301,1.01759147481363,1.01813705168392,1.01797274776649,1.01770901741851,1.01703023845162,1.01608145526104,1.0151587790286,1.01499486756612,1.0146086160335,1.01535056343894,1.01597042899012,1.01772254404544,1.01920189637287,1.01877366641208,1.01864975462478,1.0183538003021,1.01789788886368,1.01825130565671,1.01825778326183
0.993374662730019,0.981936842308207,0.982288870275747,0.981236361051917,0.981727698935907,0.981327127195559,0.981158143122567,0.98111802549726,0.980021993087812,0.979582435291887,0.978613685035029,0.978654793864706,0.976796476206961,0.975022352349843,0.974773098867865,0.974205259890073,0.974131937109972,0.973944494050527,0.973536014351901,0.972887289431514,0.971495964972913,0.969899558582923,0.968222563851347,0.961091057745117,0.988927598463615,1.06744274361629,1.06676767238362,1.06702441876343,0.986850259312475,0.985274154022352,0.986113433876274,0.985644539052205,0.986941809832528,0.98659441770819,0.988403824220841,0.988073944522161,0.989508013234173,0.988770684996495,0.989164447326422,0.987405316764454,0.987758952790749,0.985211902151897,0.986689587212027,0.985406003525279,0.985113341517396,0.982472241929837,0.983600098714857,0.982838346769089,0.984797349013028,0.985377571452729,0.986106117543471,0.985529807128465,0.986117958183921,0.986065027927854,0.985726611568475,0.98465019945267,0.984596559015206,0.983794610809118,0.98381527283689,0.983237548768311,0.983234284370083,0.982558900456013,0.982567016749614,0.997447328249432,0.986408625784461,0.987470872800569,0.986948959986052,0.98755610838061,0.986886949898286,0.987487306668371,0.987207572307017,0.988262801024247,0.98758811976734,0.988282876720202,0.987843128225397,0.98840326099665,0.988507987532467,0.989297304346985,0.989338790624145,0.989686994140303,0.989895378189158,0.990141336586599,0.99045784101935,0.990688953469048,0.99169818247898,0.992674458880969,0.993728950717387,0.994653480053961,0.995102913567826,0.994574095559649,0.9963600076852,0.99658807653941,0.997602356553541,0.997277072079226,0.997935785192592,0.997495056779784,0.998413804657232,0.998450472255395,0.999014560031358,0.999205525446005,0.999377295551598,0.999936718483774,1.00083327206563,1.00178927782685,1.00260028921562,1.00317303618891,1.00413637535607,1.0044824867492,1.00569769091343,1.00729385206836,1.00601391805633,1.00600756773325,1.00492932370999,1.00538563643265,1.00461272609357,1.00563721782435,1.00521400489849,1.00614882989009,1.00560758228456,1.0058903490247,1.00733184289737,1.05541797878894,1.02698954159109,1.01477736556733,1.01704023602506,1.01868092070008,1.01925592479987,1.01947582955961,1.03583528473553,1.08333525090368,1.05547251626051,1.05315526428312,1.03841978937997,1.02866628842479,1.0286474318047,1.0285062218986,1.04064806944879,1.07132587236572,1.01912249755883,1.0169941026289,1.01735522015003,1.01678839973315,1.01759050341995,1.01811304174849,1.01845130290698,1.01832364136881,1.01756729466064,1.01709141407819,1.01560132128066,1.01587671453346,1.01500085059275,1.014873050606,1.03815702123443,1.05251040355637,1.03618716011338,1.01769045436916,1.01673676654349,1.06074038215517,1.01429617552672,1.01433751207501,1.01355040588735,1.01330900912963,1.0139725843344,1.01402667785791,1.01542616603175,1.06014334713306,1.01701968638821,1.01669971315392,1.01737618124262,1.0164871913757,1.01750933952498,1.01719408827985
0.985030942309325,0.984014682444923,0.983118647160773,0.981687566185846,0.982169064132314,0.981066953220433,0.981077523540312,0.980597945585771,0.979703963406024,0.978433197993793,0.97861392410516,0.97799791742128,0.977665260039948,0.976490002277877,0.975267124913219,0.974043592161788,0.974076028933926,0.973775964519772,0.972903836216595,0.97249317163227,0.970544997830539,0.968985093470358,0.966953933450423,0.962737225441209,0.986141378304508,1.06722946724794,1.06623875956274,1.06514370696064,0.986237567141268,0.985867047543646,0.985304192195096,0.986693158776369,0.986036602227147,0.987943036102796,0.98735427680608,0.989528836040617,0.988306222860398,0.990099678119515,0.987746482226278,0.988151576963174,0.986352074098393,0.987341489077707,0.985286557974073,0.985841573734377,0.984198685409862,0.982982219082713,0.983681814632279,0.982348884057276,0.986033896084109,0.9881432610444,0.987439470263759,0.985771444122482,0.985876264593491,0.985909554121279,0.984614053651741,0.983216153835044,0.98345816226968,0.982927586468138,0.983335973460943,0.983260968047454,0.983097295058837,0.983063678446025,0.98276499006489,1.00831624510967,0.986224172267834,0.985895203435257,0.987485847087933,0.986211996312212,0.988185420881903,0.986838568102871,0.988473315644287,0.987255763508892,0.988198923910469,0.987135454533563,0.98777297695772,0.9870365420931,0.987999787809327,0.98794473199146,0.988860902558654,0.988991928740745,0.989592655475093,0.98936939156207,0.990316756929512,0.990789939447158,0.992164671279277,0.99336757322879,0.995101032489417,0.996215354379345,0.996120730915109,0.995989589828843,0.996282319200893,0.997093976909045,0.997293695273156,0.998065656175456,0.997909151453249,0.998169296553144,0.998598237794467,0.999418230075672,0.999377165364953,0.999023434633669,1.0000745786774,0.999670488126497,1.00144422033655,1.00101926270983,1.00344917466419,1.00452717570217,1.00517290352913,1.00556670256526,1.00638039698526,1.00650706084941,1.00702074904004,1.00594226467625,1.00606151652174,1.00323316867782,1.00515255596372,1.00380628909744,1.00540472717261,1.00483817666728,1.00509257759592,1.00398212169702,1.004279975203,1.00462106085074,1.00516604081215,1.00530811902222,1.01578516746473,1.01876879844779,1.01951984591162,1.06467033808994,1.04934188737852,1.0703613307847,1.05825394961971,1.06099810355517,1.04723957987617,1.05802133351781,1.04519085718255,1.05496665271118,1.05056520321892,1.05176445034161,1.02114612722356,1.01944184379278,1.01865690277084,1.01736761800043,1.018344850607,1.01961574589085,1.01955708564836,1.01979667499526,1.02778451033911,1.0453859747377,1.02601626574316,1.00942963113107,1.02450826183025,1.06279939650315,1.05368032821332,1.05580808352699,1.05255878411226,1.05628854596033,1.01457565113551,1.01333863048289,1.01307319167464,1.01227769398689,1.01270689164834,1.01201630442487,1.01324738125942,1.01314838846848,1.01394130836029,1.01310648051639,1.01481272346123,1.06056715150387,1.03776032071289,1.06065417807427,1.03892745895385,1.06319649539386
0.98602525111033,0.984578275559848,0.98454999569541,0.983076025302489,0.983279821140937,0.981062123123931,0.980823174520361,0.980236090726779,0.979047695308342,0.977911297300703,0.9781187181597,0.977989236666961,0.977862783201365,0.977600181700161,0.974291270760518,1.07409787679048,1.01494542751088,0.972705358915292,0.972232589547631,0.970472446261049,0.970546856475867,0.967891741185969,0.968663987418421,0.970129817266556,0.980756021889289,0.972479965162796,0.984350109977075,0.981040382127545,0.983624419794927,0.983961330451984,0.985199058328119,0.984216074357937,0.986178033541974,0.985569852534193,0.987626211286232,0.987234624757535,0.988349755805474,0.987192385950496,0.987945330994012,0.986258154134711,0.986897668431142,0.983736863187534,0.985721628038064,0.983013451728175,0.985685631985838,0.985365614192267,0.986791544464789,0.988182173335985,0.988721584973045,0.990424781483233,0.989496957168955,1.07908733422953,0.986112005772319,0.984501731658682,0.984271027172936,0.983016182780278,0.983324540830234,0.983203559346301,0.983384900466575,0.983284685669574,0.983472371589452,0.982712864049956,0.983439642790548,0.98336650390476,0.985710870177679,0.98723041636808,0.987414184291174,0.989398691729518,0.988382367026815,0.990693879629243,0.988618139353726,0.989882156084976,0.98770671478828,0.988095842695899,0.986789171590441,0.987445135411524,0.986997933097109,0.987818377900668,0.988056127226975,0.988401813042428,1.00227791653394,1.03588875898597,1.03429441247733,1.03097508305883,1.0058019827979,0.994027593015627,0.995959382950331,0.998056279370545,0.997510931005087,0.997089812166004,0.997896544994459,0.997786642702439,0.998570972515293,0.998523055204152,0.998695986413976,0.998460638532964,0.998989454558228,0.999345676448765,0.999715904277636,1.00049761062559,1.00046036443861,1.00165455755675,1.00189324213922,1.00383893952113,1.00396789390507,1.00562214306688,1.0056634197407,1.00661239638679,1.00660602004895,1.00753927227981,1.00675699026952,1.00800340420462,1.00596968407097,1.00697337196186,1.00505617743084,1.00613841511532,1.00468111501572,1.00559489705971,1.00365769898525,1.00263133314907,1.00338818865294,1.00371428833467,1.0059920027627,1.00881076813467,1.01159595655859,1.01181829719837,1.00791068867909,1.00713512278218,1.00385675281394,1.00196359179412,1.03756552794139,1.04053033547324,1.03798972657594,1.0349188001063,1.04184660209395,1.04565597873528,1.04715378707946,1.04503269941318,1.02457074138386,1.01682171027522,1.01886734999272,1.01790846155673,1.01901241300196,1.01902028749703,1.02121125850252,1.03819384446637,1.03652546556355,1.0501799036535,1.03260124608616,1.0106145231727,1.03106289308696,1.05362123342692,1.05351289935988,1.05563854634157,1.04734320233988,1.04460755668115,1.01271032848973,1.01246146410957,1.01104440772353,1.00974884975368,1.0111589463008,1.0123494876302,1.0129692965659,1.01322332647257,1.0138618778939,1.01326991847127,1.01382898744969,1.01188789482526,1.01293255043225,1.01201890540028,1.01299127760585,1.01196031316309
0.987682781980259,0.98638473407905,0.986363946248913,0.985739335822397,0.987131793525729,1.06789653939035,1.05103878219403,1.0746570403055,0.978999381560848,0.977355279778702,0.978287393860629,0.978618996077774,0.978967634210505,0.978539688070239,0.976907710086498,1.06974595618298,1.068451602237,1.06977632001988,1.01089809739538,0.972052109619286,0.971217669206727,0.971873956665829,1.01146364297002,1.06733780424159,1.04353524472423,1.05395495584071,0.98552232947523,0.983000031829751,0.984256501691281,0.984852666810763,0.984714164642153,0.985269688700582,0.985257205253668,0.986877339969336,0.98617607909202,0.987668948845594,0.986340916552006,0.987216451377762,0.985973566282003,0.986227260727775,0.985934648015198,0.985862563220535,0.985739147338861,0.98582199853311,0.986878822115622,0.988584733689825,0.988733542448865,0.989873934582438,0.990190603224903,0.990849227070483,0.990548308792345,0.991459207016009,0.98673259854578,0.984983161084068,0.984384377819333,0.983821059003537,0.983606686965299,0.983694336005065,0.98366020306997,0.983868430875656,0.983909323003376,0.983988676351187,0.984436780349342,0.984760558788755,0.986658691182198,0.987552546115646,0.988901846850157,0.989188631764479,0.990002563486189,0.989556671218909,0.989818290960001,0.989400496808159,0.988096615887585,0.986167728516807,0.986389030400079,0.985761339132193,0.986327972468563,0.986606172444853,0.987697390798369,0.988100119836984,1.01319767020791,1.03733068508577,1.03635585471487,1.03697840710112,1.01164842688355,1.02223899668025,0.997344217244054,0.998678637363842,0.998333613889997,0.999114790136352,0.998407361949566,0.999269559259461,0.998803927097733,0.999569938043763,0.999030472245404,0.999043866718145,0.999404778693719,0.999659991610975,1.00039551935829,1.00055133432487,1.0017250291392,1.00192524075396,1.00337068595488,1.00395601749426,1.00492664675117,1.00528965575974,1.00622001129724,1.00672254537572,1.00716878834182,1.00689358213682,1.00748244235775,1.00640263866055,1.00717416811945,1.00603107677545,1.00604022341705,1.00409082692321,1.00477501216306,1.00346893634868,1.00331225630141,1.00151615331652,1.00263134912445,1.00244377579754,1.00517516999747,1.00811365021527,1.00853104472378,1.00690439358752,1.00609250977675,1.00257346242754,1.00294670737989,1.00143708476752,1.02905191021683,1.03091049554462,1.02916881263807,1.02585905068886,1.03446946173546,1.04444090190251,1.03533840029129,1.02847395086593,1.02800662561228,1.02869595503402,1.02463870237585,1.01396754893559,1.02028147123941,1.02066565222692,1.02342485644947,1.03282577767276,1.03501182211938,1.04284949124981,1.04052133183186,1.04876637878485,1.03965861693806,1.05165387400702,1.05220822950829,1.05109767837488,1.04474442117961,1.04235602633474,1.01046570247546,1.0096515054167,1.01036360611346,1.0095356135928,1.01160733457174,1.01221527199361,1.01379781707364,1.01506597353337,1.01491050951783,1.01456078549157,1.01502528751991,1.01429929518347,1.01481038012318,1.01404361198073,1.01465383968001,1.01276096050345
0.989737404594743,0.988754431716077,0.988190246509964,0.987598572298442,0.98920568351447,1.0449653494109,1.03518526606329,1.02014039033256,0.981859761471598,0.980067894877287,0.979749424681022,0.979656170082255,0.979855488544995,0.979905008187816,0.980290159684668,1.06933699538237,1.06820290548222,1.06927873721934,1.07243962975565,1.07253612459425,1.07162039895735,1.06829368377113,1.06353500804637,1.0613802613712,1.03389025619779,1.01479843117535,0.987168624070963,0.98539328990552,0.985065196300159,0.984604862116111,0.984925628382386,0.984623884725541,0.984997928304615,0.984909751280311,0.985311480768447,0.985177160248001,0.984913432918493,0.98424104431613,0.984921028382458,0.986096252978478,0.98690623646452,0.986111799200626,0.987363887982837,0.987500972776124,0.988544879654608,0.98893922366555,0.989518772982501,0.990193630799757,0.990475136043407,0.990890355551276,0.990650946281258,0.98989769547531,0.987646598971158,0.985620685502334,0.984686275254979,0.984031940440701,0.983733026303483,0.983641539222039,0.98379256528223,0.983940716551493,0.984488476536965,0.984875403062642,0.985769125980624,0.986287268227259,0.987553943448966,0.988782423667666,0.98911107785258,0.990020127461189,0.989704376176101,0.99020467982813,0.988596236057563,0.98793554463953,0.98649342493262,0.985986844694998,0.98531261843328,0.985316754944588,0.985277608704218,0.999726539438905,1.00971560049043,1.01705816431381,1.02500001115238,1.03685710139014,1.03644165981147,1.03639512514667,1.00368366539822,1.00046501555636,0.997687700851049,0.998257974994283,0.99858493156899,0.998709627173956,0.998932763157274,0.998866395003522,0.999077715903094,0.999095599564452,0.999149749344098,0.999367685874064,0.999608344625322,1.00029306482117,1.00061375029639,1.00153622462171,1.00194570865688,1.0032035771636,1.00332341863093,1.00447610184862,1.00472244588004,1.00575445218811,1.00617209254993,1.00687284194612,1.00722638277554,1.00766605697842,1.00743606837657,1.00771832912927,1.00690098536152,1.00704098465647,1.00578149118182,1.00551365126778,1.00433797155672,1.0039162943422,1.00286976972703,1.00245782443416,1.00264498240422,1.00332642709159,1.00500216097808,1.0067131134734,1.00715044576352,1.00685910472782,1.00515800882591,1.00347294234472,1.00246243090999,1.0015014356074,1.02879373165836,1.02947258317605,1.0297254032058,1.02894895022477,1.03079021744376,1.03334036958851,1.03208750699731,1.03027303183394,1.0293358480728,1.02855896377645,1.02861768498291,1.02780773471355,1.02792074898172,1.02801103263935,1.02551658772853,1.03459619584961,1.03531130649448,1.03715578914892,1.03866180557781,1.03661384867187,1.03191345964348,1.02989003938621,1.02531492458976,1.02073023545299,1.01747185214661,1.01386691741293,1.00850517315393,1.00906325978873,1.01003802759009,1.01106864982077,1.01215549267003,1.01344619207478,1.01430370218358,1.01542586049917,1.01584095208269,1.01654279228466,1.01678191927394,1.01723643157694,1.01707956491522,1.01744976043806,1.01792312682009,1.01987953137825
0.990714604216212,0.989970184471931,0.988594200869092,0.98488673334059,0.989951369666574,1.09017273125502,1.01189327259904,0.989951804250571,0.988238563842583,1.07151705710608,1.01579578605243,0.980605025164467,0.980330266429653,0.980749809795058,0.983933604759699,1.07082796972704,1.06944464824558,1.07029337300929,1.07218196970636,1.06946474155493,1.07120122802981,1.06759759596011,1.06061427052193,1.05909382838117,1.02325480302302,0.99063330777468,0.989414696140805,0.984017819240055,0.984341512958555,0.983278610676827,0.984533144284961,0.984075230136646,0.984010396813652,0.983880111793412,0.983632248667248,0.985182067141908,0.982382139849644,0.981205922987401,0.982123414581238,1.06873391037139,0.995187986688772,0.984354994984063,1.0179457483143,1.05456602347499,0.988821479846964,0.989212600193965,0.989435436792809,0.990449735282608,0.99045919414556,0.991086365894453,0.991102665725621,0.990181026192763,0.987167222709993,0.984972955241135,0.984541787637239,0.983938112738728,0.983655581519693,0.983705995108179,0.983473980667712,0.983996408985681,0.984198247274537,1.02405558974439,0.986754353417742,0.986804239772084,0.98861685467621,0.989901380235517,0.990034800897823,0.990060032970995,0.989969888105618,0.990867215983007,0.987863951184205,0.984582767076839,0.985529096348448,0.984272699569139,0.984750833432776,0.984576770353028,0.98475969373618,1.02281222686153,1.01336077640505,1.03725090585302,1.03759551707439,1.05190978470751,1.03570732891937,1.03508181778087,1.00143516810566,0.998851448103074,0.998033294436372,0.999147500518635,0.998410698302063,0.999744127934985,0.998769169102289,0.999652631343536,0.998898676683322,0.998944679553984,0.999142423545446,0.998924423725204,0.999989361921148,0.999792169754731,1.00138414676539,1.00069624544739,1.0030310225119,1.00263776504734,1.00407194765462,1.00329440946435,1.00488732485978,1.00539284432489,1.00613297959679,1.00659259104292,1.00742375291338,1.00771585196085,1.007966188446,1.00737814733184,1.00755754130636,1.00621758416584,1.00646802772237,1.00509653298493,1.00474660544566,1.00292913601055,1.0029301735502,1.0015888659247,1.00266660248192,1.00287190694726,1.00496367057794,1.00615273910921,1.00697725388533,1.00589064106178,1.00469332322355,1.00151292916685,1.00162551251533,1.00010078185603,1.02845742670188,1.0281089278671,1.02155725172308,1.00653234838975,1.01597710651645,1.03739089488474,1.01789820206369,1.00840352902477,1.01504541683017,1.03420062979181,1.03055277185285,1.03826024742799,1.02769179816351,1.02934790578129,1.02675838095633,1.03516309910752,1.03561547414258,1.03820488930137,1.03872584338737,1.038028854832,1.03118583233659,1.02835511838457,1.01629643848674,1.00805478104966,1.00743068234188,1.00725841522042,1.00791272894446,1.00793661889686,1.01030343161076,1.01156325617429,1.01325244385671,1.01417011087672,1.01532424982351,1.01546578626362,1.01717173786907,1.01757716802386,1.01889047943488,1.01896501060356,1.01946737879957,1.01875912962292,1.01991449452484,1.01982684375976
0.997162186722928,1.06692326997405,1.02827911348124,1.07979041025941,0.992692112109704,0.988464498722813,0.994709450192636,0.991789234201093,0.992879754172979,1.09085677596195,1.03220227617243,0.986267554605613,0.987076100672073,0.987752361530875,0.989025904192931,1.07875031949838,1.03152079369959,0.991545379031731,0.998510417192563,0.997612338654958,1.03350722516151,1.05846405280951,1.05920843848596,1.33545749791274,1.01320336390733,0.991468409524716,0.990164752836003,0.986870473374385,0.990175625916962,1.04333671801721,0.986364971148477,0.981525270577938,0.983504088841931,0.981906283374993,0.981689998804222,0.978669576810658,0.97988322901918,0.977538717878517,0.977358193373387,0.976432214717572,0.998523607380907,1.05756171723219,1.03555973900967,1.06723201102086,0.987992495113229,0.988462395038684,0.988824495745605,0.989571177003352,0.989598354036688,0.991129259370172,0.991993671827749,1.03518881546338,0.98538765045171,0.98463347856463,0.984283813373713,0.98393331749066,0.983619075284774,0.983104531057119,0.98332516988308,0.982574791772802,0.984028831293067,0.983866466078873,0.987222210358346,0.989579465891188,0.989726108406913,0.990730765406136,0.989802759947775,0.990830826571133,0.987710908094708,0.985475856497408,0.985069232781732,0.985204547708143,0.984048752401912,0.984211643476253,0.984019418836093,0.983886052626714,0.984575401907064,1.00700679199381,1.0087131529103,1.03909006556114,1.03923289857056,1.00452235450684,1.02505831841659,1.03460254366633,0.999135587013674,0.997738707042636,0.997965594645059,0.997392282122335,0.998213055578972,0.998009877178947,0.998695434855238,0.998415857067398,0.998812042518274,0.998695117937345,0.99883370191121,0.999644680443482,0.999509202434061,1.00162022973883,1.00124446196034,1.00427061649135,1.00286051152007,1.00519694236816,1.00307897842732,1.00425221142308,1.0034384658293,1.00461331354112,1.005149875857,1.00651077123624,1.00721189977507,1.00814908056752,1.00722662694215,1.00810351778053,1.00634784620454,1.00754316440096,1.00520788549766,1.00577797391965,1.00371172097541,1.00396577859345,1.00232669911414,1.0024668677049,1.00219735751757,1.00313394120234,1.00424562772492,1.00698830581616,1.00585732444855,1.00751900638112,1.0034000238358,1.00053894121684,1.00155105885092,1.04940673833169,1.04653689789061,1.04876676871263,1.01466408099719,1.00563826296136,1.00626050771166,1.00664864588219,1.00712135738037,1.00707183775776,1.00722277848892,1.00777866574716,1.0066613947279,1.00709601593937,1.01636668624859,1.02500317470709,1.02607152754853,1.03722122667384,1.03251716979102,1.02535660348987,1.02874654026714,1.03239410388946,1.0193820201547,1.0045503178626,1.00485285097932,1.00590991682938,1.00654763807056,1.00782321231086,1.00768225802347,1.00892514035995,1.01090119912249,1.01385107305544,1.01427925457971,1.01557866321323,1.01579416781694,1.01659784276338,1.01745188690396,1.01984088430816,1.01930457688018,1.0217480235346,1.01984844086771,1.02161602978422,1.02018482834698,1.02225211389394
0.998825496362109,0.997271272631132,0.998432526696097,0.99707980504115,0.997339576979277,0.997577182010062,0.997975050124819,0.998459283872921,0.997540968975042,0.996512489737258,1.04872162384446,1.08853227389117,1.0355736149655,1.05081920291201,0.993408282896076,0.992642322193709,0.996323272950749,0.994981599467931,0.997278991085545,0.997459338231056,1.01957706888895,1.02705656939694,1.03493238256412,1.04286869426453,1.00518831622853,0.99350631311605,0.993354862859642,0.994390407315472,0.992524429540644,0.991980527704968,0.988729913542827,0.9878900786543,0.984288941727107,0.981136775225719,0.980850756560645,0.980065898244249,0.979893020792884,0.974788620813777,0.976140684233909,0.975202504628492,1.00537228989623,1.07791254928075,1.01494927591771,0.983587215394251,0.985488162702815,0.986201726322963,0.986724115154455,0.987159964125296,0.986572394088891,0.984392219726215,0.983052462073014,0.982233917334552,0.983965393526496,0.983759003342619,0.984070003290163,0.984287052499368,0.983238623678922,0.983127308184736,0.982514691788722,0.982892780710356,0.983879724770491,0.98432132438395,0.98855929979649,0.989981871064792,0.990026202921068,0.989907416445048,0.989118901128642,0.987483501807936,0.986677414909632,0.983800854199447,0.984755937284363,0.982362782135092,0.984365906775845,0.98267628653994,0.984401379387609,0.983597784568014,0.984907099697745,1.00405959279363,1.00799826303779,1.04507975139556,1.04236645454839,1.03884339058196,1.01636415461685,0.996856562282286,0.997210476699316,0.997579924041667,0.996439452129094,0.996600280082174,0.996114366229211,0.996843649833545,0.996983749740021,0.99822419289584,0.998057798660695,0.998237268666944,0.998832912208528,0.998337790132989,0.999730512367922,0.998368319181835,1.00214446530391,1.00213021200209,1.00444537040675,1.00278969273546,1.00417654779715,1.00149511235513,1.00343875750041,1.00148808248034,1.00435120487295,1.04844120784048,1.00723395250087,1.00687910424835,1.00702490306381,1.00514910281538,1.00644725187664,1.00456755398296,1.0056317290975,1.00335979278058,1.00418467093781,1.00213724463014,1.0027704175805,1.0011845823363,1.00273738291526,1.0027240707807,1.00471599830155,1.00501574096284,1.00630113745566,1.00500848671682,1.00426842906732,1.00120471644405,1.0021496982432,1.04236625491926,1.04355485670678,1.00397999356271,1.00392389438521,1.00516538865962,1.00593265696948,1.00670596450755,1.00674695452591,1.00744386312975,1.00667176020827,1.00610678187718,1.00595001864314,1.0056416831395,1.00490465072843,1.00517357463487,1.00476366462653,1.00449297887713,1.00398342853434,1.00367553596175,1.00253758289054,1.00202619840067,1.00243101021209,1.00349519915899,1.00382593676917,1.005283579471,1.00544015131356,1.00631404989848,1.00712351632924,1.00827459600193,1.01098486057072,1.01366764262128,1.01583643112252,1.0164531203284,1.01801372770282,1.01830002093461,1.01966774785369,1.01919072670874,1.0208223134019,1.01984562407261,1.02093064488384,1.01872332175936,1.02092669915591,1.01953833582444
1.00086443237939,0.998960901265971,0.999982211390288,0.998732130405522,0.999914769271228,0.999123776192528,1.00022331003938,0.999432222794381,1.0006541297078,1.09452599026959,1.06606819085135,1.09083082781973,1.02398700156589,0.995329205477053,0.996382923931625,0.997209732853003,0.998190321035668,1.05745613609458,1.0289361832169,1.0558863524368,1.01169411526787,1.00192401568789,1.00080841473245,0.999654079597656,0.999970966845144,0.994970571153754,0.994970445854122,0.995309853177956,0.993403849332103,0.991875166548908,0.990311826712147,0.988635417138569,0.986498821503588,0.980610140630325,1.00822415776244,1.05970751971868,1.05654642098403,1.05776294140097,1.05585488727587,1.16792457040587,1.0148250717665,0.975199785393379,0.982170056933814,0.982287455718956,0.984108339675502,0.983504283334506,0.985297588322785,0.985195361832308,0.985430634017459,0.9845648535729,0.983744943516625,0.982886138588448,0.983866759207368,0.983973090567311,0.983574219343176,0.982741690596043,0.982556806645197,0.981821351275549,0.982399336064167,0.983025626280823,0.984426594435913,0.985748671963372,0.999421000021082,1.03185724944678,0.989525990321187,0.988833381966242,0.987578372169608,0.985815993970534,0.9853498189023,0.984856032313918,0.984244127143512,0.984255674746531,0.984671330968507,0.985070843803469,0.985803098182996,0.985801525738843,0.985898194581843,0.985054048655722,0.996211191281122,1.04770804441515,1.04534597337426,1.05047893193803,1.00897392848479,0.995635954134024,0.996176463551858,0.99572844360144,0.996136406472754,0.994792531071607,0.995859210205151,0.994903693842666,0.996846045956212,0.997020258946324,0.998195364483937,0.998353891932718,0.999038367894181,0.999787558237887,0.999839600216411,1.0008927051333,1.0024511347331,1.00650636765514,1.00461037841148,1.00581272120198,1.00406997757958,1.0041840677874,1.00371087674834,1.00399261110759,1.00493235263141,1.00604575792563,1.00676145927111,1.00713332351877,1.00642765825231,1.00631963793376,1.00559910174042,1.00622076099897,1.0048621178465,1.00503759508389,1.0037122729333,1.00385089108092,1.00263855263763,1.00291819909826,1.00260492382806,1.00395957092628,1.00390534821314,1.00584025156204,1.00470354459423,1.00562820129597,1.0037072672593,1.00369180156965,1.00295935839923,1.0425758086545,1.04188923631528,1.0435388249136,1.00602846527998,1.00462457466134,1.00651026597037,1.00676390727724,1.00738739289569,1.00573656255177,1.00762531203608,1.03732391461057,1.01734222356713,1.00556347780123,1.00463358048062,1.00531181907288,1.00478536804527,1.00476648100305,1.00408869595731,1.00346451178514,1.00272825978666,1.00280580644651,1.00202624487364,1.00176847578655,1.00154597227906,0.999744454795924,1.00272305646027,1.00416312786958,1.0047467015437,1.00503641057928,1.00929359858045,1.01650941866414,1.01761454485601,1.01960300347998,1.01932826198293,1.0219855765597,1.02036953166125,1.02206961132063,1.02086177466995,1.0222871518935,1.02084263569798,1.02170785648309,1.02115244048489,1.02307624897677
1.00305595328804,1.0023332654956,1.00260927112608,1.00199952857045,1.00237282397223,1.0021485559891,1.0027542526296,1.00250390810905,1.00294823067142,1.03063356366229,1.04687197287708,1.06555891581978,1.01456699668799,0.99803036633701,0.998721069419326,0.999451097270745,1.00047978834131,1.00170422918024,1.00272107002118,1.00300238554321,1.00269304724111,1.00195298985661,1.00119043167146,1.00013714384598,0.999213940622999,0.996962282909552,0.996103264755277,0.99535165152406,0.994008694291886,0.992661160367925,0.991876064553728,1.00377298565811,1.01428411030171,1.02427148666746,1.03411763223956,1.05038662114287,1.05411714263873,1.05590701263892,1.05560214503378,1.05483514939962,1.02426101719429,0.983277737200268,0.982971602341129,0.983392680509918,0.984306025351241,0.984520492219102,0.985135478528131,0.985274460062034,0.985141235000848,0.984611199529353,0.984296076670754,0.983925168431074,0.984054213231887,0.983933059635524,0.983232683290371,0.982424057180277,0.982089150352579,0.981858217434244,0.986485291775483,0.992153219868076,0.998998207565948,1.0065600139646,1.01683864218714,1.02367893824173,0.988667067412689,0.987768603315751,0.986970248794486,0.985735647467288,0.985446477420333,0.984744635303331,0.984993637624923,0.984738371387851,0.98611433363908,0.986698944665063,0.987641880035259,0.987268080439012,0.987039509435925,0.986399516720739,0.993049199042461,1.0290585241141,1.0178487789432,1.01003212497728,1.00255069383989,0.99511830114951,0.995248648715263,0.995890475114135,0.99546380497725,0.995438434735829,0.995267251981764,0.995743935536317,0.996433894270335,0.997635918401242,0.99829603868979,0.999209968405909,0.999626387467827,1.00014360364927,1.00090667372206,1.00158666332501,1.00345379064319,1.00477107198795,1.00564388965684,1.00563131764873,1.0059088185734,1.00544028176918,1.0056367562182,1.00531814899701,1.00598778997906,1.0062205241077,1.00680668971221,1.00674163625959,1.00668042810902,1.00610279069264,1.0061359458701,1.00554558164499,1.00546039591362,1.00456059243285,1.00431988650019,1.00343503698566,1.0032460083579,1.00253922545308,1.00293113574189,1.00284421630259,1.00379871632404,1.00397257259883,1.00461121588402,1.00403657902667,1.00399702893091,1.00329238710077,1.00415192544352,1.04088472771952,1.03933540331964,1.03476239704289,1.0089661749858,1.00988558022455,1.00883877469277,1.00893773661142,1.00905490431259,1.01016149315528,1.00951366015651,1.02896925580521,1.02250773853492,1.01616729230286,1.01032796946304,1.004696383536,1.00443511659649,1.00432371340958,1.0039508453168,1.00335654878854,1.00251635752901,1.00204953453648,1.00133388747675,1.00039284213583,1.00029939327486,1.0002319109399,1.00153589299765,1.00239500357356,1.00335968800426,1.00378363754646,1.00771805104105,1.01938589692787,1.01940141789478,1.0198655427001,1.01959821233963,1.01976539437213,1.02031113329025,1.02089768700834,1.02152810267958,1.02156013817319,1.02212713572898,1.02176111877637,1.02229113075367,1.02182630078632
1.00410754140738,1.0033362037454,1.00429499019194,1.09962083686352,1.04777912111846,1.09833990141171,1.00407603162905,1.00355512161714,1.00383738859256,1.00449056354267,1.02748767915928,1.09609585820489,1.00885372150247,0.999686842350204,1.00005383640726,1.00078589624615,1.00088714097913,1.00096687440732,1.00221345663868,1.00411947535052,1.00263171606549,1.00333720999782,1.00144200697638,1.00143920525256,0.999335881960754,0.997796555472042,0.996777441624448,0.995921208345938,0.994223095550558,0.992823315087517,0.992253472333452,1.06715441541982,1.03043642031501,1.05846244839092,1.04955117219513,1.03917752939889,1.04990928135588,1.05815241965912,1.05669194704361,1.05502960296713,1.03223898336361,0.982355102290401,0.983388740484428,0.98359735924684,0.984266904815727,0.985006539040947,0.985017308786624,0.985623838826521,0.984767197589034,0.984121215484595,0.98402646823227,0.983687458437408,0.983788647879012,0.983914092174044,0.982601231087333,0.981288406151154,0.981861692463648,0.981453757409063,0.999930355275337,1.03117821114174,1.01773226095586,1.04202732882868,1.02113023087151,1.03007954241018,0.986902166526723,0.985705164841469,0.985686824314658,0.984771440978336,0.984750542620817,0.984234725561658,0.984492950275425,0.983822327610113,1.01764894149023,1.05668352205141,0.988772808291517,0.987574254804265,0.987622378060078,0.98654389861653,0.991926737681902,1.04179280202447,1.00790423593558,0.993627220317427,0.994183995009166,0.993642005040686,0.995277761920789,0.995528463454583,0.99564358575426,0.994217739370823,0.995291924917072,0.994417613957325,0.996679553891921,0.997175606721387,0.998987671796335,0.999611836851621,1.00044069206596,1.00031627303016,1.00168318700895,1.00247265446529,1.0039254824248,1.00588437208574,1.00611983408617,1.00775900591706,1.00708365779028,1.00807685804176,1.0068507858276,1.00677766948866,1.00649161470332,1.00633539279771,1.00678825988781,1.00666661729455,1.00675006572789,1.00638416132632,1.00624087792649,1.00588373184952,1.00556139507372,1.00471971749276,1.00419611195458,1.00418737382357,1.00294715028427,1.00344555486192,1.00232185712675,1.00332473584793,1.00287408323942,1.00462546350906,1.00365197835969,1.00476967338242,1.00347714781256,1.00290831127639,1.00719994733884,1.04190000533149,1.04167409321689,1.02805889469939,1.01075845364634,1.01105159954978,1.01081272647766,1.01123760034387,1.0113434813421,1.01238063995605,1.01194484530161,1.03949897760978,1.03470758182994,1.04475540248563,1.02834893424509,1.00487006565669,1.00438999502454,1.00405723688755,1.02739440078544,1.03900108350567,1.03916608054072,1.03952506615706,1.02832662732397,0.998284636536713,0.998776014532518,0.998914852417947,0.99993011219971,1.00093079175084,1.00184319077497,1.00349716319347,1.00577461398235,1.0727886146166,1.02058373573252,1.02185749689026,1.01920407683742,1.01824968257915,1.01972433222606,1.02148918127134,1.02174481606295,1.02304797579805,1.02279827331528,1.02419019112961,1.02280143848883,1.02316928006815
1.00502434890741,1.00508265516771,1.00549661611009,1.00635671650964,1.00630842966126,1.00633436959875,1.00496599953701,1.00333060019598,1.00405701659599,1.0035158504879,1.00335752840823,1.00218488688282,1.00188395505486,1.00063049604958,1.00105803907377,1.00170074154439,1.00126520638253,1.00045454433627,1.00196680679759,1.00183147984468,1.00278568175035,1.00217555100136,1.00198568401179,1.00025687758127,0.999920588616349,0.998791752230811,0.997419324454874,0.996614879270503,0.994342493283254,0.991997174517221,0.992008837537955,0.990945579179716,0.990300947566762,0.987932054616147,1.04967354689374,1.06424483705403,1.04746922482115,1.04671595667195,1.04498455127806,1.04704178113907,1.03864300714748,1.0449434446014,0.984469331835088,0.983050860422354,0.984638812499579,0.984501939285374,0.985111531692962,0.984614844555025,0.984550233838373,0.983879353933831,0.983588233387822,0.982536428766843,0.982910522076426,0.98210321281728,0.98123313492454,0.980697333057146,0.982531383927869,0.980887139587266,1.00931915398479,1.03028221202263,1.00795941235861,0.982865629605786,0.983179608776565,0.983231204460977,0.984781440574639,0.984803524158562,0.984666276467476,0.984311493223916,0.984384919605166,0.983879298628204,1.01575129788241,1.05258393371179,1.04967476973797,1.0592884091485,0.989500423054908,0.987156771458118,0.988758327067817,0.989232920961114,0.991044697378609,0.991561126434004,0.992452751790667,0.993966648090876,0.99356330440549,0.995036014224594,0.994504667255525,0.99640996138318,0.995173894055115,0.995720483542172,0.995181549474584,0.996030250604925,0.996680378855665,0.999024532955119,0.998952995810261,1.00075281655981,1.00064013745235,1.001663762497,1.00260998985319,1.00396121265613,1.00493286361682,1.00550377796259,1.00687216061203,1.00750227421316,1.00806235692734,1.00849817850039,1.00815245240958,1.00758333083511,1.00787076873909,1.00750979477265,1.00784413097088,1.00778317685212,1.00754674625265,1.00719658993983,1.0069975764115,1.00651423705857,1.00650658685241,1.04420366244843,1.00455117345281,1.00315111449996,1.0035259623053,1.00124826401458,1.00307668783762,1.00109771944546,1.0033745015443,1.00185953131978,1.00384895444304,1.00258069442965,1.00376962929913,1.00263534337423,1.01254008487589,1.04217202382597,1.04198056924069,1.04143312551987,1.01214858949572,1.01310424035241,1.01234467422201,1.01310720555971,1.01313827202866,1.01392540522467,1.01430079239949,1.0149910723617,1.03130744691128,1.04437675442349,1.03964182110787,1.02987552382486,1.03816022292447,1.04376089531644,1.04093129990656,1.06504303371856,1.05772079631465,1.06393346424617,1.03855224277094,0.99618326303003,0.997584669074782,0.997442025905896,0.998632789133762,0.998920193682157,0.999702026208232,1.07467629921331,1.00497443613442,1.00684184087008,1.01656131343821,1.01654880580943,1.01702641342683,1.01712452162706,1.01919715337217,1.0206952462712,1.02255856802749,1.02329269747823,1.02476795478185,1.02405158505494,1.02476453057052,1.02293338762241
1.00563632501386,1.0055509108847,1.00590582408934,1.00615789454767,1.00619116760667,1.00599184271193,1.00498404244696,1.0042633760079,1.00390213088272,1.0044051874859,1.00357438381644,1.00400130011176,1.0022945755697,1.00144611848663,1.00081330172461,1.00057431104262,1.00027212311866,1.00023791948362,1.0007609616284,1.00226667298648,1.00134836086897,1.00254404504017,1.00086880954734,1.00120399019468,0.999594932375288,0.999245511633281,0.996707532200149,0.995535639566477,0.993950386385438,0.993384440661628,0.992530634581549,0.993162969345534,0.991630697700239,1.07023648966692,1.05244918432662,1.05611237132544,1.04607135023011,1.04593429799239,1.03530694077104,1.02138719543168,1.00853321962435,0.986943708277933,0.985676042537622,0.985392094117859,0.984844484794229,0.985469034234801,0.984630198465521,0.984677059169307,0.984143373370838,0.98393573551023,1.00714455947934,1.02764201939727,1.01589323305453,1.0627915250965,0.979464278856251,0.978933090928217,0.986925450413091,1.05457673319726,1.01798722642011,0.980608774123172,0.99448160664569,0.982118474284017,0.982816649709778,0.982535132163196,0.983392903947402,0.983301107324267,0.983620417184065,0.983448735498463,0.99803531158338,1.08549202226639,1.03297512005218,1.04948908328099,1.0485224881057,1.04761169462017,0.990756807016033,0.989955254958989,0.990461455323818,0.99103104212889,0.991934298509748,0.992190394940729,0.993437523378093,0.993175012344616,0.994475333331402,0.99323420098546,0.99496293161646,0.993857860298187,0.995694395816648,0.995192319535076,0.996282152803381,0.995498743577767,0.997479974480269,0.997554806718095,0.999435765938598,0.999383313082664,1.00174193201477,1.0023562875075,1.003877411481,1.00455484700053,1.00533188251268,1.00643319509357,1.00671715832988,1.00785231703808,1.00783241364597,1.00867888345327,1.00823887825764,1.00892783679398,1.00822940529318,1.00892662744149,1.00828966833394,1.00870093447288,1.00821495961815,1.00844504913707,1.00772685766791,1.0078495436581,1.00698005998128,1.00679096195336,1.00487651924806,1.00375461046977,1.00309689140226,1.00407177943506,1.00292205819918,1.00484827467266,1.00293273663145,1.00372103958423,1.0031227024747,1.00398717539039,1.00422493870094,1.02161504223413,1.01878111680271,1.02079160600086,1.01835817991389,1.01396657827383,1.0128856386618,1.01283906426257,1.01300004756231,1.01295301377395,1.01420877493977,1.01535820285595,1.01618170716344,1.01766520676512,1.02831724376445,1.05457147248389,1.0431192679912,1.06613450266293,1.04758922537127,1.06725195353494,1.03819382700503,1.03787471466276,1.04101657987106,1.03445340835567,1.05272832566871,1.06881133485214,1.01942747532791,0.997403285754943,0.997179092614889,0.996864501441112,0.997479340664414,0.997272913483919,1.0009824917827,1.07114488945348,1.01526361821791,1.01484499706537,1.01656880409327,1.0166074019095,1.01928840339922,1.02023316594588,1.0228593637773,1.02612822794182,1.02535789745545,1.02734031705317,1.02534259033643,1.02685548115738
1.00539962085429,1.00415023384393,1.00535605273372,1.00530269167882,1.0055467855396,1.00500560794812,1.00470236931473,1.00339126218673,1.00393355460452,1.00316093285711,1.00361457603751,1.00318722827467,1.00255537053213,1.00128346128683,1.00094703899417,0.999383313053123,1.00003115607694,0.998805183765633,1.00055658308979,1.00039677402861,1.00118967225104,1.00043965456731,1.00064454230986,0.999399067114905,0.999113871009553,1.0345823006963,0.994749580147978,0.993692725038727,0.99286044088614,0.991834024443409,0.99159332221943,0.991049478971305,0.99079999635626,0.990058610450197,0.990411798262948,0.990608292841092,0.990467672381106,0.989735164594619,0.989357350370336,0.988116505128603,0.987776689422035,0.986678345297538,0.986209012904802,0.985250908266446,0.985302911278847,0.984548534857381,0.984771117393289,0.984096984300889,0.984160941750945,1.06004666807836,1.02918130720864,1.05887168689298,1.00645047567155,0.977522875247471,0.978443434245534,0.993428075010185,0.989944234315993,1.04011021215076,1.03283030598447,1.02986276877599,1.03344954819543,1.04197873792041,1.01065595834914,0.98067495253765,0.982221487832272,0.982174446210106,0.982668091993066,0.982078734467021,1.00338960537608,1.04640911391031,1.02159704413163,0.989215598249447,0.99117556332847,0.991200127784739,0.991845787174742,0.991237071855567,0.991892928607705,0.99232857316377,0.992519383210262,0.993246923987866,0.993408032057991,0.994781887408508,0.9941659099602,0.995000930312661,0.994762123869084,0.995401389176422,0.995803292817974,0.99713300254346,0.996747595123834,0.997588366286689,0.997673618096429,0.998631939317964,0.999135373765832,0.999991148788186,1.00188586052896,1.00410719401078,1.00472236336789,1.00527992790206,1.0061745508359,1.00658569687521,1.00719540255577,1.00712632930685,1.00788479298283,1.00807193543646,1.00841119940956,1.00832127849864,1.00863150899919,1.00862688089421,1.00854500334707,1.00845420615394,1.00834809004998,1.0087751940152,1.00772888428859,1.00711964243517,1.00691885031427,1.00633697647857,1.00573242628931,1.00395880090782,1.00471081026617,1.00357391244091,1.00466494790648,1.00365453209803,1.00478513054617,1.00374097416487,1.00519403886819,1.00491075443537,1.00630214512756,1.0071846146748,1.00776770691607,1.00907583718032,1.00992383549196,1.01108729917426,1.01218342564007,1.01224843530907,1.01353743813507,1.01456998906875,1.01561238773343,1.01648747244039,1.01781389824982,1.01894616764309,1.02527795785843,1.0545757112832,1.0346117616356,1.01613826099294,1.03221376752259,1.03909785656352,1.03656100251738,1.0371401237078,1.04602190920066,1.06959039384775,1.07037301713587,1.07040980730627,1.03676947632299,0.995949292765587,0.99626757106875,0.995300644200936,0.996391387624399,0.996106984619742,0.99878476784808,1.07412413018762,1.01245100884651,1.00753387209336,1.00714720803838,1.0080643482686,1.02083700747041,1.02113043185227,1.02365536064999,1.02484120976661,1.02601740542075,1.0258922900423,1.02594658859881,1.02516108995285
1.00626588333419,1.00530200443247,1.00571649126904,1.00543611211259,1.00549008096444,1.00458557172166,1.00462281325708,1.00410020101805,1.00391079068966,1.00368979990868,1.00335217639284,1.00306093101493,1.00259129204415,1.0020600161601,1.0014029538362,1.00066392223411,1.00042084563001,1.00020530305168,1.00033795101335,1.00063168171173,1.00006668195064,0.999947767331688,0.999332779796428,0.99895282324402,0.997112608494873,0.995596899351348,0.993287037765428,0.992014526751164,0.991375094301028,0.99084102189864,0.990603710764528,0.990325837682957,0.98989499492896,0.989354882770657,0.989821617135963,0.990311035827571,0.990240949421551,0.989937757463699,0.989375806021801,0.988527454409502,0.987820353570776,0.986994953227915,0.986131928439967,0.985523975815921,0.985004240319878,0.984883142594038,0.984491496278531,0.98430289313631,0.983645196051697,0.989797157152811,0.998937362654879,1.00969865856754,0.997885237409226,0.978132283036033,0.979241885413252,0.982987838942139,0.987265618174646,1.00811831667224,1.03570783129675,1.03659378900314,1.03698741536052,1.0388879365377,1.03563251086954,1.03318346147255,1.03104570449562,1.02509148545335,1.01776510916195,1.01058993204641,1.00455776291355,0.99918959582696,0.996039617098823,0.991086134447638,0.992079525451227,0.992424931324511,0.992813579589393,0.993059457840762,0.992911420020476,0.993254456793771,0.993213959196875,0.99348985264165,0.994044877895066,0.994267045634241,0.995216391444854,0.995453341412824,0.99607449002388,0.996034459794648,0.996831386307487,0.997166971178841,0.99765546116434,0.997898270338405,0.998439430333244,0.998831907956935,0.99963267266368,1.00024432845233,1.00235962683109,1.00429013326409,1.00543677934265,1.00600360376122,1.00633436204386,1.00709786947018,1.00710151556358,1.00751327171684,1.00781900478828,1.00818492807048,1.0083770603867,1.00849699557435,1.00850354345502,1.00854574011908,1.00834925715275,1.0081867481447,1.00798760292056,1.00780647252865,1.00723126414199,1.00674539893028,1.00673630214302,1.00674601790688,1.00622323498155,1.00601688252212,1.0051283882071,1.0052618675632,1.0045328357104,1.00520010667217,1.00486834455,1.00593964730721,1.00577405831437,1.00692698723416,1.00735289129799,1.00861442570474,1.00897565375264,1.01010307659779,1.01077674897676,1.01157220607147,1.01252053813158,1.01313706945908,1.01431789638718,1.01546504463302,1.01669520787892,1.01803819254131,1.01909912666973,1.02024741374413,1.02182594982221,1.02028853298099,1.01864392537682,1.0168665112341,1.0271396932439,1.02760388542167,1.03039894205923,1.04259899212006,1.05275031863779,1.05781916020772,1.0705642959847,1.07054739474224,1.05542976310422,1.04621360464627,1.0360621913769,1.02679731484383,1.01563199573097,0.996044744712532,0.997609691821906,0.999886442864328,1.00187591350143,1.00453454334472,1.00613907969462,1.00633791770755,1.02194608242801,1.02272602075943,1.0242715176443,1.025398732129,1.02496527671814,1.02456512857838,1.02447081285837,1.0247865954385
1.00726242476597,1.0034058755767,1.00560043706758,1.00437065657571,1.00492747430917,1.0024965333099,1.00440234691298,1.0033101118074,1.00408169756519,1.00302565678677,1.00358221246238,1.00214320529632,1.00304142513166,1.00222635238481,1.00206494983959,1.0006461627576,1.00087513313853,1.00025216369131,1.00035221901028,1.00021049149527,0.999199463050178,0.998083263555722,0.997995135627332,0.999227851128459,0.994148372134246,0.989836482999256,0.99061244064837,0.989104161631065,0.989685072079481,0.988997268434155,0.989429749613308,0.989259156966194,0.988499363042917,0.986772390965318,0.988536641046809,0.989638204251478,0.989448741328874,0.989430103898791,0.988741520448718,0.987957300273063,0.987332587367149,0.98646093433352,0.985836262865077,0.984336800667606,0.984828156568576,0.984005896073344,0.984339448951894,1.0212149534787,0.9823375937679,0.980096597672773,0.998545228141769,1.02346503540334,0.990398525857762,0.977441438723721,0.977859037544382,0.975856673277497,0.97632822116842,0.975709606340073,1.0381801125497,1.03916897030114,1.03942977558085,1.04102285627627,1.04231349397313,1.04140932166105,1.05397915541749,1.0804518163047,1.05874429919733,1.06854570848761,1.03741927790288,0.987363133466728,0.995093280377517,0.990951320941878,0.992476123825953,0.992253027239318,0.993568796015691,0.993438794009269,0.994008693311967,0.993387860661053,0.993833572313944,0.993478713373065,0.994173460884372,0.994332421405509,0.995605044066762,0.997139931589735,0.996777106317046,0.997089418480341,0.997392674113272,0.998109848195846,0.998052229721047,0.998677381707133,0.998520719686251,0.998939787752437,0.999029542486556,0.998482609332409,1.00149654546419,1.09709748490198,1.00576518920851,1.00523175853175,1.00653479946803,1.00649004984507,1.00724385424962,1.0071906208883,1.00789148791165,1.00855917445705,1.0084160958943,1.00889648506321,1.00845244630135,1.00867994510887,1.00828699404179,1.00809938776443,1.00778055384522,1.0072773373159,1.00684562206486,1.0055184709312,1.00679273034677,1.0066676779224,1.00723340034121,1.00632748813884,1.00640263816169,1.0040707765703,1.00557432675778,1.00357264166018,1.00620727585728,1.00554598337557,1.00746198016869,1.00679196176746,1.00893144657437,1.00984503489111,1.01023922400025,1.01091048345968,1.01119472549846,1.01129919663189,1.01247168216458,1.0131655436505,1.01458942948233,1.01588998074288,1.017388965007,1.01906573024743,1.02022411022896,1.02041729636547,1.02106835580247,1.02001412257393,1.01938172706949,1.01863418038455,1.01861102649407,1.0187104495557,1.02616278834103,1.06333845863226,1.05716403743729,1.03828490925515,1.06933552991903,1.07477704281678,1.06253198437065,1.05779050793462,1.06309838879723,1.08742482871294,1.04131817341865,0.994235580804972,0.994972512964828,0.992722028866807,1.0025527875108,1.00250768384853,1.00473762765295,1.00434973954802,1.03116356728387,1.07782585052401,1.06173399337011,1.06398853980991,1.02283289813429,1.02039761616788,1.02252427114823,1.02299773322506
1.00791488388596,1.00740283163539,1.00705259099487,1.00641023520819,1.00792465352638,1.07898129485766,1.00592975226179,1.0038919066435,1.00477365293546,1.00522660023974,1.00454091641245,1.00492425120522,1.00424951233102,1.00471519783236,1.00327003990228,1.00261546057214,1.0015837437656,1.00131639203519,1.0005175204879,0.996824989442863,0.997091230974552,0.997616786425032,0.994849115705923,0.992006480029696,0.991647515183687,0.989780166331181,0.989309748943338,0.988522896208232,0.988690829345717,0.989371202821419,0.988388908873506,0.987660271226703,0.987338422206663,0.986559934490238,0.986964188558864,0.986455660323777,0.987569080919343,0.987565228852227,0.987415392864375,0.986186355858336,0.98629643090181,0.985277591212475,0.985251927911579,0.98518106236153,0.984361414228374,0.984501036920887,0.983475405489496,0.98246946944672,0.982145306031429,0.981768422499713,0.980746293364689,0.978408656844654,0.979581113982536,0.97736990837006,0.977734746231171,0.976891741413373,0.976818505447633,0.976660206910084,1.03972352030276,1.04061220520283,1.04051162364757,1.04024490872198,1.04572274378128,1.07647790828205,1.06096563653991,1.08001442649995,1.05288795912055,1.04646578044432,1.04543422781378,1.08099429146347,1.00269691059359,1.02049295647296,0.993356942136892,0.993963671615331,0.993645545165165,0.995382357240829,0.993618227768804,0.995480136775486,0.993324767996245,0.993241880806557,0.994424694632179,0.995515174211783,0.996468561570359,0.996998461155197,0.997736775090049,0.998240877393966,0.998335306346112,0.99883682939208,0.998276785617962,0.998139240637509,0.998067240648894,0.998144584100285,0.998336386908656,0.999004920602264,1.00100549155477,1.00210055901657,1.00490069608787,1.00576389137245,1.00554118052316,1.00705423766528,1.00649938179371,1.00712720994946,1.00796823448746,1.00959008255094,1.00874450764854,1.00781123320641,1.00861336684054,1.00881568070957,1.00853626764463,1.00794085722286,1.00789832982668,1.00765006128453,1.00705167321077,1.00635631970231,1.00726470219063,1.008916613372,1.00748732202582,1.00838264588012,1.00623869609132,1.00763797700548,1.00514507343399,1.00673277375549,1.00566107712206,1.0088296286164,1.00729364080165,1.00986277554764,1.00868873452387,1.01015425904979,1.00953801864424,1.00925196615883,1.0106949942788,1.01139378734433,1.01235341820473,1.19785801902279,1.08472299609606,1.09799371678125,1.02622539241428,1.02202990207019,1.02145379442608,1.02175040055412,1.02153438781381,1.02131808509785,1.02073186639543,1.01999404181265,1.01971189391912,1.01991523532437,1.02310185763152,1.06498956010834,1.05818527803326,1.05531443804413,1.06611232134968,1.06334713564423,1.06430602815708,1.06883719885291,1.0679648407876,1.07853183914647,1.06459492373866,1.0629980806535,1.0341374455658,0.99046481810532,1.03250947940468,1.05428727277664,1.03066426088051,1.00533614568257,1.04049463398251,1.16511229016379,1.06105787363154,1.06192887078083,1.02114527655057,1.01897803259773,1.02111461441476,1.07539864141485
1.00916567365847,1.00792959777269,1.00875318251798,1.00811017116412,1.0098123277788,1.09993914607231,1.00848077716064,1.00674581904649,1.006809147763,1.00440405078239,1.0059736637362,1.0051283068337,1.00531120328363,1.00520805170772,1.00397870453872,1.00300512450339,1.01564920816386,1.07368489786531,1.03059029925533,0.994423253706176,0.994038665589993,0.990989744021872,0.991940146763779,0.990745143863482,0.990493889209162,0.989982896793643,0.988562925791933,0.98693123261231,0.987552738632919,0.987306874687382,0.987398433058208,0.986917797741831,0.986872669894206,0.986459676260353,0.986650984717849,0.986187397455789,0.987007000584193,0.98710559478134,0.987122606094947,0.986716630408543,0.986607389138328,0.985939534268298,0.985891242799842,0.985309486154866,0.984807847582059,0.983348569812001,0.983917759969127,0.983197912401773,0.983380106935003,0.98242611127473,0.982551141932533,0.980862219686466,0.982179837675852,0.981665579536741,0.983407107865635,1.01592786378734,0.994867685394412,1.27182484185997,1.04033829905318,1.04097740447881,1.04083746248292,1.07200902988757,1.04990082314774,0.988780618165191,1.03387629472728,1.07789379755665,1.04858727730319,1.04488014687219,1.04480543481824,1.08091725641661,0.996687667637438,0.992147833459804,0.993319948213442,0.993543814259666,0.993630660972926,0.991678240793655,0.993326708424623,0.991381046648059,0.993561307802275,0.992890649643854,0.995118399836902,0.996563061905524,0.996868385702594,0.99760487527565,0.997870971678212,0.998524052506992,0.997917600965998,0.997669883021426,0.997539494602605,0.997384160684428,0.997333391287339,0.997238907754855,0.997053043017607,1.08951781843984,1.04470033619661,1.08816946559076,1.00702922248126,1.00475743325788,1.0057931249487,1.00527260034488,1.00656886006096,1.00608468421481,1.00708615495952,1.00803701281178,1.00764082793374,1.008214456428,1.0079432248531,1.00900261569911,1.00839385915113,1.00813911107798,1.00823736235681,1.00774739744978,1.00794805687825,1.00793701848641,1.0082749178784,1.00850336387075,1.00824815800694,1.0064350473087,1.00756746526647,1.00546376747275,1.00726623052524,1.00435061572969,1.00785238989759,1.00617631946522,1.00921887330894,1.00796383211589,1.0101997339731,1.00939877041849,1.01055265804361,1.0097037056018,1.01133089789989,1.01146780615315,1.01282029206994,1.07393272135718,1.0730221238787,1.0724648643936,1.03441588443672,1.0229035863642,1.02226946835179,1.02245051963324,1.02212842573445,1.02280277610637,1.02159492076009,1.02248489188813,1.02050805508038,1.02045255204755,1.02136622750617,1.06500738793408,1.06164867367533,1.06910127163203,1.07270305611432,1.18956564474378,1.07249879159609,1.09576007488764,1.06796746059225,1.05470031337352,1.06714230018914,1.06788839416227,1.06508762877059,1.06111068768569,1.05950600695623,1.05966485406829,1.06083028707527,1.06495384692003,1.05409195515502,1.01376874330702,1.02523004738479,1.0179545811566,1.01939117206396,1.01945996037779,1.020407101629,1.02163392849327
