0.942405660035641,0.942927939596377,0.942671264865941,0.942740892632806,0.942404988052914,0.942077936805662,0.940960416705087,0.938806521154332,0.936978677742693,0.934939816159389,0.983372989721833,1.02107166718523,1.05184410140895,1.05151403904524,1.01125955451151,0.994683149113599,0.954670550619013,0.955795592314272,0.957278026606658,0.957952647284182,0.958209565991009,0.958186824703085,0.957619562735563,0.959004679720221,0.958055031825118,0.959373887708648,0.958776019999095,0.960211077358347,0.95855676704888,0.960472963711705,0.958894530896345,0.959677703687557,0.958816941325252,0.958472582549653,0.957309431438714,0.956535421022594,0.956343929452311,0.955460021173258,0.956373764625286,0.95534700914892,0.957052675174779,0.956721245564724,0.957962474990346,0.957562604331073,0.958211210589974,0.955296961741381,0.954606205126043,0.953511279747535,0.953214824720184,0.952881219737244,0.952105684839668,0.951148324665902,0.959153304573607,0.963876345998307,0.960238228251534,0.958656679817263,0.958593075935326,0.95759144142584,0.958410173085,0.956906611460502,0.958862821536827,0.958695270884031,0.959654485899111,0.958937392401497,0.959090040415868,0.958651521988231,0.958443752179388,0.9590741129659,0.957428592653566,0.958905196782226,0.957108024117492,0.958020980960336,0.957777781343211,0.959094330450795,0.960006995917499,0.961563503853468,0.962521120544508,0.962925768451594,0.965302637360952,0.964612101527924,0.966491099126096,0.965743652272657,0.966872046997372,0.965600290441219,0.966556311960004,0.965565840265907,0.966152504443445,0.965907808895679,0.976572697519477,0.972024984796335,0.971721995346221,0.9717178581284,0.971942768870438,0.972080970267388,0.972331572293053,0.973001171289414,0.973235039610504,0.973276801081012,0.973721539532612,0.972922609537743,0.97356716068401,0.972724765576841,0.973843824726365,0.971672517657615,0.973812473183177,0.971643144968429,0.971915803187701,0.998200603125422,1.01973825799548,1.02150495175605,1.02354917363885,1.02406328350289,1.02434461621096,1.02426139434285,1.00147833592428,0.983276993561013,0.982660380733086,0.982378504806882,0.981171316618919,0.980803670922622,0.980520023431118,0.980809241081537,0.981532184241546,0.98231969899305,0.983176202152497,0.983919769685011,0.985163011951884,0.984587843805701,0.985738691014588,0.984229604303529,0.985849937758966,0.986053457335479,0.987149490128489,0.987094726532783,0.986513739163751,0.986148308749805,0.985864665480233,0.986307156929821,0.986066134293401,0.986436171204953,0.985708650414327,0.985770296661758,0.985455997188848,0.985953262550899,0.985126570099373,0.985031680687947,0.983965728529526,0.983418707821711,0.983027875991336,0.994291331136304,1.00178684588808,0.995112627631398,0.987432323952012,0.9866235624823,0.987926448577727,0.985434711844607,0.985400861011794,0.984164520507147,0.984178493391634,0.982834474853282,0.982362072974482,0.979830874593025,0.978610766069814,0.977208369327615,0.976314354486318,0.974430574400121,0.973321351453857,0.97284626997548,0.972680150717961,0.991177038333587
0.943462299405301,0.942864277973379,0.942905560322181,0.942547026713803,0.942385311580247,1.04281643057444,0.941373343674566,0.938722588524707,0.938307890006776,0.933100155205494,0.933443664623182,1.00513185574167,1.05799859527018,1.16174367431084,1.03509917778464,1.02579304664955,0.952016233384675,0.953926350235988,0.95479570622842,0.955816643100236,0.955642683732397,0.956932387470561,0.957807269199371,0.958238246602606,0.96092187221273,0.958721478805885,0.959698153025876,0.957710836135082,0.961054438922406,0.956704173594716,0.96039210385715,0.958639717454877,0.958053432886969,0.957390308969891,0.956251556014347,0.955788415158188,0.955515427621347,0.956089988204388,0.953525053962378,0.956372649976657,0.955759474149688,0.957173604747961,0.95686886102055,0.959310695228529,0.95752983218627,0.955937141150837,0.953819564850622,0.952522044264872,0.95276792414606,0.952577796597748,0.953443871714567,0.952095620984301,0.997270153286057,0.977504173093177,0.958054136021466,0.958373035916789,0.957516126636321,0.958969051167827,0.954898021880143,0.9593585298268,0.955886938948544,0.959124794167993,0.958638584952506,0.959710930398206,0.957533258636487,0.959046688931011,0.958665899013696,0.956982968828401,0.960230306313231,0.955472710831671,0.959160272295198,0.95759240825102,0.959762347603337,0.958731049114767,0.961927321309094,0.961358323945004,0.962820932268522,0.964938930437481,0.963961178742216,0.968215836654245,0.965078722212329,0.966863018657468,0.965033465655631,0.968389322139315,0.964004747422153,0.967600679699454,0.966316405334008,0.966793571693334,0.978561634815547,0.971432872304601,0.971805913830459,0.971828798476812,0.972721646062917,0.972537181132895,0.972984732675111,0.973271020277183,0.973237964093997,0.974626149154452,0.972531191666984,0.974856747121279,0.972124637353667,0.973900004470053,0.970713301279035,0.976259588954659,0.969850743306937,0.975456911380878,0.972673193896304,0.974043554213352,1.01786736386819,1.0217945423131,1.0232749943279,1.02486434756537,1.16694324061877,1.02991389806328,0.982751913702174,0.983202126463342,0.982132668260607,0.980828266807011,0.980215441494052,0.979721474243285,1.02819762234075,0.987584808729354,0.981614226221625,0.982460898775149,0.98312101270122,1.04442203776819,0.98548838206103,0.987409165552611,0.983745389456698,0.987366590633711,0.984556978411784,0.986624133919182,0.987644221222338,0.986634315498613,0.987857378919287,0.986101530566447,0.986484267841591,0.98645893825226,0.988345332979157,0.985818002908408,0.986625037712768,0.984965682074572,0.986788945942089,0.984060699946336,0.987075355398301,0.983727408363607,0.983942664409044,0.98320230487318,0.982760728036973,1.0055861457362,1.01867625635704,1.0011768483299,0.987539213212069,0.988486673728462,0.98550800537052,0.987229686972429,0.984897941376555,0.985417560687931,0.984592524926644,0.984925994294995,0.98470444213664,1.01151694872683,1.06699977541564,1.06707739023021,1.07428076950805,1.07519748250999,1.00922863662255,0.971510575479705,0.97114474434448,1.01184065814331
0.94353402122402,0.943706444575566,0.94337124980717,0.943354604254109,0.94341691681116,0.943616903305133,0.942507326646856,0.940519135668108,0.938810830638819,0.934852031066381,0.933853681610155,0.991962287353891,1.04612898151802,1.03927818581489,1.03488667487792,1.02758925743892,0.950217880957211,0.952057944416694,0.954165879755358,0.954993951668084,0.956315474112925,0.956884907324517,0.957291110771896,0.958857120303948,0.958642564846164,0.95943595296629,0.958637759933549,0.959259858954195,0.957814842665819,0.958677411847697,0.957843400907196,0.958850439640379,0.95845446690786,0.95765907323288,0.955579496259619,0.955062959837088,0.955165444982753,0.954780203634849,0.955100180571946,0.955124165321816,0.956366480388077,0.956482862391907,0.957001973142327,0.956280413934269,0.955958949449222,0.954142843562751,0.953351696273988,0.952595746529055,0.952135521829733,0.952198201912441,0.953235568186447,0.954402394240605,0.977234910630093,0.965234195446814,0.957029634419254,0.956889396492362,0.95722368022878,0.956276728278703,0.957903212440649,0.956314614668758,0.958477001304984,0.958051650838621,0.959589706977894,0.958066554070369,0.959110206556263,0.958142895723769,0.958298373423507,0.958808055602763,0.957505107545878,0.959287931450991,0.957982030633597,0.959024957362042,0.958870211368636,0.960652799599079,0.961009811861533,0.962718189606581,0.963409776932506,0.964103285997056,0.965859358804747,0.965569287724926,0.966848707027999,0.966135954565856,0.96719568197383,0.965835199513104,0.967587205451016,0.966447953920351,0.967349750656169,0.967326022462998,0.968656163996668,0.96991123629446,0.971071030901031,0.971340642140385,0.971643049366385,0.972059721540103,0.972241772918012,0.972776431262533,0.973229998680514,0.972935775367127,0.974041797010369,0.972833399522297,0.974103730419201,0.972951302735184,0.974392161252429,0.971927868480877,0.974982286036212,0.972796832172985,0.974083162307716,0.973894829605777,1.01949942588113,1.02071776654108,1.02137376733987,1.00319484537453,0.994637076996865,0.988340633870364,0.983617006976508,0.98263256246856,0.981573275440615,0.98045422438743,0.980680418053392,0.984203799327771,0.990792990493501,0.993793811002566,0.996316740919456,0.99841652748462,1.00039485642975,1.00155849367033,0.985543510346939,0.984949376628284,0.986057813977393,0.98455467147573,0.985965182546055,0.985945105595892,0.986419453788524,0.986900557204083,0.985843801885994,0.985961887279823,0.98503236072081,0.98569040617462,0.98497230736392,0.985858504054127,0.984809321962201,0.984990169569805,0.984691390487177,0.986224207128857,0.984322292284073,0.984612359653268,0.982760208478309,0.982659611759278,0.981756090383251,0.992863489473559,1.00976037778113,1.00603589873657,0.99270593654981,0.985755683415804,0.986287603292301,0.985136610661741,0.985286870818147,0.984796316618683,0.985049360690717,1.00327746507805,1.01461529500291,1.02105649771479,1.05894097563097,1.0615807630985,1.05991896581899,1.0600346908297,1.02816537396389,1.02554572133531,1.02375559037694,1.02220893918107
0.944621411362693,0.944198456398553,0.943805643790078,0.943760343712899,0.943806036120617,0.94400209361395,0.942887441700915,0.94166475015772,0.939968353864748,0.934153168103151,0.93202180280924,0.979707499923446,1.21335660450083,1.03377069803272,1.03469695596635,1.03086200847502,0.949777846048357,0.953336821711968,0.953036507737993,0.956190508293649,0.955899308279708,0.956882338671668,0.957631065129403,0.957831192077739,0.959324362002378,0.958283647100883,0.958638764643347,0.957455852061075,0.959233827824482,0.954963296837554,0.957451745052195,0.957467590328575,1.04364723977331,1.00699823194155,0.953104552894249,0.953184827734625,0.954629962036004,0.95439361086731,0.954321598451276,0.955390121923145,0.956290955314511,0.96234087699779,1.01058285414588,0.954729401237388,0.953551686175726,0.952689894750858,0.952625155538727,0.952237013941362,0.95222776701546,0.952063084764364,0.964912183615544,0.959420215476573,1.01214179277255,0.956931607960114,0.956354869242477,0.956447573288993,0.956193058581549,0.957767269992757,0.9542598103034,0.959683485423813,0.955866648494188,0.958926092535988,0.957618337462581,0.96086241444886,0.956539441821628,0.959528053559571,0.958082056170434,0.95762709719151,0.959584377070992,0.957993517858288,0.961041508038673,0.959067615584202,0.960853409189556,0.959362545446965,0.963639901118042,0.962690003975409,0.963972544338137,0.965491110760197,0.964380518016783,0.967413886329909,0.965509862870132,0.967004978169063,0.96506881689398,0.969049230947466,0.965595708475622,0.969217128571242,0.967247334921771,0.967971654762799,0.967309028007566,0.99963301295659,0.970464535752329,0.970949108847798,0.971518381309727,0.971076984560625,0.971960058230217,0.972396750346873,0.972808086108573,0.973852550929714,0.971525607886722,0.975365164341069,0.972173164644988,0.974455445158431,0.970778631171885,0.977268264194831,0.970606740456669,0.976618395542628,0.973689344246214,0.974157491970037,1.01860886674501,1.01922120308569,1.01948185341384,1.00155932423267,0.985096001659792,0.98663457408797,0.985251143211984,0.982014659662968,0.981252734023194,1.05161858438241,1.10911323270689,1.02311036123783,0.996033722528118,0.995264599934303,0.997080123767485,1.04637304076109,0.999617448575503,1.00022053432251,0.985885725250678,0.985026040226362,0.983608054096753,0.986204000509543,0.983760312348069,0.985890811593842,0.986829684930063,0.985545604284131,0.986512327811338,0.984018458112429,0.984091090068246,0.982990362026547,0.984582275163479,0.983553820206457,0.986235354716436,0.98389948746589,0.987371091692252,0.984159431651738,0.987962763064512,0.981854453567039,0.982864948046753,0.981264337203274,0.981985348820288,0.980771009330768,1.0185234924242,1.00768541413403,1.16175300925947,0.985604110082585,0.984677946930279,0.985720851439329,0.984400986295568,0.984901568426507,0.984296343144194,1.04141217781445,1.04764630619863,1.04241507948596,1.04417327205324,1.07963294970261,1.05959698344777,1.05092869322869,1.03215468369981,1.03462335042157,1.10603270172534,1.10607004151931
0.945671105801587,0.945543252008312,0.944861584310944,0.944193473197839,0.943963455014599,0.943740779042933,0.943117590042649,0.941277760247389,0.939621236468574,0.936096156455268,0.934464639848591,0.968003529267243,0.974978554950079,0.985492748554402,0.998511485175104,1.01190199921291,0.94995012966161,0.951683289918869,0.953761769352969,0.954742526413374,0.95633121910669,0.956529191532192,0.957013876479091,0.957823073053819,0.957570001266944,0.957833084357012,0.957201839273442,0.957381652161713,0.956218652013451,0.956190297137354,0.955542569882605,0.956097907611879,0.954394328430521,0.954003619740199,0.953573853886272,0.954858197184064,0.955516527632439,0.956041385426458,0.95601694243935,0.955329089275772,0.960879428040524,0.969944369155494,0.978178762136113,0.95299425842143,0.952698457277943,0.952371371946077,0.952287668535177,0.952218081014051,0.951993172922442,0.952068856468129,0.962123487963883,0.958579125495623,0.956916984098047,0.956261222758556,0.956284950868811,0.95628097566982,0.957019275667885,0.956490586438082,0.958124256804295,0.956407058194639,0.958175588369413,0.957183058537954,0.958610264596564,0.956804352123403,0.958392683229244,0.957015582969342,0.957638306563667,0.957978538303611,0.957811707530052,0.959397002468457,0.959415087639682,0.959971849924844,0.960219407664278,0.961400813569301,0.962874586204441,0.964212873287703,0.964365893058907,0.96453499361998,0.965463148259495,0.965393895895553,0.96662433802633,0.966244628651583,0.967270589923737,0.966122020688743,0.968205108799398,0.967115694170157,0.967976452318244,0.967878589922015,0.968714656892255,0.96956540384781,0.9704836559695,0.971199060023701,0.971877764212878,0.972509405093096,0.972799822334637,0.973295839481566,0.973829447428032,0.973455516782424,0.974865144338854,0.973387264114771,0.97464292703881,0.973523513785486,0.975210687728893,0.972778096896282,0.975729364760468,0.973505167353271,0.974586483787916,0.973935263417536,1.01280365006807,1.00704057662071,1.0001786864245,0.993034899326771,0.984234977332095,0.9851092785587,0.984318505769658,0.982275666585127,0.979901987565433,1.04251163343874,1.0673427248347,1.05154953515512,1.01118465085087,1.00944887827883,1.00525376359305,1.00114651373911,1.00030312950911,1.00160728858119,0.987589932779889,0.98399448594636,0.98492048374634,0.984632330829348,0.986057001236322,0.986083354168558,0.986564775679947,0.986548345137877,0.984681491697916,0.983272920898215,0.981728847437611,0.981924317798829,0.982737115519454,0.983495727995755,0.983105549502568,0.982788333052032,0.982875274166558,0.983681277046661,0.982405332021562,0.982954595566902,0.981172183754783,0.981568727259748,0.980317509208053,0.981481868178024,0.98151781375623,0.982277165090695,0.982172990132404,0.982507109989487,0.982694845470812,0.982524619899823,0.983001792185051,0.982695795621261,0.982692794602381,1.01050149516361,1.03521133427978,1.0353921121628,1.03515961112303,1.03536368329277,1.03481312892148,1.03435426201086,1.0331299530165,1.03179893997139,1.02876311295576,1.02515538739928
0.947005227400112,0.946592683051278,0.945532677280986,0.943840391526407,0.943242218685419,0.943152366175474,0.943077730513443,0.940667202385928,0.938989107986932,0.937065605620957,0.933924213841006,0.934394879723835,0.939371839371471,0.942590761261129,0.944992615745767,1.03010225386326,0.95081767855548,0.953461603900709,0.952754754404192,0.956141485666098,0.955574378770817,0.956312587148123,0.956978427426994,0.957038592248557,0.957636072818844,0.956279109679808,0.956446257272696,0.955504716864275,0.956062332710591,0.953505288475365,0.954575085818296,0.954350702433491,0.952937551546916,0.951357085627426,0.953863611209969,0.955201910269593,0.956990321801914,0.958050851386466,0.958560531391875,0.954971689554392,1.01592243935337,0.97793190726586,0.992427722817621,0.951493748838456,0.95145741547,0.951900945700917,0.952033548964266,0.951914179706818,0.951836641995991,0.951755916650124,1.00962134897611,0.956369779218159,0.954620337624954,0.955485104222643,0.955510111988153,0.956763839594496,0.957019694857692,0.95963340230639,0.955710455080875,0.959719930313964,0.955280849600542,0.957509450229003,0.955033498039021,0.959014589241772,0.954717409771764,0.958138727831953,0.956926828399064,0.957292834043952,0.957964658799636,0.958812885111578,0.960688803596833,0.960325145374295,0.961308424144327,0.987101367338426,0.965108862430544,0.965666187300431,0.96495283567308,0.964960291302644,0.964101029009695,0.966093580521503,0.965745194187991,0.966905288560803,0.965379019048643,0.968519074810046,0.965681600758143,0.969075867601722,0.967732690298306,0.96844442594851,0.968731058820565,0.97001496363741,0.970586229957292,0.971681197614335,0.973170377445607,0.973593426424971,0.974040838137115,0.974370375975294,0.974254795568734,0.976172698935796,0.973483091208733,0.976965870844876,0.972306104427185,0.975074291563935,0.972461896600549,0.978003548681529,0.971084000190861,0.976788620157656,0.973347861934933,0.973412195475171,1.05545594948734,0.972781290047868,0.973221671988042,0.980931414462892,0.982786736262811,0.985774385985534,1.03453632673469,0.97404246912911,0.975817612556655,1.0319119271344,1.18013663447233,1.18059715859773,1.02214416388741,1.01512199118491,1.01831854023566,0.997897470039091,0.997156368078303,1.04054803767925,0.989215753713305,0.983985521308507,0.983626767826137,0.985892454457082,0.986841028983872,0.987272892859825,0.987495819913287,0.988060140203774,1.01518305584433,0.977960490703869,0.978744039702507,0.978630911152734,1.02427118228776,1.02898933393125,1.02233347234503,1.01337794991496,1.01335077830582,0.980222145198682,0.98273293243801,0.981021605021166,0.98112087235191,0.978635426508258,0.982139568426976,0.978425111686427,0.982342469714612,0.981653459022582,0.981170590637585,0.979726002970469,0.979075736161882,0.980347320951787,0.981275662627719,0.980587605312508,0.979947098405017,0.978925202393953,1.03359759420309,1.03488630920694,1.03472575003066,1.03592929531033,0.961272367726791,0.962649426845522,0.966048079709538,0.965261577698955,0.967158450697914,0.967617026240039
0.948004680215986,0.94799012920137,0.947454324448188,0.946588090439664,0.945906459776725,0.945398443736801,0.944058889845581,0.941736666346104,0.93944898177801,0.936719768743917,0.934201443832942,0.934271155448333,0.93833352480997,0.942701029171291,0.947501445381429,0.950174730027825,0.951622081174885,0.952637005781016,0.953840304462731,0.954303093720505,0.955338298180869,0.955364267988045,0.955679603995198,0.956189060522369,0.955802055614566,0.955636756819128,0.955080765278601,0.955043104885252,0.954470052733664,0.954545696400134,0.954328263555448,0.955058157170628,0.954234413264179,0.955187795507922,0.955155243479672,0.957266136632459,0.95757998877789,0.958417866736759,0.957934787780366,0.955641797603492,0.953937641558954,0.952957537013034,0.952390748259521,0.951909160174517,0.951821390491184,0.951908244190047,0.951912112070309,0.951959730159526,0.951939431638501,0.952215583498674,0.953522385125493,0.955159935288548,0.95558042048506,0.956033961318697,0.957031861535641,0.957435445531461,0.958128941018184,0.957766599102608,0.958914780229702,0.956523068562149,0.957062851192,0.955586900741743,0.956333350582828,0.954724439215977,0.955935477217303,0.9552925624354,0.957307738895935,0.958671248299112,0.962056119956681,0.967029359457675,0.972437881485594,0.97738607008725,0.981323863923938,0.984308497560869,0.965518197514549,0.966065677443487,0.965632847010111,0.965501353342621,0.965838222962817,0.966106670961336,0.966776215258746,0.966600710307199,0.967237232625343,0.966468822910166,0.968045949113981,0.967648674467774,0.968639839471047,0.968762077631424,0.96989772327454,0.970559443959644,0.971458146694707,0.971921770264671,0.972680103883165,0.973601328459331,0.974277373031385,0.974583309701707,0.974997764560863,0.974611838409225,0.975706884422192,0.974259358296462,0.975237969900691,0.97406980398525,0.975293149767144,0.972465420696602,0.974400823755519,0.971919741078183,0.972779730964648,0.97181761048202,0.971552919084731,0.971906223463856,0.974856466813133,0.976807345399513,0.975808574747605,0.974072417220058,0.973021025183507,0.973283335567886,0.97394542127282,1.002327636042,1.01983662614643,1.02020870474517,1.01929865168562,1.01687672911661,1.01484899922606,0.996860660222166,0.997153464503902,0.997263006490492,0.99014667106182,0.988096449447047,0.984306663315887,0.983362442817709,0.989308387520344,0.992623770563678,0.99813176240731,1.00307507464765,1.00615090723284,0.977015638979618,0.976935252655721,0.977186577156651,1.01300629319027,1.01142139985389,1.0104028006161,1.01138316336792,1.01168790266841,0.980994610940527,0.980674989058657,0.980197681045634,0.979129530054561,0.980039291568365,0.979219261354079,0.982043016108184,0.981383224654368,0.982438746333402,0.981953342568101,0.980988869457931,0.981296278381064,0.981061701956591,0.981740549185979,0.981116126005931,0.980573316052359,1.01095153250584,1.03046491348462,1.03183410473338,1.00856412527425,0.991672086015373,0.963341541919688,0.966341476677353,0.968477259084005,0.9691386027535,0.970097832990781,0.969418429435313
0.948758093443033,0.950687007102165,1.03900317482487,1.03922202925932,1.02174974417248,0.946842724588758,0.944691971002732,0.941591615309802,0.940467932544162,1.03293968087268,1.02976055972396,1.01232337259755,1.0211994213278,1.02055147628367,0.950253566922266,0.951509651533619,0.952557015650081,0.953452379078805,0.952910420910551,0.954506471612259,0.954192909389928,0.954454126101147,0.954920811700276,0.954784773289259,0.955706258796669,0.953894062697,0.953940326415386,0.953402132323445,0.954126800897829,0.953231392524115,0.954371257235324,0.955149360974252,0.956113088242177,0.955704961988756,0.958247790888724,0.958176958625506,0.958808968849082,0.95929347793294,0.959690474323351,1.02213951664839,0.95335881314766,0.952817688622839,0.952491230894315,0.952128432590789,0.952088202933538,0.952085529194011,0.951908984285971,0.951905653912374,0.951780955982352,0.951319483142432,0.952671849059599,0.954961126063421,0.955324809806192,0.957138041985876,0.957635966438222,0.959643628895422,0.958223854000246,0.960262829741402,0.957218030103594,0.959215123641271,0.953956123850508,0.955447044805887,0.95384505241812,0.955244649409861,0.954146692896901,0.955546835568501,0.976640762841081,0.991171551407778,0.9933228513891,1.00402246079914,1.0017064622397,0.992546398927578,0.988321013940019,0.989779196643947,0.966558307884616,0.96806829761711,0.966612163405392,0.966332291524925,0.966746231525326,0.966964179245014,0.967292823486559,0.967122348854487,0.966369352785207,0.967970797527179,0.966491993320706,0.969016685607245,0.968783541148215,0.969460283318577,0.970194817607477,0.971984223650765,0.97217292907837,0.972211818473639,0.972079642255493,0.973965930737761,0.974580551358515,0.975401782434071,0.974999710939676,0.976082898109449,0.973632299436651,0.976547338984585,0.974008000191188,0.975244821159801,0.972606174912932,0.974942964617905,0.969511706843079,0.971967650729655,0.970678865651511,0.970642661538365,0.969567779070216,0.970111132769292,0.975718775347374,0.976201586604235,0.976246483159842,0.97398933070983,0.97113112168183,0.969299525055179,0.968410618783914,0.968542010879357,1.02591762375135,0.991312850892158,0.992173917652991,0.999335883118084,1.0108137510648,0.992411328402586,1.22589344032015,0.99552527033751,0.992912514524225,0.993751305436515,0.98156597926403,0.981154140801404,1.00914967750406,0.998665493284182,0.999269238605224,1.00870965545392,1.00913828049502,0.97671851379473,0.976005886312561,0.976599502116542,1.01511033693689,1.0005980011071,1.00583854717495,1.00910334705186,1.00955578145455,0.972934581145815,1.00850094365163,0.977457118437569,0.978791982644369,0.976398687516117,0.98249353130038,0.979956399403451,0.984588268771113,0.982849895771172,0.982796723368682,0.982313619038273,0.98187379038722,0.982362306500435,0.982439159376703,0.981160241198332,0.980678595287105,1.03650601297564,1.2026960933276,1.0329892840664,0.972636303443478,0.95910033914333,0.962947546110349,0.969015612451547,0.971106898893574,0.972091293365389,0.973193270044088,0.972065798781826
0.950520596355152,0.951892762244724,1.03124314597989,1.0351842953851,1.02314177657661,1.0105291279557,1.011424523625,1.02126350084033,1.02319507849164,1.02193710060342,1.02108724143869,1.00438378326759,0.987071817677458,0.973950085807533,0.9516060838255,0.952325986329445,0.953905082631659,0.953659068920457,0.953448074248483,0.953211969529966,0.953253022281137,0.953051165452205,0.952411414391949,0.952204236945896,0.951595530856031,0.951968723310603,0.952057711579799,0.952948587968788,0.954089413337465,0.954846397201523,0.955364555995983,0.95622148491185,0.956271708978326,0.957366360461052,0.95744843164068,0.958755205347237,0.958542705551562,0.959265652006835,0.959520386692684,0.978162163888159,0.953035243014974,0.952698787363582,0.952504108845356,0.952033498344462,0.951975544059721,0.951707156049447,0.951851810607664,0.952003065942414,0.952340787480281,0.9528810843844,0.954669715096315,0.955838028110771,0.95698566275655,0.957444419783193,0.958609206968364,0.958438154684281,0.958257360184298,0.957226974669487,0.957213703015363,0.954847854514332,0.954880298369641,0.953667727711108,0.953811133834606,0.953025979292043,0.962104025322225,0.972492670336761,0.982512641826508,0.993360382443472,0.994764404613882,0.99728541333591,1.00001448627753,0.996184750404513,0.992862579319069,0.976102493992492,0.966759638583589,0.96701240691648,0.966603759783539,0.967006902033152,0.966704664167421,0.967388148335815,0.966997330647975,0.967106033917973,0.96726523913266,0.967229838266566,0.968227734923151,0.96862357485065,0.969668802552323,0.970091047980167,0.971416015755199,0.971933906348506,0.972441011504946,0.97214739801286,0.972352263337609,0.973723869616153,0.974702827302808,0.975198594391433,0.975683249555939,0.975386697562987,0.976133206234982,0.974951864059029,0.975524163241601,0.974147432745374,0.974403878575008,0.971772264438942,0.972620566198728,0.970331618907268,0.970995570377097,0.970389341701068,0.970737118883986,0.971864738157159,0.974491719085345,0.975069295025775,0.974693081896522,0.97389752421762,0.970682112577437,0.969170282258272,0.96817029154346,0.968310087113995,0.995968335237457,0.993709239880836,0.992771610290096,0.99110390961321,0.989558619609627,0.988673177007672,0.988777300786257,0.990079546811879,0.991889154655213,0.994765429686377,0.995811313252067,0.997382125755502,0.998949918481342,0.998818916023773,0.998522642223107,0.995330194431158,0.99303186550288,0.992504428891685,0.993384787720764,0.99314872145715,0.993116019498937,0.987067219278249,0.982544198618675,0.980115215645753,0.978851156504128,0.975892628747767,0.976792012992126,0.978315082595001,0.978582144070928,0.98043929995368,0.980328775558155,0.983786067907743,0.9829868324616,0.984281845382907,0.984568207570538,0.984271692283083,0.985359815612751,0.984758188004087,0.985145323822394,0.985140971097171,0.986266667611733,1.00932553669873,1.07004240101402,1.03229672899506,0.99323353996607,0.97782128979887,0.977842545817778,0.97751213343049,0.975117096741727,0.974827530854032,0.976935810501817,0.979584713889013
0.951510757606213,0.953904253254135,1.02832889764051,1.03796634619351,1.02865102340111,1.00816007334882,1.01085751588981,1.02562241344181,1.02799741179313,1.02233996323727,1.02196915546058,0.99631459218027,0.960060632605066,0.95997143333058,0.951960942927585,0.953198553216544,0.955755125388983,1.02910338949579,0.952707105779079,0.952200434570795,0.951849443508031,0.951698867260322,0.950042913103428,0.948340284007394,0.948065936689862,0.947167854296898,0.949175456838869,0.947146101510044,1.04448738496582,0.99076512331339,1.02217686830591,0.956384241568665,0.957179247269916,0.956795868935773,0.95872555471799,0.958628990128768,0.958394572355591,0.959047732502074,0.959538076720732,1.00241479702582,0.953409933901341,0.95305853751494,0.952658075726824,0.9525299775328,0.95153009898845,0.951567486796688,0.951669508268055,0.951887442997942,0.9524196342428,1.0014906083083,0.956835887948225,0.956956852179378,0.958000725955187,0.959100556996669,0.958715649968235,0.959481720192801,0.957241986990134,0.957991728223817,0.952847750049362,0.955004755081554,0.952020701718728,0.953337175403431,0.952249948152829,0.952755266233063,0.973534441743774,1.00728989595338,1.00591732706268,1.00084344211521,1.0102545092409,0.972972609884267,1.00269396813272,1.00021226666945,1.01322074192977,0.966686676871257,0.967658920944588,0.967281000245194,0.966952174296745,0.966567941001691,0.968554968628582,0.966093073669194,0.968075763629674,0.966983114693487,0.967181423364861,0.967666359327137,0.967984167757654,0.969199197287698,0.97005963888914,1.04078140976537,0.972148218178708,0.973343173917558,0.97220001645257,0.972119896375287,0.970330359102963,0.975013657920027,0.974045842351068,0.976026242219476,0.975734449373534,0.97693278897086,0.975629924757142,0.976912484573971,0.974502718707814,0.97467034788297,0.972277467232516,0.97422300528813,0.969937371275102,0.971671312684639,0.970385824948147,0.970066179528417,0.970159862532077,0.973123322317108,0.974750600830347,0.974547395864752,0.975668171229292,0.974162405795137,0.970567240707681,0.968389312200704,0.968339144087262,0.969201830600879,0.995443928181662,0.97184374935041,0.973449444365551,0.973576931763424,0.974513670419796,0.976022558542174,0.976349279447057,0.976339529366602,0.984298445620571,0.999715169223328,0.99402048728082,0.995395918356117,0.997755788735911,0.999180490749371,1.00062955038177,0.98705465346325,0.986537136550612,1.00561827646162,0.993662440438329,0.992979119334902,0.998774455954083,0.973715470122914,0.973730123400569,0.973551219757059,0.974857424007965,0.975341819817706,0.977932726036948,0.978173711150606,0.980276343973318,0.979195066298066,0.985224768621584,0.981889389728787,0.985919692913465,0.985243246244401,0.985529045618285,0.988193561300083,0.986573065044488,0.989103745384849,0.987072849652377,0.987987096550905,0.987087076209907,0.988778124368316,1.19577889649803,1.02882946744099,1.02307976846704,0.975806648485573,0.976650512574011,0.978455767503087,0.982086982963938,1.04413265582529,0.978531489821415,0.980606503235104
0.959954193404886,0.958421934853796,0.96307329948984,0.970387965704235,0.979848546768699,0.990162530181617,0.99864774007772,1.00255476675309,1.0093868966337,1.00928617105224,1.00941010537732,0.988272870645411,0.961884997845813,0.962591231986885,0.963626779949092,0.963352660038787,0.960174452029791,0.959520192318386,0.955473281440759,0.954541597723649,0.952191774736522,0.951780003722957,0.950602154959874,0.949956419356708,0.949131862066914,0.94812072985914,0.948442906653619,0.947496550867136,0.970598343320521,0.974945889993997,0.968218047766479,0.955618823275123,0.955665145529833,0.955683281076681,0.956102331948033,0.956603338711037,0.956386228731454,0.956207031998818,0.954656076102544,0.953614407527919,0.953484721918167,0.953460774525807,0.953454609596754,0.952633828433428,0.952394261708367,0.951663296876001,0.951840006167588,0.952159254101021,0.953057826713387,0.954379738132568,0.955827863114822,0.95641915962544,0.957878107973332,0.957992603765336,0.95808768039963,0.956698142779339,0.956097227723778,0.954803786298496,0.954232963216525,0.952798883989601,0.953204912865693,0.952853562987016,0.952784955311932,0.952520583625499,0.974223273540931,1.009519238024,1.00950984557668,1.00924085656356,1.00866116354402,1.00651929381157,1.00449378394915,0.988625139154081,0.978243107689528,0.966260220016876,0.96633256941132,0.966112486568187,0.96598980724131,0.966970523762476,0.966309422393032,0.96795341123679,0.966800218716479,0.967437459204676,0.967153784047664,0.967957792712207,0.968386571386363,0.969653116481329,0.971157840079787,0.972016050565133,0.97301761767636,0.972411374617437,0.972813337068749,0.972107083214055,0.971943012397964,0.973008097916451,0.97451900332154,0.975372303786522,0.975778499861991,0.975505600017392,0.975732139654275,0.974803818426864,0.974897409596827,0.973823547638717,0.973672024360171,0.972103202054794,0.97216063112715,0.970698587310652,0.970833153908339,0.970641999739958,0.971247987423642,0.973199313344223,0.974138872020905,0.974467629565346,0.974133022128928,0.973539263283342,0.971967169759955,0.974719966190786,0.977210697577082,0.981622699105176,0.987756494510566,0.972665183234866,0.973200327816146,0.973761640914968,0.974529568886926,0.9756605239881,0.976122195718474,0.976828832636404,0.977998384206849,0.979018791025731,0.978784198182856,0.978522044778848,0.979259875012417,0.980770601018101,0.981835924881687,0.981804594819482,0.980635071957925,0.978290556212661,0.975273171578354,0.972926587978632,0.972233562224935,0.97297314858347,0.972973962730618,0.973353012412751,0.974211901213547,0.976235055704068,0.976826380906483,0.979382568710631,0.980488283765392,0.98280890804393,0.983088477336405,0.986141875186386,0.986114450450518,0.986948735965706,0.987764720249933,0.987497370146349,0.989344197501071,0.988664569865084,0.988870924504641,0.987773239718137,0.988563439362327,0.987996402398732,0.988328854305188,0.988044194250588,0.988007180484527,0.987113751456471,0.987168371209098,0.984732945756709,0.983909114346677,0.982736157150667,0.981449344141424,0.981487574160441
0.960378316513104,0.961857791589561,0.963307844512171,0.962463828541942,0.964892282779859,0.965260492899192,0.966471851058774,0.966128995088774,1.00927728758709,0.994460429113157,1.00970210366877,0.979955823594768,0.963345760146053,0.962399022364916,0.964695611137611,0.963265412596279,0.96196657399354,0.96029074506242,0.958016591756233,0.955641784083508,0.951765285325189,0.951116093744499,0.950153676492113,1.0004770836961,1.03489105679992,0.945446376346042,0.946933869729737,0.945268661831662,0.944229395914725,1.04797865555106,0.952442759502858,0.954127706088587,0.954484858033578,0.95326624971428,0.954478560198236,0.954523754779689,0.954902307247352,0.953581966391719,0.953149757807176,0.951564184774766,0.953952497159974,0.954084293771816,0.95439644151559,0.953561400280124,0.952425688193995,0.951859698165449,0.95132085503387,0.95169591166934,0.952641087726369,0.954135441321269,0.954560931837025,0.955568789032147,0.95825816376071,0.958828448909559,0.957148697207395,0.954949647647078,0.954338891855739,0.954151191590456,0.952097644357258,0.953060107123464,0.951875911044728,0.953035153366713,0.952409243467787,0.952529906502805,0.97258678505054,1.01043059432271,1.01117669525744,1.06375471750282,1.00815564622388,1.02811892097136,1.01985639721442,0.981794244001666,0.966079265788353,0.966107143278639,0.965445812997287,0.964631963243026,0.965565668560927,0.964182644675099,0.968934543934785,0.965331787700724,0.96914391952387,0.966893543851042,0.967887792347617,0.967253992447841,0.968145419546857,1.01302862001598,0.971692833073703,0.973249755021999,0.971783380836789,0.974547897927114,0.9712892075426,0.972639370826414,0.970714070646376,0.971404872748521,1.02267160700263,0.975502357096369,0.975314341325553,0.975504734512196,0.973849594678064,0.974929279009158,0.97375170628917,0.973903365772609,0.972747157060994,0.973288539509208,0.971126953732693,0.971297609414076,0.970681780434753,0.970265761232377,0.971798401512763,0.973274057089182,0.975340315590466,0.974268190643122,0.975226329925326,0.971658215177908,0.97100209906348,1.01225027497407,0.996200814135805,0.99704137976573,1.01104513031257,0.973354505763207,0.974327905787822,0.974490881638233,0.975529726631726,0.975331469683219,0.976558072700162,0.976164886149985,0.975394022522743,0.973882875751155,0.974048321193322,0.974766502369154,0.973286996399546,0.971558441396697,0.97316954667134,0.972979408710189,0.972833984315153,0.971672410606383,0.970621079922402,0.970724277362448,0.972147648244107,0.972774887453453,0.97364159361427,0.972635119540168,0.975210204396848,0.975398388276609,0.977846009154996,0.97860433499953,0.982201859878538,0.982160497312564,0.986556170735969,0.985481990877076,0.99039357283146,0.988388858892703,0.987317006027784,0.991335561523992,0.987379440460664,0.992885946439269,0.989049380476381,0.989505344371365,0.986826282428153,0.989787005621529,0.985734392363527,0.987785594682144,0.984320590155465,0.988060922132238,0.984346073271556,0.986967083430569,0.984169012317801,0.983432060458885,0.982450369685774,0.981857029334938
0.965314879557833,0.965025121937491,0.965679270909787,0.966131038167453,0.966396586844176,0.967078101760691,0.967411313470563,0.9682166084228,0.969085630663709,0.969343166279518,0.967666352921678,0.966378119270801,0.963485643212012,0.9640928266589,0.963207928013876,0.963508979839565,0.961840983902592,0.96058154001876,0.958364550269572,0.95602147408159,0.952191557077403,0.963538577199015,0.99036738450426,1.01228393023365,1.01979236262454,1.00620267584625,0.994472140611678,0.983131790872758,0.984915439932525,0.986048970625842,0.952611275967451,0.953435532932088,0.953762133384164,0.953627477254515,0.954260358960422,0.954429513941905,0.954257044608473,0.953720445836786,0.952930338898747,0.953057603207566,0.953506220249509,0.954684298360425,0.954311929281033,0.95327475471706,0.952239336874362,0.951380620543843,0.950585234767662,0.949665341621201,0.949337878601217,0.949716323534743,0.951271592685034,0.953022060838206,0.955207770530944,0.95553783985075,0.955207606706693,0.954116312200197,0.953788639961192,0.953030099938124,0.952836483787998,0.952401519939181,0.953050234965566,0.953442067490242,0.954011478737661,0.953795759196287,0.960149235719979,0.982677449125144,0.990783767265456,1.01401963059588,1.01269044354688,0.996513045198071,0.987186256890468,0.974726515459993,0.964730999311053,0.964925800812136,0.964418595748532,0.964457483482778,0.964380018705913,0.965760393044555,0.964718968375082,0.967767154976804,0.966548273421003,0.967898214702557,0.967291407676357,0.968787115169417,0.968442933894586,0.970236547584172,0.97158948776975,0.972007960632616,0.974216975682028,0.973363481438997,0.974640428812179,0.973748229834091,0.97373977572296,0.973252618239315,0.974053616717532,0.974656123144085,0.97497228413098,0.974559982244851,0.97433584599738,0.973777984950909,0.973858549629232,0.973469451755982,0.973134286594608,0.972498357143763,0.971879282670755,0.971231670229645,0.970970029602731,0.970878240048406,0.971541863099517,0.972729434827441,0.973351260680871,0.973370794459741,0.973244138762205,0.972382987479657,0.971405709820446,0.995311090583986,0.99722738884052,1.00233612354741,1.00625501593249,0.985084081320003,0.976642791809347,0.976361912577634,0.976646874772957,0.977407737432635,0.97715625761155,0.975554098223686,0.973585220147067,0.971694986664766,0.971168500101953,0.971727565570202,0.971691840363817,0.971138416485664,0.972112794289224,0.972288413484253,0.972207651940991,0.971412144416771,0.970804830408369,0.970624058042281,0.970187979440643,0.970670888712781,0.970384959875249,0.971132091662645,0.971862122443658,0.973358114870568,0.973613862991824,0.982310864423198,0.983406573036611,0.984994383498755,0.986149477858251,0.987943304030296,0.988229195586334,0.988182158415745,0.989188848261513,0.988346057445277,0.991003587222814,0.989946218649635,0.990544121935448,0.988778211142826,0.989840431859304,0.987542341662314,0.988358945827845,0.987135429968482,0.987513065441803,0.985317545758549,0.98767565437458,0.985684912359125,0.986039954728357,0.984932180875644,0.985433631436172,0.987140737292348
0.966748954727621,0.967378846719433,0.968914512245475,0.968415257431877,0.968852769017527,0.967703425722121,0.968590191566292,0.967756174177955,0.971657033924336,0.969062035585723,0.969986032701796,0.966375461646044,0.965880533001312,0.96379941177032,0.964673187983551,0.962513925603891,0.962224564628615,0.960375403496645,0.960334329674978,1.02887001576645,0.949808751000153,0.969259964316986,1.02604166275847,1.02672606618456,1.02687800703455,1.02574772161938,1.00007588144564,0.981469540088108,1.105369920019,0.986008871853736,0.951457201811395,0.952919708465254,0.95267133099196,0.953804998906895,0.953832912882263,0.954725192933266,0.954037924091233,0.952493157244403,0.953495099646567,0.952195051122592,0.953180405038811,0.956415717902288,1.00657032033005,1.00829396136331,0.950981721182067,0.951476914081043,0.972536669886964,1.008841058691,1.00915361897804,1.00938477276748,0.996309749041761,0.981459991998632,0.996812892282269,0.954269820890636,0.953639169106215,0.953249903572213,0.953131395395762,0.95265710621958,0.952040402086751,0.952028101808684,1.03439630552032,0.974215164836351,0.956266368338752,0.95567778016698,0.954517988464927,0.955022446764043,0.981200092778132,1.01350298127614,1.01468701571041,0.962776898873534,0.963248874734187,0.963270024684661,0.964388781056595,0.963791866308592,0.964775207185569,0.962615323400858,0.964570178712757,0.962023819623758,0.967630297567355,0.963071327591163,0.970010932223247,0.967110533215781,0.969737797139005,0.966756525232164,0.970679697377442,0.968914765460889,0.971392735940503,0.973416911375152,0.972504492817662,0.977551645526192,0.974732288975591,0.975812109437352,0.9756935472112,0.974291662267361,0.973448179202165,0.974002892344742,0.974568722226799,0.974392492365318,0.973455485569539,0.973636512017246,0.973265795973946,0.973467134168398,0.97337189970834,0.972135795494852,0.972285596191205,0.971011134039972,0.971034661269113,0.970713463491413,0.970933706878413,0.972587606570995,0.972425968724816,0.972559592410044,0.972923621732106,0.972277530053696,0.971128743534256,0.993993853553578,0.995996633131857,1.01519814926075,1.01393890438177,0.996328606733882,0.978788534531723,0.978166974788626,0.978474594258255,0.97934968007525,0.980344435084324,1.38652923390072,0.998372773576263,1.00009387847644,1.00098105749257,1.00263097339274,0.973146304440597,0.971970071993339,0.973692433464912,0.972839953931382,0.972795144389732,0.971787520575263,0.971538601333674,0.970835911785464,0.968937855977626,0.966190455761655,0.968370443620708,0.96909835735259,0.970277995579309,0.970209484231867,0.971232271153364,1.04109881834792,1.02186765112772,1.03741116680376,0.988237186193288,0.987993364482242,0.988113500440075,0.988235071722936,0.986434897791554,0.992005116669165,0.987669532864249,0.993594749482348,0.990104176710779,0.991888248473971,0.987753580675848,0.990426487806795,0.986324571420887,0.988876857658012,0.98450787674954,0.988805350791199,0.984337407552889,0.98992050248664,0.987131334051246,0.986119164610705,0.986609721939595,0.988220518130122
0.968734342913025,0.968633747510849,0.969042427077398,0.96921496819948,0.968765815405815,0.96889563810941,0.968678886611877,0.969726260406587,0.969272538825499,0.970248840546473,0.968078097705039,0.967437588435907,0.966083113931535,0.966047155341396,0.964235083407966,0.963590477116405,0.961997655365096,0.960765383218333,0.959719608623095,0.965906155286389,0.96802429301704,0.970659488175266,0.99189257614289,1.00608367952264,1.02245132540559,1.01969654728221,1.01975809053157,1.01957459442849,1.04455789863442,0.965574702301977,0.952699770266257,0.953221840938373,0.953467391991852,0.953616727030692,0.954008193455173,0.95397367278853,0.953888801888682,0.953317581045659,0.952854090907534,0.952179202692781,0.955988840199765,0.957800810009272,0.986557779517397,0.976920258529836,0.962601888392029,0.972488493355356,0.979349346845337,0.99010187164034,0.985751903693817,0.981646926934114,0.975640665220778,0.967683358491306,0.960219364179673,0.953007367105794,0.95282597388277,0.952830012733766,0.952912313432058,0.952656639669024,0.974626819296866,0.991650846774493,1.00579152954154,0.984928456407601,0.975117435414325,0.956258591287735,0.956417092083119,0.957476640900275,0.959386846094146,0.96029804078189,0.96147928512098,0.961791234188602,0.962721318352462,0.962978557130542,0.963206870589281,0.964310797196287,0.963282899602785,0.964196472012223,0.963743462556534,0.965480166025986,0.964011098649045,0.967709534585843,0.966448225842122,0.968380149302149,0.967801868021327,0.969957652139679,0.969627424051248,0.971638145145019,0.972353919196994,0.972903490053567,0.975420913537038,0.974478239425044,0.976438553051781,0.975586730993366,0.975905246295522,0.975216848159098,0.975058971142049,0.97502004658101,0.975153262121165,0.974948204561048,0.97459219932065,0.974265258123456,0.974203933272456,0.974158533747051,0.973430066799448,0.973351048906787,0.971700724111059,0.971759807883557,0.971021602761065,0.970532220753821,0.971044253201461,0.971097175180501,0.971662046633512,0.971690604088227,0.971861686489809,0.971793849671289,0.9826285422064,0.99331380042123,0.994186798930738,1.01317583346581,1.01523344921438,0.985277661343336,0.97981399470417,0.979728621498088,0.980090151104951,0.980509326729947,0.980971982580192,0.986032124239821,0.995443003727367,1.00026001866586,1.00026423003245,1.00014362450445,0.996555522214756,0.99375087721612,0.988487924469135,0.982481185804359,0.977816370631133,0.975221487245801,0.973742142001514,0.972960239404186,0.966072831720001,0.966197965564259,0.966972527856116,0.96822332883908,0.968427831688503,0.969034850933119,0.96977818225894,0.992089954739828,1.01038661121109,1.01615465004698,0.986568680113042,0.986721947896809,0.986772476024812,0.986928862611536,0.988756192940104,0.988324278672029,0.991599609512074,0.990466041509287,0.99191893105712,0.990745310255919,0.991974725969852,0.989699073626586,0.991311505158731,0.989750001656394,0.990806873155907,0.989067110318567,0.991185733636313,0.989801854597141,0.991180165496478,0.992257056186632,0.999702825885666,1.00801490699565
0.96828904073973,0.969449327818603,0.969324945722047,0.969623932763597,0.969455659684228,0.968943786618242,0.969395515071226,0.968726848302156,0.971850275138623,0.968238832464416,0.9696402868058,0.967524015991206,0.968056879983287,0.966639386389531,0.965057492014435,1.01699595818004,0.961669315981839,0.959543419307448,0.959139594166018,0.958271228024141,1.00939734445745,0.975971369453885,0.985238760721311,0.987006764467868,1.02474934642288,1.01581446479357,1.01790908781118,1.01658796011952,1.17954542107749,0.952168405524495,0.952717861119985,0.953501626101858,0.953326590665575,0.953784908308965,0.953542726360782,0.953121200638788,0.953458384298538,0.952684557515634,1.02377316396276,0.951026777412539,0.96672336667053,0.962166796139986,1.03207190162514,0.948079134700077,0.94831563091381,1.02402484169592,1.00107373661696,0.99844449741721,0.951069191968217,0.951106119587956,0.951376476585979,0.951926404407577,0.952351019839676,0.952803294190006,0.952570413361369,0.952248702975442,0.952551684695219,0.951855989031404,1.0156737796062,1.01109328728443,1.02674127033935,0.997287208326703,1.01538044170291,0.956660261845787,1.01192708094892,0.959144124237935,0.95977807175256,0.961115100215003,0.960322796498964,0.962500350181465,0.961785357636218,0.962824926673297,0.96429760446205,0.962581207655117,0.965404404664094,0.962226472795488,0.965105429481163,0.961998985640641,0.96946833165506,0.963101075166199,0.970447417436023,0.967381356776156,0.970188756215637,0.967655480105175,0.973516767882093,0.971690221124028,0.973318537747155,0.975587068476203,0.973683949884042,0.977130935057395,0.974822384643515,0.976372593918902,0.975592896047077,0.976455894427387,0.975902708449503,0.975968895779362,0.975840582324475,0.975783751004882,0.975566904940154,0.974581920653858,0.975589067648236,0.97455499763828,0.975858454016599,0.971855480382119,0.973592055799901,0.970571160264831,0.9712833868447,0.970286630093182,0.969782882273688,0.97126811740898,0.970173905274564,0.971579877013287,0.971146775008358,0.971403445728071,1.00969972707279,0.993124451984788,0.993604331621863,1.00853912702145,1.21147094490627,0.982096307614937,0.981159701633785,0.981247918572771,0.981417215284712,0.981817211213004,0.982150833647215,0.982895487879839,0.991322029263435,1.01479816401635,1.01294970187688,0.998284645170714,0.997832262500879,0.998348677307092,1.0000608578094,1.00098901834127,1.00225143307782,1.02985873021217,1.02893780445216,1.02678383605142,0.963840768877044,0.964212072654757,0.965955623536879,0.967250378220313,0.967186038178177,0.966406140203082,0.969371178862502,0.975543245932778,0.999755341229238,1.19517212484632,0.984555972246306,0.985197698589322,0.984578263696161,0.98626420843828,0.985832298873205,0.992356997038431,0.987886751385166,0.994143628286242,0.991624565759675,0.994800314380478,0.990214322054265,0.994670845635108,0.992038928251496,0.993039448652932,0.990850128757316,0.995336821959508,0.989798457119059,0.995509585603307,0.992601656287823,0.993487567604995,1.04175226681368,1.01834919471508
0.970285983129215,0.969254089110062,0.969113119579937,0.967999291153682,0.968574303771929,0.968532471260225,0.968906059871343,0.969809634119799,0.969089119017365,0.969877354326766,0.968105029011158,0.968169468719522,0.967934646705272,0.966809694380829,0.964414269401171,0.963242739229214,0.961845959616321,0.960853588065127,0.959461465146568,0.959396387426158,0.958251812319387,0.956066279288473,0.954248129975406,0.953060464804578,0.953083772759642,0.954114916330892,0.955712865775565,0.956718234916519,0.957360321198487,0.953718554029437,0.953959078978931,0.953895033903044,0.953932220797953,0.953799835165366,0.953759607572335,0.965846038857618,0.979270460568729,0.99246219857285,1.00490460679863,0.985807422779272,0.963508373557349,0.961851098193177,0.978545409198988,0.988690872240278,1.00013118901839,1.00513320037609,1.00265076593368,1.00096451189561,0.985216576034344,0.950430860270745,0.950856962458899,0.951466335035476,0.951573817415537,0.95174124419493,0.951653742435041,0.953931720877825,0.951904873808101,0.950409602537371,0.951028185476807,0.951991392596657,0.954086192529302,0.956162698155216,0.957963991313777,0.958756120117663,0.960013352082714,0.960523215074131,0.960894506585488,0.960761008964119,0.962217037739263,0.961696302097814,0.963042902613644,0.96319966511573,0.96312835253303,0.964898757083404,0.963571987960067,0.965495147110947,0.964635338927982,0.966525428160355,0.964843286501097,0.968220462249283,0.966587914933556,0.968517019405924,0.968866286484176,0.971311536050659,0.971818047205976,0.973568836341334,0.974053963139696,0.974445720854069,0.976155416460311,0.974834906091684,0.976659878409617,0.976127652417898,0.976550349402683,0.976596096228161,0.976735569594709,0.976462452382226,0.976306850063611,0.976391249857223,0.975992973486518,0.975642603715246,0.975190406286747,0.975289540947155,0.974163972691445,0.974642841517109,0.972237260658199,0.973020758859898,0.972103997209994,0.971588329089628,0.972031612981356,0.971399819322707,0.972347631739789,0.972198799717395,0.972473063293444,0.972749025264318,1.00266675353226,0.992343279672802,0.990464666244178,0.989601896864641,0.987307222196335,0.98277758474016,0.981764167828378,0.981549781667958,0.98220550083641,0.982280150584841,0.983276133570654,0.983721359740926,0.987982766735508,0.99525525643241,1.00133729661368,0.998863058464966,0.998319843498281,0.99691503038917,1.00154192819471,1.00298585594309,1.00297442270913,1.03051003836178,1.02951659438073,1.02846472554641,0.999917977568005,0.965718635517989,0.966870370315493,0.96744787049241,0.966211013022993,0.966398616149643,0.967873912422547,0.971167572751819,0.990269140253866,1.00397337896814,0.985887515878049,0.985373710174968,0.984549459486816,0.984433500200289,0.986027167052839,0.988841587739036,0.991962835463453,0.991701913941548,0.993011721433482,0.992619468809855,0.993782113354705,0.991894492978393,0.993434761634102,0.992424055485281,0.993861511801495,0.992364635820972,0.994603297520972,0.993509201017931,0.994194836918193,0.993586485581733,0.992491340185921,0.990837813185844
0.969138712891971,0.970016443073702,0.967351421554733,0.967237934340657,0.966310018410384,0.968513889522432,0.968812321320925,0.968755954583929,0.970555429868639,0.968131704387318,0.968675064102418,0.967553274045176,0.968426374213733,1.03944651355192,0.962593384893933,0.96198838758056,0.961459903320535,0.959630395218499,0.960781856812838,0.958902902527957,0.958768261236016,0.957488488033864,0.95723025393671,0.958660487546317,0.958161504471951,0.956912332746538,0.956612118106746,0.957262705148771,0.955970351118869,0.956076982820987,0.954011695527414,0.95436603249227,0.954061471335147,0.953862639057157,0.953530024581507,1.03408825106757,0.998748006659552,1.02640691789897,1.02630024441478,1.0249506674737,0.946948461852401,0.946708053455028,0.94645623853089,1.01873178355659,1.00633017419987,1.00775717048352,1.00797744337762,1.23574181097493,1.00954421121964,0.948921581010285,0.949619301946681,0.950720907823996,0.950576009426628,0.950830667371265,0.951141320071487,1.01266108355433,1.01455047144029,1.01346386741727,0.956026951556025,0.956730391917312,0.95813235872994,0.958689362832345,0.960226735900024,0.959489624100567,0.961266847551524,0.962036319157664,0.961566128956417,0.962791967110611,0.960663901385871,0.964490859109046,0.962544533489047,0.963676668695889,0.964887214199059,0.962687421099308,0.967147139642313,0.964192880194757,0.966765772405028,0.963724300815123,0.970038255883748,0.963969202688016,0.969534879927844,0.967565305344642,1.00513129454846,0.972111262909007,0.973827800140428,0.973860615532818,0.974509583446987,0.976572748718757,0.97437217132366,0.976997377153487,0.975335018735461,0.976850854809681,0.976470118272785,0.977525083297435,0.977455630151507,0.976963388495736,0.976728720289527,0.976756069285153,0.97768912718695,0.975115983162529,0.976154011178467,0.974960628005383,0.976724960789041,0.972128009959504,0.975591565550527,0.97204973349604,0.973448661159047,0.973882683007581,0.971562249777687,0.974188380067851,0.972580526472269,0.973577927833092,0.973241889570854,0.974589853966896,1.01529624449484,0.995596439088445,0.987255028407062,0.97780905873756,0.978266432110055,0.980274054742014,0.980018115607521,0.981537124910241,0.982151844282813,0.983302252349497,0.983497754127938,0.986301017922116,0.986687551533118,0.986993286147885,1.02436089728361,0.984615017912366,0.985061571743445,0.993127389316181,1.02558308541512,1.00556530351431,1.00502672565466,1.03318633911694,1.02946357349072,1.03708903032476,1.03658888935686,0.964628690978945,1.04097705600449,0.999008098436676,0.963431158199283,0.964035026752836,0.964613169952999,0.966015140016057,0.979413550406674,1.03019561041834,0.974798898210929,0.97680125559782,0.981930774370752,0.982089990892577,0.98314171344462,0.989357702128202,0.992295961206745,0.994412007027132,0.99235498195611,0.994967471260899,0.992785967334198,0.993415212588516,0.991296598351316,0.993493478576168,0.991928034897896,0.99629956150201,0.992461000161576,0.996861306886399,0.994771525403647,0.996110400388753,0.994514078603994,0.993638321705997
0.971551903360697,0.970192913742028,0.969985915356433,0.967895873305621,0.968919818146818,0.968423695564223,0.968713699567234,0.968662875606045,0.967863823438019,0.967603816047689,0.965631845980723,0.964740933240054,0.96228898868841,0.960790823209269,0.960491694311556,0.960339715143742,0.959971297943834,0.95997907864285,0.958929094717853,0.958699331941887,0.957108351129331,0.95694054146595,0.956807038955017,0.95702485902111,0.957000679174156,0.956693985481035,0.956964482891622,0.956351054277546,0.956440042086526,0.954608558161912,0.954853693458732,0.954089175497948,0.953867366649975,0.953388749507107,0.952281217318431,0.951155804435891,0.950602679157698,0.949794624138655,0.947893694822215,0.947122204742586,0.946700359977892,0.946718080076451,0.946462111205921,0.972393463286712,0.988836403154851,1.00735506632206,1.0078912849532,1.00823441112029,1.00920768938586,1.01112966612246,1.01263614830718,1.01380088028417,1.01446543173135,1.01401347322927,1.01529741909304,1.01432585015093,1.0161802729275,0.978665141042778,0.958040735167109,0.958929072455905,0.960062899241898,0.960598975510243,0.961085781233973,0.961876123460632,0.96186727331689,0.962596065203831,0.962468700805497,0.962120023563539,0.96334052355811,0.963057820574834,0.964624885968984,0.964801418223793,0.964713802736166,0.966445526329778,0.965503226020045,0.967387248779468,0.966247143855115,0.967615329484382,0.96570567828383,0.968077999380931,0.966630595771939,0.968478007545009,0.969857060080418,0.971724811734828,0.972965876869528,0.97416240640598,0.9746766438199,0.97479874861563,0.976069411809335,0.975290373911881,0.976852872329171,0.976612896219385,0.977241990568348,0.977168563176292,0.977205464731278,0.976727422859558,0.976553680331162,0.976629058269266,0.976283610727021,0.975936271203981,0.975300473510248,0.975796858509112,0.974853536238107,0.976293423417699,0.974014249500024,0.975268843809551,0.974098149744362,0.973729208008016,0.974012213472905,0.973656763735962,0.974629119662219,0.974429666294596,0.974988487335858,0.975770048675472,0.97691450516962,0.977623531233803,0.977472368378735,0.978068216553362,0.978980731582271,0.979715210575933,0.980756184819247,0.981221278947332,0.982473694052364,0.98322852137772,0.985353281185687,0.986281694795388,0.986932857632401,0.987226574821367,0.987214488545236,0.9865242151785,0.987005805667806,0.989119660336625,0.99511999333304,0.999644328703945,1.01625626178563,1.02205694817832,1.02494892092325,1.02429098046255,1.02482162333936,1.02534865701894,1.03414192996887,1.01937443255531,1.0071621866719,0.995159215513103,0.983513875748916,0.964831109958559,0.964838337775247,0.968437022067454,0.972782093481775,0.974375995620184,0.977128314629914,0.979603337001707,0.979602782115027,0.992450378929381,0.992770976007365,0.990978952562425,0.99115674816648,0.991344751859511,0.99288136971262,0.991915226972029,0.993082138295689,0.993096408848249,0.994383110578159,0.993507329484341,0.99521846619848,0.994387216676045,0.995638027415298,0.995472883877994,0.995930245453711,0.995175403733139
0.970778902767114,0.971734162991704,0.970406939624077,0.970255596067014,0.968458548536345,0.96995194879658,0.968198254497299,0.967418644302434,0.967175030051525,0.965421887181771,0.962925009707038,0.962624942519343,0.960705392953705,0.958761062655057,0.958229330724852,0.95743882475565,0.958727126110985,0.958288831110532,0.960010741986805,0.956546051688213,0.956178010195456,0.95562051267075,0.955543234792564,0.955291699472588,0.955826480883574,0.955638196210298,0.956110157704124,0.957693534452296,0.953564907864675,0.955874606132767,0.953084110188689,0.954225852585101,0.953676105273301,0.953003030936469,0.951414171731692,0.9495082613237,0.950410068313959,0.949576126594034,0.946947658890882,0.945611698161513,0.946655718100569,0.946754893214276,0.9461588568758,0.944739220396823,0.944416710003609,1.00647073024386,1.00746540177236,1.00734334699244,1.00765556825544,1.0436239054191,1.0436425812717,1.02475860320643,1.04477676894882,1.01094837468904,1.04064138628046,1.01125000169526,1.01678868398882,0.957159279773315,0.958317906668757,0.960022325320709,0.961731739014671,0.96166548074077,0.963140973890981,0.962587500744352,0.963826094122517,0.963125657620815,0.9628958121455,0.963729427738766,0.961997853494362,0.965236805217365,0.964891552383334,0.965847807460483,0.967046470195457,0.965428757255065,0.969067394258457,0.966609445599206,0.967831378132557,0.965573118023739,0.969228606716605,0.964607643776602,0.968423766949906,0.967578498853149,0.969739245387261,0.97067075972092,1.05405570758999,0.974441064153758,0.974300917359146,0.975301685774254,0.974307280228295,0.976785670052485,0.976000720386649,0.976987957317875,0.977305341652618,0.977863686220924,0.976621181804567,0.976633993733372,0.976320246006879,0.976144052104733,0.976407683132117,0.97502842812587,0.97555429918752,0.975300655837516,0.977559589624403,0.974376681867464,0.978364949386931,0.974718474221513,0.975199248668683,0.974835371170234,0.973195315964546,0.976205302781567,0.974700308494144,0.975651812687959,0.976221548809076,0.976632480523827,0.977728879813168,0.979326049697578,0.978393732598074,0.979565478943163,0.979023720658754,0.980225537264445,0.981240272626172,0.98143297094284,0.981552633079583,0.984666249843836,0.986009368495032,0.98846717306606,0.987774281753569,0.988162975128392,0.988448652519929,0.987186682121912,0.988242493276254,0.988050639917076,0.987483973686951,0.988442069533273,1.03193168763144,1.0190358734129,1.02406370478998,1.02193818245642,1.02168611136981,1.02540513353107,1.0376259440087,1.03750454968941,1.03821684265959,1.03864476195042,1.03889329077831,0.96065786041312,0.962250056928972,0.961691506606543,0.963944635468994,0.971381014512506,0.97371442698731,0.977650759257002,0.977198458979891,1.03026092279332,1.03149313914486,0.987170174169071,0.988281625425732,0.987503112200456,1.04126682452407,0.991630517523638,0.992639392561727,0.9940913736828,0.992979744449843,0.99638126378306,0.992348248200226,0.99567528980506,0.995458311337562,0.996740810794643,0.996080431270368,0.997514464807067
0.972942990037745,0.971873592032903,0.97164781339429,0.969852828929547,0.969441796738416,0.967331425752046,0.967038240255126,0.966170056605395,0.965662466299323,0.96361688819551,0.961935927077607,0.961637957392904,0.960636683155287,0.959318596748847,0.957531140324167,0.957153607640803,0.957343645649388,0.9574756979557,0.956797857497933,0.95629958328887,0.95529599463817,0.955358313940903,0.955279969213276,0.955821021480172,0.955876329223472,0.955640539942519,0.956150514278579,0.955458276738885,0.956123074105174,0.95406635494849,0.955000433874253,0.953954375666529,0.953544302339012,0.953017369736371,0.951770305388471,0.951289642745047,0.950597458718263,0.950286586682371,0.94824165521208,0.948427428666131,0.948030238470446,0.948323308550168,0.948245021983896,0.965431159357585,0.988328036838868,1.00746502422273,1.00791606959185,1.00787120389645,1.00798575182887,1.0255032927235,1.02442499906053,1.02215553381469,1.0191261453178,1.01583980965104,1.01744314724754,1.01673137786759,1.01937711841339,0.981267976211263,0.971396278843429,0.961138379859016,0.961744943223389,0.961995661631069,0.962087607596236,0.962387203951361,0.96205565708542,0.962814485563248,0.96287819967108,0.962946659365697,0.964079622901846,0.964977866076754,0.966281743365504,0.96670891633337,0.96689186974887,0.967764539436531,0.967480650263958,0.967610764115328,0.966754005155503,0.967226197206962,0.965819526618872,0.966395869537822,0.965805729878822,0.96742362008157,0.969628072638229,0.971812706476513,0.973434389144393,0.973841514823839,0.973870948282407,0.973899910375705,0.974734039726672,0.97456451647416,0.975705300685105,0.975876200220161,0.97668479514925,0.976446425549564,0.976614656863747,0.976162258081661,0.9761349625594,0.975976241062837,0.975849706846802,0.975469981176551,0.97556866653681,0.976192276397136,0.97577339117813,0.977147808776255,0.975111404364863,0.976144708700528,0.975002741804403,0.974599967794367,0.974587691130331,0.974651683479229,0.975594606258631,0.976131521071403,0.976706591968923,0.977534004824719,0.977670788097839,0.978469246640141,0.978396066078964,0.978484020293128,0.978914008628368,0.979644167328619,0.980516150177941,0.980917657910524,0.982203284611264,0.984073094162009,0.987171726838929,0.988149901584696,0.988594956590677,0.988789831577041,0.989069176774773,0.988469713302963,0.988114015389719,0.98763988282282,0.987454706436665,0.992198494491073,1.03251884266363,1.03117471619799,1.02716105551292,1.02351918305479,1.02121556852235,1.02955023997066,1.03575342144895,1.03708793505062,1.03842769933576,1.03862894655041,1.03776476631686,1.01498893268806,0.996980399651604,0.975620776099268,0.975849543560126,0.974348958463167,0.973334683763099,0.97489512194431,0.9760419037032,0.979815050601905,0.983250851815438,0.985812804419739,0.987330399846649,0.988113053850808,0.98962451200238,0.991511365833056,0.993480216556771,0.99439073517086,0.995611686859276,0.99518586132169,0.996617614104783,0.996124221665929,0.997590014565277,0.997464023878623,0.998655325969896,0.998626912932797
0.973247823951109,0.972416553273546,0.971670613849898,0.970567325195851,1.04009995808562,0.963675975335066,0.965020837649196,0.963546838706968,1.04096810980489,0.959449948643211,0.959577637543676,0.960244331625738,0.960051019112866,1.08389020392151,0.955314721330495,0.95560500043246,0.956190960895403,0.95606471692897,0.95524220580634,0.954864344824292,0.954868833920396,0.955034833258875,0.955124180737158,0.956579213914972,0.95609903077366,0.955638450241392,0.955451865828258,0.957218473419554,0.953544041387161,0.956955113619906,0.953573733446019,0.954406780294426,0.953756457868902,0.952295626025898,0.953352984549327,0.951645803473173,0.951812316364504,0.950553846269986,0.950811002741351,0.948840271676572,0.951423630039843,0.950144885854531,0.950391822297101,0.983632813687105,1.23299733611947,1.03504975052398,1.00840720458868,1.00877455938784,1.00878321338159,1.038362371575,0.957612879389965,0.957608057008334,0.957848668698273,0.95894672048648,0.958986785677282,1.01600604295643,1.02027355355901,1.04684912780029,1.02336239492919,0.961481435239181,0.962239563680135,0.962032445282289,0.962481280043192,0.9606566428723,0.961275672120649,0.961843235790418,0.962455480977682,0.962315914060901,1.01569740225896,0.966342366507487,0.966649861376345,0.967034959805505,0.967122434063765,1.00992785025117,1.01107916529338,0.965829656670254,0.966380385692709,0.965541409797146,0.966354337022328,0.966062064298924,0.980572369762103,0.981340776378376,1.05403703555758,1.02791785115973,0.972997396426253,0.972607879966196,0.972637274201685,0.973613815477617,0.97309564542593,0.974370210625301,0.973793393000843,0.975308709809517,0.975564307734216,0.976428430332091,0.975659792360008,0.976466586372473,0.97577249723365,0.97629223863249,0.975305151733452,0.97526362654949,0.975917067559764,0.976151289402273,0.97802897421053,0.974936597641215,0.977042913360578,0.974164313783196,0.975462259485695,0.974561897900064,0.974022109173677,0.974440110321076,0.975421874453026,0.976822755708551,0.977939394871351,0.977567856512359,0.978670502597968,0.977470969160114,0.978514381208122,0.977404189882578,0.978157495543986,0.979832374134697,1.04035200047839,0.99764842815145,1.01529407957829,1.03793426725777,0.98922868109237,0.989760064615587,0.989124017353902,0.990478076263137,0.989494850929327,0.990731268135825,0.987289000275121,0.987550272620363,0.987028274199972,1.00264782118099,1.03314823047942,1.0333374306959,1.03518355780353,1.03547497750698,1.01963643814681,1.15196998324351,1.06037549739984,1.03576899160518,1.0223047887001,1.02209414723832,1.03577794340721,1.03483093965379,1.00975595750623,0.96930387704508,1.03773603902302,1.02658365192783,1.03120238452319,1.02390360125262,1.02100994897784,0.982383787460512,0.98448318317215,0.985887911484959,0.986800931633506,0.987673675066607,0.988720528819029,0.991819634246399,0.993940279600378,0.995766330330785,0.995322242514221,0.998364461060608,0.996261215474254,0.999376979812685,0.998920861850205,0.999854088296151,0.999120116172629,1.00143024982285
0.972753070064668,0.971540434253547,0.970902928730068,0.970243876592702,1.00106630701051,0.992170422613075,0.983892306927441,0.972097770040252,0.964519580682328,0.958803727376126,0.958867269298562,0.958888746706715,0.958488474846266,0.956745706777633,0.956070466282128,0.955427669566699,0.9557218319432,0.955258496616189,0.955029870697783,0.954551838319523,0.954838531966843,0.955151069192003,0.955015923201927,0.955294398799945,0.955226607818377,0.955316755779556,0.955994533654937,0.955356286074024,0.956724810311185,0.954242457532458,0.955169293607714,0.953845234546555,0.953351784077704,0.952891969151687,0.952124741200124,0.952341479359601,0.951998155275835,0.952192186357066,0.951155394350818,0.952152646128684,0.952213239719745,0.952486431581254,0.952257794448033,0.964041849002462,0.971187288317235,0.979511746836712,0.991995291666894,1.0014754115656,1.0217040982998,1.02628841570043,1.00048458250333,0.957291825684611,0.958010660172718,0.959500804314454,0.960923736341297,0.962404331491275,0.963015942955237,0.96304358243115,0.963062729504479,0.962312228853238,0.962178062077229,0.961894484982903,0.961958218990375,0.961470861719227,0.961529052739294,0.961840522711639,0.962218610207693,0.962138626942916,1.00947377259187,1.00336801036662,0.995971671763753,0.987907914561277,0.98018315515627,0.973749135940961,0.969128931460495,0.965202080137618,0.965284932614972,0.965386067473641,0.965069778721654,0.969460294241991,0.980502265998974,0.98013264520711,0.978965529766879,0.977127233297052,0.972413052415956,0.970883897631839,0.9710948596115,0.972163836489182,0.972808840115251,0.97323097097867,0.974149825012321,0.974454756125439,0.975220604931364,0.974974465320634,0.97562421774697,0.97541666201893,0.975750940132821,0.975832987669173,0.976668152878118,0.975623670111093,0.976308407881609,0.976425047915157,0.976226036609497,0.976671354436284,0.975293605822395,0.975946597669346,0.975803237671003,0.975836327566303,0.97586362871336,0.976577042976323,0.977569848572295,0.978475024467526,0.978767706986774,0.979784256422852,0.978996866610354,0.979705255108355,0.97960888625328,0.979910545165994,0.979479059609829,0.98034923039533,0.980612270742855,0.981363299266467,0.982682600656685,0.98448919182003,0.986874676830348,0.988422075907972,0.988869064806503,0.988619640482048,0.989386161973987,0.987901491238219,0.987817872101731,0.986646872885585,0.986457549835526,0.992973816703043,1.0107004753776,1.03499181194031,1.03727125231754,1.03849357822843,1.03982053500678,1.03958588571948,1.03624423619402,1.03365234783943,1.0317062122135,1.03219592979378,1.03450736651364,1.03510039857507,1.03504477450087,1.03350738447879,1.02962821634654,1.02761291540002,1.02742136751254,1.02611518998441,1.02403154568443,1.00897519446571,0.985605458881798,0.98539925487939,0.986499046585513,0.987998758807635,0.989933098334785,0.993635585042843,0.996076904670233,0.997070648904595,0.998220116727549,0.998702881630723,0.999847845242655,1.0006218562593,1.00166439729472,1.00197897470324,1.0036112382171,1.00446667126124
0.971454844097718,0.970075457795183,0.969286284630215,0.969405304965862,1.01287348953034,1.06245716104283,0.997692002887084,1.01858272260217,0.957759593472534,0.957830839097504,0.957226994492536,0.957885554100709,0.956414653171647,0.956980943528034,0.954401138183882,0.955767985680512,0.95486469895375,0.95526597123033,0.953624356180061,0.954431935594184,0.953975205733698,0.955365019238813,0.954377838780673,0.953963568150608,0.953847581073143,0.955492716249335,0.955704283712743,0.958313922347087,0.9541840626953,0.957676218064641,0.952517527522836,0.954149031693118,0.953185774040895,0.951904797527718,0.952183364691348,0.951196868096779,0.952784869623527,0.951564900535098,0.953834494083822,0.952299305293285,0.956428044163896,0.954770241986338,0.95478451582224,0.953335851034794,0.953743641267169,0.951951352950743,0.953114629828091,0.951772045127097,1.02639685342027,1.03042772003683,1.03138043939783,0.956486505577565,0.957231164861433,1.01333665808393,0.961946146274711,0.962256481555304,0.962176137010744,0.962427614434771,0.962532625228496,0.96313110047248,0.961542687269692,0.961869431389066,0.961495432618841,0.962430021511639,0.960695114123939,0.962052646277918,0.961713979892538,0.961659672243301,1.02902710201655,1.02860998433802,1.02913165224861,1.00209081813109,1.02561214247781,0.963757616369075,0.964235063983633,0.963988209688825,0.964744952751288,0.964522272995325,0.964253517372604,0.979413368893717,1.00270088566218,0.9793162525906,0.980506690667015,0.981433570728538,1.00305668297338,1.00352150131473,0.989638258503948,0.972773243811619,0.971942029495214,0.973532839230266,0.973952678278976,0.974387692714726,0.974113519256624,0.975273006287989,0.974152026958819,0.976014501701321,0.975330030937125,0.97701172981013,0.977271634616266,0.976911750508509,0.97585836433183,0.976691431234224,0.976701492527538,0.975709606262007,0.97608418075738,0.975056590709104,0.976787245651152,0.976307016348238,0.977223558954506,0.978108721788574,0.98016880793453,0.979961501872067,0.981211601559425,0.980446464135985,0.981329322014402,0.980193986841553,0.981491904999641,0.981676317380759,0.981461509604637,0.980538437978273,0.982053104646125,0.982112798689278,0.983071470266518,0.98479970917622,0.98500161360489,1.03816762118944,0.987828852971775,0.989301130673111,0.986171543571365,0.989194766324566,0.985470297720636,0.986815477507429,0.98537564845726,0.985534509919964,0.98439104758258,1.04213422544635,1.04017583606455,1.040921708969,1.04333547058672,1.04141544486407,1.03268775976712,1.03237619318146,1.03137081175195,1.03205885715252,1.03519141147107,1.03647462936891,1.03606128562504,1.03589996984722,1.02251286387816,1.03826364638508,1.02511622769024,1.02805838062199,1.03288285498233,1.03190388166829,0.988291759788126,1.04681758282712,1.02696044717624,1.02848813337869,0.988616927860744,0.998165728790235,0.997966454876557,0.998405199128427,0.999141784056184,1.00129387954241,1.00415382868968,1.00391505578482,1.00477061984231,1.00745383847694,1.00752953607651,1.00809453186534
0.96922335863178,0.968035237419077,0.966910134073051,0.965731742537237,0.963651959078348,0.962075246206094,0.961276783015879,0.959870284346454,0.958580427032521,0.957628343118092,0.957500007007058,0.956989786385865,0.956897288544468,0.955333588641563,0.955689349028123,0.954435826782916,0.9548748323041,0.954116617199198,0.954313471566776,0.953892292413884,0.955450931931432,0.956364721553898,0.956259071041995,0.955899181504284,0.955852598395166,0.956069156087656,0.956821895073158,0.956106931380706,0.957732287359259,0.955013248273373,0.955745205175528,0.953900366451215,0.953069900171574,0.952576054406223,0.95218087913316,0.952604090155376,0.953410402380207,0.953812572372493,0.953795498744944,0.954886322189938,0.95695194253813,0.957403598797179,0.956897386753813,0.956446097738159,0.954364330685992,0.953770380947375,0.954026250292833,0.953473362131277,1.00907439059382,0.996291925298966,0.982033611828706,0.955783093873154,0.956700796092069,0.957934636095421,0.960277201258372,0.960921161413587,0.961245358013978,0.961535921145749,0.9619621406758,0.961468851161242,0.96150739402347,0.961100661314485,0.961615921860093,0.960883178006213,0.961881265285607,0.961165873952318,0.961754468184475,0.961515029333012,0.962263621307465,0.96271481692907,0.963508135242634,0.963762923087916,0.963598141066969,0.964047590156997,0.963460078081393,0.964266591138671,0.964098933464538,0.963966384467809,0.963875813124423,0.968472848213178,0.990920013174414,0.978706070126674,0.97968695423731,0.988461225173448,1.00429035736639,1.00430073851028,0.991806571262727,0.987363935287566,0.983622596107047,0.974407799751645,0.97430670077701,0.97399532517655,0.974369576682355,0.974072906414999,0.974680082930046,0.97480041098476,0.975250194111312,0.976105697094335,0.97821376814371,0.97754704008316,0.977773561380017,0.977217082024748,0.977080267026573,0.977091133026443,0.97720374903018,0.977735860038844,0.978311311791928,0.978279331645172,0.979159236191195,0.98023616325898,0.980862416995833,0.981537231107247,0.981882247393994,0.982791163456737,0.982055794855755,0.982299342292554,0.982094340726853,0.982921661890214,0.982206350283341,0.983259313058257,0.982851658985378,0.983467440689554,0.984547551084307,0.985311967255176,0.986065745410309,0.986245410638336,0.986993955449059,0.98605100927501,0.987583093297125,0.98590334069869,0.987167275945366,0.986140106505722,0.986268456765478,0.984859480301721,0.984915028601886,0.998040538067867,1.00886268257129,1.02010861465348,1.03425822635724,1.03367955033471,1.03220762400299,1.03156308876344,1.03122318814681,1.03286676948909,1.03500999775128,1.03588059094303,1.03671055426863,1.03716395676867,1.0382559178474,1.03930510741452,1.03017251595665,1.03145500890729,1.03259816633149,1.03116117607921,1.02874829575093,1.02766218735483,1.02715955634128,1.0253453807451,1.02153030547888,1.01917078406524,1.01760435122061,1.01413779630369,1.0103698710368,1.00678901525573,1.0067698670488,1.00647980188987,1.00647308476378,1.00844936737035,1.0097985459963,1.00973432113349
0.966532573277205,0.965693963677605,0.964200827991599,0.963807385333753,0.960660086969939,0.960649296972329,0.960196476903482,0.959266630696317,0.957566371953039,0.957634022923271,0.956457903856605,0.956854391375961,0.955032010197123,0.956790800146064,0.953159742842336,0.955232465953069,0.953916319693599,0.95435350719648,0.952683485268809,0.952560505174323,1.4054418395373,0.991819755675808,1.0043528861446,1.01216955295869,0.956261948542631,0.957131990314404,0.956715097527493,0.959067369855451,0.954965054712796,0.95953197765386,0.954232798239196,0.954727006222478,0.952052697067037,0.952096435100692,0.952191254551328,0.951701864589584,0.97841235538641,1.02052218741428,1.01961445389336,0.962743214690559,0.961689084388587,0.959619643045211,0.959956323991,0.958697276113807,0.954559420287006,0.952624422800524,0.953988683298824,0.952980468737774,1.0283846173543,0.954739877140932,0.954606559839543,0.955532296859691,0.956547297900606,0.958261369778477,0.960280810268711,0.961001767848411,0.960403670872168,0.961989392663082,0.960885875436969,0.961294320852716,0.960311942878947,0.961029670112618,0.95955036720815,0.962519090024841,0.959818065862876,0.962457093596975,0.96084921749265,0.961701329222987,0.960529147130351,0.962586752267794,0.962525298737818,0.963027926814839,0.964137777211486,0.961948918945047,0.96470595559471,0.962581757169343,0.963839702752484,0.963861124700973,0.963394931374753,0.964135610968653,1.03146512882781,0.979542674539045,0.979302676894094,1.03399461395573,1.02749356838656,1.02839130457388,1.02438435010031,1.02423285757972,1.02206939278241,0.976392766633847,0.974742857642523,0.974222437891225,0.974072662628591,0.974476231155529,0.974323925028823,0.975149462742814,0.989302225268557,1.01917974826852,0.979592021008193,0.980728136414651,0.977877570467657,0.978135743503823,0.977188192955781,0.977776932509204,0.978238852767138,0.979316247455229,0.979857099085338,1.04240568983782,0.981038879942456,0.982047121727433,0.981984500882551,0.9826464617869,0.983857899660751,0.983991272740013,0.98478158353371,0.982440561601423,0.983321529095097,0.982560080888922,0.985454930788115,0.983715776267322,0.985629963002948,0.984444556446593,0.986179366963204,0.987168441641146,0.986304731963906,0.9864650648541,0.985542492511232,0.985942811924318,0.983855310984112,0.988425428018112,0.98495235891695,0.987553333600874,0.985273638210412,0.984696981607351,0.98582464998593,0.985841172090129,0.988120771285788,0.987900278628129,1.03364970265233,1.00986977774308,1.02951146821734,1.03038383580114,1.02877138728567,0.981439642940953,1.02321565637499,1.03458742519138,1.03704020323229,1.03674442690457,1.03614893795646,1.24784923916379,0.990830297891843,1.00303829480901,0.991259779758442,1.03815622640702,1.03040511982556,1.02812948856068,1.03332855196876,1.04751137208298,1.08886572883712,1.05756582837472,1.07108158751935,1.07331406304767,1.07374929576828,1.00718210204622,1.05495492473429,1.05657273693394,1.01172992291493,1.01075979214158,1.01197975593032,1.01320644806202
0.967595888994459,0.965802843933001,0.964603791862191,0.96165834609478,0.961082818567015,0.960170782100538,0.959918070713833,0.95886259614198,0.958206753835644,0.957073923235713,0.956859360234372,0.956039202262847,0.956095825954045,0.954486976960918,0.955172532509238,0.953796271478447,0.954379093764297,0.953509861839501,0.953503466606725,0.952664745713128,0.982233732645025,0.985601633028765,0.991264452690968,0.981237089597546,0.957407565663017,0.957269232346425,0.95782851367821,0.957028393280368,0.958811198053028,0.956371729718041,0.95685936208974,0.954835219066236,0.95393580978931,0.953308101206781,0.95326973125645,0.975035892773341,0.992353888912424,1.01949033155151,1.01972122755318,0.962388856084947,0.961119229823604,0.960546367496364,0.959740066083667,0.958977408159549,0.955870817682571,0.954180000174909,0.954140550220259,0.953534664424846,0.953855462437178,0.954650480012859,0.955074978036249,0.955506319982211,0.956044688321003,0.957588563572963,0.958718039310855,0.95903339936025,0.959275485520158,0.959906302974501,0.960259186477518,0.96010173565137,0.960507365100581,0.960220499388934,0.960855643259492,0.959868177091384,0.961352123683106,0.960226224085877,0.96097886423432,0.9603875556214,0.961400461021871,0.961161288783443,0.962304127180972,0.962519683636476,0.96233334951387,0.963600941053032,0.962461680519655,0.963694505804403,0.963330820390536,0.96334866709725,0.964035929963242,0.964148962600463,0.966739444571789,0.969402398177174,0.973542610690083,0.989475357389084,1.00281632463468,1.02412650445626,1.02426267606133,1.02410913810081,1.01576765399177,0.994688992841845,0.973891371322414,0.973694230340667,0.973729853044542,0.973542199433228,0.982587249856361,0.990609476166354,0.999567065133244,1.0098292131615,0.979683619850259,0.979086919971198,0.978927005248616,0.978435628525806,0.978535665365048,0.978547384669962,0.979516205502518,0.980221186930697,0.981243215521245,0.98205429125459,0.982628293448852,0.982868092034665,0.983364619839184,0.983585743876721,0.984246883688929,0.984438541905961,0.984790459558949,0.984171566371939,0.983753228091104,0.984267671561323,0.98359816358703,0.984749446889552,0.983801386428122,0.983978158669038,0.984178471953423,0.98465401883665,0.985302582213155,0.98545816898398,0.986000517322792,0.985564272000281,0.987376102515228,0.98724206420444,0.988936542488769,0.989035755673104,0.990877214415369,0.99266579183197,0.993290864332701,0.992816455534742,0.990269177021622,1.0163659644836,1.03489866355679,1.03514644838581,1.03336941420664,1.02044843165831,1.00966384781942,0.997646954837574,1.01018459609142,1.03729819376188,1.03903499168119,1.03787079521841,1.03698923684513,1.05066271735553,1.05001195692133,1.04903806894336,1.04584530594025,1.04188217376879,1.04112284645745,1.03987070316751,1.03936067953932,1.04373550677156,1.06136607089253,1.05996838070684,1.07215965750844,1.07382575119154,1.07436751181608,1.02239794327954,1.03533971653974,1.02598905139854,1.0124433156284,1.01170430044777,1.0131375793264,1.01352400837687
1.03500306238625,0.984290943159607,1.0080427865303,0.961390179316418,0.9599818838048,0.960537543105803,0.959389794369997,0.959230891398056,0.957527578204819,0.957448604625429,0.956066564162919,0.956168786104632,0.954447915892064,0.956095285248907,0.952796708194301,0.954984451578985,0.953888590664588,0.954225862745315,0.952649833672595,0.95284566223203,0.977234926348311,0.98227745446067,1.02852462269685,0.958985478953876,0.957596507017918,0.958166048260703,0.95754733816513,0.959461753733373,0.956739416317114,0.960285256565652,0.954901174096078,0.955914783286052,0.954073289912496,0.954020865016261,0.953900134213865,1.01831955940885,1.01886372691453,1.02198915167784,1.02109846971441,0.961708416012332,0.960198372750245,0.95997773392712,0.959575689850389,1.03953364029366,1.03629752498607,0.951968229516018,0.953301967819562,0.951925563691408,0.952384408932008,0.954567631056023,0.955100530426042,0.955356416134957,0.954972966991278,0.957990932812119,1.02499603053577,0.98081929341245,0.987801546815087,1.01043351898812,0.959490898337051,0.960106483091417,0.95968805314506,0.960299104940172,0.958997984932697,0.961517925565327,0.958593370882616,0.961325859988648,0.9599393582687,0.961191766097926,0.959430222178695,0.962148908847567,0.961345561086316,0.961940382909465,0.963616648144317,0.961102619286057,0.964667712770064,0.96198854047009,0.963237644711168,0.963820928419582,0.962386302199557,0.964357410256565,0.963302170309577,0.963503485342574,0.964203233896315,0.982397028103133,0.983511008711857,1.02279934337617,1.02326224244729,1.02226979543137,1.0039334690579,1.00866581470023,0.973077267007948,0.973463903387495,0.973578225817354,0.973784746995655,1.0058157303085,1.01999728239146,1.01714432015806,1.01660328311115,0.97874122365949,0.979256526914333,0.977465577823019,0.978902201326376,0.978673583246535,1.02849661470035,0.979475946980566,0.98132741532067,0.981317095521399,0.982550749101283,0.982851486054817,0.984630520437588,0.983941694998596,0.984497140478702,0.984504849830368,0.985269722255445,0.985562554043149,0.985372545844577,0.984493266107774,0.983468415213323,0.985295634678475,0.98269959540195,0.984417336694066,0.982647173261878,0.981672582657432,0.982714144934399,0.983156754668378,0.984812753213275,0.985508873468068,0.986463911268084,0.987618514995023,0.990053312838059,0.990215505478936,0.991968763663027,0.992680851251836,0.99452906424077,0.993829705705791,0.995315327196441,0.992369017488055,1.03618908590097,1.03550893307498,1.03605545153787,1.03706705472087,1.01286425242407,0.98456205435974,0.983313506098012,0.983368764480587,1.05423735001873,1.04487727922766,0.999203737480673,0.999091566070258,1.0695797693869,1.04926297670118,1.04965335450143,1.04802798909022,1.00109852813179,1.04444273872858,1.05277287920328,1.04035264167655,1.03453471357848,1.06096901993432,1.02139270854183,1.0689980155694,1.07317682196748,1.33570043938385,1.00993009668232,1.04842296377767,1.0155571868763,1.01544099202318,1.0643521804597,1.01515106695367,1.01543392644297
0.965837861005845,0.964042503328485,0.962531425624495,0.960834182796866,0.960813698245053,0.959614559578651,0.95949372329181,0.958541069145666,0.95798682210311,0.956914409351406,0.956490475149859,0.955793468700543,0.955675215154932,0.954463367754983,0.955077953549865,0.954201143146223,0.954857508498484,0.95399766828447,0.95415666785406,0.953950966759925,0.955473664768837,0.956709858571201,0.957958592237821,0.958323798735812,0.958239373706999,0.957818969141392,0.958352575053825,0.957828015938877,0.959540963410021,0.957670616216727,0.957891362797795,0.956158509319471,0.955403824548243,0.954352404861618,0.95424103250338,1.01690105385075,1.01740146167374,1.01880513047107,0.989780974465099,0.960577052155274,0.959514793433463,0.959061927304458,0.958011589401683,0.956862920289716,0.955606239673905,0.954050053787388,0.953812156345508,0.95320759475687,0.953491775868868,0.954716901940633,0.955230301331581,0.955564409178527,0.955142087589516,0.979238831724635,0.998859857850168,0.995741958160477,0.992659686258772,0.975159532795149,0.958981298880901,0.9590951876205,0.959379710185502,0.959434389103447,0.959677861369506,0.959108841822685,0.960018163974391,0.959554995173438,0.96022942523253,0.959918312696532,0.960776625221142,0.960675587904175,0.961692565697876,0.961742663602834,0.961676323344402,0.962945040885619,0.961921827060503,0.963087172490806,0.962843351269323,0.962693436810986,0.963572061862921,0.962742707124412,0.963506112623201,0.96293469556068,0.963212920198522,0.972512094465248,0.977210158571892,0.990954489941397,1.00132677022533,1.01895055184019,1.01567947692559,1.01178114524452,1.01060804219384,1.00821340677843,1.00613735259525,1.00589444255135,1.00607181771934,1.01168844342492,1.01678500600255,1.0178369419256,0.97819396133707,0.978003400130661,0.978876840743801,0.979016991072269,0.979819722561374,0.979554451920223,0.980349772131803,0.980117105104362,0.981359510658394,0.98146638839189,0.983082763791405,0.983199512348231,0.984268274102149,0.984070700895508,0.984757245520307,0.983950887026878,0.985115392122237,0.9843240020848,0.984347024339711,0.984542468755808,0.983661709339506,0.983693167522068,0.982169856481525,0.982109970613069,0.981806070821675,0.981817459090772,0.982003551819378,0.982950068933458,0.984219748987162,0.986232003612353,0.98879130258443,0.991040538928465,0.992871663458334,0.99354259731772,0.995018415626614,0.995395917907279,0.995569657626674,0.9960934348821,0.994905426906549,1.01145015742863,1.02016289724451,1.02707043525659,1.01785291015973,1.00629617299351,0.999248990507143,0.999233768016398,1.02175536635825,1.0500200328108,1.04805728473736,1.02641276088449,1.01264720724024,1.0205042309995,1.02998618711246,1.05084916842154,1.0483678910627,1.04600245160591,1.04430051930951,1.04242877021518,1.0439637140672,1.04673561962322,1.04705989082565,1.04803367041804,1.04967742297131,1.05200592604925,1.05371894104755,1.019115770749,1.01944999910212,1.01932433770457,1.01954857714198,1.02149036061568,1.02070921867446,1.02087873430066
0.964683079047972,0.964084458695974,0.96124565922426,0.962090147694958,0.959107186208797,0.960800686811587,0.959283895755396,0.959014302652529,0.95751761611785,0.957372258958564,0.956114749005036,0.95643690084229,0.95501468114667,0.9557175667623,0.953712592712937,0.955292943948797,0.955243294800369,0.954724620590966,0.953549007204026,0.954960929661244,0.955031835778675,0.957138592587778,0.958337125812959,0.959280216462053,0.957468714874649,0.958348830526151,0.958059364169707,0.959194661611639,0.958521607300666,0.960272691123452,0.957507289399246,0.957079166646312,0.955186306033104,0.954521181808161,0.953562095098406,1.05131123094091,1.03597517054265,1.04315232645929,0.960625643078529,0.959599981794449,0.957923075120349,0.957484556004495,0.955983040709114,0.955438505936207,0.955021216298381,0.95336588549352,0.953582109721835,0.952580931707727,0.952925342966172,1.02533207091162,0.954459550648056,0.955149502539988,0.954264234144077,1.02983038771965,1.00230580026329,1.00358813760259,0.99598956031747,0.957139383179862,0.957746047885377,0.958142096286297,0.958047910028124,0.958848015599999,0.958179002016835,0.95882913954449,0.958740378663202,0.959497612792717,0.959728770290252,0.95995673919013,0.959919142779079,0.961539495280837,0.961509187325812,0.961533327361828,0.962845588041179,0.960919869892954,0.963365350403784,0.961666338031694,0.962697846117632,0.9634507734004,0.961625799184932,0.964506493530603,0.962302372200177,0.963650789506764,0.963408801953818,0.965173784489049,0.965712774969287,0.966639311013805,0.990853830722496,1.03452743927688,1.03518863762311,1.04259817085063,1.04208320261158,1.00676640625145,1.0041145841373,1.01460597014392,1.00154511669765,0.976407567392759,1.01829769090663,1.03476039280633,0.976130341198262,0.978162534978528,0.977611166165049,0.979941171171243,0.978500675007372,0.98157393513259,0.977536645093803,0.980748412766661,0.980216662440495,0.981478228988947,0.981118203110709,0.984291266218778,0.983083561447085,0.984607729049909,0.983033325779227,0.985226306280346,0.982532799869324,0.984935169624332,0.984241264653039,0.984004185788887,0.985455371974513,0.981787644734546,0.981374654287086,0.980915620300199,1.03292493051055,1.02236507001323,1.21943365596649,1.01834326138015,1.01873661284259,1.01488490497286,1.231036996937,1.01239888710771,0.99536944738909,0.995631918318369,0.996536391559306,0.998428984671939,1.03513378686006,1.00032342688557,0.999070472592012,1.00158747406443,1.00205651724563,1.04556050525411,0.997997147635631,0.998648287642687,0.998348097043428,0.998272732804072,1.06566865506967,1.06620789513273,1.05012668663965,1.04372443489473,1.00308498191825,1.00243384073554,1.0033459227452,1.05236043034363,1.0614574243334,1.05129818598255,1.03270411634957,1.03907025436695,1.04635053218909,1.05252123309746,1.04644336215739,1.04843022101637,1.0504342321468,1.05312273873515,1.05686576583585,1.01970179920189,1.02081502275764,1.02188375555911,1.02274312649375,1.02502009070273,1.06990645469555,1.02300227759043
0.96555198931299,0.964648709691631,0.964047614123378,0.961948592594893,0.962306901693562,0.959832129902909,0.960379385550318,0.959493177928314,0.959456742543424,0.958197594860988,0.957618754536023,0.95721759524312,0.956907456579678,0.956616502209787,0.958140369702902,0.957604979793395,0.957638132690652,0.955936343129356,0.955773624741427,0.955741602220183,0.956737823092892,0.957392708144917,0.958426197249006,0.958527962083424,0.958978814134402,0.958743358277975,0.958944593243579,0.958619004720428,0.959668623755179,0.958804829881276,0.958319431279049,0.956674917184865,0.956012825293671,0.954063228937268,0.954377239886908,0.955371850078764,0.957278877132587,0.958050979165604,0.959330312417655,0.959048750154292,0.957488487462667,0.956820151329056,0.955816955168992,0.95544136522769,0.954156291721752,0.953561441788245,0.953311977144045,0.953027416622897,0.952949531689592,0.953557950541661,0.954247644777605,0.955108659124541,0.954755898835945,1.02080892458828,1.01445069295718,1.00894244022672,1.0049991122797,1.00325942858959,1.00130901871152,0.998677558616426,0.995632067478902,0.992279863417043,0.988297554000157,0.983698357284222,0.978801123499166,0.974021575751123,0.969721005719628,0.9662805272251,0.963594134250806,0.961521932616812,0.961427716883962,0.96136109507076,0.961448750019638,0.962161929655692,0.96183958685317,0.962583044775826,0.962728016448459,0.962621497397087,0.963283241704435,0.962884832154096,0.963750133790967,0.963749319097569,0.964463999876052,0.964492256839484,0.966049348604448,0.966046508257097,0.980688950729184,0.988779222629836,0.995616642112801,1.00222658651158,1.01139470617241,1.00733819309123,1.00710772618846,1.01060527649045,1.01398869340794,1.01629541388735,1.01804784264571,1.018485351751,0.978912455822973,0.978787375115632,0.980394985887276,0.980149685297282,0.981278457573779,0.979304670953145,0.980690518604588,0.979294703691293,0.980966458186678,0.98053613244098,0.982266748996052,0.982825729609311,0.984343274447959,0.984656335021121,0.986076421763526,0.984986032520617,0.985767805483385,0.984433785583224,0.984494293797824,0.984142192247533,0.983163025313508,0.982287686177515,0.980492312185705,0.980029388851592,1.0107426786607,1.024200012487,1.02409450636948,1.02283313304094,1.0211622993597,1.01576683773581,1.02092510742109,1.01480123080614,0.996103983148216,0.99644202595871,0.99734464155494,0.998424857945652,0.999771365778366,1.00091712819212,1.00081724800394,1.00206039260273,1.00238633942704,1.00266933637279,1.00103967704215,1.00048106522127,0.999757444920032,0.999416060988734,1.06583364842833,1.06593452061558,1.05274235737302,1.05331072733062,1.05358470338719,1.05273625335236,1.05051394405959,1.05069698907807,1.0498145948326,1.05043680562753,1.04981424497973,1.04787839148605,1.04847962370553,1.04982583703805,1.04876861510502,1.04958489185452,1.04870677481432,1.0450237300131,1.04005995359437,1.02079465953357,1.02174308221715,1.02296742256693,1.02482607722294,1.02750108533471,1.02861737584633,1.02598310961175
