1.32507595416399,1.49798000000048,1.20512962624606,1.17554114378693,1.17224348495443,1.25605137484618,1.26222662129504,1.41542107596626,1.3491657174736,1.20843000000251,1.34560914425528,1.34542015621466,1.33957166967181,1.32239367100105,1.1692978532126,1.10685999647076,1.11198137507122,1.10608999822849,1.28103921497627,1.29571000197801,1.28852869977496,1.07339777412017,1.09078616722747,1.09468405986764,1.11751067662603,1.18048292184401,1.2096408802598,1.33868000356503,1.31563479082441,1.28051834650834,1.28483829278155,1.28054621408583,1.18136974534204,1.12970999717447,1.19952588678153,1.23633030637409,1.23822169250385,1.23702465681806,1.24042661299405,1.11008012215528,1.10660255823705,1.10500492944921,1.13679005848497,1.1767839307032,1.17071257409455,1.14752999576157,1.15130322349992,1.13687999800355,1.14709914990775,1.13225999752502,1.16270145542396,1.16597984656081,1.16687203814904,1.16876962263949,1.18712972771962,1.32298000000048,1.16842539722395,1.17021598111404,1.1696581604455,1.20488361115141,1.25048979258619,1.26555732993292,1.26654508251636,1.66936000000048,1.29067827203044,1.22824982883554,1.22672355795,1.15117999995452,1.2243200589403,1.26953600758084,1.2948807219779,1.29309676463949,1.41026469206467,1.40658019839,1.28582322520678,1.29103707189355,1.22617073021701,1.21247999617872,1.28626565577366,1.33917000399075,1.31769344633604,1.28054853485911,1.27190275847465,1.20610813622278,1.20997863181905,1.19677999126003,1.23212585695469,1.2613771799257,1.27502003500539,1.27253115328781,1.30278676357173,1.43033000005591,1.29792502143567,1.1741099991419,1.23902834127039,1.27497763171723,1.29752758037375,1.35889237163825,1.31213057275944,1.25656896799679,1.26848651171713,1.22070174282129,1.21904000910798,1.21644915263331,1.25115987340777,1.27665050337021,1.35081537029719,1.40651000212639,1.35098899143298,1.30731603389512,1.30405190319809,1.29536480706838,1.35207981941816,1.37245244844747,1.4381804151522,1.73924494313861,1.72962259877578,1.79614000000048,1.74647113555726,1.75076336754265,1.58611665434506,1.48086999674672,1.53037307969716,1.52835938598248,1.52768343186768,1.52610496795056,1.52938456464438,1.53296070921564,1.57155304989275,1.57007618669293,1.50409129873784,1.40042437820707,1.40967920771163,1.41157527607951,1.46369711569767,1.46117982321869,1.54565621308093,1.54327099069597,1.53661780664398,1.43458054320122,1.4433742559907,1.46863638407314,1.4064846937763,1.32791999951525,1.45351542307371,1.47652932602882,1.53307074245075,1.54779813388941,1.55309613437084,1.5695895498861,1.50095788058514,1.40041817966954,1.4062069781591,1.40931348718669,1.41688402078345,1.58792794651075,1.58506857883313,1.58222741566655,1.58360635917055,1.58471969021427,1.62601578900939,1.63060999816291,1.64949189213269,1.70567000090181,1.58870071258152,1.55135999645957,1.63864960180317,1.76967000000048,1.5034757687736,1.44566043908311,1.45155679101561,1.26909495652425,1.27092531910443
1.16907046072397,1.16790558824423,1.16827456726673,1.17126065428473,1.17127115756727,1.24844602595035,1.26341138544434,1.39814246600543,1.38493503153012,1.37261239165984,1.36118061711388,1.35243103911262,1.3459735144032,1.34061121709795,1.1829513796205,1.15976496359209,1.16420551839073,1.16625737116256,1.27955099999045,1.28183906269002,1.28476423691183,1.09128962552406,1.09188079566217,1.09357116668751,1.12965860741871,1.16529929194796,1.20791465501086,1.31712486136365,1.31729060187888,1.30039104509806,1.29635901691599,1.22511027812331,1.1923034700559,1.1995791196467,1.20577611837723,1.23880696199396,1.2406747735272,1.24023181682451,1.24242658693232,1.10806709806149,1.10623741559936,1.10567679023972,1.13952543216165,1.16196736916836,1.16451109641479,1.15947457537447,1.15608595814477,1.15486057036059,1.15536073455894,1.15766975161958,1.16094513452422,1.16412193612546,1.16556665256587,1.17046792854599,1.18475473016496,1.1872238734071,1.16796497443805,1.16842549436544,1.1698091654632,1.20367509378956,1.24968043937868,1.24817553641479,1.24618991418884,1.24308899750711,1.2408503696855,1.23474633200639,1.23101279783772,1.22974006720821,1.22728767262495,1.26389089654611,1.29667284400805,1.32021424169353,1.41249732180194,1.41083945083721,1.27925891470381,1.26260355863259,1.23002191064989,1.22917981510902,1.28456293282798,1.3162319739006,1.31796599594853,1.28768539812909,1.27914458277847,1.23267799153082,1.22553434656224,1.22568742443072,1.22870270759611,1.25702299329264,1.28556456104037,1.29471231372309,1.31061753504455,1.31737328910861,1.30646964262318,1.22400249924533,1.23545466776056,1.26904462764477,1.28415503248078,1.28779085584389,1.28936573905101,1.28095593074738,1.27792755638898,1.22043312267166,1.2197908940096,1.21958613721391,1.24244288715957,1.3169385525136,1.35170770234559,1.37200472086257,1.3555705858743,1.30319795871652,1.3008674942334,1.29816490772822,1.34555879196873,1.38492404673234,1.42231990654716,1.59047827761292,1.62292208777704,1.76468151377871,1.74380503804589,1.73484400534564,1.57386862647954,1.50824364269578,1.53243363833202,1.53238697183508,1.53235416085564,1.53608981577783,1.54287460546686,1.55186504424675,1.57096239071564,1.57074674635355,1.5072439512215,1.40416289192028,1.40801326855679,1.40999743535032,1.46506172522617,1.49104562170635,1.54602427948533,1.54520112916978,1.53300780433227,1.47682612689813,1.44493781336603,1.42932548457734,1.39763114839483,1.38080309092806,1.44086870192876,1.48021532761744,1.53168413355632,1.54475174444466,1.54040818191763,1.50451378343644,1.49233021863874,1.44906469182769,1.4037952834683,1.40625487950205,1.41462819906995,1.47209356614712,1.50908187524347,1.57167411897895,1.57952364867449,1.58877399330584,1.58810862684927,1.5869617879355,1.58634776600661,1.58596415789041,1.58614152153358,1.58469231034209,1.64863459875104,1.65077973923679,1.50498745771746,1.45657673884565,1.45336626640837,1.27362477735316,1.2733554988471
1.16209056912407,1.11215999997084,1.16731731824185,1.15494999598007,1.17185767572233,1.2399340586252,1.26456213854286,1.46666915115069,1.47585508713444,1.54372000121049,1.50805839789049,1.50145556601732,1.35431646482764,1.34867883735575,1.19955425323595,1.1556997999771,1.16631322984777,1.16772234240414,1.27690969379374,1.27771528508675,1.28233639444395,1.09018690178428,1.0913031344213,1.05463999862258,1.14346134524571,1.15204155365118,1.20609543346407,1.31702825968468,1.31932636687031,1.32292182595611,1.30484468332648,1.11272999926092,1.18418506104346,1.22391890526646,1.21401150213212,1.26693000447271,1.24450865683845,1.24711378507928,1.24573543738118,1.10219702746878,1.10480617433376,1.1057649189199,1.14268119220644,1.14594448647124,1.17716205400682,1.25119134162081,1.26102230941886,1.38806000000048,1.26977244784978,1.28312144167481,1.15894457384258,1.1397103947061,1.15869222991205,1.17301462139222,1.18004159767764,1.19808434632205,1.16850134132959,1.15490670949075,1.17048534752253,1.20297468321448,1.24995887646871,1.24883276634476,1.24742903081642,1.22371983241977,1.23974802541299,1.24008024912703,1.23208368143928,1.23113939200693,1.22850398101953,1.25729977832054,1.29837657369279,1.33966999952739,1.41339848603214,1.69216000000048,1.273386477404,1.24630156339474,1.23432138770003,1.22088754869841,1.2823255536597,1.31307381458472,1.31927562150591,1.65727000000048,1.28796176981189,1.23805995247893,1.22540659781825,1.22591914467454,1.22638374909589,1.25368254810602,1.29259530985109,1.32125058896259,1.32298230684647,1.32412698588006,1.31343319577727,1.1964199964069,1.23278635501755,1.26296801461348,1.28268883464298,1.28799816388968,1.29248614241002,1.48886000000048,1.2866868157476,1.13454999887753,1.21378736023886,1.22233661669063,1.23485813360227,1.37151921247303,1.36283674140905,1.43371000170611,1.36657582399509,1.30141669900513,1.29808215333085,1.27390999666207,1.33893314893641,1.3981516877093,1.40767899425835,1.56834999819937,1.59037279793798,1.77275000000048,1.73485420399975,1.69944858206474,1.56044275059831,1.48821999254894,1.53400571396132,1.53482269741739,1.55984293589563,1.5715500037883,1.58753336037299,1.66457986443197,1.6558509233884,1.64402124164413,1.50969853276282,1.38248689109362,1.39217797564077,1.36060999568701,1.46635264538294,1.5512351471127,1.55105324054166,1.55136488807552,1.52878234376902,1.51275144471028,1.44591701842505,1.40105318630585,1.38909686194393,1.34756841636573,1.42704185408972,1.48420736338173,1.52956245509903,1.58300000161952,1.53511635951646,1.47849670249591,1.47974098933192,1.48109566912075,1.39980164796616,1.31886999973601,1.40463891961774,1.41853265775792,1.47573286513301,1.54677999664648,1.56611294852652,1.6655200002925,1.58857788210869,1.52937999796687,1.58747780402649,1.58668834733059,1.58620338829765,1.58240119907106,1.65611237934071,1.76281000000048,1.51346315622219,1.46824415016129,1.45350622617958,1.27419693444903,1.27473529061521
1.16370553145633,1.16526069253445,1.16819888664439,1.17355514669542,1.17414814100794,1.21598236511264,1.26611607374445,1.45348594232035,1.48340685788908,1.51908094028229,1.51319226598416,1.49174723300806,1.36753757526803,1.30946524296317,1.21455165701381,1.1656414222979,1.17097456624321,1.17483588597594,1.27302498833729,1.28117945313296,1.28285685826803,1.18567062709714,1.1470730022969,1.13435546206745,1.14420090212079,1.16160674720186,1.20431269434532,1.31867898184968,1.31998358289228,1.32160743137169,1.3106325859079,1.16169361174366,1.17393880983627,1.20194419494546,1.20901401702594,1.22597370761614,1.23024342092632,1.24825340718594,1.24768729337994,1.13943869068027,1.13983810639546,1.14024978991136,1.15213085291047,1.17586681198219,1.1838096116868,1.2191210119244,1.26828740440186,1.28345857100354,1.26135982950445,1.20559664198381,1.15677234104883,1.15127011338855,1.15538324089565,1.15919141757546,1.1627576600819,1.16605235951431,1.17051273152921,1.17323570734439,1.17244833427434,1.20518545225742,1.25087721095598,1.24982793446419,1.24698960124197,1.24354079796736,1.23992692862455,1.23800479486288,1.23055579103071,1.22970124840853,1.22757642968499,1.24780872634775,1.29970041847432,1.35934875314999,1.41102562695347,1.41673379883196,1.26863735387291,1.24147759446294,1.23685876541546,1.25899818571403,1.27959163182398,1.32080432128801,1.32477355024652,1.38812712162656,1.29820105292816,1.24472304754777,1.22424084858792,1.22496627642816,1.22502666152111,1.2838393708184,1.30048305052842,1.32225934806332,1.32325066216723,1.32399877966555,1.31656416588759,1.21555561653693,1.230404560768,1.2482032808937,1.27866777654262,1.28464719651731,1.29661215322448,1.36473835534392,1.29396406678643,1.17871973088259,1.20509777041154,1.21099186976365,1.22887285124413,1.34964872022691,1.35400879020871,1.40094424647941,1.37819671829416,1.35809996732936,1.29192666770026,1.29234087531457,1.32917690137724,1.38965917641283,1.3952952458351,1.45651600400544,1.51511645140298,1.58793844275774,1.59034077701622,1.5953920639856,1.54714545693392,1.5249773310987,1.53954854725389,1.55844610971322,1.57580382418429,1.59269254927091,1.60755311169827,1.66138334609128,1.6594639726466,1.58293411708092,1.51141049578809,1.40365019952004,1.40024577707977,1.37606295381304,1.46749678240326,1.51058064981606,1.52281261322265,1.53232605555224,1.52495786902663,1.50212695230399,1.4467704197337,1.38452167899236,1.37387605849641,1.35853089113012,1.41265727884598,1.47499490675704,1.52691611847929,1.53230632987597,1.52737617834664,1.49714354512394,1.4747456123272,1.46563998504157,1.39698500951836,1.38245934329977,1.39449361302598,1.40435523327092,1.4433681746588,1.47895547766307,1.52813350990165,1.62167307312307,1.58965767328731,1.5905398542357,1.58942415077052,1.61227616680585,1.62729555092339,1.64434664834218,1.6639644667264,1.67590900035272,1.52130498602594,1.45321524972496,1.45135427717101,1.34393255239777,1.28411849447463
1.29154282007214,1.28957501062886,1.22043446414137,1.17950140253409,1.17838640287285,1.18222990467259,1.26848655442468,1.43720646419732,1.48913374542926,1.53246082832833,1.51768553009711,1.47812758419561,1.38069732735525,1.27683652572043,1.22936110336714,1.13147999808365,1.17753069787914,1.18482390871746,1.26800890460608,1.31743617776326,1.31913575460406,1.32798748165426,1.15070895240526,1.09651999734277,1.1442602315319,1.16974357067463,1.20268510812853,1.37620663906256,1.37932362543578,1.39564893929663,1.31422162237117,1.14092934581131,1.14983796660714,1.10407999894476,1.20685147118291,1.21982737809418,1.22492020077095,1.28451000211538,1.24711977454481,1.13910089492951,1.13986335391792,1.14067158072742,1.15471330447878,1.20195819283323,1.19741692371564,1.192564471528,1.27433068325519,1.34508000121246,1.25371162914978,1.08910999869331,1.1203385857298,1.11744503418765,1.14366885299146,1.15455713776759,1.13822011445052,1.12888255578373,1.16965602579304,1.17720090483369,1.17484534194372,1.20772525732607,1.25155141555501,1.25326068154829,1.25268104710332,1.27457771927122,1.28028392134979,1.32304468029149,1.22850587731371,1.20549999611211,1.22589052695909,1.22549972693336,1.30052972192795,1.39979100400258,1.40611534793996,1.69613000000048,1.26525110014752,1.19592999822971,1.23556613716263,1.27405515891187,1.27646669202132,1.33757652661411,1.34051644681181,1.58765000000048,1.30968401488634,1.26968123622919,1.21351524150941,1.20438327929824,1.21695752994557,1.32611935051136,1.31034607991815,1.37752999789202,1.39454162356695,1.53016000000048,1.32920274830934,1.18655999810189,1.22717099632998,1.22269484258769,1.27204302071532,1.28163161821118,1.30098429048337,1.48536000000048,1.30127017404582,1.13000999818213,1.19528473370813,1.20516167380327,1.22281799340717,1.34559015485585,1.35007348034765,1.41403083420155,1.41919279488056,1.61387000000048,1.28542898040406,1.28044354377105,1.31929932279908,1.38143409154032,1.38775856058982,1.40990000256058,1.48555167521344,1.58576319528732,1.58799327441541,1.60079535531111,1.53478125331493,1.51104406734534,1.54317607158499,1.59114719305821,1.60208939003995,1.61483584085322,1.62248396561181,1.77145000000048,1.66887874297823,1.54869999828506,1.51250488165344,1.41028595645384,1.40372353810839,1.34722999885185,1.46836076052826,1.49009611535055,1.51279598547099,1.57065000248071,1.52117915350702,1.48364806844876,1.44769222148951,1.35956654725051,1.35801060874388,1.35053811685642,1.39869783554694,1.46347757150273,1.52143308252023,1.55586000344953,1.51853106246866,1.51112896081712,1.46905270361911,1.44714999847779,1.3954961894684,1.36222128108596,1.36467207464825,1.36781115502471,1.38565802811731,1.40083507401276,1.52051387413009,1.63391136722843,1.59101964377939,1.59359121664713,1.59101403773716,1.69618000063206,1.64113991267152,1.70977000047077,1.67876444784387,1.76567000000048,1.52813365840344,1.44139110708359,1.44710932562962,1.36771000069126,1.28569894573655
1.29311477626166,1.29155655052245,1.23357807828691,1.19852735200471,1.19957554418544,1.2268663589729,1.27181715302265,1.40735903564532,1.49269944276925,1.52411833722904,1.52243555816155,1.49907845568137,1.39250610648631,1.2886908939055,1.24292326874351,1.17950089528528,1.18286884837125,1.18945216588255,1.26207498324799,1.31929970686393,1.32105619818214,1.32479947366136,1.15114467564435,1.14562573065498,1.14445377940166,1.17417903416583,1.20130716028518,1.37898607390307,1.3817154399025,1.38756504672376,1.31674091268533,1.18881275094691,1.15235121409234,1.1548522630878,1.20512592478808,1.21511118058999,1.21995772119035,1.2473286773679,1.2458821012168,1.1909420505947,1.15048124417941,1.14581615535596,1.15742660678408,1.19042351436992,1.22084779298615,1.2434792820739,1.28561705757018,1.29858448603792,1.2456709939302,1.13775615562801,1.1235457921797,1.12505321766952,1.12657795343618,1.12687999035624,1.12695567758189,1.1276324774781,1.16850190674496,1.17235678256271,1.17553220589711,1.22578255244396,1.25108789491377,1.25171992656662,1.25287296208264,1.28034944296987,1.28659064681219,1.30233002253436,1.22723344383058,1.22732417278238,1.22594583788174,1.27300957241893,1.30095896869456,1.34650808693883,1.36023459676555,1.38112003787736,1.26319022617533,1.21716586852107,1.23491484504203,1.25126321970219,1.27322438745303,1.34176765210117,1.34337897520077,1.3534256467156,1.32198148386937,1.24110103115384,1.20991983940553,1.20909039546085,1.21383013022601,1.27739536445412,1.30082395872908,1.39582159833719,1.40417233819827,1.44921833349786,1.33694614586736,1.29737558651029,1.23199570158754,1.23266962269258,1.26435518931644,1.28023557660489,1.30620572036825,1.36330533706065,1.30706660294049,1.1687483420635,1.18035769518702,1.1908618634487,1.21706545291345,1.26599246675624,1.33813615986802,1.41909705307899,1.42282894596862,1.4567053380227,1.27998827949516,1.27900091881863,1.31109011712863,1.35008327245269,1.37542459668267,1.38388433236199,1.47263713906597,1.5163626968457,1.51542960645814,1.51466430112666,1.51452272910136,1.51365971246265,1.5465349294891,1.57296183991172,1.60906257280109,1.6249586697009,1.62821190240604,1.67095038322323,1.67051205096652,1.59442523463808,1.51315481301279,1.44600946541087,1.44420903651299,1.44263774124436,1.46873798011005,1.48191608927415,1.50294374046045,1.52294328148944,1.51751927024193,1.48566609545319,1.44836829425052,1.3580268039846,1.35654052185721,1.3537627167467,1.386086358018,1.42887602944181,1.50749878292005,1.50804786882033,1.50646370759329,1.50809687254356,1.46252768762193,1.42518994712814,1.39512452463812,1.36203445376144,1.36353256110261,1.36602021098436,1.37599732695001,1.38580149543795,1.51146835240066,1.55683211703778,1.56407488290696,1.56770792944891,1.57068759099254,1.57693071808464,1.58715055361542,1.59997013797125,1.61381031042782,1.62697101691375,1.53413050265608,1.48671607312149,1.44830644259599,1.40615588680124,1.29200749702741
1.39029714354547,1.46754000000048,1.25094915978084,1.1964004043674,1.2014532002783,1.24259985611978,1.27596665812791,1.37798348812245,1.49457485166034,1.52552499234548,1.52397071157303,1.54629000159172,1.4023534279624,1.30000383317537,1.2540437094239,1.17596620286352,1.18563262563389,1.19802312911898,1.25557947367956,1.39532970888483,1.39691169928054,1.3984769837446,1.15218821868451,1.14758249361334,1.14438932145816,1.19143764368824,1.20020029645638,1.51212000000048,1.41646601136305,1.53147000000048,1.31857151720151,1.20169128510646,1.15371969870076,1.15785298556777,1.20312946068587,1.21011093906781,1.21620043462148,1.246456460933,1.24219963080956,1.2383152045466,1.15454420453847,1.13966866070414,1.16111969384092,1.18051359969989,1.23742965023291,1.28197352325776,1.29351877704967,1.34285000223507,1.23797980721178,1.15049060552815,1.12424585627696,1.12465428796167,1.12636512375574,1.08462999647345,1.12404911717599,1.10157830601511,1.16732249154155,1.16241356722647,1.17664046801731,1.24726294779007,1.24951791814113,1.25012399581256,1.2549377055744,1.64415000000048,1.35197268733121,1.32393999993,1.2275040640713,1.23019107340079,1.22664508283854,1.29333562669906,1.3011387112456,1.32705285208818,1.34179966732777,1.40913000231714,1.26221662537256,1.19814999802246,1.23520006682667,1.23842090817551,1.27027840033908,1.34418567335727,1.34755150501237,1.37462634650377,1.33279200763386,1.2065168544837,1.2046511290191,1.20781375979186,1.207218574267,1.20827103450171,1.29323120287831,1.4486900038386,1.41794317689557,1.51641000053814,1.37225539169638,1.37872000254858,1.23262485941401,1.23441786239239,1.25744398865218,1.27904539979013,1.31127169991447,1.53023000000048,1.31158137180402,1.15343467110841,1.151109008021,1.12537999863482,1.20469075680255,1.20837184511336,1.32754520908689,1.43849018777154,1.43000115334099,1.52104000046193,1.27749862801309,1.25563999766327,1.29967458253579,1.30849451013578,1.35322973878287,1.36199143175137,1.45518219449581,1.51784327056882,1.51566553692094,1.51389015261162,1.51454467523585,1.51495276971043,1.55076530743693,1.55459762539038,1.613855953976,1.64202748648663,1.63664899400367,1.73032000093715,1.69433697809731,1.75901000000048,1.51345887589914,1.44834681356653,1.44495142570349,1.44117037872277,1.46853991058693,1.47565265426746,1.49405274503738,1.55646000332489,1.51373705676181,1.48770368423371,1.44847524959558,1.32819508251245,1.34003654828699,1.34372635741299,1.37537297528816,1.35362999767362,1.50529738081266,1.50173289014414,1.50317360318047,1.52142511724232,1.45598658059971,1.38451530779036,1.39522076609014,1.3599611135228,1.36083899784036,1.35869205167795,1.36602069524739,1.35879905665597,1.49940344640588,1.54495954350152,1.50544648892843,1.45263827784943,1.50803140057506,1.53019719413484,1.52185288871022,1.51316571453936,1.55847099177557,1.81295000000048,1.53981298670235,1.55826817255283,1.47881016758243,1.53112000106175,1.29371183594802
1.39773249795008,1.39986988457109,1.26644917127339,1.20451540664695,1.20407836574943,1.24720980190195,1.28059860821465,1.38491051940762,1.49529440013121,1.51162263348215,1.50222219919487,1.47172730004917,1.4128442380522,1.34272531025005,1.26367304733351,1.18273626341557,1.18774955613676,1.19633098392578,1.24908559824123,1.39618364795974,1.39674427597637,1.38494588176577,1.15334243177447,1.14420042171945,1.14211005528096,1.19434664240588,1.19926417223229,1.25906708744623,1.3365387403436,1.34261844361472,1.31932328099886,1.24999610948571,1.15180297682187,1.15457374833598,1.20095206411733,1.20205616593888,1.1954079174325,1.18660408506953,1.18194507894069,1.17601392846421,1.15956217836171,1.16197970779634,1.16509508332738,1.2280810223695,1.25237906900426,1.29755113402393,1.30697245858911,1.31739070553455,1.22999468593062,1.13838738996789,1.12478316733084,1.12637207511681,1.13123414188546,1.13581886137171,1.13944476410992,1.1415662970069,1.17153587182826,1.17327817641751,1.17800351353031,1.20469488193758,1.21976041537701,1.25010838826438,1.25737328351053,1.40941702791488,1.38080338461349,1.35206832188634,1.22625071062842,1.22681686542556,1.22560115697486,1.29453976016025,1.30130684780617,1.31783473847732,1.31214897737362,1.29959196119092,1.26206528876597,1.26161856519031,1.23368961828044,1.23541934838406,1.26802233174343,1.33382538520558,1.35368162619273,1.35402202716921,1.34232170082369,1.28327590993901,1.20060526433009,1.20453155552956,1.20619537053008,1.20711249191847,1.28707360087529,1.4001787561119,1.40570202372709,1.45060804159706,1.37261662590589,1.29454710281431,1.2324179118411,1.23307549175335,1.25157902378278,1.30153498008935,1.31589218901852,1.3209706180523,1.31643076809688,1.24144816690154,1.14950323750427,1.14729068693043,1.20083457444466,1.22650762109954,1.31802988054781,1.38449654071938,1.40754681224078,1.42640673485734,1.27623416697855,1.27617531697975,1.29180851587893,1.3177756617524,1.34362241669721,1.37895665902081,1.43444154603593,1.49218469741777,1.49531178202769,1.49999386061195,1.50597861584905,1.54020249466826,1.55281275681428,1.55742054141152,1.61599134560387,1.63113660610795,1.63256844410691,1.69551426241073,1.68668989657969,1.67313854756519,1.51477984600374,1.47506780999067,1.47127347436414,1.46753819645795,1.46809694579797,1.47234527086029,1.48715229135614,1.51978789507804,1.50984311360249,1.49400247103312,1.44795331033172,1.33142830370121,1.33715459064372,1.33996959494051,1.3905458193935,1.43789529804749,1.50470478824577,1.5027121479553,1.50107077629326,1.49897084488906,1.44991206092841,1.39544878613552,1.39871426766888,1.40554617297066,1.40892497342998,1.42729442976859,1.43854655751228,1.45356838385407,1.45959819381349,1.45877446118967,1.45741906592404,1.45611855004577,1.47862100669951,1.48768627061597,1.49894012129643,1.50961806668525,1.5155281249041,1.52207118085354,1.53131071560092,1.54142384284981,1.46390475644922,1.38275007897755,1.30558946353372
1.40283417316855,1.45837000030785,1.2845284980949,1.20604714110988,1.20739961397682,1.27103072434842,1.28529386332852,1.39159827181696,1.49533802283895,1.56094000060305,1.48951359181711,1.44724111006294,1.42756953635359,1.44128307142444,1.27056323218117,1.16061999782447,1.18981717060781,1.19394353469743,1.24327462954349,1.56062000000048,1.40403769787991,1.36134695561652,1.15511649174006,1.13962942931307,1.13907949093506,1.19756126110591,1.19838142318111,1.10460999999952,1.32897433336918,1.35345149371542,1.31866041019447,1.33602295093667,1.14802361679526,1.1357799964233,1.1984431439751,1.24304000359119,1.19530133551635,1.16192073150142,1.15936266491208,1.15150721581098,1.15886179947889,1.1784951071188,1.17036954428155,1.29169235408168,1.27331782468228,1.32439817215162,1.3192726347523,1.32978135462871,1.22490313299467,1.11066941027189,1.12426619214089,1.12446751049789,1.13740699609721,1.14257865451448,1.14209626091517,1.14290659907853,1.1740822918783,1.17542859124325,1.17906581241837,1.18528271703312,1.20604277681904,1.25027478660841,1.25997958346068,1.47128000095865,1.40941702536998,1.50192000000048,1.22594644385024,1.22605544774933,1.22561249896402,1.29510461734768,1.30164330545917,1.35673000504353,1.30774007183118,1.24983999675314,1.262627961055,1.41409000000048,1.22784494193804,1.2161886448923,1.26663694668256,1.31917293034996,1.35921416965299,1.47395000053807,1.4108664079062,1.49615000000048,1.19238428666359,1.17457860791762,1.18936272049056,1.19459454338973,1.27976570232078,1.38306999801978,1.39301503483396,1.53650000000048,1.37321650405056,1.19900791500871,1.20014040556019,1.20101463926521,1.24597085733936,1.32498340773923,1.3203442487183,1.33295693451526,1.32570040846968,1.32335984637584,1.15174737772193,1.13940999794802,1.19702335907076,1.25646000373409,1.30820614795011,1.36382064361263,1.3885173874776,1.47586000130562,1.27535823929764,1.24807999703346,1.2827354876622,1.32899903757854,1.33061303199992,1.4028100029267,1.41111176008721,1.48673569748896,1.4880547587912,1.48920218814504,1.49537798461414,1.58332042224528,1.57704587104318,1.56598381142067,1.61703736231315,1.63054230372711,1.63062567658536,1.72350000090191,1.67815004944484,1.64358095367889,1.52103294108233,1.47780704898112,1.47417126963342,1.46321256192572,1.46789823240154,1.42735999485864,1.47998675122053,1.54391000312245,1.50594327347434,1.50172478325377,1.44689486005231,1.32635430149706,1.33393464750618,1.33115405347776,1.40029055522266,1.5409489455111,1.53497583043985,1.53661230813855,1.4990557484987,1.49671402811015,1.44419910958413,1.38845082266716,1.40178668581395,1.41509034417254,1.41197152869724,1.45017750636393,1.44743901895611,1.46551112456863,1.46133685446254,1.46055070701833,1.45855882193162,1.45569401228902,1.45797451519457,1.45507057152956,1.47115921162407,1.47116435975177,1.49422030820101,1.51237675676077,1.52224583208505,1.73508000000048,1.45125274733981,1.29628994699334,1.30638506658312
1.40676537908126,1.40896255059461,1.30120560435714,1.21130509905353,1.21183098707912,1.24396011741409,1.28965089376342,1.43216349772319,1.49904974237334,1.50096510629297,1.48011409621378,1.45767550254246,1.41819171653265,1.40451772041423,1.2762220756548,1.25904270649227,1.18759360289061,1.19061299523672,1.23875966046266,1.46762853244972,1.43520212188595,1.40040429323133,1.15769050528532,1.13751885496712,1.13705140771757,1.20563096283853,1.21295234957883,1.25832833374883,1.32384371715852,1.32335064452847,1.30970929371072,1.29867985859486,1.14548892757592,1.14414256144447,1.19550165993562,1.19491260669459,1.19504868931413,1.15929898962058,1.15730787167988,1.1538751085364,1.15835679382352,1.16190644455289,1.16725973343252,1.22757447498235,1.26633667904556,1.30476371500881,1.31497582286058,1.31917658802383,1.21901408969663,1.16831847563884,1.14364024160899,1.14264599717195,1.14823545914645,1.15380488930074,1.15921327916918,1.16479252611511,1.17626200944628,1.17811647460744,1.18002080156079,1.18275556741416,1.19417508642764,1.22364915997428,1.26274049665166,1.28109639575572,1.27985469338847,1.25595464527478,1.22683579531524,1.2276287502235,1.2269723080759,1.30063165278406,1.3023967085906,1.31682275785394,1.30401865124468,1.27158623449627,1.25718605147008,1.2479205957254,1.2254943568983,1.22151753587216,1.26602275922006,1.31208915385822,1.36386213808316,1.36970989328189,1.36829106893428,1.36620603240185,1.18668056070562,1.18244241540961,1.18436883095177,1.21582081736925,1.27257598616848,1.34101429172828,1.37543268791345,1.40994165413772,1.37409017623845,1.19972914473509,1.20026752201163,1.20073045769815,1.24148920394873,1.27794117000366,1.30576365877464,1.33073531060461,1.32762143716097,1.32585347079848,1.15571592827469,1.15817074748612,1.19346424116177,1.22415162965233,1.30264536268339,1.35702566612892,1.36923679334501,1.38975999464878,1.2749771723414,1.26628154221566,1.27522584310355,1.30160668904513,1.31919319684303,1.38837856799306,1.39602949546634,1.43399311268358,1.47337325717637,1.4821471178547,1.48571771522407,1.57813452495246,1.58534752736669,1.59716525697775,1.62285198086657,1.6290719284708,1.62912649438292,1.62917571881474,1.63299157295903,1.63823313987148,1.52998811439217,1.47949954389954,1.47606652750429,1.47340765998841,1.47134093033329,1.45685839535383,1.47238495902716,1.48480040490731,1.50583886016047,1.50378012047186,1.44540325224803,1.4222963263216,1.40207324614053,1.40199050922866,1.4136232250076,1.53272265174122,1.53361522751149,1.53376827409397,1.49673889078135,1.47235253416459,1.43847695577864,1.41769953669603,1.40548686381538,1.41019608205767,1.41057229703276,1.43005646366324,1.44477424058056,1.4626049795212,1.4608068074823,1.46021836665233,1.46100920339013,1.46406192829889,1.4682579044989,1.46980801325191,1.4718016289238,1.47135724425721,1.46715086761237,1.4645232384643,1.46126822412592,1.45720745769062,1.43933253246965,1.35123462537682,1.32338921974319
1.40815155744946,1.55433000000048,1.31667674844726,1.2113690597217,1.21643010359207,1.22740545182999,1.2933541485229,1.53011000138928,1.5074713720347,1.53748000242326,1.47223757041231,1.46671715157254,1.41143872036642,1.38210999925077,1.28921357667162,1.29923915140778,1.18298764246639,1.1610199992025,1.23591728287761,1.56653000000048,1.47894152593316,1.58641000000048,1.16110774115745,1.12286999675605,1.13656652531439,1.23636264764399,1.23508362676843,1.30310272922648,1.32435484971953,1.32315683741657,1.30047464130808,1.28050999676971,1.14542458620403,1.12507999616897,1.19275311676229,1.19377036036324,1.19465181939845,1.14309899629441,1.14680381267269,1.1429982188538,1.15915164924004,1.16068676430702,1.16495635585232,1.16299740982201,1.25870180991823,1.29103640186431,1.31113522392056,1.34076000261969,1.21426695638029,1.19276000697255,1.14498773363208,1.14125007593625,1.15096457889297,1.20106245956907,1.20746214811966,1.39501000000048,1.18400256612356,1.18228012922723,1.16903327188965,1.13661906352805,1.17108713148081,1.17269876252959,1.26535049258581,1.29212765859272,1.27721529754353,1.19317999752503,1.22812666304637,1.23045526407302,1.22954819214192,1.30818135985206,1.30523079788781,1.60813000000048,1.30040999763966,1.29539265965733,1.2537145077865,1.22570478800392,1.22421852916843,1.21978092066372,1.2659498630402,1.30657220987316,1.36747255781991,1.37138559820426,1.36918425946498,1.36445086237156,1.18289275009202,1.16573999639559,1.1806653497135,1.25092000366271,1.26520924335704,1.30546000102546,1.34869641128472,1.51242000000048,1.37536945334178,1.14400999745044,1.171385806317,1.16498165178967,1.23835039317878,1.24003493841338,1.29702443722701,1.54035000000048,1.37373871122563,1.54894000000048,1.15851057868033,1.16145800323732,1.19002794489939,1.19705051164894,1.30247469605998,1.33661999822828,1.34790919898812,1.4180000025033,1.27582887630577,1.2328299969862,1.27208206156335,1.2735678397791,1.310983194778,1.3694399979112,1.38207529123114,1.39070999823186,1.46147435485027,1.47313624972414,1.47867996496273,1.57019901026506,1.59753570133621,1.61603106293893,1.62519377518624,1.62783581557789,1.62829136179375,1.33811000000045,1.63272695172194,1.68604000000048,1.53693716594557,1.48147116174797,1.47765241187149,1.47533848739436,1.47288258463868,1.45080103085385,1.46514687889097,1.4304899965985,1.50800385110393,1.59414000000048,1.4435111131266,1.43404411730844,1.40311478501423,1.40234827794984,1.42033352073646,1.53205038466809,1.53259256612741,1.53220056733182,1.49428754835619,1.4504000014152,1.43224513220353,1.4298378912792,1.40191516224525,1.38178707516386,1.4109090033762,1.41196106127439,1.4420517317577,1.60303000000048,1.51463140987405,1.56860000198492,1.51706144486208,1.60328000000048,1.4737975750463,1.48007349190807,1.47551310266041,1.49334478467039,1.45348072649619,1.430806659868,1.44107585534794,1.45138684108767,1.42905061362015,1.37220999944436,1.33955902087371
1.40811769619481,1.40805146588667,1.33149010507726,1.23880902325743,1.21693667593172,1.22106093269134,1.29620634047565,1.42516841785126,1.4534347059385,1.47457692340467,1.45460968245229,1.44624442970418,1.40388265626283,1.36067217337946,1.28251843140148,1.27780598853443,1.17970039513493,1.17842720110573,1.2347889299643,1.45340526039598,1.45204900140418,1.45075800592158,1.16538952652495,1.13834553085261,1.13758143609878,1.193845015599,1.23351354787408,1.31011828035081,1.32536501603414,1.32500246484538,1.29174436019579,1.21046821571405,1.14594373938933,1.14630991956545,1.18991864046077,1.19446204562469,1.19487209339537,1.17008515360198,1.16061157448116,1.1584183608861,1.15919529371284,1.15986512133592,1.16461312351419,1.17517922996991,1.25212688671734,1.29456434702477,1.30848583429695,1.31101793399196,1.20893299416007,1.17301163183023,1.14743004763678,1.15081825440083,1.15372133036586,1.20746925374173,1.21182861966449,1.22003577946822,1.19835831189787,1.16782884707676,1.15953024012144,1.1483031333693,1.16943999127229,1.17013610721382,1.26800105955132,1.27343073039408,1.27435758549555,1.24975630796873,1.22792821241733,1.2288726678254,1.23183806809937,1.23719154862164,1.2348062435432,1.23112680797791,1.22786808819896,1.22314104326691,1.22224927940341,1.22263591011752,1.22172316877618,1.24912783064217,1.26629740733244,1.33683660045492,1.36998243856517,1.36983174606323,1.36819565136212,1.36601619061613,1.18095660073445,1.176243151709,1.17787667015989,1.21929286440041,1.25741817931439,1.28471915076823,1.34226941892859,1.37818040461686,1.37683299408827,1.15991650319485,1.17287656518734,1.18397296838677,1.23318677081509,1.24729720957515,1.28978567179629,1.36770154224488,1.33563381713362,1.24478591910597,1.15926056273257,1.16005510300207,1.18478419856839,1.21070389840698,1.30188456040088,1.32525638862985,1.3332477540122,1.36305630161091,1.2773010845079,1.265410306207,1.27004127650408,1.27207410687452,1.29716317705949,1.3352439793013,1.36434576452901,1.41100121400422,1.4464051307842,1.45681358343096,1.47080491346443,1.50218178399355,1.60664828781144,1.61765294047605,1.63246504998109,1.63236525655005,1.63226930958116,1.6323040002879,1.63230647309689,1.63190936127318,1.54307748326867,1.51468390038994,1.50819942588652,1.50299563977609,1.48896143274177,1.48792086746976,1.49038404751024,1.50243393681687,1.50999272336409,1.51243363039094,1.44116447254432,1.42092974247179,1.40560576492758,1.40865697052181,1.43088921310351,1.48146870567274,1.51469830513235,1.51857496553887,1.49232315576323,1.43538902257753,1.42684065835367,1.41503120930776,1.39470547789948,1.38797730292668,1.42965785563752,1.43139560150217,1.43920784433241,1.43472398528258,1.43094516877676,1.42825786938231,1.42561451023871,1.42185865683135,1.41968215070251,1.41925624148766,1.42070779420728,1.42371675903652,1.42350172293868,1.42375308111558,1.42421881727622,1.42096524619973,1.4175225025787,1.39651726187787,1.35325767723208
1.40768849424757,1.47074000116943,1.34583229817438,1.25092903004235,1.21318481379468,1.19478999816235,1.29814081244624,1.39584049905778,1.42984742513908,1.51529000195776,1.43305063305233,1.41930390629194,1.39762197917321,1.33507722961946,1.27579641322928,1.27141714539792,1.17946407567817,1.17938589824067,1.23507782770634,1.45491920898922,1.4521598616926,1.4496246678436,1.17044210125038,1.03536999995905,1.13285597388688,1.13778264783544,1.23110145295411,1.5434200007466,1.50738363531823,1.50510062114181,1.28255631972404,1.09143999897178,1.14628584048455,1.0822299995223,1.18686805957953,1.20287000023684,1.2100375163154,1.33888000046961,1.20342706518631,1.15681453495194,1.1496902193301,1.12277728895653,1.16445910572411,1.19302728514894,1.2461896326924,1.29877291060949,1.30407532334406,1.31272330890058,1.20355514997774,1.10219999779292,1.14158352150929,1.1547527214327,1.15698015113892,1.27721361102833,1.23938762128097,1.22912076551836,1.21133471208282,1.12340999726849,1.14280637350097,1.1272897252331,1.16753834642984,1.16535552141344,1.27040735110218,1.27130174636613,1.27306944802377,1.25904368914035,1.22740075360915,1.22834219960563,1.23080390810588,1.24348320122696,1.23780624193297,1.23191791784343,1.22934220437359,1.14668999900776,1.18077734241185,1.15505999729734,1.21888371241809,1.26816240372142,1.26707125732739,1.37323958620425,1.37200440539217,1.39397475412867,1.38425322771734,1.44791000000048,1.18012908894724,1.13406999827719,1.17637020093768,1.19979012615219,1.24944836290221,1.26948000110976,1.34102813863513,1.38659000164578,1.37632182203042,1.14322999787287,1.17556992940767,1.19599701409001,1.22768173554819,1.25461620832196,1.2856325373655,1.54166000000048,1.30759193903798,1.16895018869835,1.15944178664092,1.11240999921879,1.17885534694584,1.2319211294793,1.3004018310375,1.29997263275875,1.31822773592494,1.45658000000048,1.26813310772649,1.26037803757178,1.25820766023561,1.24819415727889,1.28346085560081,1.30032000191559,1.35014628438987,1.42683690038022,1.43191989775738,1.43327491232049,1.43360259474068,1.29919000000032,1.61460645154088,1.6182387204415,1.63804065901657,1.65026681777146,1.66532600183559,1.69821446582824,1.64639912712513,1.63164530530252,1.5471635139602,1.52324376518198,1.52434726178384,1.52226347279679,1.48973133221421,1.4845235402717,1.49132557562976,1.5124122898115,1.5119560707459,1.51772316893553,1.438302807314,1.37436244418129,1.40312292090673,1.41230466599147,1.44260536896902,1.46139210686358,1.50773823606357,1.52244427058007,1.4908656494394,1.40489935376085,1.42099458028227,1.35124948839552,1.35881800661313,1.33946999735102,1.43350661741425,1.44615449634924,1.44052212041078,1.42753280395498,1.4294120941186,1.42919031847603,1.42799595382471,1.39088862534981,1.39510457140069,1.39618365066239,1.41140352272577,1.42768670740978,1.40986298825143,1.40035002200196,1.40455955143939,1.40913505555129,1.41149724082213,1.41269089704987,1.3649889447291
1.412227969441,1.42494716950876,1.35980615316636,1.3039750049969,1.21059624629354,1.20904301264779,1.29922939923314,1.38759377508974,1.39854362605018,1.39974774252352,1.40758603883136,1.41042099476788,1.39387376776818,1.34941549475032,1.26953745873736,1.24763014926816,1.18033553656442,1.17924038211266,1.23625161098018,1.29799135831857,1.3233557132151,1.34388700636858,1.17601940560043,1.10717221459838,1.12956501699297,1.1327849302207,1.22726137427732,1.51228474399178,1.50998064824656,1.50729444526141,1.27288443685946,1.19167043016923,1.15195828729269,1.15346181648685,1.1844947544244,1.21839590138916,1.22180180781293,1.27471333213881,1.22464491106204,1.14853423187738,1.14399595734754,1.13159982559335,1.16403384017603,1.18905298520595,1.24015423871554,1.24595919061098,1.28862202989317,1.2891038516683,1.19840262296022,1.11868581713274,1.1362394837834,1.15804928169271,1.16021270450382,1.26520172589632,1.24902849778227,1.23934500071123,1.22073069695518,1.18608112666492,1.1674485330698,1.16738923958568,1.1673408535242,1.21591844559709,1.27153698843046,1.27202853935424,1.27327958609318,1.25155691025398,1.22727388154387,1.2277145075054,1.22875788512411,1.23922707105697,1.23606711918189,1.23231415501714,1.22943508938786,1.22774955662041,1.19960834098069,1.18603506145757,1.21675349000632,1.2562993639619,1.26150717839375,1.29356101955467,1.32325124959775,1.35578565509471,1.33112188717346,1.2518594977267,1.17984258376021,1.17368806778729,1.17472831282888,1.19578901955572,1.24162411965792,1.24949929978615,1.33977947744124,1.37358770795683,1.37460113167514,1.25882916223514,1.17956935585734,1.18617451960828,1.22158094727655,1.23729451946706,1.28229411682528,1.28822401703282,1.28740724665694,1.23581158724737,1.15358687505507,1.15191238541801,1.1728931144502,1.20779998820178,1.2980878830461,1.29702410790875,1.29770273011897,1.27381916575774,1.2675228793808,1.25793122610733,1.25584061059265,1.25154835965465,1.26580383480643,1.28099220292405,1.33469679785026,1.42970263383958,1.43155121368526,1.4329100662163,1.43356030438705,1.46606714796511,1.6223784786995,1.64044212139813,1.64091506679128,1.66367820353928,1.67245435080684,1.68421908368764,1.65396617626874,1.65266356124069,1.54995431679797,1.52879406617516,1.52772494709421,1.51286456081909,1.49035932381206,1.49094616916808,1.49140668979787,1.50196060735252,1.49778427325626,1.490701114623,1.43499878603399,1.38732262018887,1.3962982875638,1.40160126095472,1.45373843319925,1.46326412000194,1.49898009083478,1.50488621417552,1.48966155585368,1.44385422529185,1.4354310868776,1.37129890787429,1.37686227761513,1.37915827569126,1.43468860091591,1.44253240243502,1.4396816964705,1.43541728513024,1.43170123747383,1.43086961232081,1.429817206417,1.39418548654585,1.394520737726,1.39482232762957,1.39408502460036,1.39377311764189,1.39396877560514,1.39458616715502,1.39177468864325,1.38926123683064,1.38736907484953,1.38696685086609,1.37477663630427
1.43501646082848,1.52663000000048,1.37777670038777,1.43363000091556,1.20991808951803,1.19146999872637,1.29967395903591,1.36115999524149,1.3897094887074,1.38508035839221,1.40499066392741,1.48867000061412,1.3903373419024,1.36509442633637,1.26437509858649,1.23970016134419,1.18285652846317,1.17556999661275,1.23772033060197,1.25987999771421,1.32267371389926,1.37116000215414,1.18177330475585,1.05317999882269,1.11985156631588,1.12112440885733,1.22212452636,1.51467103847006,1.51330540670332,1.51538688071235,1.26396824528989,1.20219064962568,1.15252338713346,1.15657291817645,1.1829035491854,1.23735114323225,1.24377992738113,1.47154000000048,1.24469763482739,1.12763042437871,1.13659517898882,1.10641999699964,1.16303341526029,1.18555005872434,1.23278343410354,1.21955597423955,1.28694621646064,1.29624304883127,1.19257383520947,1.09862792228453,1.12722285388797,1.16173237858874,1.16495512959647,1.28000004089007,1.28857732341474,1.34987000000048,1.23048506665754,1.20724000389013,1.16738599553811,1.16695273507257,1.16717878358862,1.30270000157031,1.27511494120699,1.29068584325349,1.28081775772532,1.20610225735654,1.21394708833183,1.21565536329452,1.22533742354743,1.28088902548118,1.28667802404138,1.33454999957605,1.36382272512567,1.50126000000048,1.21869383704984,1.14034999818496,1.21598882546024,1.24925843205962,1.24110312106134,1.17033999934076,1.29610432006096,1.46434000000048,1.31321762036562,1.17593445136064,1.17391962724198,1.16205122891293,1.17265652978985,1.18982003592672,1.2292995316154,1.23304131191006,1.33776397716308,1.37043862783618,1.37203301462085,1.37009212517887,1.17484657450549,1.16630517983797,1.21566282413063,1.22123781941314,1.27866869031305,1.28965751561707,1.28798553399866,1.30852433702664,1.15023041331859,1.11536999882933,1.16777568103334,1.19132270055976,1.29453259983071,1.29422304818876,1.29716722544854,1.18889663340411,1.20008604878725,1.2047362950297,1.22321639171252,1.22644520776393,1.22537338879718,1.22635558308491,1.31779122392419,1.70126000000048,1.39572793767515,1.35372999685691,1.40943281332274,1.63637000000048,1.62677409634632,1.64836975175313,1.64962077648819,1.71986689823572,1.71265630919182,1.7419200012062,1.65856859748548,1.6664859250933,1.55482459586648,1.5373574108421,1.53150809684427,1.5050629464123,1.49053170018298,1.49108501717574,1.48972788270422,1.54074000408032,1.49283755751329,1.4792086328693,1.43154768028635,1.34355999829166,1.36503177598884,1.34375999852996,1.46000095975908,1.46459254687383,1.49215134820993,1.52902000369336,1.48836101081343,1.47760469368262,1.44524878073989,1.36505396540406,1.3789863582416,1.38245173817352,1.44976626539442,1.69188000000048,1.54400335572039,1.71037000000048,1.43669768743356,1.43314290565803,1.43122127182228,1.39423518518106,1.41384936914559,1.54474000000048,1.39111593492921,1.37162579337136,1.37060166585488,1.34799999652843,1.37316116401598,1.35150999578439,1.38488164291854,1.38654294312752,1.380914233072
1.34520779532814,1.37852568736824,1.33604500747534,1.29889282556347,1.21012693113824,1.21082011354082,1.29975497292852,1.39177109918462,1.39351810526597,1.3973060108015,1.40161968674819,1.40062432069916,1.38702262328973,1.34929951250031,1.26031819334884,1.22079898492827,1.185018967485,1.1851737647356,1.2390166477464,1.28926469443657,1.31585093792922,1.31527111777435,1.18732595054536,1.11492655941609,1.118698894283,1.11980939278295,1.21661805475011,1.31615817351217,1.35065221696947,1.38489152712315,1.2615435266237,1.21643516608018,1.15101061060615,1.15269769535157,1.1824333245332,1.23782220304455,1.24564695337696,1.29900057296682,1.26574381454535,1.21515862398768,1.15076435026834,1.14491661205815,1.16133805307146,1.20932621516905,1.23890786748769,1.23980979172226,1.28025415993665,1.27897694373953,1.18714294818977,1.11030876980678,1.1214736114783,1.13429823444911,1.16965714228394,1.23161040186343,1.29621384959356,1.29826311874868,1.23940427803226,1.18304664618457,1.16727938464021,1.16717465591882,1.16702673785341,1.21370104251311,1.25973676978014,1.28803685956105,1.28430101519809,1.20902984740977,1.21225611053451,1.21385513150013,1.2217693821955,1.29018604350658,1.29317774195266,1.36367956893738,1.3946918272913,1.42677986276811,1.23550048830385,1.18665809150491,1.21582298283295,1.22829595918822,1.23114086682809,1.23294938529069,1.26992926600395,1.28255369111422,1.30164787466212,1.24259173413198,1.17159957692637,1.16990646766206,1.17104292102303,1.18208693266687,1.22768570735545,1.26302655912309,1.33409869320057,1.33762031692158,1.28655229696066,1.25023793132412,1.17259394031687,1.17024761054089,1.21059182640125,1.23846820217333,1.27543887230337,1.28059899662059,1.28320270042762,1.29664972674835,1.14847156844358,1.14829768111303,1.16406548736314,1.2275535615243,1.2890400709021,1.29685504694869,1.29815829664399,1.19316152077234,1.19779814879787,1.20042520563757,1.22023347739219,1.22262063062259,1.22241883479692,1.22948937265695,1.29937093189269,1.38367859257999,1.37949293756333,1.37742095394795,1.39272548607287,1.46001346630028,1.49801463399278,1.65077844947315,1.65093668112756,1.69814653426108,1.69858284591553,1.69919430482779,1.65019130335337,1.64739816778264,1.56133544475892,1.54671669351916,1.53521714950195,1.49623775071372,1.48880270410544,1.48903494705144,1.48667999733274,1.48499650578805,1.48352098582226,1.48042121434121,1.42840374332284,1.39779926266765,1.39821530960591,1.44028878022058,1.46940856879619,1.47337572661526,1.48506762986087,1.48583156727875,1.48654605276475,1.47253346968151,1.45198865083163,1.45181169615966,1.45181274996885,1.45167433100714,1.45653721380725,1.51688803797741,1.51719313442235,1.47324690737144,1.4377969632488,1.43615819052723,1.43474513760783,1.43397754431755,1.42658260274047,1.41318569212231,1.38795843075206,1.37061376765487,1.37036154865613,1.37110621181609,1.37347955582439,1.37702579933316,1.38187280870949,1.3842001396718,1.3844397585687
1.31416612376702,1.51253000000048,1.30121328351583,1.20794689456469,1.20949453541074,1.21168785481847,1.29973952085479,1.40028750050445,1.4019956341985,1.41310724301834,1.40343038510035,1.39906662031053,1.38300043487009,1.3367696987285,1.25732643369288,1.21600044865281,1.18650377523964,1.15534999730028,1.23989565894475,1.32327124930191,1.31532796448414,1.31411095369668,1.19232529906963,1.11022707417477,1.11931539295602,1.11942164914331,1.21164700271182,1.28425999951136,1.31617236064198,1.46042000000048,1.25762443932429,1.24900254034832,1.15008382280804,1.15188762640234,1.18311621345672,1.23884391100762,1.25137179463352,1.36305000057812,1.31662134894735,1.31142459529867,1.15166877393314,1.10573999863077,1.15903955612879,1.24711726675633,1.24413528601894,1.38864000000048,1.27893431979324,1.2756310042656,1.18144890613815,1.09045342155359,1.12099707277372,1.1237033342669,1.17519544327057,1.20167999792411,1.30090931224942,1.31997000297025,1.24814081649965,1.12281999787594,1.13707956376609,1.10229999770556,1.15153897457568,1.15442409554895,1.24830516763339,1.3704600011496,1.28634591726783,1.18756289874662,1.18744910556697,1.15857999866824,1.2182250086688,1.31332571428198,1.31168185368141,1.4226979561614,1.44114314121567,1.48870000196576,1.2510643350462,1.13214999838668,1.21437460138294,1.22392500115055,1.22974530645443,1.23528682224348,1.25839839019746,1.23619837801458,1.31360298366454,1.42147000000048,1.16902724197629,1.11722999763216,1.16199648317336,1.16282708171124,1.22556966389996,1.31211479234087,1.32596479125136,1.33973000323613,1.2704820327989,1.15902074535462,1.16689546326142,1.16941625044926,1.20556068420376,1.25422172267355,1.27185102467724,1.27508654599769,1.28097096942123,1.51478000000048,1.14830144305759,1.14934392857655,1.16135756633118,1.2744011522381,1.2820478449373,1.36787000000048,1.30141844137201,1.17165999743953,1.19014659326383,1.18365942878844,1.21097908656856,1.21022778845967,1.21816195882725,1.23385714627893,1.28091703260809,1.38664461307647,1.37719386946114,1.37488078784587,1.38429924002397,1.42274000065412,1.46213619695485,1.65409059002941,1.65220438675694,1.69816977242199,1.69889329684502,1.70025161396557,1.64281868640266,1.6193430838207,1.56912267130953,1.55790233801615,1.53826222256602,1.44329999920693,1.48417577957005,1.57606000060894,1.48306669387238,1.48111700887775,1.4815892516089,1.48131791495996,1.42598140769549,1.39823414702758,1.39983042381726,1.53415000125487,1.50050728978036,1.5276400037248,1.48411876889286,1.4857005329163,1.48460153405646,1.46778886274571,1.45182326422966,1.45245279072735,1.45146814805504,1.45137252422633,1.46519371554832,1.51511150342461,1.51534697578966,1.44806981883605,1.44064954542146,1.48224998167767,1.46240437409365,1.62768000000048,1.43109729836156,1.35975999784676,1.38216520092143,1.32479999965981,1.44624429378636,1.50247999841136,1.5238970064398,1.64123000040419,1.47035468900823,1.43411155430878,1.43802373199635
1.25484256202522,1.25484733352038,1.25441073158626,1.20838253146766,1.20867186482112,1.21034609370558,1.2997960239345,1.40195677696786,1.40378781755508,1.40731839380922,1.40497218281744,1.40229919872804,1.37975987852322,1.32239412560449,1.25571257237181,1.20106930084972,1.18724038783915,1.18280897238553,1.24032140355795,1.25860288261765,1.27587728393319,1.29154639479562,1.19647877309839,1.11534824568672,1.12026283932602,1.12088725794962,1.20736894035439,1.24322029244485,1.27486544294051,1.29734603953405,1.22468767525073,1.20756240570091,1.14907038244501,1.14982258169435,1.18465749845855,1.21160144558137,1.26150579729175,1.32155145359381,1.32075420733992,1.28411434542961,1.15109020845155,1.15137413344104,1.1563588012952,1.21761403675317,1.2413266391902,1.24447380253424,1.25199262650166,1.26448660188123,1.17542804280398,1.09960451088023,1.11960329360193,1.12168726895231,1.17989699858883,1.23011097709055,1.30465836136627,1.30672729161172,1.25632518662608,1.2123629520649,1.14579325144594,1.14220040746062,1.14864098752276,1.15151263194057,1.23635018781226,1.31825368324788,1.298844830338,1.26622317781474,1.18759241413123,1.18828816621204,1.21504108352382,1.31086243799598,1.31091522401009,1.44160773126189,1.45239595636996,1.46695331069615,1.26601077419502,1.17464089959636,1.20802529853539,1.21729125861495,1.22821255796087,1.2560395151241,1.26780740193071,1.2967420058482,1.32732823573194,1.34272995684723,1.16650154247757,1.1426158566909,1.16077651477421,1.16175469298609,1.22343415177461,1.27635157509204,1.28462447770589,1.29741740597046,1.25526235756801,1.16151842840011,1.16463519462755,1.16593217055254,1.20042800106556,1.22798113655573,1.26806370893989,1.27191701760871,1.26788991126598,1.21247624346725,1.14799295102322,1.14839623264347,1.15860088145158,1.22347279039501,1.24966146006693,1.30503638701088,1.30219941110329,1.26013325654867,1.22285861673594,1.20974169874793,1.21059548365674,1.21078101656258,1.2134947044079,1.23479542984215,1.26236250174851,1.29505023155477,1.32239126398853,1.34199904118067,1.36538637755775,1.39692317858288,1.43097061886737,1.53248654008853,1.64118597822793,1.66694510400606,1.66843674818161,1.67170341623613,1.63471869595868,1.61942916781878,1.57747559672423,1.57434349426935,1.54114269027512,1.53033915045708,1.47967645835886,1.47923271675921,1.48045424602633,1.48057372936735,1.48128965892634,1.48143520226878,1.42451719706594,1.40113408317455,1.40278109444709,1.45250333857239,1.47952620190824,1.47918712317926,1.48026455684967,1.47968301571911,1.48158852578118,1.45874144053127,1.45182642676956,1.45157444763481,1.45148743503401,1.46338809428294,1.47570605622742,1.50960793145839,1.51208960805414,1.47320173881169,1.43573234097512,1.43362365156311,1.43301155893963,1.43385370985295,1.43494894636698,1.46785875060585,1.48309087532907,1.49444927368653,1.50244064047731,1.52651600177069,1.55382429185563,1.57897142962888,1.50123855751865,1.48249963982156,1.47109833026753
1.25574555945747,1.25566067906736,1.25490318528423,1.15371999979693,1.20621619345597,1.2038090874781,1.29997113527074,1.54527402041769,1.56289569999917,1.5890699392303,1.49946826476806,1.51783547353662,1.37785419640912,1.30401935645249,1.25462698648282,1.14932991788799,1.17293686780932,1.17362956144562,1.24041179685426,1.239808556787,1.25611258755689,1.46724000000048,1.19956911409125,1.10557940786839,1.12232763762441,1.12294544680133,1.20335774023793,1.19929954337825,1.25797917429775,1.32555000177619,1.21412685466581,1.15874479721406,1.14455353256804,1.11980653276722,1.18669067797218,1.18682195800739,1.2702729646974,1.32088662069669,1.32245867651269,1.25163999609449,1.14988457360302,1.13868999551151,1.15351316874755,1.19758728354475,1.23838953788819,1.23524238215689,1.24274958967973,1.28164198067183,1.17007893605629,1.06748999778159,1.11502740869162,1.11004999215319,1.18472744516815,1.25217912991992,1.30571637966482,1.34611000159162,1.27792055998412,1.26794154679596,1.15351857606154,1.13436860137238,1.13276963805946,1.11174822700556,1.22412912190158,1.56914000000048,1.33388393311581,1.57158000000048,1.18787752891239,1.18995219412538,1.21282430398772,1.30857910918624,1.30989980055327,1.48487000195376,1.46544773444849,1.61299000000048,1.28053172747148,1.13607999805218,1.2008545395694,1.20929406438428,1.22574290180554,1.29468386656913,1.28743197684867,1.37319299633705,1.37361625222027,1.37530648436551,1.16432622087675,1.130442548089,1.15837781386163,1.16149296669828,1.22056728025636,1.2612960457943,1.27608355953419,1.31198333434192,1.23872405708873,1.14029287846135,1.16189968287711,1.16389429347333,1.19484506354366,1.19877206480456,1.26277735561913,1.27906070643845,1.2634890943966,1.13038252423289,1.13109891641442,1.10303817934391,1.15771107564806,1.19190000115653,1.23807332355088,1.32224028042341,1.31354808285205,1.55016000000048,1.23766377059944,1.20754122612684,1.20960013992728,1.21079554075444,1.209906152214,1.23625223874147,1.2512607444614,1.21226999729419,1.30272954725092,1.30434569185666,1.30810299910464,1.32531331858312,1.40159595458615,1.50033999963282,1.64105987555777,1.66510356372494,1.66635960119392,1.67510500410125,1.62592219312846,1.61936036235952,1.58562449647584,1.59493475175206,1.54533154377959,1.55116983261408,1.47717832566247,1.47137465977071,1.47937959717659,1.48163374862268,1.48090131662781,1.5006645915326,1.4241296011673,1.3708399975473,1.40860505353596,1.41499758430225,1.47905437443826,1.47845693427393,1.47827733246259,1.47792006358235,1.47912220936182,1.44580029150516,1.4420231066144,1.36895999716541,1.42949894627804,1.5392600013238,1.48576741280907,1.50579738735601,1.50955474215269,1.5433000021346,1.43415380121275,1.4026662950428,1.41193837390654,1.38694932441115,1.43080204828091,1.55149854148934,1.54438496585394,1.56070999675082,1.57752751425442,1.67518450531545,1.67407818578286,1.74127000000048,1.51700335475756,1.51950261846154,1.49237575015036
1.25526538820023,1.25529037322217,1.25483517803446,1.2359719302772,1.23735206884907,1.24959591511076,1.30024310965574,1.56287644835185,1.56862092326395,1.5786279185678,1.48430468778829,1.47882037036532,1.37585406098329,1.303116879974,1.25005569490689,1.15772959307351,1.17153258190777,1.17320240810601,1.2408776617499,1.24093983698837,1.24064247072328,1.24025722097927,1.20145811900118,1.11418330543399,1.12396415831714,1.1289412946903,1.221848739888,1.22362295096784,1.24039223053597,1.21843782620522,1.1911841741782,1.14460966614612,1.13783512438142,1.12864419273044,1.18873121473921,1.18916991542597,1.27823478383702,1.32333642225069,1.32398543393255,1.27781604153483,1.14872899088394,1.1494315353408,1.15072643865951,1.19634072013992,1.23829537194041,1.23722563621041,1.23782549427288,1.23344043023445,1.16338555954983,1.09386976429875,1.11558967714707,1.11507614096872,1.18909593151684,1.25450984203,1.30619940935231,1.30839361231664,1.28475977392218,1.23460865133672,1.16242243696543,1.1326938107617,1.12977068263291,1.12618618838593,1.21208567841147,1.32531089602506,1.29122421467963,1.25851945520679,1.18716331040375,1.18792499677587,1.21140626049454,1.27272240098172,1.29841696954453,1.37278994234851,1.40630826946286,1.42548053133957,1.29457462835626,1.18718215106031,1.19331666759564,1.20069097644497,1.22209180680997,1.25745533260126,1.28336951576778,1.31899145846301,1.37228627623931,1.37144061773996,1.16269274787523,1.14011124553365,1.15602046750952,1.15856582722853,1.21637723344943,1.23035872297724,1.24769680919854,1.2731920828277,1.22356879622335,1.14672453865036,1.15843566049696,1.16550191236986,1.18877780087587,1.21779762055247,1.25338918597473,1.25202412524763,1.25185075462886,1.13110305986411,1.13140924346028,1.1153438415271,1.14526885852803,1.17183282764734,1.22754677756927,1.29357716148485,1.31332721416705,1.34786195083208,1.25148895925635,1.20846346792395,1.20891884386763,1.20847075718511,1.20727217060244,1.25432451760657,1.26079982198066,1.27754717349891,1.3003988946516,1.3026225199809,1.30588981082667,1.30988423874261,1.37476355357827,1.41392445672162,1.64071267919018,1.66621751729219,1.66596238879144,1.6651514731979,1.62018509271522,1.58006673537405,1.56212042136389,1.54431861989859,1.52992648131327,1.51809753280915,1.47619307992694,1.47447383374328,1.47869816737505,1.47975177834974,1.48138681254333,1.45801574989362,1.42456526883212,1.42462025411483,1.42873728064149,1.4332982096208,1.48030626544798,1.47899591445895,1.47933200633553,1.47874247882148,1.47977711625188,1.43647899196434,1.43405705760093,1.40009083936791,1.41401531080264,1.45076991495056,1.47151467866364,1.48302521215257,1.46926972693972,1.45907420384865,1.43368761361797,1.42206326481316,1.41884398601875,1.4020891122821,1.42092819567184,1.47532954339124,1.53739962291389,1.57925479590411,1.58733504535356,1.67427033176007,1.67373383926431,1.70384597325164,1.51519265303526,1.51414017376206,1.48692912722778
1.43569316617838,1.51923000088141,1.26629264885376,1.22944201559821,1.2396649194464,1.25735655380653,1.30060900442682,1.62495000095722,1.59200067972818,1.60254238767325,1.47365949304746,1.4691284169191,1.37344942035032,1.30214301621082,1.24306699200596,1.1105199985055,1.16924285866222,1.17249273329758,1.24141035009582,1.2418062921752,1.2408435959249,1.2396478071288,1.20209268671503,1.06520999948593,1.12541039552555,1.13704846186837,1.22964106021452,1.53877000000048,1.27009746793419,1.14271053232067,1.15221806553235,1.12803453584982,1.12668267259574,1.11632297665341,1.19069984275969,1.1914916328172,1.28652971017784,1.3370724033754,1.33902606085656,1.42287000040261,1.14730636431761,1.11954999746334,1.14930185368584,1.19484620607102,1.23845634911047,1.24597285525899,1.23913159411945,1.22572343956774,1.15701906618021,1.08310824242174,1.11622778868203,1.11781279353488,1.19259800714501,1.25689112698771,1.3070005103081,1.36795000170685,1.28916355585521,1.20873630899814,1.16890821939909,1.11199866540179,1.12619333181114,1.12231150859881,1.20076044599634,1.39606000003993,1.24916801100634,1.1881333632721,1.18022741688389,1.1513104464063,1.20995045309465,1.2303481442059,1.29212762744036,1.33378078667212,1.38842273225974,1.47732000117386,1.30764316059182,1.17803177725482,1.17761908969353,1.15446999619527,1.21757893345828,1.23079192844325,1.28115954072603,1.29224999646443,1.37062835688463,1.36954081965583,1.16172453775025,1.12315999593871,1.15072582886418,1.14840680231564,1.20904823305574,1.20774649958981,1.22224395329978,1.30166000165457,1.21006449825572,1.14315575282467,1.15457047626689,1.16649214712591,1.18224384247876,1.45011000000048,1.25109646302377,1.24960055285406,1.25106770534284,1.13119563142908,1.13152737930341,1.09130999572646,1.12788089290596,1.11889485788898,1.21705272804058,1.28647839127108,1.3122083629744,1.47291000000048,1.26456760399406,1.18665294252354,1.1827467082199,1.18230169397595,1.19865553709787,1.26525350139763,1.26647964519243,1.29539183094325,1.29605221680782,1.27555352556413,1.28256248771914,1.28436001509942,1.35257234000154,1.35814112355957,1.64011964339222,1.6673412315917,1.66590151435217,1.66431829597337,1.61372504997636,1.53104384576218,1.53522548723143,1.50928663147975,1.50451165136135,1.45893999503175,1.47586442486338,1.45772999473934,1.49844532414492,1.51597704060605,1.48356614418281,1.42936640474825,1.42507607225275,1.42097027260632,1.43201219257041,1.44122769137502,1.48223817225072,1.51860198479546,1.51488565948929,1.58225000153143,1.48822143059222,1.42358495151835,1.42951760423709,1.3585699963107,1.39778869481761,1.40943140850683,1.45368776327255,1.54552000134173,1.45859266765994,1.4345992148522,1.4337692957453,1.42709511119015,1.4219678580686,1.36696999879189,1.41017254508995,1.39844685876042,1.52838416493893,1.62457000243165,1.60394985321442,1.67444263207826,1.67370704347396,1.74951000000048,1.5141472017986,1.51073377903173,1.48263128233639
1.44958853198157,1.47253762708954,1.27258506978474,1.24061486576024,1.24323728220592,1.27495513113422,1.30112725576685,1.57705491121639,1.57535541229243,1.57389565494079,1.45959145271208,1.45707467204833,1.37085014392886,1.30455713984671,1.23308647589138,1.13159859368119,1.16576983180045,1.1695880349796,1.24120492886087,1.24131732586769,1.24067103645067,1.2401561414544,1.20153109598782,1.12647661917762,1.12653937635427,1.19229446506087,1.23750538835911,1.33135520059079,1.29894091400363,1.215630086589,1.15913531280087,1.12654062899935,1.12470274951177,1.12045006894783,1.19245046172348,1.23011579453518,1.29457225707688,1.33893121593623,1.34150678018734,1.36508376434178,1.14646292107131,1.14737651933646,1.14780856863424,1.21294293519361,1.23650160286999,1.24370108069228,1.24203595241486,1.23477338233189,1.15118459804322,1.11912369962732,1.11685535903843,1.11732964171494,1.19458397400526,1.28666418184293,1.3181805003689,1.33835796284368,1.29264405737478,1.22181930724238,1.17270807095903,1.1310709878362,1.14809276241478,1.17610915895159,1.18604074618694,1.18342179489093,1.18046594589753,1.18023481691297,1.17852189671701,1.15824480561369,1.20855824174693,1.24549981617716,1.28693585643361,1.33706270400053,1.37433897834639,1.38942572306008,1.33493337532501,1.24769384701533,1.17851895107078,1.17915392046489,1.21273590354432,1.2344051855988,1.27842367708356,1.32163141027304,1.36883072739154,1.36985263029431,1.16148549861306,1.14390546192525,1.14848588785662,1.17603731596537,1.20580784001918,1.20548097004825,1.20350885276288,1.20102221236444,1.19740468647535,1.1465976038074,1.15054524400717,1.15592835595967,1.17544830399182,1.24587271765263,1.24847171541418,1.25014070708038,1.25136686661862,1.1983436163042,1.14177748780704,1.109694137369,1.13323217755275,1.1397096455622,1.20595372056751,1.24283643434877,1.3093985235087,1.30758425222151,1.27855735114992,1.25738059971513,1.17974070451242,1.18065665055739,1.19477710204777,1.2667704906659,1.26819847654309,1.2962265917959,1.2961725755051,1.27773897896966,1.28077300664514,1.28250154659076,1.34079122144045,1.41396011630182,1.63945155701386,1.65454489558159,1.65199046330091,1.63656742000516,1.60445495142997,1.54299700450781,1.53888669616157,1.50438397817174,1.50202134455533,1.49946075767665,1.50208501517378,1.5048346089499,1.50801480708004,1.51176282651083,1.48583839836258,1.4254317198121,1.42250705845638,1.42113038159777,1.43517907760798,1.44131261538503,1.48414176239498,1.50855469345999,1.51080271909718,1.53464333171579,1.49269268305738,1.45957471546394,1.43430795579587,1.3819388364141,1.38958320585844,1.39689612733018,1.4242673812592,1.43015939008166,1.45279334723223,1.45442115226066,1.45712855565232,1.46789892146306,1.48083439014267,1.49065346844564,1.50185660650092,1.51082229045045,1.51749422096509,1.52767217520316,1.54563658241682,1.5618959734126,1.65920158759364,1.65960401972737,1.51313415279701,1.51208321714327,1.47819037906112
1.50599019675325,1.50454845874248,1.27871778545936,1.23328889110906,1.24717147740648,1.30473163668419,1.30184842012519,1.57979210326324,1.57524719605409,1.57300379127539,1.45658343311235,1.43059635872632,1.36779845672,1.30692958931009,1.22225021413898,1.11222999868912,1.16080355889107,1.15548939483335,1.27381059783862,1.56246000000048,1.4009746258856,1.51754000000048,1.19998835874243,1.06718999951189,1.12785037371985,1.25974442948918,1.25695921344975,1.55478000000048,1.35315557933443,1.52072000000048,1.16392838938186,1.08888918800468,1.10750113585841,1.09811080181735,1.1938846322319,1.25956999949534,1.3018616602834,1.33965181682982,1.34491836774405,1.41265000126186,1.14631787793461,1.10863999821629,1.14691727953822,1.22750592780904,1.23256361185235,1.26118000484863,1.24340160395633,1.24580093975649,1.1434296254725,1.12100614284621,1.11433835540197,1.10430711806149,1.19482993364858,1.37198084693601,1.35680156676388,1.42706000000048,1.29585763787231,1.23751406453973,1.17812632577496,1.09069999910208,1.16107186199133,1.21307480049267,1.18870883775243,1.17197943918668,1.17716117311037,1.17102822382716,1.17499472025042,1.14842883538628,1.20407502537024,1.26345140545803,1.28305060475461,1.34034078829408,1.35459998939643,1.44789000078479,1.36658200830779,1.50116000000048,1.17976980286102,1.11530999980717,1.20811961223288,1.23777098750375,1.27488805966825,1.35917163975972,1.36456694356017,1.39361000089345,1.16191474397288,1.14001379537951,1.14773041891332,1.19795245729876,1.20041125546796,1.21646508717845,1.20160422012181,1.1869213491832,1.19184856159561,1.11331999747807,1.13821654798121,1.12619676637804,1.16873351250652,1.24287926827358,1.24581459695761,1.30771000297474,1.27997101661108,1.39903000000048,1.14792267134762,1.08626999802319,1.13740347126039,1.14621245043704,1.18635412892817,1.18874370647982,1.30683484836384,1.30482368238894,1.30506226566156,1.39147000000048,1.17664168748852,1.17720469132929,1.19283229777065,1.26828525112333,1.27093344774818,1.33010000339836,1.29612527573247,1.16939999999953,1.2688105768631,1.23812999554953,1.32341564547715,1.65724000000048,1.6390052039548,1.65695385912921,1.64956511643207,1.61391320517942,1.59241277185618,1.54619734602127,1.54072003284022,1.48553867220151,1.4982868380775,1.49473476403394,1.52575567849729,1.62043000155362,1.59346412612858,1.61315000130847,1.48744124149569,1.41142136072174,1.41901335063499,1.4171087166402,1.43781349978866,1.44016796839803,1.48556836385522,1.50590171647216,1.50850712798927,1.65815000000048,1.49524150084098,1.50659084530947,1.43738652387312,1.37320887710224,1.38250482044254,1.38444039992067,1.41377399009441,1.42380198375634,1.44947801035825,1.58166000000048,1.46579955041736,1.49716880339969,1.49060148757898,1.55054000150518,1.50410343235959,1.60067000000048,1.50768096983201,1.47793417020383,1.48026759146526,1.45789999758009,1.65837252744157,1.70627000000048,1.51285198291601,1.51203154410712,1.47382866985046
1.50817092280927,1.50597523247091,1.28518714007264,1.25212855911458,1.25075578122687,1.28020844760992,1.29977880337959,1.35747521348797,1.38728162868541,1.40996239830921,1.45475814192942,1.44462106468053,1.3642125006825,1.33318916045942,1.21141489707978,1.18552102045771,1.19421785593657,1.24665015249573,1.30815942200732,1.40042186141534,1.40067875755936,1.30148989908551,1.19786368772968,1.12606339707719,1.13011367332722,1.21758372782207,1.25339502155255,1.29824118141605,1.29636820463172,1.29340606270003,1.16333564069779,1.10378601386537,1.11526000164307,1.1288100992628,1.19498889747234,1.27880539494591,1.30774079554017,1.34426795323842,1.34978682393104,1.35351963684417,1.14708683980886,1.13498963741742,1.14629132261845,1.18322660992132,1.19041807641597,1.20291164265505,1.21560028534192,1.22831360509476,1.13699418853729,1.11412046566046,1.11075873310097,1.10786018353995,1.19337624285874,1.35671634397703,1.34729685747524,1.33855618176855,1.30114766180407,1.21601107615983,1.1833805841926,1.15534311375636,1.16664855588545,1.19601188352164,1.1916338413924,1.18874446013805,1.18398701230788,1.17306641945448,1.17482785878799,1.1754542740374,1.19498603941617,1.23410195272585,1.2757833684439,1.27693616697912,1.28341356893893,1.28445923817935,1.2850717485317,1.28577323117952,1.18184226257256,1.1793199272632,1.2042650883098,1.25031618169619,1.27131482207741,1.31636534927411,1.29744791212682,1.2683151590554,1.16278696722083,1.14987326189906,1.14841113506017,1.19641892548133,1.19719415974167,1.19707710922617,1.1999067322754,1.1977988461485,1.19537823623165,1.18337807617997,1.15401688563148,1.15460191977532,1.16289122685378,1.20237739271118,1.23090560154793,1.26302361264481,1.25728616553526,1.25460405447073,1.15223174820911,1.14281333191033,1.14250031334138,1.14444400169062,1.18361021701072,1.242226704759,1.30527806397863,1.30409988882223,1.30452713324007,1.31278719763317,1.17379260044933,1.17510093589743,1.19184054858419,1.27013498826938,1.27472727655162,1.29570006825774,1.29560884328699,1.28687544366527,1.27688761977908,1.27620049212172,1.30466034952407,1.34809307951022,1.44214889894142,1.64651906096152,1.64756783254138,1.63404592227183,1.57871596625885,1.54272352389601,1.54176773690684,1.54196116576949,1.54220898472232,1.5529086453481,1.55818987088736,1.58530057784149,1.58601548302042,1.54629358859089,1.48803734293614,1.41684274951627,1.41780054880105,1.44634542492292,1.46000328240603,1.47105454962709,1.48686464340517,1.4872455273655,1.4871215306678,1.48546374497522,1.4839945563579,1.47157986428981,1.43857390706875,1.37651255279633,1.38038758570719,1.38235401950248,1.41000972433133,1.41309829661056,1.44427255236319,1.44529695019579,1.45458758427723,1.48213130136802,1.48580556910076,1.48742062511423,1.48841945718691,1.48849134457578,1.48828168506515,1.48522380597014,1.48262495415238,1.47626026246533,1.65726574142357,1.65738043622438,1.50096533654697,1.49785195132962,1.46816069610537
1.52784264267204,1.53510022625818,1.29265018377644,1.25269859807259,1.25121821363479,1.26415780962058,1.29762840511126,1.32237302775182,1.33142531211991,1.32258784832649,1.46418923388884,1.48833145716205,1.36022632195378,1.35604440938381,1.20165854734384,1.16686981882649,1.20117627113245,1.54803000000048,1.3840422328968,1.40360963129016,1.40064273449774,1.24791999973319,1.19569908510801,1.09139999897007,1.13312010812492,1.19266000171578,1.24938356039329,1.30013077103959,1.2975704806356,1.29062375220809,1.16281771896244,1.07331999824359,1.12267449563733,1.15247891865317,1.19580065992995,1.33255246855065,1.31508278901714,1.40942000033303,1.3535056329494,1.36134224843768,1.14860849552131,1.11185662614396,1.14547119832661,1.17593697255534,1.17805190029021,1.17812450174474,1.19489501298062,1.32690000000048,1.12983129784225,1.09171026271565,1.10248454613605,1.09522836167283,1.19069274583776,1.36576048329433,1.33849020528085,1.32334382353707,1.30807855519411,1.19991628717586,1.18844300500169,1.11336999824767,1.16824312263359,1.20137676174972,1.2101497199442,1.42672000000048,1.20104132172156,1.15244866655119,1.17542454175485,1.17585993855416,1.18325655562747,1.18135131466719,1.26955564890068,1.27483198021418,1.28412345355706,1.28643274395243,1.28572730797904,1.28669425367735,1.18475577294147,1.12225999941058,1.20156775220802,1.26531659018539,1.26810983568264,1.45900000000048,1.27510718008175,1.23328929503854,1.16389672922757,1.15282063301571,1.14934893859268,1.1944899344858,1.19548848686375,1.19434761028974,1.20326581368199,1.2062366897284,1.20833446238668,1.20917224070115,1.15538702724565,1.15660839116837,1.15728988957993,1.11470999889734,1.22417135204792,1.27100560452034,1.25487874220187,1.25184057625704,1.1515276539975,1.14320421138771,1.14234529026773,1.13025491528378,1.18051073153197,1.37748999998905,1.30371905553527,1.30120378895713,1.30336366881813,1.31669210648578,1.17057855810159,1.14716999758796,1.19152784579562,1.29009442089901,1.28048801603338,1.29647998892445,1.29794228244847,1.31679405255293,1.27657180978584,1.2753439082441,1.28795168062166,1.29139678467186,1.41195540678817,1.6459971639667,1.64669893781138,1.67500000204071,1.56466719949565,1.5403843516306,1.54139952426676,1.54215782456229,1.54226532191196,1.56664682522049,1.57902998598813,1.58397663863592,1.58593914655607,1.51602999664127,1.48769051234702,1.41627319031486,1.4183795157025,1.49700246929968,1.47544311557196,1.50880273838946,1.48626113268028,1.49009110450637,1.48558598678019,1.48627927373739,1.48260407248127,1.45738181928273,1.43771054603206,1.36308287422079,1.35776194198526,1.33726297165774,1.40061737133793,1.38357531692359,1.43889676010315,1.43847108950192,1.44802303602359,1.47413382367206,1.44953847086757,1.41846501734322,1.43457508227081,1.41757999714569,1.49145818072864,1.70519000000048,1.50719571127551,1.45821999871899,1.65594218515934,1.68593000000048,1.49710317361972,1.49091825569892,1.46156359272782
1.48871268600449,1.49490014601057,1.29901699028871,1.25146132239658,1.25016607955842,1.26815812855083,1.29530899221719,1.30612199290396,1.33676159072527,1.39725304801148,1.4724688772816,1.47850459881144,1.33526590563585,1.25378580142314,1.1909653257751,1.18117152321002,1.20924001367627,1.3293331506278,1.37986535507293,1.40129541325809,1.40059559642015,1.29774419671063,1.19406448055722,1.1369677915937,1.13725272652362,1.17115348456682,1.24359348168827,1.29823127775477,1.29635830106299,1.29339615905441,1.1624079961981,1.10840964064977,1.13241648349011,1.14943277963118,1.19636452237324,1.26673435584018,1.28349741247756,1.29190633025404,1.28612641232179,1.23760740262967,1.15059059891025,1.12794773801938,1.13962070897774,1.16173990579159,1.17964238843017,1.1799008612049,1.18109814989546,1.15448699842303,1.12353511239789,1.11069325031507,1.11646663831769,1.16033684118575,1.18764693670824,1.30106208875024,1.31751391472644,1.32052656574435,1.31597715866876,1.25000931840366,1.19295121394011,1.16810554126738,1.17056891579625,1.19474719281031,1.23063672352121,1.27091863948397,1.21479621599933,1.17152875984308,1.17548747636691,1.18039616938818,1.18546228412054,1.2318155610147,1.26573092021156,1.27662080073953,1.28401810137309,1.28502838510828,1.28508067140955,1.24983672390956,1.18798016575578,1.19026813320246,1.19980245236848,1.22349206803441,1.23537379141026,1.23599015151223,1.23582611018507,1.23475401176477,1.16490246600001,1.14982236838491,1.14849830679342,1.1825464445252,1.18783726756022,1.19950254694437,1.20427770455134,1.20647330778067,1.20924809933672,1.20993354087125,1.15663801923008,1.15705326214689,1.15830366394596,1.19832588215614,1.22192016883645,1.22387562862226,1.23310690877044,1.24241339407399,1.15075360795236,1.14186979235309,1.14163051124055,1.14122743964814,1.17716997329234,1.23846856223448,1.25563105003099,1.26845144694013,1.25656038026072,1.23758996465904,1.16827787139158,1.16735024799231,1.18753176400602,1.23023282732563,1.27140676194153,1.29777029046261,1.29941247112284,1.30110631919215,1.27700998993909,1.27665474751402,1.28413604393163,1.32887371686796,1.39297735610653,1.64292799301283,1.63964525694619,1.63315049862003,1.55132182814156,1.54100925978404,1.54157583401511,1.54206238459713,1.542414902465,1.54808154010214,1.58603094163326,1.58576216947139,1.58680136166814,1.54486677468693,1.48669125663516,1.41704868186756,1.42020722501302,1.45102366318005,1.46573782556195,1.47060346036755,1.48566339097448,1.48555687433927,1.48458293064007,1.48339971927531,1.48082757879886,1.45088957192176,1.43477710478495,1.35738260182244,1.35358465899553,1.34580072976916,1.40899737554082,1.41061368352754,1.4353796509578,1.43107531515731,1.42743733938111,1.42476538020273,1.42272540405444,1.42075110366057,1.4521034012525,1.47146895900861,1.49511664938568,1.50560962743858,1.50914149072816,1.55419224986282,1.65412279171755,1.65399664486826,1.49813129326417,1.40862663608294,1.37883841728504
1.48494815719872,1.52596000119745,1.30741920327029,1.23724247425042,1.24818656414758,1.27166310443015,1.29285873118556,1.2971455336548,1.34276964458943,1.59415000000048,1.50880259092541,1.5091494741936,1.32667731615324,1.14276999812013,1.15725109916332,1.15045521765499,1.21497478941245,1.29851014128795,1.37145748394377,1.49671000000048,1.39964626248031,1.3415844537904,1.19344577555891,1.11967999405125,1.1415261727523,1.1623073777026,1.23628931848922,1.46510000000048,1.3767518056635,1.4413200006436,1.16216629171333,1.08391999765101,1.14009953370058,1.14635481154966,1.19676291028333,1.24958287065116,1.28289076347688,1.31205479303215,1.2802566271445,1.18559999930194,1.15280954547434,1.08608999766193,1.11768911096959,1.08963999775748,1.1802352174396,1.21370000444275,1.18125352438097,1.10877489305375,1.11170529544427,1.07081999763693,1.1258937217357,1.18907829304249,1.18523364603175,1.27864509346898,1.31402198448921,1.33760282148623,1.32101149716518,1.35210000133744,1.19776066483879,1.16361936010218,1.17788415766885,1.18837536542816,1.24907970874189,1.33079000171447,1.22815710384254,1.1679068621798,1.17910055943643,1.19425142058144,1.18801060041308,1.26071000201601,1.26187671059425,1.42663000210062,1.40440191402331,1.59397000000048,1.3375736775648,1.18601085552668,1.18912240539049,1.19257824500207,1.19775598193161,1.20235979169062,1.23458122167598,1.23672658501062,1.23638386208644,1.28185000284076,1.15650551851399,1.10263792490022,1.11823472158825,1.12095981301109,1.18094126700614,1.42372000000048,1.27476603498459,1.23469000233855,1.21159554428107,1.2139085720104,1.15847857803431,1.15718775145734,1.16134712539632,1.21700235375943,1.22192651165356,1.16387999702237,1.2278326254775,1.43995000000048,1.14985617310657,1.14037338483356,1.14069455844748,1.14083168953758,1.17347236580604,1.21193000002767,1.24054770287128,1.40854000000048,1.23807247222181,1.20319000176086,1.16771225536691,1.11426999792422,1.1367023836515,1.13907846792678,1.26155087199589,1.38131000000048,1.3010731888742,1.30314483708447,1.25299436686736,1.1875599976596,1.26348856496897,1.36436999999822,1.37805996517032,1.65494939793946,1.63615617817687,1.62354076255788,1.53917314382673,1.50477134864868,1.50010217690775,1.43611999910319,1.53408318637288,1.52891033165716,1.58861578456526,1.62506000289508,1.5897504976319,1.59922511786299,1.48539611483324,1.35050000004709,1.42286117371939,1.43504627224829,1.45850494988774,1.46092489536557,1.48360243265407,1.50075831663054,1.48128579535445,1.48093461100167,1.47814349064412,1.42980984919686,1.43034659491083,1.2918751902312,1.29509419811791,1.28964036217685,1.40915597301031,1.48957000319347,1.44233377726917,1.3867099960819,1.41395581451632,1.41499602602866,1.41338387053893,1.33630999999792,1.46632329880311,1.50453989643441,1.49921148414147,1.49841567043105,1.5174831087559,1.64670939379694,1.65120780948002,1.66549000045634,1.49848046097893,1.27382999784421,1.29604527822667
1.48127472165138,1.48203492908518,1.31697978680098,1.24340688607819,1.24658238915357,1.25734988070167,1.29029319712405,1.33436571837044,1.34894574517945,1.50736369872096,1.50846901759786,1.50977580951669,1.31683050455319,1.1714161942623,1.16735126083129,1.16185361013322,1.21979153263843,1.29870278534375,1.3643467178188,1.40019513752727,1.39869787784092,1.338364240681,1.19421801877911,1.13413443995848,1.14584750835551,1.15866553263874,1.2282767146397,1.29432366662747,1.3569341996239,1.37674990593465,1.1620926825589,1.12362208908361,1.15012940573609,1.15766051922047,1.19712821333758,1.239811565968,1.27914304962678,1.27934627938891,1.27733522236278,1.21951477238459,1.15399400434354,1.13162475843202,1.13116021066963,1.15686225023081,1.18024772142917,1.1799732990789,1.18055768255181,1.11494123006817,1.11440003799958,1.11540826088006,1.13662485837215,1.17241054296581,1.18014353968975,1.29416945569655,1.30937387328704,1.31037756616502,1.31141038268834,1.26082818975792,1.20233365703146,1.19892274359056,1.21782144981914,1.23479669824236,1.26456617410478,1.28475957744355,1.24192873684517,1.1860243820647,1.18260598235204,1.18347385217521,1.18497958167251,1.23071323564439,1.25785091701099,1.35610848991452,1.38603719043155,1.41858999065068,1.37007575372225,1.25244334409763,1.19028337026258,1.19264076890587,1.1954927523145,1.21793994154915,1.23334404589928,1.23482999400174,1.21174459872308,1.18408519860372,1.14534104232898,1.11295490421618,1.11502282733067,1.12909719039638,1.17383321931663,1.34462381952767,1.30901365030538,1.27496304876258,1.19418563991888,1.19123852660301,1.16137605920653,1.16567488138191,1.16464392717106,1.19462527914318,1.22669184341853,1.22731786638372,1.22776685336586,1.20406972449165,1.14861316040411,1.14728169800087,1.14055251716867,1.14005425913287,1.16975200913598,1.17722156697451,1.174988870268,1.17443320520335,1.17510564594197,1.17667628108888,1.16820142805729,1.13488670305945,1.13483589582239,1.1603250725318,1.25023242394468,1.27658385149871,1.27759467250295,1.24722545495954,1.23508981990956,1.21848342345376,1.24708195974049,1.28356429296991,1.3325235983882,1.63945059304123,1.63307176878867,1.62537605665429,1.52744893659127,1.50630019833431,1.49575965326176,1.48884073712486,1.5382810572721,1.55475082851067,1.59016353623629,1.59095589231188,1.57369708331598,1.56435307753488,1.48420125833016,1.44324328793728,1.42559031445177,1.42987085805213,1.44855651261399,1.46802965180851,1.48189127114005,1.49372246312492,1.4793833117717,1.47908190070505,1.47366369702393,1.45053692965846,1.4261538012081,1.29964532883737,1.2987928417118,1.30001510280997,1.40944894409605,1.46935400139901,1.4539203940084,1.43573969851538,1.41262732192536,1.4131827267081,1.41197562380756,1.4475344391502,1.47820996171386,1.50042342410669,1.4992346986556,1.52195085089112,1.52733392477628,1.63308254098289,1.62165357713788,1.61008197600183,1.49896733733906,1.34005950883815,1.30526083842455
1.47945483632412,1.5108800009991,1.32660116664011,1.22060936904743,1.23675771392835,1.21580999702209,1.2877411203846,1.36441776211988,1.36472110613992,1.50660422984835,1.50745425896818,1.51221447234936,1.30591003359129,1.18272042645681,1.17139940004112,1.1541631300318,1.22552636993525,1.29873555297839,1.36176336718525,1.41213000367533,1.39588781452593,1.33515245597746,1.1966309883797,1.11503999817943,1.15014401666301,1.154850692136,1.22122537612499,1.24399738408963,1.35045536962462,1.49385000000048,1.16298212710009,1.09550999810034,1.15592357401015,1.17757599032385,1.19760558090458,1.22582746237526,1.2777591134619,1.28090291188179,1.27444945228356,1.25660784494519,1.14943527821793,1.13246308362683,1.13118104471277,1.18142657698171,1.18035406332964,1.17845426569137,1.18008193656917,1.11543764663685,1.11544957872011,1.11648073004209,1.14364891039502,1.15823979735974,1.17731324745336,1.30268954325395,1.30938054812997,1.31040551393828,1.31173753737105,1.21100149850693,1.2067140278157,1.17379999685599,1.23426981949568,1.25119000074753,1.27369998021434,1.35482000154823,1.25501416911667,1.19049188939265,1.16948813080526,1.14482883687312,1.17877313027154,1.17882219460249,1.25374843851665,1.32226074510629,1.37311335734599,1.51541000010928,1.44450141503317,1.50706000059361,1.17696584370314,1.14524356535252,1.17674307348479,1.22854472732006,1.23074293281246,1.30020000044537,1.18587393638454,1.1094048505246,1.11140330220151,1.11185374316821,1.11391714481712,1.1364980467086,1.16704033047216,1.44467000000048,1.3405813953912,1.40586000042225,1.18819784413673,1.13063840074686,1.16078517302625,1.17163486210406,1.16740596712837,1.18219777607283,1.23032131515869,1.2725600041659,1.22804338370764,1.13373999899762,1.14886202296401,1.22294000401363,1.14212385075586,1.10537999768692,1.16437537711458,1.18024446294539,1.17110639090669,1.15972216142611,1.17418698303728,1.18002711081131,1.16603920340708,1.13541501916657,1.13361895002538,1.18119858656503,1.23715083403817,1.27438717119673,1.27710817238999,1.17180026550165,1.17190377863848,1.15987999700786,1.20088538886337,1.21646593439597,1.30100946646288,1.64914796801652,1.63008707767536,1.62749373395921,1.51572978535517,1.50858999475409,1.49100409125157,1.47515888904437,1.54110532376334,1.60651113132807,1.59209119395986,1.61023000702189,1.57000247204169,1.54874999387385,1.48374557011688,1.45155812720852,1.4234905991429,1.35776999896475,1.44140614190689,1.47712830428533,1.47996210733364,1.50236120515228,1.47811517110946,1.47750933585498,1.46811982493637,1.46020782085944,1.4225876192658,1.30048784843591,1.3001814122969,1.30141057601179,1.41013180760256,1.57119000000048,1.47168445711243,1.50560000202994,1.41067170789974,1.37824999517295,1.40971033416262,1.49580957200488,1.49470738563834,1.49861778578037,1.49809049165391,1.55127524407792,1.53790998297055,1.64165135357431,1.61014727102102,1.58925381456189,1.4992727546278,1.37522000141224,1.30518332502287
1.47623515086811,1.47787385685961,1.33497783921094,1.26394905824247,1.24699085815549,1.24722489854634,1.28513550284144,1.34166834331052,1.36517674879367,1.50354435415483,1.50550799019899,1.50854037690688,1.29458061777235,1.20682277002467,1.17695384063317,1.17237976426306,1.23327886002494,1.31310263923823,1.36004606842579,1.39444821156137,1.39319120661518,1.35845205436841,1.20058430991899,1.20286338058397,1.20372098471576,1.20445135806041,1.21606778753102,1.25664790903222,1.34944560975489,1.35048596563614,1.16554070641308,1.16806303595927,1.16966019093217,1.17359588603135,1.19831427202251,1.24774033587152,1.27495109415248,1.27848592372967,1.27016724946675,1.25363734918835,1.1444243858009,1.13108923798989,1.1306011125388,1.1621543708832,1.18048235091999,1.18010086367857,1.1803806011216,1.1388050949024,1.14348445790996,1.14671563462948,1.14932738582406,1.16768156077032,1.17686328197803,1.30540342181507,1.30818470579941,1.31024179483781,1.31230070004021,1.25009828575945,1.24405314906385,1.24397335803242,1.24444953997685,1.27109216593653,1.28324947939046,1.31115662710946,1.26678989098357,1.17472626078323,1.16455735932997,1.15371532586574,1.17902105751697,1.20304558065018,1.24950262631029,1.33389682020455,1.36150919181648,1.41154503907865,1.42448514701137,1.43984104338145,1.16794868560194,1.13448778087172,1.12631901857645,1.12052758503321,1.11651477196148,1.11472733865951,1.11493726488418,1.11395876109306,1.11230661262624,1.11266537672735,1.11317660115228,1.12396292409678,1.16125862356298,1.26801851370559,1.30267772665696,1.33659771754264,1.18335431781831,1.14502407471152,1.15780228249805,1.16425363834232,1.16625381095422,1.18443041095296,1.23265800252132,1.24889723930953,1.23535105442196,1.22047286187416,1.14886854631022,1.14766300710958,1.14534457585055,1.15024770774401,1.15473812458201,1.15833179299459,1.15979053883768,1.16055192203245,1.1711104865544,1.1745480605166,1.16136399102176,1.13308672728175,1.13152988411448,1.15924879266671,1.2226378964481,1.27688230165517,1.27789208917355,1.24068239735513,1.17286036818782,1.17402491843666,1.19176371231584,1.20072259752348,1.27199947767327,1.51749361195991,1.51738915738929,1.5172186806555,1.5087327009928,1.50387684275491,1.48624567488712,1.4809223518541,1.54250903060478,1.5666664647134,1.56690209401159,1.56690364247926,1.56618961069943,1.54285422415092,1.48470441022445,1.46889793544593,1.42178850611901,1.42163079840838,1.43285159732722,1.44291257050849,1.4487864433602,1.45346053754398,1.44450454316478,1.44025787332108,1.43860877416505,1.43761982075315,1.42039559023558,1.41970394685593,1.41581268115822,1.41318824734698,1.41147130724681,1.4114805096624,1.41107038590916,1.41006691905572,1.40890193727037,1.3978409917508,1.40807874049777,1.48988470560591,1.4930032287009,1.49529031521476,1.49662225522209,1.51164813699732,1.51856401792869,1.52732078688233,1.5765459181778,1.57523279617908,1.49907810586993,1.3315601102134,1.30460743285194
1.47020649046579,1.49346000102176,1.34159007501767,1.28472438931218,1.24709939686229,1.24772646007939,1.28241516061178,1.32634000026241,1.36628765409864,1.50019698431877,1.50242663219016,1.54954000111606,1.28684791897329,1.23923000542272,1.18140309429954,1.16733040643706,1.24247605729171,1.32501104715607,1.35748237863884,1.48163000000048,1.38896340306816,1.38487053402763,1.20305099534389,1.2050237794269,1.20443419479007,1.20556090350777,1.21141833097568,1.26908270357049,1.34689532408459,1.39042000082753,1.16575764073636,1.16886202878451,1.16717546461152,1.16225814303195,1.19933461316621,1.25947378473646,1.27093461924994,1.40097000000048,1.26584389326378,1.24971871191841,1.13031874406185,1.05946999768812,1.0725634401541,1.07813754943366,1.18742701122717,1.23069156036818,1.18256181990751,1.12950256514081,1.14984756495331,1.15646102993463,1.15266824807789,1.18067646344632,1.17830725920483,1.36781000259177,1.32991778637009,1.43034000012931,1.31416182735265,1.25454771711557,1.24360839847989,1.24324232777211,1.24470010591796,1.3150676350441,1.31523670222685,1.41432000000048,1.27718302403396,1.15177044036099,1.15998710946018,1.14710929044903,1.17993568513931,1.23898000356428,1.24490130771785,1.34442691269683,1.35158747229412,1.39544999740686,1.41343218527733,1.46107000237836,1.16113300451731,1.11719558795951,1.11459858621444,1.09771999698737,1.11344800604961,1.11484365357069,1.11696079756593,1.12135192025957,1.1011878807381,1.06396999649772,1.09624965425072,1.09846897791548,1.15704486216097,1.23196168615717,1.26801902777736,1.41890000000048,1.17790661281468,1.05368999987751,1.13267833660145,1.14148210609973,1.1650599587654,1.18654545421222,1.23329999117149,1.44393000000048,1.33479021666183,1.45127000000048,1.15033309273877,1.11971999712095,1.14478498441073,1.20519000474372,1.15430805842736,1.12526999652519,1.16037860061942,1.16139447539146,1.16618508839077,1.21234000550956,1.15352609929747,1.12903177550976,1.12917890800404,1.15122468371193,1.20773341094477,1.33670619818215,1.33814674751527,1.38449000135533,1.17340541600416,1.17626455648978,1.17396887317064,1.17380229345601,1.24526689301381,1.51735196729963,1.51726460824879,1.51693915786764,1.47949493376073,1.43724579401177,1.43469113830249,1.43104361008227,1.54250029547188,1.56603168252613,1.56695728376272,1.56774993567433,1.56441481700001,1.51594448658375,1.48635747865864,1.48876531431109,1.42104326811192,1.40310963368978,1.42508508579137,1.42924227125348,1.4452203032417,1.46683272304637,1.44212965413814,1.42930110072362,1.4270873074904,1.41772355409825,1.42037376633485,1.4242244657406,1.44970585349366,1.55455000024732,1.43716333831274,1.3954931149806,1.40321073178767,1.40411118918298,1.40612150244554,1.30746000000663,1.40707444349288,1.48640120550493,1.48239862112109,1.4793269599724,1.46133791735928,1.41197168909627,1.41060491022258,1.41041278824046,1.5747911684713,1.57157187937731,1.49817048880083,1.22096186784991,1.21620983031004
1.45674288309314,1.45688169100396,1.34817990754751,1.26339881761345,1.24690614828696,1.24714201411415,1.27969532851574,1.29963985397996,1.36925041110574,1.49401119039343,1.48673510467757,1.48299488930519,1.27874613613833,1.21202422719081,1.19838703612578,1.19923595134612,1.25211528830161,1.32222187657466,1.35432828300702,1.35985726029004,1.35926282949539,1.33754888339171,1.20361795150712,1.20419337159097,1.20398335415954,1.20383806145653,1.20845004823176,1.29607659871626,1.33697323214693,1.33778285547441,1.16383454001835,1.16625081143474,1.16629373559673,1.16463413474934,1.20071244185647,1.26254448857481,1.26602364014887,1.26433420092907,1.26218350567817,1.16171560596027,1.11628151207146,1.06671233964764,1.06773939151043,1.1587758726116,1.19611625011943,1.20371516249547,1.18833276715455,1.1779025308774,1.16622254956082,1.15329961404401,1.15129204709465,1.16675042217703,1.17326830610578,1.30065433275741,1.31084412219202,1.36001057234653,1.31464030176002,1.25064699229675,1.24406509955751,1.24437373061864,1.24488205106932,1.29168077945201,1.31389585864338,1.31243080009843,1.28698268723876,1.24750130651381,1.16852239074388,1.16702436985505,1.18113852540985,1.20547798945508,1.23982055639631,1.29422163877576,1.33689731828366,1.36199040120035,1.33918158297287,1.1919371151173,1.14903125214291,1.11458720089011,1.11281426203504,1.11232084636744,1.11301976438849,1.11444248458809,1.11619925376737,1.11840146003015,1.09606025905687,1.08469915414551,1.09390215818737,1.09515253163415,1.15380769799598,1.22318821893664,1.20912833457834,1.18867372592299,1.17099647773061,1.1163936584614,1.1259903948527,1.1452565759258,1.16319618069098,1.21071965533505,1.23286767448543,1.2872428571602,1.28789875386193,1.2886360939538,1.15180409324568,1.14318192561457,1.14529268414938,1.14907561540268,1.15216968852154,1.15557887889117,1.16011142433948,1.16097771786059,1.16281065916204,1.15856425162835,1.14561130060906,1.12848834827578,1.12844091224012,1.16381994901079,1.19408609148231,1.3379544595064,1.3395961749526,1.36504872295806,1.17261666148779,1.17342702348813,1.17314647068345,1.17301526098787,1.22021650207395,1.28082615542382,1.31695423765258,1.4816896254405,1.47508795706534,1.43548644791533,1.43447334256262,1.47963150212715,1.54103165413573,1.54375563837178,1.54790086773869,1.5619991808354,1.55745661973262,1.5347411015816,1.47751536972184,1.44708450266958,1.42024116913911,1.41551300151264,1.42273234014726,1.42587135383439,1.44189122307215,1.44789454545413,1.44026341227238,1.42607909635212,1.42493049767305,1.41993990667987,1.41992300935682,1.44611513405133,1.46698503863271,1.48525352438594,1.4511349496006,1.3999155103257,1.40191259635272,1.40313053528828,1.40564648054964,1.40593414038038,1.40655464786641,1.44157501143848,1.45294470504199,1.46323589407589,1.45367470629259,1.41060466628988,1.41028737007391,1.40981596857367,1.57389892079631,1.57361029898477,1.49662987442235,1.28635885708436,1.21149986493503
