2.28514464389777,2.28551400454398,2.28603949028427,2.28667342579072,2.28717176331856,2.28751706790995,2.28775453973689,2.2883144468045,2.28904712915944,2.28975783569583,2.2896344233969,2.2896817591227,2.29010899447372,2.29031746154023,2.29051866732245,2.29007033865844,2.28955693043811,2.28926697383212,2.28936539786317,2.28943058707802,2.28938968646689,2.28966858690703,2.2898830400378,2.29017076339004,2.29029857905231,2.29020327330803,2.29033147272054,2.29054954311233,2.29090754939756,2.29138149937266,2.29162710208933,2.29189684528526,2.29224533854169,2.29264597520826,2.29290587123615,2.29300657536803,2.29318621179461,2.29350107460039,2.29399127242557,2.29432624024151,2.29443278408615,2.29434875944501,2.29470614768817,2.29525195082981,2.29559140886591,2.29562742472275,2.2956555886584,2.29602334198917,2.29647653754691,2.29677081846351,2.29687387929196,2.29710567781043,2.2976612149651,2.29820444016784,2.29846764114724,2.29857952821606,2.29841822399069,2.29874813915889,2.29921700742012,2.29956811962992,2.29977973706102,2.30006507310872,2.30053623938415,2.30106059605622,2.30139691423487,2.30148803741869,2.30165660972177,2.30184506491864,2.30241689502021,2.30282181626915,2.30301568802565,2.30307558564583,2.30331476816311,2.30397053256308,2.30448801839353,2.30474366201574,2.30499518377933,2.3056282466464,2.30619614840896,2.30667455593218,2.30698889746067,2.3073079495566,2.30759324219798,2.30783750452074,2.3081656506263,2.30841672830996,2.30898155636446,2.3093510788985,2.30992119169684,2.31039884273933,2.31065960064478,2.31097395529893,2.3116066853953,2.31209915864595,2.31256163824783,2.31295631632507,2.31340746905578,2.31401401410863,2.31472215223512,2.3151767560787,2.31535292799331,2.31639245706751,2.31740099560791,2.31776700873398,2.3187650561813,2.31960630776207,2.32098420222619,2.32192679110445,2.32314878124325,2.32339371318942,2.32355875684434,2.3242597751442,2.34616945282099,2.35238801359327,2.35660185836425,2.36582429037554,2.37836895061797,2.38889207894154,2.39257231042843,2.39919727637319,2.4066102038771,2.42351448705099,2.42380604860953,2.42455973671139,2.42509448476497,2.42463764875825,2.42454021360728,2.4246528239461,2.42478977060375,2.42516951981912,2.42678384744922,2.40434706964529,2.40139617509476,2.39341194425196,2.38082072453787,2.37223910650246,2.36222837510197,2.35202976449857,2.33200369976906,2.33157896191877,2.33134723661004,2.33151550177955,2.33345309640727,2.33350387585486,2.33337201021879,2.33302896844356,2.33272438368572,2.33236274921292,2.33225860530743,2.33231247486389,2.33258916869365,2.33274608490595,2.33338543768624,2.33360901324152,2.3337777702371,2.33406272710392,2.33388951349093,2.33416687559066,2.33477991288246,2.33507335241329,2.33552999646733,2.33712806128658,2.33768218075926,2.33771984485815,2.33747858491164,2.3374194312488,2.33745068193155,2.33775791835476,2.33860673917226,2.3392074716618,2.33960918267271,2.34032290478708,2.34118594211878,2.342118933067,2.34305503877614,2.34419381822495
2.28506482710915,2.28569091667823,2.28659160258919,2.28719559333742,2.28770823128781,2.28801690511381,2.2880261427526,2.28849360535875,2.28927500661485,2.29008209957171,2.28976059719804,2.28999293300147,2.29070099079483,2.29055349319935,2.29077124274711,2.29050632282906,2.28986165011634,2.28969805613633,2.28910081454953,2.28899804711517,2.28848779206415,2.28984563556563,2.28967611265092,2.2897109373826,2.28980437132309,2.28972623650742,2.29014107230043,2.29046003735522,2.29041331646862,2.29098877000546,2.29121699504766,2.29142656191243,2.29198238139086,2.29217586735504,2.29243628290578,2.29261346669874,2.29297750040096,2.29310469634751,2.29383990502602,2.29410025574854,2.29437829155816,2.2939335053083,2.29418804416109,2.2950787312491,2.29513652256697,2.29504304846121,2.29544568904966,2.29576991471614,2.29631277353101,2.2964162793772,2.29648253270372,2.29672593967809,2.29753853297651,2.29793653823815,2.29797318817707,2.29828833643448,2.29787676535012,2.29827390481352,2.29906481124262,2.29905159373909,2.29907621492161,2.29972472093142,2.30005738889052,2.30039372955379,2.30069630301119,2.30073150508718,2.30153739068832,2.30152631500375,2.30240137754673,2.30266048293021,2.30307586022723,2.30266711948834,2.30304959009355,2.30359544407433,2.30420052134591,2.30468630071826,2.30434293889186,2.30572822102509,2.30569767087042,2.30631202075673,2.30677659983426,2.30681736117576,2.30756361307799,2.30763246499456,2.30798751908792,2.30820831075702,2.30925805012709,2.30923260240188,2.30950368163531,2.3100998768012,2.31039643307539,2.31054190085656,2.31137696987325,2.31164552999144,2.31253189794122,2.31299879108179,2.31329478847635,2.31404201924514,2.31460131096526,2.31525606986123,2.31506124602352,2.31653486549439,2.31812884993108,2.31716913896785,2.3182735779528,2.3195841973329,2.32123240821258,2.32213467971393,2.32270884709728,2.32296134079441,2.32380087366375,2.32532483701251,2.42262385081583,2.42321891726227,2.42309687473922,2.42263501578797,2.4231373659692,2.42338548368143,2.42452018475832,2.42476437286216,2.42390930626091,2.42674073004412,2.42493850506963,2.42536691497609,2.42432926241823,2.4256610916279,2.42585648234004,2.42722067184355,2.42670773805291,2.424265482709,2.42655820995607,2.42724710488644,2.42453965351498,2.42563757035455,2.42554612004579,2.42504165568998,2.42287934001377,2.42196448419914,2.33124147664843,2.33023828659632,2.32989743020761,2.3299034358011,2.33223402985091,2.3327275520983,2.33277657667506,2.33278607435787,2.3324407973153,2.33239821573703,2.33293691529321,2.33281913554432,2.33274272517861,2.33224431625938,2.33274069279643,2.33391883331133,2.33320584142531,2.33258573938449,2.33254951596236,2.33293433951175,2.33427463038042,2.33434774745619,2.33414003674495,2.33645537504749,2.33672865592638,2.33716755630116,2.33681043738491,2.33664118014621,2.33642996383539,2.33698070704774,2.3382131140704,2.3388177930112,2.33913943205252,2.33949234990607,2.340392562178,2.34183104213002,2.34240298833418,2.34331134367874
2.28560448239613,2.28597521384773,2.28658421879065,2.28745914136751,2.28838965654397,2.28857205315915,2.28903940610301,2.28992807809313,2.29097418825864,2.29076431814477,2.29142914079348,2.2914141058469,2.2919310892001,2.29121787930684,2.29057148605408,2.29000205411955,2.28918209712921,2.28906891929208,2.28873242830206,2.28877594750096,2.28892002137927,2.28897106681092,2.28922792313518,2.28944885879292,2.28941538762563,2.28945853688297,2.28984452223432,2.29036085570398,2.29093075229046,2.29076884326341,2.29064854851876,2.29087159310456,2.29124209531003,2.29156826144357,2.29195797803599,2.2925647794854,2.29213473821928,2.29282794514507,2.29320729870751,2.29365172040284,2.2941399835401,2.29363963454941,2.29343919915174,2.29491466096082,2.29472096873961,2.29491658651569,2.29512125415136,2.29531265719922,2.29558839265948,2.29594248832579,2.29617250588251,2.29617801562769,2.29671552883377,2.29667112423795,2.29710136559508,2.29730803247841,2.29756526631557,2.29797619606549,2.29812499014901,2.29836408552769,2.29836768830445,2.29926143320511,2.29968066290643,2.29994358298864,2.30023458241916,2.30066439793825,2.30125403779176,2.30183142341213,2.30237311512298,2.30211141014964,2.30184889474899,2.30211952826406,2.30324461421718,2.30389440439913,2.30397813106776,2.30418653827497,2.30434680710935,2.30507924115481,2.30600498185431,2.30603059846423,2.30612353785746,2.30647589944778,2.30718792456835,2.30733449955814,2.30785624465003,2.30849094460244,2.30952878402112,2.30891293076042,2.30959539637692,2.31009502005842,2.31093185538918,2.31061285534588,2.31092912591879,2.31202745538188,2.31299163948151,2.31365621704994,2.31364018205034,2.31420474434703,2.31446943648519,2.31523390295269,2.31605354834733,2.31694479185011,2.31938837641488,2.31879334839982,2.31839608506235,2.32070254523873,2.32300525775553,2.41081519548207,2.41311192000923,2.41429469056589,2.42164065775965,2.42235867602321,2.42258782985878,2.42340364231369,2.4234942644459,2.42428860179238,2.42425313032975,2.42417129643018,2.42665090024388,2.42608067765818,2.42674778797223,2.42613475398184,2.42636110819939,2.42594839850081,2.42434452264695,2.4255673378647,2.42673411390337,2.42693770543878,2.42659010897835,2.42448565880136,2.4263766819332,2.42677368399878,2.42748280127242,2.42466003804328,2.42622422142763,2.42745807386576,2.42356817032247,2.42280917076374,2.42314053753154,2.42431588838829,2.42458916752096,2.42590293126159,2.33692867556719,2.33458395929609,2.33296278574466,2.33391123746115,2.33374800719028,2.33415345658664,2.33349379013814,2.33344772267807,2.33292509611212,2.33292054208241,2.33224609479431,2.33224546421575,2.332594171428,2.33223078831139,2.33239316354535,2.33244679441777,2.33303229869433,2.33396833292901,2.33431413725482,2.33467037292743,2.33529858382586,2.33543312281495,2.33589808049314,2.33569340323468,2.33584348767398,2.33764063112577,2.33904523635647,2.33863253627656,2.33873665598399,2.33890376058723,2.33942013380718,2.34009398512469,2.34122126227013,2.34132616161198
2.28570615971162,2.28644326659796,2.28760219833991,2.28869590200239,2.28980509627962,2.2893647360236,2.29045887795227,2.29169733864155,2.29198648538457,2.29130049069832,2.29340082246268,2.37268977451505,2.29414446573311,2.29272159723443,2.29067412967306,2.29088823408662,2.28985700754262,2.28939117569859,2.28902445359942,2.28877215817978,2.28865377532111,2.28922188813889,2.28924285813155,2.28900864042411,2.28913054816152,2.28951715529759,2.28972378335919,2.28997283884906,2.29040643262497,2.29052740945994,2.29047880560697,2.29043761318224,2.29092278347125,2.29147935532401,2.29167177643974,2.29215535607023,2.29182449760544,2.29272985896852,2.29285974511618,2.29316638387537,2.29331128454288,2.29335982095316,2.29400325374186,2.29441211730233,2.29416682809405,2.2939399891877,2.29444091478985,2.29495574764339,2.2957146401183,2.29565155986186,2.29555487788173,2.29592993376033,2.29591369967457,2.29644671341291,2.29672768276145,2.29688633692214,2.29733546597886,2.29732984346529,2.29779373236778,2.29805217806843,2.29823578879799,2.29884702840393,2.2991861832434,2.29967256266568,2.29982315145777,2.30023519081824,2.30064191166992,2.30164428709913,2.30138375566768,2.30162425293975,2.30158155883063,2.30226189517588,2.30246362881047,2.30363974958614,2.30373956843286,2.30383492855327,2.3046478458324,2.30463470999482,2.30524589020333,2.30565582030307,2.30572995482976,2.30595774742617,2.30654455908423,2.30735191752784,2.30781503153718,2.30852011576591,2.30825103153446,2.30836338325129,2.30934788821262,2.30973699414667,2.30996529795781,2.31159836083848,2.31118945958288,2.31238473779833,2.31363395546336,2.31374278715385,2.31450929124468,2.31484079620796,2.31537627348597,2.315371587807,2.31725133708756,2.31827551015466,2.41551314705487,2.41571567610134,2.41768190795258,2.41677994617808,2.41469009732314,2.41239894255037,2.41261485480142,2.41719783740303,2.42061158577712,2.42127799589018,2.42259970435694,2.42322222431445,2.4238001940926,2.42394499671031,2.42406576389243,2.42464810606414,2.42704278540357,2.42687029476287,2.4269700534416,2.42699591390049,2.42667116617003,2.42627793554042,2.42522485719067,2.42600951721633,2.4267927361133,2.42663467003185,2.42660356653041,2.42623540643947,2.42743394555095,2.42789740114267,2.42776524872615,2.42804682448982,2.42799421743308,2.4285104413534,2.42444800612895,2.4237427343563,2.42416833836438,2.42539751903539,2.42533956628424,2.42686778140476,2.428291926587,2.42829702780386,2.38358238706933,2.33492674744304,2.33478951863481,2.33478672701942,2.33366414248883,2.33421468779005,2.33315767012468,2.33335977665354,2.33257519027419,2.33229801958159,2.33238262659852,2.332421172983,2.33232934400279,2.33226864254587,2.33366805147633,2.33385848516615,2.33449445101602,2.33489171707337,2.33475432030792,2.33506769851265,2.33550956498333,2.33556842513504,2.33518662258755,2.33732542530091,2.33706095413082,2.33746528486767,2.33719120878505,2.3378498658034,2.33827581293857,2.33911246335184,2.34069458176361,2.34185672144479
2.28635501069587,2.2873047544372,2.28855411129375,2.29070893297636,2.29184776757543,2.29166071448434,2.29203458426998,2.29371570042221,2.3712785098801,2.37138494136859,2.37188783233713,2.37231314209715,2.37348512943729,2.37435340636141,2.32893322017327,2.29156260857006,2.28992906603097,2.28837011349562,2.28815614335647,2.28865283517112,2.2883857575626,2.29133968851613,2.2889808363952,2.28876633072639,2.28904238382131,2.28939449417461,2.28925198415368,2.28971488428271,2.29035644581846,2.2905229337886,2.29078969782474,2.29065696153483,2.29037577709408,2.290722288216,2.29123343189381,2.29148523772333,2.29239822852021,2.29245731209653,2.29266058212558,2.29286888665842,2.29281275051165,2.29289812629683,2.29310520274472,2.29350561734255,2.29381783728918,2.29384323399995,2.29399083713783,2.29496807246069,2.29637046300492,2.29562612849402,2.29506280565444,2.29548524495402,2.29589347301004,2.29604168048187,2.29651062640873,2.29682994852819,2.29825576093226,2.29757697022714,2.29775588390237,2.29794790492611,2.29804116972159,2.29833417578628,2.29869451656759,2.29918110973918,2.29953523698419,2.29972599917954,2.29988536106188,2.30047060182209,2.30089688424286,2.30144983665535,2.30194021836964,2.30269821623588,2.30254210412212,2.30333991157958,2.30362203191282,2.30404553744445,2.30447269191558,2.30489778736684,2.30509423466362,2.30562911354214,2.30639312783849,2.30576680534963,2.30643689435078,2.30702664765824,2.30745163130585,2.30764939165676,2.30772796293122,2.30859722683514,2.30933132096973,2.30988066299922,2.31062783375497,2.31042186737446,2.31142171610678,2.31338363444597,2.3146684641818,2.31442228862936,2.31485288169612,2.31610843695492,2.31830326661363,2.35993947746138,2.41211832475697,2.41436261439833,2.41545320146594,2.41585737101134,2.41688976062639,2.41554576466562,2.41675316640649,2.41791709954473,2.42046005732582,2.42065959748513,2.42113491264497,2.42099577463531,2.42187922916316,2.42325122020751,2.42466359022829,2.42415658804203,2.42390052805092,2.42427219910466,2.42592809234643,2.42741221761783,2.42684825182986,2.42714231874113,2.4273264108153,2.42724716776077,2.42587301132067,2.42382179553432,2.42668959963637,2.42721173429522,2.42795811429241,2.42856848428801,2.42851103754861,2.42836138868737,2.4281891084388,2.42865600963138,2.42937477376577,2.42867760460847,2.42693410268156,2.42558643914324,2.42595587377096,2.42723798062684,2.426889093667,2.42684578126122,2.42846355781026,2.42781515355624,2.42837066085152,2.42875230235183,2.33685186641547,2.33543139692561,2.33518801936092,2.33537258390018,2.33458283986434,2.33477268097157,2.33317062122702,2.33262984230274,2.33224019398406,2.33182167221089,2.33206431043214,2.33247118696203,2.33257566939111,2.33305418774004,2.33299160614733,2.33326246193187,2.33387421442624,2.33633391012291,2.33508035788262,2.33429900245918,2.33523761281086,2.33660009399088,2.33641767211442,2.33676065275819,2.33660692137815,2.33727910623384,2.33818879053758,2.33931390790107,2.34012185084598,2.34033337623701
2.28722847104332,2.28835471068126,2.29015581979922,2.29194696290786,2.29319802485537,2.29308656045056,2.2926129967432,2.33491784054346,2.37200239537452,2.37104546597528,2.37105822188003,2.37174492490111,2.37303327082579,2.37418137153064,2.35341877397825,2.32959307327517,2.28778765967429,2.28805741785736,2.28877308890888,2.28887507605589,2.28861720356292,2.28903646529725,2.2886049280806,2.28862993313119,2.28886067204523,2.28903599835181,2.28915768698592,2.28949944887001,2.28995754904692,2.29021174587166,2.29029367272072,2.29022150022575,2.29035680938211,2.29058110897275,2.29098500660626,2.29115793149753,2.29152664324986,2.29184445782282,2.29227465489842,2.29256763548264,2.29268996317426,2.29277403170983,2.29289995757142,2.2933063702482,2.29367274616348,2.2937989090371,2.29398925688813,2.29439422166901,2.29510028049517,2.29523862600703,2.29513493422316,2.29511633956319,2.29537794362633,2.29580438919399,2.29625624351561,2.29657294848802,2.29706680865738,2.29718049240851,2.29750272683182,2.29780513238443,2.29792285208356,2.29819507940817,2.2985270553749,2.29897511534626,2.29933661776563,2.29950234202725,2.29965972102552,2.30011803762815,2.30070511357321,2.30122741917226,2.30160957210374,2.30190538079338,2.30212407489605,2.30270752816081,2.30323842618911,2.30363630365409,2.30386110097704,2.30418387612355,2.30461815308442,2.30516708617812,2.30563890520281,2.30574526305787,2.3063751714185,2.30689807999308,2.30728151793976,2.30752874824218,2.30794060889322,2.3085855922989,2.30930209205563,2.31001412394486,2.31039654078178,2.31099552142108,2.31240344329248,2.31394590806023,2.31546152705907,2.31608217322409,2.31629087084134,2.3165027230595,2.36141149129812,2.39370592874531,2.41441365806622,2.41458504136733,2.41472474214894,2.41519301017573,2.41603001367174,2.41599879208421,2.41683870082268,2.41827545404712,2.42035859621439,2.42156090511249,2.42144138178692,2.4211881454041,2.42203634155722,2.42408463125913,2.42541228788586,2.42466043772531,2.42363604177891,2.42423850679671,2.42616573959042,2.42796267009803,2.42767096660863,2.42679038026244,2.42636157770394,2.42586456243054,2.42571639715103,2.42451208194115,2.42537523773409,2.42679685055129,2.42856863648502,2.4299517605222,2.42994325567563,2.42925646751192,2.42890150759976,2.42969826698956,2.43039254860736,2.42928563718998,2.42773080383327,2.42709828610399,2.42765360540244,2.42865361275722,2.42789845453144,2.42657868037753,2.42572011959767,2.42542977027095,2.42621041837737,2.42793733160571,2.39816959840043,2.37514860341826,2.33642139560788,2.33619266683493,2.33610010484523,2.33543979041962,2.33403177796106,2.33307820327811,2.33249935405654,2.33221489881597,2.33240638062763,2.332684853896,2.33267376065005,2.33272734180812,2.33286058339103,2.33339709070108,2.33391925387881,2.3344534016142,2.33423362704073,2.33410637173843,2.33483206505473,2.33608939210416,2.33648401527658,2.33656888463247,2.33681081413046,2.33715102425623,2.33809642013788,2.33931231665473,2.34014585816445,2.34129860788382
2.28770370817815,2.28893288757504,2.29109947461733,2.29183920998482,2.29325773254158,2.29425607165138,2.29405404375697,2.37082062938824,2.37341023907385,2.37162889367692,2.37236066132524,2.37262328291475,2.37330405947785,2.37422454742914,2.37430859574201,2.37506637085857,2.28748807347781,2.28764798162106,2.28905250177559,2.28841754591822,2.28790956384235,2.28783926556994,2.2880228571834,2.28821054868919,2.28843004173866,2.28858136884628,2.28884867873574,2.28922190553491,2.28951612889252,2.28980619412229,2.28986700877611,2.29003724280927,2.29034514788992,2.29020844264702,2.29047743968809,2.29056135935622,2.29083429751304,2.29153209733669,2.29193703066115,2.2921088319341,2.29234502356709,2.29268443217494,2.29249083421751,2.29301484651968,2.29334727480288,2.29358023489185,2.29386095502457,2.29379880592336,2.29424078637598,2.29474296626254,2.29493715668716,2.29459742812068,2.29483310215737,2.29539659990297,2.29574637167765,2.29594513358432,2.29633812071255,2.29672850638296,2.29715581173818,2.29752875708318,2.29751824058938,2.29811028367328,2.29837618416882,2.29870088089404,2.29896827227713,2.29910050731048,2.29922194777215,2.29977291308219,2.30049257071825,2.30086095246628,2.30121961938228,2.30129303719544,2.30147805986677,2.30207115598327,2.30273292712685,2.30326026908824,2.30316924689006,2.30340190931321,2.30389153465256,2.30458647596681,2.30511524686799,2.30539881608337,2.30640244537433,2.306916997747,2.30706175102502,2.30722991416288,2.30800750903222,2.30870977541139,2.30936092576676,2.31045131154879,2.30999579143425,2.3107826376979,2.31261427742884,2.31311759821713,2.31479672852993,2.31596023445836,2.31712446851652,2.31853160944672,2.41176347410819,2.41373535911222,2.41502953124623,2.41465535246097,2.41418240393011,2.4142302832143,2.41518379631147,2.41584220946656,2.41729609254944,2.41878441305371,2.41974569958807,2.42088332255072,2.42108450363572,2.42099684771822,2.42136673416129,2.42370446623678,2.42428723158872,2.42379804962101,2.42253901961733,2.4235947447723,2.42505788758647,2.42684965282676,2.42751767609973,2.42674399116486,2.42599920048486,2.42266201410476,2.42287051190497,2.42175846861911,2.42433131079761,2.42687062127979,2.42807270423993,2.42901394911502,2.43043356869387,2.43045576455895,2.42923641783874,2.42956188442804,2.42992786984877,2.42902293318612,2.42844462641471,2.42832665508417,2.42772815523022,2.42841250346327,2.42800587223682,2.42759961199897,2.42705333360967,2.42685488441128,2.42516961553581,2.42733104354329,2.42825382262806,2.42749003906892,2.33715826279688,2.33623240377608,2.33708481528714,2.33571857805008,2.33414221697533,2.33354661354259,2.33329016172823,2.33249679438336,2.33254158374792,2.33296362403282,2.33269559605606,2.33253641741918,2.33227772088586,2.33340290111801,2.33353858352945,2.33339272865933,2.33345428577641,2.3331100517299,2.33358613895217,2.3361762211879,2.3368482016255,2.33642126053727,2.33690348830136,2.33609622954938,2.33740931663105,2.33972510307436,2.34019107791731,2.34300334401897
2.28913014155737,2.29122305540532,2.29349515975956,2.29342851535276,2.29331210978373,2.2948466667155,2.37116304198033,2.37296450946748,2.37341877895776,2.37244515116411,2.37292231369239,2.37396133032586,2.37454676784543,2.37376727091884,2.37284120449648,2.37137031373986,2.28740640511322,2.28695385528085,2.28740227415793,2.28747626719689,2.28720314379107,2.28762077889895,2.28780240635138,2.28771911182403,2.28801624311808,2.28815371760973,2.28860627961925,2.28891888045083,2.28926600120691,2.2894692060557,2.28997217492134,2.28978141210264,2.28997390438694,2.29007568377532,2.2901095859314,2.29010475279802,2.29058956420769,2.2908549440171,2.29134555852175,2.29144254154597,2.29159394194123,2.29207948336498,2.29244577208098,2.29273597776726,2.29297909563451,2.29336973634531,2.29366007839656,2.29375995306831,2.29396200239932,2.29436295263449,2.29455935290957,2.2946320183563,2.29464892804747,2.29526323779287,2.29533866080611,2.29557684396338,2.29628590551272,2.29678981794666,2.29772019736077,2.29751893434162,2.29779384417243,2.29784168700299,2.29829210814821,2.29826277700444,2.29855319862353,2.29875628999448,2.2993303536084,2.29969706184728,2.3002656001235,2.30040024158183,2.30043258308532,2.30094789342458,2.30174503948128,2.30212488337281,2.30230910266881,2.30253726001424,2.30272009455837,2.30290695026474,2.30368727763562,2.30410881400219,2.3043447092319,2.30582209348369,2.30656923876231,2.3064265648332,2.30687854227494,2.3070676217462,2.30788668341969,2.3089485051564,2.30981894447744,2.31152665855969,2.31228694321636,2.31267178267276,2.31439528061491,2.31466919170337,2.31495301225424,2.31791912988158,2.41222164131845,2.41151799068512,2.41095555430301,2.41329046072797,2.41445314125246,2.41427912562137,2.41412356617737,2.41433767934104,2.41488230740332,2.41564921129144,2.41741282322378,2.41864733110906,2.42007269665596,2.41996453405153,2.41991779482214,2.42101357046359,2.42109018555863,2.42118102010352,2.42224831803278,2.42227011161834,2.423523397451,2.42339148276731,2.42432334281441,2.4251911533601,2.42522292972084,2.42567169283471,2.42624705083281,2.41849320434725,2.41963034043317,2.41852890818632,2.42412953258774,2.42413339611535,2.42561778247885,2.42620786914193,2.42668289961645,2.42741006378903,2.43005604126728,2.43047069582364,2.42957528110296,2.42932931366748,2.42883914478264,2.42833867331839,2.42802794433238,2.42795592686028,2.42817413557964,2.42807681702983,2.42772871195302,2.4272076686723,2.42542904977898,2.42738477430633,2.4271934556358,2.42801001844597,2.42896258452252,2.39432827491245,2.33863948068096,2.33600238839539,2.33491499628115,2.3351944538322,2.33486511072849,2.33389173334062,2.33270041731256,2.3330873345746,2.33277518488082,2.33246105001223,2.33185967740635,2.33279643027362,2.33321938354042,2.33277436577659,2.33315451111938,2.33326149648212,2.33361918854337,2.33475701169505,2.33555790070737,2.3353462934271,2.3347720562823,2.33519694833119,2.33666958424237,2.33744495842666,2.33786444668196,2.33682040071845
2.29142825659856,2.29220599039137,2.29502938056349,2.3561724628262,2.35671337092264,2.3570071324872,2.37107242533702,2.37132673814041,2.373930625014,2.37384465001326,2.3742609067469,2.37489988646538,2.37601133940091,2.3746921618013,2.37180797150129,2.36935749811067,2.28741655032924,2.28692353879439,2.28713558992614,2.28722104906616,2.28703487109615,2.28731912442064,2.28787634580681,2.28789135132204,2.28781384467184,2.28796060070306,2.28848848748411,2.28855254467423,2.28900966158319,2.28921253143914,2.28935195597916,2.2894593040746,2.28965428299176,2.28976802872329,2.28987777303239,2.290241160852,2.29065114952647,2.29068354445807,2.29060876709318,2.29100209823687,2.29108307791974,2.29185614928589,2.29232219825963,2.29236296647451,2.29252671525611,2.29287568526112,2.29346124604239,2.29380902916864,2.29445336443329,2.29426911901392,2.29443094844721,2.2946902363832,2.29473027454629,2.29487637308971,2.29513673299531,2.29532525139072,2.29586403392677,2.29615285273355,2.29662241473144,2.29716407417474,2.29799879861002,2.29741459107637,2.29862607886915,2.29812479089517,2.29822481938065,2.29850721912307,2.29875020734511,2.29942225375591,2.30007689040671,2.30026002996694,2.30057169950364,2.30084474159225,2.30175641605928,2.3014971061672,2.30194836844072,2.30251505956945,2.30300339054041,2.30295971999173,2.30380223626187,2.3040278570812,2.3043525189774,2.30489814777051,2.30569085302785,2.30651078289372,2.3071610660707,2.30757046311816,2.30857436858662,2.3097423378606,2.31116189079351,2.31217658780446,2.31286651546859,2.31361368666893,2.39875025944173,2.40504556192029,2.40255001168812,2.41385148171844,2.41071718577014,2.41164353225629,2.41301090702552,2.41384809962827,2.41465711905871,2.41446472309872,2.41444663841603,2.41409225917053,2.41483176798776,2.41513647025543,2.41710346429027,2.41916531420775,2.42033753306429,2.41908632110956,2.41745743552361,2.41857962658515,2.4207862757817,2.42078938113972,2.42153824581278,2.42250991459768,2.4223079031787,2.42536176116407,2.42441131741047,2.42479446794057,2.42634608025464,2.41443920800413,2.41606532987527,2.41698928451213,2.41874874674169,2.41888694655035,2.42084756219469,2.42276556262756,2.42366596657455,2.4244417200433,2.42471810570615,2.42624454684721,2.42739705102917,2.4313205167889,2.42949350802285,2.42979088107615,2.42999582327678,2.42766648113349,2.42820297941755,2.42787456435842,2.42793461323645,2.42799612233671,2.42773728129736,2.42744799467935,2.42681790908147,2.42733980034467,2.42736014883935,2.4277810407219,2.42858311414232,2.42961935247442,2.42859278068943,2.33801078773521,2.33684605041719,2.33603253857865,2.33624707431563,2.33490124619629,2.33320038362173,2.33261197001951,2.3337759984013,2.33260362583044,2.3322394212044,2.33139497659571,2.33240297810287,2.33264043212095,2.3328524918085,2.33287648991299,2.33347076746018,2.33455166438538,2.33441323216611,2.33427293526693,2.33388336145378,2.33428313600735,2.3348809409001,2.33605571088989,2.33675469894798,2.33687620249104
2.29276903392731,2.34727922246234,2.36005877713973,2.35839163637775,2.36096879213527,2.37275357676467,2.37231722504076,2.37217137331706,2.3751787046662,2.37527625224641,2.37542431794512,2.37499965418339,2.375923634307,2.37078334715218,2.37072067487203,2.36959848848909,2.28697026830873,2.28719262061172,2.28712868236219,2.28738063633964,2.28737266425313,2.2868338039075,2.28717306063545,2.28738293903488,2.28771372536756,2.28783640336693,2.28828473124221,2.2883260863126,2.28887837313258,2.28904338936252,2.28934050848531,2.28949502677803,2.28982500460819,2.28965034652102,2.28984633653435,2.28996770984296,2.29054772061444,2.29030956757944,2.29037333208535,2.29088027265861,2.29122497407936,2.29162276136474,2.29201246366612,2.29203859301675,2.29222481409281,2.29220075459115,2.29306275807213,2.29371687552675,2.29383383563502,2.29387684614212,2.29365538360549,2.29383700138942,2.29426695179514,2.29491687119413,2.29516161552681,2.2955235783959,2.29568957346686,2.29588659206248,2.29622848068755,2.29661618389319,2.29658991190442,2.2967887594573,2.2972886061177,2.29751373608284,2.29790291002103,2.29808060087477,2.29850831533685,2.29938793608254,2.30013592567462,2.3001240207569,2.30015860870255,2.30005470845355,2.30062989060603,2.30130117470804,2.30158874455014,2.30146947497705,2.30212565640337,2.30237561798876,2.30340056857519,2.3038596237982,2.30409217714394,2.3046656849405,2.30625551727447,2.30724086698137,2.30784602060148,2.30784021219883,2.30944531110275,2.31104815066881,2.31246951435871,2.3126502156131,2.31414769866498,2.40026744335777,2.39828672998255,2.40121878786918,2.4024622128106,2.40138202490284,2.41092106651227,2.41205219620152,2.41283539936997,2.4143544785826,2.41494306186179,2.41418302486739,2.41414108206129,2.41434370986494,2.41519502646827,2.41464446104886,2.41510854841519,2.41771929195552,2.41784050101233,2.41862614589277,2.41736757597756,2.41775883096121,2.4197496960338,2.42000207093948,2.42130182084014,2.42210013525782,2.42373888045825,2.42206510890891,2.42396628644678,2.42424516445308,2.4240205043308,2.42389456318043,2.42067760876884,2.41728719977195,2.41972708162534,2.42065537429928,2.42134310505978,2.42212649886511,2.42308750809031,2.42418437079196,2.42368433325531,2.42601763907733,2.42594064615132,2.42541801261367,2.42743474158337,2.42735424983354,2.42628779956316,2.42612334625433,2.42727435371396,2.42798655583173,2.42731389084942,2.42687002140985,2.42777218679808,2.42895628375188,2.42888541264182,2.42809003271971,2.42756366131931,2.42775065104364,2.42819341041551,2.42937199795383,2.429537228693,2.42833589741106,2.42880004404082,2.33704090603921,2.33746868867296,2.33632179846329,2.33409277442134,2.33250190496845,2.33149624399973,2.33180876190015,2.33131116211163,2.33141583083358,2.33237128717423,2.33279935241499,2.33249029213013,2.3322584627549,2.33227113043456,2.33297944075766,2.33288538038454,2.33324853822054,2.33315399281015,2.33354156910975,2.33442079874168,2.33508612241287,2.3358050781688,2.33632716159507
2.33583504557821,2.35937634290887,2.36048864330287,2.36219813473393,2.36658299104133,2.37076620622819,2.37244756153239,2.373573605211,2.37510375875088,2.375732815151,2.37549538714121,2.3751912976965,2.3751402539064,2.37400522711037,2.36404036404839,2.32975877944521,2.28603248390117,2.28667715811054,2.28716571478799,2.28738738772895,2.28709432687112,2.28685910682735,2.28694195769152,2.28722466257315,2.28759817868013,2.2878318856063,2.2879934275656,2.28818029704538,2.28831914701884,2.2887057034507,2.28890634879293,2.28919056215034,2.28937828972954,2.28957783100919,2.28979277339058,2.28993461956416,2.29009461964314,2.29027757072752,2.29048830162919,2.29079196719466,2.29101277365849,2.29125483778413,2.29158722182879,2.29183343271602,2.29211179275251,2.29231157750864,2.29270906415374,2.29314831001459,2.29341242592856,2.29355861643208,2.29351858596792,2.29363402816563,2.29396578644607,2.2944820410409,2.29491531349677,2.29513051148899,2.29522824079502,2.29551655274928,2.29594684399813,2.2963165453107,2.29646563227748,2.29666215966017,2.29690972378501,2.29724632896914,2.29764125155053,2.29787344830148,2.2982033441354,2.29888455328678,2.2995051642089,2.29985817749749,2.29994245865192,2.30000503350159,2.300410231637,2.30102106649362,2.30147202441066,2.30168272080824,2.30200577610732,2.30253200550611,2.30328463547034,2.30386156049597,2.30437518535416,2.30506722523959,2.30634276284313,2.30759218410867,2.30873019769394,2.30933332674875,2.31041526824431,2.31146016052274,2.31258272213206,2.35748765730006,2.3761256499815,2.40040305681406,2.40197179258582,2.40389469927248,2.40483053794181,2.40584823407097,2.40970666915282,2.41167028934445,2.413155134284,2.41444547445023,2.41445822590725,2.41406646556253,2.41414827052954,2.41466143980565,2.41536834276122,2.41485432513442,2.41488602339005,2.41639530104671,2.41776239278326,2.41893395802438,2.4182164535977,2.41803516611302,2.41888781406049,2.41968953741737,2.42120930169109,2.42286851970768,2.42303353163534,2.42265820673775,2.42300143626978,2.42336374557936,2.42222386963632,2.42146575716251,2.41927343504545,2.41896495786559,2.4205599307086,2.42089180659203,2.42117354755331,2.42187497441721,2.42304490886809,2.42442033205055,2.42441174565996,2.42459805684714,2.4248404527624,2.42556887820973,2.42680968725687,2.42611831327542,2.42514599834774,2.42548287676833,2.42705648683334,2.42817082572887,2.42782208454264,2.42721264555447,2.42772338366427,2.4289318558825,2.42996952320866,2.42939622326388,2.42782385499274,2.42713559403945,2.42759870326408,2.42843833927331,2.42861634785952,2.42833735489294,2.42842932949376,2.33806570999038,2.33818078516607,2.33758836649209,2.33611011315074,2.33407522310736,2.33258975861257,2.332292595105,2.3321120004851,2.33185565798189,2.3319367180113,2.33199480635381,2.33201326678773,2.33212849106299,2.33234675309505,2.3325183619058,2.33246839118121,2.33271195637196,2.3329961532637,2.33351120847765,2.33398930857745,2.33445030501589,2.33499918764733,2.33568104595012
2.35234264296137,2.37224338342599,2.3722031058594,2.37263890906253,2.37048105669768,2.37233813126276,2.37301256074031,2.37386150181117,2.37461459053559,2.37540332204273,2.37498983439477,2.37521320065951,2.37563676363221,2.3747263531517,2.35757218697338,2.28668947676082,2.28665175190393,2.28678163171854,2.2865188746074,2.28682027985129,2.28661282409106,2.28681429644758,2.28696219432934,2.286802041465,2.28732013763652,2.28769705773772,2.28808665566058,2.28817803415369,2.28751259762282,2.28809797582976,2.28835729149852,2.28903207227294,2.28932831557853,2.28935093493994,2.28954384864831,2.28966206815345,2.28968446588555,2.29024937056218,2.29037603877266,2.29049038675539,2.29064558039805,2.2908491870606,2.29129816752279,2.29143405375589,2.2918178217334,2.29210706980997,2.29239297998645,2.29271458215384,2.29288705276316,2.29311427251771,2.29314926018134,2.29354989237314,2.29358499707383,2.29399687336379,2.29442372345966,2.29469294322875,2.29474859335256,2.29522119774821,2.29563754512892,2.2958989884056,2.29613521734443,2.29657065080853,2.29654112808621,2.2967559626145,2.29724999475385,2.29743633922972,2.29780666956132,2.29848823202646,2.29903187636118,2.29947421011133,2.29967997029789,2.29977381801409,2.3002201835098,2.300800852337,2.30129900853825,2.30165420667523,2.30176152988562,2.30261577048176,2.3033340295312,2.30383517416357,2.30443968683008,2.30497757812898,2.30637123959912,2.30751696673367,2.30878138857315,2.30882320733883,2.30987296288459,2.31083771541233,2.31510432409343,2.37848958723645,2.4065023843727,2.40670055074948,2.40500637772421,2.40679594957191,2.40679869078182,2.40835197699207,2.41061013988368,2.41127854225721,2.41195635613983,2.41305619454603,2.41292172678284,2.41317534088403,2.41347910345058,2.41316561071777,2.41390639868482,2.41295621069096,2.41298899353601,2.41494039109888,2.4164231934446,2.41829873608999,2.4171523988355,2.41738083737496,2.4184161091373,2.41782999649222,2.41925889523237,2.42451453033375,2.42429112596518,2.42337974566367,2.42075475765594,2.42147497054546,2.41907338276931,2.42055337758321,2.41642956786984,2.41725356708174,2.41922995338527,2.41957687051915,2.42105010360309,2.42163747554452,2.42142193352243,2.4227621263281,2.42391048778121,2.42400208605636,2.42406356312768,2.42449193759773,2.42470850441397,2.42378404026551,2.42363676615176,2.42449055891808,2.42624766580967,2.42683106714315,2.42747889106661,2.42725870230931,2.42772869056958,2.4275013947766,2.42888117655188,2.42996313578076,2.42800185445865,2.42729698229832,2.42756616492736,2.42750058227775,2.42779117828344,2.42771457041776,2.4277291446303,2.33866611156502,2.33815783585958,2.33770713108069,2.33706057700878,2.33437632911097,2.33276918537775,2.3333020499467,2.33339775176632,2.33192757317549,2.33138033406614,2.331248502106,2.33160333580998,2.33188452163067,2.33223392625169,2.33203120880194,2.33179845873383,2.33233109813554,2.33261749529018,2.33324493814446,2.33330145601262,2.33373442247853,2.33423867132378,2.33467907595286
2.36913227627954,2.37003805687204,2.37090990213557,2.37203096137272,2.37170094636907,2.37252330238345,2.3733580104812,2.37420190497654,2.37467123282813,2.37516044535721,2.37541919870558,2.3736803811954,2.37198890099004,2.37194410158144,2.34743245664426,2.28801722494785,2.2869419447662,2.28727934939964,2.28595524335486,2.28633648173321,2.28656259140004,2.28681521242772,2.28657958195697,2.28649925230527,2.28694310345847,2.28763300328215,2.2875846447989,2.28793742989532,2.28769295531452,2.28778611720419,2.28765456545367,2.28772515406195,2.28875244594278,2.28911733657893,2.28913212069222,2.28908237344051,2.28935185968933,2.28992702573855,2.29015907637954,2.29016872052753,2.29039617039335,2.29021958791267,2.29071143442572,2.29111700619616,2.29142675183457,2.29156565056551,2.29182728117876,2.29208809039609,2.29237098620675,2.29271599424457,2.29298425976738,2.29381147191067,2.29351769149447,2.29417287670739,2.29397273984864,2.29384541774719,2.2940848863283,2.29497880364568,2.29527277084321,2.29540636231019,2.29550166239432,2.29588123818882,2.29586049275241,2.2965127560005,2.29698251853265,2.29741953266783,2.29765231505682,2.29806011588363,2.29872165227057,2.29922637383409,2.29978923048183,2.29950349739918,2.30081414539595,2.30075677249051,2.30116408995117,2.30135126473621,2.30198966051675,2.30223009733354,2.30262856759674,2.30379177899093,2.30459101974325,2.30480413874959,2.30631960223443,2.30812844241801,2.30915219150814,2.30939130601438,2.30973708859279,2.40156091639616,2.40283840679456,2.40463784824506,2.40557767881978,2.40589949845053,2.40603055606107,2.40767073052692,2.40748496812482,2.40855361892634,2.41054878212644,2.4112794776114,2.41119597413407,2.41123802061505,2.41096115385058,2.41188171138001,2.41187829515002,2.41195817082788,2.41240161991773,2.41253612552213,2.41292159974983,2.41435782742695,2.41817133819648,2.41893015717858,2.41992797206826,2.41796279815589,2.41809263072811,2.41675974881645,2.41769436835843,2.41359064990683,2.4134566148723,2.4213083892165,2.42016567148697,2.42116739483001,2.42358578911016,2.41213475006141,2.4137084103,2.41702393652325,2.41762405954834,2.41727715851678,2.41817500350099,2.41868007008582,2.41849903967129,2.41969949758786,2.41902747634542,2.41988476487445,2.42130911512532,2.42156534128771,2.42225762291376,2.42229943395659,2.42211120652257,2.42266161044852,2.42409949535303,2.42438098833478,2.42483501122903,2.42644908946461,2.42731841586876,2.42624365930747,2.42662825104244,2.42677711675867,2.42631326587135,2.42723005940849,2.42747586074811,2.42697287640381,2.42777726395654,2.42741503495786,2.42749535964712,2.42716662837014,2.42746594883508,2.42780037617525,2.33581069227257,2.33540368514972,2.33469063543097,2.33435961830751,2.33348849619271,2.33180191739031,2.33171483098877,2.33126815869342,2.33130275716439,2.33105948575563,2.33086043677916,2.33087816074597,2.33193234237931,2.33221647470224,2.33209127860164,2.33262580803694,2.33400678633443,2.33261321781228,2.33356115656369,2.33397015975117
2.36841632303402,2.36914054495714,2.37000798888481,2.37141546460977,2.37196401758389,2.37215905390432,2.37350730460176,2.37489699717375,2.37499848350369,2.3745170720623,2.37418076821409,2.37280012802513,2.37286507610832,2.37373940366821,2.33676739721103,2.28773829362018,2.28693431788473,2.28627303462924,2.28615414006333,2.28616324260775,2.28619309531934,2.28611475912354,2.28627059864429,2.2863894767241,2.28662844534296,2.28656342686603,2.28688275236762,2.2874766581789,2.2879365927225,2.28776705515353,2.28810517891018,2.28785838923722,2.28844667330868,2.28872876466544,2.28884914137366,2.28894640141905,2.28926788340809,2.29091802710946,2.29046840906145,2.29004718960024,2.28997876399056,2.29000770118044,2.29072086292862,2.29109274784381,2.29118274557128,2.29127536236455,2.29149689856605,2.29176668515984,2.29254019799351,2.29254318798099,2.2925463477316,2.29288351798881,2.29317748731337,2.2936265920107,2.29361189263809,2.29361007825543,2.29388009625542,2.29456201524598,2.29487128596173,2.29512645207441,2.29536143604573,2.29591762932903,2.29619283982015,2.29658287248932,2.29682089450418,2.29710754082322,2.29737611375874,2.29817908961414,2.29841406531139,2.29898289734527,2.29934519015055,2.29956322452359,2.30019804691656,2.30168089291691,2.30135741665917,2.30161235268053,2.30210250710776,2.30237821844357,2.30313491399007,2.30433043394694,2.3043731845006,2.30596699858493,2.30723762762672,2.31421242290931,2.31189834494363,2.31391239198343,2.40093363377193,2.40114786645856,2.40307663511321,2.40457154596871,2.40506896452532,2.40592808920883,2.4062947781978,2.40690551120673,2.40753280945561,2.40804929367663,2.40814708384827,2.40838121312664,2.40821804737007,2.40930794125652,2.40911725459239,2.40968834209496,2.41084959678604,2.41091877785835,2.41128562663795,2.41274273587418,2.41428842321786,2.41447603051301,2.41631757199668,2.41866945852656,2.42057495617897,2.4198670640397,2.41521680023186,2.41780106298552,2.3801476534402,2.31665493928976,2.40099870873222,2.31828230761778,2.41833293775087,2.41867530362661,2.41536093613026,2.41340636665216,2.41722079829059,2.41699928546168,2.41707117329449,2.41657269700867,2.41678781317057,2.41733355771077,2.41748482617779,2.41828808511972,2.41800348791729,2.41794037545118,2.4185525024863,2.42052022886003,2.4209779509008,2.42133895171728,2.42120112101153,2.42137090619313,2.42177906637048,2.42251314107426,2.42270608421935,2.4236836702426,2.42438503693218,2.42455577149528,2.42559091848922,2.42634737458671,2.42647720014523,2.42623072679637,2.42663458279984,2.42688322955122,2.42764763889966,2.42678107560278,2.42625115499508,2.42612950642531,2.42685438692746,2.42687547818485,2.42534159653135,2.33528486553026,2.33457634889357,2.33476777729217,2.33367992334968,2.33218989318942,2.33323372608282,2.33168294226171,2.33112906412965,2.33074116082849,2.33085879049045,2.33104581709022,2.33217142103772,2.33217758330436,2.33259339000491,2.33201455451814,2.33222100768153,2.33253126352133,2.33316183421454,2.33379382651136
2.36863303225975,2.36918257356538,2.37009618743933,2.37164944057939,2.37213274944793,2.37216960724394,2.37379461884036,2.37506847059952,2.3727516079118,2.37334291573575,2.37317607041916,2.3731028178356,2.37303768295682,2.37043524757859,2.32608666033655,2.28755757521991,2.28725943321054,2.28647381594992,2.28670394160087,2.28637673219271,2.28626238907068,2.28604601310602,2.28630093191279,2.2866443475417,2.28670086042576,2.28657310555699,2.28702032971616,2.28731900057528,2.28747210954841,2.28764784724966,2.28771720122952,2.28781623827759,2.28821947974358,2.28854380739412,2.28861171613504,2.28851388940407,2.28906118748909,2.28967282712994,2.28971083039159,2.28974982762319,2.28947258410005,2.28984089743711,2.29067632707786,2.29114436068888,2.2911110651418,2.29112063140883,2.29135885529034,2.29157740151447,2.29238480684185,2.29236060891333,2.29234292065245,2.29251443503601,2.29278070550212,2.29320803201193,2.29343052543874,2.2934669815873,2.29371071484444,2.29424665444382,2.29433971745085,2.29499843876792,2.29546272225038,2.29556893789425,2.29584216515418,2.29668663660343,2.2966408455685,2.29629707230547,2.29718651476774,2.2993440210772,2.29980079363663,2.29920764277153,2.29900177002625,2.29905665608748,2.29981826103498,2.30047693153537,2.30110914415813,2.30173691311738,2.30260478966179,2.30302301566144,2.30388328956001,2.30533688668426,2.30526151117014,2.30701138765661,2.30812699253434,2.40047517653654,2.39957097035323,2.39929539132096,2.40076307200542,2.40188520496147,2.4030166587673,2.40470499451021,2.40512309241648,2.4059597041088,2.40605291595983,2.40660159143029,2.40762597072382,2.40719451272761,2.40732251086514,2.40764996786313,2.40703356348999,2.40835748416637,2.40729177926055,2.40942814061035,2.40956798846778,2.41078008703914,2.4105258281917,2.41260733218245,2.41416777389064,2.41593182509069,2.40799372784521,2.38305220142922,2.31566593182791,2.31581812327053,2.39660952180964,2.31515818028513,2.31485021295077,2.31531122221735,2.31560041654433,2.31632544411974,2.31681160086015,2.31730732688668,2.31829081011209,2.4174598020051,2.41803294779017,2.41837252583339,2.41738625382018,2.41640670837254,2.41766784367397,2.41758064423572,2.41748684859601,2.41815067995899,2.41694482512865,2.41665184360499,2.4175931673994,2.41916717402776,2.4203472721559,2.42030771189963,2.42043300002176,2.41974746951815,2.42092163653414,2.42195668506094,2.42160017015621,2.42177472879646,2.42183402031774,2.42252591754197,2.42555226721498,2.42949355459516,2.42640598348557,2.42737115210688,2.42791443252499,2.4270269958712,2.42692017759019,2.42563036859218,2.42522728686578,2.42542625271658,2.4262038675271,2.42530231772941,2.42400368473826,2.4239695150647,2.33559076921632,2.33570167712392,2.33727150719837,2.3319966678447,2.33136706959262,2.33097196301149,2.33074058817317,2.33013244181403,2.33061891460621,2.33052778717213,2.33125304832975,2.33155834954127,2.33174424462673,2.33143473035506,2.33174794044859,2.33185314269345,2.33249894706211,2.33284846250264
2.36875481999374,2.36941213773766,2.37030020573176,2.3715081072444,2.37201580120767,2.37208199472297,2.37251270746874,2.37284238847454,2.37231086485047,2.37247158098808,2.3722160733391,2.37226520608489,2.37269787116352,2.37189207948468,2.31466255499048,2.28620522638407,2.28649808311312,2.28669312552798,2.28674061603799,2.28640297661322,2.28613742526247,2.28620847702571,2.28653656932221,2.28705985562959,2.28695090498574,2.2867723100372,2.28696719707129,2.28715853974878,2.28735924048177,2.28752160514568,2.28758798871554,2.28762578312596,2.2879107330833,2.28819802161381,2.28841590241872,2.2884818800866,2.28880021322071,2.28928998006945,2.2895453169902,2.28970281765964,2.28967312214342,2.28993228352346,2.29034332285521,2.29068968098902,2.29094690507467,2.29110146205992,2.2911414725644,2.29139783421318,2.2918166420752,2.29204452971148,2.29209143650375,2.29219870843572,2.29243998942476,2.29289161916604,2.29325252044605,2.29339812175647,2.29360434645045,2.29400539760169,2.29437400535031,2.29488976086997,2.29520835872635,2.29543435104107,2.29573856556629,2.29629800695191,2.29657498998038,2.29674633939608,2.29731563624385,2.29814691405856,2.29870574364983,2.29891151416702,2.29899398530094,2.29908728543654,2.29959544808007,2.30021704755225,2.30086754746893,2.30144298745012,2.30225748891829,2.30353835709297,2.304865965498,2.30608928696669,2.30608188639021,2.3065306253694,2.35913138557181,2.39951821840122,2.39836513165494,2.39843480559032,2.39957374652261,2.4012773413026,2.40323980069573,2.4047928273462,2.40513381707545,2.40530428332096,2.40592442027421,2.40697195266559,2.40778005110758,2.40736226845574,2.40695652724602,2.40727188227647,2.40770068554355,2.40836592367476,2.40784380592308,2.40750126015297,2.40744431431674,2.40839571039561,2.40908278570541,2.40964892241209,2.40854580068117,2.38387763907799,2.36563987293046,2.35126961667325,2.31481201380895,2.31506091093904,2.31545914440269,2.31525111856261,2.31526820500882,2.31548170065424,2.31612804527706,2.31695921066862,2.31723645462953,2.31776782234415,2.31828074629622,2.35160729741867,2.36795578280689,2.38593014700006,2.40622083313784,2.41302940783342,2.41543553428898,2.4169945626287,2.41751099487352,2.41843371639332,2.41791365446907,2.41737639287746,2.41790007380198,2.4189300687791,2.41985678746602,2.41940685485716,2.4187998817544,2.41892577548007,2.42035047129515,2.42146370831116,2.4210394538043,2.42090370094008,2.42128559899464,2.42282505365458,2.42468728692728,2.42413837939473,2.42361967027697,2.42363219208391,2.42353254951196,2.42550382884709,2.42584953644538,2.42486800949137,2.42449627441332,2.42517417525606,2.42557447755992,2.42462281282989,2.42357852508427,2.42305369965734,2.39848873848292,2.38080342621565,2.33495352684538,2.33362695901758,2.33294994808583,2.33194255924662,2.33098987788725,2.33046287376123,2.33047247277566,2.33051699428459,2.33097038531978,2.33103002563558,2.33108620337796,2.3310300040413,2.33121458004346,2.33152679764151,2.33214530537865,2.33282425890913
2.36876192732347,2.36920444228008,2.36957657204362,2.3712984316419,2.37127469729855,2.3710084973548,2.37094180862879,2.37102419995792,2.37055606447491,2.37136144699188,2.37103884386095,2.37121797157016,2.37294961551412,2.37087602671327,2.30830785220933,2.28651582549157,2.28600699492537,2.28586535512602,2.28599869276097,2.2859765997409,2.28580972409506,2.28643088973944,2.2867566380389,2.28798965320629,2.28698930323334,2.28648392076943,2.28697874327839,2.28710393934086,2.28711414995026,2.28724771127712,2.28737155549272,2.28754234657869,2.28770794391038,2.28790187777795,2.28808556876287,2.28815657286749,2.28872970692495,2.28928091513152,2.2894128929857,2.28947625977684,2.28947222476111,2.29000038484874,2.29025090144957,2.29024781379249,2.29061224825728,2.29105905758332,2.29076880825722,2.29126810774992,2.29142336063699,2.29160783224271,2.29165819488586,2.29179678526787,2.29219881276653,2.29255671964221,2.29288915211531,2.29304825872949,2.29339758779984,2.29407285519429,2.29419269678422,2.29458788477091,2.29485897020874,2.29526537215471,2.29562544543281,2.29608148717425,2.29630950395646,2.29660584230843,2.297213303828,2.29725369457262,2.29776146618252,2.29843806651073,2.2988383876901,2.29894419217347,2.29936375495856,2.29999285817844,2.30071120894588,2.30104090980765,2.30168544959197,2.30335257743896,2.30420135396494,2.30552950133839,2.30599860963606,2.30808539494938,2.40002724688127,2.39955218000744,2.39809490610635,2.39977406541701,2.40033888826333,2.40120554542475,2.40273516674628,2.40398805040501,2.40417056322475,2.40407402667501,2.40502165774555,2.40623401320467,2.40676018848198,2.406240798171,2.40561762242404,2.40656607491072,2.40667079050297,2.40697442703281,2.4066230271458,2.40531242173102,2.40539941912434,2.40770666629982,2.40860368207668,2.408516334283,2.40876017015327,2.31367345714156,2.31319411045716,2.31243314031239,2.31273933707669,2.31295322908646,2.31435919862891,2.31394792788006,2.31450755550011,2.31406355941408,2.31512512955196,2.31678778714808,2.31623079907515,2.31713328254789,2.31734703397403,2.3178279181782,2.3188930083064,2.34366593655955,2.38175385881014,2.40847129745638,2.41480467692242,2.41769383742188,2.41547925762591,2.41665184487983,2.41726301749903,2.41676635500078,2.4176432721977,2.41739304310125,2.41793131000144,2.4173823746317,2.41644794759242,2.41693844168419,2.41849401859802,2.41940984248183,2.41894371813798,2.42024645517609,2.42020926931718,2.42152486774722,2.42258506616084,2.42225144759861,2.4202242815749,2.42116226600644,2.41887360589395,2.42191445476005,2.42457008484019,2.42409776882372,2.42356176180575,2.42441861161416,2.42387165210774,2.42252717877837,2.42227867800112,2.42144734724491,2.4144301150761,2.39798274224407,2.33447188523883,2.33380696059704,2.33342053636109,2.33228512809899,2.33125533222033,2.33062455043464,2.33020753508218,2.32999207076306,2.33107000529261,2.33065225907441,2.33050745179802,2.33016390054702,2.3303317550737,2.33095419537562,2.33191425337489,2.33248798913824
2.36828951889944,2.36894368509545,2.36896624455035,2.36979050208519,2.370130480699,2.3700818059657,2.37008011348949,2.37024848561057,2.37002698134803,2.37074797221465,2.37161941339111,2.37107144592186,2.37176589730446,2.28781870059322,2.28745424732057,2.28656970388471,2.28615077596979,2.28612095878163,2.28567219989523,2.28569423484067,2.28570107922376,2.28618919615826,2.28656173309322,2.28664646323333,2.28645473913884,2.28650031551128,2.28688416284695,2.28822037258869,2.28668929600127,2.28682196337068,2.28690990589635,2.28703680380614,2.2872447186607,2.28741548948225,2.28773456159801,2.28809090625437,2.2882176753258,2.28874571205823,2.28900157666741,2.28922825048035,2.28943915853606,2.29002704225381,2.28966219275115,2.28971180520662,2.29008832586056,2.29042993738736,2.29054218063773,2.29093160721114,2.29114876036184,2.29119883239524,2.29118985156062,2.29172695652581,2.29191864439705,2.29198715117752,2.29247886633226,2.29278738661275,2.2933544236869,2.29384329339538,2.2941522244446,2.29426599997162,2.29427682543348,2.29458887527216,2.29528540566635,2.29595765782297,2.29586397388639,2.2957756596823,2.29685563887654,2.29712940436175,2.29775652902675,2.29807964147079,2.29838741942272,2.29874379374132,2.29967338545316,2.30022030276136,2.30101361609342,2.3010742580858,2.30186024170093,2.3038305295506,2.30540374695942,2.30542431307911,2.30698594697276,2.39853237589287,2.39889732348967,2.39938089847618,2.39830768645401,2.39962853236964,2.40048593853523,2.40122236399834,2.40244933310197,2.40292553621605,2.40289049505894,2.40286651110248,2.403587521798,2.40603510707781,2.40554789460921,2.40566544246905,2.40520061645235,2.4049406554408,2.40462507273819,2.40477493578909,2.40503104094851,2.40493113303045,2.40632534336878,2.40643927399254,2.40793148285697,2.40509647640589,2.31149439698626,2.3118829542356,2.3123509366033,2.31208937058094,2.31188892248911,2.31160495501565,2.31167996246782,2.31202145318147,2.31315537248821,2.31280494549368,2.31388575630475,2.31452402213454,2.31447671739997,2.31572935369615,2.3158270386749,2.31655215829431,2.31925650569157,2.32606480581895,2.354796306142,2.40934369670912,2.41006779911427,2.42104844147114,2.41219626859756,2.4134117595389,2.41310437941432,2.41714608775568,2.41688354803131,2.41556557221874,2.41580092124418,2.41542708068843,2.41561549147426,2.41565431353097,2.41645135510779,2.41722300448633,2.41712199447112,2.41797560227396,2.42061500651204,2.41955550057597,2.42042975157348,2.42235930967042,2.41798927405425,2.41653055388704,2.41615558481902,2.41704938510728,2.41521042842968,2.41398690969972,2.42415029975431,2.42406281631888,2.42168788745992,2.42111933566276,2.42141537235229,2.42215528887784,2.4227763277262,2.42300130189393,2.42324977314368,2.3344409734892,2.33235272258448,2.33186215710871,2.33140531321385,2.33023445522403,2.32951977435583,2.32900560309251,2.32933364011669,2.32996435959923,2.32993339037614,2.32933050838654,2.33023371930489,2.3306122342705,2.33210708776215,2.33528812751161
2.36759003195244,2.36837567963708,2.36778182932339,2.36900384976282,2.36904069371667,2.3690473128138,2.36890574602511,2.36895822929576,2.36910550529973,2.36935364373756,2.3696229202909,2.37003828872466,2.36938813044829,2.28779415141376,2.28751322301383,2.2869038419993,2.28640029622146,2.28559788297143,2.28584023745734,2.28567251303827,2.28548494921322,2.28495059716705,2.28541070066229,2.28601858575665,2.28602847267899,2.28562255612786,2.28606421364369,2.28651535580035,2.28660514511351,2.28653009764125,2.286466398071,2.28680982571829,2.28694165339442,2.28705706491479,2.28742662412867,2.28758903264448,2.28821290613023,2.28911229166488,2.28911804362621,2.28912200315573,2.28947615743578,2.28935342711536,2.28905828617556,2.28949296908058,2.28965815122903,2.28984436212086,2.29016817001855,2.29037696213822,2.29080935391224,2.29094704713672,2.29105445413373,2.29123348872406,2.29180700098987,2.29242760747939,2.2923971750127,2.29252054042209,2.29298274330462,2.29330559027264,2.29414059160548,2.29415962830766,2.29433128011607,2.29449663290306,2.29508350121026,2.29552059093155,2.29570321497184,2.29578010817236,2.2966583656896,2.29700572445051,2.29748586357012,2.29786480667346,2.29805025698971,2.29861021145702,2.29989937585907,2.30079868442106,2.30195361286281,2.30195619508499,2.30334076036511,2.30471153857289,2.30901775059124,2.35800195317063,2.39967482438739,2.39896805904574,2.39943382000388,2.39944474940278,2.39916639036484,2.39975837279762,2.40080690951145,2.4011100513472,2.40174403605381,2.40216014139852,2.4025628219179,2.40217089352533,2.40196714190004,2.4029759267152,2.40345042647261,2.40236937731064,2.40354147933509,2.40397007955516,2.40429708936225,2.40304882714926,2.40407934496096,2.40439134985322,2.40522700089292,2.30975120982341,2.30901243383582,2.30979333031336,2.30988522889009,2.30983566056418,2.31065262630625,2.31127445511785,2.31076484741809,2.31066978366346,2.31077944843749,2.31158987116867,2.31210843861902,2.31200922057173,2.31253080954035,2.31356759730162,2.31371455279672,2.31428937346785,2.31418782079742,2.31473334293404,2.31580951292121,2.31491086421563,2.31549117595735,2.31696078718276,2.41306143916996,2.41168543852738,2.4125809064618,2.41191485318956,2.41200454300858,2.41041026419669,2.41314243014525,2.41387570417788,2.4141906845755,2.41349753249931,2.41459122729576,2.41454084400419,2.41497485196661,2.41596717255957,2.41604266129885,2.41656632890087,2.41737178974764,2.41744542193653,2.41762863110666,2.41620990236081,2.41622598914694,2.4158735402489,2.41474334639757,2.41508215292555,2.41396701046702,2.41362714731208,2.41472463418591,2.41535403085806,2.41778353691755,2.41779465538422,2.42177495256801,2.42147747403429,2.4220191346284,2.42229866660282,2.42266556774376,2.33701743587096,2.33195884775685,2.33176910108725,2.33187246239666,2.33083723817913,2.32940120391598,2.32913493606833,2.32908944398344,2.32972019395792,2.33056352121054,2.32929000908731,2.32984755448219,2.32972524286447,2.33068207312543,2.33048877632918
2.36668658830837,2.36916437407012,2.36727542105654,2.36745233133316,2.36771223695149,2.3669736909628,2.36708816352335,2.36765887330352,2.3684164900353,2.36769655137659,2.36600705102503,2.36655895618703,2.36589068271387,2.28759385690806,2.28772453827682,2.28769745170612,2.28869209505481,2.28639586809566,2.2861470071365,2.28597946774409,2.28656014652512,2.28504168342849,2.28507283991168,2.28697220743815,2.28610424046979,2.28558117980958,2.2857453066923,2.28636641814668,2.2862971463159,2.28631444273911,2.28608510616857,2.28630720119974,2.28662263106225,2.28722559534262,2.28741133234033,2.28746789770871,2.2877070091422,2.28824725008494,2.28849897200132,2.2888214290782,2.2888475684743,2.28896770780426,2.28893219909013,2.28897481267935,2.28945772337391,2.28962093541026,2.28990139612471,2.29031652865631,2.29044315090813,2.29080060477295,2.29103363425488,2.29123990606953,2.29144054901934,2.29231952903433,2.29232499182148,2.29231402787862,2.29263710124052,2.29303006796526,2.29346222387967,2.29404885827393,2.29442972710927,2.29449641106613,2.29470396862519,2.29555261232589,2.29572660969183,2.2957488312241,2.29650105965718,2.29710576363577,2.29731972891856,2.29803413180576,2.29847318169283,2.29922200624984,2.30046769965901,2.30157567973723,2.30318036752786,2.30354042614576,2.30519073994616,2.30700481381666,2.39706337206147,2.39705908264099,2.3973949113043,2.39825016356648,2.39881264429064,2.39992739610763,2.40023185465689,2.39979947869165,2.39948032967619,2.40013655395276,2.40044697460624,2.4011078589082,2.40028463787224,2.40042112458627,2.40073832280978,2.40265979113917,2.40287187237632,2.40213260998602,2.40068682018071,2.40412911939684,2.401502720255,2.4010268195915,2.40130704431424,2.40214241056519,2.30904046714325,2.30873185515329,2.30935010654523,2.30947508069987,2.30905117284495,2.30911860007979,2.30945881584378,2.31037252655604,2.31046528062176,2.31027011936246,2.31055612887506,2.31098291889175,2.31119514936811,2.3109247097656,2.31178253561986,2.31186603512196,2.31296906009881,2.31311213571787,2.31295615017266,2.31330622505301,2.31407518538583,2.31504905723629,2.3156738327005,2.31559169322693,2.31547905201531,2.41211822373212,2.41167088415015,2.41135194291286,2.41208298884889,2.40984861104469,2.41273052320155,2.4127613867338,2.41351416778911,2.41212354207067,2.41368255483327,2.4137517424943,2.4146317308305,2.4157822390346,2.41605019239832,2.41600579050148,2.41568469579907,2.41580115860425,2.41690870123893,2.4160937253179,2.41583192664881,2.4157599752785,2.41508315640214,2.41503803271154,2.41353736888085,2.41302089030323,2.41359553987631,2.41462832256865,2.41656252753846,2.41578946712625,2.42172069160363,2.42139478980614,2.42157147766199,2.42124486291142,2.41938163429526,2.41845907238814,2.33246166589762,2.33202821219022,2.33256279702798,2.33212004788244,2.33014389051239,2.32967296695385,2.32951232258433,2.32913258342695,2.32874133318751,2.32882902403137,2.32962058412728,2.32929731095221,2.32979867494433,2.32963427828268
2.36650468166129,2.36709363270293,2.36678724136916,2.36697425760624,2.36703438526594,2.36669984237998,2.3667790152019,2.36711154473544,2.36737510147316,2.3669107148321,2.3662608180284,2.36611689249784,2.36577785976955,2.32807105410554,2.28791159336754,2.28766144889744,2.28754382701663,2.286463264127,2.28587951566602,2.28557970781089,2.28545064904924,2.28500563256768,2.28516587610079,2.2857183025355,2.28578708710286,2.28564672914036,2.28563075036331,2.2858054191053,2.28607152049161,2.28620581051853,2.28615887638113,2.28631984347594,2.28674595275892,2.28716340758584,2.28739261254859,2.28746866961726,2.28761322315117,2.28790476954308,2.28832955245147,2.28863507830892,2.28879212709886,2.28890835822081,2.28901497837978,2.28925443085514,2.28949460571146,2.28959760119973,2.28976060697109,2.29010251567798,2.29034595320595,2.29061735841295,2.29072325142962,2.29087178420967,2.29122394706264,2.29182826403568,2.2921922349835,2.29235026677576,2.29272811615381,2.29299362939624,2.29354181989238,2.29397574390584,2.2942047403058,2.2944655381557,2.29479474794555,2.29538289696804,2.29575802291294,2.295951374256,2.29646423793244,2.29719075338194,2.29788171672234,2.29853214340327,2.29919944331829,2.29999754000033,2.30114426813076,2.30252258444841,2.30392573016778,2.30450044525233,2.30485234091664,2.35487590057075,2.39653539071971,2.39562704057608,2.39562547659012,2.39651235122114,2.39801298441186,2.39988828141066,2.40062137533025,2.40011336522472,2.39980753235884,2.39965424445975,2.40011666373221,2.40056784997727,2.40007296611865,2.40002979753762,2.40028412011902,2.40127022702249,2.40193654517013,2.40141901045932,2.40118428104995,2.40108095666981,2.40029960541683,2.400584390621,2.40156748193944,2.36209763495498,2.30823076411982,2.3088499919512,2.30993393761852,2.30984551251333,2.30920479077576,2.30895953141106,2.30929731483323,2.30957283433776,2.30971192215626,2.30994237589171,2.31057602532335,2.311099106848,2.31075836761231,2.31045896360618,2.31090330966758,2.31159662316064,2.31208250205742,2.3122725405828,2.31256575625365,2.31350874883323,2.31415164965911,2.31522580007028,2.31597112295326,2.31554462042782,2.31498190698406,2.37007454109311,2.41231423800137,2.41128113393247,2.41058441299012,2.41052440149007,2.41143684367272,2.41252285686488,2.4135671982982,2.41321849592037,2.4134155185014,2.41344505536478,2.41431002401288,2.41547108236856,2.41562716579035,2.41549549108756,2.4157706226334,2.41624337946536,2.4170268876428,2.41644880409598,2.41584658528836,2.41550846783261,2.41551970863314,2.41547935645753,2.41430737741374,2.41361907683358,2.4140803454051,2.41546831992358,2.41720483055211,2.41741629698134,2.41981897988108,2.42040248166507,2.42091208473782,2.42126486880535,2.42123898638073,2.42112725951648,2.38712688128309,2.33339492021547,2.33316364490756,2.33216478303386,2.33106994551238,2.33004790924257,2.32910781310341,2.32875571789373,2.32877570036646,2.32919892846601,2.32927479552698,2.32948025223334,2.32948838175034,2.32955611610968
2.36570028245224,2.36564124667351,2.36548736225564,2.36622869019164,2.3660929162179,2.36553555024573,2.36563790687524,2.36631114380708,2.36674294780896,2.36630023179063,2.36603565026836,2.36506650066598,2.36333823097175,2.36256618572158,2.28741771889007,2.28666419536082,2.28667230347359,2.28572375848702,2.28517616918523,2.28504874834012,2.28469802971583,2.28480395461763,2.28492293415193,2.28493234732118,2.28527289731788,2.28554628074741,2.28541156733903,2.28549396032855,2.28587443631277,2.28599192718946,2.28597650749848,2.2862394354993,2.28721110464133,2.28723598317749,2.28723786071212,2.28737540169217,2.28746628267386,2.28776901250638,2.28814281163489,2.28832201381843,2.28857416198342,2.28895007816908,2.2889877983796,2.28937621509597,2.28940682746192,2.28946525731858,2.28973914049638,2.29007128228105,2.29008385139263,2.2902840597294,2.29034575947097,2.2906728717068,2.29086230364563,2.29144304870046,2.29184654397642,2.29205438718831,2.29311087741161,2.29287211362009,2.29361639668034,2.29375594791011,2.29380261344849,2.2945637564731,2.29479863765993,2.29530382838198,2.29552612475101,2.29567794438919,2.29636614233596,2.29772198835916,2.2986209231272,2.29896961371251,2.29977853795965,2.3003220996769,2.30115627089735,2.30215851286724,2.30385135161468,2.30535671246907,2.30616697854583,2.38680935082082,2.39633921787589,2.39470348263691,2.39571939921987,2.3964578978955,2.39750540622428,2.39940927006155,2.3994882096396,2.39859731563016,2.39965303910041,2.3983500889047,2.39882397728255,2.39911314953782,2.39844018150488,2.39908080053776,2.39900246285246,2.39882931586131,2.39983049074648,2.39906017084138,2.40220173136673,2.40084967741538,2.40067499126526,2.40074357506085,2.40136607451444,2.30845389729335,2.30803340329933,2.30778917048858,2.3090127439564,2.30866134730193,2.30802122275868,2.30822595789457,2.30945131026722,2.3089876592947,2.30897267244711,2.30936384636169,2.3108093906399,2.3121938331936,2.31042639887253,2.30939885892923,2.30990293051382,2.31166703380588,2.31168529926146,2.31163058806586,2.31181653961474,2.31399512001925,2.31315008705212,2.31397800027955,2.31525752895507,2.31546854374177,2.31579317201178,2.31683621874467,2.41131395202865,2.41143608868674,2.41069214816701,2.41229614974118,2.41037980958726,2.41082824781154,2.41235128934181,2.41235202252835,2.41317710332062,2.41209353507382,2.41236938514601,2.41381755821253,2.41434368247764,2.41454586339603,2.41551122824296,2.41493119129512,2.4158514180985,2.41539938208381,2.41546146155182,2.41484067430293,2.41486204265815,2.41482567782817,2.41327478399777,2.41293386231654,2.41334216487563,2.41427233947427,2.41628183996531,2.41580724038679,2.41974055961661,2.42051267579796,2.42066959833914,2.42061693721042,2.42106242800908,2.42059324685728,2.42086624473234,2.33657964611482,2.33387666254855,2.33084340486962,2.33085000052213,2.3298801753663,2.32834038901238,2.3283923996436,2.32857762813869,2.32967039771074,2.32862294116505,2.3297814986197,2.32928372521351,2.32898257772829
2.36369198159532,2.36475427191794,2.36439520926869,2.36474940986312,2.36512570744989,2.3647614967073,2.36473305217242,2.36523776227047,2.36478629855408,2.36525742350853,2.365127567204,2.36365659004948,2.36229471845513,2.28696255128301,2.28666534231279,2.28575475283437,2.2856961012893,2.28492580441228,2.28488071559364,2.28479125853127,2.28487781076051,2.28485418647571,2.28464963764247,2.28467473139779,2.28479693146982,2.284832408549,2.28486282668859,2.28496306408358,2.28529117780783,2.28575337099555,2.28641250958437,2.28629495170817,2.28648820449022,2.28697875651206,2.2868591307129,2.28682863853789,2.28725467636067,2.28728105056888,2.28774008124806,2.28781761418168,2.28812462729348,2.2883940204,2.28883587926457,2.28903552571775,2.28915484331382,2.28933703461171,2.28936518585976,2.28972901823235,2.28979318130847,2.28992768883751,2.29011815382077,2.29031098212673,2.29083048549001,2.29141943487655,2.29153579518292,2.29186433280659,2.2922892724925,2.29268426677971,2.29335421257642,2.2934699830141,2.29369949486137,2.29406899577935,2.29551721497176,2.2957145450504,2.29524131958088,2.29498087157953,2.29606105469282,2.2977079329367,2.29778626581553,2.29891552417972,2.29948889657254,2.30258884553065,2.30196757310295,2.30220096520561,2.34061578617359,2.38373186020313,2.39409653984938,2.39486229456408,2.39475448653579,2.39403194869521,2.39541626706735,2.39627268699916,2.39745853336562,2.39717881635866,2.39762797205752,2.39724805092466,2.39722563371944,2.39757336675757,2.39796587099535,2.39760740363476,2.39722342456784,2.39708643815531,2.39746027007833,2.39746507311752,2.39791259888244,2.39832130986584,2.39830386972089,2.39991043601558,2.39954216506787,2.40007816695733,2.39839881141275,2.30764427232281,2.30675497996723,2.30668224798488,2.30748497773557,2.30706186288896,2.30732557598638,2.30759302754034,2.30828121839967,2.30824044405996,2.30832833149893,2.30822705368179,2.30830225332089,2.3097990385543,2.30947185406726,2.30923220703958,2.31034272687855,2.31033091027153,2.31110170877579,2.31099733389617,2.31109030270051,2.3123336834356,2.31221839467454,2.3129186808348,2.31400788514703,2.3140911879506,2.31573102769963,2.31620799155817,2.41352218514805,2.41237328147129,2.41137014470391,2.41081361299615,2.41011369990919,2.40965613710118,2.41110829773311,2.41242451017518,2.41087987190444,2.40987398744099,2.41062056358884,2.41164628073314,2.41175646000007,2.4125914109753,2.41537098920437,2.41412064564052,2.41453307689931,2.41448351896617,2.41459998770718,2.41431249626891,2.4144514877076,2.41438299306337,2.41394195334921,2.41346432460193,2.4134973294437,2.4142992348347,2.41596494047799,2.41683740794559,2.41860919396956,2.42144008413706,2.42087358073956,2.41959077574808,2.41895602679759,2.41949779851101,2.42023307727293,2.33495316774104,2.33403180707228,2.33245964051467,2.33047082643925,2.32946581729966,2.32797843456152,2.32814086314782,2.32774994841477,2.32817026964538,2.32836453689683,2.32865895026111,2.32882900246037,2.32872362673199
2.36296714468783,2.36371151749502,2.36386791882412,2.36406965129603,2.3644365312851,2.36540652249983,2.36482963226984,2.36360966642918,2.36407376467812,2.36458982147654,2.36522454617905,2.36557244850213,2.36458864812776,2.28625654473083,2.28617922977503,2.28553752659904,2.28463236882258,2.28483265414211,2.28535180779087,2.2847782776714,2.28477877908794,2.28467871587365,2.28414550675901,2.28437850429171,2.28442722887997,2.28454751822685,2.28462193154927,2.28497933433346,2.28546399076865,2.28546187657764,2.285532726735,2.28641133137002,2.2864128238134,2.28645012577954,2.28645546592233,2.28640392608798,2.28662597621918,2.28688049782273,2.28739150628954,2.2874765565011,2.28756987392698,2.28792266421748,2.28830981946214,2.28859879433267,2.28889086756017,2.28915768069911,2.28906048750485,2.28930973516755,2.2895518606547,2.28962789519647,2.2896437509412,2.29003322836947,2.29038657357585,2.29077849053125,2.29113114664132,2.29155186230088,2.29189283631426,2.29211269533826,2.29272467262683,2.29314574655022,2.29334697648005,2.29340112594137,2.29394213971702,2.29433203467308,2.29500829709624,2.29550943336133,2.2964805215277,2.29739295579567,2.29749201994709,2.29919622517313,2.29941933447634,2.30288319827366,2.30338858652754,2.30385547676875,2.3640165045959,2.38699084732917,2.39004650469735,2.39257490953189,2.39305204741688,2.39354330965548,2.39415622878076,2.39483380117509,2.39752775743845,2.39596344135935,2.39623074583261,2.39588942087052,2.39606016977388,2.39578415517886,2.39519615861528,2.395886240631,2.39536237919829,2.39566526205565,2.39575562227031,2.39605970617184,2.39597218088859,2.39569866184707,2.3969588165554,2.39793221801572,2.30663641473961,2.3059930918746,2.30668103151469,2.30643734558953,2.305540784196,2.30605717071615,2.30616902273104,2.30589840035067,2.30640607999855,2.30705701460829,2.30686114606912,2.3077308562031,2.30907805517216,2.30738686396647,2.30754169438432,2.30840475571888,2.30850657049129,2.30839419437846,2.30958630999356,2.30979470355626,2.30967141739782,2.31022010879298,2.31017852170502,2.31088460296278,2.31129561564529,2.31212407820924,2.31330228910144,2.31414673723261,2.31430385780935,2.31672712536358,2.31610430043844,2.38905287975799,2.41235418049671,2.4114033364507,2.41096504959856,2.41045812973361,2.40974659716562,2.4085211808525,2.40892800788195,2.40858482711274,2.40932671302802,2.4101455072202,2.41010843306635,2.41072254860624,2.41297015420734,2.4128205841183,2.41349047664939,2.41383782623612,2.41442423791699,2.41415045258311,2.4139866941485,2.41414786577031,2.4137315004141,2.4137441604735,2.4141883335467,2.41552691907614,2.4161749559659,2.41683119310851,2.41800078235776,2.41907571615494,2.41859061639636,2.4187962705797,2.418331285908,2.41839616229357,2.41883270404378,2.41921364036156,2.3645197850343,2.33358362448859,2.33043145651155,2.32919779735756,2.32819244276887,2.32822408776586,2.32787343211132,2.32759397748685,2.3286542733835,2.32837262943077,2.32860822927487,2.32858714216249
2.36162865581854,2.36435597076572,2.36234416266181,2.36270113122542,2.36297654921685,2.36231830055311,2.36196780331559,2.36205105268371,2.36330266973588,2.36381522036279,2.36498382145213,2.36526284153553,2.36418147920356,2.28584682959344,2.28623435879985,2.28648213163394,2.28459462080459,2.28430027672288,2.28432512322761,2.28429922346612,2.2841684150153,2.28398710003245,2.28397996612274,2.28428445244367,2.28435677986394,2.28435436703059,2.28488236199606,2.28505402413249,2.28495916367715,2.28522135979022,2.28526028598316,2.28569673373896,2.28613586168422,2.28608938837,2.28625906560725,2.28612585849592,2.28639971198644,2.286624127349,2.2869340331419,2.28720983303205,2.28717355839134,2.28780401193204,2.28836325933043,2.28845740499249,2.28876207133659,2.28900115591238,2.28886726323137,2.28897087181258,2.28922940359465,2.28949431523681,2.2895283547251,2.28976987072882,2.29013755693943,2.29027140804779,2.29104412355816,2.2917847856161,2.292119630104,2.29221329424507,2.2927601097544,2.2930770742594,2.29315397579512,2.29340375960692,2.29341670668419,2.2945292061859,2.29526891153402,2.29613884639821,2.2965070132503,2.29751218601113,2.29830759998939,2.29995304654058,2.29966726121206,2.300859819479,2.38483977764096,2.38546949992795,2.38661879823312,2.38805796815643,2.38945300533585,2.39094380557414,2.39269104661319,2.39354973404189,2.39329232982496,2.39348844306618,2.39437564851643,2.39448472770928,2.3952597923096,2.39486074690635,2.39434745014957,2.39402112430508,2.39424881479151,2.39525125318122,2.39456236471987,2.3954258202533,2.39573708394706,2.3951689700771,2.39491906401576,2.39518043374211,2.39730345876255,2.30574408019315,2.30555782285989,2.30602115932486,2.30542215063197,2.30496077538581,2.30461180335205,2.30461711832809,2.30515606822975,2.30532365467088,2.30546349748836,2.30674565275526,2.30619065048433,2.30673422577417,2.30691557095526,2.30662839881426,2.30675147080166,2.3071886195052,2.30774609457118,2.30798713137563,2.30840742492552,2.30845398214023,2.30981046722574,2.31023997332382,2.31039671938249,2.31115243374907,2.31100090485541,2.31180871514793,2.31298927654775,2.31438634885848,2.31464416206424,2.31473985454766,2.31496339481152,2.37811027468697,2.41443066457066,2.41383883117775,2.41251050009204,2.40894920600911,2.40888357558905,2.40793401281949,2.40742213706382,2.40769050332602,2.40835920608761,2.40935170935045,2.40874349654316,2.40930045093053,2.41050198162894,2.41160307650322,2.41275932046037,2.41278965259389,2.41415137186098,2.41315695003266,2.41364656124026,2.41433835442526,2.41345101290353,2.41398726194373,2.41468935365916,2.41551986751356,2.41645145913565,2.41640744466747,2.41734341406838,2.41934436444835,2.4176266337218,2.41869658920974,2.41787212963345,2.41720614786178,2.41754931457839,2.41766594318692,2.38590942915638,2.3323330788324,2.33043750105442,2.3294195272642,2.32873881840956,2.32859881907546,2.32833823435586,2.32859135398573,2.32813719565597,2.32777570267819,2.32825182842608,2.3290921193357
2.36125534449937,2.36192007108042,2.3617273488637,2.36200347384134,2.36208954980088,2.36181068954364,2.36182612662124,2.36179425588287,2.36235034527594,2.36286925326378,2.36411853128521,2.36475035072621,2.32981968005404,2.28560842077766,2.28602530408477,2.28576848471198,2.28489955988255,2.28441847865163,2.28417711348938,2.28404906968277,2.28384950903703,2.28380110075843,2.28392671432888,2.28405810962592,2.28424362857366,2.28437727547139,2.28468301732247,2.28502701239555,2.28496152073283,2.28518525589528,2.28533596728234,2.28553406708423,2.28583020956216,2.28602272264141,2.28617940903491,2.28619318358925,2.28627529032278,2.28655991972385,2.28687093124963,2.2872106909634,2.28732504855385,2.28755733905139,2.28777693632353,2.28817018602049,2.28849351568958,2.28865808548755,2.28876809061413,2.28900028657055,2.28928474347867,2.28952101816368,2.28961683231039,2.28978520742279,2.29011514802369,2.29052144250326,2.2910008404431,2.29135963147927,2.29163992004299,2.29200801996491,2.29259450833036,2.29299546177,2.2931518189536,2.29324417627399,2.2936296299609,2.29444112099729,2.29547829555377,2.29641426794647,2.29679242885408,2.29796057744605,2.29925907904703,2.30050880002642,2.30036566445811,2.30034488564218,2.38552813791236,2.38568018855716,2.38573882803142,2.38669339259164,2.38833581161686,2.39026519064663,2.39218645649514,2.39336810028551,2.39339006926206,2.3935721381093,2.39439393837431,2.3943881976166,2.39468089759702,2.39420871522296,2.39391212065882,2.39400585214562,2.39454575799529,2.39521081757458,2.39483374097188,2.39450666167539,2.39449106335125,2.39407960624701,2.39437680638575,2.39561026098713,2.39719595566359,2.30503690603301,2.30572465137335,2.30657225890134,2.30600135886874,2.30512028191637,2.30458722602062,2.30439447488654,2.30461325896861,2.30494114363036,2.30519838286378,2.30572082240308,2.30580777215436,2.30599678005032,2.30606352278483,2.30640604005631,2.30642523422492,2.3068033389033,2.30716064960842,2.30741199976035,2.30788387055603,2.30829679621893,2.3093203083913,2.3105600252861,2.31195065369562,2.31139254612643,2.31122059937171,2.31193901346221,2.31266350046572,2.31372485035167,2.31399241421734,2.31379026769211,2.31358517124368,2.3606150570159,2.40167625277082,2.4011693242318,2.40230087541571,2.40596391834383,2.40751270306257,2.40735920998485,2.40726633393114,2.40755932396899,2.4082829494133,2.40907655774857,2.40887793597904,2.40909162627513,2.40971632392797,2.41082656848072,2.412038444627,2.41232520272828,2.41283004123934,2.41305569613459,2.4141714256395,2.41481539537305,2.414551566286,2.4141549331583,2.41473720462402,2.41553720093794,2.41646425920792,2.41651712254198,2.41686893118114,2.41755858704524,2.41793544274081,2.41880967743179,2.41803685414567,2.4172039016933,2.41710151966033,2.41720315786691,2.41017989597986,2.37446840086861,2.33013433191089,2.32952899819022,2.32926924234196,2.32874355865096,2.3280470970802,2.32769289602851,2.32742164991277,2.32726797166696,2.32755800223471,2.32804205576906
2.35998052151332,2.35990911480932,2.36045918363093,2.3611331715065,2.36106876614253,2.36044734974582,2.36128556812052,2.36084453866507,2.36187412500763,2.36167046113855,2.36293806591661,2.36245836478055,2.2866269578636,2.28579744874155,2.28575049773825,2.28442282787335,2.28398780699134,2.28403725553073,2.28388171359315,2.28378572597721,2.28347856342719,2.28349674290544,2.28415865105266,2.28363027863033,2.28397413102867,2.28406863331374,2.28458700925955,2.28546039296124,2.2846203801477,2.28500439249466,2.28532950728596,2.28540459630829,2.28575710291734,2.28582022967355,2.28598891515897,2.28605105512976,2.28636266984665,2.28651047966338,2.28675238609668,2.28697993262498,2.28732570222219,2.28741806463552,2.28742029001866,2.28782320578734,2.28809010822215,2.28816147516412,2.28868234560706,2.28908565478732,2.28933655495373,2.28944324906695,2.28958838471853,2.28976062782666,2.29013394396966,2.29051731878645,2.29075645758389,2.29087317943252,2.29112680355863,2.29163761284547,2.29236554231133,2.29280843053322,2.29307618895244,2.293152610936,2.29361571201615,2.29422973127647,2.29564929947321,2.29718120205749,2.29607999841811,2.29734001442913,2.29816678538562,2.29981480701304,2.30034305721182,2.30100070344961,2.38412097243638,2.38561349544396,2.38534876529703,2.38659986098898,2.38824432177176,2.3896417172897,2.39094000485907,2.39212115374983,2.39207985060574,2.39290911319802,2.39494268920129,2.39312484964343,2.39321872154362,2.3925511888753,2.39288906307577,2.39338092640632,2.39357537939606,2.39434437428546,2.39387680505625,2.39339425900423,2.3943298265343,2.39349628477994,2.39365708507896,2.3943206871772,2.39558654154128,2.30501233344931,2.30519382023625,2.30576052061498,2.30458002764507,2.30375577575922,2.30401594204789,2.30383183104039,2.30409534511955,2.30468686515477,2.30483207182639,2.30519841203979,2.30527802122585,2.30512092859201,2.304860711431,2.30651513430733,2.30597300856536,2.30641343543142,2.30646665084996,2.30648610537792,2.30736361356636,2.30774271160899,2.30869399118787,2.31069870351715,2.31496091053933,2.31129306224894,2.31083072360275,2.31238604074657,2.31192255762051,2.31259226292529,2.31218426243147,2.3127589337488,2.3142310218351,2.34454654740109,2.40209813152266,2.40203584937695,2.40215251758778,2.40343632097078,2.40509268440353,2.4052700424287,2.40659606032703,2.40676643169104,2.40697616209423,2.40768477715226,2.40750600844656,2.40831366640731,2.40829339895141,2.40862560974188,2.41003785579735,2.41046079354535,2.41172251932643,2.41189339006688,2.41387255631842,2.41383950167595,2.41450796773933,2.41318055575037,2.41434691947682,2.41401994932823,2.41489841183491,2.41510310656073,2.4161155812371,2.41587337484362,2.41603123733706,2.41710365189917,2.41640360584246,2.41648707827159,2.41688772454865,2.41619669718757,2.41658469140585,2.41639337448658,2.33190395904481,2.32927295091555,2.32922769423324,2.32862114002511,2.32731031109554,2.32679330135142,2.3263834263747,2.3264094737444,2.32675688561559,2.32692091485919
2.35876162063003,2.3591475669667,2.36067587255986,2.36072369307934,2.36013214393661,2.35947407761056,2.35970642499822,2.35951340144661,2.35925844778662,2.35937180646805,2.35930151380689,2.35929699412388,2.2884549204405,2.28637197427526,2.28586413813939,2.28472026789513,2.28398672366409,2.2841087974006,2.28404145631984,2.28375621148828,2.28369056909777,2.28327496068366,2.28353601383078,2.28392089506155,2.28376131452352,2.28367633672726,2.28401135566512,2.28467964565621,2.28464994208325,2.28480970653713,2.28522288920588,2.28558001177323,2.28604581897715,2.28580250032616,2.2857448117355,2.28601086558456,2.28630303551837,2.28639900301755,2.28646182705359,2.28660972596702,2.28674443888778,2.28687980122844,2.28723860533434,2.28757346123905,2.28773159075183,2.2881264633324,2.28851299249642,2.28877456438995,2.28909926204043,2.28929176850897,2.28958233056223,2.28980142681194,2.2899914443775,2.29036808238962,2.29046081919594,2.29043441656876,2.29062318792668,2.29145765961493,2.29235826441572,2.29264933535126,2.29300257701955,2.2933898602564,2.29400167049044,2.2947561944617,2.29576415782892,2.29631074140178,2.29671950947695,2.29801859261189,2.29855588625918,2.29964348640109,2.30174937086692,2.38485254145948,2.38497635034473,2.3858527542061,2.38559214671051,2.38671171987174,2.38818452223294,2.38907982555051,2.39017350028305,2.39075332115986,2.39121326369782,2.39171821497542,2.39175275236835,2.39124565351783,2.3915804087444,2.39116150506498,2.39150982705864,2.39207946984237,2.39251982310581,2.39354550357472,2.39395143758076,2.39126313929073,2.39165357463656,2.39199316991146,2.39309182542757,2.39318937372375,2.30527022608764,2.30427461077965,2.3039815596119,2.30439084556431,2.30345190494784,2.3027553418635,2.3031143054297,2.30320578377882,2.30335997008873,2.30347303999663,2.30380634591798,2.30387144150417,2.30434385507295,2.30434002725648,2.30431543837761,2.30486091716224,2.30514065613412,2.3050431333225,2.30571798363611,2.30630858901362,2.30673374189927,2.30690805250783,2.30694781897889,2.30808712988591,2.30792295035414,2.30863113544196,2.30938232287039,2.30930932763387,2.31022212936027,2.3099580333693,2.31145224113646,2.31235474836659,2.31371856316801,2.31465738050784,2.31542184842474,2.40209598360493,2.40135004582336,2.40120075720526,2.40230347592368,2.40170212396529,2.4060419130452,2.40645523604417,2.4059091439177,2.40601550140154,2.4058306587432,2.40547098942242,2.40670256813839,2.40682560379672,2.40764996563177,2.40769605995235,2.40945112147025,2.40925377557023,2.41031910159478,2.41084982774965,2.41046924196851,2.41070893880172,2.41118575566564,2.41199610976443,2.41252697883196,2.41231001975495,2.41315822377208,2.41415964563376,2.41453218311884,2.41521255508804,2.41517194232933,2.41544378083311,2.41532447620296,2.41523900716498,2.41566733833334,2.4157242088274,2.4154794550264,2.32838588821434,2.32945896717371,2.32890141112139,2.32756095321438,2.32694553966803,2.32622380648811,2.32593567233753,2.32623962756618,2.32617255220132
2.35776865599203,2.35772459422785,2.35849617149558,2.35860355895176,2.35888520490135,2.3586809010455,2.35870431427243,2.35792318322375,2.35725513605969,2.35751270918539,2.3577782973756,2.35769581539479,2.28586048612079,2.28550866815883,2.28573110897006,2.28487212082526,2.28396052643548,2.28399938745085,2.28400821545762,2.28364263749529,2.28351588376303,2.2830818220355,2.28323322126865,2.28354415453659,2.28353942745727,2.28349169496471,2.28397405458833,2.28391166620259,2.28421878202169,2.28443058846824,2.28461207722214,2.28494976734674,2.2850963454077,2.28557392750606,2.28550193098867,2.28539271439331,2.28595546109339,2.28604579017162,2.2861652899387,2.28629199718785,2.28653978909077,2.28665276367343,2.28706378788888,2.28733648746889,2.28751217546715,2.28772454897928,2.28832268801203,2.28858331014367,2.28894529084598,2.28916124923387,2.28945923672395,2.28970682581174,2.29038812919194,2.29042106432362,2.29038143079296,2.29054605039783,2.29071647889015,2.29141641001681,2.2928095759103,2.29275498653792,2.29296030166232,2.29349034345123,2.29428464529325,2.29513803108967,2.29625595203968,2.2963335781075,2.29782489864618,2.29817634749448,2.38222497991598,2.38330105859724,2.38393210102927,2.38439875504943,2.3842068096885,2.38590784496889,2.38594249846034,2.38643735392161,2.38764958980305,2.38817186357867,2.38861442481669,2.38928181501024,2.38913382446975,2.3892175153837,2.38940443303363,2.39013899724191,2.39034694219496,2.39017039682335,2.38999290679067,2.39130677719564,2.39346451096892,2.39329430106329,2.39454000513586,2.39077792882477,2.39053840756977,2.39044529995258,2.39333833353129,2.3953111574651,2.30422288859941,2.3029746956689,2.3028646427163,2.3032319027292,2.30280619438696,2.30189195438994,2.30232224163319,2.30280068687284,2.30290698130815,2.30321450591561,2.30316444014683,2.30314873224034,2.30361225879796,2.30369641199481,2.30356530984346,2.30420195185495,2.3052166085934,2.30491222758112,2.30510133492643,2.30531063701751,2.30508141504204,2.30578862287459,2.30657584108447,2.30716802190414,2.30711760215076,2.30779786383214,2.30841231932005,2.30970127720081,2.31009212489968,2.31130228370631,2.31158383507402,2.31231735751826,2.31392312614471,2.31445835956935,2.31443035144531,2.40160875207053,2.40073681156368,2.40009828677,2.40060467758993,2.39955027892293,2.40571464329371,2.40601223331852,2.40455495541197,2.40445900117806,2.40434381120883,2.40460169841032,2.40441860189524,2.40505153493713,2.4058343428085,2.40560767491775,2.40593657082363,2.40722326508862,2.40782218507718,2.40857126117438,2.40840357435344,2.40833999313888,2.40909848664527,2.40975300146125,2.41059273054366,2.41023925761283,2.41157193906205,2.41220846781249,2.41259563440832,2.41361838651467,2.41343541478859,2.4135680624704,2.41440179787786,2.41486704694189,2.41501311774731,2.41472779574546,2.41540814234453,2.41535817057933,2.33058749885848,2.32961154163789,2.32848957802565,2.32660031748119,2.32593872507988,2.326157962249,2.32600200327486,2.32606068659495
2.35667436247568,2.35718115832332,2.35741688783611,2.35728223123932,2.35780155783795,2.35785255240669,2.35749143058506,2.3572440020781,2.35547322981211,2.35596835713701,2.35644054392193,2.35863658401916,2.28542626765398,2.28551329862201,2.28580873905332,2.28516755874071,2.28414153008809,2.28382121199555,2.28355615007176,2.2833937608222,2.28304918773586,2.28306591402554,2.28354289479561,2.28353949241598,2.28342746498086,2.28321685775095,2.28334218158173,2.28367314491466,2.28391820281273,2.28421481543434,2.28428181498133,2.28488626906899,2.28470906275166,2.28532560004071,2.28536373908362,2.28533561884448,2.28540915364975,2.28582809333378,2.28595600249086,2.28626288709772,2.28630420188191,2.2865478363949,2.28673329117483,2.28706672613491,2.28735735782505,2.28748806876417,2.28790983389617,2.2883092356211,2.28906985115364,2.28910898854403,2.28913647702811,2.28955987109314,2.28968710057707,2.29028476265662,2.29044464090524,2.29066429779197,2.29078949936869,2.29113639601791,2.29220703061441,2.29268544208323,2.29304266578051,2.29331458186671,2.29445307939466,2.29539898956527,2.29717905185112,2.29707935824925,2.29826627268508,2.29958664213138,2.38233700508222,2.38226595817053,2.3826429861477,2.38299729008599,2.38431372884637,2.38582036405274,2.38617673665184,2.38590620003767,2.38614278160493,2.38693624825181,2.38758573658115,2.3883324138569,2.38796933317562,2.38762190405325,2.38847508405721,2.38910942353046,2.38952900478725,2.38883781165682,2.38918886556567,2.38918521473445,2.39051518048174,2.39146075528859,2.3911226441468,2.39028402234491,2.39070085684561,2.39115706780677,2.36338421799437,2.30292265925413,2.30244090083996,2.30193744358159,2.30323865049025,2.30274415064421,2.30252481764887,2.30193386247659,2.30168493333463,2.30204476862294,2.30236626090849,2.30231473663977,2.30263585349806,2.30389712746273,2.30373397540454,2.30339154673986,2.30278548617759,2.30323736964362,2.30359921241331,2.30394825325824,2.30449302638684,2.30460917332817,2.30472974417726,2.30530990282617,2.30637562356207,2.30686901623027,2.30726939207047,2.30752064192162,2.30730635315158,2.30877678752061,2.30922238701971,2.30927333125939,2.30968843125472,2.31161991780671,2.31230511451796,2.31387305434582,2.31447190013432,2.40205715522605,2.40078428134407,2.3997348128865,2.39986564782582,2.39904400617851,2.3986374917528,2.39997473361844,2.40179036606054,2.40299000318875,2.40258180175334,2.4029979822859,2.40336659555904,2.40362888994169,2.40483476415446,2.40442488052184,2.4050628443152,2.40553261765004,2.4057992911567,2.40711882878667,2.40636650519252,2.40694313831438,2.40740665036633,2.40877251324237,2.40974614038797,2.40912128506575,2.4096522355077,2.4107778214943,2.41160479588424,2.41309954400934,2.41323575616348,2.41323809965602,2.41464109642973,2.41471758835227,2.41511150793708,2.41502293915224,2.41517068195699,2.3316510343162,2.33013567372227,2.32979934065949,2.32926095485159,2.326260008093,2.32555921935242,2.32554351563173,2.32548293335673,2.32527630260441
2.35618544039979,2.35639689402911,2.35658776830966,2.356656186081,2.35690002409283,2.35687019062639,2.35670699516681,2.35654305063841,2.35519635437212,2.35520874681445,2.35629959044985,2.35792459677648,2.28429982761205,2.28478709460607,2.28551179345647,2.28509268560862,2.28423245770128,2.28380566521497,2.2834109140564,2.28331259600745,2.2831964186212,2.28311282985558,2.28326612441387,2.28336236719292,2.28339402212144,2.28338511487527,2.28356971595521,2.28365866738863,2.28397171132258,2.28415467433611,2.28421298287949,2.28438672080066,2.2846490888272,2.28515565728795,2.28530108301655,2.285265708259,2.2852942819192,2.28554469727647,2.28601571304122,2.28633698986323,2.28652072411082,2.28684420432466,2.28682954200732,2.28710528786442,2.28734958004587,2.28742123789611,2.28769407453249,2.28799330732008,2.28852290678683,2.2888686146872,2.28906588610112,2.28937072291693,2.28964479052415,2.29015515434623,2.29047680193121,2.29064447639524,2.29089187047471,2.2913262743252,2.29223458306187,2.29273949663185,2.29308694779828,2.29379897520162,2.29500017022037,2.29662528143793,2.29799758856871,2.29816743009823,2.29847640553824,2.34551882678616,2.38135676418287,2.38070387150031,2.38091735824366,2.38185358007242,2.38345256148102,2.38505762934023,2.38596545055924,2.38591643877653,2.38595844895628,2.3864489356154,2.38721344742037,2.38777079077559,2.38754682020664,2.38738537132225,2.38777778841897,2.38857754530018,2.38906116804687,2.38881578633484,2.38875852498214,2.38899118603169,2.38964404154524,2.39034046866198,2.39031105208502,2.3905988965737,2.390968696411,2.36454752657897,2.34627274560705,2.30202218972237,2.30204921763621,2.30215012068386,2.30236712338463,2.30201689998665,2.3016875160989,2.30135822040916,2.30132858853175,2.30173818753173,2.30211138476811,2.30220139627509,2.30228577411903,2.30286082224886,2.30333382916271,2.30322720946948,2.30299369145403,2.30308447843948,2.30324281889253,2.30379047622588,2.30419262790687,2.30438923353126,2.30453661463028,2.30504008481439,2.30602638166545,2.30643303261548,2.30668641554134,2.30724388450381,2.30736841363308,2.30825624436071,2.30880063671228,2.30936559950048,2.31015028954904,2.31128518236991,2.31217344742086,2.31301365664973,2.31299632200083,2.36916184567869,2.40162110300753,2.40071144076835,2.40002766528939,2.39931444731157,2.39910428891842,2.39994465093833,2.40112775105848,2.40214817760039,2.4020143628519,2.40207423288713,2.40270531830846,2.40364965012826,2.40442799029743,2.40423659408044,2.40436828700502,2.40484613744976,2.40569338758799,2.40665769755736,2.4064794202768,2.40666939780396,2.40720947288065,2.40851534202432,2.40937974030361,2.4091790752045,2.40933735095451,2.41031318867114,2.41159091623337,2.41278046290783,2.41276928024209,2.41266487036862,2.41333035200117,2.41420803280472,2.4151173195007,2.41568590531471,2.41607492160212,2.39292622531389,2.32937899401603,2.32974927506143,2.32891999234315,2.32729899266045,2.32634133928825,2.32548266530142,2.32525234054504,2.3253372617582
2.35524611722975,2.3554296011379,2.35540581309473,2.3554892120435,2.35581963455251,2.35567441663582,2.35583727893057,2.35722552674353,2.35447908709803,2.35422951511617,2.35460870704121,2.35616307441454,2.28510536462907,2.28439534187971,2.28488380217016,2.28416469227784,2.2835851263061,2.28373800245812,2.28308799922591,2.28311739206616,2.28326738793926,2.28295175488124,2.28314213974642,2.28318212651114,2.28326878453768,2.28331143634677,2.28398882148416,2.28349493563313,2.28407776992685,2.28403643475268,2.2839775945624,2.28392722406665,2.28444088517424,2.28524398545759,2.28512434223622,2.28512981122691,2.28503717747823,2.28537581133384,2.28606907756716,2.28628036131429,2.28643177346885,2.28774106359501,2.2867345899903,2.28711076676376,2.28712754083393,2.28713466970023,2.2875541487351,2.2878419754129,2.28803288145013,2.28849045473849,2.28864064377734,2.28931739571576,2.28940721760542,2.29013073139025,2.29037235847249,2.29040307187882,2.2909540051241,2.29123836962504,2.29270028753364,2.29276256854712,2.29276429645102,2.29364428258612,2.29453276120465,2.29619644690838,2.29747107157878,2.29837556548218,2.30017665094081,2.37960059476544,2.38015180919152,2.37977087475567,2.38079589304459,2.38180883069574,2.38283324692258,2.38390563681563,2.3848265478356,2.38476794156223,2.3849990137334,2.38539823201686,2.38622692965071,2.38662235044438,2.3862726296202,2.38631775988155,2.38644734601714,2.38747482025207,2.3879545316017,2.38774428259712,2.38784990270265,2.38791591893907,2.38781937576523,2.38849841890513,2.38843524108492,2.39011521206114,2.39063434000713,2.30283665344332,2.30197329698566,2.30203166137237,2.30118454796567,2.30095009092187,2.30110253929149,2.30113581625167,2.30108101049435,2.30096056651946,2.30068512307455,2.30140434521928,2.30181171956122,2.30202885206171,2.3015772222084,2.30208186406415,2.30341377728982,2.30294362347127,2.30278451611757,2.3029687185651,2.30260661673196,2.30370648663123,2.3038755285416,2.30411008712745,2.30402334510853,2.30431759940233,2.30612673682699,2.30595155754954,2.30567795008169,2.30757838943506,2.30667971277921,2.30814655189971,2.30830495473361,2.30921600100272,2.30999262975098,2.31038513024738,2.3108372498772,2.31223077525007,2.31275716141409,2.31426197563269,2.40062181389903,2.39972240713262,2.39943596673791,2.39882795812988,2.39895525985791,2.3985271610583,2.39932154386771,2.40049390587687,2.40017179871778,2.40044457005048,2.40159534693251,2.40275314717006,2.40308360776929,2.40266800692852,2.40324450625805,2.40364656037237,2.4043445136924,2.40529788566116,2.40515056486936,2.40592177056253,2.40618325859609,2.40752876217833,2.40803645805983,2.40774393261642,2.40809395001571,2.40936138891071,2.4103638170218,2.41136120520931,2.41101768952453,2.41101582311954,2.41166329544045,2.41296398750573,2.41380081096932,2.41429545860543,2.41445667762137,2.41348436036618,2.33056429655633,2.33029065478294,2.3282650847024,2.32680953429102,2.32669771696437,2.32493811706598,2.3249819573421,2.32523456002916
