2.33343413201039,2.33420036399442,2.28613413581629,2.28783204653343,2.28726223499957,2.28669525929836,2.28715840820399,2.28677746911622,2.28820130872155,2.28859881704864,2.28895546719735,2.28710404662428,2.28687896157648,2.2880568878429,2.28785798459119,2.28767812653559,2.28828275008943,2.28877816479606,2.28802809094922,2.28762089697759,2.28891734283941,2.28944665455324,2.28796796618133,2.2896250574034,2.28905718234483,2.28915163365922,2.29018396533185,2.29107096643589,2.28899016539099,2.28988967491826,2.29033006556528,2.29104371274056,2.29145243953349,2.29051561737702,2.29342875782035,2.29145023877479,2.2913046705391,2.29115198944328,2.29238034407766,2.29194893877112,2.29241257703626,2.29222763111698,2.29214505692307,2.29168316207364,2.29208824864737,2.29240766500903,2.29294608476521,2.29330197516038,2.2929517798143,2.2935627850865,2.29373677056067,2.29387905450593,2.29382682365653,2.29463163062113,2.29454658508584,2.29471465078071,2.29445110659707,2.29516099065171,2.29435930105516,2.29459084644142,2.29528894060601,2.29505736625429,2.2945761583769,2.29518661663779,2.29615351100747,2.29686828982473,2.29673173075945,2.2977737955405,2.29694006862963,2.29774798250377,2.29854960787246,2.29847106971786,2.29803027603563,2.29960090155553,2.29984083397058,2.30115490490749,2.30011812325158,2.29977532189876,2.29954058852679,2.30065843692025,2.30069998639115,2.30086578650156,2.30099363462274,2.30149086450486,2.30184501148876,2.3021309120509,2.30203334002623,2.3026342763872,2.30235781778131,2.30263225648599,2.30317424051418,2.30359464163814,2.30394611231005,2.30327023240371,2.30350869857878,2.30490537327066,2.30417924643243,2.30469658199911,2.30513859924428,2.30519179941414,2.30499118828497,2.30519971875746,2.30538271110329,2.30563394808058,2.30601219010589,2.30602631705719,2.30606613864863,2.30631951156678,2.30705700185887,2.3078322830351,2.30705902848807,2.30752383602916,2.30782442380456,2.30738968825997,2.30843772234754,2.30860272994212,2.30826623435847,2.30839654109204,2.30848709423169,2.30859810421083,2.30887324283768,2.30946481169353,2.30935153494439,2.30922991702473,2.31028530130102,2.31153462811864,2.31024705601358,2.30975334854505,2.30964035768455,2.30988795955318,2.31137242545006,2.31036109556238,2.31057223510488,2.31070942990064,2.31079664895383,2.3117069235981,2.31144273430744,2.31188557804317,2.31196077091178,2.31110222617166,2.3119973031744,2.31250691484749,2.3131634569752,2.31341295133186,2.31393691222857,2.31323167186447,2.31209833816492,2.31183431535686,2.312477224933,2.3121816828488,2.31249913454534,2.3127249970526,2.31277660604082,2.31274500842701,2.31378714967078,2.31322775065761,2.3129546013983,2.31329235110093,2.31325268679699,2.31432960623635,2.31397526715517,2.31485379640717,2.3141296905736,2.31425732422601,2.31446015741112,2.31519666642765,2.31476944379821,2.31498841602412,2.31469205597089,2.31564165772632,2.31580195192074,2.31495429623079,2.315199528879,2.31552611587356,2.31588554412281,2.31618198773514
2.2839647606731,2.28440293110004,2.28475369464643,2.28500144329306,2.28507939506069,2.28528235265212,2.2856671198981,2.28497031412002,2.28518833158688,2.28566708524963,2.28642593443316,2.28632122823992,2.2869719489348,2.2863486424974,2.28688781356162,2.28723958532058,2.28816221228366,2.2899183242507,2.28891498856272,2.28811577688047,2.28836147832338,2.28867697644925,2.28736452919849,2.28817310993083,2.28863695424754,2.2896331157595,2.28893724648269,2.28899163962326,2.28804547221416,2.28897039871225,2.28913180315996,2.28951658029571,2.29093521478303,2.29068127377242,2.29105639711742,2.28986748238482,2.29017202785387,2.29064799579502,2.29129836371462,2.29146273644561,2.29251348989717,2.29160529267918,2.29185854256795,2.29123718941911,2.29194668533356,2.29248337544064,2.29405331605491,2.29250444907338,2.29306377925666,2.29361511683113,2.29429286447932,2.29475943485765,2.29450474107554,2.29433991906366,2.29494128230026,2.29521257764657,2.29564915537137,2.29446586613777,2.29424972691382,2.29456027712591,2.29538855905692,2.29656190116946,2.29631424102006,2.2959247119861,2.29621967534975,2.29719001325608,2.29686245429143,2.29702857746234,2.29744448002876,2.2986225936754,2.29904231340529,2.29963785437757,2.29851213839537,2.29909466058979,2.29931578027333,2.30031064159552,2.30066968412137,2.30034116907868,2.30018411143009,2.30027050358743,2.30028619783188,2.30120559080841,2.301667182769,2.30224705185313,2.30289006878825,2.30264640921355,2.30237513722941,2.30262601955994,2.30287025096262,2.30325707438854,2.30482785034346,2.30552340253453,2.30430160173026,2.3043067715251,2.30399634097358,2.30466997620849,2.30498967440531,2.30631365420475,2.30527110173408,2.30690733300956,2.3052917675125,2.30567084258166,2.30577112014002,2.30754134159929,2.30741650614449,2.3062750246355,2.30668486860614,2.3071140397945,2.30883216029327,2.30714341155643,2.30715269390935,2.30827138566238,2.30780075017635,2.30739489869892,2.30762322999586,2.30903776181286,2.30899210091217,2.30958885650721,2.31121701935986,2.31102117417915,2.30952466886227,2.30936409610461,2.30955424766559,2.30979736092733,2.31004510098098,2.31089825091931,2.31050897320218,2.31000684970846,2.31012756466654,2.31101180915581,2.3111291911473,2.3104210568661,2.31109209553791,2.31078784360266,2.31136951725766,2.3112766897534,2.31092611359378,2.31160388650344,2.31197438729271,2.31213617931353,2.31294886434518,2.31204810522713,2.31204739536797,2.31287340514952,2.3130474053084,2.31310344853236,2.31255359768465,2.31243164705479,2.31257150644947,2.31270567126794,2.31327111257662,2.31453196373927,2.31344008359778,2.31350540179746,2.31353884305529,2.31382233366819,2.31485295088523,2.31377294927572,2.31372982957109,2.31445507196027,2.31422174171462,2.31402575384297,2.31469752984929,2.3145624218069,2.31479934406717,2.31489656646665,2.31500902427079,2.31520737955153,2.31555135933205,2.31559834383157,2.3155955100325,2.31533626243078,2.31591090794439,2.31619794609298,2.31679573448065,2.31649998583528
2.28315551963407,2.28386563498325,2.28302569831163,2.28398873908325,2.28370388391284,2.28349624027848,2.28334296094048,2.28349751925496,2.28362754994198,2.28436201115551,2.28442937061216,2.28464085493795,2.28494029190842,2.28505947010344,2.28540919240425,2.2859199118577,2.28555844105791,2.28613117737352,2.28689699022578,2.28677877770591,2.28685394594265,2.28644419816818,2.28682327824072,2.28748567459682,2.2873376198818,2.28755445060331,2.28782719877311,2.28787708465856,2.28798587322983,2.28826617460288,2.28860391520849,2.28878349624392,2.28908507344357,2.28927328861458,2.28967521798719,2.28935657896379,2.28985257759067,2.2900444330045,2.28993483261318,2.29100760501272,2.29204698186731,2.2907889082135,2.29125521903447,2.29177474245473,2.29248574091362,2.29264997853298,2.29267413573494,2.29284449226097,2.29278064255732,2.29317410743201,2.29388533268924,2.29417082060923,2.29494929331713,2.29427440450028,2.29485787855824,2.29564614839464,2.29533269382451,2.29516969715929,2.29631504224089,2.29655657363602,2.29562370128867,2.29621093047462,2.29691634413054,2.29640368547362,2.29685455250439,2.29759908874467,2.29742167159387,2.29714983603523,2.29766585853573,2.2990441026953,2.29930279724225,2.2999522009072,2.30000831189931,2.299461744716,2.30009101914286,2.30067040812962,2.30141128525201,2.30093970532002,2.30094891635952,2.30134675821618,2.30130954127655,2.30172924749167,2.30182668312041,2.30217775207921,2.30242099445783,2.30292480803159,2.30299179760563,2.30297795866983,2.30383742786824,2.30368123361756,2.30400161975222,2.30466392478498,2.30579911852901,2.30525775349112,2.30522638618326,2.30470370068575,2.30475792906915,2.30565655601099,2.30594262426472,2.30564150509654,2.30578437963241,2.30638876640877,2.30644566241618,2.30734383322524,2.31000813827589,2.3076679378007,2.30748725803532,2.30754864450931,2.3071746299037,2.30852338347915,2.30872348471391,2.30813510868942,2.30798844387024,2.30888012938141,2.30817408213825,2.30900290604908,2.30847608664757,2.30906718405605,2.3100686746861,2.31101160455373,2.31050701161964,2.30991125484058,2.31008863933798,2.31037400159677,2.3113086038402,2.31024944459593,2.31063569149643,2.31095682489997,2.31048938230341,2.31087142567335,2.31161438260694,2.31104867695063,2.3114379369418,2.31150033499657,2.31155027451838,2.31109305463913,2.31202205613941,2.31304641384309,2.31167372652395,2.3123505711734,2.31446794783757,2.3127292591286,2.31206846987535,2.31292694475983,2.31261173781044,2.31282859416418,2.31272200659587,2.31281711227923,2.31343906721413,2.31394259548768,2.31408324234083,2.31393621270555,2.31405412931082,2.31373183824792,2.31352497983185,2.31359148051234,2.31414837536717,2.31372375348019,2.31435968322095,2.31484846549399,2.31480480686457,2.31523978691957,2.31506604198319,2.31492323570166,2.3146695994922,2.31527598812633,2.31554436005993,2.31562549344235,2.31597913014261,2.31623024019073,2.31618257107708,2.31584437279782,2.31609225205402,2.31658133537613,2.31639659836653,2.31678322705667
2.28101460992445,2.28152469101185,2.28130108096505,2.28143351416269,2.281656977295,2.28192407202128,2.28218005645228,2.28261988322473,2.28294371021872,2.28359506355773,2.28381205338193,2.2833792666542,2.28449674010677,2.28438453125239,2.28520698936677,2.28479133421257,2.28478916157557,2.28585429335686,2.28677990866977,2.28619368429342,2.28559306005656,2.28639208903443,2.28681167413579,2.28677430885146,2.28670587813614,2.28689023647055,2.28660129909755,2.2880117159237,2.28765150693564,2.28717046317482,2.28789622110882,2.28842913280234,2.28832250422521,2.28898284644158,2.28989894206657,2.289635295282,2.28977932573171,2.28943548257079,2.29002909671859,2.29064351547831,2.29145084130585,2.29080455934066,2.29145118451124,2.29263791281087,2.29184583634405,2.29198867768716,2.29220586293801,2.29238250552257,2.29249356447568,2.29257650006041,2.29331077183222,2.29520038682302,2.29435484306184,2.29460368649935,2.29497590135384,2.29508931837401,2.29559488451672,2.29500687074561,2.29527464184271,2.2958610628523,2.29591236306672,2.29714384911655,2.29708617269289,2.29825493473016,2.29713383982738,2.29830834338412,2.29766226724443,2.29752563895419,2.29808047296778,2.29856086407608,2.29895213177069,2.29953492747956,2.30132978836517,2.30110039291579,2.30077569340545,2.30056506165765,2.30114333763336,2.30195671387227,2.30148580669808,2.30159380148751,2.30167247771703,2.30249150843356,2.30282513733061,2.30266335558378,2.30302458235167,2.30297732541087,2.30324815066913,2.30410401822036,2.30470708531243,2.30334601963287,2.30372622332294,2.30390560925227,2.30458590741379,2.30563969743184,2.30552471574413,2.30486044109038,2.3053268621096,2.30590240698774,2.30533586737456,2.3058933181195,2.30614268859716,2.30650148756084,2.30751709410344,2.30710492694371,2.30756777725376,2.30850580827953,2.30792445151244,2.30766868374478,2.30765317899525,2.30881075688641,2.30853783787585,2.30804763206199,2.30895925978627,2.30892916780823,2.30978180840803,2.30898518706124,2.30888406831033,2.30949045736698,2.31099739710975,2.31046910053479,2.31043355150811,2.31030052202369,2.31321284340066,2.31232435547932,2.31139740775993,2.31134399873552,2.3116640986889,2.31161557420058,2.31103325804426,2.31176838669144,2.31196294591374,2.31148890298561,2.31169982463271,2.3112186002508,2.31162386111469,2.31201361843595,2.31325009927927,2.31320116024254,2.31227481410923,2.31301020405767,2.31290567976347,2.31273411400212,2.31274175837525,2.31335314344449,2.31298017296291,2.31305823729295,2.31412367645481,2.31331936121043,2.31301612676334,2.31321452403257,2.31338491698186,2.31397252576359,2.31501664031822,2.31398055513482,2.31392792252238,2.31374567292898,2.31455276232887,2.3144737758567,2.31493774766698,2.31558508391129,2.31556799509716,2.31523921285255,2.315114153476,2.31565536812146,2.31629141994483,2.31605585207225,2.31591035585796,2.31626616123327,2.31669460465572,2.3179590052243,2.31693164965678,2.31679408077386,2.31664134270638,2.31724294793466,2.31706201234933,2.31809241197458
2.28067966885395,2.28128671426208,2.28048419421268,2.27988933311937,2.28052354035306,2.28171135448214,2.28208338254893,2.28249542081017,2.28369547213878,2.28357022179285,2.28316320132155,2.28330990386681,2.28455961218544,2.28489027741613,2.28460972963474,2.28421545314203,2.28475774579697,2.2851357431935,2.28633526792846,2.28756578239923,2.28734001025595,2.28629812393336,2.28636761194394,2.28617930212901,2.28653816099838,2.28735635533006,2.28723311938409,2.28727622375958,2.2876747841339,2.28797776910836,2.28802359490007,2.28805890148123,2.28853411267615,2.2889939514241,2.28949102995009,2.29017158306719,2.28990534704403,2.29036739873969,2.29164134533631,2.29175326236606,2.29096169527192,2.29198254935176,2.29367184571781,2.29168090195596,2.29207786535007,2.29228885669046,2.29193664242919,2.29266724208673,2.29407466140172,2.29412067391943,2.29315436216135,2.29406676176242,2.29488818071778,2.29449960625859,2.29487147165052,2.29577454612976,2.29741784609025,2.295484777251,2.29564453580942,2.29800332464752,2.29628342956218,2.2965030221152,2.29701966736217,2.29711253348574,2.29774231554232,2.2979904764971,2.29807258048461,2.29836397948824,2.29886912096312,2.29895917673089,2.29906148383287,2.29961475420143,2.30014375073835,2.30099663122937,2.30116605532974,2.30172008565666,2.30169684889331,2.3011952377083,2.30171492141151,2.30218791816855,2.3031183392676,2.30280239203115,2.30356840360388,2.30308357777042,2.30349956829594,2.30536888689496,2.30441191047448,2.30447529375265,2.30488849338065,2.30461402980398,2.30471871949686,2.30446819626743,2.30470523995523,2.30620122652018,2.30614458788299,2.30663448700289,2.30590491641004,2.30823287796624,2.30721406585119,2.30778280575461,2.30720810702368,2.30670307888928,2.30795627104957,2.306769718705,2.30705551939094,2.30826497962473,2.30829897326213,2.30939891788815,2.30798091764943,2.30902156100123,2.3097441393005,2.30954299915969,2.30950473273008,2.31163945519005,2.31041044231649,2.30935882902409,2.30964189267438,2.30972153249914,2.31032212275516,2.31049569749742,2.31052007058111,2.31051325756355,2.31244207242768,2.31241480365826,2.31123184733428,2.3121786421598,2.31201188646955,2.31210521236421,2.31250786717577,2.31280952167523,2.31317577183202,2.31202499398841,2.31241821353561,2.31268776147977,2.31346869635902,2.31333390927954,2.31456135051984,2.31490474317694,2.31331304989061,2.3132529241398,2.31323917227913,2.31403069714482,2.31323233839887,2.3137027313647,2.31480685397341,2.31459699518404,2.31390996288298,2.31499212722786,2.31388698023365,2.31396477110694,2.314226796999,2.31446595953757,2.31460440881673,2.31441556812073,2.31418300195188,2.31460340511859,2.31516248308372,2.31551524503095,2.31552205623793,2.31542308710448,2.31763711530891,2.31808610281076,2.31610865541042,2.31637820302556,2.31650296612069,2.31744334551601,2.31727786222963,2.31825834707337,2.31917251592672,2.31726045967649,2.31730573806584,2.31732384310641,2.31724539764221,2.31746737239299,2.31775471606226,2.3182919289224
2.28008210190484,2.28055337669583,2.28090386035996,2.28186839276063,2.28178020809085,2.28160389653339,2.28268920471151,2.28294110741217,2.2829170231274,2.28330859961838,2.28420696050388,2.2849947148877,2.28476424196198,2.28413426400851,2.2846879149572,2.2847114068432,2.28523180460141,2.28612499800584,2.28848405470902,2.28712515402917,2.28746915729699,2.28800839111373,2.28749838339723,2.28819929959421,2.28744010106346,2.28747204448469,2.28949686477783,2.287928963987,2.28853648114867,2.28867108011485,2.28835368237367,2.28911244952629,2.28971333641741,2.28993128963611,2.29110622933161,2.291082404132,2.29186050008369,2.29091824758281,2.2935791721852,2.2909360141572,2.2916636993695,2.29225924367389,2.29227157370976,2.29220527633878,2.29196007691467,2.2920928516055,2.29221742458219,2.29287133925035,2.29352668787623,2.29435050208662,2.29416429610437,2.29443795195656,2.29547623337135,2.2953986516473,2.2962840829323,2.29668778825486,2.29754488817614,2.29635672660635,2.29652417807619,2.29758170875387,2.29727896386176,2.29769823626548,2.29770251232881,2.29788406354865,2.29813923732349,2.29841740048029,2.29822622277796,2.2983220143183,2.29907673117778,2.30079792317815,2.29955592932424,2.29945005901196,2.29978772254026,2.30024970614077,2.3011316366683,2.30238921484387,2.30196956478111,2.30200871759846,2.30181845850785,2.30185699434146,2.3031322462323,2.30358888912254,2.30360090083305,2.30497761222601,2.3051136344396,2.30532408787382,2.3049484444495,2.30482227366794,2.30484678331324,2.30458986208915,2.30451075735637,2.30504747322588,2.30515606385222,2.30587426340899,2.30630016664405,2.30675096203012,2.30664271417427,2.30749575539005,2.30750124110009,2.3076200639003,2.30923190821684,2.30733009945307,2.30827323171006,2.30872024147168,2.30789976539493,2.30865854762255,2.30954958720002,2.30980479740236,2.30855401683555,2.30940194565088,2.30978888446506,2.3093448121211,2.31030380681841,2.30986513796488,2.30995049062448,2.30973923708182,2.3102119627065,2.31070735747664,2.31072316825776,2.31108675104468,2.311041575043,2.31174847293569,2.31193203549629,2.31138389778672,2.31220727167246,2.31421183754921,2.31410487606713,2.31270580464385,2.31284702616691,2.31289537060484,2.3146344721375,2.31345230064472,2.31356841078747,2.31287833186442,2.31339920610107,2.31365114805628,2.31416192987619,2.31445113108869,2.31393192861589,2.31459761436954,2.3139688939782,2.31399575471543,2.31457044757636,2.31412081065629,2.31454643153556,2.31472172509405,2.31434437103793,2.31525849248875,2.31514418171428,2.31482378457885,2.31465602942671,2.31448520004107,2.31502344784608,2.3142090888661,2.31463106514985,2.31516205994346,2.31593510388,2.315682371252,2.3156809296893,2.31596080668183,2.31616624108926,2.31655524052665,2.31659281914249,2.31707726353828,2.31766177999742,2.31734722886068,2.32040941290057,2.31794390362989,2.31705635370937,2.31731361771452,2.3180053287223,2.31788252468871,2.31819553371029,2.31838860395329,2.31906522131804,2.31877084653445
2.28121388195169,2.28082281082263,2.28103079189135,2.28160921201455,2.2818864138607,2.28214139569544,2.28254713068706,2.28287738546976,2.28322534994555,2.28365552985536,2.28440819588174,2.28489717809622,2.28482430363477,2.28480767492517,2.28513700012098,2.28521657125267,2.28566519525037,2.28630358193696,2.2868200403847,2.28670370059151,2.28691622745082,2.28732085902199,2.28763065420313,2.28825153862304,2.28845028744287,2.28837427731556,2.28885778475516,2.28880361789094,2.28891745996322,2.28937530148282,2.28939960355318,2.28979720349334,2.28995566899794,2.29035435257607,2.29078928940082,2.2911147259733,2.29173941182653,2.29154757464024,2.29210776520561,2.29161183237618,2.29169391150691,2.29194901724108,2.29242750058176,2.29263805205221,2.29278427215438,2.29302179118114,2.29315430970979,2.29326474369099,2.2936766921421,2.29414734580746,2.29441043720259,2.29476096138164,2.29539897603865,2.29578513436709,2.29598984442054,2.29643929683334,2.29693369657447,2.29704264491953,2.29711171353125,2.29740365646562,2.29763970143916,2.29794761324387,2.29790840986269,2.29831780611819,2.2986884194924,2.29869352906323,2.29874425550739,2.29912952660167,2.29958674435299,2.30037513696847,2.3002683605151,2.30008549804907,2.30035178802741,2.30096183631429,2.30151545207415,2.30206385660187,2.30225523846736,2.30224925709192,2.30227207386956,2.30254846631315,2.30328220294736,2.30365511147479,2.30427430315053,2.30523532405168,2.30588846218728,2.30577107198514,2.30560780974197,2.30542044039782,2.30524561008127,2.30512807936046,2.30517862070922,2.30542631779999,2.30567320443382,2.30608683912971,2.30652784286073,2.30703536346496,2.30780294476651,2.30772547331112,2.30776464762194,2.30798625476494,2.30857783394796,2.3082583475718,2.30836648742636,2.3087371125606,2.30870731687731,2.30915483801341,2.30938435570858,2.30929792836083,2.30906743546633,2.30936391437694,2.30965090237141,2.30975448705722,2.31047712482842,2.31045737229463,2.31046985744203,2.31069754363773,2.31081043330735,2.3112685113089,2.31139527978999,2.31142148704765,2.31150137922453,2.31209288927465,2.31212216652957,2.31207097631811,2.31262770690827,2.31329929881252,2.31338809878046,2.31324392152261,2.31357474990771,2.31369481802473,2.31426356887129,2.31402265826758,2.31397274630545,2.31352191404254,2.31343303164395,2.31367791631026,2.31422359546373,2.31439522777731,2.31431449351699,2.31442891666487,2.3144844271934,2.31476620262297,2.31472784513723,2.3145269385265,2.31466135250731,2.31487728092835,2.31492082789801,2.31526976884845,2.31544607285711,2.31534415802839,2.31500944607202,2.31476116101951,2.31490834644349,2.3149786035879,2.31528250975326,2.31558401153733,2.31591669842085,2.31598115571844,2.31616665501507,2.31638666415807,2.31674122082694,2.31696717915731,2.31700572935964,2.3174034009843,2.31757543748822,2.31792868491157,2.31860377487721,2.31797464442697,2.31761209659383,2.31792668929608,2.31817555627859,2.31831522956484,2.31873134331767,2.31907774819499,2.31934704367676,2.31958640649739
2.28271475915479,2.28046109276619,2.28078603698356,2.28160498825996,2.28201673842271,2.28249309579797,2.2824885388364,2.28276573597294,2.28345979184981,2.28367240593795,2.28489941619091,2.28537506666765,2.28483968638985,2.28512685091493,2.28581114438783,2.28533692377195,2.28589092759797,2.28661228313828,2.28578506141128,2.28595909141221,2.28615785221265,2.28672883996898,2.28743977214872,2.28874395586105,2.28973044213017,2.2887342175229,2.2887452996168,2.28950938531021,2.28894281883638,2.2905000042165,2.29006030591679,2.29070213399984,2.28994944350572,2.29072105584386,2.29059672912849,2.29084243040751,2.29247099915731,2.29142881935375,2.29170534349503,2.29169302454468,2.29153727612166,2.29139013119691,2.2928489317727,2.29312659685511,2.29352512655243,2.29404344957565,2.29410858191956,2.29333200347029,2.29375658675037,2.29412747527111,2.29456640667241,2.29478011848832,2.29557955934796,2.29634491430849,2.29546188483991,2.29614571959077,2.29671885104338,2.29776494284678,2.29747999636795,2.29726886007999,2.29792700819833,2.29853123486703,2.29766680820971,2.29878150318163,2.29959564593213,2.29890667212369,2.29891222235755,2.29985751933884,2.29976521036177,2.30085397717946,2.30104861348819,2.30025755586042,2.30054398435404,2.30172010158973,2.30190264500561,2.30211386059632,2.30274477306994,2.3024561988118,2.30244012004942,2.30274375190287,2.30375054434781,2.30345705609728,2.30461076887319,2.30583506506139,2.30747968751117,2.30630503050524,2.30631570666498,2.30600021548756,2.30556629706607,2.30545857202287,2.30561285463757,2.30576363057799,2.3059966649445,2.30624789567296,2.30668918945854,2.30706137175053,2.309826598173,2.30784382152435,2.30785756363025,2.30797526835307,2.30883406567681,2.30874203757635,2.30818910010347,2.30913929950206,2.3090374881163,2.30986869931374,2.30953723884437,2.30892649797761,2.30903414774463,2.30930935852582,2.30967901995688,2.30953465802071,2.31139133108243,2.31101495645031,2.31076618780223,2.31176262955678,2.31104894973215,2.3121550806062,2.31215286465031,2.31169650867916,2.31143182841658,2.31298463113474,2.31237461268735,2.3121367905289,2.31292708615895,2.31296645002721,2.31290672560187,2.31330053721205,2.314519269085,2.314048457898,2.31472095324157,2.31440459540443,2.31477623198593,2.31377122566253,2.3131070918283,2.31336800556835,2.31465530627985,2.31457837124514,2.31451760581375,2.31430584243779,2.31478901513514,2.31583194480665,2.31505731236236,2.31455733128775,2.31469872945181,2.31516463504728,2.3152155384985,2.31543677645989,2.31606623707312,2.3160761968071,2.31528969748736,2.3145895042467,2.31485724097068,2.31546252871814,2.31593538282709,2.31594742122187,2.31617742360641,2.31613883222885,2.31662394380615,2.31665420722598,2.31744514760652,2.31753806906969,2.31706010476476,2.31793360708515,2.31733013681839,2.31818468583307,2.31813367849621,2.31771581232704,2.31749227699259,2.31854933411541,2.31844487675432,2.31842006152497,2.31934271429198,2.31980785581471,2.31967824233858,2.32018866996187
2.28099087960912,2.28084387774023,2.28188136874599,2.28237726149149,2.28273525869065,2.28220125351643,2.28234821721325,2.28210683606247,2.28304119145391,2.28307779689489,2.28379516444691,2.28462699688417,2.28482366111451,2.28491143143422,2.28485731509706,2.28526965371347,2.28578333190192,2.28580555095918,2.28585238249377,2.28558052887618,2.2861844864997,2.28714550359164,2.28754344454083,2.28801659238573,2.28868871244922,2.28883597706444,2.28858129612194,2.28904402572609,2.28900454901024,2.29057386288827,2.2906172731653,2.2899794848937,2.29069424549143,2.29081412272549,2.29104846353586,2.29132037505624,2.29078728928151,2.29123974960738,2.29178760655809,2.29174656565335,2.2928377954248,2.29249030008982,2.29244040434258,2.29380377202563,2.29475580979475,2.29418196867869,2.29524506123536,2.2938096683208,2.29418036760192,2.2946747547535,2.29520281231042,2.29657718013746,2.29663349788703,2.29741381266031,2.29674657239573,2.29677540964438,2.2972933168002,2.2971829076343,2.29721170575102,2.29910962621413,2.29910083487572,2.29871564739523,2.29876443255755,2.29983167183405,2.30005178347901,2.29948413854295,2.2994521219622,2.30056673976861,2.30105476458373,2.30103951203558,2.30060571233219,2.30089073773776,2.30109030345591,2.30154949799614,2.30290515787729,2.30292828075126,2.30264373187882,2.30270788948769,2.30310569286433,2.30317671482884,2.30385723597655,2.30361743399766,2.30497804502351,2.30532418267277,2.30635185985994,2.30642174402487,2.30612740281123,2.3062141447098,2.30707318802752,2.3070330873399,2.3070208689506,2.30734955704254,2.30632828281312,2.30721385233958,2.30808334944846,2.30770819683088,2.30793265250415,2.30798746319769,2.3077001965886,2.30796082782875,2.30865010543119,2.30900049814664,2.30818560059758,2.3090468086699,2.30988171359109,2.31018508652498,2.31003033786862,2.30936994298918,2.30976184152897,2.31087166784429,2.31020044950542,2.31020323249717,2.3108203784114,2.31098436011323,2.31229009441201,2.3122202540429,2.31239899666068,2.3137140640225,2.31176781483076,2.31358527025473,2.31224148591427,2.31268477008731,2.31238942389217,2.31311811082491,2.31304666998354,2.31304426540548,2.31271339841533,2.31323376641094,2.31370545597428,2.31387195972857,2.31405278516212,2.31401381908261,2.31426264793435,2.31364911315692,2.31411441174589,2.31358595638787,2.31399170409243,2.31395509563887,2.31461763083485,2.31449437739571,2.31587468076676,2.31588096589126,2.31515413025269,2.31497634704365,2.3152459707826,2.31641689339491,2.31512140309012,2.31560389808136,2.31677566801674,2.31668929434922,2.31656415001865,2.31552635395904,2.31526354340113,2.31583797321959,2.315936937646,2.31650397321642,2.31661870791846,2.31685984160286,2.31712331941518,2.31770356243186,2.3174030224947,2.31836072269106,2.31841120617682,2.31801478769694,2.3180306393906,2.3178016730019,2.31835960960233,2.31801038383498,2.31827096008344,2.31934493755365,2.3205305950655,2.32068149810944,2.32061662498573,2.32024375161748,2.31971690673174,2.32014667675969
2.28113247543197,2.28107280998937,2.28138329739169,2.28151139058123,2.28181105137402,2.28248959146862,2.28208616158675,2.28234334415614,2.28299316725417,2.28291402365443,2.28399360091253,2.28410299502558,2.28445497514846,2.28443952499031,2.28491315465881,2.285767285672,2.28612039634746,2.28605418584519,2.28612666964392,2.28608067346885,2.28666159880968,2.28738775259749,2.28730122659567,2.28783298739914,2.28813683811797,2.29042846870777,2.2900475864185,2.28998653771778,2.29063394527291,2.28998486234543,2.29003253666905,2.28962982742269,2.29006324408591,2.29051683993293,2.29129212278145,2.29145429926395,2.29136216988986,2.29238137345909,2.29368854952201,2.29245856367618,2.29411184816081,2.29404045380903,2.29337907613225,2.29416341183407,2.29487666104068,2.29445813625818,2.29460808899084,2.29584195312801,2.29646210248489,2.29593757063584,2.29661994345722,2.29651001487856,2.29630431244063,2.29651402913678,2.29779018114263,2.29636255771807,2.29672175778564,2.29735705683995,2.29903109930513,2.29960349758812,2.29931605168819,2.29968701108361,2.29978897342773,2.2996295082864,2.29978559703128,2.30000115148809,2.3005265614465,2.30151733253107,2.3015021130248,2.30167375884713,2.30229755215335,2.30284082504923,2.30293371586518,2.30354302747889,2.3042334622412,2.30414044249141,2.30371332876778,2.30342633491564,2.30694467741536,2.30422761194549,2.30447154162429,2.30443222071544,2.30533779755993,2.30608050115636,2.30596376977619,2.30690091618562,2.3067054659858,2.30683203695178,2.30727948046135,2.30781299968566,2.30668770214933,2.30714017656291,2.30714354941982,2.30750558655703,2.30762110097152,2.30784928991251,2.30909386899056,2.3084561247537,2.30797738562383,2.30832918500761,2.30896990530051,2.30945825758527,2.30923019607586,2.31014099097209,2.30942510650537,2.31002145111968,2.31081450824072,2.31065825288984,2.31068255564565,2.31148767373797,2.31129939324139,2.31123239958189,2.31155847850575,2.31262205998619,2.31254551773932,2.31219235186561,2.31222656471506,2.31204869712624,2.31251285913285,2.31303364068988,2.31427574893561,2.31379379928687,2.31458932669678,2.31499741436803,2.31358897449507,2.3130021779623,2.31335228557682,2.31391843035778,2.31358796872263,2.31541696806692,2.31405643409111,2.31448835792598,2.3145737861913,2.31502646642515,2.3154380989163,2.31511772311336,2.31504278524996,2.31455512905875,2.31569138818787,2.31460873724254,2.31585032749405,2.31598515971928,2.31571027668468,2.31582896312542,2.31584478459888,2.31625043990543,2.31587459169099,2.31609517773943,2.31623466451836,2.31662404488147,2.31630454325522,2.31668842873003,2.31691714144692,2.31659889946583,2.31626822604655,2.31687411005294,2.31759857860724,2.31764368334301,2.31773505233978,2.31826702388651,2.31816542944366,2.31879243796269,2.3188766279423,2.31874721074674,2.31913844469543,2.31922055596926,2.31871739200565,2.31869319930075,2.31904994686654,2.32090086958043,2.32037436998718,2.32104132344481,2.32152306562053,2.32071084739731,2.32037032221098,2.32098252501329
2.28120124072002,2.28095649137516,2.28173634079884,2.28239399952287,2.28159268773813,2.28326798465744,2.28350164299047,2.28245097575586,2.28264634589026,2.28321437466342,2.28386635068392,2.28454859275404,2.28517363768437,2.28466708508949,2.28518985888678,2.28574485973277,2.28639168667301,2.28781391790321,2.28776843141349,2.28636884697235,2.28691783555482,2.28724314004991,2.28732401945184,2.28782664467681,2.28857018858843,2.28929260764111,2.28995482417846,2.28995166337241,2.29072216749194,2.29073039186114,2.28986243154738,2.29028388327532,2.29106855050015,2.29167737064266,2.29141608734001,2.29232460796496,2.29342148949978,2.29269880452338,2.29324683812985,2.29340828383992,2.29369411576641,2.29390359755144,2.29493454418024,2.29530909689215,2.29521035090787,2.29519248193646,2.29496374770272,2.29621745331314,2.29715086335808,2.29617733109506,2.2968948254325,2.29815656426241,2.29666020698181,2.2974376649001,2.29701380080544,2.29698005275235,2.2976571022673,2.29842321247055,2.29800746004792,2.29985729857472,2.30036617484276,2.30062295519237,2.30035818737963,2.29980292237724,2.30066008880165,2.30109686061716,2.30143000257528,2.30178540362699,2.30212644040009,2.30290977533672,2.30313758312248,2.30429082617422,2.30350665993976,2.30364713797016,2.30373918867936,2.30456713229832,2.30470538397567,2.3048374836679,2.30457224289567,2.30488601605785,2.30558952713888,2.30593245086787,2.30655467227613,2.30779042581353,2.30725658081232,2.30703195460898,2.30747452920616,2.30728035939193,2.30789560177688,2.30764347194868,2.30776175374992,2.30816642240408,2.31048446532949,2.30813485052693,2.30804587673724,2.30887329616475,2.30964515918265,2.3095987063902,2.30916023027783,2.3103084468429,2.31073748122575,2.31162610841958,2.3108214744913,2.31375000672696,2.3105953859113,2.3112518308375,2.31048733171922,2.31073313539079,2.31140585457366,2.31191412441216,2.31124506323164,2.3114157845188,2.31126986363023,2.31186906619936,2.3122543913289,2.31192052069941,2.31237995369913,2.31303655179038,2.31310157155744,2.31301423105371,2.31375438717953,2.31405128030227,2.3155422284025,2.31502636054663,2.31388724211422,2.31372053382063,2.31389706536626,2.31402755695716,2.31404561311443,2.31465356023177,2.31468534036378,2.31543575216653,2.31506060749732,2.31495326775651,2.3161861456075,2.31611173298429,2.31501756864838,2.31487196290206,2.31528133935847,2.31600869372266,2.31744258909724,2.31704450014266,2.31647559336153,2.31717098532549,2.31680998106372,2.31660029134691,2.31645176522303,2.31742947094447,2.31722313608276,2.31738062886266,2.31705420513821,2.31751527101381,2.31914964337556,2.31849145565705,2.31701082141279,2.31755301618547,2.31712438962639,2.3174615630365,2.31777981912116,2.3182244694722,2.31824175979691,2.31887225664614,2.31863439884458,2.31898103206726,2.31901710233955,2.31917432849055,2.31921624982897,2.31882978047284,2.31940727343405,2.32042368162955,2.32048335992232,2.32048634078003,2.32047772252665,2.32114148041549,2.32103672820328,2.32293542035954
2.28128508319321,2.28100216736248,2.28127827783038,2.28146010088418,2.28215907951779,2.28270311804151,2.28250885848922,2.28245980731868,2.28291974466936,2.28368654027613,2.28432877631456,2.28498627053963,2.28697667915001,2.2873314175659,2.2875938642584,2.28734490043355,2.28736922111842,2.28720198676845,2.28776470207304,2.2883068251328,2.29049236737463,2.290930335445,2.28764615533444,2.28793635878357,2.28818905406418,2.28878005331887,2.28942050827501,2.29003383870878,2.29052998729426,2.29024689075589,2.29059127176205,2.29092738611786,2.29170114874679,2.29200526504846,2.2922453452876,2.29305845379243,2.29324031058035,2.29309832157027,2.29338698030186,2.29331143883476,2.29369233818928,2.29409196969755,2.29488193094465,2.29591587949013,2.29560194242913,2.29620287218627,2.29635619634826,2.29599993720302,2.29669785224198,2.29785942397312,2.29809507292464,2.2978803646243,2.29752833583884,2.29870992596958,2.29809912421392,2.29763281256835,2.29805775473123,2.29842937352758,2.29820258804889,2.30089462505738,2.30049350507068,2.30056740224751,2.30047288636058,2.3006219986114,2.30040532240977,2.30074786376835,2.30131320609598,2.30216246768636,2.30313169743437,2.30269712146779,2.30312708883797,2.3032371573102,2.30311605819268,2.3043647004651,2.30393790481428,2.30464471451023,2.30499531652504,2.30488578691415,2.30564550479989,2.30580514786621,2.30867865946556,2.3070219461379,2.30643333113333,2.30701870397538,2.30761178078146,2.30718899250448,2.30993309540091,2.30872587440796,2.30803882454896,2.30808371222453,2.30938043768322,2.30949584404074,2.3085955574338,2.30831178403412,2.30840636457709,2.30924751557733,2.30889608733487,2.30987109780072,2.3094702039846,2.3099746132617,2.31200391877715,2.31116162425403,2.31420946388563,2.31278303142743,2.31087325711799,2.31105547819374,2.31204565299092,2.31139952114493,2.31148454255278,2.31329707994804,2.31189405333751,2.31163117005774,2.31158494611903,2.31189360654369,2.3120669170388,2.31247312161774,2.31254351823082,2.31266179685965,2.31315617011136,2.31333411067662,2.31444130302882,2.31415539886356,2.31418179516176,2.31531817834288,2.31533071191869,2.3142010031433,2.31470486506225,2.31454526500456,2.31516272509012,2.31521584370967,2.31605001165155,2.3159259935509,2.31533865436191,2.3155591768125,2.31599455876714,2.31695077532485,2.31623563979328,2.31569038741873,2.31577374441691,2.31601066302099,2.31680539083596,2.31738014733918,2.31771227315744,2.31759047581951,2.31724826841561,2.31708029457217,2.31731054767304,2.31772853782017,2.3179855990121,2.31849240379021,2.31714178978482,2.31736336976442,2.31771919334695,2.31762706634505,2.31721009886101,2.3175863024989,2.31782049010023,2.31806791012224,2.31823221148221,2.31924983947987,2.31983901030256,2.31921179071382,2.31940686142933,2.31904985022316,2.31917655239028,2.31930410868974,2.31954514301933,2.31955857282732,2.31993622722872,2.31987660250626,2.32056821668283,2.32120939702055,2.32140481563864,2.32224766709612,2.32187741174433,2.32285535488849
2.28082686277321,2.28099956683118,2.28114429212913,2.28220851188189,2.28278512836122,2.28293787245918,2.28311462331374,2.28284110027396,2.28424603139618,2.28429947719673,2.28463479869739,2.28504813725039,2.28553664123826,2.2857735273558,2.2867995612745,2.28643352415945,2.28777895267868,2.28792355633992,2.28879999926834,2.28905924915321,2.29061477379047,2.29113127060003,2.2915560009139,2.28789564037342,2.28646392179756,2.28922737501273,2.28961998492821,2.28977260307458,2.29055094247644,2.29104321326064,2.29112979679959,2.29124133417844,2.29249160461491,2.29277525693675,2.29357141744165,2.29309406347035,2.29311973177794,2.29525381385364,2.29373621825462,2.29419370985627,2.29486189853863,2.29680126539315,2.2951057305229,2.29579261416458,2.29541783331469,2.29602966871377,2.29684907954746,2.29636508439828,2.29710516746338,2.29813552288589,2.29800003799869,2.29807115017695,2.29951163479217,2.30079678704802,2.29980617815408,2.29882846805768,2.29895085292122,2.30134293565359,2.29928091644121,2.29978161213391,2.3002966247829,2.30054531847234,2.30094971106799,2.30143442130035,2.30110224208764,2.30153169939502,2.30119265720727,2.30302931508715,2.30322662228021,2.30281129265434,2.30353703708525,2.30401053201024,2.30416119162027,2.30508221010504,2.30525487446315,2.30710450892471,2.30727300580776,2.30520480754298,2.3055654673181,2.30638968662619,2.30753460009891,2.30705243268196,2.30660527063673,2.30741818888207,2.3075548400117,2.3085017791009,2.30896113541302,2.30827730995625,2.30939200702042,2.30894987812971,2.30913252901645,2.31015350464038,2.30920764917033,2.30912725199591,2.3096224651223,2.31028754961874,2.3101584693448,2.30998727822264,2.30933861061185,2.30972853673019,2.31106126952288,2.31184911511662,2.31130823663087,2.31158828440813,2.31040808637959,2.31107954169414,2.31148418903249,2.3118076105626,2.31128732101499,2.31238712360627,2.31278492782544,2.31215692636126,2.31236030761886,2.3119582247591,2.31224489452068,2.31265744975768,2.31291254817431,2.31324059211703,2.31328691656208,2.31349957234994,2.31447175347484,2.31438781459903,2.3142530030866,2.3146669304873,2.31497487302541,2.3157794255529,2.31673121529366,2.31541990863346,2.31544546992785,2.31641644441559,2.31579747402636,2.31621516200893,2.31564310730461,2.3161995642885,2.31663457760868,2.31671395001475,2.31632432808767,2.31593185176385,2.31605167405217,2.31648744559886,2.31846950901065,2.31794246001424,2.32036240786368,2.31796887916459,2.31834479558418,2.31744337475377,2.31720569433572,2.31787609068149,2.3183022257925,2.31772052199781,2.31833877590359,2.31862848286414,2.31848243659009,2.31837624373443,2.31852569853636,2.31992525736315,2.31917611410511,2.31893521654759,2.31913870944803,2.3214335709624,2.32000166912981,2.31994888577146,2.32065590005543,2.31995026828246,2.32010529205858,2.31997235165692,2.32054323140977,2.32056052250385,2.32066186461152,2.32097400606292,2.32146830337136,2.32198816190722,2.32256586612101,2.32275758606316,2.32284605796639,2.32325329991063
2.28173702435279,2.28206027712625,2.28239014952755,2.28278151227432,2.2834357061597,2.28295774268142,2.28305239092573,2.28340792314268,2.28428614137356,2.2845050333117,2.28480479176223,2.28684102221979,2.2860014334992,2.28651424303303,2.28696750599778,2.28711535293413,2.287590850107,2.28974481313256,2.28878542411278,2.28904215828675,2.29015263640188,2.29069268943668,2.29129815152187,2.29172002637781,2.29389166042169,2.2919341841571,2.29201052896844,2.29050121615898,2.29108524262159,2.29127625779835,2.29378360449194,2.29160138625226,2.29219684313616,2.29340385719322,2.29439470168604,2.29336041235997,2.2934599075825,2.29412595137797,2.29370197218141,2.29480506222121,2.29544981834608,2.2963341868013,2.29568083727777,2.29553044660252,2.29625396908629,2.29657704157183,2.29783419743195,2.29801826609123,2.29767021997265,2.29915557608298,2.29834773819004,2.29811281227588,2.29868718121889,2.29920127563859,2.29980211176537,2.30000190531599,2.29965837065689,2.29975695345974,2.30034140564345,2.301014482001,2.30112423139499,2.3016850619381,2.30190121762342,2.30207822043674,2.30222589314906,2.30258276947637,2.30258802947054,2.30324513781681,2.30392706195328,2.30302443932632,2.30370839527599,2.30518428467563,2.30416908805319,2.30479667595138,2.30530070396437,2.3059563052228,2.30611963739273,2.30484829010557,2.30656941800106,2.30722387449539,2.30712036038108,2.30718666336085,2.30791882988848,2.30901734046992,2.30893017217734,2.30863557092048,2.30862944181402,2.30889242144137,2.30929948902509,2.30950094635782,2.30983735740392,2.31030830001037,2.31182138565915,2.31038445273225,2.31124036054464,2.31039075340123,2.31132313691007,2.31114885894483,2.3108420285251,2.31089783052315,2.31104106556372,2.31119595757609,2.31197192372705,2.31201110534126,2.31203064952132,2.31157714086745,2.31149304872244,2.3122648129865,2.31200195511065,2.31203207902252,2.31250900567824,2.31238032665812,2.31250361468973,2.31261926640507,2.31289244747943,2.35213545725352,2.35211375222072,2.35154249092071,2.31335719883927,2.31373302088377,2.31508656118572,2.31542852367963,2.31534921064907,2.3151050955478,2.31579666489462,2.31601673219064,2.31637245677776,2.31779886784796,2.31750889480963,2.31758935068289,2.31649014818501,2.31683208727173,2.31712605931125,2.31697459310336,2.31689387165222,2.31682623947045,2.31735481355144,2.31728517153748,2.31727295161082,2.31824642309941,2.31796675026891,2.31838158525494,2.31839984619279,2.31795671491626,2.31832146515043,2.31815509858685,2.31817208775791,2.31952207956383,2.31951793834892,2.31974587911373,2.3191655819516,2.31874765354486,2.32004971686343,2.3194340525702,2.31872958663911,2.319699876576,2.32004752599389,2.32099165076309,2.32000082562348,2.32039966163663,2.32075864170849,2.32119195924699,2.32164430265851,2.32175826601848,2.32199459992183,2.3215958085757,2.3210836964324,2.32092728921587,2.3213258794012,2.32234680499878,2.32264124158765,2.32482786849188,2.32339643118204,2.32342611256786,2.32335629932666,2.32377222429055
2.28190880133443,2.28321792827996,2.28246723553668,2.28294351018562,2.28327941917069,2.28429269462522,2.28352772626267,2.28386517320166,2.28456193702054,2.28563206215968,2.28533367265702,2.28677688486189,2.28617128861627,2.286333574235,2.28737966574602,2.28752417287469,2.28791797897498,2.28854629864923,2.28924045159205,2.28991773731089,2.28987091940662,2.29074141609642,2.29129142632699,2.29260410336503,2.29338903203436,2.29269154773263,2.29279434370147,2.29268747800065,2.29197807335156,2.29210577019222,2.29215355123327,2.29227093561201,2.29272654336135,2.29326231963756,2.29413089984037,2.29448175537459,2.2951840946484,2.29465243128374,2.29462177973754,2.2955828270763,2.29548888573943,2.29550318038474,2.29554094001038,2.29681745491704,2.29683536079914,2.29769491124746,2.2981080890867,2.29820300624457,2.29801250535268,2.29812978016688,2.29799142814698,2.29836629969076,2.29897111877063,2.3000295670741,2.29982321930629,2.30032736879736,2.30098293452228,2.30053926158519,2.30174201007288,2.30113636205442,2.30092908064176,2.30172173758568,2.3020506917655,2.30350069535869,2.30399453683004,2.30346039526418,2.30309450750843,2.303186755364,2.30383509655528,2.30358407934506,2.304606075556,2.3048622790049,2.30469653417539,2.30483753718676,2.30560616650309,2.30597832948537,2.30585034214486,2.30666974709307,2.30712604003596,2.30714755322375,2.30774200653905,2.30776142681688,2.30830237043707,2.30878504600532,2.30826157480451,2.30878868814709,2.30881289502556,2.30909297787169,2.30997521852037,2.31025668274349,2.31057123200298,2.3112792747302,2.31038755356946,2.31032719033108,2.31108042976528,2.31143403349569,2.3108112574584,2.31178546876735,2.31229343192698,2.31397150993592,2.31214453988988,2.31210152395325,2.31456645855304,2.31284997928911,2.31291755326439,2.31279156472147,2.31261591366536,2.31228732681344,2.3533141152697,2.35275231789625,2.35304828639288,2.35218723714863,2.35226973448937,2.31467599955086,2.35144235516281,2.35128223900998,2.35125753083058,2.34962949470344,2.35086723118007,2.34944424928339,2.35089338035703,2.34834369301537,2.3154601334506,2.31555703692187,2.31601635544984,2.31759227210725,2.3193255786698,2.31831060527979,2.31832343731703,2.31847547946243,2.31730923711156,2.31848195760029,2.32041514775805,2.31821616334576,2.31702527493578,2.31759820212136,2.31755674854656,2.31823878480742,2.31826306086065,2.31925974801964,2.31963902382565,2.32098061777392,2.31927559063806,2.31870483792834,2.31990923879986,2.3207862695361,2.31947386392278,2.31978917921768,2.31903783016751,2.31909551035097,2.31952669689209,2.32008191339806,2.32031757895,2.31979507670937,2.31966800782993,2.31970230326641,2.32075968226044,2.32065320787937,2.32090483346066,2.32040819111577,2.32047365623648,2.32139366179806,2.32281717391422,2.32274701430921,2.32410063093125,2.32309715570737,2.3218073622334,2.32258549348254,2.3224353425619,2.3231744553677,2.32257894093861,2.32298208875031,2.32433877983118,2.32445678924121,2.32433851756669,2.32503100096753
2.28200146469598,2.28300487048427,2.28337352708393,2.282888378089,2.28373632792982,2.28483109499733,2.28468130245344,2.28510057676605,2.28444050591228,2.28572821065487,2.28646690182654,2.28578694604462,2.28673741908721,2.28704575720182,2.2874114762983,2.28814240552213,2.28845446340456,2.28889684236574,2.2892699889101,2.28971204301481,2.29063039654132,2.29123257585758,2.29134297137006,2.29202523503372,2.29229075471623,2.29258661757145,2.2946966046726,2.29398850587613,2.29352321581793,2.29274967193743,2.29244990464432,2.29286337546087,2.29369232142999,2.29447473112512,2.29618853657291,2.29651817794696,2.29779115860757,2.29787378709429,2.29819438743891,2.29610592100057,2.29555428453233,2.29602975207836,2.2959007086636,2.29644494793342,2.29701318578784,2.29736947980026,2.29880120223048,2.30080755129194,2.29948601982188,2.29917873521298,2.29826101220876,2.29858106416954,2.29943997506328,2.30027563464122,2.30048237210048,2.30093557963358,2.30135823773013,2.3022887675805,2.30157174766338,2.3018001984981,2.30226003118186,2.30187890687308,2.30218495858842,2.30309784060933,2.30284185812263,2.30348543650391,2.30373282673705,2.30416363639427,2.30458245854182,2.30528993119995,2.3049136760549,2.30537176576595,2.30534402085392,2.30581060374042,2.30609538924103,2.3064964065745,2.30671886834236,2.30751239638351,2.30766154106572,2.30778170194743,2.30762579573678,2.30783462186118,2.34597278140628,2.30877790106769,2.30894327568451,2.30955887648625,2.30927499443601,2.30939090403484,2.31022695624629,2.3121566317782,2.31198959515303,2.31182842338412,2.31167428922463,2.31189251367622,2.31126196567573,2.31116457361214,2.31152814064249,2.31169589823624,2.31279837874369,2.31308756614108,2.31215285999604,2.31285980487799,2.31476377001029,2.31353789457537,2.313364510862,2.31320885689916,2.3136294770411,2.31310225652088,2.3518786192581,2.35154285573559,2.35188039177112,2.35151450995844,2.3517925880965,2.31885964713134,2.31951143961378,2.31946280776792,2.3204193426207,2.32018131808871,2.35011127695147,2.34867645645617,2.34991905998255,2.35816826181723,2.35846998791588,2.35868428885067,2.31728584298564,2.31835154777524,2.31815882080386,2.31829727421714,2.31975049552399,2.31881569193958,2.31887044630243,2.318339441603,2.31866738883033,2.31775667796108,2.31851496742734,2.31794630585953,2.31820540622664,2.31857473579375,2.3180859784066,2.31857060976057,2.31859504882933,2.3193383744099,2.31906362254495,2.31921649619588,2.31946490284961,2.32018944452814,2.32006079984312,2.32071351163131,2.32239809308195,2.3204040247723,2.31983424313655,2.31978563090725,2.32004036963528,2.32048426593076,2.32000163164902,2.32049877081317,2.32122090978384,2.32143950728737,2.32066762752305,2.32060672690479,2.32099213301962,2.3212681254898,2.32177411573562,2.32197167249991,2.32217007017813,2.32288251235971,2.32323138803549,2.32365277300949,2.32316610014565,2.32394470050444,2.32419008928827,2.32459737956713,2.32626320140792,2.3276683370679,2.32689834011385,2.32512601314599
2.282458880937,2.28313893724145,2.28336626994324,2.28373638730743,2.28423934771097,2.28485822270343,2.28511485882762,2.28572936086988,2.28594886002991,2.28617099433728,2.28681975289091,2.28670519246824,2.28706764589976,2.28760625057892,2.28840578733781,2.2883444538387,2.28869628186229,2.28937355727355,2.28973246583107,2.29025788942449,2.29058496258664,2.29092787873057,2.29121801621564,2.29179633842112,2.29237360603061,2.29290599950314,2.2936675032025,2.29372402500726,2.2936075154587,2.29336142031402,2.29327614210822,2.29356689576901,2.29416099309448,2.29495743188706,2.29628060029848,2.29658643259834,2.29736069290035,2.29797446210196,2.29806316226837,2.29696130771032,2.29651269191956,2.29657805009501,2.29638640000375,2.29665962011185,2.29738797367072,2.29807001105095,2.29905425971225,2.30014433466458,2.29976264569595,2.29992956317048,2.29966001178255,2.29989412946044,2.3002368571341,2.30091782414442,2.30110939683043,2.30147684203358,2.30233970251937,2.30244454954987,2.30254844670476,2.30230888405324,2.30235608069594,2.30237907460632,2.30252111426707,2.30278846782484,2.30329922314951,2.30440062922248,2.30576703993621,2.3053500910255,2.30527469298499,2.30554413560695,2.30606298710919,2.30647838315309,2.30635373003819,2.30651584006666,2.30661820041996,2.30700894633902,2.30758331469014,2.3083985512306,2.31621042465405,2.32365702028351,2.32749090412116,2.33266447683942,2.33825187346729,2.33282136870602,2.32220982834163,2.31096918524609,2.31037526955973,2.31017340927218,2.31070493386154,2.31175988116688,2.31209265325728,2.31203792223218,2.31199464122085,2.31204496035134,2.31175416930114,2.31220320691046,2.31247485837556,2.31252579036209,2.31324410318696,2.31325242589724,2.31321582078999,2.31339077831783,2.31408411698431,2.31455309466925,2.31476288418855,2.31463689412199,2.33377453003901,2.33808897115751,2.34641084241027,2.33782634873816,2.33597302550253,2.32749362812317,2.3248338209041,2.31918050277995,2.31898066349588,2.31908294485573,2.31989820823174,2.32052586323997,2.32982346890133,2.33765928280294,2.35190865013258,2.35570144149203,2.35750431156901,2.35877538506726,2.31633447205767,2.31768488498421,2.31876087877439,2.31927998789431,2.31936361739681,2.31877569543672,2.31858908594325,2.31833106218973,2.31840671457425,2.31838050677243,2.31872845546107,2.31845510946865,2.31882923932806,2.31940004750385,2.31901999677065,2.31915807750569,2.31913974594241,2.31928499115607,2.31926991713967,2.3194388634161,2.31998561933156,2.32072557059372,2.32115444122347,2.32173778059807,2.32233736365702,2.32104123522716,2.32030177660793,2.32010606374466,2.32028187068988,2.32049564781715,2.32041318008417,2.32071875943686,2.3211003702307,2.32134069578154,2.32150433405977,2.32149922342484,2.32174698025889,2.32218625078487,2.32285697116509,2.32269272539102,2.32287045336156,2.32318405643427,2.32352263776785,2.32396011884289,2.32392490988488,2.32439963433082,2.32486152514232,2.32547205323874,2.32586042470534,2.32644914047966,2.32623376844384,2.32568624887863
2.2825797520141,2.28369975438504,2.28323560978879,2.28442126507842,2.2846450646336,2.28522384501959,2.28522047541496,2.28673747682575,2.28747400059492,2.28618367202206,2.28790340119148,2.28715583380172,2.28716482087547,2.28791649580236,2.29022866799747,2.28814564734033,2.28861921727163,2.29017088007711,2.28998081998589,2.29097701525179,2.29043553674125,2.29057304684045,2.29068564203688,2.29157501661644,2.29244757211908,2.29305176783437,2.29329895555311,2.29358206257851,2.29380492987892,2.2937634487519,2.29367746236166,2.29389151297932,2.29437510981689,2.29488883606745,2.29741395692331,2.29623027927812,2.29715309042826,2.29856581725275,2.29896621492222,2.29693076621955,2.2967319188695,2.29732505753602,2.29646763438577,2.29643347074352,2.29767261598701,2.29830362873286,2.29899052505697,2.30086059370652,2.29947230915484,2.30110369436511,2.30054502586453,2.30107222390842,2.30066000676958,2.30204959344564,2.30157172317117,2.30151436938521,2.3040386035232,2.3023066938519,2.30338090608893,2.30259621513611,2.30229467086901,2.3029003708741,2.30299796859551,2.30304202868605,2.30306903982254,2.30480982273085,2.30987909090036,2.30596968872645,2.30557370754212,2.30551449304581,2.30712055193136,2.30776753356853,2.3067777937341,2.30702025053345,2.30698096390153,2.30740659843277,2.30748323394518,2.30776004618836,2.35243003825209,2.34642663932136,2.34582049240375,2.3460496486776,2.34714270332688,2.34678326964696,2.34787548540398,2.30982765397825,2.3099343264555,2.31024763236443,2.31101589325474,2.31211691353306,2.31250434770244,2.31203495952998,2.31212004636432,2.31245630553999,2.31147874802957,2.31337466707628,2.31365393924875,2.3126591038625,2.31442427808165,2.31349757295982,2.31409424942107,2.31335828170953,2.31322515979214,2.31491470759203,2.31515276631615,2.31437632504078,2.36056572254539,2.36899557180878,2.35748760377696,2.32137917918498,2.32058030209739,2.31786456268709,2.31824057270284,2.31835921418814,2.3183072619983,2.3185636303336,2.31927711246201,2.31916974734352,2.32062651496892,2.32110477873454,2.35336280481961,2.35540906621346,2.35621587135467,2.35678721055198,2.31670605121562,2.3173748200051,2.31798128121077,2.31874361399367,2.31877425336888,2.31827521980612,2.31850322915093,2.31807440773853,2.31825388724108,2.31860750559059,2.31953349846335,2.31830542220925,2.31925091818516,2.32119190490094,2.31943771900211,2.31990304158479,2.31949605552526,2.3193578718325,2.31923545316735,2.31921683921845,2.32025409169158,2.32155432791839,2.32215408310819,2.32285928083354,2.32428970845083,2.32115654354904,2.32018321757671,2.3199621028839,2.32040788310501,2.32075166369856,2.3204102803118,2.32084937274668,2.32110691808774,2.32131027796779,2.32248387437202,2.32211744386452,2.32228231888997,2.32287390922761,2.32477459552206,2.32307085278041,2.32341414479751,2.32343674132383,2.32369797050438,2.32470501283518,2.32413621555711,2.32480244666026,2.32537629579415,2.32658306436216,2.32535640346915,2.32608743236378,2.32594246040362,2.32496163848953
2.28385771917852,2.28352733458174,2.28410020485405,2.28396074417541,2.28389984540468,2.2850072554516,2.28577530906429,2.28654679537461,2.2875877306612,2.28767904430401,2.28876074524865,2.2894373093125,2.28910916925573,2.28819815775006,2.28884385899562,2.28845863941054,2.2894461824588,2.2907084314697,2.29086647162813,2.29050138749875,2.29072430950077,2.29126568536385,2.29148252685914,2.291743334062,2.29213953969325,2.2924987099074,2.29300259881042,2.29335998393595,2.2938699181829,2.29433704783555,2.29507613200567,2.29488658369442,2.29561389116005,2.29598914792482,2.29649296690311,2.2971973386088,2.29751372503743,2.29864719431313,2.29916219087493,2.29948310793577,2.29800399382302,2.29715611383329,2.32846412967459,2.29646575464807,2.29770117004296,2.29793136764863,2.29860088797084,2.2989484594706,2.29924095565995,2.30045519612622,2.3007940681352,2.30096909445163,2.30151785235656,2.30167097831916,2.30414228754318,2.30356286660673,2.30320411497497,2.30401302983949,2.30419464672914,2.30297548220051,2.30259505421316,2.33694974856583,2.33796291989371,2.339833941445,2.31012746331094,2.30886309109317,2.30925410227651,2.30767194396222,2.30896340839142,2.30692247244992,2.30738043830012,2.30728761660135,2.30846300167425,2.3093230851176,2.33572389152032,2.34706641040665,2.30797832510798,2.350311697636,2.35041565553047,2.34856038006544,2.3458750072544,2.34628139933132,2.34607874059665,2.34675529185643,2.34852422765449,2.35189078166357,2.3518570732595,2.35332263690971,2.3113462500888,2.31218344642997,2.31224707150481,2.31189705987273,2.31219676227428,2.31277163795393,2.31394508853375,2.31310550806062,2.31377958525824,2.31341543142277,2.31340796356414,2.3138136839305,2.31406939910576,2.31359927419593,2.31336503859682,2.31367141408674,2.31408260489552,2.31485504662286,2.36310571183088,2.35890158105162,2.35840720079852,2.32074616150974,2.31849988283374,2.31793291995511,2.31836395818294,2.31876412184508,2.31960475886976,2.31931068067293,2.32123567865987,2.32021324981219,2.32084089440389,2.3209069355856,2.32059924764483,2.35474058028892,2.35535829100209,2.35586717799491,2.31779831162037,2.31836013057616,2.31844694978375,2.31966716332278,2.3199438146802,2.31854901262767,2.31876613497632,2.31944089827708,2.31865225699223,2.31853245532564,2.31893285632092,2.31947489003141,2.3200042099536,2.31988636336005,2.31935725881454,2.32036052294483,2.320411768359,2.32018726941264,2.32006909287391,2.32006576133318,2.32117887671346,2.321309244694,2.32187179038132,2.32158441827831,2.32198708460517,2.32201063085056,2.32093010785646,2.32064133966131,2.32058664694642,2.32099061466563,2.32120375792171,2.32173182229662,2.32218320667373,2.32171816263252,2.32301538514332,2.32259643579162,2.32307639864992,2.3235175163928,2.32440414882952,2.32518025939906,2.32468173779848,2.32422366761817,2.3247303168886,2.32453285349538,2.32476424074064,2.32516720429266,2.32574011389071,2.32804376741847,2.32642228599816,2.32899689713329,2.32725486864377,2.32570687167498
2.28344318382418,2.28619681685014,2.28457969103095,2.28413466657505,2.28489498297809,2.28529619611886,2.28572568232648,2.2859407990332,2.28670604326843,2.2882143981616,2.28857326765031,2.28830408834161,2.28916081515158,2.28893090024113,2.28873955297885,2.28896178089169,2.28951116656374,2.29014326693239,2.29095285604163,2.29127235889732,2.29108178493743,2.29205002287368,2.29166406015177,2.2916674774225,2.32272170362336,2.29311646518025,2.29322431338846,2.29466037252942,2.29584055528182,2.29667613075021,2.29504159375583,2.2959626681676,2.29700055362624,2.29943054056895,2.29763657569236,2.29808342836811,2.29871793234209,2.29909218955987,2.30030141879819,2.29965922184033,2.32571206260962,2.32656878937367,2.32682227895437,2.32708468259828,2.32678292194108,2.32745935194676,2.30065014251816,2.29993518030012,2.30084178523396,2.30086212087449,2.30113613854765,2.30220591814128,2.30310822102882,2.30422162192679,2.30508863372685,2.30381324419321,2.30376454501015,2.30470946409705,2.3061945322074,2.30840139712491,2.33680498227064,2.33628247427563,2.33714097774983,2.33837402153158,2.31002640526456,2.30931566050824,2.30845124052333,2.30866234864366,2.30796483563537,2.30962598063349,2.31094490160068,2.31023375943287,2.31142780156778,2.33819319131959,2.34928310171458,2.34696871348483,2.34997806176648,2.34778577166866,2.3477972060964,2.34586121812154,2.34624963656361,2.34549141318407,2.31589372537759,2.34592717603785,2.35317697853718,2.35287576934009,2.35211222235132,2.35212347208064,2.35160847984749,2.35323441857181,2.31273431158674,2.31233881645001,2.31272225068006,2.31400721980376,2.31373065210224,2.31358999844729,2.31449095573629,2.31451474737119,2.31438253495496,2.31555692336064,2.31551175056858,2.31414732573726,2.31429393575044,2.36606898104936,2.36585914239744,2.36678775018925,2.36242462314132,2.36238750456834,2.3198276034442,2.31920372021995,2.31843334684328,2.31796687402049,2.31760456117172,2.3193160382607,2.31892011406174,2.31923851625792,2.31961174638739,2.31902117265523,2.31979639172341,2.31999960328997,2.32021217401379,2.35546708144971,2.35473551526254,2.36806634412134,2.36716998775624,2.35852151929979,2.31849335556861,2.31941203948101,2.32227945818475,2.31990235012998,2.32001826712348,2.32046646475314,2.31968596207581,2.32023900696948,2.31973481072052,2.32127226210947,2.31997933150423,2.32079139974116,2.32075698174653,2.32091327091584,2.32111638203976,2.32095346203612,2.32085545563793,2.32198046990214,2.32201098063417,2.32237795903008,2.32259997352677,2.32153799964228,2.32226202483881,2.32241892112275,2.32185315046544,2.32128409524214,2.32401632907668,2.32218194917348,2.32201944632872,2.32315129536998,2.32346363308482,2.32345896957543,2.32403147462956,2.32371441717503,2.32371709270084,2.32366153986728,2.32427290790357,2.32503641251003,2.32464431097275,2.32490412570617,2.32482272869356,2.32623678002169,2.32833984470101,2.32873054297788,2.32687260574331,2.32641057717057,2.32751537101122,2.33071460372111,2.32786983994656,2.32773004310915
2.28470220704204,2.28523872438908,2.2845908645559,2.28417863867647,2.28512040018288,2.28554298334427,2.28627000731006,2.28715836120876,2.28742155799718,2.29070850450781,2.29069102351301,2.28885637022405,2.28925221191287,2.29033811959152,2.28953528838201,2.28972964828835,2.32519112420357,2.29111696640161,2.29155551389904,2.29154212791127,2.31874511782873,2.29291215243876,2.32057828330104,2.32021124678556,2.32092913666939,2.32083086630456,2.2936092222207,2.2950632179126,2.29641116743023,2.2956908521852,2.29578115044819,2.29665479486371,2.29697362871004,2.29718693500223,2.29823599177521,2.29828417114413,2.29998385989592,2.30076554454438,2.30010889499742,2.30052077748999,2.32568993109711,2.32603973341516,2.32579650078124,2.32611528217369,2.3268399123529,2.30652497033075,2.30202246040604,2.30135913817326,2.30124079248998,2.30129599509131,2.30274726217671,2.30272406758209,2.304434873883,2.3045128008034,2.30418573551066,2.30426692080793,2.30415280769236,2.30565975777064,2.30647358922722,2.30826870168888,2.30970871931101,2.33917061535072,2.33835335497929,2.33800910422076,2.30801845415672,2.30718012059579,2.30770199298556,2.30764369180177,2.30860463682932,2.30938575714685,2.3097564998068,2.31057597548791,2.30969576194841,2.31696237938041,2.35207532051159,2.34832769343896,2.34752389755166,2.34746329285436,2.34754887828503,2.31552481102713,2.31349326624852,2.31351458410155,2.31472924754962,2.34600571909589,2.35158684001855,2.35196617466018,2.3522402351385,2.35146624774372,2.3514283267159,2.35168558665373,2.31470939519114,2.31278338380034,2.31319427551868,2.31345191053996,2.31414048557323,2.31656566601749,2.31534240387101,2.31495366753735,2.31477359946748,2.31513785021314,2.31468471956229,2.31456441830237,2.31569135668284,2.36320362765141,2.36355744312749,2.36355120553259,2.36307922484922,2.36355748877091,2.31913835210232,2.31826866450794,2.31799244849128,2.31730562349874,2.31738264316015,2.31773036484476,2.31869120356161,2.31856528070669,2.31867330831399,2.32014099101999,2.31897611039762,2.32034770379927,2.32068274804642,2.35515132285928,2.35577885327278,2.36556883270276,2.36519931015942,2.32042224270397,2.31943549606643,2.32025619576841,2.32122780046816,2.32043770938814,2.32056877327673,2.32140511361418,2.32118790454144,2.32058912167935,2.32212772105871,2.32108707368978,2.32132393445941,2.3214212707326,2.32101155506709,2.32129616659094,2.32059259754341,2.32097756058401,2.32156678427807,2.32208009866982,2.32161999705566,2.3217763937317,2.32238081120472,2.32303046169712,2.3230584718235,2.3244982867649,2.32312304109121,2.32279468237388,2.32241925972198,2.32230106301458,2.32279965039549,2.32321807578616,2.32523639793375,2.32406519586446,2.32348052147744,2.32384704484739,2.32582444996456,2.32582004727988,2.32485592275182,2.32472954017838,2.32552487219105,2.32630581897974,2.32666704696523,2.32696608096732,2.32871326150195,2.32768683037696,2.32721441386487,2.32666714645894,2.32725353691537,2.32808307097585,2.32826720761838,2.33084040114143
2.28443513548345,2.28523767670475,2.28530779798551,2.28494101174856,2.28530622308297,2.2859980225813,2.28845804081119,2.28819473683384,2.2881753579516,2.2892174146757,2.29044785597948,2.29051358457149,2.29219427278074,2.31712082092177,2.32747075319541,2.327093245844,2.32445714394135,2.32464919372319,2.32212160473067,2.29273227187837,2.31756050707343,2.2979192039817,2.29827307152094,2.29827521846343,2.31973537597425,2.32048104674285,2.32146733374434,2.32334748234015,2.32612912098188,2.29612352107955,2.29626686124435,2.29712854413572,2.29655484497348,2.29710726454101,2.29777615687323,2.29805458641531,2.29950902060025,2.30127180642127,2.30110850906204,2.30190730305097,2.32430953120643,2.32492526110204,2.32537933385523,2.32609822351547,2.32646995574764,2.30526494114998,2.30554757991745,2.30366281849672,2.3038343909815,2.30330248406023,2.3024085432754,2.30315082565698,2.30350186114353,2.30412351444914,2.30553066103939,2.3047102566191,2.3050619904604,2.30549546266863,2.30570374978398,2.30678051402665,2.33642250841329,2.33786107147982,2.33753854448488,2.30759296834656,2.3074422587752,2.30719942493658,2.30760177485093,2.30720084470857,2.30816890827035,2.30953349689626,2.3096930517791,2.3114496481059,2.31090630802463,2.30955477970484,2.3508883141988,2.35057643119614,2.34986123817846,2.34916660798468,2.34827676795184,2.31302342627639,2.31388958580568,2.31391052051022,2.31541420754214,2.314566280323,2.35122265028321,2.35126061059119,2.35149728479875,2.35136389380571,2.35315178140412,2.35129081629015,2.31477984196328,2.32147134239035,2.31222793755723,2.31439945554601,2.31572635783927,2.31488870041135,2.31536405246616,2.31570250889702,2.31542695043751,2.31515109324738,2.31571862435851,2.31596799758045,2.37059740682376,2.3689606135566,2.36214703885075,2.36158984320081,2.36188506778,2.36315244692013,2.3179617675518,2.31840837074869,2.31830898086949,2.3176570576547,2.31749383096469,2.3185366403118,2.31919502589363,2.31940379520589,2.31865775881157,2.31926181601757,2.32066568042222,2.32052081702078,2.32096154956561,2.35557506847529,2.36684025552297,2.36731301081402,2.37902698774653,2.36978080169335,2.36880973665852,2.32132936109824,2.32075254409839,2.32164606637361,2.32116791604454,2.3213785448488,2.32199681975987,2.321200462029,2.32213716496511,2.32146506368351,2.32168684452876,2.32204134463879,2.32158034275632,2.32194022007329,2.3223879906931,2.32178910203734,2.32223560835883,2.32261920968058,2.32220996416072,2.32178907443572,2.32230924970864,2.32280027505123,2.32241396508791,2.32406435124731,2.32366930237589,2.32319448864008,2.322870777554,2.32287504832234,2.3235182390222,2.32336199288967,2.32427558476974,2.32461166106807,2.32392616803469,2.32535305370306,2.32472062834433,2.32454339587739,2.32457723675481,2.32571995673759,2.32581942136546,2.32774257903017,2.32782579084973,2.3274573747495,2.32731510699045,2.32697159290574,2.32733627019564,2.32754146126796,2.32909483746254,2.3288348519658,2.32787265052535,2.32979984998706
2.28495738476346,2.28485408608439,2.28558152699316,2.28560538857447,2.28597860339484,2.28720708683944,2.28736271999177,2.28860883384809,2.28850619712636,2.28971339672922,2.29150178293634,2.29357043995717,2.29327694839857,2.32571068694519,2.32610293315131,2.3261393886447,2.32569877869842,2.32775874541818,2.32726585561736,2.32759570179889,2.29650075172541,2.29629575382892,2.29651216163744,2.29698303500636,2.31948584473616,2.31968486516261,2.32045000319668,2.32174552234187,2.29633408607471,2.29848015000139,2.29718428615627,2.29743656854396,2.29707776211707,2.29710100921673,2.29763818241863,2.29825534368954,2.29896627743493,2.30041859406229,2.30219393318659,2.30331357396927,2.30332844258016,2.32492074113939,2.32696709052555,2.32566427325973,2.30322312903972,2.30332425371362,2.30342449311926,2.30329376529808,2.30443461500681,2.30428323854228,2.30547560310088,2.30500480437718,2.30527213270723,2.30414247720919,2.30541688247765,2.30413906926482,2.30512656750142,2.30892872817684,2.30669581879271,2.30761850704812,2.33480590338983,2.33653424994159,2.33878647633522,2.33736107552389,2.30765888276847,2.307721912903,2.30783628431263,2.30765163129835,2.30861468319591,2.30915986483084,2.30992447213779,2.31153736170733,2.31300045546966,2.31364343431962,2.34933513150099,2.34963787872871,2.34907665315993,2.349095152479,2.34857188772839,2.31304166357643,2.31340552224012,2.31421312973624,2.3145470630079,2.31503238608222,2.35171606527829,2.35155361892858,2.3520847551763,2.36161952242145,2.36066328105181,2.36182050314354,2.36185806800173,2.32026208454979,2.31625376073872,2.3153477589465,2.31628708893519,2.3158168769153,2.31598286531614,2.31838862813105,2.31723604583746,2.31731381679672,2.3171931626862,2.36871040005712,2.36895038434696,2.3673883303166,2.36405565270154,2.36162801898807,2.36243443600656,2.36310117011476,2.36380898142224,2.31869320837604,2.32071194279886,2.3178409790438,2.31870531280022,2.31904128275803,2.3192359517304,2.31960065965112,2.31883375789658,2.32024733793742,2.32162735221316,2.32012437478185,2.32047281572322,2.32072739580681,2.37241578015119,2.37382934318052,2.37640989743004,2.37946506923051,2.37554842251696,2.32135559154858,2.32092838135226,2.32204650523427,2.32157309152503,2.32175717580871,2.32123003366397,2.32283242998984,2.32312913990395,2.32275277274457,2.32225933743776,2.32192903210995,2.32278277157064,2.32225116706295,2.32308209923819,2.32362882089994,2.3230750105506,2.32296909277566,2.32247184169809,2.32258284728509,2.32237439683524,2.32236806056614,2.3230706813613,2.32407777507005,2.32340448673814,2.32341103817298,2.32386548247244,2.32373316760465,2.32375164313068,2.32425172795975,2.32461582421172,2.32605969777758,2.32543937938613,2.32599492951067,2.32592791575445,2.32628853245544,2.32601280731867,2.32591660939217,2.32769790800732,2.32663434805936,2.32723489626868,2.32888085347607,2.32801815584057,2.32785536818245,2.32798933341956,2.32906675462155,2.32911529576923,2.32914779310499,2.32934310069,2.32937068216271
2.2849012898795,2.2855175385055,2.28582198137866,2.28618951143708,2.28682564849521,2.28787378621934,2.28861929137267,2.28955617005331,2.28974191702216,2.29051340311109,2.29200895802222,2.29434552263244,2.293898567147,2.32378883304102,2.32402399600668,2.3242887369115,2.32468117925741,2.32604998627068,2.32551097443838,2.29672426685361,2.29620783558757,2.29580712778523,2.29633488752897,2.29765569236268,2.29807946542863,2.31930763624545,2.31995013761631,2.32089854042158,2.29675639876929,2.29705889436575,2.29749009899217,2.29750871963964,2.29877143254624,2.29824185740788,2.29885546019981,2.29911699314066,2.29990947577566,2.30134749589015,2.30262935561095,2.30322975559317,2.30379821084932,2.32500790456852,2.32514095867685,2.32651510510153,2.32648221184679,2.30320721995192,2.30317765162632,2.30414000083261,2.30357789043659,2.30475462918855,2.30545977108604,2.30470393775862,2.30533619773551,2.30476623147468,2.30482334681355,2.30500415716513,2.30572380480602,2.30674775923152,2.30686361299587,2.30847778339576,2.34305057325637,2.3428962664858,2.33988196065878,2.34453339046122,2.30831135729598,2.31065620815212,2.3099012835766,2.31016565191884,2.31125784418807,2.31042767486061,2.31149133346881,2.31142170917185,2.31211614611953,2.34745738143339,2.34819286433144,2.34828306518055,2.34901533902586,2.34895777632211,2.34969038153177,2.31417777652418,2.31456919992937,2.31467356627145,2.31473712961232,2.31571833879117,2.36048179686439,2.36025050094425,2.35938913441317,2.36246296382762,2.36214303322084,2.36169996436009,2.36126632325818,2.3188531443467,2.31672237435181,2.3162095193747,2.31641800952316,2.31713050725988,2.31675863883837,2.31744709167095,2.31687662389283,2.31786111098086,2.31895657063919,2.37034133097023,2.36982083348629,2.3674089382557,2.3692878715177,2.36949065671187,2.36324089666307,2.31818233201331,2.31814549148206,2.31988787120156,2.31966026259087,2.31881370944881,2.31898956240447,2.32187082245364,2.3214051113461,2.32138343194402,2.32563405237334,2.32307071084938,2.3213928194339,2.32148980704211,2.32218376507688,2.32351883567935,2.37465209560245,2.37445433480083,2.37459273872549,2.37583450389905,2.32295805336806,2.32291469451755,2.32317777655454,2.32367305848649,2.32222279979976,2.32340277170724,2.32263532399376,2.32378467969159,2.32446220850377,2.32187793878608,2.32240782952281,2.32282719158776,2.32330816073848,2.32269564817964,2.32315193568108,2.32393665247723,2.32562041885653,2.32541606610974,2.324049154904,2.32390867320205,2.3232403281421,2.32343040999824,2.32395918178214,2.32351954747095,2.32374703651948,2.32400862076831,2.32474152266685,2.32512369246971,2.32449051633827,2.32489202351876,2.3252244712388,2.32576196067672,2.32652611793641,2.32707969324233,2.32612687573532,2.32662572703189,2.32707634199485,2.32700280695107,2.32708203456806,2.32726742526066,2.32788195497574,2.3284086123277,2.32872995598917,2.32887934194404,2.32898246108606,2.32949927563992,2.3292269118309,2.33025977411779,2.33008170099768,2.33039583928701
2.2853004858498,2.28576041025081,2.28652369278805,2.28711600092747,2.28782784646644,2.29064588615884,2.28931714595632,2.28959712205638,2.29067325535802,2.29101832048567,2.2915015435532,2.29316507474014,2.29471497862254,2.32245437920815,2.32249975909025,2.32398648634126,2.32407309876846,2.32487023441301,2.32694767736713,2.29670110383345,2.29662253216562,2.29609294661386,2.2967211675541,2.30021106287884,2.2991244941135,2.29901445551798,2.29915867599435,2.29965337471588,2.29852495805353,2.2983261662828,2.29896823140763,2.29858937011869,2.29925083758902,2.29892015860362,2.29915488395236,2.30097161719265,2.30174994642022,2.30102853242259,2.30169218378574,2.30256025637918,2.30335535764976,2.32473643859475,2.32517873656694,2.32731284942275,2.32705620000904,2.3042593114309,2.30375237726596,2.30431518299292,2.30466693655537,2.30579922076603,2.30524301786571,2.30574763797609,2.30602390767523,2.30462367152125,2.3050912080469,2.30649122382654,2.30725985065148,2.30726282890283,2.30698326717073,2.33989797599428,2.3412745168728,2.34032725008556,2.34174443849032,2.34304741999805,2.3110692763437,2.31001624812665,2.31037292696278,2.31110769217879,2.31164271455918,2.31206576014078,2.31188729518576,2.3124931616509,2.31243097222149,2.34722454348811,2.34836235466866,2.34791275440982,2.34867504561122,2.34912213809792,2.35059442429543,2.31452070148544,2.31401190825964,2.31439192077462,2.31493793955044,2.36309318414457,2.36083258544754,2.35972897079711,2.36003295295675,2.36109796925618,2.36140162525726,2.36125386701144,2.31939646398924,2.31820968681349,2.31831666599629,2.31689780596254,2.3169629480926,2.31691463646465,2.31691900485762,2.31784177505066,2.31758126903696,2.31926646009529,2.32196406292105,2.3682048849036,2.36816224850584,2.36825334107657,2.36938155697036,2.37100013792088,2.32040532248731,2.31906104604437,2.31942986527982,2.31983271252529,2.31936425769088,2.32185437605372,2.32160146715736,2.32282610987439,2.32287197842634,2.32154345055642,2.32166267120338,2.32278986359996,2.32253539131157,2.32491883021375,2.32347513991326,2.32312914191241,2.37304409894474,2.37236198721096,2.37432281973831,2.37588762165544,2.37623832785973,2.3244126091515,2.32582281063911,2.3228491382533,2.32323811849402,2.32365197740498,2.32321898620967,2.32342318757176,2.32371862624696,2.32288176367241,2.3229877684542,2.32368797191533,2.32354505736466,2.32367784076302,2.32396820530623,2.32460333992889,2.32520307162721,2.32490331945435,2.32439694288799,2.32422724593343,2.32478160245601,2.32604691136653,2.32588703033749,2.32464261886644,2.32458386009908,2.32480893403683,2.32551483138394,2.32534408523552,2.32510392924806,2.32547575452173,2.32652880289903,2.32669938858296,2.32742723046562,2.32756007416336,2.32716330209533,2.32656354520849,2.32698830641482,2.32713273502766,2.32756364295915,2.32815395844808,2.32922856404956,2.32938956342039,2.32949842050717,2.33076396109961,2.330693934931,2.33053731115531,2.33074627658764,2.33119700669747,2.33115718934988,2.33209101346572
2.28543318904449,2.28627716377845,2.28694577764175,2.28727772117515,2.28846416947801,2.28948458544995,2.28906326738508,2.28959827696274,2.29045305471067,2.29154388673176,2.2930475997229,2.29363065188839,2.29472919635234,2.2945030769798,2.32158802387372,2.32248694953022,2.32345572368999,2.32532976965098,2.32608679562394,2.29989538429789,2.29865646368035,2.29746689295741,2.29776848663473,2.29856353692308,2.29889658415857,2.30082176019608,2.29943658953355,2.29982974111998,2.30115920110316,2.29858605296051,2.29928743909518,2.29900033815121,2.29936987074046,2.299965933707,2.30070995251975,2.30169766400518,2.3019368380005,2.30140751339308,2.30214746932475,2.30340532925257,2.32187012385155,2.34002692110156,2.32717622206747,2.34053885344405,2.32686198222569,2.30439597082329,2.3044272077762,2.30374883319306,2.30504166112059,2.30521196685178,2.30563636755774,2.30589896488338,2.30745141393159,2.30535181964851,2.30663563814281,2.3085172765517,2.30974049848398,2.31093588221296,2.30804482424207,2.30836136436731,2.3301905004316,2.33097404999476,2.33889495739223,2.3100087365068,2.31004639480637,2.3099500509614,2.31045381978172,2.31123340379423,2.31321601219958,2.31387670504753,2.31337856474684,2.31422049671897,2.31321856284384,2.31348024959081,2.34701080011106,2.34742843713506,2.34799038478023,2.34895783489803,2.3512448845974,2.31350369816454,2.31374448008082,2.31398685313349,2.36322015354382,2.36167253102097,2.36152592582907,2.36144474791566,2.36116207323385,2.36014749392724,2.3604790542567,2.36123555927568,2.36100801287231,2.31709897907852,2.31761373214455,2.31910814728936,2.31717256160252,2.31711285319187,2.31782469695679,2.3184765794043,2.31879098336739,2.32038287342377,2.36904915941705,2.36813280043548,2.3679284283524,2.3675826235431,2.36848680426927,2.36918485424115,2.32154634294415,2.32057797750802,2.32104443755463,2.31952960053369,2.31953980016509,2.32053509830572,2.32108444713236,2.32188618646422,2.32215263939101,2.32136288412428,2.32185340753902,2.32308387772912,2.32496429484647,2.32369412445649,2.32288251895228,2.38225860460662,2.3812768562589,2.38115736112064,2.38028607127056,2.37896607584254,2.38109711316475,2.32481650265851,2.32504212102198,2.32278703317357,2.32225625128822,2.32262227045205,2.32289876524284,2.32405747899509,2.32459192153783,2.32337239717762,2.32372581694696,2.32504915900893,2.32455778788448,2.32404460037409,2.32434200208011,2.32587184970044,2.3258193737259,2.32567455142373,2.32472576240923,2.32481302202488,2.32508401584775,2.32555082160339,2.32645627229625,2.32656804556874,2.3262060914723,2.32533463854359,2.3254408539949,2.32550128701803,2.32581005244781,2.32617924386821,2.32671739488525,2.32666794657941,2.3271943240903,2.32769010747666,2.32829460818108,2.32816509948035,2.32809724264961,2.32821336336998,2.32892046407227,2.32894092241826,2.32901121822244,2.32920610515173,2.32993883733198,2.3313587326675,2.33013447553538,2.33028650323708,2.33162186329155,2.33264309824874,2.33276291954153,2.33241394756779
2.28603317629313,2.28654377457149,2.28709197710344,2.28761561602089,2.28865205806464,2.2892355711207,2.28963443603459,2.29031028474056,2.29091542144019,2.29209588084068,2.29352181974137,2.29496229900771,2.29619435280515,2.30604100030784,2.32181146809919,2.32209089109904,2.32304113179504,2.32414221298925,2.32487832316341,2.29932813339471,2.29894557681747,2.29826147102049,2.29808066403392,2.29845585984181,2.29931467743624,2.30000472795001,2.29967056418815,2.29974798211191,2.30005142643122,2.29985061090587,2.2999689734092,2.29967618062055,2.29987748686236,2.3003036415792,2.30106153943137,2.30204130592244,2.30240796990798,2.30295461251864,2.30388476260005,2.30473231097407,2.32898379790927,2.33817920117585,2.33211588233973,2.31823162717663,2.31202201208646,2.30469993621651,2.30411782955427,2.30392071566655,2.30470878427079,2.30535924683967,2.305831114844,2.30615685178815,2.30656759124818,2.30648481240097,2.30739212688876,2.30827514256133,2.30886216096231,2.3087249339806,2.30733645066676,2.3171702599729,2.31955788069757,2.31827425071914,2.31465694554954,2.31139780305356,2.3103027509628,2.31022846061133,2.31089335146696,2.31143229284242,2.31262094580137,2.31377678941638,2.31470119974992,2.31549672723441,2.31489403482046,2.31439147465374,2.34751550743239,2.34656368117529,2.34754494660319,2.34890771108534,2.35219014461602,2.35967493390105,2.36462373128237,2.36461890981844,2.36229095546853,2.36010849190706,2.35938859596943,2.3596240915084,2.35976910802143,2.35987179164069,2.36040049981951,2.361276253983,2.347568754116,2.31874824316951,2.31915817046754,2.31942578455914,2.31882637514974,2.31848115953645,2.31901967415314,2.31968562159545,2.31996128663556,2.31984995089895,2.35774371608775,2.36818148488667,2.36798396899059,2.36716961741697,2.36845924460966,2.3700923673042,2.32054342033338,2.32086278621443,2.32164882473503,2.32143418386917,2.32115013539564,2.32083191221034,2.32101488592718,2.32162394679515,2.3220464381243,2.32214697465371,2.32301005776852,2.32416707369265,2.32486641833178,2.32324830896276,2.3216911502021,2.38263529974861,2.37836620213702,2.37639960170985,2.37814948266238,2.37898058352074,2.38012940577257,2.37097755777611,2.32420689036231,2.32394379149389,2.32392277772221,2.32390788437623,2.32402371495782,2.32407664029873,2.32427899199558,2.32399710474247,2.32438010387721,2.32518624205867,2.32500557598632,2.32500607710304,2.32519246751419,2.32577481394007,2.32596376462132,2.32595898364596,2.3257756345494,2.32570280893243,2.32576282966362,2.32591133923259,2.32633363658121,2.32639835759978,2.32640727108962,2.32632868078361,2.32620061955302,2.32635396615806,2.32643969965283,2.32669149143031,2.32691573608757,2.32731468910278,2.32756991354443,2.32806059106314,2.32846723751522,2.32871885531603,2.32889610901388,2.32947656224819,2.32956635273868,2.32977118611823,2.32993578880818,2.33000835394716,2.33033542665229,2.33083098448008,2.33067982470589,2.33095896120532,2.33164224504738,2.33240239542952,2.33276277040803,2.33291790211944
2.28630132303786,2.28673416002964,2.28725245284483,2.28742587255194,2.2893104296026,2.28917629271938,2.28993867925733,2.29105552027099,2.29080338970488,2.29253889072757,2.29404633295126,2.29553784797986,2.2962907002638,2.3218569768353,2.32426608543423,2.32226980661489,2.32329526969694,2.32439022121602,2.32573368649979,2.2979106846607,2.29821776992425,2.2974751185684,2.29711922511017,2.29757613299172,2.29978517280204,2.30016357798332,2.29939111326977,2.2992890744137,2.29937317155759,2.30071780390091,2.3010036526796,2.29983376560447,2.30017583851711,2.30037248036593,2.30126024709167,2.30284732350253,2.30202748697497,2.30274698879908,2.30400745877409,2.30527035194433,2.33912573636026,2.33879986183605,2.33765268852535,2.30531424279482,2.30635652181883,2.3055225098236,2.30422693871041,2.3041946261722,2.30464505299513,2.30530481396515,2.30614395406268,2.30636441836419,2.30617911422245,2.30663756027183,2.30821112281428,2.30819161783956,2.30803395807442,2.30836189064316,2.30887673166262,2.32603999875608,2.32667904114047,2.31201653316991,2.31076395704315,2.31050674693237,2.31044855870243,2.31019934306019,2.31132102194714,2.31090100822405,2.31199718400734,2.3131476520922,2.31414533323451,2.31574037202907,2.31523940743414,2.31559501114005,2.34912456946998,2.35725424514179,2.34905260213962,2.36385807236515,2.36073141649111,2.36095265629291,2.36116919831511,2.36177538954031,2.36202330361133,2.36102940222908,2.36037107456698,2.36090570815389,2.36053387011556,2.36060327661129,2.35995076243639,2.36074796018815,2.31824397700079,2.31913504866981,2.31954325290457,2.31931909096836,2.31941249600901,2.31816360154174,2.31858305372479,2.31961900047843,2.32135209567782,2.32110059920376,2.32165564476068,2.36911653478755,2.37203934334232,2.36845470286738,2.36855417018487,2.36909397500822,2.32440675645609,2.32184679173734,2.32095589072051,2.32063139393619,2.32137880534766,2.32036937550745,2.32070574101978,2.32176798017483,2.32241590989293,2.32188712337455,2.32262937917088,2.32327077060328,2.32513115476969,2.32399185373723,2.32370844626108,2.37929149915293,2.37434345635927,2.37415213664197,2.38038084436476,2.37949058331645,2.37860886517016,2.37882957699067,2.32545950041761,2.32467850928834,2.32384480463962,2.32342530811252,2.3245213562835,2.32392653493428,2.32458240338474,2.32404324180782,2.32463123941927,2.32632207365615,2.32525295774917,2.325763193501,2.32561918165911,2.32609931301799,2.3263348104378,2.32646384413445,2.32669044112074,2.32641644042829,2.32628446988582,2.3259786473291,2.32657407388866,2.32632481645136,2.32671278159062,2.32736623109466,2.32663693752008,2.3272226598461,2.32685091516312,2.3271852924192,2.32690399292862,2.32807440880538,2.32769703185513,2.32850527688879,2.32879908195951,2.32934204599077,2.32930075390608,2.33123254989488,2.33011068871529,2.33063038704532,2.33094370451989,2.33052805069173,2.33054914753789,2.33090291647388,2.33074284749351,2.33115441414863,2.33156521012301,2.33256752510917,2.33301760027387,2.3331019576516
2.28706783636173,2.28702730799132,2.28710820016881,2.28785047843779,2.28914192055983,2.28963199983522,2.29143444817912,2.29099505430629,2.2912984449183,2.29346915293023,2.29384991047451,2.29600720464906,2.29673872203115,2.32327534233595,2.32338635177554,2.32246820411785,2.32541832531342,2.32644631421522,2.32801473411338,2.2970104766608,2.29684866393192,2.29673356452491,2.29843108300096,2.29887972451583,2.30029932141863,2.29852951096036,2.29852683960656,2.29896708234313,2.29938851995932,2.29951734967844,2.29970981660027,2.29996328576782,2.30136097261603,2.30101729447392,2.30132468253403,2.30136476690554,2.30310617255282,2.30406811464359,2.30414100780438,2.30425043014872,2.3379253401048,2.33750531570685,2.33810402710477,2.33995991931898,2.30827304331828,2.30855464219955,2.30683662100747,2.3100974100274,2.30597554520431,2.30618071502725,2.30717873074265,2.30725642186883,2.30707306054972,2.30686511103749,2.30841118468648,2.31055146707183,2.3094748591342,2.31141107408226,2.32713639088486,2.3288156450531,2.32940822356191,2.33049953346269,2.3109103249472,2.31114121047693,2.31075641764991,2.31126493184085,2.31082921035249,2.31194050127807,2.31267799175115,2.31368282475885,2.31445087854287,2.31408121261222,2.3147920718696,2.35009108070822,2.34984663030376,2.36038269929095,2.36127994019618,2.36201971503478,2.36170599617555,2.36221892301732,2.36052481646427,2.36057675341678,2.36078999516382,2.36063195113873,2.36105603406454,2.36061734235542,2.36061087756197,2.36112251410089,2.32017119876237,2.31841308615021,2.31895819612889,2.31848330475286,2.3194949560112,2.31955888280211,2.31931772413486,2.31895894201112,2.32028352550117,2.32198434996619,2.32309497467178,2.32118256506089,2.3794096722634,2.3672416544448,2.37370784232139,2.36917254153379,2.37083101400365,2.37409589965914,2.32396569703227,2.32479917167196,2.32348568704032,2.32066638063906,2.32072529020621,2.3203924811962,2.32083637184621,2.32178377986309,2.32218907719973,2.32211051354953,2.32277354376883,2.32393059401297,2.32586728363491,2.32508460211925,2.32591376608319,2.37939253519124,2.37876768596589,2.37885170102766,2.37997018141354,2.37912865718694,2.37869436396617,2.37857898551155,2.32424945392301,2.32456358453552,2.32371536384605,2.3242825533224,2.32542467632316,2.32615887442991,2.32583463035436,2.32506278650541,2.32558408187615,2.32629608239003,2.32589543573382,2.32567675656963,2.32619084420908,2.32615649198226,2.32590360401337,2.32669354543733,2.32729924886239,2.3269168858059,2.32597919287859,2.32716731252295,2.32691068191498,2.32688369592024,2.32795156216048,2.32870647040864,2.32766555024701,2.32767843561454,2.32938089125473,2.32791163077916,2.32754668400353,2.32797675439165,2.32871129449468,2.32899817123506,2.32948220711594,2.32923951887538,2.32989802304756,2.33026336790212,2.33246357891556,2.33201547776036,2.33446714454432,2.33194827184465,2.33164573256353,2.33175258789386,2.33258559994305,2.33196481311969,2.3321972364326,2.33360471582038,2.3348970140132,2.33386819814692
2.28798584481534,2.2883554963321,2.28816014604834,2.28869274942005,2.29001517747104,2.29075788772292,2.29091377490989,2.29101649475478,2.29235704664488,2.29316862252315,2.29360642803624,2.29468463631449,2.29587401294745,2.32152357859407,2.32278009100845,2.32336209756514,2.32520309695567,2.32604960754118,2.32599610478157,2.29707003300383,2.29695470100213,2.29677237300247,2.29693233271213,2.29789993325051,2.29863336188124,2.29941381638097,2.29934845763911,2.29972433934772,2.3008315317997,2.30068475075162,2.30014898209855,2.30055421105722,2.30156744448709,2.30362286394988,2.30290659579949,2.30263493834824,2.30348364603148,2.30448288117051,2.30550781528368,2.33731078013224,2.33680269540195,2.33665208250638,2.33868618814818,2.34004655434078,2.30525025426957,2.30606578213986,2.30598724138001,2.30616977035198,2.30622480395475,2.3063524624183,2.30772254695771,2.30712602966223,2.3075820265025,2.3086020675471,2.31085863010159,2.31008083139526,2.31147584995222,2.3121897402861,2.31364328372384,2.34453592655722,2.32916999213181,2.32964581938381,2.31299815004348,2.31273699034072,2.31245724376758,2.31415965995567,2.31273674809569,2.31286064735016,2.31367387708817,2.31442636745428,2.31435778924324,2.31469493970014,2.31640501283072,2.35244684435987,2.35235327646766,2.35954843607695,2.36002123046498,2.36029660546506,2.36027467934243,2.36091423742123,2.36024591948554,2.36094025765383,2.3607983391409,2.36093028147784,2.36141287558889,2.36142348899372,2.36169771753729,2.36143659755815,2.3195105917273,2.31944370497322,2.31943468456601,2.31922841403583,2.31910784501994,2.31922374675456,2.31982424813554,2.32053466220125,2.32051945337445,2.32178928549763,2.32456850914024,2.32233853573449,2.37788150774776,2.37742657082781,2.37717459473472,2.37737227632572,2.37404131794805,2.37565090357399,2.32537205011209,2.324508060606,2.32408389089891,2.32291524381847,2.32247104053349,2.32599596596366,2.32291327555273,2.32201859384126,2.32315632873519,2.32321002860189,2.32416162676497,2.32502255850381,2.32800870289193,2.32659337044812,2.32634507998158,2.38508097573986,2.38227833847142,2.38229073932261,2.38227224918768,2.38091966952971,2.37995487890238,2.32814867163356,2.32587325083172,2.32526333686644,2.32492607029377,2.32625854291023,2.32825534991119,2.32579184654516,2.32638097437044,2.32577434863196,2.32685581864218,2.32575822237061,2.32577213670354,2.32652749972667,2.32733122491335,2.32871533787225,2.33150125839576,2.32807619156785,2.32772514537223,2.32724608549049,2.32664499176351,2.3279175384293,2.32753423426506,2.32811974123328,2.32856272856606,2.32976996944856,2.32953340329882,2.32950547842146,2.33007296815645,2.32898025172514,2.32898853039477,2.32897634836713,2.33013388073049,2.33024581197195,2.33063364082582,2.33026366414374,2.33151782423377,2.33062571143904,2.33234010961626,2.33305000215224,2.33376214151053,2.33456852084141,2.33273555008192,2.33245101249636,2.3333446229792,2.33400472987385,2.33346127145844,2.33542689754849,2.33510057558658,2.33489390180407
2.2896775244066,2.28931501547175,2.28892911197002,2.28932788961633,2.28949956932126,2.29107804456944,2.29138494521921,2.29230879976622,2.29420988510088,2.29414024005022,2.29514639839408,2.29555893423158,2.29583394921223,2.32261300721729,2.32319899602138,2.32411457124065,2.32501729399114,2.32521406013821,2.32631385301991,2.33862380646621,2.33902921107728,2.33697177911092,2.34594516407991,2.33901942611741,2.33840444836655,2.33843951761577,2.30191610017335,2.3007147527951,2.30130032328714,2.30177726412731,2.30170424329607,2.30183580739302,2.30253550877777,2.30406909776971,2.30305564301131,2.3048683219308,2.30432628686462,2.30676832038459,2.30764631691095,2.33806498861125,2.33753631930004,2.33784366378655,2.33875905059205,2.34037104601663,2.30623385069898,2.30603619051886,2.30626026672252,2.30659729855839,2.30860808925072,2.30877073266905,2.31018318374919,2.30882390925678,2.30951238331088,2.30938452326574,2.31037337214912,2.31007796780573,2.31049847535776,2.31177966574084,2.31299522531365,2.33952403365557,2.34698352064422,2.31130193383514,2.31104810253261,2.31197665360321,2.31193333259808,2.31211097841606,2.31355013095569,2.31422626328974,2.31526450264294,2.31431196013274,2.31602004334324,2.31618176772344,2.31702108068662,2.3540372243719,2.35441375653323,2.35703921986177,2.35859133522361,2.35910007567329,2.35935455326968,2.35949137176228,2.35973869345169,2.3606077183047,2.36048970850864,2.36063852347762,2.36185521813501,2.36214146867452,2.36180870071556,2.3184632738563,2.31932381534693,2.31998794711793,2.31968298674813,2.31919779018637,2.31976808468819,2.32003747840004,2.3213576629894,2.32071881290161,2.32094898353815,2.32200991450549,2.32463412385135,2.3261903765666,2.37682113144249,2.37558112498339,2.37457214008006,2.37722258252862,2.37756595233156,2.37634901541934,2.32374568935538,2.32438906504789,2.32372793406828,2.32358261670404,2.32341089094903,2.32443949782352,2.32374814228396,2.32367692906422,2.32325901129139,2.32367909579662,2.32416816335563,2.32524798378406,2.32581062708362,2.32677447959508,2.38293741329268,2.38252490333242,2.38149493709406,2.38119899167591,2.38109093501599,2.38053943677906,2.38088182768581,2.32668309019987,2.32644017189928,2.32639541465006,2.32596572253684,2.32613726061708,2.32599311440802,2.32668158060385,2.32859757614972,2.32829229326205,2.32765424959598,2.32695378738447,2.32685883624491,2.32859070790253,2.32830807361704,2.32755450306173,2.32915142353237,2.32824558414801,2.32823316659082,2.32785749029709,2.3275516308834,2.32913334395071,2.33141419983209,2.32929259225371,2.32949159190345,2.32994521999289,2.33088630362501,2.3305019817672,2.33023934769531,2.3303307564268,2.33044324252665,2.32973155664096,2.33098665415061,2.33145186436566,2.33106729661448,2.33034272354849,2.33086329916471,2.33146648122879,2.33233864685134,2.33305663132781,2.33379228291012,2.33533602898628,2.3337060363202,2.33392894648238,2.33483547038747,2.33507617644472,2.3341697643554,2.33471717518774,2.3348453852358,2.33580372013718
2.28960106099778,2.28959938143759,2.28988317780357,2.28981683415336,2.29099164914064,2.29162175507372,2.29251835392676,2.29445739706713,2.2949294190319,2.29540196516284,2.29485044008296,2.29574475673399,2.29681562181223,2.33845358303353,2.33963588071218,2.33858096816899,2.32516976405069,2.32572685691497,2.32731200145866,2.33743718812678,2.33756074131666,2.33811107066109,2.33970468895105,2.33919980355631,2.33457143876489,2.33727838636798,2.30471499322679,2.30298524927389,2.30162809917659,2.30189574280141,2.30171226313612,2.30189666520402,2.30183270820056,2.30299042933168,2.30350961811996,2.30423633328744,2.30365761049705,2.30501782417065,2.30589557999723,2.30658613621793,2.33864034347379,2.33820693265198,2.3390476144851,2.3411138780177,2.30742411820829,2.30709698270449,2.30753988760573,2.30772337787731,2.30844215623325,2.30911078328174,2.309246359824,2.30879282024761,2.30905381753811,2.30976452729903,2.3097595000173,2.30983192372216,2.31087874386644,2.31142565439823,2.34268050152818,2.34310971785647,2.3443392118808,2.31249776821635,2.31304128865518,2.31364071683217,2.31320998918984,2.31380991076283,2.31394799593461,2.31420265322095,2.31492127838579,2.3152716998319,2.31609821089832,2.31665150181138,2.3182884307454,2.35969409261358,2.35585579958954,2.35718737539125,2.35769627990249,2.3577000809306,2.35867810656945,2.35873230901781,2.359165315675,2.36048651240393,2.3600937745765,2.36039358233911,2.36116681303287,2.36298871121223,2.36306974436526,2.31966317271626,2.31893060526151,2.32039883261457,2.32069367376388,2.32035799598436,2.32086928658417,2.32058184382837,2.32106551289851,2.32134700640213,2.3224588693878,2.32371752802257,2.32463595810651,2.32578100174349,2.37679020314984,2.37565024601344,2.37571917912466,2.37692222131023,2.37699656894154,2.37678405504255,2.32732428950409,2.32470140950584,2.3256391705856,2.32498777749057,2.32444546008916,2.32557542161544,2.32507289510644,2.32541011064027,2.32585304023923,2.32450161742072,2.32499864158246,2.32648445052771,2.32547723533357,2.38281964701466,2.38168620748078,2.38135577921531,2.38077367198543,2.38044775305747,2.38050521523074,2.38034860965728,2.38100763736793,2.32734919775311,2.32752940747968,2.3275309549004,2.32751563988063,2.32651791056995,2.32662100966303,2.32714587262756,2.32721685816165,2.32777627247954,2.32773512272331,2.3283274436119,2.3282056703575,2.32863360375967,2.32813673006201,2.32800528991891,2.32979845526595,2.32863616637841,2.32901698861038,2.33017339435103,2.32874735434301,2.32985059121095,2.32923032463078,2.32960432376102,2.33062373198779,2.32967211635299,2.33072616292101,2.3302402529948,2.33090921631381,2.33186853131185,2.33240424674393,2.33180352821616,2.33148670904706,2.33304596208811,2.33176514858931,2.33189769584918,2.33271899930363,2.33286046514664,2.33241956646262,2.33274088998868,2.33369386895356,2.33424112411975,2.33420213489208,2.3351295541672,2.33469522093393,2.33501111592038,2.33494618807135,2.33581597406736,2.33699639361662,2.33661781335231
