2.36904233795928,2.36888459426306,2.36909159204464,2.36921195464283,2.36929255687935,2.36966177182687,2.37008288974489,2.37039835588067,2.36885413058455,2.36887578549351,2.36718544719418,2.35464605299744,2.31067402924735,2.29185901015036,2.28957200169525,2.28981366281094,2.28891474777921,2.28822443945206,2.28811485786515,2.28797106901371,2.28804701836427,2.28845330367473,2.28845290425365,2.28859501838313,2.2886379858296,2.28867597394444,2.2890596194603,2.28929379918732,2.28940439347782,2.28946320230363,2.28994897844206,2.29092673669702,2.29073019295581,2.2906645846434,2.29066343141472,2.29098006651105,2.29113635358657,2.2914317462228,2.29177592735159,2.29206756483196,2.29223196124277,2.29264593266189,2.29269123925912,2.29272608721782,2.29291917287285,2.29344550937694,2.293403556919,2.29353119335404,2.29398147434761,2.29402949985979,2.29408774191506,2.29445898110292,2.29493002454625,2.29536332553259,2.29632324881477,2.29698626407193,2.29687088772382,2.2970399461753,2.29721047028132,2.2973904973404,2.29782485011335,2.29870637141638,2.2987854996921,2.29877788577977,2.29945794078826,2.30032571822823,2.30111397836638,2.3020120897219,2.3030085458387,2.30338507780588,2.30402054051572,2.30530036614709,2.30592827260869,2.3084620603267,2.31271221099024,2.3336354220333,2.38277455639251,2.398292110334,2.39973062713001,2.4000692301041,2.40061821910802,2.40162628901305,2.40224387547437,2.40208186563377,2.40283166207521,2.40210934059848,2.40201269049208,2.40217452899591,2.40164640196357,2.40206178525976,2.40215556231686,2.40180313043535,2.40176986240141,2.40228012323472,2.40514659024515,2.40511734215396,2.40437585038018,2.40349570878071,2.39152147333031,2.34067152232674,2.32537491135879,2.31599036428678,2.31184250385047,2.31142332169439,2.31121760309471,2.31171039423488,2.31208241025183,2.31282769626633,2.31249304409004,2.31284532901583,2.31353356992182,2.31448224542973,2.3153351637719,2.31319200465761,2.31331529619461,2.31511057198668,2.31578891395639,2.31502327481671,2.31556298189758,2.31764213723115,2.31619726813092,2.31697830684282,2.31809691896149,2.31874949225638,2.32215121176936,2.34733613972061,2.40370170942356,2.41467391644723,2.41402280930302,2.41568423671296,2.41417005909308,2.41321895253384,2.41385175847544,2.41532493801648,2.41600955268575,2.41546073478529,2.41614620488264,2.41637770086673,2.41763421134455,2.41888767972683,2.41903396985893,2.41806517270567,2.4179852017415,2.41845565002626,2.4189866484091,2.4186646816813,2.41809772128427,2.41715104916205,2.41630240817826,2.4157696132156,2.41648472826549,2.41722627229832,2.41757334686653,2.4195877845769,2.4230084374995,2.42397998445768,2.4242028741263,2.42451412593148,2.42456541207058,2.42080589106506,2.41160761084321,2.39735620956873,2.34808613263409,2.3345852319043,2.33430591613826,2.33311018716821,2.33230231192524,2.33232323090646,2.33324442958611,2.33315931340693,2.33254665511362,2.33294127032754,2.33279307771906,2.33245106241659,2.33263165019689,2.33270207714288
2.3681845408586,2.36765072670083,2.36790788412815,2.36883433285976,2.3688619911277,2.36893600966853,2.36913038374147,2.36842946493217,2.36825231195824,2.36733636463322,2.3654068250093,2.36037148153064,2.33528957701685,2.29744601409176,2.28877569574232,2.28857686649175,2.28803610651507,2.28812286978864,2.28814039954951,2.28804834214639,2.28811332600403,2.28816832363527,2.28802737089533,2.28806837201822,2.28810142743602,2.28832015727066,2.28882291998943,2.28930748314236,2.28995201963329,2.28961085505999,2.28952848371696,2.29014188166286,2.2902566415823,2.29030027935682,2.29030493875867,2.2906055825976,2.2907868964504,2.29096841424864,2.29106654616593,2.29122778085548,2.29173371077183,2.29223837800079,2.29256973676153,2.29262982752245,2.29249603705377,2.29292473516209,2.2930280030501,2.29317851876872,2.2936748102563,2.29390093794114,2.2940452876521,2.29441867742659,2.29520749599698,2.29541448998384,2.29595730992214,2.29662237117068,2.29685674741486,2.29688233194536,2.2970671998958,2.29712708479705,2.29797100838122,2.29907987915758,2.29927793316601,2.29893343956169,2.29922079914068,2.30023388223406,2.3012192934355,2.3018560531227,2.30293027705187,2.30418519407614,2.30500234715265,2.30582873100494,2.3090908146755,2.31950477841533,2.33298525601062,2.37412275123629,2.39268437702421,2.39740875186071,2.39924712099149,2.40001076269248,2.40060889961991,2.40096490055522,2.40053835773577,2.40062681424563,2.40130351182953,2.40116972402487,2.40117575063456,2.40100423322124,2.40034292677094,2.40067894309072,2.40140151097074,2.40078304405812,2.4008808289096,2.40120489301422,2.40233790796524,2.40344941725136,2.40042362140617,2.38888836928815,2.37380753336059,2.32418896654189,2.31117965685886,2.3109667081097,2.31092420028113,2.31031953577077,2.31051637594012,2.31120312162573,2.31159646954137,2.31177185072156,2.31149678160296,2.31147673688852,2.31177145616387,2.31298748475094,2.31285629083434,2.31201517426645,2.3126423991191,2.31456129024795,2.31538032769479,2.31477755909892,2.31437647042544,2.31542385703074,2.31547837653913,2.31636437333179,2.31827782358522,2.31815954500941,2.31888653088662,2.33361852746098,2.3889922473587,2.41190392961396,2.41435880654921,2.41424486012644,2.41337158061867,2.41292237228918,2.41323536080608,2.41474255351606,2.41384116846068,2.413911414802,2.41589122974201,2.41554014276762,2.41651010026936,2.4184703992813,2.41711317441268,2.41704575231327,2.41748906611173,2.41761205812298,2.41807373102291,2.41821707069831,2.41794801694739,2.41760504789041,2.41704355500635,2.4157655530778,2.41636739874154,2.41703150388348,2.41825432576481,2.4212072989524,2.42197541414276,2.4231656805847,2.42397437441609,2.42422432279153,2.42334207064935,2.4226108035238,2.42219606385252,2.41018705225672,2.36037714537598,2.33889591979205,2.33379864412064,2.33212671052548,2.3313204569771,2.33101291129465,2.33110770882502,2.33178104681917,2.33317960600761,2.33346660355863,2.3320765385637,2.33207344321791,2.33244294981419,2.33288621427249
2.36715855628818,2.36731451765845,2.36732488655419,2.36768460744247,2.367759038945,2.36742380471852,2.36762806604559,2.36757049538844,2.36770614396793,2.36803114448914,2.36472747385781,2.34652654204083,2.30828054599549,2.29092124348119,2.28825945804827,2.28784642338152,2.28747853173472,2.2880494303309,2.28896614618613,2.28790277433939,2.28843414158439,2.28819372274258,2.28775163208689,2.28781015737456,2.28798814158038,2.28827491675633,2.28880757941168,2.28907349529701,2.2892978340077,2.28964871471482,2.2903507280314,2.28994170921382,2.28967363396429,2.28979406984826,2.28996090928888,2.29012773538717,2.29038069337413,2.29087790003991,2.29081433835,2.29115872118194,2.29144042213898,2.29188577392217,2.29234483689442,2.29269049441179,2.2926343382895,2.29267169576217,2.29288442112625,2.29322849125363,2.29377148635705,2.29390546152935,2.29384319755499,2.29422683552979,2.29495955815363,2.29529386462223,2.29580770817718,2.29637310247743,2.29632692340942,2.29644246739844,2.29695785143705,2.29715356286583,2.29750197976896,2.29883077651144,2.29905068947588,2.29927489924437,2.29912677198439,2.30014031054105,2.30082849765754,2.30168635250928,2.30270316074323,2.30464894526577,2.30595313966794,2.30647734618379,2.31873858187447,2.3651157001155,2.37972146934334,2.39107174798269,2.3964849011148,2.39713922413882,2.39793887140705,2.39901521639076,2.40012907032583,2.39985393299918,2.3993101436019,2.39988844698276,2.40184152063755,2.40081691838756,2.40042127362116,2.39952981034748,2.39916627665246,2.39932016156299,2.39999216900007,2.39992939186097,2.40073353337084,2.40161835423062,2.40208201168014,2.40130927082412,2.37915676195876,2.33617320777078,2.32397248953654,2.31344694727802,2.30960988350618,2.30939235826638,2.31019589898647,2.31016843191353,2.31015830657062,2.31058842903344,2.31137521558095,2.3115672278258,2.31178345446935,2.31090880135495,2.31075832086199,2.31174387678273,2.31215461835495,2.31186634019682,2.31229140313858,2.3129445564526,2.31346051146645,2.31356704220538,2.31376304721869,2.31398008222952,2.31428742593979,2.31508648518309,2.31619333770266,2.31706276666665,2.31832653046026,2.32431189766424,2.34387554445461,2.39074544257926,2.41184911877183,2.41444939934444,2.41430208749693,2.41390011678171,2.41293635059847,2.41233293731498,2.41251326076091,2.41332413025146,2.41362176720089,2.41402167059602,2.41491128498241,2.41498586804726,2.41558532038953,2.41864870041997,2.41959568945505,2.4181509065374,2.41712204011159,2.4174713370545,2.41790956909491,2.41758673863256,2.41670311414347,2.41687192455955,2.41712865140275,2.41772336589165,2.41884066492084,2.42062462808819,2.42131992559584,2.42253656309927,2.42397000807966,2.42380667539091,2.42227913686216,2.42201245981874,2.42202055534122,2.41771213395063,2.38995316132849,2.34644549135232,2.33413345262289,2.33244241154167,2.33130360560316,2.3309636754455,2.33082203255492,2.33098777932138,2.3317297094052,2.33249926628155,2.33190997357581,2.33197900115437,2.33257391220429,2.33373935728512
2.36599920442086,2.36749409278182,2.36657256563211,2.36633211150317,2.36600431149156,2.36609196520169,2.36677029771231,2.36789317405211,2.36760836579387,2.36828643364499,2.35718716039719,2.31148509809773,2.29131536707766,2.28871836904892,2.28835812852842,2.28817242548503,2.2876473974141,2.28855500287313,2.28916729527575,2.28827119865891,2.28843741695689,2.28804963525337,2.2878541409991,2.2876777223298,2.28819049327473,2.2882736779485,2.28841204757571,2.28868695106158,2.28890245336586,2.28932880271426,2.28973258122831,2.2894674477115,2.28954307387501,2.28961162864404,2.29012236749099,2.28993456942217,2.2900774499164,2.29073038211631,2.29096953755246,2.29117268422375,2.29131719484111,2.29158066438142,2.29206554118362,2.29228295921488,2.29249252082698,2.29237266155782,2.29266051720138,2.29293382740224,2.29328131850349,2.29347009746314,2.29367999704395,2.29419718233763,2.29456461058415,2.29476273686508,2.29526757365829,2.29569016321023,2.29575104953442,2.29628698681784,2.29681599295828,2.29680548788447,2.29712480040169,2.29822995530442,2.29925519937341,2.30007150019887,2.29996297887803,2.30034901558409,2.30075645011605,2.30136445290425,2.30278373517683,2.30679848113878,2.31821595450949,2.32084852396618,2.33332066233388,2.38092367403823,2.39279135324947,2.39373024508384,2.39590737821082,2.39634948584724,2.39684950384129,2.39732462048617,2.39768583592986,2.3982591248364,2.3987354747491,2.39876658588425,2.39931900369444,2.39916127124263,2.39867494553599,2.39820122049553,2.39824766443203,2.39880366737762,2.39818871802263,2.3983347767425,2.39978861344646,2.40215055520091,2.39994256572034,2.37951764022932,2.33363176435761,2.31340866194606,2.31035030808085,2.30983006633767,2.30869122281589,2.30851218330133,2.30891384085978,2.30950104257863,2.31058533373701,2.31010637233699,2.3103711696108,2.31037207999613,2.31072964528616,2.31052483806993,2.31006748444468,2.31067702108629,2.31148644557301,2.31191242046728,2.31231058171874,2.31230235997404,2.31251460827966,2.31324148678438,2.31390841348168,2.31422997501721,2.31407815472183,2.31466574867698,2.31540071288111,2.31622183497844,2.31657913078294,2.31837707822536,2.32178947007229,2.34614235202855,2.40231347026982,2.41427466876821,2.41529084850442,2.41477666471723,2.41330231166263,2.41153146212137,2.41120259511061,2.41161722948002,2.41206242533234,2.41302936009276,2.41469882470129,2.41401188938579,2.41412357101633,2.41551141397957,2.41805885274641,2.41849204810995,2.41700439011013,2.41753616885349,2.41753623290573,2.41754852168681,2.41707825164652,2.41724929909556,2.41766515506083,2.41835495568619,2.41920038361175,2.41995336386016,2.42100476426509,2.423156448725,2.42355297025592,2.42236881572294,2.42164895398183,2.42167322233804,2.42170488804317,2.41252863314022,2.3708664561444,2.34205230965855,2.33500209781121,2.33308676306256,2.33161671761612,2.33136735447649,2.33125418581833,2.33131187665038,2.33166345244011,2.33231324181431,2.33196998183031,2.33205406559291,2.33361751139687,2.33380954608085
2.36463440335515,2.36683795005991,2.36529398912287,2.36485536617547,2.36488418917064,2.36508431413175,2.36612324679427,2.36889211867355,2.36696013361334,2.36751580265847,2.35622939323944,2.30325340997559,2.2888780903931,2.28801565168534,2.28785202214954,2.28801177503635,2.28760705390329,2.28783359148034,2.2876899854633,2.28736364972424,2.28745326646812,2.28797863290142,2.28791065066997,2.28804071686421,2.28895700066155,2.28859138435121,2.28811924550143,2.28823045430282,2.28891673739514,2.28929104747012,2.28926301616714,2.28921524703675,2.28932381719298,2.28950023086909,2.28993905343475,2.28988876976226,2.29007665799828,2.29085662142446,2.29103864632635,2.29125240239434,2.29162995797391,2.2918808450575,2.29218155340274,2.29228478900079,2.29215147256859,2.29225468003323,2.29261460825442,2.29270801812305,2.29294005683324,2.29311267236913,2.293457991252,2.29369617235438,2.29390906057571,2.29443311613654,2.29516363013041,2.2956720102709,2.29588515958995,2.29636840822914,2.29700908246421,2.29681527808492,2.29692003538537,2.29768212454593,2.29815988385557,2.30003983112306,2.30132045280641,2.3011854015848,2.30132812361065,2.30149502227268,2.30256629940935,2.31543851051574,2.362235375661,2.37399476969521,2.37804203428941,2.38968728142008,2.3927747687802,2.39303165678208,2.39478172185115,2.39581432481282,2.39619092590859,2.39646172827322,2.39665284333898,2.39695725444961,2.39706927585533,2.39722058611065,2.39737617454302,2.39730839763132,2.39721679932654,2.39730179045525,2.39793310194445,2.4003495420592,2.39833026764511,2.39800987104443,2.39915010575676,2.39933479307741,2.38885757276546,2.33564138364226,2.31223044890636,2.30876842869224,2.30839704799403,2.30860267930849,2.30799406332816,2.30761282143396,2.30796874787082,2.30866155981138,2.30915792052339,2.30894377781652,2.30956201554692,2.30983200974537,2.30984477852149,2.31030452566974,2.3097280219626,2.30961440845804,2.31034426301217,2.31130786964875,2.31147993302109,2.31159192544784,2.31188042936776,2.31255783785287,2.31299897180905,2.31374725702164,2.31452044591743,2.31530675773394,2.31540792627566,2.31526691591794,2.3157593899979,2.31663416702767,2.31832045329754,2.335038656475,2.39808106114932,2.40943856377146,2.41361536568011,2.41430773896582,2.41121527659339,2.41032998846584,2.41001494514678,2.41042686658005,2.41079894584048,2.41124035714738,2.41195102635327,2.41251165693623,2.4130403031795,2.41353110989874,2.4143883686448,2.41536940204019,2.41722524224781,2.41830443680464,2.41713235105245,2.4168682480505,2.41681898188175,2.41695574913415,2.41763395679416,2.41822963146828,2.41889848307548,2.41949731635427,2.41981954210023,2.42016005370151,2.42050524036007,2.42092075006155,2.4207428381063,2.42069811105067,2.42091538326744,2.41842614423789,2.39980310677456,2.35774189002531,2.33777103969634,2.333495656116,2.33229733155259,2.33138450263431,2.33093169694512,2.33120487839715,2.33141404994525,2.33156068093783,2.33117600037382,2.33105400856865,2.33231941067548,2.3326626068578
2.36344522526875,2.36444192324112,2.36428761880965,2.36389699366443,2.36426790358261,2.36411187484728,2.36487010219294,2.36627575637957,2.36686124999444,2.36534863656505,2.351959816107,2.30204862827108,2.28882984838127,2.28749906699805,2.287109957439,2.28728503436673,2.28724845080296,2.28706801878771,2.28684870082089,2.28681409483168,2.28734883020191,2.28822998537315,2.28764693623495,2.28727832152551,2.28798729492204,2.28845024263228,2.28821623462411,2.28797889363744,2.28872028061473,2.28891435005725,2.28884652230429,2.28903497672068,2.28907439837371,2.2893743157802,2.28976290410519,2.28979809411793,2.28983828022926,2.2902308371935,2.29096321271102,2.2907614340894,2.29122627851228,2.29134504038761,2.29134130819994,2.29160155287403,2.29190198384547,2.29230162801281,2.29242923939746,2.29258759733156,2.29286391890245,2.29302480400197,2.29339272846653,2.29346427012856,2.2938220198997,2.29418539463689,2.29450347085035,2.29507171278479,2.29616867935247,2.29589249998146,2.29623739412618,2.29638445417594,2.29664005152956,2.29717920520341,2.29786175201656,2.29987315364766,2.30009822084537,2.30081386327177,2.30099014603959,2.30201587318874,2.30381189019667,2.31848808393695,2.37368581150343,2.38814086427632,2.3894290213609,2.39068659183179,2.39182297693691,2.39281314145991,2.39442163411992,2.39474317859729,2.3951969541182,2.39590230501872,2.39651347353572,2.3964477493385,2.39587396040732,2.39596693991438,2.39622286945538,2.39642090438815,2.39662313114875,2.39678741983605,2.39709748816995,2.39761875315064,2.39762976525803,2.39740694006197,2.39790549483315,2.39559317593994,2.37421642311931,2.32183986999476,2.30875691545186,2.30781283834531,2.30727949764514,2.30714452339751,2.30724422579214,2.30717915555702,2.30724121595354,2.30807092663607,2.30853258787893,2.30849774828397,2.30983058149816,2.3090678889042,2.30861948952047,2.30991311954077,2.30953067241811,2.30945293334864,2.30946000427431,2.31007525375225,2.31059972935968,2.31102877475428,2.31192760196344,2.3121570303744,2.31245368516135,2.3125010609802,2.31386122702922,2.31551975166373,2.31571441433435,2.31583958771966,2.31555667372186,2.31602217455926,2.31712511060261,2.33070805973895,2.38278770729569,2.40386431727825,2.40732792560257,2.40785969828155,2.40798178884399,2.4087639422731,2.40973506628839,2.41011509766006,2.40997170417774,2.41026255174607,2.41084564272219,2.41163741312074,2.41125259865614,2.41164532193637,2.41247460053194,2.4140760318154,2.41554235140211,2.41554983098607,2.41660422996473,2.41739825405655,2.41697599671407,2.41650272449171,2.41749937038961,2.41716063812303,2.41783007249845,2.41862176255514,2.41970354547103,2.41931987992858,2.41936316881124,2.41948804862489,2.41977341999691,2.41996328577185,2.42019318828103,2.41961237444781,2.41701042033664,2.39881320503594,2.35653346773773,2.33595845027828,2.33283926437568,2.33172481478107,2.33035429523351,2.33013731933865,2.33015969898444,2.32998991998301,2.33019452223838,2.33072196998006,2.33116229108175,2.33179381620716
2.36305074465979,2.36354223846241,2.36365600773398,2.36343864827305,2.36329661196997,2.36304162036451,2.36304019190121,2.36246575230672,2.36279812539224,2.35996713069136,2.34202448510765,2.3000198598914,2.28934808690797,2.28830906242452,2.28774669685169,2.28765961210497,2.28730069632471,2.28703724623367,2.28699318584614,2.28684014756072,2.28681739344574,2.28735726369669,2.28718093815607,2.28713874133469,2.28737685856452,2.28773017465514,2.28778971798658,2.28796237902156,2.28845293099474,2.2885406513137,2.28867983443859,2.28915325250992,2.28911780054975,2.28918924489669,2.28942772480669,2.28949459871969,2.2895688905637,2.28974524629417,2.29016698402952,2.29020890178728,2.29051548424648,2.29060790055858,2.29071088264938,2.29118059488163,2.29159524907266,2.29207088672761,2.2923747498019,2.29229521015814,2.29277597793193,2.2930154884249,2.29331842418048,2.29348728502572,2.2936324067903,2.29400847707914,2.29422234172128,2.29458850020373,2.29540404336697,2.29537055310024,2.29591510730797,2.29644172788443,2.29683826479604,2.29769979934468,2.29804928846817,2.2991409966659,2.29981366339191,2.30068783057547,2.30155219060582,2.30492877360355,2.31640460452181,2.33105570086434,2.37739595462763,2.38888387837179,2.38987994840837,2.39033800503995,2.39116429087158,2.39216391439449,2.39318548578527,2.39370198605471,2.39412209914619,2.39489782460602,2.3953901245116,2.39534661577833,2.394432409011,2.39485035698288,2.39483992275844,2.39480804925724,2.39559247723489,2.39624868197814,2.39621270027555,2.39535664584991,2.39548496686159,2.39573086119116,2.39888149039015,2.38890316544659,2.34438674371573,2.31368726172992,2.30765945195135,2.30675049499501,2.30668769334462,2.30635731929338,2.30666062832097,2.30660472621221,2.30681122851156,2.30776916071402,2.3092899424909,2.30822427077313,2.30822080973073,2.30799131480939,2.30805601813324,2.30862190280018,2.30851227929046,2.30874164417872,2.30904097971874,2.30967458262875,2.30967413241267,2.3099129628334,2.31097168122425,2.31207080221352,2.31175495278228,2.31183394629584,2.31285742046274,2.31326870313247,2.31353866637318,2.31573271747031,2.31513192928558,2.31590705772201,2.31710890370948,2.32078454623308,2.34303859412056,2.39371250402331,2.40510989888665,2.40486719630848,2.40497335861679,2.40581438121683,2.40870090045373,2.40997540400954,2.41013483986235,2.40995634234945,2.40975811641233,2.40989449060609,2.4098500113411,2.40995444060934,2.41072670051432,2.41312961638748,2.41320574527298,2.41305643414339,2.41368926754189,2.41444512105271,2.41413632884729,2.41457660241457,2.41484486040691,2.41499341092287,2.41597004575968,2.41683514374205,2.41832465556606,2.41843449791793,2.41974660124479,2.4194664379007,2.41919368758006,2.4192077795204,2.41950423028603,2.4189602183321,2.41883888019933,2.41667224326974,2.39850885942958,2.35536771065223,2.33547309999065,2.33202911439345,2.3304242671716,2.33003184205549,2.33001323174487,2.32968843670607,2.32981276767542,2.3302609219204,2.33073371472835,2.33108557748549
2.36248149825895,2.36306969513228,2.36206520611017,2.36219651577684,2.36222888348983,2.36251027528236,2.36260729158394,2.36135850500795,2.36251900010261,2.35524081074587,2.31887747367363,2.29519302475363,2.28905792525939,2.2882169130854,2.28789990728189,2.28793592725165,2.28746780596241,2.28779873613409,2.28745854781968,2.28666111949275,2.28652274151135,2.28686742347569,2.28699097333976,2.28716923678447,2.28721169447251,2.28738247711886,2.28750521324095,2.28773893002249,2.28804731593452,2.28813861701519,2.2884012791546,2.28883002515089,2.28888295384693,2.28907996985607,2.28935273349286,2.28947156788329,2.2894393627434,2.28954936027814,2.28986151772816,2.29026384940627,2.29030336117475,2.29066901314993,2.29102952432283,2.29116268052531,2.29144673265784,2.29189555672364,2.29225068859472,2.29225699792044,2.29261783121084,2.293066840279,2.2935457612804,2.29344254618681,2.2936585768295,2.29388980447477,2.29391210643129,2.29445481108441,2.29540200349126,2.2957094957803,2.29610630725436,2.29677915508089,2.29704945945277,2.29786113953236,2.29866992346796,2.29958836596932,2.30043907779421,2.30133264375163,2.30264851695114,2.31612351346839,2.36058544566759,2.37596819402913,2.38681815690357,2.38898618160515,2.38941726949262,2.38998095613541,2.39083885652085,2.39148374891478,2.39240820495988,2.39253871477152,2.39287863073293,2.3937159849181,2.39560212808148,2.39444819834184,2.39351188022327,2.39381283612156,2.39394093798528,2.39427266179407,2.39470581997898,2.39515501032098,2.39553326433482,2.39529585179374,2.39483548971386,2.39462473758327,2.39577019772727,2.38376313594008,2.36089006166501,2.31820550814077,2.30763891438668,2.30645745529804,2.30590266527629,2.30576299229803,2.3060219916512,2.30634635324674,2.30689170977366,2.30700051058909,2.30858180220868,2.30772146387516,2.30790431200427,2.30737700323977,2.3077566101001,2.30770364638818,2.30751848753085,2.30806242267694,2.30874933700464,2.30936125376831,2.30951681115138,2.30966455193531,2.30997410389919,2.31060779304995,2.31119351320792,2.31149313950155,2.31181717263624,2.31215019449142,2.31242240316157,2.31405461474755,2.31455476569032,2.31598273760359,2.31700682194089,2.31789605526283,2.33080547632619,2.38114163495814,2.40207934291724,2.40398172127146,2.40361009533061,2.4037176008345,2.40820765558318,2.40948750710044,2.40949450914893,2.40847835423137,2.40820490071863,2.40803840075893,2.40844707161611,2.40869710923396,2.40937194413587,2.40988072815335,2.40993359180392,2.41043577426873,2.41210299188978,2.41314449168215,2.41338923393763,2.41368275179765,2.41291397664664,2.41326470542284,2.41428676613483,2.41510756876237,2.41561097365002,2.41623863646935,2.41782166501092,2.41777048364916,2.41782250851278,2.41824500982848,2.41857221083387,2.41831873369774,2.41812639850248,2.41849450441145,2.41673244817275,2.39574421201695,2.34472316731232,2.3318862458149,2.33058848882491,2.33036655046186,2.33003131091194,2.32979089796522,2.32971977387343,2.32990516795101,2.33062216350459,2.33001504389328
2.36147109811976,2.36130128989937,2.36115931023954,2.36164944782992,2.36186514859621,2.36194009951524,2.36096499783045,2.36053119500991,2.36145288375232,2.3591322981496,2.34036500981445,2.29933079658018,2.28848731468367,2.28768387620497,2.28749909212975,2.28773479307181,2.28766402510102,2.28834683048966,2.2877104099614,2.28639908522927,2.28641751669425,2.28715585182973,2.28708519466813,2.28702433298407,2.28716297409429,2.28722992019296,2.28733364326627,2.28745264395257,2.28781931543634,2.28803899656505,2.28806265795342,2.28810251296333,2.28838882189107,2.28875933086193,2.28913849062998,2.28912696805805,2.28945101456854,2.28954193746813,2.28980492678489,2.29005130951157,2.29009635501962,2.29062717833469,2.2909983057658,2.29096573984426,2.29130285835795,2.29158419855639,2.29187831295929,2.29227515864526,2.29251720223846,2.29281750383722,2.29329260304267,2.29351247940368,2.2936421279633,2.29370528311293,2.29388536175581,2.294372260227,2.29521463891736,2.29579357232368,2.29626798358528,2.2971549532993,2.29719427587602,2.29782621761653,2.29865724738976,2.29960671461399,2.30062867930003,2.30420762615039,2.31468122374713,2.33035834528191,2.37475900185809,2.38679768674265,2.38774687695674,2.38837092506582,2.38890506771484,2.38959707439704,2.39074821978646,2.39142523004844,2.39123983381658,2.39129952172191,2.39161206380759,2.39159232704355,2.39281313039141,2.39264536707655,2.39264582612932,2.39280769157359,2.39323212196352,2.39466560832616,2.39471891846569,2.39373369302858,2.39366275029311,2.39387266450378,2.39379589444468,2.39304883141048,2.38122979253525,2.33428026674307,2.3198969455099,2.30956375156989,2.30823120193092,2.30616847208495,2.30534609366107,2.30554576140395,2.30601286960057,2.30630335045341,2.30632271739016,2.30649381354654,2.3065517252407,2.30668566059318,2.30684553000286,2.30674713929028,2.30682186804912,2.30713657187953,2.30737621320462,2.30738422844356,2.30768171743171,2.30801764248391,2.30842543319731,2.30866928270496,2.30916928608399,2.30977915073059,2.31070899177051,2.31096744816128,2.31136368612352,2.31185548034961,2.3125522407339,2.31379919245437,2.31419078546649,2.31462680162944,2.31585834987853,2.31756922246454,2.3243011141956,2.35265376305641,2.39483674866095,2.40337850346426,2.40263910563057,2.40285758827307,2.40736998878554,2.40772533692174,2.4071996519539,2.40680701838662,2.40788016766488,2.40724127094054,2.40757000424528,2.40813185610023,2.40796982676577,2.40793531575421,2.40840282591617,2.40913814151966,2.41084084107517,2.41263441666145,2.41243440715283,2.41229358684322,2.41195782945774,2.41220448496824,2.41314362953411,2.41393688019851,2.41428883013376,2.41468718499384,2.41553982072708,2.41584067683486,2.41665158431865,2.41731386229551,2.4177981325191,2.41737655320686,2.41751980094415,2.41803735749542,2.41842783314952,2.40483592037037,2.34808725413551,2.33236565763288,2.33105247983956,2.33005463915171,2.3293049909204,2.32938543105548,2.32959611559689,2.32962713014705,2.32987592729764,2.32984866484763
2.36115332244225,2.36034638634457,2.3602658217059,2.36040337329485,2.36092774575448,2.36107169073406,2.35918278443933,2.35887152072492,2.35987813422325,2.3605205757535,2.34695670568038,2.30009877521769,2.28789930765079,2.28758365481443,2.2874290677036,2.28730754661627,2.28687880654597,2.28726840794345,2.28706135743687,2.28644352878431,2.28658517588742,2.28679595249721,2.2871420397691,2.28697692487693,2.28680719857194,2.28679114987576,2.28690109712917,2.28712083332429,2.28745867808053,2.28775328595497,2.28772930271849,2.28765036654957,2.28819181505427,2.28850129045567,2.28868567783317,2.28891516473247,2.28929870530126,2.28949296253971,2.28968756187537,2.28999411415023,2.2899972724706,2.29035110009971,2.2907297936616,2.29079502535998,2.29091780528322,2.29109609157582,2.29154718269821,2.29216972498346,2.29238612941029,2.2928232642578,2.29291542526982,2.29324914922772,2.29381569387081,2.29372912226762,2.29389150236138,2.29445682126715,2.29516116271329,2.29587572134648,2.29654874596006,2.296890129324,2.29710222638406,2.29793155929876,2.29909506342262,2.30026989295496,2.30392882631306,2.32198944691852,2.35932532964252,2.37310254654181,2.38344425944362,2.38653512899952,2.38720432093116,2.38810761871405,2.38894795645921,2.38906005844023,2.38983972419329,2.39017042797921,2.39012021971695,2.39060177098573,2.39086537047092,2.39055836067003,2.39099327326501,2.39132664496451,2.39199737265874,2.39188953781031,2.3922949076055,2.39243524380241,2.39303766312805,2.39316059513413,2.39332114841248,2.39334082233494,2.39350812239759,2.39098320065811,2.36946939019194,2.31853340114523,2.30603837441389,2.30554550904563,2.30537320030764,2.30495113468845,2.30515333795928,2.30496588703487,2.30485297523528,2.30506907023648,2.3056584622969,2.30565136240947,2.30568332398994,2.30641687876124,2.30622994643,2.30674430744727,2.30646560964268,2.30650242411459,2.30666261563662,2.30705924691462,2.30776143936442,2.30771628458618,2.3076843033231,2.30779861795488,2.30904226158232,2.30997058838674,2.31149215392349,2.31100896016003,2.31164914182155,2.31161473932772,2.31215414054002,2.31356732207446,2.31313105848946,2.31337163140433,2.31454796902813,2.31677336735317,2.32817044754009,2.3719060329659,2.39952247204209,2.403511586529,2.40256785976549,2.40193836702224,2.40274570903593,2.40315169886934,2.40397403824837,2.40503739463405,2.40615725052709,2.40611338389321,2.40636865310086,2.40700643127193,2.40694008488934,2.40721908428034,2.40815685938894,2.40841100883141,2.40889885231925,2.40948327611939,2.40942076860209,2.41043173294534,2.41054190051135,2.41084208395431,2.41209813883155,2.41240122715362,2.4126679884737,2.413343055633,2.41434448790192,2.41494929123795,2.4157139084257,2.41595009873122,2.41656258878688,2.41783807697272,2.41779331528035,2.41806077213424,2.41814440126968,2.40686881988657,2.35784322295413,2.33469057224135,2.33105823323437,2.32967586133863,2.32944552915241,2.329557077528,2.32926375912698,2.3286003565573,2.32871134873703,2.3288669909012
2.36085440884671,2.35953949608799,2.35923423646139,2.35954750882262,2.36016578126951,2.36102298077449,2.35832041479786,2.35794067144987,2.35859448092845,2.35731906437691,2.33867833445493,2.29775702381502,2.28749929104338,2.28713801414415,2.28692481368046,2.28695882967563,2.28655419540756,2.28643982933146,2.28666200610289,2.28666950695181,2.28654682249965,2.28657752294137,2.28656271143327,2.28704823083313,2.28686793884704,2.28677942844763,2.28682687413202,2.28740217399846,2.28734597025048,2.28745293019449,2.28763740018394,2.28807459935693,2.28852726413952,2.2886087266483,2.28857868087852,2.28852381171309,2.28917940049184,2.28961461658983,2.28975388504452,2.29045248262507,2.29009586798615,2.29020455063084,2.29052154076075,2.29052655131981,2.29091013844483,2.29082369698047,2.29110242429149,2.29163999466259,2.29190972304292,2.29276460431222,2.29271864274564,2.29311204542593,2.2935025303109,2.29358661401626,2.29419235751628,2.29477947243226,2.29538470362092,2.29619897652057,2.2962949774122,2.2971382404411,2.29746778020976,2.29838235188044,2.29978220792096,2.30390113624118,2.3228230375825,2.36067527329152,2.37994254773178,2.38392356992875,2.38476502418643,2.3855618256957,2.38633116901296,2.3868831704178,2.38752132298438,2.38814609996757,2.38866507567255,2.38880807105084,2.38938164121384,2.3896430144557,2.38972338722506,2.38983723135791,2.38998168814124,2.39050042294067,2.39074970539563,2.39083429122848,2.39144991814696,2.39121126540172,2.39137440856697,2.39230680482845,2.3926814090839,2.39350378551299,2.39184521987639,2.37224239187781,2.32856938618196,2.30864864038154,2.30472656720418,2.30417883159319,2.30436069770099,2.30421770355789,2.30438966073995,2.3046666584031,2.30473038860064,2.30479349775386,2.30494823482721,2.30491093739635,2.30499798097889,2.30540886852764,2.30553999483739,2.30650918428855,2.30615048335877,2.30601931524034,2.30639407002441,2.30809603665074,2.30762167272765,2.30750064924553,2.30735890782001,2.30752922942977,2.30911960858318,2.30949702446333,2.30950213863996,2.31024996186653,2.31054062165247,2.31112955843975,2.31191454385915,2.31304010253096,2.31305672019893,2.31333830160995,2.31370935292042,2.31478505257892,2.3189226737746,2.34198930931761,2.39231262863327,2.40326876145231,2.40258589288316,2.40213686953089,2.40244572385737,2.40203856510934,2.4023183992308,2.40326855248686,2.4035190156327,2.40419356203762,2.40519685565914,2.40616987148347,2.40621968955766,2.40618453080416,2.40697166415562,2.40718144680443,2.40756303877443,2.40798306907814,2.40839731125146,2.4094775891325,2.40960967872762,2.40965000933179,2.41062942156904,2.41121957918907,2.41155417319701,2.41257381849934,2.41372374988727,2.41402796183541,2.41434477191676,2.41450513649551,2.41587968194815,2.41847158198321,2.41766015680545,2.41784100214532,2.41793733588968,2.41483429785969,2.3940198992596,2.34483888073164,2.3317307909442,2.3300550408972,2.32974902313027,2.33087103308607,2.32889297208101,2.32837235550359,2.32850000162079,2.32924718020588
2.35857974151327,2.35815808032678,2.35878395569431,2.35959955809252,2.35934734051613,2.36009001822885,2.35907953506512,2.35877865098631,2.35844198300255,2.35031879374744,2.31602783246317,2.29210510778685,2.28740421002648,2.28676892239037,2.28634483266774,2.28666569201757,2.28640046621104,2.28671180828949,2.28651733262008,2.28631571105401,2.28632642199375,2.28654755822663,2.28634979009398,2.28661644849233,2.28653435162273,2.28660908759705,2.28693435610225,2.28756101485902,2.28731565989384,2.28750385900408,2.28783745782734,2.28806854608565,2.28848058491519,2.28860135394976,2.28916939013986,2.28892500176627,2.28915718491253,2.28965278877796,2.28968743552711,2.28983235837963,2.28993389809372,2.29003835341433,2.29029787484394,2.29031038157738,2.29057946569453,2.2909798108742,2.2912935176288,2.29147788898802,2.29144957858873,2.29264971842833,2.29287073600341,2.29321053413113,2.2933657587415,2.29364550227946,2.29425432759728,2.29494110047815,2.29546069218911,2.29632496026418,2.296563411795,2.2974733499158,2.29858568679211,2.29925712971878,2.30272782137608,2.32082421139411,2.35981275086142,2.37801642339275,2.38327790770832,2.38481679115626,2.38450344756761,2.38455287582,2.38556861590608,2.38625285914643,2.38674467708663,2.38742684341636,2.38778183646254,2.38791946724437,2.38838497288006,2.38837106224937,2.3886240646404,2.38943832803236,2.3895472282536,2.38932507821551,2.38905160740228,2.38936342161227,2.38939454917943,2.38952331438203,2.38996212885461,2.39194297811444,2.39133839391667,2.39274917710902,2.38226687182033,2.33055308146967,2.30834034418795,2.30523338578472,2.30378801212566,2.30342681545803,2.30354477750644,2.30361109204865,2.30391104671692,2.30491420928604,2.30487100328244,2.30534867011181,2.30468163296279,2.30440760333981,2.30491877378034,2.30500569418361,2.30504494182282,2.30527720515363,2.30527530143673,2.30561219603986,2.30608568078803,2.30645740877127,2.30630864503239,2.30734400857937,2.30724260928056,2.30731585881948,2.30820688729784,2.30864966992653,2.30885095602717,2.30988132101661,2.30966922199352,2.30965840474483,2.31008224852164,2.31137108577972,2.31272926313583,2.313278416948,2.31323016167767,2.31416395073617,2.31554369693666,2.33209607133225,2.39049961016274,2.40398999573661,2.40320360813381,2.4022358803218,2.40174151679435,2.40105125621279,2.40164961443555,2.40211384320953,2.40282616741392,2.40363333066532,2.40462999604931,2.40434871941481,2.40460977282983,2.40543776270141,2.40643912371658,2.40653669415965,2.4072581862299,2.40744678475786,2.40783632760131,2.40779720051521,2.40831033673878,2.40818446506088,2.40885331754305,2.40997702100991,2.41083516403712,2.41143563129458,2.41315478090243,2.41368192741894,2.41349961736952,2.41342462717307,2.4146957889135,2.41573901792638,2.41593115949531,2.41600781186642,2.41568665877504,2.4151710578318,2.40174450805583,2.34643837942565,2.3316063578761,2.33042354985482,2.32912795190216,2.32923886089576,2.32838159991079,2.32837951438486,2.32860177892101,2.32867267329989
2.35718695583168,2.35748102058599,2.35766318890603,2.35741087139811,2.35720018094571,2.35743878533089,2.35756331891529,2.35753255779289,2.35733490206935,2.35541011501483,2.33859777641715,2.29752292300019,2.28780475301002,2.28706253968251,2.2864108632966,2.28678709436918,2.28712147215362,2.28753701584368,2.28638287873623,2.28597830127492,2.2861881750328,2.28635761482504,2.286128299157,2.28610358936067,2.28616179561696,2.28665778190256,2.28692474261031,2.28689149451273,2.28706781920265,2.28787096086326,2.28755793959007,2.28763301120988,2.2878250214123,2.28823510960933,2.28879873233481,2.28908171394647,2.28874547463985,2.28886616670396,2.28928389597721,2.28946728182152,2.28959931961092,2.28982795503391,2.29010914556572,2.29017024342065,2.29060080713767,2.29103660773425,2.29138512962665,2.29152114963783,2.29209497746442,2.29269759486473,2.2928082384478,2.29303038597235,2.29324734749667,2.29411681691625,2.29503707509822,2.29594083122604,2.29586162151194,2.29641157947335,2.29675930020804,2.29776705133452,2.29926434669218,2.3024992663579,2.31981795756482,2.358204125797,2.37625008846045,2.3791412987444,2.38078525423533,2.38360993199375,2.38347872134883,2.38387529030269,2.38556878249812,2.38587236206448,2.38654247525041,2.38680435392466,2.38675674695763,2.38694990571968,2.38708266797993,2.38709667117486,2.38734649841735,2.38790186747073,2.38788074972829,2.38764507208903,2.38881138416034,2.38848896737032,2.38773352600787,2.38754486981186,2.38789345104409,2.38927727073992,2.39025552412231,2.39051873427943,2.37602494377618,2.31898656425154,2.3047669076378,2.30476423021946,2.30325529401651,2.30279221101547,2.30284024364504,2.30296911368361,2.30335829924489,2.30384993614989,2.30376356857234,2.30391544336037,2.30355621865067,2.30363918627845,2.30381411340529,2.30417249790608,2.30472471878788,2.30518654119943,2.30495482454378,2.30534065851269,2.30547601270681,2.30559434489899,2.30606825454417,2.30696631699449,2.30728511342662,2.30713122975748,2.3077977516552,2.30794832993383,2.30812134320729,2.308557773214,2.30887483222286,2.30875229677959,2.30911880174043,2.3100782259406,2.31083343849758,2.31149185192427,2.31232030820991,2.31354679310751,2.31489292728185,2.33063085224247,2.39108256782087,2.40538655577251,2.40388043915188,2.40205752502023,2.40049981420351,2.39999533533947,2.40099364910455,2.40115100623301,2.40182892002888,2.40211211958436,2.40312994221406,2.40352262513737,2.40356865074785,2.40450575987401,2.40525404535265,2.40626531311947,2.4066108991555,2.40685847803361,2.40835603566575,2.4074059292374,2.40783681333353,2.40703149036889,2.40786205784852,2.40905182936034,2.40951840341427,2.41004575528235,2.41131683398195,2.41263264281063,2.41316208533243,2.41424045260002,2.41513631298517,2.41491303646561,2.41471259294813,2.41500961470894,2.4142271399389,2.41410161285126,2.4009616836902,2.34672312261872,2.33213703730808,2.33087991478764,2.32942109245961,2.32851857472003,2.32739575692068,2.32727560997625,2.32802839309083,2.32749234498004
2.35677532081372,2.35729029726741,2.35662395830503,2.35652735567491,2.35628118549716,2.35624229192745,2.3564085773989,2.35703599194006,2.35720645231406,2.3552260022948,2.33766199245441,2.29737938856369,2.28733846076052,2.28650650054091,2.28588815031046,2.28595526618042,2.28640529420087,2.2859910035659,2.28576824189519,2.28590284385253,2.28600480159496,2.28598432643079,2.28590625914936,2.28595679218767,2.28621414534898,2.28713853501838,2.28654633302492,2.28652729391442,2.28698336937712,2.28777688714986,2.28734034661282,2.28744339237283,2.28747069131115,2.28775383973865,2.28831684214664,2.28868333100405,2.28831482809954,2.28852882217374,2.28904439836402,2.28930519861268,2.28944811656584,2.28960506697319,2.28993759568991,2.2905153897451,2.29099436823245,2.29112991984332,2.29159273084903,2.29174929794456,2.29277143092406,2.29271519431863,2.29287595160722,2.29309874713622,2.29329932164189,2.29395024749295,2.29455826159869,2.29512694375019,2.29545606743737,2.2963394238224,2.29683395565455,2.29791853196724,2.30188186223637,2.31980704022937,2.35785902121351,2.37575221280539,2.37856821927368,2.37834376736498,2.37980561715641,2.38188909327033,2.38262217444068,2.38329156236397,2.38403219690769,2.38462402261923,2.38482760487098,2.38563994535019,2.3856490719205,2.38615521543433,2.38659581651721,2.38666549684616,2.38666408961262,2.38585843492632,2.38622861963988,2.38623050203556,2.38827743831125,2.3882531018769,2.38716380477616,2.38610936980025,2.38571909522859,2.38675933924789,2.38965241570569,2.38790253090883,2.36538178830163,2.31554350057434,2.3037020659336,2.30344514097916,2.30290804680952,2.30318443096783,2.30240238978681,2.30217045794361,2.30286045690465,2.3028098326145,2.30275722658203,2.30265767305924,2.30279704949378,2.30349992009162,2.30333864182878,2.30378946286524,2.30393756775172,2.30446008220291,2.30461071527076,2.30478631507986,2.30492848520134,2.30571351174272,2.30599332386022,2.30628249453848,2.30658912315088,2.3062996134905,2.30662414698223,2.30736565313761,2.30750751633118,2.30816960503252,2.30861430280584,2.30831146851226,2.30819555039307,2.30873765984462,2.30999833897607,2.31073680245337,2.3116357417467,2.31302550227041,2.31428689572747,2.32821387338181,2.38162506804673,2.40293264499421,2.40381238280235,2.40239238786514,2.40121413314974,2.39898600574895,2.3996020811715,2.40014270664878,2.40070682791719,2.40071900585951,2.40138920982853,2.40310798051981,2.4027846160195,2.4030377889554,2.40383723022921,2.40435088670987,2.40437343908666,2.4053576867141,2.40549216969489,2.40590066129261,2.4060647981169,2.40567290475812,2.40623116457407,2.40739850571386,2.40820623772469,2.40896153112944,2.41020704529632,2.41210648503825,2.41200629691913,2.41342920265653,2.41421885045231,2.41380054623093,2.41235861179364,2.41386288221039,2.41188738832887,2.41299779483665,2.40221830155987,2.35453398907356,2.33354388257693,2.3300143172716,2.32849393447557,2.32759403757876,2.32670820278058,2.32656572228399,2.32733546549892,2.32743287729418
2.35651120282025,2.35667266945995,2.35623348677935,2.35563075113448,2.35541263270407,2.35534217780014,2.35577572036282,2.35681877173217,2.35718974700514,2.34816351996542,2.30764628104634,2.2904781464834,2.2870897403764,2.28660860164412,2.28602960622952,2.28625083950105,2.28663887899754,2.28608073849092,2.28590988205054,2.286063878011,2.28572587243122,2.28571894471393,2.28609467716513,2.28632818248477,2.28623482500077,2.28649593664197,2.28642918470153,2.28651046755642,2.2868494050342,2.28744072056237,2.28747635667333,2.28777678585111,2.2875323141161,2.28759985761996,2.28811778839501,2.28785499088614,2.2880240897591,2.28827332205643,2.28880068721911,2.2890064095132,2.28918199269319,2.28974603473741,2.29007399486269,2.29022311353947,2.29091006537271,2.29101613288629,2.29128001546531,2.29148970684495,2.2921157381315,2.29257119078656,2.29306815469015,2.29320850183762,2.29335736590688,2.29362555915716,2.29426123201921,2.29488077091783,2.29571626781887,2.2968768084172,2.29748586422089,2.29871287395747,2.31020714478125,2.35568394463794,2.37514770611409,2.37898430665153,2.37847845401559,2.37839486979628,2.38043313764319,2.38187261978661,2.38235986888142,2.38280351885885,2.38324117466007,2.38347918612798,2.3834608621402,2.38386009605225,2.38447371157983,2.3854981141016,2.38598572433862,2.38500268412285,2.3854034522439,2.38423074025178,2.38451041449953,2.38563112948839,2.38785207221176,2.38831337616403,2.38698053124831,2.38497694153,2.38498112700179,2.3863910785946,2.38901145629837,2.37753714919725,2.32792500358481,2.30601812871569,2.30280923897333,2.3027072598165,2.3024127973718,2.30286936642178,2.30253107866034,2.30224981505378,2.30216454512483,2.30251018012296,2.30247286819207,2.30229153570416,2.30256087433821,2.30306666013555,2.3034098568696,2.30340625721971,2.3032169783342,2.30348876570047,2.30404057375662,2.30473856248264,2.30463748190466,2.30512210090656,2.30603649700204,2.30634567427371,2.30605851849221,2.30499008169636,2.30528567006843,2.30653921323448,2.30737845919557,2.30879879160989,2.30848453853769,2.30816786419806,2.30844482273729,2.30884169560548,2.30974676872006,2.31084728673759,2.31226952594921,2.31452020216443,2.31455370391804,2.31885735584814,2.33988266973561,2.3861128906469,2.39741979317634,2.39807791421881,2.39766421060982,2.39674650447383,2.39750685487614,2.39854550944112,2.40029565640947,2.40114317084631,2.40068167555834,2.40222036161743,2.40128813940958,2.40120284360957,2.40162564213951,2.4021322090741,2.40234925991892,2.4030969692147,2.40342892449672,2.40417096765131,2.40488252494726,2.40554041029962,2.40582002740606,2.40650532688601,2.40726693532226,2.40762021237034,2.40855689585074,2.40950109294287,2.40972117492271,2.41038635890806,2.40956844774855,2.40982938881115,2.41176944707491,2.41286712323934,2.41120059212622,2.41308726153022,2.41109552026623,2.39038532142451,2.34293821597565,2.33040478118227,2.32890013956398,2.32756950444919,2.32639956058087,2.32618759102228,2.32663741347945,2.32757123959057
2.35574940876917,2.35613466009614,2.35655218216724,2.35467838372939,2.35441853252063,2.35479063751621,2.35538432841561,2.35577237142613,2.3553117334361,2.3449667337223,2.3001989797077,2.28830371045589,2.28673702366336,2.28664716986213,2.28574707689063,2.2857029553732,2.28585687012249,2.28577471009051,2.2854538442412,2.285531032427,2.28545506039764,2.28572472143144,2.28631693029597,2.2864906552572,2.28627245430308,2.28630793794373,2.28638116108978,2.28640190160229,2.28653065673895,2.28660234669807,2.28706316241337,2.28755252227147,2.28732086021712,2.28747523372207,2.28803080011682,2.28788850825419,2.28807055256189,2.28836699971616,2.28874206434126,2.28893398289146,2.28930342116146,2.2898849932931,2.29044233660213,2.29048879073325,2.29065306054277,2.29072357710836,2.29118541980041,2.29166180491087,2.29199742929191,2.29258660146705,2.2933611390263,2.29391091413036,2.29368732161428,2.29362338278772,2.29419573833921,2.29490669544626,2.29608228494115,2.29720338743746,2.29834354040077,2.30219459315784,2.32156837103393,2.36693346777406,2.37845268159623,2.3797394673942,2.37954111293639,2.37965407208103,2.38079659520349,2.38183816808242,2.3825164539263,2.3826713418667,2.38244025935837,2.38298605135209,2.38307936542626,2.38326300138996,2.38356879234452,2.38440368202321,2.38511111813628,2.38401261096163,2.38389259341961,2.38358279465552,2.38388601495926,2.38440299069665,2.38484483353596,2.3846010360343,2.38449182058145,2.38424164781957,2.38496675056448,2.38646791984551,2.38607872129968,2.37231964325938,2.31779408966433,2.30386086151424,2.30322221431516,2.30259865738593,2.30205834525623,2.30228353768858,2.30239467392342,2.30179067054048,2.30150318067797,2.30175435341682,2.30225456770511,2.30176163412698,2.30160122808188,2.3022089537834,2.30299220400687,2.30291716849773,2.30290731102361,2.30314594951775,2.30376888761231,2.3042052159172,2.30408459644333,2.30478717127584,2.30495763476064,2.30576300721524,2.3052867988408,2.30457712062711,2.30509181694143,2.30588982425389,2.30662865847258,2.30785004340891,2.30799364214009,2.30763557083812,2.30832223536243,2.30926145329616,2.31004765989251,2.31100336271531,2.31119139311487,2.31191005689888,2.31321468114316,2.31461105540027,2.32837050179631,2.38106277666999,2.39645880774206,2.39632317711804,2.39571909245483,2.39630225137866,2.39660323777906,2.39688207053341,2.39865062913151,2.40105013394333,2.3993553904225,2.39941345468696,2.39921066168791,2.39941859841872,2.40018039479661,2.4022887794485,2.40199908757017,2.40166623664195,2.40224529516547,2.4031695363131,2.40352428344576,2.404766358927,2.40536469730374,2.40564128538182,2.40656001694244,2.40643070542115,2.40741658722672,2.40783697554267,2.40769011585872,2.40792885644379,2.40773762390723,2.40783439706434,2.40863638417516,2.4097677777299,2.410929037538,2.41375441884011,2.41177885840619,2.40007922400052,2.35294558448403,2.33234451098465,2.32937405399737,2.32783033459645,2.32691370874144,2.3259476578311,2.32574036372459,2.32632311188574
2.35533275744806,2.35557109586891,2.35450779723162,2.35340877021156,2.35338888347058,2.35435627607772,2.35486427046217,2.35484834103166,2.35296820723917,2.33601984044364,2.29701900587346,2.28723861153845,2.28652492585584,2.28670227877333,2.28601030375165,2.28531143497434,2.28517908372155,2.28532047350524,2.28531487022822,2.28573345980689,2.28555956694106,2.28544931967548,2.28555734342121,2.28599084887889,2.2862397478519,2.28624747003731,2.28635994371473,2.28624166830325,2.28661456746033,2.28645473441804,2.28685868846533,2.28725781975978,2.28725647013956,2.28735720144274,2.28765107369378,2.2879150594502,2.28840820252753,2.28860825433465,2.28870552951312,2.2888608572779,2.2889250039469,2.28979813147375,2.29078874362944,2.29053353016687,2.29015719876526,2.29035865563947,2.29063961291704,2.29128125570856,2.29130541472485,2.29216982610472,2.29298096340347,2.29286560235652,2.29314461271529,2.29367185967943,2.29478840615117,2.29573460400361,2.2964751371231,2.29811935322854,2.29976480599821,2.31233878483907,2.35583685953997,2.37593972136151,2.38074776215262,2.37974739890366,2.37951381120934,2.3795946163062,2.38029189072197,2.38176987304166,2.3825576889165,2.3824056968158,2.38164319552732,2.38238362160427,2.38268099821191,2.38292422805012,2.38297610537888,2.38295473048413,2.38312648956266,2.38307689333443,2.38343058092193,2.3837178236267,2.38387012966231,2.3836936594798,2.38333713857897,2.38272211607012,2.38334679326625,2.38414249362678,2.38449944331581,2.3829575552797,2.3735408645783,2.36012568927236,2.31433322331454,2.30262810318008,2.30270054632704,2.302980816025,2.30181647460038,2.30192415360929,2.30190534689894,2.30151318182952,2.30113263396869,2.30130056047845,2.301429373984,2.30129241104105,2.30165480164515,2.30199274176807,2.30247455794815,2.30274493183632,2.30283271996311,2.30325612399205,2.3032843961868,2.30351044620408,2.30345303829269,2.30381288949061,2.30398326227457,2.30453412861875,2.30421847546909,2.30432946134394,2.30471650335155,2.30526598415914,2.30577900877456,2.30734557204709,2.30728844413754,2.30726364731641,2.30747684567458,2.30835713748909,2.30871481477092,2.30993944349031,2.30987290772262,2.31080504898179,2.31287646497475,2.31406932172653,2.32966522667855,2.38183681408262,2.39662938293723,2.39558666776826,2.39462339972322,2.39483517467336,2.39574564715277,2.39595562661983,2.39695539469039,2.39808818904251,2.3977009387632,2.39791594324308,2.39883182914366,2.39964934148844,2.39989215912942,2.40195854846654,2.40045967988302,2.39997631012293,2.40118881132599,2.40269744832297,2.40247263173521,2.40283193087395,2.40383779353955,2.40486200161619,2.40587416848577,2.40566473657462,2.4061794389929,2.40688594599023,2.40675844564357,2.40701043230581,2.40736726154004,2.40761396341357,2.40806913958269,2.40981298799829,2.41130592311468,2.41089654771704,2.40977018004198,2.40551088046047,2.37824862808675,2.33843094332343,2.32873991213974,2.32840870575712,2.32822601892958,2.32645555590237,2.32543797326784,2.32579707211348
2.35325598192511,2.35315419588799,2.3524571164252,2.35220170746867,2.35277411742202,2.3540451725211,2.35430998811218,2.35476033916695,2.34513313530939,2.30672425505493,2.28927307348187,2.28685247548209,2.28628858828028,2.2860355502671,2.28549651809699,2.28502481684921,2.28485421582623,2.28491421452366,2.28503343849603,2.28526932151717,2.28536277982471,2.28525433991539,2.28535622858898,2.28546763560624,2.28549255479787,2.2855881870725,2.28586489065428,2.28583731662326,2.28619597589778,2.28636790153377,2.28645353938786,2.28666900961866,2.28671068046075,2.28709017236561,2.2875633211695,2.28798543667149,2.28854661262804,2.28820770863819,2.28856189336901,2.28907125255303,2.28923920758719,2.28960310664771,2.29042678788878,2.29041653088734,2.29007180213065,2.29021259139973,2.29037550970854,2.29064152096691,2.29084207812465,2.29161911093115,2.29216480310269,2.29249634535596,2.29326049501939,2.294112929498,2.29481082766335,2.2957697050538,2.2966927126828,2.29853772879645,2.30192221307881,2.32071584109903,2.36422249594458,2.37745062902326,2.37921518944844,2.37873070304188,2.37885684357554,2.37920576062018,2.37967908941264,2.38058087202734,2.38100994711572,2.38098554620791,2.38070326776581,2.38137379402904,2.38148522278419,2.38199031221004,2.38204532715421,2.38200371436738,2.38216298743394,2.38258234155425,2.38283335389749,2.38297879297137,2.38349471955062,2.38427952257756,2.38358617253011,2.38258327368628,2.38304381693999,2.38332304545266,2.38015028442113,2.36359474110949,2.32552319028385,2.31374088951314,2.3039004626183,2.30124136404326,2.30137347160374,2.30137051679992,2.30149639202822,2.30199452911675,2.30128707375079,2.30144276651987,2.30109289348857,2.30084706706866,2.30069844404921,2.30094073381386,2.30123248038703,2.30145512840569,2.30175555382726,2.3014793204525,2.30188316248693,2.30236725151353,2.30290584201139,2.3040294687415,2.30384928540967,2.30368436940086,2.30417462811642,2.30402816354334,2.3037406697966,2.30427277391722,2.30460676547584,2.30476284678826,2.30491765180984,2.30554018236277,2.3059829642548,2.30644298963517,2.30692518832996,2.30748317465593,2.30823994234507,2.30891846915302,2.3090901089128,2.31026820182027,2.31140852680428,2.31410091334658,2.33309431943636,2.37622882032099,2.39387729949045,2.39527697624396,2.39368751988971,2.39361758503486,2.39418735320746,2.394984678103,2.3961947204777,2.39631690460969,2.39628666111861,2.39600461054957,2.39658556979946,2.39769857731979,2.39846089543084,2.39982193923446,2.39905170038158,2.39923362590881,2.40098256456966,2.40112338380901,2.40130988324154,2.40182257839853,2.40242441251454,2.4033274716249,2.40513508153788,2.40616142910727,2.40546164133104,2.40570644633788,2.40639197417554,2.40672319213496,2.40697659883021,2.40730943201333,2.40809883941251,2.40904260952736,2.4101590421556,2.41166403613226,2.40963617985698,2.40091553595441,2.36203898439769,2.33502202395862,2.3283241751519,2.32833204739164,2.32739586369162,2.32605157949887,2.3257393158666,2.32594984631234
2.35188521310411,2.35204040844972,2.35185944041995,2.35187615550726,2.35248676634434,2.35418420906161,2.35502166258647,2.35514626936687,2.34273749741529,2.29887378671444,2.28703339981299,2.28654465793997,2.28644763614586,2.28574022229661,2.28471420585594,2.2848041950286,2.28503418565055,2.28463249806042,2.28489359389232,2.28491221844283,2.28518972915628,2.2854278954607,2.28558912158944,2.28542860214807,2.28512412155417,2.28554831837346,2.28581571111749,2.28578196316337,2.28615976670681,2.28672688242953,2.28641151583954,2.28634390774761,2.28657636179934,2.28675045206979,2.28697123643935,2.28737051194658,2.28772748331314,2.28812901670776,2.28870684102105,2.28921321272316,2.28953094677821,2.28925018360474,2.28955495122617,2.28994479618789,2.2900363493714,2.29002721441141,2.29039653900644,2.29067907055604,2.29093123446396,2.29166068033376,2.29198832764857,2.29274743843638,2.29384270478176,2.29482746853094,2.29470143151424,2.29598312491917,2.29698743175074,2.29862715913014,2.31034790252389,2.35367152403059,2.37345826913206,2.3766544710613,2.37769556837681,2.37818884297287,2.37887547806505,2.37904144644779,2.37897186456654,2.37923260152412,2.379273913978,2.37945124031274,2.37956845216449,2.38021271284433,2.38021675745924,2.3803452105406,2.38076978731335,2.38136177081523,2.38150647858268,2.38179448152864,2.38179487484152,2.38181491211458,2.38229164339984,2.38257947278891,2.38319706700897,2.38264228157454,2.3830135905931,2.38123182780599,2.37049044766631,2.33281648815247,2.30705115504862,2.30146821172911,2.30079984459555,2.30041620676092,2.30046342546672,2.30031595437451,2.30127796715966,2.30203281133774,2.30135115938259,2.30146525663343,2.30145478301518,2.30056094936707,2.3000605598368,2.30008043816486,2.30026064846782,2.30067916527109,2.30099833947874,2.30099476227802,2.30101190645337,2.3010284202556,2.30167854836542,2.30331882678702,2.30365160239211,2.30298910422327,2.30346682421484,2.30396692240188,2.30384563164583,2.30412891574598,2.30482150074396,2.30458411767422,2.3049000636153,2.30497808793188,2.30512123849784,2.30602766707344,2.30652124555169,2.30737869259032,2.30898062863152,2.30898704939822,2.30871734224622,2.30996219988035,2.31142962815371,2.3130713767967,2.31826772085775,2.33826794487397,2.38192777144915,2.39329564250546,2.39312204653214,2.39309280551149,2.39392222889923,2.39428790016845,2.39534163295534,2.39494065581792,2.39631111284125,2.39574613404838,2.39585969259078,2.39644732194458,2.39755628104273,2.39817968666139,2.39821862098209,2.39889873722063,2.40117964272072,2.40023251320461,2.40003062419054,2.40075920958691,2.40213037045511,2.40225763449972,2.40331147016658,2.40482355807443,2.4049458282526,2.40557353986231,2.4057822796537,2.40610399025608,2.40660237218757,2.4071651523664,2.40813034622001,2.40923188109865,2.40994495355026,2.41124192516807,2.41090754443505,2.40964509800774,2.38980749091613,2.34156200791111,2.32805510161819,2.32727200449733,2.32665910480188,2.3258236239651,2.32535928914867,2.32574902423015
2.35162107201784,2.35157605158919,2.35155320089121,2.35174407713202,2.35174638241328,2.353269558735,2.35299505089644,2.35401879353075,2.34411259181093,2.29908209910291,2.28669542089514,2.28599472073621,2.28583468348474,2.28554426015286,2.28495549186741,2.28444044541967,2.28441863158304,2.28470350178957,2.28472393916474,2.28455125034292,2.2848664908063,2.28521414613775,2.28547425011258,2.28582258722513,2.28594426741661,2.28573587048155,2.28593849016721,2.28595740256459,2.28607852649845,2.28662477683248,2.28656996418546,2.28679279681266,2.28678012353758,2.28682402132491,2.28693675378019,2.28708764477452,2.28745710982856,2.28786301724609,2.2883615131359,2.28885658630945,2.28903753879927,2.2891314163189,2.28949693260914,2.28984529589414,2.29005768803657,2.29033019037881,2.2906837223611,2.29119051117533,2.29109776356271,2.29176230223994,2.29245445722959,2.29292601172134,2.29360039863691,2.29480392605701,2.29552473347626,2.29686894497271,2.29839561802466,2.30183905733033,2.32086852741701,2.36289692850164,2.37524480067763,2.37629129817224,2.37685263715178,2.37741639494699,2.37839724233591,2.37858803389442,2.37833151229361,2.3787409860726,2.37934556939561,2.37921224271525,2.37887507027136,2.37932545421935,2.3797043489149,2.37985287102397,2.37994549122246,2.38007299613651,2.38033768348421,2.38050298677921,2.38057783892909,2.38099732642485,2.38158789201222,2.38327280273062,2.38389705822826,2.38171995546861,2.38129414044877,2.37822442851709,2.37159368421812,2.34647218945065,2.31027073099094,2.30136626328215,2.30085782683857,2.30011492149741,2.2999669152224,2.29985209465865,2.30013188673421,2.30042465132013,2.30121076292786,2.30122858129188,2.30197691013476,2.30048585271473,2.29979729764428,2.30002098849998,2.29997546902634,2.30033659871982,2.30082769448985,2.30118095662065,2.30123548165637,2.30109210136652,2.30139557783865,2.30173211613392,2.30261020791281,2.30266039008877,2.30282883861885,2.30299454501122,2.30302584304828,2.30348357196477,2.30419070638137,2.30445410216494,2.30480214994742,2.30568994416167,2.3052816686004,2.30573321951595,2.30581802224758,2.30684498562281,2.30784436504584,2.30814100840566,2.3080323558503,2.30939600791241,2.31180402372161,2.31254415590357,2.31379173061036,2.32817114184185,2.37942676481197,2.3918461077277,2.3914388855037,2.39149156389143,2.39218076433416,2.39327028407458,2.39372089862883,2.39377842921713,2.39452032322126,2.39487168742528,2.39535410312826,2.39579581664778,2.39654852858705,2.39727268549013,2.39755473478912,2.3977664068052,2.39908792640153,2.39929529520169,2.39962890264322,2.3999505189354,2.40002654366874,2.40075056649861,2.40152986977906,2.40242571975043,2.40368446099897,2.40579217862064,2.40581778756672,2.40609714709097,2.4065808673051,2.40682748260882,2.40748057668502,2.40905527453341,2.4104687734701,2.41118199845492,2.41164278796325,2.41195050102267,2.39850887511112,2.34320177901678,2.32761524964034,2.32677128107016,2.32747116006979,2.3262195783684,2.32425504270909,2.32534226108364
2.35154207953661,2.35139470566556,2.3507795259428,2.35064917663166,2.34991269898495,2.3506563323765,2.35107835323218,2.34943422898072,2.33602607263065,2.30369336001807,2.28809918310055,2.2854565098928,2.28552908297872,2.2850859122475,2.2846219411754,2.28436379585569,2.28467456847823,2.28507916897806,2.28477231845754,2.28425847341179,2.28476881409568,2.284829277081,2.28515001001632,2.28579808134678,2.28620447574319,2.28605465555243,2.28610864196267,2.28618284706173,2.28617809818144,2.28671664255346,2.2865528028176,2.28669340386808,2.28693403176189,2.28687324495586,2.28691790312807,2.28692587636277,2.2871731053284,2.28754465747022,2.28763784034186,2.28844789325194,2.28879216731373,2.2890451022615,2.28962075647729,2.28993601435789,2.29018986585812,2.29020140351845,2.29088280118991,2.29097042673529,2.29122987997252,2.29225925782459,2.29273192211163,2.29301748769099,2.29381468716675,2.29523816555813,2.2962775354979,2.29956368820189,2.30848647454091,2.31940837287894,2.3541249674629,2.3712055295085,2.37469814092489,2.37502825740954,2.37583790125945,2.37643296445184,2.3771422040301,2.37759567635875,2.37767252565237,2.3782157743668,2.37875019193146,2.37907711439258,2.37876145215689,2.37883385178041,2.37908069846817,2.37996656383771,2.37983033588766,2.37941793875955,2.37940450892722,2.37956902981042,2.3801199629475,2.37974335944473,2.38065539586176,2.38320602220949,2.38146574874645,2.38030096237296,2.37811519139775,2.37562550715133,2.35907813153527,2.32069956789331,2.30381317029511,2.30066871348411,2.30044702981656,2.30029083379966,2.30004241433706,2.29977392498835,2.29956723614193,2.29925618763206,2.29959415000117,2.29966358157851,2.29987527903518,2.299532346726,2.2997107461419,2.30040594796016,2.30015728813642,2.30006495657438,2.30043206650651,2.30088883290911,2.30097719881549,2.30075871529147,2.30149299677615,2.30109586262723,2.30108257243333,2.30170421192424,2.30237267907658,2.30266339772825,2.30293406453611,2.30272465615112,2.30393633650019,2.30537228570451,2.30455240351173,2.30443590121178,2.30463666903246,2.3049947847514,2.30541279323024,2.30656443935784,2.3068631174458,2.30738018200992,2.30798815558201,2.30909734639417,2.31100270409708,2.31117245826528,2.31280708192666,2.3284030483531,2.37861378045597,2.3905422272369,2.39077315797528,2.39074085210269,2.39089998676432,2.39128454811973,2.39185190033203,2.39246525783132,2.39291730826229,2.39429292936016,2.39553179804165,2.39553512211916,2.39561956403374,2.39615172466836,2.39646954881364,2.3968674615782,2.39743043471696,2.39771772503437,2.39818086056179,2.3982982958447,2.39846282371079,2.3991188313709,2.40017444111818,2.40123469846584,2.4030837427431,2.40462695386301,2.40613664210547,2.40491244362702,2.40508951622938,2.40546224034563,2.40622533974775,2.40841869556491,2.41045892406573,2.41066058580307,2.41121237401337,2.41119956684683,2.40075815117435,2.35213645584191,2.33072262324552,2.32670950798577,2.32635390209042,2.32603436959582,2.32475665318018,2.32481973999607
2.35073865694228,2.35083005758252,2.34967354965272,2.34939448469071,2.34898703912758,2.34873075021382,2.34865242429682,2.34239501305492,2.31955911106892,2.31930743048005,2.2929546540981,2.28536920255039,2.28512049287556,2.28541778827173,2.2842858104618,2.28393839339727,2.28423538534641,2.28500328655759,2.28530069541209,2.28467713532974,2.28480573876837,2.2847379563501,2.28469103968141,2.28529422348618,2.28611284591193,2.28614901658082,2.28573038665233,2.28598424564135,2.28641314487649,2.28653263119866,2.28632037177396,2.28654421213679,2.28691148758911,2.28688352908283,2.28680352215669,2.28685570087136,2.28710588588105,2.28738542096738,2.28742871823076,2.28801173928405,2.28824115473631,2.28879730992854,2.28934176546679,2.2896617528409,2.28966440832534,2.28980224895068,2.29048195156087,2.29096422757266,2.291264332345,2.29209236362463,2.29254879974762,2.29313101013759,2.29373130964416,2.29496305428332,2.29645809335562,2.3073535269859,2.34719721518371,2.36049749068187,2.37055142189337,2.3730502401012,2.37357594481612,2.37430577515915,2.37490749447084,2.37587827580213,2.37661041172705,2.37695484914396,2.37708889488985,2.37710982515473,2.3779054878651,2.37841397351137,2.37909711651157,2.37885760089646,2.37839668171862,2.37839501052217,2.37847210195253,2.37834243985524,2.37827624475959,2.37818980858546,2.37830226172089,2.37787655150403,2.37810695357407,2.37900157386257,2.37647012087827,2.37605169179785,2.37825497594338,2.36758440853521,2.32298257369498,2.30408629330554,2.30084716928595,2.29949518896638,2.29947710371636,2.29911421005769,2.29893280650389,2.2991603880733,2.2990006414446,2.29875011738356,2.29908297013882,2.29896542861298,2.29913141039774,2.29898818078705,2.29882319271546,2.29908574054645,2.29953491638902,2.29951135378429,2.29971637349254,2.2999847421877,2.30035150812064,2.30028053578305,2.30127549276414,2.30082625109605,2.30041567774529,2.30081184786051,2.30161814349863,2.30254201178603,2.30294428974563,2.30255800414954,2.30318676228137,2.30404155706901,2.30352674232999,2.30367044531687,2.30411641006484,2.30486159900676,2.30561476401027,2.30568741257098,2.30631213517874,2.30657751261048,2.30760898485143,2.30847685507453,2.31043737872594,2.31056098902432,2.31143354318618,2.32605076440851,2.37722043047613,2.38972744543929,2.38961441744371,2.38916542750168,2.38933984261965,2.38991398047556,2.39062021659862,2.39169488393386,2.39185147417229,2.39298880380243,2.3966653387024,2.39583925217458,2.39454546345705,2.3945057004225,2.39471816727293,2.39535358173431,2.39566770612622,2.39574502194411,2.3963223584669,2.39683421630335,2.39740082789725,2.39822214750186,2.39906488798316,2.39939138542891,2.40120959101798,2.40272754414873,2.4052354038344,2.4044036557884,2.40604359216295,2.40536167062835,2.40554757581254,2.40683512615937,2.40879785326033,2.40991102660142,2.40981105925749,2.4092730608799,2.40697561323843,2.38678639409541,2.33942091129575,2.32706362865353,2.326865060415,2.32599575207286,2.32481896782767,2.32440483317148
2.34946626003925,2.34886546481778,2.346459863245,2.34770787986663,2.34844230617335,2.34750824257568,2.3479497439636,2.34600888655318,2.33268418642973,2.30248756263769,2.28769543491868,2.28524378690614,2.28478481564011,2.28446823220596,2.2838169267188,2.28359643191518,2.28363097184116,2.28382575972268,2.28428874375417,2.28451152884174,2.28463906292536,2.28498563099571,2.28504018269761,2.28580249099731,2.28630515644135,2.28589915004857,2.28568161769307,2.28573310169093,2.28581314382923,2.28589101943181,2.28591529166316,2.28611335113043,2.28648718567003,2.28650565895675,2.28665180119851,2.28690887694464,2.28719637875317,2.28766961697235,2.28750293047499,2.28774927557926,2.28817047909784,2.2886351214783,2.28909315908163,2.2892657427401,2.28946762577399,2.28983658348185,2.29019449951389,2.29090834936212,2.2913826056837,2.29206647809983,2.2927202924214,2.29339799889921,2.29421175605413,2.29570011206916,2.29715850963131,2.31035654845871,2.35859209441588,2.37051177091875,2.37348419941838,2.37353859145344,2.3733318096636,2.37392197969579,2.37424464130852,2.37506043726086,2.37577887223243,2.37579471894009,2.37585126806775,2.37628119526969,2.37792875226007,2.37846383213072,2.37953712057046,2.37898372657198,2.37733237493905,2.37685156773184,2.37685405709081,2.3768014498438,2.37685365566136,2.37730685457115,2.37764704712096,2.37711243244334,2.37673354912602,2.37683238954914,2.37554110251476,2.37539883015164,2.37772243427906,2.36347259267007,2.31334086104788,2.30054472458261,2.30041396634574,2.29899636745429,2.29856435453741,2.29837885902453,2.297984098529,2.29841942151121,2.29829664044109,2.29851880422712,2.29854021811163,2.29833818711185,2.2984958981268,2.29824082947092,2.29854115946616,2.29842249335969,2.29885694633764,2.29929007285986,2.29925426327939,2.29952793915538,2.30004065572555,2.30005972660208,2.30070126928955,2.30072615626543,2.30043783784652,2.30068908498652,2.30108269678631,2.30201527845628,2.30211994724032,2.30207331820518,2.30223364745898,2.3030097929031,2.30322317785273,2.30348720662199,2.3038169001685,2.30458260843716,2.30472506765455,2.30502030088959,2.30540279139245,2.30589737838858,2.30688574350975,2.30765211404927,2.30913695620433,2.30970082152004,2.31140024008292,2.3255220822473,2.37737390164083,2.38973180514272,2.38879573588239,2.38823536362479,2.38873395561882,2.38912040138782,2.39017026147013,2.3915488283311,2.39109853814792,2.39109573577706,2.3922797318739,2.39302928430771,2.393006500252,2.39328878628792,2.39373743466973,2.39452580886079,2.39451891521355,2.39459306243637,2.39555457966099,2.39657007579658,2.396943429305,2.39736680439388,2.39823960782964,2.39825545820325,2.39899748737256,2.4001135121877,2.4015148228231,2.40184747752099,2.40318899860301,2.40414635185141,2.40491691628465,2.40671103785613,2.40823047540491,2.40898614464453,2.40922310930341,2.40862868647414,2.40820705230383,2.39522870167017,2.34251740468108,2.32797784644885,2.32657782216505,2.32580764550818,2.32410608314046,2.32367053216993
2.34588613401272,2.3450313369183,2.34336844590805,2.34433304242096,2.34654471682427,2.34607754875028,2.34638081780206,2.34494262492104,2.32851058271008,2.29487733602812,2.28632071830842,2.28525033122704,2.28464959596895,2.28409350431612,2.28372605575847,2.28351730368608,2.28354364972392,2.28363728742785,2.28408860179547,2.28398973719034,2.28432227066627,2.28504363478613,2.28541305225733,2.28534465794862,2.28561176457757,2.2854495224287,2.28549698657088,2.28554922331965,2.28556352157105,2.28556496103741,2.28576896143979,2.28603512668894,2.28619102308655,2.28644092660131,2.28669109903462,2.28713665575534,2.28724932855203,2.28745079834751,2.28763235451135,2.28796147943083,2.28831768029836,2.28851048634546,2.28866558700824,2.28910996514575,2.2896305080043,2.29018065009725,2.29060571703318,2.29125835737609,2.29209337304178,2.29259274085615,2.29301182137886,2.29375908005258,2.29514063449321,2.29677616171319,2.30023924172943,2.31898164364112,2.36119430887367,2.37072181064674,2.37182537205556,2.37230352400706,2.37273075293244,2.37316424509917,2.37377619121515,2.37435113863706,2.37465191838852,2.3749324672373,2.37509578511418,2.37569642032154,2.37709245552203,2.37694399963162,2.37796433769742,2.37781362278891,2.37723260985942,2.37678186520521,2.37644359793136,2.37611037691991,2.37635184331884,2.37747565942611,2.37785845387744,2.37696804945518,2.37626111902085,2.37694733225054,2.37676961271741,2.37599384958681,2.37372320022112,2.35455851674734,2.31067654596876,2.2998603844418,2.29982788806065,2.29860464926844,2.29834010275925,2.29795686077971,2.29795797843126,2.29859403684944,2.29849732556045,2.29831005306805,2.29810008362854,2.29823700903033,2.29835822029219,2.29815688766984,2.29848428307917,2.29822244871973,2.2985584767608,2.29903017914372,2.29881863254548,2.29897091713282,2.29943855277731,2.29969488607623,2.29988979323878,2.29997553537285,2.30013239388366,2.30040752443242,2.3004810426488,2.30085116931226,2.30119418709384,2.30136665249065,2.30163822096322,2.30288802090615,2.30487135456697,2.30367293874278,2.30340447797876,2.30386345355757,2.30423892080891,2.30456042232867,2.30500597543439,2.30559406158002,2.30618816796454,2.30666740350773,2.30765573892785,2.30887836605992,2.31142488847583,2.32503414642104,2.37669172188009,2.38941324689379,2.38910763101042,2.38775130031647,2.38731668316216,2.3877521038956,2.38912313955227,2.39006197465908,2.38975223742642,2.3898889548946,2.39059126994421,2.39114488673808,2.39110341241152,2.39214937160358,2.39288140877546,2.39318769536248,2.39383065265467,2.39380341179717,2.39445281156417,2.39640930432007,2.39773520240529,2.39711088880292,2.39730453568781,2.39704677431319,2.39776875751148,2.3990449816554,2.39995099527565,2.40083320526018,2.40155227678641,2.40310082150696,2.40579290929,2.40712264040223,2.40799829666576,2.40831882232906,2.40869587072876,2.4081321901506,2.40817794347566,2.39486901051644,2.3419860396705,2.32763935335849,2.32613240551188,2.32530545707609,2.32357262701014,2.32294521031739
2.34505328855811,2.34316998785876,2.34236211744429,2.34341330532195,2.34391359514917,2.34388695327418,2.34219482030554,2.3326046927428,2.30333180680574,2.28841516585818,2.28585116913425,2.28478722767547,2.28458831737095,2.28415593291702,2.28381460605077,2.2834870249338,2.28389716040692,2.28381801085982,2.28382842224911,2.28388877296403,2.28408311882989,2.28463621497514,2.28510152096706,2.28495079332568,2.2846547597851,2.28491330601262,2.28519903859344,2.28529717885885,2.28546263606397,2.2857556112463,2.28590977699814,2.28601505484991,2.28608575181936,2.28634393324691,2.28634168306841,2.28652949158546,2.28699333426996,2.28750337814554,2.28769266255875,2.28807755161132,2.28854241409911,2.28864994880172,2.28905156260719,2.28944501215142,2.28966508787928,2.28992915685501,2.29099939697162,2.29183754900162,2.29229541795373,2.29300059697198,2.2934709298055,2.29424036456897,2.29551366457852,2.29897769602322,2.31572480292849,2.35041855551325,2.36813162271116,2.37081635797393,2.37132388829104,2.3718732617978,2.37216147078157,2.37249192378632,2.37341530740803,2.37429243887813,2.37425331776813,2.37420652448722,2.37428567631963,2.37527639184544,2.37662621936394,2.37675664336555,2.37718055194304,2.37674766380319,2.37630481171829,2.37631909670925,2.37566197672988,2.37545637509564,2.37558776599918,2.37603918309668,2.37729458093549,2.3766058465232,2.37561981964656,2.37627699657179,2.37631133581462,2.37403757937568,2.35765206079535,2.31952640963114,2.30195063258662,2.2993001243154,2.29883991946048,2.29821944107826,2.298192283721,2.29778135278929,2.29790689217337,2.29855780850543,2.29786074149528,2.29747549398124,2.29731851357075,2.29791656239323,2.29796155994273,2.29818401894197,2.29887544831663,2.29848869495604,2.29865625114954,2.29937746166754,2.29851501603794,2.29851747079792,2.29916456457394,2.29936142712921,2.29927973616181,2.29960583433869,2.29982274504116,2.30018975966277,2.30025890921733,2.30024873850792,2.30083949869043,2.30100737915854,2.30123823959342,2.30173173362714,2.30267225478272,2.30266715201905,2.30308790180976,2.30351109687623,2.30375418300039,2.30416039115052,2.30433248765576,2.30470611149985,2.30556383752401,2.30650202545493,2.30783906129807,2.30927502537948,2.31120409070563,2.32440888267121,2.37425479599134,2.38836507720968,2.3888580598442,2.3872123263036,2.3864710252899,2.38677905418519,2.38811751262352,2.38955709934448,2.38908518143643,2.38905642865709,2.38988162005454,2.39002666816605,2.39023586074435,2.39109972284002,2.39149084961679,2.39155676199788,2.39226558479126,2.39343295274472,2.39412759589805,2.3949033707285,2.39604156308975,2.39658924781184,2.39667567235946,2.39566905505498,2.39630953970182,2.39751109482054,2.39923181215718,2.40086370595538,2.40106788628526,2.40238185400953,2.40518165279763,2.40636257138075,2.40679803943205,2.40740950512078,2.40758142411622,2.40745813116731,2.4063922905658,2.39522369549276,2.34880481079065,2.32833386528351,2.32506523757121,2.32403903270793,2.32318350862516,2.3229409545343
2.34687360953264,2.34283444847351,2.3418076165747,2.34244911490719,2.34218304411724,2.34075278665128,2.33506921965071,2.30998417456211,2.29237888286931,2.28695747502385,2.28555881379873,2.28503097646466,2.28481682752288,2.28419738073561,2.28410544371392,2.2836250267192,2.28400624781162,2.2836819939147,2.28316075087476,2.28321924496294,2.28350900177982,2.28433394429547,2.28482882245383,2.28451818711144,2.28431866531197,2.28457849116748,2.28485353289601,2.28515882233206,2.28534772562753,2.28574533935281,2.28584452881905,2.28595336312574,2.28596764762301,2.2861419328801,2.28630462953033,2.28639328370935,2.28721140920931,2.28842863016517,2.28772108435339,2.28779621868844,2.28800971286612,2.28833135162378,2.288905163389,2.28934845550987,2.2896811649345,2.289952655938,2.29067112430387,2.29164693892342,2.29245956778579,2.29307581199836,2.29390244730473,2.2945130014776,2.29603321139739,2.30716079032387,2.34870660097756,2.36585904055593,2.36939923278231,2.37009817750208,2.37039048954378,2.37084050806742,2.37154769602938,2.37183191096624,2.37214299941499,2.37309937894184,2.37320126955976,2.37322908743221,2.37310690744089,2.37374487339646,2.37584990773984,2.37612523029323,2.37572161776269,2.37560846111352,2.37567471596333,2.37456186512765,2.37441300787585,2.37419861295534,2.37387418909269,2.37361899162221,2.37371589139833,2.37380364235425,2.37449526204895,2.37550865629388,2.37625549757157,2.36571810796313,2.32168457313131,2.30213684158483,2.29914911933485,2.29869197221375,2.29771750227995,2.29777481254136,2.29763526753527,2.29732453925993,2.2970065874516,2.29708117301721,2.29711231574699,2.29684555356046,2.29696953018641,2.29789398415588,2.2977023766005,2.2975318371643,2.29759751505132,2.29759443091611,2.2980256333694,2.29832086192627,2.2981909632218,2.29834938311518,2.29866099695386,2.29877498490942,2.29912430360811,2.29984905355144,2.29966496893156,2.29997392263312,2.30028326951839,2.30022249625131,2.30080929913219,2.30112028890642,2.30123181539966,2.30090975424954,2.30148031739351,2.30187416434178,2.30277569606749,2.30340472727596,2.30316947493614,2.30350102910374,2.30405354230697,2.30429611435012,2.30491080095697,2.30686668469867,2.30803848809504,2.30939461454036,2.31137000209394,2.32584048963487,2.37414472931285,2.38593565182082,2.38707663279204,2.38595723157208,2.38585991176856,2.38565787166975,2.38637187391645,2.38700740249232,2.38734846786907,2.38782379211785,2.38927986821763,2.38961590014333,2.38980624865449,2.39018599212656,2.39049605447016,2.39082041573285,2.39127957730336,2.39201519058936,2.39289809085802,2.3934543351403,2.39540146679556,2.39545414207197,2.39493525988014,2.39457611039403,2.39544718571471,2.39653634941045,2.3983542899193,2.39900944954417,2.40066626397642,2.40254014387265,2.4031290213166,2.40436684895308,2.40545639274215,2.40660872286895,2.40656909881027,2.40622539526472,2.40622413222469,2.40203104677997,2.37566391736533,2.33567911589659,2.32560847372556,2.32407901542685,2.323399768556,2.32287214336426
2.34710077688556,2.34416311955429,2.34300458196502,2.34105825980308,2.34079736768945,2.33973357085458,2.33837756020304,2.32596602363485,2.29497176745772,2.28709378730351,2.2853898273994,2.28500654879455,2.28456769840601,2.28398783762932,2.28412986561015,2.28381615406923,2.28343133194897,2.28359840320735,2.28322885680172,2.28332503533311,2.28340335177297,2.28380925774489,2.28426807058995,2.28428246166858,2.28412520630891,2.28433250571755,2.28465687441254,2.28506013589694,2.28540420588265,2.28585877913476,2.28600157756368,2.28595188717188,2.28600415337844,2.2859851716629,2.28628451566481,2.28643709648459,2.28716527668671,2.28798276160129,2.28731775205574,2.28757912352207,2.28801172796967,2.28827025103069,2.28875579504453,2.28905645971281,2.28961059879541,2.28983593889421,2.2902852344322,2.29088524389705,2.29189248631305,2.29299726908261,2.29419565519499,2.29531497509979,2.29872961173278,2.31683441756366,2.35870312251848,2.36920239816005,2.36943802032944,2.36932014517032,2.36964038464457,2.37008590327306,2.37077166625241,2.37108181939346,2.37089125340561,2.3712877768917,2.37198466451083,2.37391270323437,2.37243001279489,2.37216959444609,2.37374491720271,2.37402130358782,2.37451940769434,2.37506155822985,2.37563297264539,2.3738409441711,2.37279964843098,2.37267531308804,2.37261563371999,2.37233720136376,2.37230638232018,2.37250227615155,2.37237065104713,2.37332374115772,2.37557100316443,2.36370749828873,2.31308280301444,2.29922925603021,2.29838638594304,2.29778748857545,2.29716824451017,2.29672089822173,2.29688355118886,2.2968212274857,2.29649663139309,2.29645725797679,2.29661730608471,2.29657471350981,2.29689170546936,2.29804124744422,2.29737740014459,2.29710618484082,2.29687498653545,2.29678353913043,2.29711554594284,2.29745853738837,2.29789229067891,2.29800775486841,2.2981982472078,2.29849204647992,2.29923153807998,2.29983806906776,2.29961695963814,2.2995063346603,2.29991384896241,2.30009150512201,2.30018606726424,2.3006815194131,2.30075846184492,2.30062629236549,2.30110171141597,2.3020525285623,2.302840989463,2.30266110583611,2.30215356678495,2.3025511101495,2.30362181747935,2.30409715898545,2.30484903649451,2.30636042126676,2.30739847627066,2.3091574257318,2.31213493001846,2.32492738753979,2.37327393737655,2.38480361821798,2.38465692442949,2.38367606968375,2.38377634175484,2.3843402520002,2.38496408766369,2.38529066106747,2.38600187000265,2.38721957647109,2.38849563123279,2.38820559202802,2.38816419225798,2.38866585665819,2.38913422288009,2.38999504073402,2.39051957575842,2.39051667780258,2.39108487968014,2.39142096298492,2.39248122286577,2.39274019668992,2.3928976995191,2.3938236493644,2.39439771987392,2.39501373428766,2.39638888595273,2.39714267931186,2.39931680991477,2.40041280562589,2.40191023924987,2.40523328862478,2.40591570173328,2.40569912931881,2.404841808292,2.40461940558216,2.40508373761232,2.39655425568645,2.35833496045317,2.33325561639036,2.32612631009227,2.32421000048851,2.3233191635824,2.3220615508974
2.34483886414248,2.34238943105046,2.34084087877362,2.34019761697348,2.33991701766205,2.33972578194623,2.33978534197194,2.33220997381572,2.29560576330542,2.28570927643016,2.28510682500143,2.28550957548327,2.28408228854276,2.28382241909738,2.28402800607416,2.28335635396791,2.28339129023616,2.28350335477838,2.28337174816856,2.28330214689821,2.28344248571854,2.28344231599235,2.28364557026198,2.28408287588431,2.28422586600167,2.2844711886724,2.28472651963068,2.28497724765424,2.28571508616907,2.2859638906329,2.28563699193097,2.28602282063454,2.2861811290123,2.28616547270639,2.2862540223611,2.28652575201595,2.28685838591154,2.28721886879818,2.28717838042875,2.28745830275381,2.28834747290995,2.28863707162264,2.28877683489557,2.2889469771374,2.28941007223043,2.28988479463758,2.29077780506335,2.29204415575916,2.29245955603209,2.29344616222257,2.29467031245956,2.29793648637396,2.31403338504745,2.34703795551515,2.36515446413995,2.36852011857388,2.368947876476,2.36913619979172,2.36954736589491,2.36977458385427,2.3700238734377,2.37018085546084,2.37021663624176,2.37030925276547,2.37115544602406,2.37339507794206,2.37229319162465,2.37179752792458,2.37261175601323,2.37284397939275,2.3739782880647,2.37381178397478,2.37330802298646,2.37221542936455,2.37191205484696,2.37201063014134,2.37210829707688,2.37174881744917,2.37187590548161,2.37195996920465,2.37159281471593,2.37220045335483,2.371563590712,2.35413133989216,2.31103413063127,2.29899976799066,2.2979006813025,2.29734331365929,2.29715164477852,2.29657842417507,2.29717945141138,2.29681489206093,2.29669546637489,2.29650307308941,2.29636687040673,2.2964728755554,2.2963575317694,2.29681737466811,2.29676687649461,2.29658927813954,2.2964754565988,2.29659228716225,2.297134498905,2.29753076068449,2.29743143127432,2.29755342779288,2.29787020778301,2.29796454403639,2.2980788647111,2.29814444471462,2.29847559234882,2.29831187003032,2.29915401340429,2.29926639406209,2.29985916101552,2.30001633159337,2.30038647322673,2.30100094939343,2.30065488298492,2.30167993862639,2.30320682025075,2.30225829586093,2.30226148482451,2.30294963887553,2.3036291955346,2.30382276576954,2.30465551954205,2.30593046058158,2.30620908233542,2.3074460780012,2.30932532925326,2.32116216932903,2.36540105016864,2.38303444154256,2.38368608521191,2.38230920888003,2.38238889225639,2.38364272331195,2.3840469056018,2.3842789456695,2.38525184127093,2.38605626269073,2.38650362470509,2.38695387309217,2.38702064030294,2.38740638435232,2.38803470230924,2.38898826318719,2.38954145364885,2.38904634900864,2.38978229776782,2.390539542143,2.39092532059273,2.39168255026833,2.39267712766928,2.39296184088694,2.39323017536192,2.3938185363373,2.39535426217717,2.39723297855711,2.39864791823511,2.39954750922944,2.40273900645722,2.40256172464822,2.40487699988335,2.40386833690176,2.40356638956059,2.40392456849776,2.40452547286307,2.40295479689002,2.3846115160511,2.33815422444521,2.32525017534957,2.32367042131559,2.32254568745063,2.32132149780805
2.34571657190394,2.34235180341148,2.34022447436357,2.33955315588527,2.33963765735802,2.34005757399005,2.34002898278819,2.3323142558068,2.29494260682684,2.28478428617519,2.28440719732408,2.28458827003701,2.28388207404158,2.28329397262372,2.28308506890798,2.28284776693673,2.28296348009333,2.28294890626885,2.28287889213834,2.28311297188167,2.28350795278719,2.28350094433044,2.28354505316638,2.28397560035147,2.2844531525368,2.28469117522578,2.2849296352953,2.28517332698909,2.28564773452561,2.2855145421597,2.28569712715882,2.2859212760697,2.2859554243057,2.28604810281741,2.28622601645476,2.28650385555136,2.28678686957988,2.28718420447536,2.28734066430867,2.28731950387132,2.28831943683268,2.28865745756477,2.28895006132387,2.28921259182337,2.28954429000713,2.29016663775568,2.2915263487897,2.29267064785848,2.29371177966381,2.29395636653505,2.29488959657172,2.30582871963768,2.34447799604282,2.36193024664145,2.36673401550328,2.36810685086487,2.36839254669686,2.36903737822698,2.36924956395063,2.36934528821089,2.36939324546576,2.36942840958992,2.36983341746146,2.36974144769375,2.36961814016189,2.37092949449341,2.37195245873712,2.37128849149916,2.37115057794346,2.37173589095496,2.37264226361944,2.37294596903407,2.37325413026453,2.3715000298036,2.37141290037841,2.3714287429435,2.37150012774229,2.37096303668435,2.37048477726127,2.37070889745857,2.37114740155065,2.37063433194405,2.36169817318066,2.31998021254683,2.30223033116251,2.29893194432859,2.29748341283652,2.29699663727107,2.29734992643204,2.29705298955695,2.29680429593833,2.29617332898536,2.29608707354445,2.29632054213934,2.29624023895899,2.29627501419775,2.29630128061644,2.29635865790058,2.29657192257157,2.29674314047524,2.29660489229723,2.2968654571783,2.2972326799904,2.29688850548405,2.29657130557978,2.29712621532814,2.2977539369507,2.29759567889876,2.29722133180422,2.29741569005786,2.29781692368829,2.29821952191276,2.29869358278384,2.29887109538022,2.30020156002755,2.29995888073037,2.29995987043314,2.30048665184217,2.30056072578068,2.30142914211095,2.30199101692328,2.30200748581643,2.30211484996374,2.3025010231478,2.30312855160929,2.30387485412412,2.30468689415437,2.30535967155375,2.30565238604959,2.30648531817326,2.30814699830024,2.31371240858434,2.34067064568544,2.37534958314651,2.38207714284903,2.38160350154655,2.38202673623738,2.38243848334753,2.38277097420032,2.3834060925015,2.3839715636768,2.38444014976955,2.38500862169037,2.38589177292335,2.38622610000239,2.38654090509254,2.38721753409586,2.38779371425164,2.38819669817124,2.38807814384272,2.38850377982286,2.38950777532135,2.3902354195865,2.3907596073847,2.39139772583726,2.39175076747098,2.39246819040463,2.39327739020039,2.39473570396835,2.3964949991341,2.3975905921259,2.39828541899949,2.39937006006388,2.39960885931271,2.40130816054881,2.40232704809713,2.40249648333614,2.40316029861385,2.40406778615451,2.40444199403559,2.39166319490974,2.33970990145003,2.32537694585976,2.32356895953876,2.32218517288842,2.32131448908573
2.34449438623923,2.34195955248548,2.34025996022133,2.33971343949876,2.34020751247855,2.34001368173431,2.33847558573975,2.32609551303618,2.29375652869103,2.28486259081012,2.2845589618867,2.28418488848816,2.28369765237648,2.28323960110217,2.28308896224,2.28289271736357,2.28289699701325,2.282806731296,2.28272262950829,2.28286810101695,2.28312959855888,2.28315394238501,2.28324720634071,2.28388760960639,2.28433321452839,2.28461034696341,2.28471047942623,2.28485312724288,2.28507570385019,2.28596955449728,2.28589846790224,2.28578534433534,2.2857305675417,2.28578614637434,2.28593647385919,2.28632031854251,2.28661822843307,2.28691044042725,2.28715630901402,2.28749222709157,2.28831231174288,2.28858608242798,2.28905315193723,2.28951334477403,2.28995064094511,2.29052536956754,2.29144971149066,2.29256011484725,2.29367299439189,2.29478799464195,2.29751546161027,2.31457867235968,2.35248611530856,2.36449720463344,2.36643847181269,2.36782968942198,2.36858728308488,2.36892205904475,2.368835334031,2.36893929341326,2.3691273453614,2.36880797666996,2.36882265081914,2.36900337009498,2.36929942166965,2.36965723148806,2.37119612017883,2.37039450623248,2.36995110271533,2.3703879502477,2.37057386248102,2.37069308943338,2.37057528668039,2.37020787964538,2.3706020401108,2.3706533097606,2.37054213466059,2.37005662972906,2.36999034208681,2.37019314142567,2.37059765385609,2.36839514546111,2.35091377565898,2.30924933839638,2.29856089183434,2.29840157661749,2.29727573359266,2.2969219789274,2.29655933230494,2.29664326060881,2.29630000568112,2.29574732223436,2.29538632418983,2.2955629098798,2.2956517012292,2.29584303057462,2.29602378416939,2.29570930823641,2.29578881909942,2.29647323658774,2.29646913451616,2.2967219085762,2.2964740164799,2.29623915542662,2.29599573205984,2.29695950855412,2.29736099091576,2.29753269580413,2.29739211422976,2.29727693208463,2.29769222861815,2.2983673818651,2.29864589610412,2.29914170432348,2.30035686021686,2.29974541246631,2.29954446683903,2.29976043041983,2.29993211937582,2.30074378765916,2.30143195321192,2.30165315161484,2.30167815380026,2.30224611465929,2.302988346095,2.30376335855228,2.30384458493657,2.30441557022467,2.30527007600776,2.30584832879093,2.30782352729715,2.31767012984082,2.35630596943287,2.37763972386633,2.38055601403923,2.38035749049411,2.38071896540168,2.38082233460184,2.38182892737493,2.38269397950073,2.38328331492932,2.38369088187261,2.38382342125121,2.38459213458569,2.38532138780782,2.38525654454377,2.38557233195335,2.38660372339367,2.38740418896405,2.38720797893981,2.38805437824581,2.38893201479533,2.38951307956566,2.39024674378846,2.39025895391462,2.3906431248418,2.3917097314524,2.39228528131815,2.3931396027232,2.39452393762406,2.39592037623428,2.39730474402758,2.39768139249541,2.39864000580158,2.39973773197465,2.40032351290467,2.40101195473948,2.40200340447484,2.40321931286248,2.40383715870979,2.3939663432169,2.3488367128376,2.32762310706049,2.3239930374385,2.32215399529801,2.32126464276301
2.34385948240724,2.34191576377252,2.34069004585792,2.34039065053273,2.34043022963948,2.34057651252223,2.33506609803422,2.30802695604368,2.28842614075185,2.28457903799198,2.28497287473859,2.28446822209818,2.28327214704146,2.28361192765648,2.28316340798738,2.28337505958421,2.28312901849771,2.28287416779715,2.28290239020021,2.28288055530151,2.28296822596157,2.28303711283294,2.28320875131195,2.28345133653106,2.28368830418566,2.28414413657728,2.2842921364253,2.28463420149016,2.28492720426899,2.28529389500479,2.28530896973901,2.28547110692552,2.28542566952905,2.28543109103404,2.28558287679773,2.28596954645923,2.28622655904772,2.2863198674246,2.28655748493333,2.28718216112749,2.28767619295514,2.28820249505875,2.28880385011327,2.28925359053454,2.28974780872255,2.29029364440474,2.29138762444569,2.29297137810372,2.29382223675885,2.29528658582146,2.30575263879859,2.34244991065644,2.35882364318108,2.36322723140809,2.3659130934049,2.36722712624238,2.36794203905391,2.36846156255176,2.36810200266173,2.36805012075311,2.36815038737277,2.36784502466952,2.36734141831815,2.36786901988076,2.36966876816236,2.36869833745423,2.36907062303382,2.36928447854809,2.36905913558376,2.36926092254503,2.36932562404744,2.36942006292214,2.36965855166046,2.36945312804336,2.36945725905798,2.36968970978539,2.36962245402739,2.36940451025731,2.36960003655982,2.3702887710068,2.37049643568126,2.36135568885793,2.31902759386014,2.30007401386087,2.29716066061698,2.29692747116721,2.2969047337099,2.29626001152259,2.29543625758105,2.29608550667028,2.29616296866757,2.29554053193041,2.29521401402219,2.29539305211923,2.29564502946004,2.29570619330903,2.29541729925333,2.29524462838669,2.29521189123183,2.29563923400933,2.29601700385309,2.29591320335618,2.29568568069469,2.29599122132351,2.29632224696966,2.29705079435017,2.29705395849261,2.29704811699145,2.29719224021549,2.29718580340454,2.29745567818125,2.29766850777431,2.29778636049007,2.29856621799635,2.29910039169333,2.29900480413188,2.29948870702094,2.29969624773172,2.29976157654163,2.30033887866583,2.30086921000273,2.30145173082619,2.30186675900122,2.30204130873379,2.30260875711254,2.30275442924634,2.30318387803218,2.30421668905318,2.30474032600348,2.30598583848833,2.30812600420847,2.31178115657871,2.33067839655057,2.37073723854394,2.37944897435523,2.38001614190813,2.38047125341346,2.38046933701507,2.38123274272207,2.38186270025763,2.3824718065859,2.38275237547309,2.3831441172784,2.38371413124033,2.38405286329933,2.38429825997922,2.3847832387946,2.38578276550448,2.38605228542586,2.38642667523075,2.3877079236462,2.38786216585137,2.38831576785896,2.38838134492914,2.3887246842931,2.38938875399956,2.39052456821932,2.39123186054632,2.39258417912191,2.3942127150829,2.39509527437517,2.3960074637205,2.39678477607553,2.39761530542147,2.39841030956267,2.39922765005896,2.4003173327009,2.40119122463606,2.40201497276116,2.40285823826187,2.40138884077851,2.38238605286669,2.33616333026335,2.32364641516408,2.3219442928662,2.32124033046014
2.34297013668421,2.34243665043715,2.34206188453237,2.34158327130752,2.34138988483989,2.34209825289907,2.34182381995525,2.32688791145645,2.29359357205612,2.28506126508898,2.2847462642872,2.28404944675767,2.28289486209372,2.28323140218203,2.28288850088675,2.28372362185656,2.28332362962544,2.28320117579259,2.2831564556677,2.28291897353429,2.2829640674787,2.28303782707617,2.2829595900674,2.2831342945957,2.28352294989014,2.28426526572969,2.28425798904248,2.2844240783636,2.28480068764408,2.28480342511712,2.28500011244697,2.28558302501163,2.28566221078737,2.28573922517774,2.28569379339097,2.28598388790229,2.28615943430618,2.28645752636669,2.28682391841045,2.28741874153583,2.2878907425242,2.28869152584275,2.28903300716192,2.28957632381804,2.290104553594,2.29090122566569,2.29194284235793,2.29315018149796,2.29588896369193,2.30455515262467,2.31636668707456,2.35132171861682,2.36108792471239,2.36431484270911,2.36583451527725,2.36738787347839,2.36805566365191,2.36766470525037,2.3665985023135,2.36659298534237,2.36637637920691,2.36666899954849,2.36664289018108,2.36672829609772,2.36755069381633,2.36774040782263,2.36787636953823,2.36815882839229,2.36838591634549,2.36833469432615,2.36851969495558,2.36846619142642,2.36858478123664,2.36863361468859,2.36887212578038,2.36932081744704,2.36948264195033,2.36964949763933,2.36957307932765,2.36968231024937,2.3678898468453,2.35680688873286,2.31046388453923,2.29795910667861,2.29702582717019,2.29641032596839,2.29613337820381,2.29534366156899,2.29485868116998,2.29503000135369,2.29551692953738,2.29513680880345,2.29498610725794,2.29489525987021,2.29486340689607,2.29558413675411,2.29506978191426,2.29489749277648,2.29506815541536,2.29537757686506,2.29598424588883,2.29568092296753,2.2951186237651,2.29553907951641,2.29573960423272,2.29615505291659,2.29698907950168,2.29690015097867,2.29669349343572,2.2968906306661,2.29723710759181,2.297502141797,2.29736928426948,2.29814078583047,2.29844540886349,2.29877811078532,2.29893852484511,2.29916796240104,2.29982889066406,2.29992626816217,2.29986760109831,2.30026633052027,2.30103894395674,2.30155298345352,2.30199024558127,2.3027762579643,2.3032315293259,2.30386364630903,2.30485121159657,2.30600587850702,2.30724291488099,2.30938891488577,2.3224180090842,2.36795327372945,2.37848499842017,2.37943503512104,2.38010467989712,2.3799578512261,2.38039879028514,2.38072460552849,2.38152906398582,2.38162079894949,2.38221334597451,2.38309375369043,2.38316188432939,2.38353157182132,2.38490816400267,2.38476085093161,2.38476745044417,2.385603353193,2.38702226632318,2.38670476451504,2.38720958160626,2.38766048745258,2.38786197766174,2.38836814302936,2.38915904290072,2.39059048084397,2.39384974116384,2.39495782559935,2.39348129490694,2.39437243548913,2.395672901182,2.39749626916475,2.39802451599738,2.39830726131808,2.39937335023683,2.40039142975544,2.40073955735523,2.4016084460589,2.4023858270638,2.38990356075581,2.33773399644233,2.32385472391412,2.32212002622081,2.32158621602446
