0.42175,1.1312,0.443318,0.444835,0.446932,0.451725,0.45462,0.457325,0.457919,0.459235,0.459949,0.47273,0.473682,0.00405624,0.525749,0.526112,0.527474,0.528018,0.528151,0.527283,0.52499,0.00467887,0.546522,0.44708,0.447085,0.446735,0.447539,0.448905,0.449463,0.454492,0.459542,0.459531,0.469852,0.469572,0.472262,0.472686,0.474201,0.473951,0.479052,0.478021,0.00491858,0.00419463,0.530201,0.532953,0.541787,0.544167,0.549677,0.550271,0.554618,0.558906,0.559542,0.559791,0.571952,0.00456597,0.604867,0.616805,0.618041,0.620678,0.621546,0.626317,1.00434,0.642343,1.22323,0.0042775,0.796205,0.00446067,0.894817,0.797802,0.00516271,0.0043692,0.7392,0.795654,0.801239,0.798826,0.798674,1.47007,1.46937,1.3204,0.828722,1.47415,1.47493,0.0044229,0.853123,1.01893,0.962256,0.884314,0.988193,0.980316,0.991618,0.994098,0.897567,0.902062,1.52189,1.51011,1.22331,1.22365,1.52448,1.52594,1.52989,0.944481,0.946139,0.950082,0.944382,1.00271,1.13318,0.00451581,1.11347,0.00435641,1.0129,0.908235,0.881752,1.27175,0.891848,0.898083,0.846891,0.847528,0.852031,0.852376,0.856971,0.859379,0.862828,0.86942,0.871849,0.87367,0.875168,0.875399,0.872186,0.871487,1.16211,1.1923,0.849697,0.838664,0.842934,0.844959,0.839097,0.840205,0.841706,0.834337,0.837952,0.838558,0.838678,0.838553,0.832585,0.82846,0.835479,0.834902,0.842421,0.844455,0.834502,0.83473,0.831317,0.833206,0.836392,0.840427,0.84147,0.845758,0.847709,0.853463,0.853504,0.857236,0.854131,0.855081,0.855794,0.858307,0.857477,0.859489,0.866338,0.86488,0.863378,0.864283,0.867325,0.873643,0.86959,0.874792,0.876579,0.87979,0.883323,0.885286,0.887021,0.889826,0.889473,0.897162,0.903537,0.905633,0.907058,0.9079,0.908093,0.908941,0.910661,0.912304,0.915308,0.91994,0.921951,0.922151,0.924954,0.926668,0.92958,0.931994,0.93546,0.937859,0.943915,0.947391,0.949843,0.950803,0.952039,0.952713,0.953728,1.38913,1.3893,1.38955,0.978485,0.982102,0.985449,1.00127,1.00275,1.00342,1.00812,1.01652,1.02363,1.44072,1.44156,1.38138,1.05175,1.44173,1.3865,1.44127,1.44232,1.44509,1.09461,1.10653,1.65765,1.6543,1.11812,1.12517,1.64114,1.14632,1.14711,1.15227,1.15652,1.15553,1.15527,1.14722,1.13989,1.1371,1.13863,1.13878,1.14062,1.14003,1.14168,1.14422,1.14528,1.14211,1.13705,1.14292,1.1372,1.13903,1.14011,1.14031,1.14111,1.1426,1.14424,1.14428,1.14578,1.14653,1.14717,1.14683,1.1495,1.15017,1.14972,1.15274,1.15251,1.15317,1.16297,0.00408882,1.17714,1.17971,1.1791,1.18537,1.1861,1.18808,1.17333,1.17498,1.17479,1.16868,1.16949,1.1713,1.17257,1.17773,1.18083,1.36459,1.36805,1.22259,1.21843,1.2197,1.2226,1.22506,1.22855,1.23195,1.23366,1.23464
1.11339,1.09883,0.442903,0.444932,0.445759,0.447597,0.448358,0.452994,0.472393,0.472629,0.473812,0.474639,0.475382,0.476994,0.00441832,0.522963,0.00447842,0.53028,0.00482623,0.558524,0.00442721,0.555659,0.597443,0.445186,0.444974,0.449539,0.449779,0.45078,0.452764,0.453055,0.469932,0.471017,0.472375,0.471343,0.47174,0.473516,0.472757,0.476867,0.477316,0.480783,0.481545,0.004474,0.590005,0.00528721,0.542,0.543743,0.549454,0.554815,0.558259,0.558542,0.559168,0.559794,0.563875,0.564047,0.00467385,0.614845,0.616422,0.625006,0.626748,0.628356,0.628006,0.641242,0.645306,0.653054,0.65618,0.00426739,0.00439049,0.680861,0.683046,0.842353,0.00467488,0.00475668,0.797195,0.798119,0.0047645,0.00454227,0.00437721,0.0104495,0.00450439,1.48233,0.0043739,0.00450021,0.00418257,0.0043572,0.00462631,1.25494,1.50309,1.50191,0.893828,0.887095,0.88877,0.895088,1.64824,0.00452565,1.51935,0.914158,1.52577,0.925552,1.53182,1.46041,1.34864,0.94892,0.951,0.955121,0.958567,0.960163,1.0075,1.04041,1.02661,0.934169,0.00460163,1.13759,0.890009,0.890475,0.890647,0.891208,0.891726,0.894453,0.861634,0.865712,0.866363,0.871805,0.874247,0.874661,0.879589,0.878499,0.875058,0.87838,0.878413,0.880085,0.867857,0.857374,0.857074,0.851443,0.852296,0.850297,0.850847,0.8517,0.848751,0.84712,0.847161,0.847646,0.84898,0.849711,0.844435,0.845372,0.849325,0.850594,0.852447,0.848952,0.836853,0.841187,0.84188,0.842471,0.848099,0.851823,0.853527,0.854332,0.856097,0.852939,0.851531,0.851147,0.857674,0.858686,0.860659,0.866227,0.869394,0.865508,0.86684,0.870343,0.870719,0.876119,0.874705,0.877584,0.875597,0.881253,0.884386,0.886742,0.888581,0.893737,0.89424,0.897654,0.898874,0.900858,0.904527,0.905056,0.905076,0.90804,0.908981,0.91305,0.915685,0.919834,0.921877,0.925549,0.928971,0.928109,0.928843,0.931786,0.935094,0.938225,0.939768,0.948072,0.947948,0.950735,0.953159,0.951741,0.953769,0.956537,0.958518,1.25494,1.39694,0.978449,0.980139,0.985772,0.990101,0.99175,1.42955,1.01245,1.01514,1.02071,1.02262,1.03065,1.03679,1.44512,1.10329,1.06063,1.44764,1.44716,1.19316,1.45086,1.09569,1.10454,0.00425733,1.1173,1.12085,1.12272,1.13275,1.14446,1.15006,1.15374,1.15605,1.15976,1.15972,1.15629,1.15658,1.14322,1.14139,1.14496,1.14528,1.1457,1.14503,1.14607,1.1458,1.14932,1.15019,1.14721,1.1469,1.14008,1.14153,1.14627,1.14923,1.14278,1.14389,1.14552,1.14753,1.14823,1.14903,1.14644,1.14497,1.1461,1.14672,1.15443,1.15782,1.16307,1.16542,1.16861,1.17434,1.17902,1.18283,1.18363,1.18407,1.17763,1.1732,1.17062,1.17167,1.17014,1.16878,1.17046,1.22025,1.19417,1.2066,1.28881,1.21238,1.21409,1.21975,1.21964,1.22357,1.22285,1.22303,1.23724
0.413337,0.412782,0.404594,0.409033,0.40905,0.410143,0.411298,0.411717,0.470804,0.471099,0.472269,0.472637,0.429897,0.432208,0.431102,0.423294,0.420314,0.420757,0.418822,0.422114,0.541615,0.434657,0.438633,0.439022,0.4428,0.440792,0.451976,0.449885,0.465527,0.467826,0.469596,0.469832,0.471969,0.471446,0.471216,0.477608,0.480525,0.480226,0.482186,0.481469,0.481507,0.486356,0.529679,0.00430481,0.583729,0.54989,0.552894,0.553586,0.557056,0.558472,0.560819,0.561957,0.56288,0.56283,0.569998,0.570175,0.58384,0.618349,0.622894,0.00395782,0.641605,0.64524,0.64857,0.654988,0.656047,0.657455,0.67794,0.680239,0.68209,0.00378246,0.696577,0.901206,0.843878,0.860495,0.854377,0.00381525,0.876622,0.00427389,1.34302,1.0017,1.34166,0.00407037,1.45446,0.859577,1.13978,0.00412325,1.19503,0.00349355,1.30271,0.00415421,1.26176,0.991378,0.893504,1.53091,0.971109,0.999436,1.08626,0.004112,1.5372,0.929324,1.54431,1.06432,1.53745,0.956061,0.95791,0.960264,0.962854,0.00388911,1.15808,1.02191,0.00383941,0.930428,1.02349,1.01618,1.019,0.00392269,1.45508,0.905892,0.888302,0.897103,0.898412,0.890311,0.874957,0.875579,0.879617,0.88102,0.880406,0.879694,0.880944,0.882003,0.89015,0.890942,0.856836,0.854011,0.852826,0.857572,0.859011,0.855547,0.856366,0.856121,0.857681,0.858941,0.855346,0.856067,0.855993,0.848747,0.85053,0.852557,0.856794,0.858096,0.857058,0.851073,0.854623,0.860067,0.86021,0.866302,0.869211,0.865609,0.866941,0.867441,0.863421,0.862608,0.861675,0.862928,0.863765,0.865125,0.869429,0.871017,0.874761,0.877234,0.8783,0.887193,0.885337,0.887976,0.881851,0.885702,0.887801,0.887635,0.890413,0.892305,0.893691,0.896803,0.896124,0.902269,0.902277,0.905908,0.909399,0.911155,0.914618,0.915433,0.919144,0.924355,0.922293,0.925653,0.925839,0.925426,0.929753,0.931881,0.934897,0.93764,0.940176,0.943994,0.947593,0.950195,0.950531,0.954139,0.956002,0.954466,0.956157,0.966403,0.96974,0.970723,0.973659,0.978167,0.981155,1.36552,1.11563,1.42502,1.42608,1.02418,1.03023,1.03272,1.0341,1.03619,1.0433,0.00406003,1.06283,1.06664,1.07002,1.07668,1.08107,1.09611,1.09852,1.10469,1.12322,1.11865,1.12234,1.14454,1.15404,1.1478,1.15465,1.15497,1.15887,1.16203,1.16356,1.16222,1.16406,1.15531,1.14938,1.15068,1.15316,1.15766,1.15801,1.1574,1.15676,1.28469,1.16266,1.16406,1.1486,1.15221,1.15389,1.15717,1.1572,1.15379,1.15142,1.14171,1.14913,1.1473,1.14719,1.14811,1.15192,1.15853,1.16196,1.16369,1.16585,1.17051,1.17407,1.18198,1.18218,1.18228,1.18254,1.17053,1.17249,1.1745,1.16735,1.16942,1.16848,1.16866,1.17721,1.18045,1.18277,1.19218,1.21877,1.21528,1.20507,1.20773,1.20876,1.2094,1.21018,1.21126
0.403832,0.406031,0.406937,0.408928,0.410504,0.412304,0.411205,0.411147,0.418075,0.419645,0.43085,0.431809,0.431642,0.432042,0.43174,0.418131,0.415606,0.420348,0.422007,0.424256,0.426403,0.426381,0.43888,0.447725,0.44839,0.448741,0.450422,0.46019,0.461489,0.463187,0.464892,0.465162,0.466432,0.467081,0.474229,0.477047,0.48398,0.484327,0.479416,0.480867,0.484866,0.489578,0.490554,0.629695,0.597384,0.00432299,0.549104,0.545264,0.553286,0.556197,0.559201,0.562217,0.568564,0.569934,0.570073,0.572591,0.579281,0.592584,0.596758,0.599246,0.00439489,0.00392452,0.64202,0.0048965,0.656065,0.663341,0.665005,0.667202,0.673249,0.675238,0.678415,0.68487,0.00429662,0.894137,0.894422,1.02994,1.24229,0.823565,0.00441761,0.850869,0.00442955,0.939918,1.12284,0.855378,0.00382548,0.00475946,0.0037466,1.25013,1.32266,1.25088,0.00434739,1.06128,0.00455462,0.968604,1.03576,0.918557,1.54173,1.54485,1.53788,1.54755,1.54351,1.54773,1.54684,1.54601,0.95743,0.957112,0.957686,0.963484,0.00432163,1.62304,1.03249,1.67576,1.6752,1.07362,1.01536,1.01331,1.01571,1.0299,0.911838,0.8975,0.90828,0.912136,0.894832,0.883825,0.884157,0.884813,0.888103,0.888935,0.886287,0.885114,0.00395341,1.30334,0.946333,0.872794,0.854225,0.853924,0.856293,0.854529,0.854014,0.85727,0.859992,0.862561,0.856005,0.861582,0.863168,0.861782,0.853002,0.853782,0.857365,0.854694,0.860265,0.861344,0.862897,0.863581,0.869972,0.869273,0.86957,0.868978,0.871089,0.870981,0.870376,0.871313,0.867164,0.870595,0.871042,0.869407,0.870234,0.870573,0.873355,0.880712,0.882948,0.885652,0.893339,0.894548,0.895898,0.883428,0.894982,0.894196,0.893041,0.892813,0.893898,0.895965,0.896527,0.899344,0.899895,0.905103,0.909034,0.912182,0.914645,0.916121,0.91853,0.919612,0.922039,0.922425,0.921965,0.927505,0.929735,0.933285,0.934688,0.941316,0.942585,0.945534,0.946227,0.951586,0.953913,0.954099,0.954862,0.958621,0.96211,0.966454,0.964144,0.971848,0.974099,0.976484,0.9787,1.35779,0.984761,1.39978,0.00414222,1.09881,1.01071,1.48437,1.03006,1.03846,1.04104,1.45379,1.05882,1.46412,1.06794,1.07424,1.07592,1.46815,1.08905,1.09524,1.10331,1.10107,1.1089,1.11227,1.12308,1.12683,1.15265,1.15001,1.15249,1.16021,1.16386,1.17017,1.18073,1.17103,1.17193,1.1723,1.16132,1.16392,1.1655,1.16657,1.16101,1.16099,1.15308,1.15849,1.15907,1.15937,1.15447,1.15469,1.15522,1.16407,1.16432,1.15663,1.15471,1.15417,1.15499,1.15929,1.16597,1.16658,1.16675,1.16813,1.16929,1.17224,1.17562,1.17783,1.18129,1.18356,1.1854,1.18354,1.18029,1.17133,1.17442,1.17536,1.17104,1.17165,1.17579,1.17781,1.18405,1.1849,1.1894,1.19552,1.19825,1.19942,1.20252,1.205,1.20988,1.21381
0.40274,0.404743,0.406356,0.410017,0.409892,0.410085,0.414066,0.420596,0.419187,0.422856,0.425332,0.434601,0.44467,0.443938,0.447714,0.448564,0.448187,0.418602,0.454924,0.430545,0.431816,0.431652,0.441838,0.443208,0.444695,0.451561,0.453135,0.459582,0.461959,0.461762,0.463155,0.465494,0.465644,0.475766,0.47648,0.480944,0.483211,0.487242,0.491515,0.487836,0.487891,0.503213,0.503957,0.504883,0.510107,0.510999,0.677226,0.00446276,0.00425819,0.550524,0.556696,1.43124,0.569725,0.570402,0.572105,0.573042,0.57858,0.579229,0.58485,0.00462282,0.606904,0.00447121,0.00453301,0.0043997,0.00399899,0.726026,0.668998,0.672155,0.674667,0.676548,0.682015,0.682712,0.697529,0.699555,0.818339,0.828125,0.719292,0.721009,0.813843,0.879623,0.880324,0.00416546,0.863877,0.809611,0.873656,0.00411469,0.892666,1.04306,1.55266,0.00424122,0.849979,0.00464712,1.38926,1.38821,1.3577,1.35805,0.910798,0.00428491,1.54925,0.00453261,0.916755,1.55006,1.54867,1.55245,1.56212,1.56007,1.39338,1.57508,0.964041,1.51278,1.59614,0.967959,1.03874,1.0409,1.04253,1.03893,1.217,0.00434354,1.02312,1.04039,0.00429984,0.00427426,0.905186,0.902698,0.90769,0.911484,0.911445,0.894758,0.895081,0.891445,0.894718,0.894951,0.893855,0.00441899,1.21545,1.19705,0.870622,0.868719,0.871137,0.872393,0.873205,0.861687,0.863009,0.865257,0.866439,0.868018,0.870266,0.872388,0.873307,0.874414,0.872836,0.86518,0.869666,0.870026,0.871903,0.873123,0.86489,0.866393,0.869639,0.869419,0.871165,0.873073,0.875421,0.868253,0.870375,0.870845,0.870117,0.87174,0.874256,0.881822,0.8846,0.88847,0.895211,0.898699,0.901866,0.904482,0.897742,0.897617,0.89662,0.895575,0.897521,0.900656,0.902848,0.905196,0.907822,0.911346,0.91456,0.915969,0.920962,0.918184,0.919518,0.924953,0.926424,0.931326,0.934841,0.934978,0.936387,0.937783,0.939633,0.943817,0.945843,0.947157,0.946763,0.952735,0.953134,0.954934,0.959863,0.960707,0.964578,0.966519,0.968858,0.973283,0.974146,0.978042,0.977694,0.98188,0.984485,0.991036,0.997058,0.998951,1.00395,1.00543,1.48641,1.09982,0.00394328,1.0463,0.00415005,1.24365,1.06506,1.07015,1.07258,1.48945,1.48925,1.08541,1.09646,1.09807,1.10121,1.10893,1.11375,1.11973,1.12942,1.13292,1.14604,1.17362,1.17183,1.16184,1.17431,1.17515,1.17707,1.17832,1.17959,1.17847,1.18015,1.17815,1.1668,1.16931,1.15748,1.15843,1.16223,1.165,1.16051,1.16713,1.16929,1.16826,1.16625,1.16647,1.1666,1.16867,1.16832,1.16995,1.17031,1.17459,1.17067,1.172,1.1733,1.17047,1.1735,1.17506,1.17956,1.18463,1.18514,1.18897,1.18635,1.18345,1.17899,1.1804,1.17921,1.17863,1.18102,1.18188,1.18295,1.18632,1.18742,1.19259,1.19247,1.19442,1.19796,1.34526,1.2188,1.21845
0.400411,0.400217,0.401007,0.404392,0.00426256,0.430918,0.00407848,0.417892,0.442553,0.445112,0.446417,0.446805,0.447444,0.447096,0.446563,0.450116,0.450552,0.455554,0.00384219,0.435436,0.429799,0.440888,0.00386181,0.450128,0.451917,0.45409,0.453963,0.453698,0.455843,0.455666,0.46454,0.470793,0.475408,0.474654,0.477366,0.479441,0.490162,0.491951,0.496854,0.49829,0.505089,0.506255,0.506676,0.507294,0.509247,0.512088,0.519072,0.520971,0.525772,0.550957,0.547262,0.552567,0.547459,0.566587,0.564018,0.564791,0.579921,0.57855,0.579478,0.961249,0.598276,0.599118,0.601413,0.62631,0.00394012,0.634491,0.634768,0.635919,0.00429799,1.04566,0.00415135,0.685543,0.691129,0.785055,1.10488,0.71274,0.718507,0.718546,0.720448,0.723835,0.721427,0.913108,0.753167,0.753916,1.10861,0.998832,0.00408128,0.918584,0.897738,1.86129,0.898901,0.00457175,0.943576,0.86755,0.0045095,1.56152,1.31904,1.32149,1.56669,1.20306,1.20964,0.929448,0.936311,1.5613,1.56816,1.43066,1.1155,1.56967,1.59505,0.967738,0.96955,0.974776,1.63195,0.977362,0.00403443,1.65853,1.06756,1.70006,0.00372869,0.00999546,0.955214,0.994554,1.21644,0.910265,0.00418055,1.19325,0.898508,0.897448,0.898881,0.900156,0.901665,0.903937,0.904219,0.903758,0.900026,0.00442115,0.00421201,0.871378,0.871005,0.873523,0.87491,0.87883,0.87664,0.877734,0.878624,0.869161,0.871525,0.87323,0.876367,0.876192,0.878464,0.878834,0.876398,0.876763,0.877369,0.878076,0.883129,0.88366,0.883213,0.876716,0.876114,0.875905,0.876401,0.874503,0.875083,0.875967,0.87534,0.872357,0.874859,0.880013,0.882635,0.890144,0.890914,0.900655,0.904813,0.907757,0.908375,0.908078,0.896395,0.897959,0.897913,0.900237,0.903949,0.908202,0.908894,0.917022,0.920706,0.92069,0.922641,0.921994,0.922664,0.924815,0.928312,0.932118,0.933349,0.936564,0.939505,0.941484,0.941417,0.943791,0.945947,0.948997,0.953692,0.954024,0.95772,0.96066,0.964097,0.969272,0.970326,0.96956,0.970034,0.971952,0.975877,0.977688,0.98047,0.982606,0.985717,0.991252,0.993271,0.994861,0.99825,1.53693,1.48786,1.48842,1.46572,1.03096,1.03951,1.45831,0.00431531,1.46428,1.23305,1.05549,1.08116,1.48674,1.48807,1.59365,1.09832,1.10643,1.11226,1.11527,0.00397668,1.13261,1.13126,1.13564,1.13666,1.15094,1.49829,1.17558,1.17654,1.18133,1.18482,1.18574,1.18464,1.18276,1.18129,1.17557,1.16151,1.16323,1.16617,1.16805,1.16953,1.16938,1.1765,1.17523,1.17402,1.17659,1.17273,1.1742,1.175,1.17678,1.17783,1.17729,1.1775,1.17239,1.1775,1.17784,1.17789,1.17709,1.17751,1.18076,1.18923,1.18887,1.18682,1.18809,1.19529,1.1882,1.18711,1.18856,1.18554,1.19175,1.18393,1.33045,1.19189,1.19495,1.20022,1.20227,1.22639,1.23052,1.37472,1.232
0.401007,0.40021,0.405189,0.405,0.407831,0.412902,0.0118238,0.44292,0.444418,0.447976,0.44571,0.446175,0.446408,0.446812,0.449145,0.454795,0.455047,0.45875,0.460217,0.460637,0.459737,0.00426329,0.457145,0.458641,0.446739,0.451713,0.450618,0.452549,0.475327,0.0046122,0.470749,0.471244,0.4745,0.477153,0.480179,0.48624,0.486741,0.495585,0.496145,0.504008,0.505147,0.506816,0.505884,0.516946,0.523917,0.523423,0.525005,0.52583,0.526502,0.53435,0.544591,0.545954,0.547692,0.547907,0.55966,0.566937,0.566354,0.576401,0.578445,0.00422544,0.597825,0.598816,0.603977,0.00467072,0.631793,0.63314,0.635082,0.636646,0.644749,0.644892,1.08558,0.00434952,1.0734,0.00478018,1.16438,0.714924,0.715062,0.715727,0.716797,0.716232,0.719625,0.720158,0.7217,1.56121,1.55912,0.89809,1.55789,0.897669,1.21519,1.31784,0.898803,1.8741,1.14737,0.960634,1.28616,1.28592,0.0041469,1.5828,0.00400535,0.00410021,0.911649,0.00445271,0.926514,1.5797,1.52292,1.57343,1.57451,1.57821,1.57951,1.57597,1.59215,1.58533,0.985232,0.979371,0.99362,0.98411,0.983945,1.05715,1.05858,1.06064,1.06887,0.00459394,1.02162,0.00431316,1.07313,0.915594,0.911334,0.901852,0.903477,0.904958,0.905904,0.906338,0.90969,0.911408,0.914099,0.91654,0.916468,1.33689,1.29177,0.891922,0.893695,0.886709,0.887941,0.88401,0.883046,0.884484,0.884809,0.874134,0.872258,0.872226,0.879275,0.8759,0.874494,0.876787,0.880073,0.883653,0.884388,0.881783,0.884151,0.886581,0.88433,0.866735,0.867733,0.871787,0.872105,0.874702,0.877317,0.877758,0.87999,0.882459,0.882507,0.886649,0.889125,0.891297,0.893988,0.895023,0.896627,0.9018,0.908291,0.909626,0.910798,0.913833,0.918655,0.918596,0.918766,0.917438,0.91806,0.919113,0.919749,0.923273,0.925546,0.927376,0.930194,0.933323,0.934726,0.936783,0.942784,0.942871,0.945272,0.946808,0.947468,0.951676,0.953039,0.955007,0.957642,0.96216,0.96649,0.96773,0.970192,0.96995,0.970037,0.972908,0.975703,0.978183,0.981631,0.981841,0.981925,0.988631,0.991279,0.993167,0.997581,0.998859,1.00364,1.00912,1.01141,1.49645,1.46146,1.03202,1.03248,1.03524,1.03657,0.00442223,1.03548,1.17695,1.47868,1.08552,1.47801,1.478,0.00359407,1.4909,1.29195,1.29296,1.29529,1.13686,1.13818,1.13986,1.32415,0.00438207,1.24512,0.00434268,1.17741,1.17743,1.17606,1.17418,1.17362,1.17136,1.17335,1.17327,1.17179,1.172,1.17525,1.17533,1.17904,1.1745,1.17882,1.1802,1.17462,1.1713,1.17219,1.17292,1.1754,1.17209,1.17691,1.17801,1.17554,1.17415,1.17637,1.17598,1.17159,1.17541,1.17977,1.18084,1.18639,1.18853,1.1856,1.18575,1.1917,1.19288,1.19888,1.1968,1.20561,1.20532,1.20454,1.20753,1.20328,1.20949,1.21692,1.22412,1.2328,1.23325
0.387604,0.407731,0.410969,0.412773,0.412954,0.413481,0.414496,0.415227,0.443314,0.44594,0.44829,0.449387,0.450203,0.451378,0.451806,0.453128,0.459206,0.457988,0.45795,0.459252,0.483399,0.484047,0.00457742,0.00426389,0.00440912,0.52462,0.526108,0.527424,0.527926,0.532414,0.00434761,0.656058,0.00417823,0.480382,0.484949,0.487225,0.486701,0.494035,0.497412,0.49991,0.502066,0.502593,0.506053,0.681744,0.521364,0.522462,0.521964,0.527659,0.527886,0.532019,0.543027,0.544859,0.546127,0.555993,0.559418,0.560167,0.567509,0.643965,0.576238,0.576961,0.581724,0.952122,0.00396069,0.00488105,0.614195,0.94264,0.617047,0.638541,0.638585,0.640924,1.03314,0.650025,0.00417298,0.832533,0.00446391,0.905036,0.004067,0.78099,0.901529,0.00453702,0.90539,0.905744,0.00458117,1.14918,0.92973,0.915054,0.929177,0.00438739,1.2463,1.30729,0.00422626,1.23223,0.0044782,0.00659812,0.00386808,1.22598,1.59164,1.5994,1.60045,0.928501,0.932896,0.978935,0.00419234,0.909149,0.00418209,0.923403,1.59107,1.58595,1.52033,1.59084,1.59568,1.61404,1.62039,1.60883,1.15332,0.985522,0.987361,0.0046827,1.13373,0.988958,0.00420791,1.08793,1.08139,0.00404424,1.06668,1.07059,0.00400121,0.932722,0.898076,0.900085,0.902409,0.905199,0.909326,0.91159,0.91756,0.916153,0.918818,0.92068,0.92107,0.922294,0.00416298,0.893909,1.35351,0.887585,0.887735,0.88479,0.887661,0.888841,0.884558,0.890741,0.892471,0.892507,0.88328,0.880877,0.88359,0.887127,0.890429,0.892027,0.885762,0.892786,0.890899,0.884691,0.88401,0.882882,0.883703,0.887352,0.890286,0.891161,0.893766,0.888027,0.889842,0.898833,0.886284,0.887058,0.890006,0.892036,0.898024,0.899319,0.903578,0.909931,0.911191,0.914549,0.916447,0.91657,0.919171,0.917574,0.918926,0.920286,0.9219,0.923966,0.929176,0.933243,0.934119,0.936621,0.937793,0.93866,0.940589,0.943359,0.945828,0.948128,0.947931,0.950943,0.953763,0.956632,0.959823,0.960493,0.966978,0.970093,0.969665,0.96931,0.97041,0.972582,0.975571,0.978351,0.981753,0.983477,0.985258,0.988733,0.993949,0.994816,0.996956,0.998683,1.00304,1.00508,1.00937,1.01407,1.0168,1.0189,1.01935,1.0217,1.02398,1.026,1.03015,1.03094,1.48052,1.47455,1.09447,1.22984,1.55388,1.49102,1.10885,1.11398,1.11496,1.11932,1.1224,1.12507,1.12751,1.13356,1.16257,1.50481,1.1677,1.16847,1.17375,1.16917,1.17,1.17328,1.17426,1.17724,1.17958,1.17808,1.17964,1.1798,1.17706,1.17892,1.18086,1.17759,1.176,1.17778,1.17926,1.17256,1.17588,1.17688,1.17134,1.17415,1.17522,1.17518,1.1769,1.17416,1.17163,1.17188,1.17234,1.17532,1.18101,1.19127,1.19185,1.19449,1.19139,1.19296,1.19586,1.19893,1.20415,1.20642,1.20556,1.20357,1.20674,1.2127,1.22148,1.22576,1.23035,1.2367
0.391649,0.39173,0.410077,0.411288,0.412041,0.413916,0.4151,0.413999,0.42786,0.431144,0.44487,0.446589,0.447298,0.44886,0.459881,0.462983,0.462542,0.467848,0.472822,0.483084,0.482528,0.482843,0.507274,0.503774,0.936484,0.524721,0.525544,0.526662,0.52721,0.528734,0.533507,0.534105,0.549661,0.548322,0.548726,0.616095,0.614486,0.634408,0.665428,0.672827,0.676332,0.673178,0.67811,0.677704,0.677756,0.5275,0.525883,0.531003,0.52983,0.531507,0.738887,0.539366,0.541851,0.542125,0.543472,0.543217,0.565922,0.568708,0.57245,0.575468,0.578163,0.587203,0.586557,0.594713,0.595213,0.601846,0.711483,0.00429013,0.60881,0.63805,0.637943,0.641993,0.642599,0.644651,0.659351,0.00407244,0.78781,0.00351806,0.924862,0.688929,0.690654,0.69272,0.907278,0.910935,0.896535,0.00435858,1.56623,0.0044575,1.24677,0.914767,1.58323,1.58453,1.59115,1.58876,1.59645,1.60451,1.15968,1.89961,1.60727,0.00409683,1.60724,0.00371644,1.60632,1.60295,1.30191,0.00389031,1.62245,0.00402622,1.00311,0.00394764,1.48201,1.6109,1.62096,1.62236,1.08215,1.63162,1.63363,0.00453897,1.02528,0.99707,0.998847,0.998506,1.00192,1.00305,1.08527,1.06794,1.11837,0.00380592,0.953209,1.0291,1.02468,0.00434211,0.919854,0.920236,0.922371,0.920108,0.925385,0.925483,0.928727,0.929525,0.953566,0.00432502,0.913096,0.00414838,1.39158,0.900174,0.889793,0.891216,0.893678,0.896648,0.897542,0.896916,0.902312,0.901158,0.901135,0.900338,0.888075,0.887554,0.891165,0.892941,0.888127,0.892112,0.892179,0.883786,0.890744,0.889305,0.892979,0.902495,0.899213,0.900928,0.900311,0.900812,0.900914,0.902521,0.902963,0.895922,0.897683,0.898229,0.899803,0.906422,0.908467,0.911215,0.911625,0.912473,0.913376,0.913427,0.916663,0.917997,0.920837,0.921909,0.937368,0.940196,0.946545,0.947963,0.949255,0.949677,0.935947,0.942413,0.946178,0.950568,0.953673,0.954766,0.956802,0.959767,0.959344,0.960742,0.963837,0.964464,0.967368,0.969389,0.976596,0.974424,0.975334,0.976846,0.98144,0.980972,0.983844,0.986555,0.989145,0.99305,0.997724,1.00035,1.00049,1.00275,1.00607,1.00945,1.01313,1.01709,1.02034,1.02177,1.02269,1.0247,1.0261,1.02907,1.48181,1.48209,1.48166,1.48243,1.09263,1.08839,1.09558,1.0975,1.10217,1.11206,1.11716,1.11955,1.12354,1.12907,1.23121,1.28864,1.1618,1.16897,1.17205,1.17539,1.17301,1.17462,1.17619,1.17467,1.17539,1.17716,1.18138,1.18351,1.18588,1.18878,1.17952,1.18325,1.17734,1.17815,1.17744,1.1781,1.18069,1.17077,1.16719,1.1738,1.17263,1.17459,1.1752,1.17415,1.17751,1.17216,1.17601,1.17567,1.18237,1.18312,1.1887,1.19152,1.192,1.19244,1.19459,1.19559,1.19848,1.1991,1.19501,1.20004,1.20307,1.20389,1.21457,1.22299,1.22224,1.34668
0.390492,0.421882,0.428516,0.33422,0.431444,0.431384,0.43174,0.431203,0.429245,0.431474,0.436827,0.44161,0.445133,0.445237,0.46402,0.46535,0.465872,0.46605,0.469031,0.471093,0.477172,0.479187,0.481248,0.987095,0.491153,0.517846,0.519944,0.520799,0.529511,0.532781,0.534374,0.534372,0.545454,0.54824,0.547532,0.551511,1.28782,0.00367553,0.00428633,0.588968,0.00454281,0.590563,0.666034,0.663015,0.662859,0.651726,0.00403862,0.649053,0.00433314,0.531421,0.53614,0.542673,0.539069,0.540357,0.714401,0.663905,0.759,0.666604,0.569701,0.570576,0.58018,0.583854,0.58362,0.587823,0.5932,0.593729,0.601478,0.608044,0.610428,0.610325,0.60933,1.03588,0.628506,0.630425,0.631274,0.631744,0.643188,0.647841,0.662956,0.763579,0.687155,0.689506,0.69379,0.695349,0.698202,0.708134,0.711371,0.00375139,0.00391096,0.76041,1.1323,0.750659,1.33556,1.60374,1.60277,1.6033,1.60339,1.32723,1.62316,1.62096,0.00343202,1.60137,1.25138,1.89311,1.1946,1.09138,0.00391561,1.37127,1.1958,1.18737,0.946293,0.945322,0.945679,0.949913,1.63453,1.63016,1.64348,1.64475,0.98932,0.990323,0.00422171,1.43339,0.0040855,1.00589,1.00961,1.01192,1.16719,1.10914,1.10614,1.12418,0.00429853,0.0043047,1.32741,0.922255,0.924753,0.926436,0.926349,0.928893,0.933234,0.934061,0.9387,0.938888,0.00404485,0.970115,1.34713,0.91863,0.899842,0.901246,0.90034,0.90468,0.905899,0.899009,0.898107,0.899487,0.900641,0.901478,0.901413,0.901069,0.89929,0.90116,0.896211,0.897824,0.90502,0.890756,0.890326,0.893075,0.900762,0.905734,0.903123,0.906143,0.905342,0.907665,0.904205,0.904007,0.910669,0.910743,0.910227,0.907381,0.908135,0.907134,0.90633,0.907917,0.909366,0.910997,0.912248,0.914166,0.916339,0.920526,0.924566,0.924736,0.928229,0.93017,0.942649,0.943716,0.946237,0.947639,0.948996,0.945042,0.946357,0.946891,0.948715,0.951272,0.956115,0.958686,0.959067,0.961949,0.964376,0.964937,0.968191,0.969941,0.973694,0.97267,0.973115,0.976402,0.977786,0.980457,0.981873,0.984673,0.988698,0.992467,0.995888,0.996467,0.999547,1.00135,1.00886,1.00994,1.01183,1.01813,1.01968,1.02431,1.02461,1.0228,1.02576,1.02597,1.03072,1.46412,1.48905,1.48696,1.49235,1.09341,1.09937,1.09702,1.09914,1.10151,1.10704,1.11285,1.13069,1.28493,1.53265,0.00414833,1.24131,1.16215,1.16879,1.63282,1.18128,1.18482,1.18594,1.18558,1.18644,1.18147,1.18337,1.18565,1.18933,1.1914,1.19314,1.1766,1.1798,1.18115,1.17525,1.17662,1.17556,1.16858,1.17035,1.17046,1.17059,1.17098,1.17487,1.17653,1.17598,1.17787,1.1761,1.17548,1.17983,1.1821,1.18499,1.18421,1.18871,1.18885,1.18848,1.18892,1.18824,1.1853,1.18706,1.19174,1.19416,1.20124,1.20194,1.20474,1.20593,1.2066
0.420382,0.420366,0.428909,0.430638,0.431175,0.432464,0.432964,0.434959,0.431131,0.431713,0.438162,0.448369,0.449059,0.449059,0.460164,0.462082,0.462171,0.459528,0.460462,0.473528,0.475264,0.478107,0.479912,0.48802,0.496043,0.498471,0.498416,0.00413796,0.00385555,1.15362,0.532806,0.53451,0.541445,0.539084,0.544939,0.546901,1.30316,1.10904,0.00427509,0.00406662,0.691264,0.0042733,0.594997,0.597239,0.600368,0.601792,0.60289,0.601631,0.601485,0.604602,0.00482529,0.00421876,0.643228,0.569324,0.7786,0.560785,0.56752,0.569954,0.570287,0.572342,0.577713,0.580456,0.582057,0.586349,0.590356,0.592664,0.591122,0.605279,0.607016,0.607082,0.613613,0.621765,0.623558,0.629437,0.630355,0.630822,0.63958,0.640552,0.641205,0.641476,0.651953,0.656735,0.690053,0.00415422,0.700781,0.00391147,0.708626,0.715147,0.716695,0.00402283,0.00461506,1.62621,1.59155,1.60286,1.60634,1.61001,1.6129,1.61014,1.62016,0.00426919,1.21629,0.00419958,1.63413,1.19563,1.61456,0.934326,0.00440689,0.00434456,1.20257,0.00406736,0.00417865,0.00442267,0.00331148,1.65747,1.6555,1.01603,0.958316,1.64676,0.966307,0.00392318,1.37,0.986154,1.07031,1.17551,1.44371,0.00437597,1.09852,1.0261,1.02696,1.08415,1.08453,0.00428343,0.00416604,0.00457307,0.00379852,0.95261,1.288,0.939414,0.939327,0.94189,0.941053,0.949211,0.951708,0.00402389,0.943344,0.00469464,0.916873,0.925154,0.925932,0.926792,0.91272,0.917915,0.921136,0.918096,0.918117,0.904368,0.904801,0.907158,0.907705,0.908635,0.906186,0.907324,0.908062,0.909966,0.915168,0.912198,0.914998,0.915571,0.914777,0.910264,0.909249,0.911722,0.910764,0.911218,0.91227,0.915422,0.91148,0.909177,0.899938,0.906385,0.905002,0.904651,0.908484,0.909563,0.911028,0.913947,0.916329,0.920533,0.925421,0.926101,0.928039,0.930601,0.940521,0.940698,0.94303,0.942107,0.943955,0.948974,0.951659,0.952186,0.950767,0.950495,0.957323,0.960399,0.962307,0.964324,0.965395,0.966294,0.966879,0.968442,0.971724,0.973948,0.973883,0.977365,0.979657,0.982147,0.983712,0.987255,0.988893,0.993282,0.995457,0.997583,0.998307,1.00415,1.0067,1.00879,1.01147,1.01557,1.02071,1.0236,1.02566,1.02769,1.03041,1.03249,1.03441,1.03407,1.03845,1.13992,1.14999,0.0043317,1.31858,0.0044646,1.09281,1.10202,1.10407,1.10816,1.11584,1.11719,1.12704,1.13061,1.13361,0.0041857,1.15375,0.00472458,1.17343,1.18383,1.1875,1.18929,1.19234,1.19497,1.19464,1.19542,1.19486,1.19216,1.19743,1.18765,1.18542,1.17564,1.17802,1.167,1.16561,1.16578,1.1674,1.16694,1.16734,1.16792,1.17394,1.17565,1.18138,1.18031,1.17561,1.17787,1.1786,1.17914,1.18014,1.17916,1.17747,1.1762,1.17756,1.17375,1.17846,1.18089,1.18284,1.18486,1.18901,1.19173,1.19386,1.19515,1.19385,1.19151
0.428037,0.427465,0.428449,0.427751,0.428392,0.431665,0.433013,0.433584,0.438589,0.440254,0.44115,0.446047,0.44857,0.450438,0.456257,0.457373,0.457551,0.457751,0.45993,0.467521,0.475454,0.475808,0.477104,0.481195,0.492986,0.495035,0.497665,0.498479,0.504018,0.506374,0.518785,0.517685,0.534734,0.537097,0.538697,0.539236,0.545036,0.545561,0.00428259,0.57267,0.00369594,1.29848,0.592166,0.595264,0.601017,0.600271,0.600822,0.600676,0.600736,0.604444,0.605122,0.607726,0.609175,0.609505,0.607693,0.601453,0.594426,0.569998,0.571113,0.571638,0.577922,0.583695,0.583029,0.587052,0.58732,0.588354,0.603786,0.604018,0.607758,0.609552,0.614012,0.614524,0.623122,0.623833,0.625491,0.632149,0.6374,0.637804,0.641393,0.645417,0.649709,0.656482,0.663113,0.664081,0.667543,0.671662,0.00392068,0.710713,0.711701,0.711004,0.718408,0.718628,1.60556,1.61679,1.62321,1.13709,1.62132,1.62491,0.00376788,1.22097,0.00349911,1.63154,1.61649,1.6442,0.00395594,1.36149,1.91097,1.91799,0.860508,1.20358,0.00378233,1.65079,0.00425694,0.990167,0.0037986,0.00375611,0.946612,1.03356,1.07377,0.966381,1.66179,1.65841,1.66131,1.66125,0.00422917,1.672,1.02178,1.02379,1.02518,1.26036,0.00382718,1.08045,0.00361215,0.00369474,0.0043596,1.2021,0.00402891,1.27955,0.953528,0.952724,0.950276,0.950833,0.0035107,0.953191,0.95398,0.96417,0.00403292,0.942198,0.00410461,0.932864,0.935041,0.924583,0.922702,0.92782,0.929023,0.910864,0.911364,0.911396,0.912356,0.912533,0.906044,0.908271,0.910028,0.911499,0.915438,0.920278,0.913778,0.918997,0.919052,0.918366,0.918205,0.916094,0.919042,0.919017,0.91276,0.912848,0.915208,0.914941,0.905601,0.908092,0.910866,0.910469,0.911204,0.912721,0.914965,0.915136,0.921363,0.920379,0.923782,0.925626,0.931737,0.939135,0.944035,0.946441,0.949183,0.948827,0.94021,0.942982,0.947182,0.947867,0.951539,0.953059,0.955569,0.957464,0.959491,0.964814,0.969382,0.96976,0.969894,0.972617,0.971393,0.973564,0.977251,0.980366,0.980016,0.982452,0.984498,0.985938,0.988197,0.998874,1.00182,1.00162,1.00306,1.00487,1.00872,1.01286,1.013,1.01671,1.0218,1.02331,1.02627,1.029,1.02907,1.03384,1.033,1.03388,1.49004,1.04049,0.00436719,1.19987,1.16415,1.16423,1.09234,1.09546,1.1004,1.25707,1.11386,1.11603,1.12203,1.1227,1.12649,1.12936,1.14885,1.16275,1.17039,1.56641,1.17516,1.18236,1.19436,1.19447,1.19675,1.20116,1.19817,1.19834,1.20116,1.20058,1.20155,1.19231,1.17115,1.17202,1.17586,1.16693,1.16986,1.17401,1.17473,1.17905,1.18051,1.18239,1.18275,1.18415,1.17735,1.17887,1.18059,1.18112,1.17775,1.17845,1.17848,1.16671,1.16939,1.17094,1.17278,1.17592,1.18127,1.1807,1.18206,1.18915,1.18861,1.18786,1.18798,1.18779
0.424482,0.427143,0.427892,0.427665,0.431685,0.433057,0.434534,0.435346,0.437654,0.441395,0.440903,0.439867,0.451722,0.452357,0.458548,0.458682,0.455386,0.476588,0.479671,0.479905,0.480251,0.482093,0.481181,0.481588,0.483632,0.484706,0.48743,0.504247,0.506201,0.509724,0.50951,0.516868,0.517097,0.526505,0.541298,0.543429,0.544068,0.547941,1.33014,0.572553,0.573566,0.581002,1.29162,0.588186,0.596372,0.592021,0.59653,0.598338,0.600879,0.605108,0.60775,0.608302,0.610571,0.610856,0.610325,0.604006,0.603742,0.604238,0.607227,0.581374,0.582905,0.584187,0.585084,0.592997,0.595296,0.599522,0.603285,0.605816,0.608431,0.611613,0.613785,0.61455,0.6212,0.622621,0.623208,0.636009,0.638211,0.640567,0.6409,0.646972,0.652557,0.65375,0.663984,0.665988,0.667207,0.67156,0.68201,0.684245,0.00402552,0.710977,0.698206,0.00408192,1.61013,1.61407,0.732361,1.62425,1.6243,0.74825,1.63042,0.770448,0.771442,0.773742,1.26849,0.787446,1.65093,1.65657,1.92249,1.03314,1.92152,0.00407758,1.92113,0.00442292,0.871984,0.00404776,1.65769,0.00429725,0.00462931,0.00368763,1.6619,1.16842,1.17173,1.05011,1.254,1.40362,1.67409,1.67811,1.67656,1.01879,1.03137,1.02944,1.0519,1.03788,1.04049,1.04276,1.25085,1.25687,0.00460355,0.00390652,1.24129,0.00429301,0.00459543,0.00415269,0.966639,1.59647,0.972996,0.974044,1.35471,0.00408324,0.963294,0.00402422,0.964197,0.965041,0.930949,0.934603,0.936689,0.93783,0.940078,0.909179,0.912014,0.91407,0.90883,0.91116,0.913117,0.919534,0.920286,0.923992,0.928386,0.931608,0.932252,0.931534,0.922504,0.928824,0.927144,0.926874,0.927105,0.92605,0.925182,0.925563,0.928176,0.909204,0.911736,0.915202,0.915782,0.918034,0.918705,0.921452,0.921959,0.928619,0.928563,0.929838,0.935516,0.936316,0.940449,0.945902,0.947525,0.949276,0.949966,0.950104,0.949755,0.951113,0.951259,0.952914,0.956325,0.959036,0.963024,0.9653,0.96715,0.969323,0.97017,0.973414,0.975793,0.978336,0.982045,0.984571,0.986458,0.987421,0.98874,0.991196,0.995225,0.99627,0.998398,1.00104,1.00888,1.01248,1.0136,1.01848,1.0208,1.02226,1.02562,1.02804,1.02932,1.03336,1.03653,1.03564,1.03578,1.03678,1.03999,1.49299,1.0467,1.22716,1.16774,0.004175,1.49063,1.5675,1.18999,1.10818,1.11205,1.11593,1.12324,1.12765,1.13626,1.13641,1.14137,0.0046675,1.2415,1.16449,1.16797,1.17126,1.18456,1.18906,1.19293,1.19506,1.1991,1.19889,1.19759,1.19722,1.19522,1.19868,1.19972,1.20419,1.17951,1.18335,1.18476,1.18428,1.18663,1.18196,1.18667,1.18774,1.1889,1.191,1.19618,1.19893,1.20144,1.19057,1.19315,1.18017,1.18071,1.18085,1.16988,1.17433,1.17701,1.1782,1.18102,1.18449,1.18191,1.18579,1.18727,1.18428,1.18829,1.19202
0.42296,0.4227,0.42467,0.428499,0.430186,0.421479,0.445538,0.435431,0.437103,0.436828,0.438312,0.443424,0.445517,0.453883,0.4579,0.46239,0.460202,0.479276,0.480346,0.482217,0.483282,0.485132,0.483777,0.488283,0.488379,0.490639,0.491769,0.491484,0.495955,0.508773,0.511353,0.511602,0.512632,0.518414,1.30388,0.870969,0.00421372,0.555972,0.555427,0.561494,1.32973,0.570343,0.585345,0.586357,0.58764,0.589524,0.589849,0.592485,0.593642,0.593183,0.607639,0.607635,0.602439,0.603464,0.603576,0.60448,0.604751,0.614186,0.612458,0.621578,0.914322,0.639096,0.638232,0.595153,0.600877,0.603636,0.604407,0.607324,0.60805,0.612552,0.614115,0.614452,0.623276,0.626418,0.628229,0.633919,0.639003,0.643446,0.647344,0.651921,0.656756,0.659972,0.662017,0.66717,0.668747,0.673704,0.683527,0.684683,0.687646,0.693912,0.695278,0.700151,0.701357,0.710302,1.60637,1.61975,1.62997,1.6439,1.64412,1.63974,1.61718,1.65049,0.779958,0.781192,0.782777,0.784023,0.793263,1.66561,1.66614,0.00441008,0.82668,0.926677,0.934132,0.00455583,0.00459625,0.00384452,0.00404099,1.09143,1.0111,1.01138,1.01222,0.999097,0.00453283,0.998699,0.00430706,0.0039209,1.51024,1.17779,1.68516,1.68399,0.00449487,1.04242,1.04134,1.66513,1.08332,1.13733,1.06217,0.00452636,0.00430233,1.31018,1.06484,1.31574,1.09526,1.22227,1.24933,1.51052,1.36114,1.09752,0.984709,0.986087,0.00439266,1.50753,1.00518,1.42429,1.42409,0.0035198,0.00475353,0.961055,0.00453453,0.00428035,0.949968,1.41086,1.41288,0.931647,0.930075,0.929093,0.930636,0.926905,0.940176,0.943331,0.948414,0.94921,0.930964,0.933317,0.934968,0.935004,0.93772,0.938391,0.937209,0.930964,0.931992,0.915546,0.918676,0.919523,0.923652,0.925827,0.929532,0.931579,0.932151,0.935328,0.937631,0.941316,0.941225,0.942536,0.944019,0.947828,0.951593,0.95777,0.95813,0.960449,0.953701,0.955767,0.958984,0.960168,0.963562,0.964457,0.967618,0.969976,0.971336,0.973232,0.978346,0.979494,0.983857,0.985434,0.988145,0.990694,0.99315,0.992881,0.997656,0.998395,1.00184,1.00395,1.00629,1.01039,1.01738,1.01754,1.01988,1.02244,1.02589,1.02744,1.03601,1.03574,1.03778,1.04083,1.04343,1.04376,1.0446,1.04596,1.04889,1.05039,1.07061,1.53688,1.19834,1.08908,1.20846,1.18125,1.19196,1.24093,0.00417174,1.1305,1.1324,1.13398,1.30164,1.15095,1.15754,1.16339,1.16451,1.17009,1.18164,1.18272,1.19134,1.1958,1.19858,1.1956,1.19325,1.19803,1.19713,1.19807,1.19717,1.19673,1.1969,1.18209,1.18341,1.18727,1.18475,1.18917,1.19366,1.19447,1.19414,1.19377,1.1956,1.20159,1.20159,1.20068,1.18661,1.18932,1.19305,1.19488,1.19313,1.18193,1.18437,1.18473,1.18574,1.18234,1.18506,1.18528,1.19056,1.18946,1.18954,1.19267
0.418857,0.419376,0.409258,0.429237,0.429742,0.943446,0.448333,0.450556,0.450132,0.451621,0.445275,0.447873,0.448256,0.448703,0.453003,0.458353,0.46062,0.00399768,0.484479,0.484267,0.487243,0.491249,0.491505,0.493886,0.491308,0.494488,0.493199,0.493398,0.494861,0.508815,0.514023,0.509096,0.509369,0.518374,0.524307,0.0044683,0.537744,0.00406972,1.31695,1.32667,0.567032,0.570032,0.572732,0.578927,0.580644,0.582048,0.587333,0.59005,0.591517,0.59159,0.598608,0.601387,0.603916,0.604922,0.606365,0.614986,0.616199,0.619032,0.619507,0.620898,0.628426,0.633328,0.63528,0.63623,0.638383,0.63832,0.638128,0.632444,0.632781,0.6182,0.620234,0.624269,0.628363,0.630495,0.630006,0.64143,0.642218,0.645436,0.649533,0.660085,0.662359,0.665988,0.666242,0.669412,0.670286,0.675912,0.678139,0.682735,0.687708,0.688115,0.695561,0.699617,0.704161,0.704864,0.711014,1.60439,1.60564,0.743479,0.745623,1.61368,0.754686,1.6182,0.775814,0.777289,0.777615,0.784565,0.794338,0.797307,0.799022,0.00352287,0.0041891,1.66383,1.6635,0.00415838,1.01245,1.66184,1.0139,0.00430858,0.96357,1.38973,1.34041,0.00396309,1.02903,1.68466,1.68507,0.00399343,1.21044,1.18841,1.23449,1.16083,1.08469,0.0041987,1.0532,1.053,1.05088,1.05326,1.05424,1.05704,1.05717,1.05848,1.11583,0.00438374,1.33165,1.26561,1.276,1.44746,1.00433,0.999666,1.08578,0.00399682,1.00826,0.997748,1.10523,1.0039,1.09144,0.0044366,1.01168,0.0037503,1.04308,0.00400293,0.960045,0.955342,0.953524,0.00398696,0.947743,0.924634,0.926081,0.944417,0.94657,0.949386,0.952966,0.953803,0.953673,0.940235,0.93786,0.939082,0.943095,0.94544,0.946644,0.945371,0.945626,0.939398,0.939543,0.943497,0.94286,0.938406,0.933033,0.93448,0.936205,0.9391,0.938985,0.942125,0.944657,0.945429,0.949738,0.952316,0.954002,0.956845,0.96296,0.966501,0.966031,0.963835,0.963117,0.965198,0.967185,0.967028,0.969292,0.971503,0.975263,0.978232,0.980456,0.982408,0.987367,0.988578,0.991384,0.993538,0.994868,0.997888,0.999374,1.00212,1.00284,1.00374,1.0081,1.01036,1.01339,1.0168,1.01956,1.02116,1.02526,1.03543,1.03449,1.03629,1.04281,1.04272,1.04293,1.04118,1.04137,1.04699,1.04778,1.04896,1.05093,1.07417,1.62607,1.63791,1.49458,1.08842,2.03814,1.11237,0.00454225,1.12635,1.12618,1.13109,1.1368,1.54587,1.15205,1.15539,1.16066,1.17026,1.17579,1.181,1.1833,1.18819,1.19516,1.19631,1.19892,1.20157,1.1975,1.19326,1.19299,1.19402,1.19504,1.19655,1.20066,1.19793,1.19557,1.19701,1.1967,1.19639,1.19848,1.19584,1.19813,1.20378,1.20168,1.20176,1.20105,1.20302,1.2018,1.2043,1.19779,1.19725,1.1988,1.19252,1.19338,1.19648,1.18982,1.19144,1.19115,1.19251,1.1928,1.1951
0.419641,0.420444,0.421253,0.422659,0.425826,0.425861,0.0042865,0.44804,0.443345,0.442589,0.44315,0.44349,0.447109,0.462032,0.446111,0.465697,0.00389924,0.469945,0.00440973,0.489473,0.491695,0.490756,0.491483,0.492775,0.493298,0.49865,0.501523,0.502155,0.503773,0.50757,0.508111,0.509304,0.520361,0.521894,0.534531,0.535469,0.536029,0.536582,0.545998,0.553303,0.55802,0.567629,0.573148,0.576614,0.577644,0.579599,0.584278,0.584928,0.5865,0.595458,0.599318,0.599591,0.603217,0.606233,0.608596,0.612901,0.620637,0.618463,0.624708,0.627232,0.628397,0.63057,0.633748,0.637111,0.63703,0.638157,0.638639,0.641517,0.641492,0.643052,0.00412984,0.626634,0.630843,0.632998,0.635634,0.636714,0.640636,0.646201,0.651865,0.651863,0.664061,0.666146,0.667778,0.670955,0.672662,0.674412,0.676944,0.68291,0.685226,0.686384,0.686813,0.698585,0.703277,0.705245,0.712112,0.716224,0.718553,0.719231,1.61576,0.74097,0.742087,0.760154,0.769968,0.77222,0.77429,0.776355,0.779061,0.780664,0.781235,0.801267,0.804579,0.810477,0.820355,0.821721,1.67258,0.00397882,1.67276,1.67536,0.00417697,1.39613,0.00368572,1.02948,0.00398405,1.04987,1.04593,1.04101,0.00381867,1.38844,0.00398336,1.06651,1.02059,0.00370255,0.0044822,1.09171,1.09263,1.07081,1.05349,1.05322,1.05618,1.05642,1.0743,1.05943,1.07764,1.05378,0.00402957,1.11917,0.00406357,1.02224,0.0040914,1.01895,1.02166,1.02003,0.00400115,1.34276,1.01576,1.01617,0.00429526,1.01224,0.00405631,1.11023,1.11182,0.954726,0.95626,0.957406,0.956637,0.957774,0.946345,0.948597,0.950436,0.949423,0.95325,0.958826,0.959479,0.95442,0.953971,0.953558,0.955761,0.949222,0.952041,0.955564,0.956437,0.954441,0.949782,0.944687,0.944153,0.94558,0.946814,0.950061,0.953146,0.954615,0.953301,0.946396,0.947529,0.949551,0.952059,0.950978,0.954629,0.956595,0.96372,0.968228,0.973321,0.975433,0.976557,0.973578,0.973331,0.973048,0.974201,0.975892,0.977074,0.980995,0.984656,0.985524,0.990553,0.993507,0.995698,0.997032,0.997433,0.998829,0.99983,1.00233,1.00435,1.00527,1.00688,1.00831,1.01091,1.01627,1.01815,1.02295,1.02431,1.03238,1.03364,1.03836,1.0368,1.04311,1.04478,1.04099,1.04224,1.04517,1.04708,1.04769,1.04827,1.05156,1.05439,1.05825,1.06863,1.08149,1.09245,1.11619,2.02835,1.12568,1.2174,0.00363868,1.12598,1.13137,1.14225,1.14983,1.15378,1.15617,1.16827,1.17248,1.17909,1.18182,1.18433,1.19462,1.19609,1.19992,1.19785,1.19498,1.19749,1.19559,1.19895,1.19995,1.20145,1.2053,1.20489,1.20283,1.20081,1.19949,1.19986,1.20251,1.20615,1.20591,1.20873,1.20766,1.20513,1.20485,1.19912,1.20011,1.20247,1.20411,1.2042,1.20399,1.20454,1.18807,1.19315,1.19366,1.1922,1.19273,1.19238,1.19565
0.411632,0.418056,0.418326,0.410915,0.406547,0.416877,0.4207,0.43826,0.439887,0.441022,0.441732,0.439276,0.45341,0.462349,0.465393,0.465455,0.471211,0.470656,0.628035,0.485142,0.489049,0.491343,0.491427,0.50367,0.506844,0.507664,0.508928,0.508637,0.509829,0.509895,0.00402595,0.515142,0.529151,0.529293,0.533403,0.535262,0.535825,0.536571,0.546447,0.547222,0.558448,0.557577,0.565869,0.00386022,0.577384,0.580639,0.58165,0.584871,0.588906,0.590971,0.592054,0.601181,0.601844,0.603722,0.611402,0.613078,0.618058,0.621804,0.623045,0.625713,0.627999,0.629394,0.630656,0.631413,0.634698,0.636791,0.638255,0.639867,0.641084,0.650128,0.650914,0.652017,0.6524,0.652004,0.645951,0.645069,0.64907,0.649864,0.650231,0.650238,0.656114,0.656596,0.773895,0.669966,0.674573,0.67518,0.681557,0.683741,0.682287,0.684078,0.684899,0.699226,0.702055,0.708352,0.710613,0.713174,0.713107,0.714988,0.732062,0.732339,0.742966,0.747096,0.751748,0.771111,0.773383,0.776039,0.780279,0.778504,0.786007,0.788763,1.66829,1.66904,0.810383,1.67101,1.00904,1.26481,1.42778,0.00404341,0.870154,0.00415696,1.02959,0.00417726,1.69159,0.00453105,1.04464,1.1052,1.04963,1.04752,1.047,0.0041972,1.08054,0.00376847,1.0584,1.01948,1.7506,1.7513,1.17828,1.05082,1.05128,1.05444,1.05798,1.06054,1.06338,1.06344,1.06761,0.00425692,1.4986,1.1897,1.03946,1.55873,0.00349547,0.00405012,1.02666,1.02584,1.01717,1.01878,1.01974,1.02266,0.00402833,0.00404472,1.07218,0.00407705,0.971362,0.958664,0.958656,0.961707,0.962929,0.972355,0.95084,0.95668,0.957817,0.95811,0.962564,0.964698,0.950159,0.95299,0.95687,0.96046,0.960928,0.958467,0.959948,0.9595,0.955277,0.955944,0.943805,0.94689,0.950837,0.952892,0.954659,0.95851,0.96028,0.96176,0.953678,0.95233,0.949549,0.950901,0.95268,0.954406,0.958636,0.962036,0.964803,0.971051,0.975033,0.975972,0.974548,0.976617,0.978633,0.980902,0.983787,0.982701,0.986913,0.988754,0.990924,0.993799,0.99783,0.999013,1.001,1.00196,1.00355,1.00422,1.00611,1.00836,1.01026,1.01222,1.01335,1.01812,1.0165,1.01758,1.01937,1.01991,1.0293,1.03267,1.03571,1.03768,1.04065,1.0436,1.04593,1.04698,1.04745,1.04962,1.05129,1.05251,1.05471,1.05449,1.05727,1.06373,1.07868,0.00426964,1.09155,1.09104,1.11926,1.11477,1.22065,0.00421764,1.13966,1.14318,1.15081,1.15582,1.15853,1.16755,1.17094,1.17375,1.17866,1.18199,1.18444,1.58386,1.58775,1.20878,1.20826,1.20537,1.20633,1.20023,1.19929,1.20109,1.20186,1.19832,1.20204,1.19517,1.20074,1.20113,1.20346,1.20813,1.20953,1.20285,1.20387,1.20089,1.20241,1.20545,1.20037,1.20061,1.20283,1.20759,1.20914,1.20863,1.20434,1.2032,1.18929,1.1913,1.19163,1.19255
0.410179,0.410584,0.410068,0.409611,0.405614,0.405992,0.406572,0.41707,0.4187,0.42414,0.427449,0.431635,0.00416683,0.850727,1.05539,0.467206,0.602788,0.601251,0.00408432,0.486585,0.488208,0.488759,0.496564,0.503617,0.505025,0.505761,0.510491,0.510343,0.509425,0.514954,0.516326,0.522806,0.522974,0.531024,0.00364666,0.538659,0.551037,0.55317,0.555421,0.556298,0.557365,0.559275,0.559541,0.560438,1.33711,1.33659,0.57887,0.581382,0.586469,0.589883,0.590647,0.593183,0.599674,0.60145,0.612209,0.613867,0.614384,0.61939,0.621246,0.625503,0.628494,0.630443,0.631537,0.632283,0.634244,0.635717,0.63913,0.641067,0.647662,0.647358,0.650318,0.651084,0.653392,0.652816,0.653067,0.650576,0.650731,0.65231,0.654828,0.655082,0.656044,0.664066,0.669701,0.678804,0.681169,0.681317,0.682947,0.688042,0.6903,0.69676,0.696868,0.701166,0.705373,0.707353,0.709911,0.71054,0.710807,0.722931,0.725903,0.733744,0.734926,0.735347,0.750757,0.75337,0.756004,0.762988,0.00348018,0.785424,0.788118,0.790639,0.797017,0.800903,0.802932,0.805491,0.00376278,1.95285,0.00401543,1.15832,1.43887,1.44839,0.00431404,1.03484,0.00421298,0.904268,0.00410162,1.33245,1.38541,1.11263,1.06016,1.10238,0.00411131,0.00444587,0.00414566,1.05659,0.00414899,1.31266,0.00399278,1.22901,1.12704,1.7928,1.06128,1.06281,1.06081,1.06501,1.06797,1.06875,1.07047,1.19883,1.17186,1.31962,1.32205,1.70829,1.03853,1.02994,1.35841,1.03255,1.02504,1.52123,0.00398485,1.12187,0.00369885,1.05346,0.00447614,0.97983,0.964056,0.964653,0.965166,0.967542,0.968894,0.970022,0.95869,0.961716,0.96123,0.964177,0.970171,0.971581,0.963309,0.964198,0.964869,0.96632,0.955543,0.954199,0.959047,0.958422,0.949519,0.953894,0.954865,0.955863,0.955519,0.954973,0.95526,0.959343,0.960684,0.959797,0.954986,0.959813,0.960264,0.956138,0.958336,0.958136,0.963046,0.966268,0.971949,0.975921,0.976022,0.976808,0.978223,0.981281,0.983642,0.982697,0.988006,0.988289,0.989396,0.990992,0.994629,0.998283,0.999319,1.00483,1.00916,1.00305,1.00839,1.00803,1.01117,1.01052,1.0155,1.01866,1.01812,1.01956,1.02031,1.0225,1.02395,1.02994,1.03137,1.03214,1.03869,1.03924,1.04522,1.04962,1.04994,1.05437,1.05335,1.0513,1.05286,1.05771,1.05869,1.06073,1.06409,1.06989,1.09454,1.08032,1.08194,1.09156,1.25024,0.00360798,1.22228,1.14143,1.14775,1.15196,1.15671,1.16182,1.16956,1.17685,1.17484,1.17607,1.18289,1.18434,1.20207,1.20587,1.20842,1.21252,1.21509,1.21806,1.20308,1.20365,1.2016,1.20246,1.20201,1.20511,1.20442,1.19977,1.20189,1.202,1.20511,1.20564,1.19865,1.19878,1.20031,1.20361,1.20469,1.19978,1.20316,1.19866,1.2029,1.20648,1.20568,1.20703,1.20247,1.20013,1.19321,1.19319
0.407419,0.406845,0.406546,0.40645,0.404753,0.404531,0.410535,0.414858,0.420934,0.421064,0.424957,0.42952,0.432254,0.436364,0.981024,0.445024,0.644903,0.00416428,0.500932,0.00403382,0.50632,0.507704,0.508861,0.500839,0.502878,0.503945,0.505822,0.517716,0.515605,0.52108,0.525159,0.526091,0.531481,0.534384,0.534937,0.537414,0.539698,0.552982,0.554535,0.555549,0.556949,0.557458,0.5576,0.562145,0.564895,0.567765,0.573538,0.57982,0.581741,0.583576,0.589668,0.593699,0.593897,0.600626,0.608558,0.61058,0.616304,0.61639,0.618578,0.624374,0.626528,0.631647,0.63338,0.634704,0.634719,0.636392,0.638119,0.639647,0.642234,0.64331,0.645553,0.649454,0.652687,0.654743,0.655989,0.649492,0.649868,0.649193,0.661811,0.662912,0.664807,0.66646,0.665554,0.665181,1.09561,0.697175,0.7005,1.59255,1.58718,0.696088,0.698172,0.699654,0.705274,0.708667,0.718672,0.720985,0.721735,0.72307,0.730548,0.733151,0.734198,0.734779,0.745285,0.746687,0.748422,0.751397,0.753817,0.756075,0.760499,0.762681,0.764686,0.00396958,0.00441353,0.807048,1.08867,0.00374673,1.07907,0.00400254,1.97665,0.00359171,0.00379998,0.00403688,1.35469,1.35099,0.00396539,0.00396487,1.05513,1.05504,0.00402144,1.27148,1.34621,1.06754,1.02853,1.07504,1.07294,0.00372662,1.76469,0.00419823,0.0041761,0.00434528,1.7904,1.79742,1.06013,0.00444818,1.22011,1.06846,1.06889,1.07192,1.07333,1.07128,1.07613,0.00438327,1.32674,0.00424062,1.66581,1.67682,1.03367,1.03383,1.03766,1.02909,1.03682,0.00398465,1.00579,0.00404848,0.96316,0.965107,0.964231,0.965675,0.97068,0.97306,0.972496,0.972722,0.97206,0.97152,0.970253,0.975107,0.975827,0.978953,0.967591,0.966393,0.963756,0.96708,0.963849,0.96076,0.956044,0.955101,0.956452,0.955323,0.956784,0.958129,0.959691,0.965496,0.967149,0.966866,0.967197,0.969643,0.964204,0.96336,0.960861,0.96076,0.964405,0.966337,0.969161,0.971412,0.975589,0.977618,0.982839,0.984702,0.985721,0.987554,0.988158,0.992863,0.993161,0.993468,0.99484,0.996672,1.00052,1.00151,1.00771,1.01288,1.01717,1.01829,1.00836,1.0122,1.01242,1.01257,1.0181,1.02,1.02202,1.02621,1.02515,1.02756,1.0319,1.03447,1.03776,1.04233,1.04535,1.04777,1.05255,1.05445,1.05679,1.05814,1.06123,1.06104,1.05922,1.062,1.06582,1.06945,1.0714,1.07635,1.08063,0.004132,2.01208,1.17422,1.25366,1.1452,1.149,1.14978,1.15394,1.16059,1.16344,1.16857,1.17209,1.17981,1.18118,1.58709,1.59039,1.20626,1.21464,1.21223,1.2123,1.21637,1.21575,1.20842,1.20845,1.19911,1.20456,1.20632,1.20776,1.21023,1.20133,1.19705,1.19958,1.2013,1.19873,1.20129,1.20132,1.20104,1.20039,1.20351,1.20505,1.19911,1.19939,1.20136,1.20193,1.20486,1.20509,1.20804,1.2076,1.20672
0.429884,0.429479,0.428574,0.427304,0.404988,0.406951,0.412158,0.414751,0.414414,0.421648,0.422597,1.76646,0.00389289,0.438677,0.00442481,0.450129,0.451027,0.453635,0.456041,0.455998,0.503588,0.506187,0.509969,0.514167,0.514867,0.51777,0.516576,0.518792,0.527512,0.531253,0.524042,0.537611,0.533276,0.534257,0.538166,0.539619,0.541374,0.541492,0.542017,0.553686,0.555168,0.556658,0.561555,0.569734,0.570695,0.571506,0.571455,0.577528,0.580973,0.582796,0.585227,0.587252,0.588238,0.598119,0.598058,0.603162,0.603531,0.605819,0.616115,0.617773,0.627728,0.627612,0.631072,0.632681,0.63351,0.633234,0.634591,0.635931,0.63721,0.641472,0.642663,0.644684,0.646713,0.64753,0.643214,0.646068,0.646189,0.648384,0.648993,0.662577,0.664986,0.665454,0.668171,0.678403,0.680814,0.698657,0.704328,0.711413,0.714451,0.71753,0.721707,0.722589,0.00420813,0.730538,0.734855,0.73563,0.736713,0.735297,0.729515,0.730758,0.733761,0.735763,0.736511,0.744121,0.748165,0.748804,0.752208,0.754459,0.759209,0.761201,0.763095,0.770369,0.7716,0.779343,0.00420784,0.811533,0.00400819,1.68009,1.69236,1.69377,1.42332,0.866912,0.8773,0.877762,0.00438582,0.886059,1.3519,1.73801,1.41362,1.09457,0.00409661,1.04523,1.06099,1.0627,1.76376,1.76896,0.00408183,1.77936,0.00377759,0.00412536,0.00432096,1.79951,1.79963,1.8105,0.00410289,1.07348,1.07396,1.07515,1.06802,1.07099,1.07425,1.0775,0.00432942,1.15724,1.6106,1.61002,1.60473,1.61006,1.60941,1.04754,0.0042473,1.12827,0.00433221,1.03004,1.44127,1.08476,0.00358623,0.977348,0.980126,0.97987,0.979335,0.982985,0.980782,0.980367,0.977094,0.977046,0.976511,0.979583,0.981156,0.982636,0.972055,0.971271,0.970429,0.957676,0.957106,0.959227,0.954177,0.95493,0.9576,0.963084,0.964231,0.966464,0.969881,0.968334,0.966762,0.969838,0.969738,0.971734,0.967223,0.969496,0.971228,0.970909,0.973779,0.972354,0.97647,0.976927,0.978377,0.980784,0.984175,0.987145,0.987364,0.991317,0.993106,0.997161,0.99932,1.0046,1.00279,1.00312,1.00615,1.01281,1.01401,1.01873,1.01817,1.01889,1.01934,1.01861,1.02022,1.0227,1.02977,1.03049,1.03183,1.03359,1.0361,1.03747,1.03965,1.04326,1.04583,1.05061,1.05478,1.05573,1.05833,1.06218,1.06232,1.06199,1.06563,1.06955,1.07165,1.07565,1.07973,1.08248,1.0838,1.18066,0.00398694,1.28256,0.00423885,0.00368633,1.13414,1.26466,1.15489,1.27817,1.27801,1.17014,1.27542,1.1784,1.18418,1.18809,1.59335,1.20459,1.21496,1.2148,1.21578,1.21126,1.19954,1.20123,1.19941,1.20186,1.20242,1.20285,1.20652,1.20159,1.20511,1.2049,1.2033,1.19971,1.20159,1.20509,1.20209,1.20126,1.2011,1.19891,1.20147,1.20243,1.20361,1.20395,1.204,1.20402,1.20539,1.20684,1.20705,1.20616
0.426525,0.427411,0.427425,0.427465,0.427349,0.427544,0.425824,0.425389,0.417606,0.416936,0.42484,0.428536,0.434837,0.00421617,0.860403,0.447832,0.449046,0.453148,0.454871,0.455026,0.462514,0.465723,0.468715,0.00422924,0.00380554,0.00360198,0.0043339,0.530109,0.532122,0.531674,0.538241,0.54266,0.542709,0.544741,0.546278,0.545549,0.540462,0.540628,0.540697,0.54187,0.541924,0.560572,0.564215,0.565506,0.568995,0.572944,0.576467,0.582383,0.582782,0.582549,0.586679,0.589405,0.591245,0.597079,0.599777,0.599245,0.598507,0.603398,0.601008,0.610222,0.611593,0.621725,0.623349,0.624442,0.625785,0.625645,0.630458,0.629039,0.628531,0.635431,0.635862,0.643101,0.646148,0.648357,0.649588,0.647125,0.646239,0.65095,0.654067,0.653758,0.660616,0.666919,0.671337,0.67153,0.680128,0.00336937,0.705665,0.711729,0.715402,0.720121,0.722192,0.725673,0.727819,0.729542,0.735331,0.735005,0.735051,0.734949,0.741347,0.743258,0.743144,0.737976,0.73872,0.742975,0.746774,0.748711,0.7506,0.752165,0.756262,0.762686,0.764749,0.765592,0.773317,0.775414,0.783744,0.0039646,0.812646,0.00393699,0.825675,0.00405339,0.845828,0.00432313,0.8477,0.00352719,1.26733,0.00421154,0.885401,0.00409328,1.07387,0.00390955,0.998481,0.00418076,1.08739,0.00419442,1.07104,0.00376923,1.06862,0.00381256,0.00387208,0.0038737,1.08816,0.00362877,1.46404,0.00376367,1.05973,1.82557,1.48197,0.00412143,1.07748,0.00409611,1.0764,1.07385,1.0768,1.07847,1.07863,0.00434323,1.56601,1.56055,1.70741,1.15364,1.04688,0.00430435,1.05845,0.00396167,1.06363,1.02548,1.45408,0.00397266,1.05104,0.994375,0.985336,0.98188,0.979632,0.978253,0.980183,0.971888,0.977318,0.977244,0.980152,0.981174,0.981453,0.982007,0.975185,0.975994,0.970203,0.964907,0.967897,0.967085,0.972899,0.970482,0.972782,0.973073,0.974501,0.976075,0.972421,0.973347,0.972904,0.971317,0.971774,0.974231,0.971443,0.974554,0.974415,0.977447,0.977293,0.977757,0.978698,0.980045,0.981098,0.985244,0.990293,0.992158,0.994807,0.998135,1.00257,1.00514,1.00691,1.01224,1.01533,1.01831,1.01892,1.0212,1.02185,1.0225,1.02334,1.02537,1.02747,1.02884,1.02736,1.0317,1.0334,1.03659,1.0369,1.04058,1.04274,1.04159,1.04687,1.05086,1.05535,1.05966,1.0579,1.06232,1.06686,1.06964,1.07461,1.0757,1.07769,1.08043,1.07876,1.083,1.08388,1.08868,1.09103,1.10522,1.60475,0.0039071,1.16394,1.6582,1.60872,1.6101,1.24267,0.00386213,1.1692,1.17429,1.54729,0.00408592,1.58856,0.00396148,1.19758,1.20312,1.21187,1.20409,1.20462,1.19026,1.19269,1.19773,1.20305,1.20552,1.20777,1.20194,1.20249,1.2058,1.205,1.20849,1.20539,1.20493,1.20084,1.20185,1.20508,1.20081,1.19993,1.2037,1.20014,1.20322,1.20521,1.20633,1.2086,1.20601,1.20885,1.21017
0.396996,0.422599,0.425025,0.42593,0.427232,0.426833,0.425395,0.426599,0.427168,0.427121,0.429662,0.431609,0.436828,0.439719,0.441578,0.451379,0.451544,0.457453,0.457667,0.461857,0.462639,0.463413,0.473091,0.475584,0.476933,0.482951,0.003796,0.0103691,0.00450076,0.540949,0.541928,0.543971,0.545684,0.545242,0.548203,0.548092,0.552269,0.552592,0.547282,0.547299,0.555599,0.558792,0.567492,0.57037,0.572324,0.573265,0.583394,0.584489,0.586069,0.586678,0.586458,0.589976,0.591461,0.594007,0.59624,0.597946,0.598175,0.599134,0.601898,0.602011,0.605403,0.607757,0.615698,0.614387,0.618077,0.623846,0.625444,0.627304,0.628432,0.628975,0.635957,0.639734,0.645876,0.648511,0.647982,0.648425,0.648979,0.652873,0.654424,0.655141,0.664574,0.666893,0.672738,0.673824,0.682733,0.684812,0.708576,0.711731,0.713423,0.719212,0.721252,0.724061,0.727081,0.728101,0.732177,0.734404,0.73635,0.735947,0.741712,0.742376,0.741958,0.741297,0.742133,0.745388,0.746353,0.747757,0.752432,0.754768,0.75803,0.7624,0.76705,0.768418,0.769532,0.770795,0.793281,0.790225,1.25503,0.00419512,0.0044284,0.828931,0.832024,0.842865,0.844359,0.844656,0.84859,0.849082,0.00412862,1.29174,0.00382671,0.00355179,1.22286,0.00434769,0.00415511,1.77244,0.003884,0.997271,1.78546,1.08908,0.00402962,1.05681,1.46165,1.22354,0.00402625,1.06839,0.00393501,1.17135,0.00452169,1.20001,0.00401326,1.84905,0.00395945,1.07262,1.07648,1.07618,1.07966,1.08204,1.08351,1.08506,1.08395,0.0041977,0.00380579,1.18399,0.00359374,1.07433,0.00380075,1.08583,0.00424472,1.0863,0.0043027,1.37986,1.00477,1.44054,0.99773,0.988236,0.981836,0.981475,0.985122,0.977957,0.978441,0.981472,0.980592,0.981464,0.979698,0.976461,0.971469,0.974648,0.974361,0.97335,0.974719,0.980251,0.981422,0.981335,0.985318,0.98379,0.98318,0.97679,0.973133,0.973614,0.972971,0.970008,0.971206,0.972652,0.973816,0.976055,0.977427,0.978495,0.980275,0.983335,0.986238,0.988984,0.99241,0.995309,0.999609,1.00209,1.00336,1.0075,1.01039,1.01282,1.02233,1.02324,1.02418,1.02432,1.02585,1.02561,1.02677,1.03196,1.03111,1.03572,1.03529,1.03711,1.03638,1.03834,1.04004,1.04392,1.0439,1.04621,1.0501,1.05453,1.05465,1.06329,1.06327,1.06783,1.07053,1.07392,1.0775,1.07911,1.0789,1.08251,1.08051,1.08274,1.08458,1.08678,1.08816,1.09334,1.09793,1.24144,1.11474,1.60953,1.61352,0.00353247,0.00369203,1.14341,1.14682,1.1877,0.00414469,0.00360183,1.19579,1.18641,1.19157,1.1918,1.19495,1.1962,1.19936,1.20198,1.20303,1.20339,1.20416,1.20339,1.20877,1.20641,1.20813,1.20952,1.20687,1.20291,1.20609,1.20387,1.20554,1.20826,1.20611,1.20846,1.20193,1.20297,1.20231,1.20451,1.20638,1.20905,1.20881,1.21157,1.21289,1.2129
0.399926,0.400659,0.398855,0.414475,0.417753,0.417286,0.424265,0.42477,0.428754,0.429856,0.432273,0.434154,0.441556,0.446949,0.448509,0.451387,0.454941,0.455099,0.456026,0.462083,0.46276,0.47493,0.476844,0.478653,0.478213,0.482472,0.481918,0.493806,0.496809,0.498165,0.499176,0.00359208,0.547541,0.547124,0.550501,0.552379,0.553568,0.554196,0.555044,0.562289,0.562079,0.561704,0.563348,0.56693,0.574251,0.576614,0.585133,0.58725,0.587047,0.589631,0.589575,0.5902,0.59247,0.59517,0.5968,0.597228,0.598564,0.599963,0.603108,0.603685,0.605607,0.605515,0.613435,0.6151,0.616365,0.623494,0.624549,0.62648,0.628615,0.632467,0.634905,0.643338,0.64573,0.645832,0.646507,0.649446,0.649466,0.652218,0.658384,0.662938,0.665416,0.666908,0.665137,0.674171,0.679498,0.679805,0.688392,0.00401082,0.712036,0.719953,0.72161,0.727636,0.732384,0.735213,0.732168,0.735956,0.72905,0.729491,0.73132,0.732068,0.738847,0.74035,0.740782,0.748404,0.753102,0.751691,0.753765,0.75837,0.76085,0.764639,0.765718,0.772165,0.774352,0.780085,0.78508,0.78741,0.7885,0.00417897,0.827664,0.830423,0.832401,0.833803,0.838578,0.839365,0.843555,0.848544,0.849148,0.849843,0.00375894,0.00400094,1.21674,0.00400053,1.21957,0.00424699,0.00396038,0.00376126,1.45748,1.46288,1.09876,1.10506,0.00373694,1.47151,1.47803,0.00408229,1.11202,1.10671,1.11698,0.00423332,1.50334,1.50299,0.00400903,0.00392695,1.10848,0.00442614,1.08398,1.10129,1.08413,1.08737,1.0888,1.08766,1.08998,1.09278,1.11624,0.00378026,1.09517,0.00408951,1.46583,0.00423271,1.61583,0.00433464,1.029,1.11259,1.02763,0.00370665,1.46961,1.27212,0.998485,0.985311,0.988512,0.981087,0.980442,0.984299,0.97818,0.976768,0.980287,0.980002,0.971364,0.975491,0.977201,0.982406,0.984485,0.987446,0.988279,0.991602,0.989723,0.988793,0.986739,0.973398,0.973032,0.97482,0.977559,0.976705,0.977467,0.978642,0.980274,0.983093,0.986397,0.987058,0.989815,0.991995,0.993281,0.997257,1.0005,1.0026,1.00619,1.00917,1.0127,1.01496,1.02135,1.02236,1.02734,1.02912,1.02781,1.03229,1.03381,1.03267,1.03733,1.04088,1.03919,1.03798,1.04022,1.04335,1.04333,1.04724,1.05018,1.05389,1.05426,1.05778,1.06131,1.06377,1.06649,1.06801,1.07187,1.07575,1.07925,1.07769,1.08189,1.08546,1.08508,1.08712,1.08724,1.08699,1.08794,1.08905,1.62121,1.62411,1.62134,0.00403332,2.00428,1.12923,1.13314,1.14001,1.14372,1.1462,1.15309,1.15416,1.16122,1.60925,1.62679,1.18563,1.2035,1.1948,1.19488,1.19663,1.20232,1.20504,1.2124,1.2146,1.21006,1.2117,1.2054,1.20454,1.20556,1.20854,1.21165,1.21288,1.20269,1.20483,1.20361,1.20554,1.20523,1.20415,1.20266,1.20242,1.20828,1.20965,1.212,1.21004,1.21301,1.20895
0.393471,0.391193,0.397762,0.398424,0.411134,0.413389,0.413569,0.425599,0.426164,0.426644,0.434328,0.434693,0.00343567,0.446496,0.449257,0.450823,0.453841,0.45589,0.462396,0.465687,0.468838,0.475582,0.474206,0.478363,0.47901,0.484324,0.483934,0.490896,0.49464,0.496424,0.503347,0.0173902,0.00421047,0.55192,0.553626,0.557736,0.561256,0.561865,0.562981,0.560772,0.562686,0.569819,0.563176,0.580381,0.573953,0.580136,0.585936,0.589438,0.59045,0.593754,0.596959,0.597567,0.597028,0.59442,0.593619,0.592362,0.59461,0.600219,0.603631,0.604525,0.605587,0.611036,0.612222,0.618871,0.621261,0.622212,0.623321,0.625132,0.629143,0.632972,0.63574,0.636389,0.640111,0.643843,0.644899,0.648389,0.649443,0.653501,0.659155,0.6609,0.664526,0.66899,0.673201,0.677291,0.680852,0.682692,0.684102,1.4982,1.54665,1.57509,1.49236,0.73489,0.736232,0.739071,0.745491,0.746395,0.748091,0.748768,0.729388,0.73263,0.737537,0.73634,0.738742,0.746462,0.750872,0.752401,0.755905,0.757697,0.756719,0.766123,0.769531,0.771314,0.777753,0.779596,0.787399,0.787949,0.790763,1.05995,0.83108,0.833824,0.836001,0.833798,0.835089,0.835402,0.83704,0.839178,0.839616,0.0044072,0.854232,0.861216,0.863199,1.2208,1.36052,1.78238,1.78312,0.912057,0.00390426,0.00394339,0.00365226,1.10904,0.00414259,1.83015,0.00378622,0.0038997,0.983986,1.15099,1.10926,1.50593,1.5211,1.51246,1.51454,1.53144,1.15001,1.16026,0.00383754,0.0037737,0.00374906,0.00404128,0.00373336,1.091,1.09199,1.09562,1.09676,1.099,0.00393969,1.15846,0.00425276,1.09048,0.00367697,1.05761,1.11252,1.12217,0.00403139,1.71299,0.00400671,0.00391068,0.00388442,1.1498,0.00422506,0.997765,1.00101,0.978126,0.980172,0.98211,0.983664,0.982049,0.986143,0.987676,0.983912,0.983147,0.984884,0.987311,0.988076,0.991141,0.992926,0.990822,0.990092,0.987084,0.988189,0.975396,0.977307,0.97842,0.978207,0.979343,0.982027,0.985674,0.988673,0.990208,0.989978,0.99365,0.995688,0.997806,1.00216,1.00591,1.00959,1.01523,1.01695,1.01748,1.01987,1.02263,1.0272,1.03039,1.0312,1.03309,1.03532,1.03528,1.03859,1.04057,1.04191,1.04011,1.04634,1.04349,1.04574,1.04599,1.05125,1.05585,1.05578,1.05971,1.06112,1.06597,1.06623,1.06855,1.07326,1.0739,1.0748,1.08291,1.08199,1.08493,1.08608,1.08738,1.08724,1.0857,1.08776,1.08997,1.09274,1.09468,1.63822,1.12025,0.00422852,1.12222,1.1265,1.12957,1.14002,1.14446,1.14243,1.15389,1.1572,1.15926,1.15838,1.16202,1.62955,1.62884,0.00400746,1.19531,1.20285,1.20405,1.21061,1.21355,1.21987,1.21704,1.21222,1.21398,1.20798,1.20772,1.20601,1.21225,1.21301,1.21281,1.21369,1.20273,1.20681,1.20826,1.20983,1.21196,1.21496,1.21351,1.19824,1.19838,1.19926,1.20518
0.391346,0.387805,0.391636,0.399109,0.408002,0.410384,0.420792,0.00393827,0.003981,0.00390291,0.447209,0.449051,0.450155,0.00384219,0.00442663,0.00373117,0.466962,0.463419,0.464115,0.467961,0.466078,0.474202,0.475439,0.47686,0.478312,0.487132,0.488552,0.491567,0.491837,0.00394411,0.504686,0.508181,0.51039,0.511143,0.520306,0.556572,0.553641,0.559008,0.561926,0.562982,0.568919,0.569361,0.570077,0.575686,0.579451,0.594187,0.587344,0.596236,0.597391,0.601286,0.598405,0.60146,0.601353,0.600302,0.598753,0.598487,0.6003,0.600516,0.600555,0.599381,0.608283,0.609961,0.613317,0.617078,0.618494,0.6197,0.624566,0.627743,0.628969,0.632275,0.634203,0.636412,0.640204,0.642927,0.646158,0.647079,0.650192,0.6545,0.656827,0.660406,0.665762,0.665209,0.673288,0.676875,0.678154,0.682884,0.684972,0.684034,0.700783,0.00380214,0.00375608,0.734221,0.735746,0.738266,0.740069,0.740758,0.747112,0.749862,0.75052,0.749128,0.732316,0.734559,0.735127,0.735564,0.737973,0.750512,0.754176,0.759341,0.76088,0.765612,0.769506,0.772174,0.773343,0.780147,0.783388,0.782262,0.782774,0.801059,0.8041,1.0536,0.843436,0.844696,0.833925,0.834269,0.836051,0.836831,0.833805,0.833241,0.833133,0.833432,0.832833,0.00399376,1.79404,0.00382053,1.79371,1.79342,1.79921,0.00419528,0.00610283,0.00425523,1.01703,1.06409,0.00388639,0.00398701,1.4873,0.00381253,1.4531,1.50444,1.5069,0.00422361,1.52964,1.53024,1.52304,1.52713,1.52739,1.54002,1.53726,0.0039458,0.004252,0.00461645,1.09463,1.09239,1.09757,1.10166,1.10153,1.10234,1.10213,1.11116,1.11153,1.11445,1.11812,0.00364916,0.00366322,0.0038437,0.00448021,1.1339,1.13634,0.00383145,0.00383802,0.00411699,0.998486,0.997259,0.985123,0.979117,0.979255,0.981557,0.981688,0.98214,0.98016,0.977731,0.980433,0.982122,0.984393,0.987341,0.987538,0.983403,0.984715,0.98499,0.987018,0.987467,0.976921,0.976763,0.976561,0.978126,0.983391,0.987229,0.987617,0.990636,0.997451,0.994359,0.99669,1.0018,1.00281,1.00438,1.0062,1.01736,1.02372,1.02772,1.03015,1.02921,1.02849,1.02963,1.03198,1.03321,1.033,1.03456,1.03771,1.04112,1.04467,1.15743,1.05323,0.00427767,1.15285,1.06792,1.05562,1.05945,1.05953,1.05955,1.06702,1.06825,1.06843,1.06951,1.07309,1.07626,1.07706,1.07868,1.07905,1.08232,1.0871,1.08772,1.08802,1.08537,1.08811,1.08982,1.09205,1.0947,1.09784,1.26753,1.11564,1.11742,1.11812,1.12995,1.13413,1.13594,1.14157,1.14172,1.62503,1.62026,1.15197,1.1552,1.16104,1.16543,1.62743,1.63785,1.19067,0.00434169,0.00367958,1.2175,1.22248,1.22323,1.22604,1.22835,1.23119,1.25372,0.00384762,1.3192,1.3029,1.21741,1.2166,1.21192,1.21468,1.21256,1.21329,1.21301,1.21299,1.21523,1.21505,1.19524,1.19922,1.19974
0.386794,1.67793,0.395017,1.67863,0.0042223,0.00398312,0.00421875,0.428427,0.429322,0.0034316,0.442789,0.4478,0.453878,0.457785,0.460065,0.467388,0.468545,0.469653,0.470328,0.794682,0.470072,0.471929,0.474151,0.482439,0.482475,0.484887,0.486643,0.489512,0.497591,0.501217,0.5005,0.507696,0.508202,0.512872,0.522936,0.523614,0.00420207,0.543682,0.00403088,1.06506,0.559975,0.559757,0.00396643,0.0111237,0.593826,0.00407534,0.612752,0.614572,0.615901,0.60798,0.605627,0.604683,0.604451,0.603905,0.604613,0.603883,0.602766,0.603186,0.602668,0.603581,0.606226,0.61135,0.614368,0.615445,0.61844,0.619685,0.623174,0.626921,0.628427,0.634329,0.634165,0.640162,0.641513,0.643938,0.646185,0.647627,0.653374,0.658029,0.657954,0.66381,0.666904,0.671587,0.674236,0.675595,0.676148,0.682375,0.682983,0.764427,0.714319,0.716332,0.718255,0.725382,0.729981,0.734344,0.735841,0.742459,0.745873,0.746173,0.747234,0.746782,0.737415,0.738418,0.739462,0.740582,0.740171,0.746893,0.750271,0.752747,0.756742,0.76144,0.766939,0.770363,0.776955,0.777402,0.784043,0.786755,0.791969,0.801579,1.05483,0.922496,0.00371749,0.846625,0.850816,0.851947,0.852126,0.826219,0.828879,0.830333,0.830136,0.832244,0.833368,0.835795,0.84016,1.1745,1.17697,1.27095,0.00387128,0.00409463,0.00424965,1.5071,1.82744,1.50621,1.83536,1.83842,0.00389915,1.49508,1.8528,0.00377064,0.00429613,1.50946,1.15279,1.5186,1.0034,1.52746,1.53166,1.54618,1.53353,1.16328,0.0038313,0.0043356,0.00371247,1.17531,0.00412108,1.10215,1.10106,1.10152,1.10304,1.10604,1.10706,1.1612,1.1355,1.13657,1.12806,1.12928,1.48859,1.48957,1.10848,1.10199,0.00448705,0.00366344,1.27469,1.26732,1.00037,0.993414,0.9869,0.985789,0.978916,0.979375,0.978116,0.973658,0.983278,0.983062,0.98375,0.984147,0.98132,0.987443,0.980996,0.983243,0.984397,0.983207,0.976475,0.983227,0.983271,0.98769,0.987799,0.990761,0.99239,0.997093,0.999278,1.00029,1.00304,1.00433,0.999509,1.00264,1.00303,1.32739,1.02105,1.02407,1.0276,1.03554,1.04416,1.04572,0.00396223,1.05688,1.03892,1.0406,1.04252,1.04324,1.04509,0.0039561,1.06282,1.06626,1.06995,1.07083,1.07356,1.07292,1.07409,1.06123,1.06525,1.0685,1.07106,1.07339,1.07703,1.07805,1.08098,1.07903,1.08448,1.08217,1.0861,1.08753,1.09078,1.093,1.09417,1.09406,1.09386,1.09431,1.10123,1.10254,1.10596,1.10674,1.10819,0.00360059,0.0042531,1.6262,1.12778,1.1275,1.13114,1.63016,1.14132,1.63689,0.00402203,1.15569,1.15682,0.00385367,1.1769,1.64172,0.0039051,1.34022,0.00418895,1.21859,1.2208,1.23189,1.22993,1.23712,1.23826,1.24006,1.24369,1.24369,1.25041,1.24948,0.00372753,1.21891,1.22015,1.22094,1.22351,1.22191,1.22247,1.20949,1.19602,1.19332
0.388119,0.390752,0.397107,0.397947,0.39995,0.00421228,0.424112,0.00385216,0.430344,0.43174,0.432795,0.0035711,0.852961,0.00391504,0.46217,0.00407845,0.46778,0.468926,0.482978,0.485027,0.484686,0.00378968,0.477788,0.481412,0.483999,0.48454,0.490787,0.495225,0.496766,0.500084,0.510186,0.504966,0.518414,0.517719,0.519848,0.52508,0.534911,0.537869,0.538373,0.538584,0.558299,0.568129,0.574885,0.00367694,1.08073,0.612667,0.614703,0.615759,0.616684,0.616648,0.603704,0.602793,0.60257,0.603596,0.603035,0.601668,0.601727,0.603955,0.60583,0.605375,0.61021,0.611618,0.615261,0.617683,0.619682,0.622877,0.625379,0.627108,0.630724,0.635715,0.637391,0.638203,0.641762,0.647266,0.647345,0.65196,0.655572,0.656738,0.663194,0.665868,0.668334,0.672482,0.673831,0.675144,0.675253,0.683336,0.683909,0.00396357,0.729058,0.726982,0.727623,0.729824,0.730344,0.73184,0.735545,0.738767,0.742697,0.74205,0.742277,0.743098,0.745168,0.742863,0.742083,0.742571,0.743232,0.745075,0.749638,0.752893,0.75606,0.760047,0.761277,0.769548,0.771087,0.783844,0.785293,0.787615,0.788944,0.794379,0.796074,0.80069,0.998891,0.84672,0.851429,0.852668,0.854141,0.854825,0.846436,0.825799,0.82729,0.830035,0.831725,0.832684,0.840816,0.843391,0.851867,0.8558,0.857787,0.00409938,1.00404,1.04258,0.00398806,1.47417,1.84053,1.50291,1.83567,1.53315,1.46729,1.49822,1.499,0.00394616,1.16049,1.45674,1.45664,0.994079,1.16058,1.1743,0.00365304,1.18402,1.91619,0.00359353,1.06058,1.19792,1.20121,0.00393405,0.00354569,0.00430865,1.17492,1.10198,1.10354,1.10493,1.10733,1.10796,1.14561,0.00354238,1.08552,0.00351971,0.00362537,0.003703,1.15259,0.00413074,0.00384798,0.00387131,1.04386,0.00378587,1.00489,0.996769,0.990213,1.5536,0.98167,0.982308,0.983147,0.984438,0.98556,0.987179,0.988867,0.990627,0.990257,0.989892,0.989805,0.986887,0.981189,0.982915,0.984682,0.987023,0.988073,0.992001,1.06103,1.00008,1.00638,1.00702,1.00798,1.00864,1.00729,1.00451,1.00418,1.00833,1.01625,1.02084,1.02282,1.04691,1.04996,1.05302,1.05325,1.05306,1.05589,1.05777,1.05608,1.05331,1.05494,1.48841,1.06569,1.06857,1.07342,1.07595,1.07779,1.08019,1.08194,1.08297,1.0806,1.07723,1.08039,1.08022,1.07747,1.08435,1.0818,1.0832,1.08444,1.08522,1.08879,1.08891,1.09111,1.0914,1.09216,1.09481,1.094,1.09558,1.09696,1.09938,1.10305,1.10608,1.10739,1.1086,1.11198,1.11756,1.11768,1.12295,1.12486,1.1267,1.12905,1.13395,1.14308,1.14707,1.65325,1.64496,1.64071,1.64661,1.17944,1.18123,1.28038,0.0035999,1.30645,0.00410563,1.22661,0.00402518,1.64305,1.24207,1.24385,1.24395,1.24518,1.24893,1.26555,1.26275,1.31589,1.27369,1.23542,1.23478,1.23473,1.22403,1.22353,1.21074
0.389364,0.397825,0.399721,0.400724,0.401267,0.401635,0.420741,0.42237,0.423628,0.430709,0.432337,0.437497,0.00388913,0.00384448,0.00367595,0.00368213,0.00376509,0.480731,0.482736,0.483075,0.00394217,0.49657,0.00444338,0.510077,0.510446,0.512565,0.512809,0.512069,0.00387698,0.50221,0.511269,0.511728,0.743795,0.522348,0.524017,0.523928,0.523713,0.523752,0.537949,0.538131,0.553145,0.576904,0.57685,0.592909,0.594869,0.596331,0.612255,0.614285,0.621573,0.623406,0.624395,0.624658,0.625249,0.628697,0.62594,0.607183,0.608577,0.609658,0.610959,0.610427,0.610665,0.612677,0.619188,0.620292,0.62101,0.625222,0.628104,0.629168,0.633704,0.635582,0.639055,0.641298,0.647102,0.65013,0.652286,0.654325,0.656603,0.664163,0.665189,0.666134,0.673077,0.674242,0.675977,0.67527,0.710346,0.712694,0.713776,0.716119,0.731942,0.73171,0.734317,0.735908,0.739418,0.741172,0.740842,0.739974,0.735733,0.736691,0.738501,0.738457,0.741335,0.742034,0.744048,0.745087,0.745069,0.746618,0.750822,0.754576,0.756617,0.761102,0.766096,0.772366,0.774971,0.777452,0.789657,0.790462,0.790364,0.794636,0.797721,0.799437,0.00436964,0.00399855,0.00375229,0.847779,0.849192,0.850544,0.852832,0.827174,0.831341,0.832161,0.833714,0.838543,0.840233,0.841709,0.84629,0.851033,0.853012,0.863617,0.866256,0.00366528,0.00337501,0.00388704,0.00414387,1.01505,0.0039526,0.00433506,1.49811,1.50053,1.49771,1.50476,1.4995,1.49858,0.00404602,1.50879,1.50781,1.11478,1.19461,1.19459,1.1749,0.00328578,0.00394652,1.20831,1.04381,1.20973,1.2241,1.203,0.00372935,1.58485,0.00405205,1.09946,1.10599,1.10606,1.10786,1.10921,1.10929,1.13666,1.13918,1.13449,0.00369849,1.17037,1.17286,0.00368228,1.55899,1.08486,1.09246,0.998558,1.07912,1.00058,0.993585,1.21613,0.992886,0.98768,0.991681,0.986502,0.988379,0.988732,0.993115,0.994466,0.991684,0.993313,0.989787,0.9894,0.98923,0.98993,0.989307,0.991979,0.990438,0.997829,1.00394,1.00611,1.01081,1.01103,1.01094,1.01082,1.01006,1.01505,1.01656,1.01891,1.01863,1.12996,1.05517,1.05642,1.05945,1.06003,1.06366,1.06622,1.06254,1.05772,1.06077,1.06209,1.06628,1.07067,1.07324,1.07666,1.08086,1.08505,1.08771,1.09456,1.09182,1.08974,1.09052,1.08745,1.09502,1.09741,1.09935,1.10449,0.00409796,1.09494,1.09452,1.09426,1.09444,1.09319,1.0921,1.09764,1.09935,1.10284,1.09993,1.10454,1.10488,1.10727,1.11044,1.10968,1.1136,1.11586,1.11681,1.12097,1.12832,1.13059,1.12307,1.12649,1.13191,0.00353995,1.14844,1.6424,1.15803,1.16192,0.00420574,1.64206,1.18141,1.18431,1.18719,1.30938,0.00411745,1.30261,0.00380195,1.30276,1.23678,1.23836,1.24667,1.24848,1.24823,1.25397,1.25523,1.2591,1.25791,1.26053,0.00397511,0.00380403,0.00399988,1.22928
0.389046,0.00417337,0.400987,0.406388,0.00347972,0.418135,0.421196,0.423594,0.4236,0.428516,0.431768,0.434775,0.442306,0.441956,0.00375777,0.00417709,0.454935,0.472618,0.460393,0.00433734,0.00390574,0.00396287,0.00358549,0.510395,0.513096,0.514214,0.514891,0.514185,0.52114,0.523168,0.536069,0.539081,0.539632,0.522239,0.524636,0.520596,0.52238,0.538804,0.540719,0.543544,0.00361313,0.00389774,0.585204,0.590548,0.591748,0.608088,0.612759,0.612192,0.614965,0.624072,0.625961,0.626484,0.631595,0.6312,0.629758,0.630642,0.630051,0.613124,0.612889,0.61293,0.612866,0.613784,0.615109,0.620418,0.62432,0.625255,0.631973,0.632851,0.635769,0.63823,0.648381,0.64939,0.652209,0.653274,0.655817,0.655777,0.662279,0.661305,0.666849,0.670698,0.67336,0.674143,0.676903,0.706918,0.708921,0.709778,0.714005,0.72499,0.727084,0.730257,0.736556,0.73886,0.740151,0.740548,0.740974,0.742023,0.743034,0.749956,0.73685,0.739197,0.74152,0.741797,0.746336,0.748719,0.750424,0.751974,0.753256,0.756838,0.758062,0.762976,0.766038,0.770069,0.774369,0.775568,0.783363,0.78886,0.794488,0.798611,0.802001,0.800768,0.802281,0.803919,0.00438462,0.00400091,0.00409204,0.00413412,0.829277,0.826492,0.827074,0.828513,0.828669,0.828653,0.842595,0.845244,0.845411,0.85667,0.857297,0.859949,0.862239,0.865108,0.866006,0.890026,0.894727,0.00411622,0.00459094,0.00380315,1.87039,1.87553,1.49686,1.48122,0.00389209,1.88954,0.00379812,1.07802,1.51366,0.00460974,1.00768,0.00405088,1.94144,1.45795,0.00396561,0.00404862,1.46395,0.00405222,1.46562,1.05047,0.00365675,0.0041351,0.00406435,0.00400171,1.25507,0.00418755,1.09973,1.10828,1.10892,1.10877,1.10881,1.10889,1.149,1.14336,1.15743,0.0038029,1.14122,0.00370991,1.09526,0.00391413,0.00373965,1.2121,1.00411,1.00516,0.999561,1.00096,1.00137,1.00292,1.00016,0.999805,0.999899,0.995056,0.995068,0.997495,0.985019,0.991426,0.991577,0.993257,0.995553,0.996762,1.00114,1.00153,1.00598,1.01599,1.01359,1.01971,1.02163,1.02413,1.02767,1.04256,1.04675,1.24964,1.06342,1.04615,1.04898,1.05336,1.05454,1.05758,1.05887,1.0648,1.06824,1.07016,1.06857,1.06761,1.0687,1.07192,1.07505,1.07726,1.08116,1.09182,1.10261,1.4577,1.45861,1.10812,1.11888,1.09904,1.10563,1.10331,1.10519,1.10416,1.10726,1.1079,1.10889,1.10925,1.09291,1.09865,1.09926,1.10086,1.10425,1.10335,1.10304,1.10722,1.11015,1.10662,1.10878,1.11202,1.11174,1.11595,1.11526,1.11849,1.12597,1.1238,1.12535,1.12895,1.12781,1.13116,1.14412,1.14781,1.15812,1.15856,1.16344,1.16493,1.16726,1.64119,1.64265,1.18174,1.1912,1.19212,1.19591,0.00378907,0.00349047,0.00424744,0.00359671,1.23704,1.24123,1.24792,1.25034,1.25034,1.25351,1.25887,1.26042,1.2609,1.26051,0.00394891
0.397029,0.391605,0.0040398,0.411964,0.41401,0.415317,0.417451,0.424754,0.428181,0.429928,0.437083,0.437707,0.439189,0.44336,0.446567,0.449719,0.458216,0.460976,0.461155,0.467986,0.470514,0.480093,0.0036408,0.490222,0.490711,0.515223,0.00374176,0.522385,0.00342756,0.538318,0.541042,0.543377,0.542177,0.54488,0.544728,0.546012,0.534418,0.539512,0.0035424,0.548396,0.00371492,0.656301,0.57975,0.580181,0.00363708,0.00347721,0.00369032,0.617777,0.621338,0.621514,0.624724,0.624369,0.624981,0.637024,0.638738,0.638278,0.622547,0.619868,0.620147,0.620772,0.615081,0.615115,0.622008,0.621679,0.627339,0.629351,0.631915,0.636446,0.637717,0.64233,0.643401,0.649326,0.651682,0.653778,0.656142,0.658989,0.661967,0.663781,0.665293,0.670247,0.673405,0.677698,0.00417533,0.716885,0.719381,0.721011,0.722198,0.726162,0.731398,0.736181,0.734909,0.738527,0.739051,0.743661,0.745018,0.745977,0.747084,0.749177,0.75193,0.745835,0.747607,0.755941,0.756578,0.757499,0.759087,0.7544,0.755982,0.759035,0.760986,0.766623,0.767898,0.771393,0.773665,0.879463,0.00391489,0.80186,0.807311,0.808966,0.810824,0.811158,0.802257,0.804997,0.810162,0.812514,0.822193,0.822274,0.824923,0.826172,0.827343,0.831925,0.831926,0.843939,0.846575,0.849258,0.849202,0.861365,0.862518,0.864004,0.867544,0.870778,0.872238,0.887404,0.00386101,0.901082,0.902675,0.903405,0.915151,1.50312,1.49737,0.0041852,1.12713,0.950277,0.951286,1.45492,0.00363274,0.985714,0.988666,0.99187,0.00362446,0.0041747,0.00371813,1.01349,1.01658,1.01881,0.00370965,1.47104,1.47176,1.47655,0.00391338,1.05981,0.00359407,1.15714,0.00382974,0.00366409,2.01765,1.10239,1.10534,1.10674,1.10801,1.10806,0.00362511,0.0035925,0.00391249,1.19972,1.20105,1.20305,0.00341095,1.21173,1.02123,1.21265,1.02014,1.21521,0.00371305,1.01399,1.00946,1.00699,1.01144,1.01165,1.01005,1.00887,1.00348,1.00468,1.00528,0.998011,1.00511,1.33101,1.01892,0.00411497,1.03265,1.10887,1.03134,1.03363,1.03777,1.04385,1.04257,1.04356,1.04649,1.05378,1.05261,1.05294,1.05208,1.05428,1.05574,1.05942,1.06343,1.06464,1.06853,1.0683,1.0736,1.07315,1.07668,1.07721,1.07685,1.08248,1.08773,1.1013,0.00423921,1.11937,0.0038638,1.12598,1.12751,1.12029,1.12205,1.11517,1.10632,1.10874,1.10849,1.10523,1.10645,1.10861,1.11002,1.10925,1.10575,1.09935,1.10528,1.1052,1.10711,1.10998,1.11226,1.11196,1.11726,1.11727,1.11985,1.12257,1.12301,1.12534,1.12751,1.12935,1.12831,1.12891,1.13092,1.13702,1.13972,1.1442,1.14652,1.1548,0.00428524,1.16046,0.00391636,1.16807,1.17318,1.17564,1.18426,1.18905,1.19768,1.20036,1.20289,1.20566,1.21373,1.31288,1.23872,1.30681,0.00415018,1.24855,1.25172,1.26053,1.26694,1.26898,1.27143,1.30992
0.407265,0.00408186,0.407658,0.00380858,0.412952,0.415206,0.420974,0.426481,0.427786,0.431934,0.435069,0.435804,0.440098,0.444958,0.449224,0.452009,0.454246,0.456717,0.462958,0.469613,0.469879,0.474015,0.482336,0.482905,0.483506,0.657974,0.00363656,0.00400181,0.00431124,0.00416408,0.545978,0.549031,0.549198,0.552015,0.553233,0.552943,0.56235,0.563022,0.569802,0.571026,0.0039565,0.00390686,0.00367072,0.00409432,0.586085,0.586888,0.587503,0.00337404,0.61997,0.00374243,0.622399,0.624808,0.635023,0.635254,0.635834,0.626897,0.624856,0.620383,0.620799,0.621448,0.625749,0.628495,0.623132,0.625607,0.626939,0.631341,0.632232,0.636799,0.643181,0.647926,0.649056,0.653531,0.656067,0.656165,0.657295,0.659763,0.661498,0.665308,0.666724,0.671968,0.673808,0.679808,0.684928,0.718188,0.71923,0.720874,0.722023,0.729003,0.731656,0.734933,0.736429,0.738542,0.739026,0.740086,0.742764,0.74507,0.745093,0.744022,0.745533,0.746755,0.756847,0.757851,0.756819,0.757732,0.765795,0.766491,0.765623,0.764968,0.768982,0.767572,0.769908,0.771872,0.772075,0.782667,0.783964,0.787168,0.802607,0.805992,0.809449,0.812138,0.815425,0.815862,0.81837,0.821115,0.821381,0.825692,0.828721,0.831777,0.832453,0.835089,0.83584,0.842839,0.843876,0.846213,0.846949,0.849801,0.853546,0.858902,0.860449,0.86593,0.868889,1.52259,0.00452109,0.892685,0.00470837,0.00388133,1.42002,1.49978,1.12275,0.00391844,1.40913,1.90085,0.955063,0.959814,1.07921,0.00410651,0.983934,0.986379,0.987134,0.991171,0.995791,0.997758,1.47966,0.00368455,1.43402,0.00394477,1.02854,0.00410977,1.03349,1.03712,1.13801,1.18093,0.00399262,0.0040093,2.02177,0.00371049,0.00336265,1.10192,1.10251,1.10452,1.1079,1.10839,1.15357,0.00334926,1.19107,1.20671,1.20621,1.21177,1.20486,1.20521,1.20953,1.20612,1.02555,1.02667,1.53187,1.24618,1.01177,1.0143,1.01168,1.01243,1.01361,1.01504,1.09423,0.00368843,1.02363,1.46265,1.24847,1.03991,1.04356,1.04425,1.04431,1.04257,1.04421,1.04438,1.04819,1.05087,1.05194,1.05602,1.05711,1.05904,1.06063,1.05651,1.06158,1.06233,1.06429,1.06651,1.0698,1.07392,1.07588,1.08267,1.08493,1.08156,1.08288,1.08425,1.09015,1.09346,1.09493,1.09267,0.00378991,1.1243,1.1243,1.12595,1.12776,1.12874,1.12948,1.1027,1.10662,1.10816,1.10481,1.10538,1.10963,1.11259,1.1155,1.11721,1.11906,1.11477,1.11401,1.11461,1.11447,1.118,1.11891,1.12009,1.12176,1.12079,1.12333,1.12587,1.12755,1.13073,1.13147,1.13299,1.13598,1.13608,1.14043,1.14078,1.14453,1.14633,1.14942,0.00305841,1.15774,0.00426238,1.16517,1.2233,1.18049,1.18222,0.00453137,1.19887,1.19608,1.19974,1.19775,1.19915,1.21675,0.00366336,0.00407353,0.00414772,1.24417,1.25663,1.257,1.26527,1.2635,1.26257
0.407055,0.00412849,0.00404653,0.0109809,0.0040044,0.439119,0.00372125,0.00375601,0.00369515,0.432941,0.0035702,0.4411,0.452178,0.452781,0.452266,0.452638,0.456269,0.462225,0.462818,0.470108,0.470297,0.473561,0.478981,0.479955,0.483736,0.49354,0.495336,0.495456,0.00411388,0.00389713,0.5499,0.552536,0.553201,0.55495,0.553349,0.560001,0.563693,0.564783,0.564286,0.726328,0.579496,0.587928,0.00384683,0.00381154,0.00409497,0.00411428,0.00377944,0.00359934,0.00364758,0.618689,0.621241,0.622966,0.624135,0.626219,0.627598,0.627162,0.626905,0.623617,0.625467,0.62565,0.628149,0.630221,0.631026,0.630952,0.631425,0.635309,0.637343,0.63941,0.643476,0.649065,0.652108,0.654251,0.655782,0.65714,0.66086,0.663585,0.666491,0.668001,0.670536,0.672727,0.674982,0.676331,0.686619,0.690652,0.690695,0.693831,0.701084,0.703734,0.705269,0.00389414,0.00417632,0.733146,0.73808,0.737898,0.739172,0.740271,0.743197,0.745437,0.746883,0.751694,0.752296,0.752922,0.759912,0.760521,0.762907,0.765314,0.765541,0.76602,0.768327,0.771318,0.772484,0.772074,0.783578,0.784131,0.785457,0.798348,0.799419,0.803593,0.805034,0.80656,0.811651,0.822254,0.822798,0.824269,0.825937,0.826712,0.828462,0.832285,0.839411,0.840358,0.840129,0.842846,0.844011,0.844619,0.845545,0.849915,0.854604,0.856172,0.859382,0.862222,0.866797,0.874517,0.87469,0.00398736,0.00379033,0.910121,1.50412,0.0034803,0.935561,0.942119,0.943667,0.949615,0.00433819,0.00414972,0.97122,0.973345,0.979779,0.98151,0.98127,0.983819,1.46536,0.989544,0.0041058,0.999079,1.06131,1.00701,0.00384282,1.02335,1.02372,1.02712,1.02927,1.03747,0.00381088,1.50916,1.51139,1.51383,0.00381466,1.08903,1.09241,1.10205,1.10321,1.10527,1.10754,1.10887,0.00357331,1.19733,1.19858,1.19662,1.20542,1.03935,1.20571,1.20593,1.20875,1.0388,0.00381783,1.03307,1.22211,1.24343,1.03362,1.24033,1.23984,1.0394,1.02863,1.03501,1.38775,1.08233,0.00401094,1.05173,1.04953,1.04663,1.04803,1.0473,1.04794,1.048,1.05021,1.05146,1.05559,1.06079,1.06299,1.06171,1.0632,1.06621,1.06654,1.06858,1.07202,1.07264,1.07473,1.07437,1.07987,1.0837,1.0828,1.08518,1.08775,1.08891,1.09163,1.09266,1.09051,1.0957,1.09663,1.0995,1.10136,1.10127,1.12275,1.11858,1.11931,1.1191,1.12006,1.10571,1.1083,1.10841,1.11048,1.10976,1.11183,1.11054,1.11286,1.11497,1.11196,1.11338,1.11644,1.11751,1.12147,1.12196,1.12146,1.12592,1.12442,1.12706,1.12754,1.13323,1.13804,1.13672,1.13647,1.13876,1.13957,1.13798,1.14045,1.14007,1.14243,1.14431,1.15418,1.17349,1.17403,1.16968,0.00390885,1.17835,1.17835,1.18103,1.19184,1.18804,1.19005,1.19523,1.19788,1.21878,1.21861,0.00356497,0.00395724,1.24839,0.00361422,1.25352,1.2552,1.25164
0.435927,0.437733,0.437791,0.439268,0.44084,0.441482,0.442635,0.442295,0.441199,0.00355317,0.00413686,0.00407596,0.454568,0.455457,0.456268,0.00408095,0.463261,0.466607,0.46637,0.47292,0.475066,0.476508,0.477236,0.477199,0.494005,0.493749,0.495595,0.496305,0.504149,0.503959,0.547288,0.54971,0.551507,0.552921,0.556676,0.561467,0.560291,0.565169,0.576729,0.578899,0.579501,0.580078,0.58324,0.00388937,0.619506,0.00360368,0.623281,0.00384771,0.00435917,0.8307,0.619497,0.620126,0.624315,0.624386,0.628322,0.629282,0.630419,0.629887,0.627901,0.626391,0.626102,0.631255,0.63093,0.631773,0.631667,0.633112,0.637404,0.638675,0.642526,0.651511,0.652087,0.65342,0.654946,0.655916,0.662229,0.665765,0.66636,0.668723,0.67117,0.673674,0.678998,0.680151,0.682192,0.685483,0.690374,0.692181,0.695947,0.69844,0.70289,0.70465,0.706123,0.710275,0.713701,0.717929,0.717705,0.74078,0.742599,0.744296,0.746788,0.748499,0.749849,0.750564,0.754055,0.755993,0.75749,0.758892,0.762005,0.763224,0.770571,1.67216,0.976751,0.00394039,0.00382045,0.00339224,0.797635,0.801091,0.802292,0.80529,0.809597,0.814328,0.815836,0.81796,0.821584,0.822991,0.823276,0.825905,0.827342,0.831647,0.833792,0.834375,0.841419,0.842607,0.842952,0.844534,0.849046,0.851834,0.853747,0.855267,0.859836,0.861816,0.867001,0.869197,0.869889,0.877185,1.04911,1.05003,1.05375,0.00409616,0.936572,0.940523,0.943623,0.0038181,0.971357,0.971296,0.973345,0.974211,0.974936,0.978435,0.973889,0.976024,0.97911,0.982869,0.984722,0.994599,0.999776,1.42696,1.01161,0.00377642,0.00426886,0.00384258,1.44716,1.44446,1.43523,1.50938,1.51775,1.51811,0.0039615,0.00367602,1.07696,0.00390245,1.08436,1.10204,1.10359,1.10491,1.10587,1.10692,0.00406383,0.00396484,1.19624,1.20439,1.21837,1.21757,1.05278,1.04313,1.04542,1.04584,1.04411,1.04214,1.23615,0.00384918,1.23658,1.23806,1.24405,1.04836,1.04731,1.05281,1.05527,1.05617,1.05666,1.05656,1.05494,1.04378,1.04765,1.04761,1.04923,1.05212,1.05347,1.06016,1.0611,1.06122,1.0639,1.0674,1.06931,1.07086,1.07211,1.07313,1.07782,1.07803,1.08093,1.08301,1.08369,1.08471,1.0843,1.08723,1.09264,1.09646,1.09991,1.10114,1.1016,1.10146,1.10455,1.10414,1.10831,1.11057,1.11537,1.11859,1.1186,1.11863,1.11869,1.11412,1.10622,1.10666,1.10795,1.10953,1.11191,1.11195,1.11108,1.11617,1.11603,1.11722,1.12059,1.11996,1.12215,1.12471,1.12627,1.12696,1.13022,1.13413,1.13669,1.14013,1.1404,1.14014,1.14122,1.14041,1.13902,1.14181,1.1377,1.14271,1.14986,1.17898,1.17123,1.15437,1.15765,1.16073,1.18445,1.18793,1.17793,1.17853,1.1858,1.18861,0.00405324,0.00401051,1.2126,1.21673,1.21863,1.22688,1.23335,1.23368,1.24723,1.25182
0.436398,0.437058,0.437937,0.439453,0.44064,0.44126,0.44115,0.441657,0.4425,0.443589,0.452352,0.453042,0.45442,0.456553,0.456363,0.465451,0.00364733,0.464396,0.472789,0.475885,0.476099,0.47642,0.481103,0.486773,0.488151,0.493431,0.494951,0.504431,0.505225,0.505839,0.51184,0.515702,0.518366,0.00385737,0.00357725,0.00409525,0.0040261,0.576944,0.580176,0.581663,0.58243,0.581992,0.00368992,0.802001,0.00373648,0.621689,0.624646,0.626489,0.00391565,0.646135,0.648482,0.649611,0.649767,0.62668,0.62763,0.629314,0.628891,0.630194,0.628611,0.629873,0.630901,0.631304,0.635562,0.636488,0.632918,0.637962,0.638827,0.641742,0.644656,0.648928,0.650986,0.655065,0.65575,0.659874,0.662925,0.66453,0.668133,0.672279,0.673757,0.676749,0.679407,0.681801,0.687549,0.688913,0.690677,0.693857,0.696671,0.69951,0.703515,0.707143,0.707389,0.712323,0.71616,0.718482,0.720907,0.725703,0.724939,0.745499,0.747298,0.749142,0.750292,0.750555,0.751579,0.752435,0.757677,0.761666,0.760782,0.760947,0.771247,0.774022,1.59608,1.59826,0.797829,0.799115,0.806144,0.807693,0.809987,0.810349,0.81463,0.814385,0.815,0.816261,0.809741,0.811542,0.813192,0.816192,0.81988,0.821802,0.823516,0.826385,0.827288,0.838519,0.840494,0.840799,0.845883,0.848107,0.85392,0.856627,0.857669,0.864537,0.866517,0.868628,0.873993,0.876651,0.878303,0.884987,0.00353598,1.14239,1.51044,1.06367,0.00399091,0.957958,0.96026,0.962564,0.00390456,0.985382,0.987761,0.990285,0.991371,0.987226,0.981062,0.983242,0.984264,0.984161,0.00385767,0.990767,1.00117,0.00368625,0.00379602,0.00312204,1.01618,1.01016,1.23014,1.35879,0.00388447,1.03645,0.00379476,1.45388,0.00383821,1.12315,0.00381157,0.00442587,0.00388109,1.10107,1.10191,1.10126,1.10478,1.29861,0.00360049,1.14406,0.004046,1.18125,1.23365,1.20861,1.21162,1.22587,0.00408522,1.22339,1.23037,1.23607,1.06242,1.06502,1.06506,1.06105,1.2489,1.05441,1.05325,1.05583,1.05797,1.05839,1.05921,1.0568,1.05709,1.05835,1.29184,1.06099,1.06248,1.05786,1.05811,1.06154,1.06307,1.06815,1.07043,1.07235,1.08063,1.0815,1.07514,1.07607,1.08118,1.08243,1.08356,1.08493,1.08486,1.09058,1.09134,1.1003,1.10382,1.10349,1.10597,1.10288,1.102,1.10696,1.11023,1.1122,1.11287,1.11861,1.1139,1.12208,1.12184,1.12331,1.13343,1.10377,1.10592,1.10794,1.10921,1.11311,1.11356,1.11531,1.12195,1.12176,1.12166,1.12327,1.12391,1.12195,1.12257,1.12677,1.1293,1.12874,1.13012,1.13282,1.13554,1.1352,1.13467,1.13699,1.14289,1.14048,1.13805,1.14275,1.14348,1.14456,1.14724,1.14832,1.15366,1.16685,1.15637,1.1717,1.17241,1.17424,0.00383395,1.18935,1.18489,1.18578,1.1965,0.00370993,0.00392367,1.22023,0.00380744,1.23274,1.23267,1.24213
0.422532,0.436792,0.438423,0.438434,0.438779,0.440243,0.441223,0.443302,0.443363,0.445941,0.447698,0.447973,0.451284,0.459139,0.461097,0.465965,0.469176,0.471356,0.482911,0.483753,0.4841,0.483003,0.48513,0.486902,0.493764,0.496118,0.496874,0.502993,0.509888,0.507049,0.515597,0.516369,0.519022,0.527651,0.529151,0.53368,0.536537,0.00379423,0.578905,0.579742,0.580709,0.582033,0.00352437,0.00362252,0.00412311,0.00397393,0.0032896,0.00380842,0.00375158,0.647308,0.64914,0.649444,0.651389,0.651336,0.62574,0.628333,0.630268,0.634705,0.63529,0.6337,0.634032,0.637152,0.637823,0.641842,0.642525,0.644426,0.644873,0.644789,0.646831,0.650617,0.655892,0.657102,0.658246,0.661486,0.666168,0.666273,0.668963,0.672633,0.677358,0.678537,0.683176,0.684446,0.689102,0.691601,0.69168,0.695007,0.697086,0.700445,0.707266,0.71049,0.709421,0.714575,0.714251,0.719326,0.72092,0.724123,0.725558,0.734006,0.735904,0.739085,0.748268,0.750456,0.752036,0.754869,0.755893,0.757625,0.763925,0.770016,0.772991,0.775009,0.777639,0.779869,0.798961,0.800922,0.803346,0.804118,0.804896,0.803685,0.808529,0.81091,0.807379,0.808691,0.810639,0.81067,0.814667,0.8169,0.820669,0.822855,0.824708,0.83052,0.832678,0.834325,0.836825,0.842354,0.845753,0.847687,0.851091,0.855794,0.863085,0.865693,0.868909,0.872442,0.875185,0.87811,0.880022,0.886166,0.887986,0.894908,0.899409,1.24349,1.05303,0.974747,0.962494,0.965071,0.969962,0.00358437,0.99035,0.991276,0.993357,0.994783,0.00386182,0.00370145,0.972149,0.972683,0.972311,1.25827,0.986129,0.987651,0.993228,0.00392562,0.99802,0.00391059,1.43074,0.00373113,0.00401288,1.63708,1.03198,0.00366641,0.00405219,0.00376657,0.00428768,0.00406655,1.29517,0.00381404,1.29975,0.00391971,1.10239,1.1092,1.10947,1.1094,1.10193,0.00418266,0.00351213,0.00351695,1.20999,1.21707,1.07463,1.07645,1.07336,1.07456,1.07501,1.07128,1.07142,1.07151,1.07351,1.06961,1.07007,1.06338,1.0659,1.06676,1.06159,1.06666,1.06474,1.07022,1.06951,1.06906,1.07097,1.07274,1.07514,1.07651,1.07773,1.12745,1.08004,1.08409,1.08559,1.0877,1.0911,1.09207,1.09488,1.09559,0.00365742,0.00357761,1.10028,0.00385361,1.10674,1.11355,1.11636,1.11369,1.10604,1.10848,1.11187,1.11226,1.11479,1.11694,1.11934,1.1199,1.11935,1.12443,1.12618,1.1267,1.12897,0.00339093,1.11199,1.11147,1.11239,1.11859,1.11641,1.11907,1.117,1.12035,1.12179,1.12502,1.12848,1.13255,1.13232,1.13078,1.12687,1.12783,1.1286,1.12965,1.13196,1.13304,1.14121,1.14096,1.14151,1.1437,1.14292,1.14671,1.14574,1.14791,1.14669,1.14817,1.15099,1.15178,1.15681,1.15811,1.16089,1.17056,1.17051,1.18011,1.1763,1.18095,1.18432,1.18636,0.00371586,1.21695,0.00348892,0.00381629,1.22855,1.22988
