0.868770268571279,0.874900124323352,0.892291406270747,0.89921701060072,0.899272684204482,0.878723365078208,0.874777258439189,1.16047787481741,0.919375654610944,0.924987169914205,0.924043598319421,0.923801706109975,0.921048742392946,0.881711501776643,0.868889294896562,0.849484164316557,0.842556640207144,0.971696363580292,0.808890428056742,0.804529649058673,0.803124370508558,0.00403360058699884,0.764840128915121,0.75960009093351,0.758544212241483,0.748649669007476,0.75161380846291,0.751972807218199,0.752338525201528,0.763783290333374,0.762307939833697,0.761968138872809,0.763019218116235,0.75642381584995,0.777948382931768,0.753242741317791,0.756610994345355,0.756104172573183,0.841630346627321,0.841661063098361,0.978828344200071,0.97118762202868,0.748737018971998,0.750858375253251,0.761064882646266,0.763445409151926,0.766846298429971,0.768627853750335,0.782370594871919,0.782634564544926,0.783563737793909,0.786471243755862,0.769566625896519,0.755031015866196,0.752331805973488,0.739945389026298,0.740706581574277,0.744909938658262,0.739747651743973,0.745419640099595,0.743143741573419,0.73000861064461,0.715854076833136,0.714347049972699,0.682152348763094,0.692513398401033,0.670827569846251,0.656985960083505,0.657666521895002,0.643644452864891,0.649711915785163,0.67919108897682,0.673023797525665,0.673444229223036,0.689511823246518,0.745854470142766,0.735969525805959,0.746903629606752,0.79002187583023,0.772894563555842,0.765142494176928,0.815038521713496,0.8023929345419,0.796310113386108,0.791930136593638,0.788700107685757,0.788582041250194,0.858206682202415,0.781875291776387,0.776585339529334,0.725394420760455,0.742985359769615,0.722949581643554,0.765738585693063,0.766924049497293,0.740362941054509,0.749374385746094,0.715828159810695,0.677253071632091,0.676249026984946,0.721977213357169,0.709366182215494,0.691937464569018,0.701840646810506,0.705559259585879,0.726220885809395,0.791727599862713,0.793134798192268,0.80120939051711,0.804727386340998,0.806686521259567,0.813025632970605,0.811856487291616,0.812312434908628,0.830626170876966,0.83919510640762,0.86601346529537,0.869305887035053,0.865027658552906,0.867866052455016,0.886311293314998,0.895683656541312,0.906327873646658,0.908444430479311,0.905798974410925,1.2680623146377,0.987045000203476,1.02980808723055,1.00976558987644,1.02753314859409,1.03131511409098,1.0359801781303,1.05461163759597,1.49853183641546,1.08432022443071,1.08619200938475,1.09534935731378,1.17448266583256,1.0721968172668,1.19484192679427,1.2239841786942,1.23917923296218,1.24091663335542,1.26596975504805,1.18105791041473,1.18057796555471,1.35364608207504,1.21748572528964,1.22758376514429,1.14422694185741
0.86960921218658,1.34456552532361,0.891771146042494,0.906489135119622,0.905760578822124,0.879479758177587,0.882778899145309,1.16750426756799,0.921747542109124,0.928251754852006,0.925787717940704,0.924261493285866,0.991431696223986,0.979452272518086,1.15407541038485,1.0401077039264,0.834659627480506,0.811952476263619,0.801967703395929,0.80239485432134,0.802298865349337,0.898942482140793,0.767733236531273,0.754971502703554,0.753007568336385,0.749490532402217,0.749862009723866,0.74880613103184,0.749311033024573,0.758470300733042,0.756231837905946,0.761435400078196,0.759498342623187,0.758269683781557,0.777865832415847,0.752359642775369,0.755839243010456,0.756451652651831,0.840545671243694,0.837255169283451,0.848780565151779,0.756892242033322,0.753027726020506,0.751177058640299,0.751632046367591,0.762162036596254,0.769730767038643,0.772707385060438,0.781238884892011,0.781798500598785,0.784078238683842,0.787260273105721,0.772445335166871,0.758953125262214,0.749952239357549,0.740876482054722,0.742635959911526,0.747381654687324,0.746361291914939,0.74280969995085,0.741832532215866,0.719248246883141,0.676514916437393,0.67242482634037,0.651398442023245,0.683509632827208,0.668957704671644,0.665075910643867,0.650747636793069,0.66520261608691,0.667174229571839,0.676840319052481,0.687257042294181,0.7208186264651,0.743306922825823,0.751820184752715,0.758768826435969,0.778710535369468,0.797461021160416,0.817680138223002,0.848624103127415,0.843038504846596,0.838634530811126,0.804500852367072,0.804542127625033,0.84122335338603,0.861236094158811,0.875892650293857,0.819909002152898,0.819242838687201,0.791842786629116,0.785123558588948,0.771155243383159,0.79679677747416,0.785926986284608,0.789661917185221,0.746963142769394,0.727559931968829,0.715281982560002,0.713375641576034,0.720269569545247,0.719433505599106,0.716229393713666,0.69401562581287,0.702196765896635,0.737932500283408,0.724124486660863,0.789553449646859,0.794972987006114,0.802518680095223,0.801309219047993,0.809770646930004,0.811470611624167,0.811515726441008,0.817183875237749,0.839254619570261,0.866685388099387,0.868361355550549,0.863311375733503,0.868592688973075,0.874294433910017,0.894786159653089,0.905853688124966,0.913517447649638,0.914723069137988,1.15115734563598,1.02105389298393,1.00728907439878,1.01093665533487,1.02707240152848,1.02952012031454,1.06599592967545,1.32310239118388,1.10433392509321,1.08657596527276,1.08689272888037,1.26957894039534,1.12821598132741,1.167888223456,1.19273016941022,1.22025020768331,1.23143292292159,1.24262523705707,1.24433384075871,1.18189301447115,1.20152275924564,1.23365026817484,1.25666842366102,1.20642779571496,1.17505859966458
0.869821347814705,0.878919182581093,0.891834498764016,0.903798564234395,0.904952351677864,0.887758807012794,0.888442248493451,0.905507167936037,0.926378050118519,0.929951719546169,0.937765221867164,0.929929642082608,0.979874623994897,0.994733716860868,0.839016566919695,0.835740463305253,0.833233231356551,0.814357959901999,0.801859235857566,0.802517720205503,0.783309367018103,0.773151814000809,0.765794259296825,0.752113911007043,0.747758891347294,0.750536812197043,0.748495126762552,0.748905959562723,0.751739554016233,0.752323166966008,0.755463926129926,0.755485043703767,0.759703759023272,0.759872699613997,0.779650267405371,0.756347984562069,0.756669547618277,0.75799035587303,0.838527983052203,0.00416714044484858,0.966061810923751,0.755973627571259,0.755076130683037,0.753977056953609,0.752679286052137,0.759581853028829,0.771232034560761,0.772196723729385,0.782282285017677,0.776207142979645,0.775769433267314,0.771892438688137,0.772354145643469,0.752215659317365,0.745381244510794,0.741745182251343,0.746896910378712,0.746739488464628,0.7464265644159,0.743448026614666,0.725931959003668,0.721847628244966,0.67680960258144,0.639013944855495,0.662466930384842,0.673376077052914,0.660828398632761,0.670605835320925,0.689625090233481,0.693554878747259,0.70802233660746,0.704031115151601,0.710614038851525,0.758092104183352,0.772656510905276,0.770847118783031,0.821817262916305,0.80762433351603,0.844834458512761,0.871720969570633,0.891835458653736,0.873869202764047,0.872867077896342,0.853273808931212,0.854996810978655,0.88561825293714,0.917469313626977,0.899925409214098,0.82961060755318,0.836151296105423,0.803699344450852,0.81239018597595,0.828384828380709,0.838443512756841,0.816876710527342,0.798358518048639,0.766497858461602,0.743250289332341,0.740179602117984,0.726700830669407,0.75320434572899,0.716547117210994,0.720513381534133,0.712241051926966,0.696586210483094,0.696971126260824,0.785396167269435,0.785703331979842,0.786919512255113,0.796937881263003,0.798604249816965,0.802869039843032,0.808879869269822,0.81161075552329,0.820496454661552,0.840059007155641,0.866365744822619,0.871265981843341,0.865168762341749,0.87161346192199,0.895484959369267,0.898268639557336,0.918514633532083,0.918387928089039,0.947682802454452,0.948496788937032,1.2960047043876,1.38350825126499,1.01322119286853,1.09703876322103,1.03145909754899,1.0640185568522,1.08226606042986,1.10242374455036,1.08735347594598,1.08856293699321,1.08959961789084,1.14697222645667,0.00440515469982573,1.17872537839507,1.13553034099399,1.22717101256468,1.23810415647575,1.2599896420923,1.35031526474656,1.264193959066,1.25337600192133,1.23159610417399,1.19041683518496,1.18961052782014
0.871696972327632,0.888304024373767,0.895659659298311,0.902742685542368,0.903443405037986,0.888670702246817,0.889529803546238,0.891419826404965,0.921970236524169,0.934097483246952,0.936967553509824,0.936538482804973,0.86758864432593,1.34362483339799,0.839101997104777,0.832147596083204,0.833791887173605,0.812719428149918,0.805280282819732,0.805161256494449,0.786520198131583,0.774066588903991,0.76201037402049,0.744429033908531,0.746588785778585,0.748483608085912,0.748360742201749,0.746901709827312,0.750029990424871,0.751555255189989,0.752164785162204,0.758275443119877,0.758269683781557,0.776029563381441,0.777235184869791,0.761856791665286,0.756941196409043,0.865480726500757,0.838307208416598,0.835822053931455,0.00400227938543446,1.02481666068642,0.760446713666571,0.753411681908515,0.754184393133135,0.764937077776843,0.771081331874717,0.772197683619105,0.775074473110017,0.774915131416493,0.772906082232483,0.7640146237559,0.763076811499437,0.745427319217356,0.740612512381715,0.736862223245581,0.743925091805518,0.74442519434965,0.745732564148323,0.745087518256467,0.720628568300536,0.656771904675939,0.664611324019375,0.670560720504084,0.652191310931985,0.653271186867012,0.641417508714435,0.696333759486728,0.708545476504874,0.70480670604538,0.716364738164189,0.726129696285993,0.752049598395801,0.781509573793058,0.827644753406571,0.832254143842126,0.8359967538605,0.835332510174243,0.856243707724966,0.889561479906999,0.930534372606223,0.913246758748591,0.904215156372885,0.901349885558614,0.924656007960796,0.954210052550615,0.965313096942133,0.912444290942651,0.864606266965815,0.864103284752522,0.835247079989161,0.850154167341134,0.865956831801889,0.861284088644812,0.81721075214991,0.799940416307238,0.786097846654772,0.763072012050837,0.762581508403904,0.759578013469949,0.778377453636619,0.747569793072449,0.71400148967349,0.692194715013985,0.70001109700414,0.696279045772687,0.781953042843709,0.78522338711983,0.7856246210228,0.792603979177095,0.795806171283095,0.797068426264927,0.807497628072987,0.810566395507904,0.814752474576929,0.835806695695935,0.859973839176979,0.866515487618943,0.869146545341528,0.87401702578093,0.894742964615688,1.15376824567444,0.91960410836431,0.923355357390164,1.05151119380029,0.979279492368482,1.26718881499248,1.26766875985249,1.01463223075697,1.0239911555272,1.05778887256924,1.07081457606997,1.30305029493258,1.08332193912188,1.09137541387288,1.09352556684574,1.10564897400964,1.43888428921317,1.43282738507982,1.18661567189367,1.20535271922853,1.22896600634112,1.24264443485147,1.26738079293648,1.26909899553533,1.28889192156222,1.24772225147039,1.18959133002574,1.15430578391766,1.1278416243366
0.876957167993364,0.886691409644127,0.886847871668491,0.897323148183113,0.904608711158095,0.88560577437078,0.889087294385307,1.06479606752542,0.925887546471587,0.938746229161028,0.93842562599454,0.939654284836171,0.861451109456096,1.25345279309894,0.832829117784421,0.831767479754074,0.83199497361772,0.809006574712865,0.806265129672476,0.799759957039874,0.776862747658421,0.763278388340642,0.748983710630044,0.745122074286388,0.745226702265871,0.742629240683486,0.744110350521483,0.74439159820945,0.746359372135499,0.745954298673649,0.746643499492626,0.748882922209442,0.759738315053193,0.765983357571669,0.764956275571244,0.762605505646905,0.763433890475286,0.850626433083385,0.834956233403994,0.835643514443531,0.844857495866041,0.759303485010022,0.759985006711239,0.757233962773651,0.754901430753992,0.76279076436287,0.768579859264334,0.76962037972084,0.774530215638763,0.77162558934597,0.768767997649459,0.766504577689642,0.758384870547959,0.74321669319214,0.735898493966677,0.732272030604427,0.742322075973078,0.742926806496693,0.742202089758075,0.740303427891867,0.707958023996219,0.663129254291658,0.667567784357049,0.669953110311309,0.657162579791989,0.647666390791792,0.673327122677193,0.696720595043898,0.696158099667964,0.722673133404187,0.725398260319335,0.765461177563976,0.780430657747751,0.882301833954457,0.879005572655895,0.891176974305799,0.892619688554995,0.91879492133033,0.941414722582695,0.963441311988086,0.991930838878398,0.953550608312959,0.926177433167034,0.927754531977034,0.969930166495448,0.991806053214795,0.97080366614067,0.923973526369859,0.92159108008476,0.891665558173292,0.888270428233567,0.895378411610344,0.921698587733402,0.907930889479098,0.847175629539899,0.814513462036643,0.808939382432463,0.804569004537194,0.777890789548567,0.803431535218966,0.808942262101623,0.746105961249412,0.719278963354182,0.697310927221713,0.689963931304649,0.688860058126621,0.71879133937641,0.780763739480599,0.782634564544926,0.789854855018946,0.792100996963802,0.794602469574185,0.811116412317478,0.80760705550107,0.812743425392918,0.831935460455078,0.853477305551857,0.865528720986758,0.874667831011107,0.875721789923693,0.897986431979649,0.901311489969813,0.922234206197176,0.924085833467102,0.970861259523871,0.974336060310358,0.993409069047235,1.28752887815979,1.01347076419574,1.02257051874156,1.02737956623888,1.08422423545871,1.07410699780965,1.10056155849351,1.13035653540306,1.2481158062556,1.11486391532187,1.11965376502479,1.15773259021814,1.19427559185946,1.19311412529823,1.19885426582397,1.23373665824964,1.25964408179309,1.19810555184235,1.30210960300695,1.25435508943576,1.23150971409919,1.1598155509106,1.17716075815143
0.887741528997833,0.885151746533209,0.887942145949318,0.890293875763377,0.892547696825993,0.884718836269478,0.890757502498149,1.10079193202632,0.937566524695119,0.938477460039422,0.938244206837456,0.854714603400968,0.849899796565327,0.838106591465112,0.831728124275553,0.832344373475808,0.807768316974034,0.805508736573098,0.804666913288636,0.950932989046453,0.769181710118789,0.756284631840547,0.748367461429789,0.749011547431925,0.745305413222912,0.74202738982903,0.736857423796981,0.742163694169274,0.745903424518487,0.744204419714045,0.746459200666381,0.748158205470824,0.761824155414805,0.762880993996552,0.761871190011087,0.763027857123716,0.769286338098272,0.0043600494818818,0.973673736403542,0.957336413368733,0.971465990047486,1.01801104257145,0.757164850713809,0.757811816385105,0.752708082743738,0.749679630677062,0.766286682723197,0.767750514546234,0.770883594592392,0.76641914750456,0.765666593964061,0.758654599559286,0.751892176481717,0.736948613320384,0.735884095620877,0.72999133262965,0.73642259375381,0.736694242544577,0.735939769224638,0.710865529958171,0.705228097632471,0.656676875593657,0.640506573370133,0.624045424561441,0.644861593029881,0.66281920991209,0.674075836658812,0.706706327801308,0.718672313051127,0.73721450277283,0.766212771214755,0.781246564009771,0.842362742483699,0.888042934369921,0.914553168657544,0.917944459038388,0.915381553485924,0.948205942351865,0.998342902208158,1.02096750290912,1.05441965965196,1.00908406817523,0.974787208478769,0.968058381541401,1.01751189991704,1.06039977260771,1.06110049210333,0.973145797057528,0.944316469206328,0.92919244677763,0.955544299261449,0.952190444579685,0.94879051519136,0.894183348908914,0.863074282972657,0.832336694358048,0.813012194514525,0.815334167747263,0.830486986867562,0.825282464805592,0.818594913126185,0.787131647883238,0.779134806625718,0.703584766431789,0.689474387547437,0.70361836257199,0.713326687200313,0.775802069517795,0.750937086210293,0.784713685678498,0.78880473566524,0.789225167362611,0.804586282552155,0.806607810302525,0.811293032025962,0.828514413492913,0.855277098776902,0.867717269548413,0.873716580298563,0.876521378060473,1.15743502440494,0.901035041730446,0.921567082841759,0.922177572703694,0.972118715057103,0.974508840459963,0.985873934745047,1.21782168669165,1.01094625423207,1.02841624713651,1.02979848833334,1.0679349069099,1.1079047148517,1.14208638778175,1.58190785749675,0.00420986513628685,1.20944184943584,1.15714705748893,1.14569557312904,1.67250224927261,1.21351178184874,1.22333145368458,1.23675071197052,1.1960993823275,1.73788033810345,1.28502356599053,1.22729579822828,1.16511414216513,1.1680514047084,1.13691258219082
0.888854041183341,0.885625932054901,0.887443963184626,0.887528433479988,0.887730010321193,0.884518219317993,1.21750492308404,1.13117244166508,0.933508110958858,0.942983182385214,0.942632822637406,0.854575419391564,0.847721806790593,0.831073479486497,0.832432683330051,0.83321691323131,0.80481761597468,0.803560160441449,0.804575723765234,0.771947152402179,0.768850548165381,0.751877778135917,0.74961819773498,0.746862354348791,0.745537706535158,0.739659341889731,0.73801793046849,0.740435892673231,0.745360126936954,0.742161774389834,0.743521938123108,0.745982135475529,0.75680585195852,0.753771640553524,0.755467765688806,0.763069132381677,0.769297856774912,0.922434823148661,0.94362438871819,0.948635013056716,0.851680391995972,0.768483870292332,0.753504791211357,0.75319666661123,0.745317891789273,0.748846446400081,0.75239323891557,0.765391105614415,0.762775406127349,0.761736805450283,0.762487439211342,0.755898756173097,0.743926051695238,0.734768703766209,0.731635623720051,0.727372753473424,0.733813613494785,0.731438846327446,0.72598571282799,0.874513288766183,0.691096601174277,0.648178012012564,0.648640678857616,0.634561016444304,0.643754840182694,0.682520946415583,0.694178807065274,0.716584552910075,0.750215249140835,0.766528574932643,0.792864109291222,0.826256752871416,0.902599661974085,0.976207845264405,0.957320095243493,0.971513984533488,0.969728589654243,0.990375817531959,1.00439020744431,1.03693046895312,1.09021394731166,1.03714164469153,1.02699561035087,1.04106759364643,1.08522252076753,1.08455059796351,1.06139805791653,1.01502578554218,0.974729615095568,1.01236689101771,1.00654036041716,0.992909926392822,1.01075427628807,0.937782499882124,0.895902511397477,0.842319547446298,0.828917567175323,0.823094876133657,0.88799493988392,0.85401868335395,0.829561653177459,0.802468765829782,0.779706900898853,0.70358764610095,0.711549931328549,0.682764758404469,0.682776277081109,0.693076853666687,0.727958286202639,0.778141320765493,0.783760515186514,0.795169764398719,0.802277747775497,0.803694545002252,0.81078908992295,0.821899813432227,0.851016148309715,0.859722348070333,0.869429712808936,0.872193235312885,1.15658072255411,0.914951522891354,0.9344113671854,0.927506880429268,0.972435478664711,0.976063861806401,1.2960622977708,1.00484135561272,1.28737529580458,1.05030173275306,1.03371483839104,1.03806313882275,1.11695647491152,1.61509124511798,1.14960232428954,1.160170710107,1.52493840261332,1.52302822207048,1.16516213665113,1.68452006856731,1.19698248086992,1.19074319768977,1.19239420800821,1.19557144298149,1.23133693394958,1.27694129454792,1.20924027259463,1.22641269968586,1.21687139586882,1.14075214107092
0.888917393904863,0.891549411517168,0.887765526240834,0.884619967628315,0.88881564559454,0.889487568398557,1.10466028759802,0.925403762052695,1.1758265114406,0.946740190749388,0.948765558058639,0.843088419112037,0.841754172401204,0.830478347860082,0.830970771286454,0.832455720683331,0.79439033394606,0.795577717529729,0.804988476344844,0.772653631236116,0.76400886441758,0.750578087455004,0.755091488918557,0.747574592521049,0.743141821793978,0.73920339427272,0.736897739165222,0.737762599802964,0.746552309969224,0.743365476098744,0.739901234099177,0.7488138101496,0.747474763990167,0.747277986597562,0.751146342169258,0.764111572617623,1.03127671850218,1.01137820460608,1.01879815214187,0.792685569803297,0.793050327896906,0.764773896524439,0.755010858182075,0.74998583549775,0.742757865905969,0.745668251537082,0.746592625337465,0.758298480473157,0.759164301000619,0.759291966333382,1.33300845309453,0.836507415191552,0.735920571430238,0.73518625579442,0.727682797852992,0.722848793222951,0.726555887321684,0.698353367457659,0.703377430252264,0.658064876128811,0.666559900151024,0.640252202594326,0.636563346400274,0.649429708207476,0.683560506982369,0.712719077007538,0.733734902537743,0.7487898129066,0.782770868885169,0.802476444947542,0.833040293522826,0.855967259485599,0.954320439868418,0.996375128282109,1.03478031598027,1.01794385029105,1.01154138585849,1.02506623201363,1.06439291384301,1.07370384412724,1.12859993721541,1.13254508396471,1.10492905671962,1.11042922481536,1.09547414297739,1.1398498447341,1.08045186885901,1.07059380143436,1.07768738646534,1.04844914559341,1.04433121869451,1.03732402373833,0.988110477792703,0.968931881186623,0.947691441461932,0.898502852649022,0.877676125393662,0.882493811898462,0.882037864281451,0.869360600749094,0.836293359783987,0.799844427335236,0.78722475718608,0.783128907750738,0.71081273602357,0.705324086604473,0.703828578420676,0.702287955420037,0.702707427227688,0.774822982003371,0.779583075124969,0.795537402161488,0.800072881088602,0.799648609832351,0.805924368821868,0.818607391692545,0.849531198912838,0.86000455564802,0.864904792668743,0.873371019999354,0.90201604902431,0.90282331627885,1.20737808653778,1.02449989707881,0.974768010684369,0.984558885828614,1.18155705306914,1.00844094206281,1.37366938163474,1.03114233394138,1.03392601412945,1.03734322153273,1.47855653134176,0.00413132695939448,1.17422349560816,1.13021255194506,1.13118204056228,1.16094822078022,1.18039558650791,1.17119984299008,1.70480253835142,1.19050322525976,1.19279736169062,1.19397802604625,1.21077609614667,1.3161335918165,1.22652788645226,1.2121583373435,1.19700167866432,1.18136507512513
0.927966667605159,0.915016795392315,0.885546261208139,0.885927337426988,0.891414067066645,0.892311563954868,1.1078183247769,0.941151712799409,0.939085070232197,0.94720285759444,0.944776256382219,0.836876972733762,0.8408192398139,0.831459355153946,0.831728124275553,0.807382441306584,0.795575797750289,0.800156391494244,0.800127594802643,0.769147154088869,0.765243282597531,0.747631226014531,0.754428205122021,0.756223198898465,0.742380629245999,0.740070174689902,0.732279709722187,0.736213337794845,0.74599845360077,0.739265787104522,0.738521872571503,0.750697113780287,0.743535376579188,0.745373565393034,0.751875858356477,0.765690591207062,1.1238580819985,0.796776619790039,0.798983406256375,0.79761172384646,0.792700928038817,0.764960115130124,0.754943665901673,0.749693069133142,0.739912752775818,0.741776858612104,0.746280661178457,0.746341134230818,0.760384320834769,0.799979771785759,0.718636797131486,0.717036660968206,0.703262243485861,0.723062848630516,0.722919825062233,0.719260725449501,0.71840162415008,0.699136637469198,0.692441406672031,0.643173147012359,0.650926176280993,0.649346197801834,0.656487777318812,0.679250602139461,0.679697910748992,0.712857301127221,0.758353194187199,0.803465131359166,0.829124903354848,0.868544694487073,0.883633200996131,0.932559739915474,0.996999056600125,1.08497294944032,1.06472887524502,1.07011385657435,1.09084747452687,1.09034833187246,1.08719989359078,1.13344738030154,1.18302568434078,1.14233595910896,1.14116489365053,1.16114019872423,1.13481042370397,1.15838531522776,1.12320535698888,1.11449915722826,1.11484471752747,1.10824067625371,1.11547824474269,1.11311691603143,1.05874876228927,1.01630243886981,0.961847895052846,0.934181953542314,0.94238613097936,0.915909492831938,0.898698670151907,0.863420803161585,0.841779129533924,0.8496204686568,0.796681590707757,0.780133091934543,0.768453153821291,0.740888000731362,0.702574002556604,0.701429814010336,0.70240026251728,0.702589360792125,0.775551538300869,0.777249583215591,0.791733359201033,0.798654164082406,0.807768316974034,0.81400280070559,0.849429450602516,0.858671268826907,0.858990912103675,0.875134337415038,1.22079734482372,0.911647582475031,1.17056631577486,1.24151176498184,0.977561289769639,1.25842502184866,0.997383012488134,1.27257379632181,1.08743026712359,1.03009605414655,1.03028803209056,1.09498459922017,1.08735347594598,1.10171342615754,1.1679938113252,1.13137401850628,1.13103805710428,1.17382034192575,1.18197940454595,1.20715731190218,1.20024610591801,1.22597115041465,1.19320051537303,1.19300853742902,1.20728209756578,1.2920211620495,1.21350218295154,1.2358868112225,1.21364616640954,1.04885229927582
0.983080655659777,0.825527236684198,0.886759561814249,0.887893191573597,0.894545227333364,0.895693255438512,0.894869670058732,0.935989425885119,0.944981672782304,0.94760025193853,0.839115435560858,0.838957053757054,1.07794655668975,0.820080822412782,0.820373588777389,0.808492073822932,0.795383819806284,0.802632906971906,0.78959472490482,0.772856167967041,0.763933033129698,0.747250149795681,0.754958064247474,0.755380415724284,0.739843640715976,0.733542924593738,0.732942993518723,0.73479558067837,0.748307948267148,0.735800585215235,0.735523177086148,0.75118281797862,0.73722122200087,0.742701232412487,0.768472351615692,0.766370193128839,0.774851778694971,0.800236062341006,0.799164825413459,0.800374286460689,0.768728642170938,0.765716508229503,0.753004688667225,0.752556420167974,0.738330854517218,0.738226226537736,0.739817723693535,0.748373220768109,0.751530298057268,0.741079978675367,0.716943551665363,0.715666898337731,0.703319836869063,0.708700018749797,0.715878074076137,0.710896246429212,0.713500427239637,0.698843871104591,0.677433530899456,0.656488737208532,0.646250553454756,0.6568083804853,0.68240096020058,0.688875416362142,0.713164465837629,0.760531183961933,0.779305666995882,0.862757519365049,0.89200439924446,0.891659798834971,0.952208682484365,0.988638417138716,1.00836415088521,1.09177856755529,1.13790126860245,1.16993278855965,1.13685498880762,1.11539185466788,1.1200665176044,1.21738013742043,1.28075205673642,1.25062111842487,1.2558813140906,1.2319128677816,1.2640307778136,1.20052447393681,1.19159749954059,1.17115184850408,1.18047237768551,1.18039558650791,1.19081998886737,1.13787247191085,1.10074393754032,1.0520871276323,1.02142824997474,1.00935283729683,0.963806070081695,0.916480627215352,0.894763122299809,0.878133992790113,0.851238842724761,0.838925377396293,0.802122245640853,0.790893455696012,0.782932130358133,0.757340510532573,0.74159543945502,0.713067516975907,0.713057918078706,0.729343407068634,0.77598828812348,0.777976219733649,0.987956895437499,0.796878368100362,0.804078500890262,0.809523955271958,0.849060852950026,0.858909321477473,0.862291972850837,0.873847125300486,1.23436058656766,1.22755496845269,1.25499821554817,1.22765095742469,1.23960158443899,1.27053883011536,1.07441416252006,1.00439980634151,1.08427222994471,1.03376283287704,1.0359033869527,1.05423728060516,1.14878641802752,1.12623860850416,1.41003000422925,1.16751386646519,1.19421799847626,1.18039558650791,1.19442917421466,1.22252514631976,1.21710176940163,1.23242160933321,1.1918278730734,1.27691249785632,1.28080965011962,1.3319141788137,1.21433728700796,1.13308262220793,1.19674250843992,1.15768459573214
0.921491251553877,0.811510926992408,0.951714339278553,0.89080645687387,0.895374572051464,0.898950161258554,1.0281858736037,0.957910427421308,0.944715783329858,0.947549377783369,0.838209299665155,0.838561579192404,0.824710370532458,0.819904202704297,0.818528680735503,0.807972773484399,0.794831883217271,0.801832358945406,0.790632365692166,0.773296757348532,0.760298890649687,0.748653508566356,0.755966908343219,0.755630946941211,0.740768014516359,0.731225750809601,0.73001820954181,0.734201408941675,0.749016346880525,0.736196059779885,0.735754510508674,0.753254259994431,0.735130582190658,0.742669556051727,0.768346606062368,0.76881119268686,0.776139950699243,0.796199726068305,0.796384024894549,0.799423035748145,1.11713885395833,0.758465501284441,0.753185147934589,0.749072980374007,0.737379603804674,0.729278134567672,0.735000997078455,0.745364926385554,0.743101506425737,0.738079363410572,0.715254145758121,0.709451612400576,0.709416096480935,0.706552745446104,0.709018702136845,0.708685620403997,0.708315102972068,0.696634204969096,0.675383206457485,0.648740507388498,0.674444434311301,0.706620897616225,0.690216382301015,0.717237277919691,0.738169593044254,0.765260560612491,0.866621075488145,0.942061688253991,0.941354249530334,0.977522894180838,0.993370673458434,1.02153383784394,1.13052931555266,1.12423243898931,1.2440842694315,1.22047098231891,1.18555979320164,1.16936645362483,1.18707641895928,1.22094132828172,1.29172359623629,1.33799987963865,1.27022206650776,1.23652033843771,1.23045383540716,1.22373460736699,1.28337255567208,1.24569688416114,1.25243530999571,1.24272122602907,1.23086658798677,1.22469449708702,1.17643124196421,1.17150700770049,1.07697706807252,1.03367644280224,1.03897503405677,1.01458423627096,0.922280280903737,0.87241496983821,0.850170485466374,0.842055577773291,0.830283490246917,0.819308111188162,0.768316849481048,0.772633473551996,0.765427581423776,0.716475125481992,0.692785047191799,0.719534294019708,0.768501148307292,0.767526860241468,0.786286944929617,0.785540150727438,0.806598211405325,0.810309145062937,0.842489447926742,0.859951761713419,0.862325568991038,0.869184940930329,1.22988750047235,0.998765253684969,1.20318336846128,1.01561131827139,1.24427624737551,0.980988096070124,0.994071392954052,1.01879815214187,1.08460819134672,1.03453074465306,1.51775842750754,1.0678485168351,1.1880843031653,1.22094132828172,1.14737538013908,1.192048647709,1.18879462155812,1.19409321281265,1.19044563187656,1.17700717579622,1.23037704422956,1.24713671874118,1.27026046209656,1.24094543004702,1.32902491075643,1.19474593782227,1.19093517563377,1.1399458337061,1.18502225495843,1.29255870029271
0.9680007881582,1.05084886989347,0.955307206500602,0.896687701188457,0.896379576588329,0.89841646257422,0.972032324982301,0.943783730411714,0.948659970189436,0.948874985486722,0.838766995592489,0.826053256250771,0.819345546887243,0.818555557647664,0.807097354059737,0.806491663646402,0.793764485848604,0.800170789840044,0.78482311310658,0.769002210741145,0.76321023617052,0.74758707108741,0.748743738200038,0.753163070471029,0.740574116792914,0.729342447178913,0.732272030604427,0.733340387862813,0.74682011920111,0.73880024059031,0.75479008354647,0.754264063979896,0.729254137324671,0.730061404579211,0.768977253608424,0.772169846817224,1.15953718289179,0.795276312157642,0.796485773204872,0.798702158568407,0.776169707280564,0.755948670438539,0.750172054103434,0.748701503052357,0.735471343041267,0.724579474388154,0.73320984286089,0.73640627562857,0.735148820095339,0.730108439175493,0.714320173060538,0.706738004162068,0.708853601105001,0.705397038223195,0.699007052356995,0.671107857644498,0.699146236366398,0.67361412970348,0.652337214169428,0.636075722422502,0.694114494454033,0.701893440745107,0.714233782985736,0.734976999835454,0.77598828812348,0.802752893186909,0.882068580752492,0.992333992560808,1.01932609148788,1.02584374268685,1.06049576157971,1.07049781246236,1.11256017999381,1.16031469356501,1.27937941443678,1.25038114599486,1.19903664487078,1.20166674270364,1.21061291489427,1.30945275936514,1.32768106514839,1.33550416636659,1.34857786435331,1.29268348595632,1.28889192156222,1.29648464924761,1.27681650888432,1.35362688428064,1.32730670815758,1.27504071290228,1.25899135678347,1.25809865934385,1.27264098860222,1.19656012939311,1.13227631484311,1.13514638510598,1.09298802860252,1.0278307144073,0.971379599972684,0.885584656796939,0.873855764307966,0.849983306970969,0.82640073632942,0.819543284169568,0.799368322034104,0.77598636834404,0.761332691878153,0.763794809010015,0.728678203492657,0.699343973648723,0.736725918905338,0.765077221675967,0.78601433624913,0.78562270124336,0.796793897805,0.810376337343339,0.841486363169317,0.859284638358002,0.86201648450119,0.875156414878599,0.903652660996951,1.00097300004102,1.20728209756578,1.32468620922192,0.977782064405244,0.981132079528128,0.981564029902139,1.02204257939555,1.28100162806362,1.46608756387865,1.59856194413916,1.52308581545368,1.49529700805898,1.12276380771767,1.15375864677724,1.10884540677732,1.11088037298377,1.10350841993399,1.10532261150483,1.21826323596286,1.22165164667454,1.2401679193738,1.21022895900626,1.23499411378287,1.17772709308624,1.22358102501179,1.19838391986116,1.09429347862176,1.06176281601014,1.33711678109623
0.775428672416705,1.04644297607856,0.908160303122184,0.896055133862961,0.896652185268816,0.905248957601351,0.987899302054297,0.945181329844069,0.94881835199324,0.832279100974847,0.83120018492954,1.02176421137674,0.812976678594884,0.809914630388008,0.804562285309154,0.791422354931745,0.792971616939864,0.783823867908035,0.775582254771909,0.769318014459033,0.767420312482545,0.745560743888439,0.747248230016241,0.747702257853812,0.737457354871996,0.728347041539248,0.729255097214391,0.741007986946365,0.741893005268227,0.738382688562099,0.755350659142964,0.72641478353284,0.72559695749138,0.742659957154526,0.767715958516313,0.770984383012995,1.18359201927559,0.800760162128139,0.796578882507714,0.795581557088609,0.773280439223292,1.06435451825421,0.75000503329215,0.745825673451165,0.720640086977176,0.719136899675618,0.732317145421268,0.734114058977153,0.730223625941895,0.726747865265689,0.710879928303972,0.705692684256962,0.705967212716889,0.696663961550416,0.681883579641487,0.676482280186912,0.676377652207429,0.657511019760358,0.655709306755873,0.647534885900148,0.697133347623508,0.71040574278228,0.743015116350935,0.776308891289968,0.804068901993062,0.872982264662744,0.950031652599351,1.00464937766872,1.07672749674532,1.11427838259266,1.08982999142365,1.18495506267802,1.16119779210743,1.20330815412488,1.29262589257312,1.33180859094449,1.3200499418742,1.24371951133789,1.29922033494968,1.29113806350708,1.39296316500722,1.4840854961291,1.33947810980749,1.31061422592637,1.35367487876664,1.3162007840969,1.30976952297274,1.29413291943355,1.31513530650768,1.28274862735407,1.28370851707409,1.26966533047014,1.26050798254111,1.24620562571276,1.22884122067752,1.14996708238315,1.12055606136161,1.10157904159674,1.00184649968625,0.944043860525841,0.907395271015325,0.875654597643291,0.835397782675205,0.823722644010553,0.78920692945793,0.78800610741818,0.786508679454943,0.763357099297684,0.738973020739914,0.716292746435187,0.724196478389865,0.736526261843573,0.794608228912505,0.790542136058483,0.797883372637227,0.808680212208057,0.836907689204802,0.856356974711929,0.862055839979711,0.872888195470182,0.888363537536409,1.14527322165223,1.20459440634971,1.02709159932288,0.974854400759171,0.98160242549094,0.982619908594165,1.18075074570432,1.08656636637556,1.05523556591398,1.0641433425158,1.07254237756601,1.08828456897441,1.13351457258194,1.18945694546494,1.53548759063639,1.10736717660848,1.10185740961555,1.1041419471492,1.1961473768135,1.22619192505025,1.23575242666169,1.22341784375939,1.31662313557372,1.21720735727083,1.19786557941235,1.14135687159453,1.09491740693977,1.17029754665326,1.2799361504744
0.772439575828551,0.776686127949937,0.902950021721894,0.898837854161311,0.901739600784943,0.904740216049738,0.948670528976357,0.946649961115706,0.945751504337764,0.949018968944725,0.811851687843016,0.811180724928719,0.801073086176867,0.800782239591699,0.799467190675267,0.790519098705203,0.789687834207662,0.772367584099549,0.771293467502842,0.769689491780682,0.767892578224797,0.7464265644159,0.738456600070541,0.736907338062423,0.735158418992539,0.732972750100044,0.728963290739504,0.735246728846781,0.738132157345173,0.738575626395824,0.754158476110694,0.726175770992554,0.726379267613199,0.959433772406986,0.767034436815096,0.768244857752046,0.799407677512625,0.801123000442308,0.799445113211706,0.778966825924714,0.776769638355579,0.754234307398576,0.752513225130573,0.746084843675572,0.717178724646769,0.71760107612358,0.727247007920101,0.731709535228493,0.729415398797635,0.724900077554642,0.709482328871617,0.703982160775879,0.701238795956051,0.695134857226418,0.705855865509366,0.668469120804152,0.659731244682773,0.633918850221608,0.660377250464349,0.655315751970663,0.701680345227262,0.736671205191297,0.762590147411385,0.82560114819264,0.849589752185759,0.894646015753966,1.04474397127412,1.09819063088505,1.15226121881401,1.18290089867717,1.18992729142775,1.14566677643744,1.20908669023943,1.19500510804667,1.27329371361183,1.32565569783914,1.28925667965583,1.29651344593921,1.28643460387896,1.29978666988449,1.32465741253032,1.33315243655253,1.34878904009172,1.36370572634089,1.34267454257517,1.41886098965347,1.32063547460342,1.32953365230804,1.3439511959028,1.31788059110695,1.37025217423146,1.28474519797172,1.30970233069234,1.31467455944207,1.3161335918165,1.27579902578109,1.2361939759329,1.14371820030579,1.04579984996614,0.997930149628548,0.94521492598427,0.911923070824678,0.853652965370621,0.810608630655585,0.815320729291183,0.824908107814783,0.793926707211288,0.776544064271373,0.771462408093566,0.728732917206698,0.719581328615989,0.745887106393247,0.777430042482956,0.78678608758403,0.904943712670383,0.803653269744291,0.835085818516197,0.85480099347577,0.855332772380663,1.26329166272918,0.889862885279086,1.3279594331672,1.21059371709986,1.34209860874315,0.968999073467025,0.981276062986132,0.985816341361845,1.32986001481285,1.30571878835424,1.06464248517022,1.06350981530059,1.06530480907703,1.12770723977579,1.42929499091013,1.17079668930767,1.10161743718554,1.10328764529838,1.10162703608274,1.1039115736164,1.223926585311,1.16984639848485,1.26712162271208,1.2999210544453,1.28970782782424,1.22758376514429,1.10500584789723,1.11778198007074,1.13458964906836,1.10756875344969,1.09770108712784
0.772367584099549,0.773333233157893,0.935811846286915,0.897871245213247,0.903115122753738,0.911354816110424,0.977532493078038,0.947317084471123,0.946319759052018,1.0680308958819,0.812032147110381,0.809365573468154,0.799564139536989,0.797361192629534,0.797496537080057,0.789367231041174,0.79198772997684,0.768887023974742,0.767960730394919,0.768936938240183,0.747013057034835,0.740196880132945,0.737549504285119,0.733351906539454,0.733663870698462,0.733456534518936,0.731739291809813,0.73802177002737,0.732155883948304,0.739914672555258,0.710478694401002,0.725478891055817,0.725751499736304,0.731933189533258,0.76640858871764,0.767275369134822,0.800160231053124,0.800641135802856,0.799432634645346,0.77641639893861,0.772134330897583,0.75558583212437,0.754771845641789,0.739765889648654,0.738088962307772,0.715886713083617,0.720665044109897,0.729287733464872,0.730693012014987,0.713381400914354,0.709178043830369,0.699011851805595,0.700559194034274,0.675650055799651,0.66758218270285,0.659034364746036,0.655863849000797,0.643521586980728,0.646027859039711,0.659514309606048,0.718622398785685,0.811923679572018,0.808521830404253,0.81842117308686,0.879154355562499,0.960350467089609,1.04840115110741,1.10764554462729,1.18164344314394,1.18421594759361,1.21661222564441,1.1958786076919,1.19702087645873,1.22125809188933,1.30949115495394,1.39017948481915,1.32869854825162,1.35288776919622,1.35232143426141,1.36593267049135,1.32232488051066,1.33327722221613,1.34240577345356,1.37515721070078,1.34769476581089,1.34860666104491,1.33716477558223,1.33747194029264,1.41302486015573,1.39673553160692,1.42186544447715,1.30706263396228,1.31929162899538,1.35314693942063,1.31727586058333,1.25016037135925,1.22988750047235,1.16070824835022,1.13736373035923,1.05944948178489,1.01275084690572,0.949030487621366,0.872543595060693,0.858621354561465,0.839741283658313,0.800975177425424,0.803028381536556,0.778623185404945,0.763964709490459,0.748302188928827,0.717630832704901,0.736360200922009,0.73399887221075,0.762908830798433,0.907866576867856,1.13314021559113,0.831963297256959,0.853536818714498,0.858678947944667,1.41832345141026,0.891510056038648,1.34129230137833,1.34050519180791,1.07785056771775,1.0081337773524,0.980460156724111,0.984894847230622,1.02078512386232,1.00724107991278,1.09033873297526,1.05728972991483,1.06845324735871,1.60275666221567,1.07757219969894,1.17717035704863,1.20652378468696,1.10042717393271,1.10107989894233,1.10061915187671,1.16100581416342,1.24753027352639,1.27075960475097,1.29954669745449,1.26903180325493,1.26656488667446,1.22207399815135,1.13495440716197,1.08175731887824,1.13369695162874,1.11381763552705
0.776629494456456,0.788835452136281,0.935157201497859,0.917880146427147,0.904707579799258,0.969747787448643,0.955164182932319,0.94759833215909,1.08040387437301,0.808215625583565,0.806824745379251,1.12548029562534,0.796111416214063,0.796942680711603,0.798196296685955,0.789032229528886,0.771901077695617,0.769039646440226,0.76879583445134,0.762133239904653,0.762674617706747,0.735544294659988,0.73401135077711,0.731134561286198,0.733415259260975,0.733136891242168,0.734924205900853,0.737531266380438,0.728597572756175,0.704648324241576,0.706359807612379,0.725347386164173,0.729047761034866,1.01092705643767,1.04640458048976,0.775478586682147,0.798441068564561,0.799394239056545,0.779579235566089,0.779244234053801,0.771872281004017,0.758894571989292,0.751578292543269,0.740163283992744,0.738577546175264,0.713715442536923,0.715268544103921,0.726131616065433,0.726655715852566,0.853030956832046,0.691714770153973,0.693060535541446,0.698272736721177,0.675096199431197,0.650659326938826,0.65481756920597,0.633749909630884,0.660680575615877,0.654131248056153,0.658259733741976,0.778252667973016,0.823125592604698,0.85322869411437,0.871734408026713,0.926892551008452,1.00179850520024,1.04201788446925,1.18603013916445,1.18223857477036,1.21932871355208,1.31744864073294,1.25629406667021,1.20341374199409,1.22076854813212,1.29520799591998,1.32896731737322,1.33515860606738,1.35096798975617,1.34932657833493,1.33498582591777,1.34342325655679,1.36035571121801,1.3601829310684,1.36022132665721,1.35352129641144,1.35312774162623,1.41655725432541,1.32208490808065,1.38561040975184,1.40525935232073,1.36253466088246,1.45621989755681,1.32234407830506,1.344056783772,1.29064851974987,1.2761157893887,1.27008768194695,1.25111066218208,1.16147616012624,1.08709430572158,1.04724928344338,0.98079611812612,0.901330687764213,0.854479430419562,0.835116534987238,0.834668266487987,0.80399307070518,0.799954814653039,0.788877687283962,0.749530847770458,0.742697392853607,0.740190160904905,0.758972323056614,0.770757849039069,0.901696405747542,0.803673427428412,0.828331074556388,0.851891567734377,0.85642416699233,1.21873358192567,0.889670907335082,1.35679452035672,1.34527584371643,1.08823657448841,1.01173336380249,0.979077915527277,0.983666188388991,1.03489550274667,1.45266830559272,1.15291394382362,1.03129591629658,1.06502644105823,1.48827061530841,1.16945284369964,1.17668081329142,1.1441309528854,1.09702916432383,1.10180941512955,1.1000144213531,1.2440938683287,1.25248330448171,0.00428237520573746,1.29533278158358,1.26098792740112,1.20766605345379,1.2240129753858,1.15127253240238,1.15002467576635,1.11750361205194,1.06728218190028
0.788496611065112,0.787712381163853,0.868539895038473,0.925530467495738,0.985883533642247,1.27522309194908,0.0039562046788733,0.965322695839333,0.812228924502986,0.803525604411528,0.806705719053967,0.7919954090946,0.792059721705841,0.79958717689027,0.789959482998429,0.788271036980907,0.76880927290742,0.768212221501565,0.762932828041433,0.762118841558853,0.752583297080134,0.731847759348176,0.730920505878633,0.727852698333436,0.729397160892955,0.730870591613192,0.733353826318894,0.736454270114571,0.727055029976096,0.704958368621144,0.704639685234096,0.725523045982938,0.7327884512738,0.93280643157352,0.812730946826558,0.776503748903132,0.00431153665543179,0.928922717766303,0.891399668720845,0.778753730406869,0.768237178634286,0.752380760349209,0.751672361735832,0.73081395811971,0.730103639726892,0.713717362316363,0.704287405706847,0.721810192545885,0.718749104228729,0.687737947043913,0.68878902628734,0.692166878212104,0.669307104529733,0.666212420072375,0.630349980242559,0.642311166043778,0.632620119430415,0.681086871173867,0.706514349857303,0.721981052916049,0.831520788096028,0.883090863304317,0.915773188491694,0.926045928275391,0.95640820000947,1.02855063169731,1.06724378631148,1.18097152033992,1.20969142076304,1.29662863270562,1.31292756015162,1.24240446242146,1.23865129361617,1.2438538958987,1.27472394929467,1.39918325039298,1.41085550938847,1.3159032182837,1.29685900623842,1.38449693767661,1.33497622702057,1.3559978118891,1.37221994815751,1.36602865946335,1.36510716533213,1.37711538572963,1.38721342558428,1.39801218493455,1.37937112657168,1.38321068545178,1.42491789378682,1.42206702131835,1.31674792123732,1.30949115495394,1.30527723908303,1.29931632392168,1.28880553148742,1.28907430060903,1.24441063193631,1.19062801092337,1.1200665176044,1.02257051874156,0.960561642828014,0.896341180999528,0.862456113992961,0.825855518968446,0.824708450753018,0.80161446397896,0.804477815013792,0.772479891196792,0.758565329815324,0.753981856402209,0.739151560227839,0.736255572942526,0.770134880610773,1.38943077083754,1.24985320664885,0.85039893921974,0.858365064006219,1.40822541155561,0.892372996896949,0.897874124882407,1.06685023152627,1.05452524752116,1.05452524752116,0.97442245038516,0.982456727341761,1.22925397325713,1.09834421324026,1.09884335589467,1.03067198797857,1.06842445066711,1.15357626773044,1.14930475847633,1.17150700770049,1.19344048780304,0.00434233951654736,1.10103190445633,1.0999760257643,1.1080390994125,1.23666432189572,1.13633664835881,1.26219738844835,1.25785868691385,1.2439882804595,1.21963587826249,1.11083237849777,1.06857803302231,1.13037573319746,1.08104700048543
0.785735968230323,0.787151805567359,1.16119779210743,0.00409654055594081,0.92242522425146,0.98079611812612,1.26680485910447,0.00432246979934286,0.806749873981089,0.799647649942631,0.795666027383972,0.789805900643225,0.790066990647071,0.793961263241209,0.788622356618435,0.786992463873835,0.767726517303233,0.766568890300884,0.759109587286578,0.752943255725143,0.732136686153903,0.730534630211183,0.731821842325735,0.72640614452536,0.72920134339007,0.72961313607996,0.731110564043198,0.731946627989339,0.728150264146644,0.704154940925484,0.70841589139267,0.73399407276215,0.732664625499916,0.745710486684763,0.771796449716135,0.773907247210468,0.841794487769445,0.942260385426036,0.852088345126982,0.765138654618048,0.765287437524652,0.751826903980756,0.750130778845473,0.729459553724756,0.728244333339206,0.702094057696592,0.702126693947073,0.705469029952197,0.685540759474778,0.688430987421771,0.688642163160176,0.689502224349318,0.66598684598817,0.663335630581463,0.637857277742866,0.633252686755911,0.685391016678455,0.68080178392702,0.713649210146241,0.782776628223489,0.842182283216334,0.933125114960568,0.953188729888509,0.986901016745472,0.995184865029279,1.01420028038295,1.13641343953641,1.21001778326785,1.19422759737346,1.33845102780706,1.29646545145321,1.27380245516344,1.25036194820046,1.26747678190849,1.29937391730488,1.40452983613351,1.39121616571678,1.33039755305606,1.319896359519,1.32674037322277,1.33411232627255,1.36970503709104,1.37266149742872,1.38972833665074,1.37977428025409,1.37879519273967,1.38906601274393,1.35272458794382,1.39225284661441,1.48247288139946,1.38640711821946,1.42081916468232,1.41886098965347,1.34558300842684,1.32874654273762,1.32045309555661,1.30936636929033,1.30634271667226,1.27874588722157,1.23501331157728,1.1681569925776,1.04292018080607,0.995501628636887,0.904832365462861,0.892186778291264,0.853376517131254,0.825705776172122,0.805172775171089,0.787817009143335,0.768948456916824,0.759959089688799,0.756332626326548,0.729457633945316,0.719256885890621,0.768696965810177,0.794144602177733,1.39351030214764,0.848219989555285,0.853529139596738,1.29300984846112,0.894341730712718,0.98880159839112,1.06554478150704,1.06107169541173,1.37291106875592,0.974499241562762,1.33277807956172,1.09741312021184,1.51809438890955,1.02113068416153,1.21473084179317,1.03924380317838,1.04264181278727,1.15828932625576,1.19267257602702,1.20220428094685,1.2079252236782,1.09685638417422,1.09976485002589,1.10744396778609,1.25057312393886,1.18730679249208,1.26591216166485,1.14450530987621,1.15715665638613,1.22074935033772,1.14118409144493,1.08191090123345,1.20644699350936,1.15689748616172
0.78362613062571,0.784183826553045,0.944907761273863,0.899433945677446,0.922570167599184,0.967722420139393,0.998861242656971,1.3001514279781,1.09828661985706,0.789392188173895,0.788350707827669,0.788147211207023,0.779905598070898,0.779953592556899,0.783628050405151,0.896136724489163,0.765646436279941,0.755270028406482,0.755649184845891,0.756490048240632,0.728264491023326,0.729297332362072,0.728089791094282,0.723172276058599,0.728261611354166,0.728366239333649,0.731065449226357,0.731543474306928,0.727007035490095,0.702117095049873,0.707075885343517,0.729411559238755,0.738115839219933,1.06524721569383,0.771400015261765,0.770286543186537,0.902703330063848,0.730573025799984,0.729513307549078,0.764149968206424,0.762234988214976,1.18100991592872,0.738061125505891,0.736958212217584,0.727064628873296,0.695721349845353,0.704874858215502,0.70521369928667,0.68520959752137,0.687498934503627,0.688478022018052,0.688726633455538,0.656512734451533,0.65598959455412,0.62999866060503,0.670743099550888,0.675561745945409,0.7135944964322,0.741057901211806,0.808627418273455,0.829154659936169,0.962999762716875,1.05442925854916,1.03797674874795,1.04671174520017,1.11390402560185,1.15844290861096,1.1958786076919,1.21366536420394,1.30766736448589,1.31472255392807,1.27336090589223,1.25830023618506,1.29704138528523,1.33684801197462,1.36156517226524,1.41061553695847,1.38643591491106,1.32507016510993,1.33273968397292,1.34577498637084,1.36430085796731,1.37812326993565,1.39497893341927,1.48335597994188,1.38987232010875,1.38912360612713,1.35324292839263,1.37933273098288,1.41478145834337,1.40893572994842,1.38102213689013,1.42298851544957,1.41230494286571,1.33623368255381,1.32628922505436,1.33699199543262,1.33536018290858,1.28493717591572,1.30946235826234,1.23788338184015,1.0999952235587,1.04758524484539,0.971034039673475,0.892254930461386,0.873149285474028,0.83198633461024,0.808137874516243,0.786961747402794,0.778745091399388,0.768938858019623,0.766905811592613,0.75998692649068,0.741844050892506,0.737679089397322,0.804954880204644,1.42289252647757,0.846188862907715,1.28624262593496,1.27789158537075,1.2239073875166,0.901107033459447,0.914448540678061,1.05554273062439,0.966954508363374,1.01286603367212,1.28136638615723,1.02373198530279,1.01231889653171,1.0241159411908,1.02509502870523,1.54219721977935,1.07945358355019,1.53490205790717,1.18076994349872,1.19738563455233,1.10051356400751,1.21034414577266,1.12102640732443,1.64700757830877,1.11331849287263,1.11493110760227,1.11864588081877,1.28037769974561,1.24374830802949,1.19148231277419,1.11670690358432,1.1679458168392,1.13874597155607,1.10107989894233
0.782750711201049,0.78319034069282,0.938968923576074,0.936052778606641,1.01662880137462,1.01224210535411,1.1238100875125,0.922500095649622,1.09793146066065,0.78840158198283,0.78400720684456,0.783748996509874,0.775761754149554,0.772889764107242,0.770420927747341,0.759404273430625,0.764659669647756,0.75402025199101,0.754632661632386,0.750927487313093,0.726168091874794,0.727126061815378,0.722594422447145,0.721883144164607,0.725437615797856,0.727103984351817,0.731437886437726,0.731823762105175,0.705796352346725,0.70641164165726,0.70640972187782,0.728194419073765,0.738604423087425,0.00380336143875388,0.770307660760377,0.770899912717632,0.865788851100885,0.729913581562328,0.728898018238542,0.761562105521239,0.75719556718485,0.748046858263301,0.735733392934833,0.730547108777544,0.721645091514041,0.696493101180252,0.702497211379002,0.703311197861583,0.685294067816732,0.686733902396768,0.688094066130042,0.687981759032799,0.648945923788584,0.655420379950145,0.658979651031994,0.666200901395735,0.723650301139171,0.716382976068869,0.803261634738521,0.835896925329617,0.868444865956191,0.981938386892948,1.10324924970958,1.08697911895517,1.13411930310555,1.14316146426818,1.18375520052799,1.19826873309476,1.29365297457354,1.56871897274362,1.34089874659312,1.31069101710397,1.27085559372297,1.30714902403708,1.31978117275259,1.36600946166895,1.37728816587923,1.38157887292774,1.37064572901667,1.35503792216908,1.37053054225026,1.38292271853577,1.39525730143808,1.40622884093796,1.39117777012798,1.39244482455841,1.37488844157917,1.36957065253024,1.41753634183984,1.4199264672427,1.42610815703965,1.38537043732183,1.3799566593009,1.46328468589618,1.34497827790322,1.35647775674911,1.38931558407113,1.3359361167406,1.31285076897402,1.28249905602686,1.22842846809791,1.19353647677504,1.16097701747182,1.03036482326816,0.930068826092012,0.91200370156116,0.832470119029132,0.8056095249937,0.789092702581247,0.775271250502622,0.783446631248066,0.783059795690896,0.762288742039297,0.732659826051316,0.731920710966898,0.783300728010622,1.41281368441732,0.847407922852145,0.851752383724974,1.18311207441558,1.28762486713179,1.2599800431951,1.25064991511647,1.05514917583918,1.05464043428757,1.02344401838679,0.973030610291126,1.03181425674539,1.03770797962634,1.01831820728186,1.08646077850636,1.14489886466142,1.04340972456328,1.16029549577061,1.17928211443268,1.08677754211397,1.08685433329157,1.2160458907096,1.14830647316751,0.00391006278003175,1.10621530894446,1.25748432992304,1.25135063461208,1.20995059098745,1.22304348676858,1.22524163422743,1.16507574657633,1.14030099290251,1.09506139039778,1.00539809165033
0.782536655793483,0.785561268301279,0.964833152082121,0.939817466088575,0.00412362864383989,1.04097160467442,1.02244573307796,0.00447811591744475,1.10035998165231,0.786176557611814,0.780226201237386,0.768319729150208,0.765557166535979,0.76399254629234,0.766836699532771,0.756085934668502,0.758195772273115,0.753406882459915,0.753568143932879,0.750758546722369,0.725477931166097,0.72561999484466,0.720555616681814,0.720944372018423,0.723104123888477,0.725939638121428,0.73201478015946,0.731578990226569,0.705243455867991,0.705964333047729,0.712309204097088,0.718584963086604,0.717852567230226,1.08731508035718,0.768828470701821,0.765636837382741,0.738490196210742,0.728364319554209,0.730274500097057,0.7616225785736,0.756876883797802,0.745300613774312,0.738614021984625,0.727381392480904,0.723067648079117,0.694728823874848,0.701954873687189,0.700772289552119,0.69802028572481,0.686953717142654,0.688270685838527,0.665846702089046,0.63602100870846,0.635931738964498,0.699291179714122,0.697820628663045,0.72922630052279,0.72961793552856,0.797757627083904,0.851127495517238,0.881758536372924,0.975055977600376,1.18617412262245,1.22979151150034,1.19441957531746,1.1959745966639,1.20088923203042,1.24674316395597,1.3041349703162,1.31676711903172,1.37740335264563,1.24313397860868,1.26297489912157,1.2601528233447,1.32949525671924,1.33098308578527,1.3802158295253,1.38098374130132,1.40850377957441,1.43516951599668,1.36696935138897,1.36742049955739,1.39164811609079,1.41082671269687,1.39231043999761,1.40166936476784,1.3761458971124,1.36673897785617,1.39338551648403,1.45911876451128,1.42281573529997,1.44181195285925,1.4360910101279,1.41665324329742,1.37568515004679,1.37523400187838,1.36964744370784,1.35544107585149,1.31898446428497,1.34048599401351,1.2679759245629,1.21010417334265,1.144159749577,1.03397400861545,0.960964796510424,0.917737122858863,0.858055979516371,0.822617810942805,0.79880294698901,0.775549618521429,0.785711011097603,0.762537353476783,0.764840128915121,0.716528879306313,0.738304937494777,0.78882393345964,0.786125683456653,0.845855781174866,1.30027621364171,1.3199731506966,1.3201171341546,1.38574479431264,1.2840156817845,1.30664988138267,1.42373722943119,0.968288755074207,0.97120681982308,0.974230472441156,1.04985058458465,1.23315112552043,1.04078922562762,1.11005486782455,1.03490510164387,1.14147205836094,1.06561197378744,1.2001693147404,1.21881037310327,1.07288793786522,1.17767909860024,1.53253113029871,1.0999472290727,1.25143702468689,1.11773398558474,1.26336845390678,1.20335614861088,1.08473297701032,1.03055680121216,1.03246698175501,1.09441826428536,1.06882760434952
0.785794521503245,0.786379094342739,0.901853827661626,0.951656745895351,1.04341932346049,0.00420687028036037,0.792714366494898,0.795774494922334,0.804635236927876,0.782258287774676,0.779327744459443,0.765040745866606,0.762052609168171,0.7624135277029,0.750711512126088,0.755501361829007,0.75242491527633,0.752143667588363,0.755380415724284,0.750714391795248,0.725232199397771,0.725016224210765,0.720693840801497,0.721263055405471,0.722982217894034,0.735108504727098,0.735297603001942,0.726648996624526,0.707316817663243,0.706427959782501,0.709660868359541,0.718533129041723,0.792326571048008,0.762892512673192,0.762776366017069,0.758753468200449,0.743225332199621,0.741758620707424,0.759721037038233,0.760248016494526,0.753985695961089,0.746734689016028,0.735864897826476,0.727513857262268,0.717067377439247,0.688482821466652,0.699120319343958,0.699732728985333,0.693011581165725,0.850899041763872,0.658899020295512,0.65800920252505,0.658619692386985,0.663446977788986,0.687984638701959,0.713669367830362,0.751844181995716,0.783833466805236,0.836455581146671,0.83879867195325,0.923732594050133,0.951474366848547,1.18371680493919,1.25013157466765,1.26822549589011,1.27060602239576,1.24020631496261,1.24955564083564,1.31546166901249,1.3161815863025,1.25747473102584,1.25692759388542,1.23775859617654,1.25921213141908,1.33374756817894,1.34655249704406,1.37878559384247,1.41297686566972,1.38641671711666,1.43168511631299,1.3679100433146,1.36905231208143,1.39543968048489,1.39064023188477,1.39946161841179,1.4078318567704,1.38639751932226,1.39067862747357,1.42031042313071,1.45836045163246,1.45261071220951,1.52445845775331,1.43701250425913,1.43351850567824,1.40295561699267,1.39837694302816,1.38856687008951,1.35302215375703,1.3721911514659,1.37248871727911,1.30421176149381,1.29925873053848,1.16657317453956,1.14609872681145,0.998266111030556,0.921057381400426,0.88880124724874,0.85638481151381,0.819768858253774,0.81719923347327,0.799824269651116,0.79641282158615,0.765255761163891,0.729513307549078,0.732520642041913,0.768588498271815,0.791547140595348,0.844885332667922,0.853023277714285,1.33001359716805,1.26706402932888,0.993034712056426,1.00557087179994,1.28901670722583,1.27482953716387,0.967914398083398,0.969344633766233,1.14458210105381,1.10711760528128,1.07468293164167,1.15771339242374,1.03243818506341,1.15021665371036,1.0521063254267,1.06028458584131,1.20201230300285,1.22331225589018,1.07053620805116,1.17451146252416,1.25677401153022,1.16684194366117,1.18127868505033,1.26021041672791,1.20193551182525,1.2080884049306,1.1280911956638,1.11805074919235,1.10452590303721,1.10370039787799,1.13088447474907
0.785519993043318,0.785507514476958,0.970698078271467,0.946089385519212,0.996711089684118,0.792268977664807,0.790954888638094,0.792725885171538,0.795491327454927,0.773241083744771,0.762294501377617,0.759135504309018,0.762759088002109,0.763431010806126,0.749103696845048,0.752232937332326,0.750863174701851,0.757554565940139,0.757342430312013,0.749493412071377,0.728365279443929,0.726919685525573,0.718031106718151,0.721774676626244,0.729428837253716,0.731003056394555,0.730197708919455,0.728495824445852,0.712139303616643,0.705476709069957,0.710109136858793,0.715339575943203,1.00485095450992,0.763374377312644,0.761294296289352,0.759015518094015,0.745560743888439,0.759019357652895,0.758618123749925,0.759070231808057,0.751102187242137,0.747010177365675,0.737268256597152,0.744992489174185,0.716773651184919,0.825002177007345,0.680878575104622,0.692038252989621,0.934283701852637,0.662358462846479,0.653067690246367,0.637314940051053,0.64359645837889,0.672644641086256,0.708944790628404,0.741816214090625,0.780093736456022,0.815456073741706,0.834613552773945,0.866253437725376,0.948563981217434,1.0321214214558,1.10369079898079,1.27315932905103,1.35927103583438,1.35542187805709,1.28981341569345,1.28369891817689,1.34256895470596,1.30963513841194,1.30925118252393,1.28984221238505,1.28703933440258,1.30290631147457,1.33513940827298,1.34084115320992,1.37045375107266,1.39289597272682,1.38680067300467,1.50461753724042,1.46850648597311,1.39329912640923,1.39396145031605,1.42533064636643,1.39261760470802,1.41175780572529,1.37400534303675,1.38601356343425,1.3958908286533,1.43972899216679,1.44871355994622,1.46943757900154,1.46834330472071,1.45917635789448,1.48565971526994,1.43637897704391,1.4439813036265,1.40257166110466,1.37751853941204,1.34314488853798,1.36822680692221,1.30508526113903,1.22540481547983,1.09071308996607,1.01379712670054,0.994829705832871,0.895078926017697,0.865157243665109,0.838502066029762,0.839334290417023,0.789333634900973,0.796740143980678,0.768540503785813,0.749274557215212,0.742459340203041,0.758668038015367,0.783232575840501,0.827377904064404,0.84959839119324,1.25694679167982,1.29366257347074,0.88642264052252,1.32747948830719,1.19354607567224,1.30750418323349,0.962433427782061,1.34081235651832,1.19663692057072,1.04851633787381,1.02431751803201,1.03763118844874,1.03229420160541,1.04539669628373,1.09881455920307,1.05777927367204,1.05729932881203,1.05852798765366,1.0639801612634,1.06845324735871,1.08424343325311,1.09474462679017,1.10099350886752,1.18840106677291,1.2279581221351,1.23222003249201,1.16178332483664,1.12122798416563,1.12828317360781,1.09073228776047,1.1280815967666
0.783932335446398,0.785418244732995,0.89239987380911,0.894366687845439,0.893050679039286,0.790738913451088,0.789230926700931,0.789339394239293,0.788559963786634,0.771856922768496,0.758152577235714,0.75761311921306,0.760550381756334,0.759821825458835,0.746686694530027,0.749697868581742,0.751076270219697,0.7568096915174,0.757283877039092,0.74922656272921,0.727490819908987,0.716870600046642,0.716670942984877,0.71880765750165,0.729038162137666,0.730674774110307,0.72839023657665,0.708685620403997,0.710937521687173,0.703302558854102,0.705828028707486,0.715258945206721,0.772477011527632,0.761567864859559,0.762063167955091,0.762040130601811,0.755247950942921,0.760507186718933,0.759258370193181,0.758829299488331,0.748963552945924,0.748350183414829,0.735777547861954,0.89959712692985,0.817050450566666,0.682280014095857,0.690621455762865,0.934924908185613,0.672053349018721,0.671230723528661,0.64242347314102,0.63081744653621,0.627883063662097,0.660286060940947,0.697468349135797,0.736503224490292,0.825698097054362,0.868849939418041,0.91201714001724,0.916594854092035,0.978156421396054,1.01819342161825,1.13056771114146,1.39764742684094,1.3401884282003,1.35327172508423,1.34723401874528,1.32747948830719,1.34293371279957,1.32172974888424,1.25671641814702,1.23570443217569,1.28558990092534,1.384180174069,1.38670468403267,1.34900021583012,1.40645921447076,1.38053259313291,1.43312495089303,1.42269094963637,1.51832476244236,1.4160197160822,1.42852707913411,1.38366183362019,1.38498648143382,1.39702349852293,1.38516886048063,1.3879429417715,1.3998647720942,1.48842419766361,1.53100490564387,1.46991752386155,1.46896723303872,1.47922845414578,1.46320789471858,1.43279858838822,1.43358569795864,1.44260866132686,1.42486989930082,1.34346165214559,1.32646200520396,1.31709348153653,1.27716206918353,1.18627971049166,1.05510118135318,0.982111167042553,0.931480823870167,0.884149621665504,0.859550527810449,0.825644343230041,0.81882624654871,0.790291604841557,0.78999115935919,0.761022647498586,0.751962248431279,0.759649045309231,0.795785053709255,0.826868202623072,0.83799332447815,1.23452376782006,1.22973391811714,0.985403588782235,1.50449275157681,1.25726355528743,1.31428100465686,0.961742307183643,1.02527740775203,1.02592053386445,1.5559524394673,0.991249317177181,1.00774022256719,1.03919580869238,1.03832230904716,1.14968871436434,1.04101000026322,1.15851010089136,1.05852798765366,1.06352901309499,1.06687902821787,1.08142135747624,1.08773743183399,1.08904288185323,1.16435582928631,1.17842781258186,1.16143776453744,1.06304906823498,1.09436067090216,1.12753445962619,1.0800775118682,1.00559006959434
0.781907928026867,0.782757430429089,0.892707998409238,0.894527949318403,0.00465232630273191,0.790544055837923,0.788463974814631,0.7872017198328,0.777232305200631,0.76600447514551,0.758645000662086,0.762066047624252,0.762041090491531,0.760614694367575,0.737497670240237,0.746225947464416,0.756971912880084,0.756901840930522,0.756122410477863,0.703155695726939,0.703349593450384,0.715760007640574,0.715979822386459,0.717550201968419,0.725675668448422,0.725545123446498,0.718664633933366,0.708991825224685,0.707296659979122,0.701226317389691,0.704984285643585,0.997968545217349,0.774756749612689,0.761104238124787,0.763033616462036,0.765539888521018,0.766721512766368,0.760104992926242,0.758221689295555,0.758507736432123,0.747181997625559,0.739481762291527,0.739927151121618,0.744159304897204,1.02560377025684,0.672369152736609,0.92801274231172,0.674652730380546,0.669286946845612,0.678330067897958,0.640677433740297,0.613624861760861,0.636069963084182,0.691984499165299,0.718871970112892,0.759294846002542,0.865389536977355,0.898744744858469,0.929304753874872,0.97360654412314,0.992238003588806,1.09466783561257,1.18133627843353,1.27774760191274,1.34603415659525,1.36884113634302,1.35163991256019,1.35239822543901,1.32985041591565,1.32662518645637,1.31042224798236,1.2361747781385,1.28049288651201,1.33948770870469,1.34620693674485,1.34559260732404,1.34496867900602,1.3719703768303,1.39319353854003,1.40915650458403,1.45531760121998,1.40859976854641,1.40843658729401,1.39401904369925,1.38642631601386,1.38565840423784,1.38036941188051,1.36649900542616,1.41662444660582,1.43297136853782,1.52853798906341,1.51656816425471,1.4680361400103,1.46685547565467,1.47551368092929,1.45495284312637,1.62962397547914,1.38849967780911,1.39741705330814,1.34491108562282,1.34436394848241,1.32109622166903,1.31044144577676,1.21977986172049,1.14613712240025,1.03716084248593,0.982725496463368,0.911362495228184,0.888998024641345,0.850225199180416,0.835118454766678,0.803514085734888,0.786311902062338,0.788056021683621,0.746266262832657,0.764848767922601,0.759309244348343,0.768579859264334,0.838139227715593,1.22630711181666,1.18759475940809,0.98161202438814,1.19337329552263,1.19495711356067,0.940785994816079,0.960744021874819,1.41575094696059,0.973971302216749,1.09645323049181,0.992545168299213,0.994042596262451,1.00755784352039,1.14830647316751,1.04029008297321,1.0360089748219,1.03786156198155,1.03921500648678,1.04483996024612,1.10658966593526,1.06068773952372,1.08371549390709,1.13725814249003,1.20022690812361,1.35944381598399,1.11372164655504,1.12356051618529,1.12523072429813,1.08038467657861,1.12427083457811,1.00155853277024
0.781814818724025,0.787066375382277,0.969229446999831,0.894651775092286,0.791676725707552,0.792567503367734,0.793720330921483,0.778510878307703,0.775794390400035,0.762497038108542,0.756084014889062,0.762914590136753,0.75960777005127,0.925878907464107,0.731019374519795,0.744534621777733,0.753470235181437,0.757234922663371,0.991508487401587,0.702442497664961,0.702748702485649,0.709077255409767,0.716060453122941,0.719964324614279,0.720895417642702,0.719762747773074,0.707008693063115,0.705024601011826,0.696548774784014,0.69762385127044,0.701744657838504,0.769332412804833,0.748098692308182,0.76362490852957,0.764350585157909,0.769419762769355,0.766686956736447,0.760043559984161,0.759907255643917,0.750369791385759,0.747242470677921,0.737466953769197,0.740526122306913,0.897351944874714,0.905757699152964,0.666710602837068,0.665276527595352,0.655972316539159,0.647524327113228,0.630729136681968,0.627696845056412,0.629471681148737,0.656443622391691,0.683079602232637,0.71080409701609,0.7791962395678,0.865573835803599,0.969018271261425,1.00726027770718,1.02523901216323,1.05072408422987,1.09716354888463,1.19552344849549,1.29836603309886,1.32767146625119,1.36124840865763,1.3598181729748,1.34541022827723,1.32566529673634,1.32676916991437,1.30914559465473,1.28361252810209,1.34918259487693,1.33417951855295,1.3520430662426,1.36826520251101,1.35139034123298,1.38737660683668,1.39672593270972,1.4759840268921,1.45255311882631,1.40462582510552,1.42608895924525,1.48076427769782,1.40505777547953,1.37559875997199,1.36949386135264,1.39770502022414,1.40573929718074,1.45485685415437,1.47562886769569,1.47806698758455,1.46701865690708,1.46655790984146,1.472096473526,1.65543541005059,1.62149370955054,1.39503652680248,1.4122089538937,1.3439607948,1.32997520157925,1.32724911477438,1.31472255392807,1.22140207534733,1.13457045127396,1.11438397046186,1.01824141610426,0.955448310289446,0.92041809484689,0.847828354549516,0.817877875505327,0.811932318579498,0.79039335315188,0.786121843897773,0.758916649452853,0.768164227015564,0.772133371007863,0.768161347346404,0.839309333284303,1.22274592095537,1.15758860676014,0.982245551603356,1.13142201299229,1.19795196948715,1.43486235128627,1.3079073369159,0.971753956963494,0.973625741917541,1.09849779559546,1.02241693638636,0.994637727888866,1.00594522879075,1.00875770567042,1.03755439727114,1.15803015603135,1.03404120089585,1.03800554543955,1.03628734284071,1.03733362263553,1.04993697465945,1.05107924342628,1.15487211885247,1.2120431505771,1.14065615209892,1.1240020654565,1.0800871107654,1.05764488911124,1.0798951328214,1.01032232591406,1.13034693650586
0.780564082418834,0.780900043820842,0.988504032577912,0.895399529184185,0.887637860908071,0.791790952584235,0.789438262880456,0.776152429265604,0.762774446237629,0.762377051893539,0.756456452100431,0.759562655234429,0.759038555447296,0.725858047495226,0.726522291181483,0.748736059082278,0.752275172480007,0.752204140640725,0.719733951081473,0.702446337223841,0.702217883470475,0.704353638097529,0.712870739583302,0.719302000707462,0.717887123260147,0.718589762535205,0.696455665481171,0.693668145734222,0.693902358825907,0.696867458171062,0.763865840849296,0.743404831577265,0.749912883879028,0.760508146608653,0.764371702731749,0.766854937437451,0.763469406394927,0.758721791839688,0.755034855425076,0.752490187777292,0.745885186613807,0.737961296975009,0.739178437139999,0.779047456661196,0.670588557305965,0.895927468530198,0.660535632268153,0.648748186506259,0.634594612584505,0.640326114102768,0.628080800944422,0.646688263167087,0.685562836938339,0.706239821397376,0.740666266206036,0.768986852505625,0.855423961904065,1.06237714543096,1.07058420253716,1.08964761237684,1.13139321630068,1.17940690009628,1.18069315232112,1.28587786784135,1.29917234046368,1.35285897250462,1.35560425710389,1.35108317652258,1.32249766066026,1.32278562757627,1.27431119671506,1.27350488935024,1.33230773359891,1.33509141378698,1.38263475161977,1.38370022920899,1.37558916107479,1.4519003938167,1.45529840342558,1.47324834119003,1.44496999003812,1.41296726677252,1.42987092474215,1.43417123068785,1.4042034736287,1.416154100643,1.37703859455203,1.41570295247459,1.40341636405828,1.45547118357519,1.49553698048899,1.44506597901013,1.48432546855911,1.4681417278795,1.47320034670403,1.68210114647285,1.38238518029256,1.42541703644124,1.42452433900161,1.35292616478502,1.35252301110261,1.32376471509069,1.32221929264146,1.24934446509723,1.25227212874331,1.17012476650365,1.0880541954416,0.975295950030382,0.92200863211297,0.825163438480309,0.824560627736134,0.804906885718643,0.788142411758423,0.776110194117923,0.78040858028419,0.778906352872353,0.781131377243368,0.768783355884979,0.824149794935964,1.21732254403723,1.20434483502251,0.891453422545166,1.13365855603994,1.14045457525771,1.45818767148285,0.99919720405898,1.35000810003615,1.09113544144288,1.06125407445853,1.06208917851495,1.10680084167367,1.00762503580079,1.00941043068004,1.1518580651316,1.0441296418533,1.03335008029743,1.03750640278514,1.03920540758958,1.03821672117796,1.0361337604855,1.03520266745708,1.22579837026504,1.15777098580694,1.17745832396464,1.11769558999594,0.993265085589231,0.993860217215646,1.37649145741161,1.04434081759171,1.03224620711941
0.781851294533386,0.991556481887589,0.00440968537930424,0.978636366256066,0.984635677006216,0.783955372799679,0.783125068191858,0.775662885508391,0.759440749239986,0.759534818432548,0.754936946673633,0.752874143665302,0.720107348182563,0.723651261028891,0.724547798027394,0.74881477003932,0.751863379790116,0.751566773866629,0.720709199037018,0.702574002556604,0.696865538391621,0.698707566764348,0.711426105554665,0.71801958804151,0.717905361164828,0.699754806448894,0.689719159426043,0.690559062931064,0.691465198826766,0.699258543463641,0.73959598916821,0.760461112012371,0.750977401578534,0.759354359165184,0.762060288285931,0.761313494083753,0.96842313963501,0.756675306956597,0.754148877213494,0.74799022476982,0.745725844920283,0.741813334421465,0.705784833670084,0.829498300455937,0.770301901422057,0.877960252750789,0.619491707729647,0.645715894880703,0.625185773548829,0.635808873080335,0.633875655184207,0.667009128539995,0.67999355678276,0.711173654558299,0.756100333014302,0.850429655690781,0.912504763995012,1.09162498520009,1.14220157454815,1.13388892957275,1.12314776360568,1.20733969094898,1.22280351433857,1.30835848508431,1.31228443403921,1.4678825576551,1.3758771279908,1.35359808758904,1.34359603670639,1.3239854897263,1.32349594596909,1.31352269177804,1.33399713950615,1.33871979692867,1.36891792752062,1.3920128741844,1.43865391568037,1.45321544273313,1.45270670118152,1.44245507897166,1.44939508164743,1.43924904730678,1.44496039114092,1.44201352970045,1.42558021769364,1.39064023188477,1.38987232010875,1.39016988592195,1.43509272481908,1.43683972410952,1.46470532268182,1.44592987975815,1.45774612221164,1.45638307880921,1.46215201602655,1.44050650284001,1.38509206930303,1.3759059246824,1.38268274610577,1.34552541504364,1.36942666907224,1.42092475255152,1.34700364521247,1.28969822892704,1.24995879451805,1.18372640383639,1.05418928611915,1.03095035599737,0.871185351106859,0.846569939126564,0.833526957610878,0.806962009609214,0.804705308877438,0.801551111257439,0.790957768307254,0.781955922512869,0.776648692250856,0.793355572827874,0.79680445659192,0.84200278383869,1.26652649108566,0.984606880314615,1.51012730423335,1.40233168867466,1.31789019000415,1.01474741752337,1.02471107281722,1.01255886896171,1.01285643477492,0.98758253844669,1.00375668022909,1.03694966674752,1.01358595096214,1.01506418113098,1.1601323145182,1.15792456816215,1.03821672117796,1.04107719254363,1.03967575355239,1.03422357994266,1.03495309612987,1.03107514166098,1.02689002248167,1.14284470066057,1.12540350444774,1.08443541119711,1.08926365648883,1.36710373594978,1.03122872401618,1.13432087994676
0.781267681583612,0.00440176628911404,0.00423742357014873,0.779437171887526,0.776484551108732,0.777101760198707,0.772853288297881,0.771685102508612,0.75361325874972,0.750492657269922,0.75318418804487,0.752053437954681,0.720879099517462,0.721967614459969,0.747406611820045,0.748174523596064,0.753360807753354,0.723261545802561,0.724634188102196,0.69079807547135,0.691715730043693,0.702428099319161,0.703376470362544,0.717443654209496,0.718834534413811,0.689704761080242,0.689270890926792,0.690725123852628,0.689459029311916,0.731329418899363,0.735542374880548,0.740946554004284,0.751678121074152,0.758232248082476,0.760770196502219,0.761252061141671,0.759224774052981,0.754539552329543,0.752142707698643,0.745304453333193,0.74359776941099,0.740636509624716,0.690049361489731,0.842345464468738,0.643573421025609,0.705407597010115,0.616753142358419,0.618504941097463,0.600700906570457,0.633291082344712,0.681866301626527,0.703338074773743,0.703154735837219,0.746131878271853,0.795911759152298,0.795970312425219,0.955231375212721,1.05384372581995,1.22357142611459,1.25287685926692,1.24607124115195,1.25637085784781,1.26668007344087,1.29810686287445,1.33544657298339,1.34160906498594,1.34062037857432,1.3961595977749,1.39406703818525,1.32029951320141,1.32135539189343,1.33321002993573,1.34842428199811,1.34625493123086,1.36931148230583,1.43779001493234,1.48840499986921,1.43832755317556,1.45270670118152,1.45152603682589,1.44699535734737,1.47352670920884,1.42952536444294,1.42968854569534,1.43625419138031,1.4600210608481,1.39563165842889,1.40929088914483,1.41851542935426,1.43628298807191,1.44558431945894,1.45362819531274,1.45238033867671,1.45394495892035,1.45501043650958,1.48275124941827,1.42565700887124,1.37727856698203,1.36995460841825,1.36627823079056,1.38877804582792,1.36511676422933,1.33014798172885,1.32945686113044,1.28295980309247,1.26238936639236,1.11871307309917,0.969930166495448,0.909449435016176,0.861171781547569,0.844342035086388,0.836330795483068,0.80601267867611,0.795638190582091,0.785838676430366,0.782068229610112,0.769144274419708,0.783039638006776,0.778961066586394,0.846510425963923,1.26308048699078,1.31302354912363,1.33402593619775,1.10675284718767,1.42625214049766,1.02206177718995,1.02483585848082,1.05428527509116,1.06089891526212,1.06205078292615,1.06456569399261,1.05115603460388,1.12219747278285,1.13735413146203,1.04350571353529,1.03502988730748,1.03832230904716,1.04185470321685,1.04362090030169,1.04350571353529,1.03381082736305,1.03387801964345,1.21035374466986,1.20085083644162,1.01134940791448,1.04240184035726,1.04130756607643,0.971293209897882,0.958377893714959,1.02725478057528
0.784075359014682,0.00458558517049864,0.778605907389985,0.778555033234824,0.774555172771484,0.773862132393626,0.772288873142507,0.770238548700536,0.758133379441313,0.750227727707195,0.752299169723007,0.729236859309711,0.720450988702331,0.721098914263347,0.746064685991451,0.748539281689673,0.751919053393878,0.722137514940413,0.722290137405897,0.69041411958334,0.691900988759657,0.692137121630783,0.701937595672228,0.711892611958597,0.711085344704057,0.688938769083663,0.69120890827152,0.690325809729098,0.84359716066365,0.731815123097695,0.731634663830331,0.75398473607137,0.756427655408831,0.758583567720004,0.759735435384033,0.759123985632378,0.757736944986943,0.751159780625339,0.747638905132291,0.743905894011118,0.738181111720894,0.738843435627711,0.825132722009268,0.842544161640783,0.835170288811559,0.630621629033326,0.610355477374459,0.610262368071616,0.630176240203234,0.663141732858018,0.705778114442044,0.726452219231921,0.7424094259376,0.779178961552839,0.868261527019666,0.90919314446093,1.04207547785245,1.1481624897095,1.23952479326139,1.28105922144683,1.28981341569345,1.27138353306898,1.31313873589003,1.30244556440896,1.30688985381267,1.30765776558869,1.32262244632387,1.34100433446232,1.32459981914711,1.32515655518473,1.32527174195113,1.35275338463542,1.3521486541118,1.43580304321189,1.4441636826733,1.43891308590477,1.43522710937988,1.51282459434662,1.44889593899302,1.4518907949195,1.44688017058097,1.44682257719777,1.44547873158974,1.44058329401761,1.43865391568037,1.45549038136959,1.43775161934354,1.42208621911275,1.42195183455195,1.45817807258565,1.47280679191882,1.45529840342558,1.45276429456472,1.45805328692205,1.45656545785601,1.49508583232058,1.43870191016637,1.40359874310509,1.37680822101922,1.34535263489403,1.34920179267133,1.36715173043578,1.33549456746939,1.33398754060895,1.3201747275378,1.17140141983128,1.07093936173357,1.00205767542465,0.922191971049495,0.870240819622356,0.873016820692665,0.846031440993631,0.818934714087073,0.804436539755831,0.816564746368334,0.790698598082847,0.75878610445093,0.790326160871478,0.804045864639781,0.819540404500408,1.13153719975869,1.15118614232758,1.10974770311414,1.12359891177409,0.999753940096594,1.0118677483633,1.03180465784819,1.05377653353954,1.06214677189815,1.06830926390071,1.04865072243462,1.09463903892097,1.01863497088947,1.02135145879713,1.03359005272744,1.03454034355026,1.03765998514034,1.04147074732884,1.04353451022689,1.04541589407814,1.03222700932501,1.03382042626025,1.08693112446917,1.13662461527482,1.1001488059139,1.08825577228281,1.08058625341981,0.969718990757043,1.13009736517865,0.945541288489078
0.796115255772943,0.00437719311228143,0.778430247571221,0.77359048360286,0.769401524864675,0.770732891906348,0.770514996939903,0.769166351883269,0.757265639134411,0.750036709652911,0.749863929503306,0.715931827900458,0.718444819187481,0.717540603071218,0.744535581667453,0.747886556680057,0.749431979129296,0.726083621579432,0.780774298267519,0.685439971054176,0.692139041410223,0.69199601784194,0.697984769805169,0.710221443956035,0.709086854306967,0.692993343261045,0.694864168325371,0.692861838369401,0.818855043240311,0.731051050880556,0.730880190510392,0.732087731778182,0.75720420619233,0.75601682260866,0.75481312089975,0.755411132195325,0.752230057663166,0.747102326778798,0.742060026079511,0.741715425670023,0.737141551154108,0.7352188920449,0.675283377926602,0.779776012958694,0.758994400520175,0.606072449443712,0.607854004764076,0.617585366745679,0.64239179678026,0.673563255548319,0.713014723041305,0.7736116011767,0.756121450588143,0.909355365823614,0.89882249592579,1.04721088785458,1.02123627203073,1.13128762843148,1.29180038741389,1.27045244004056,1.31933002458418,1.40958845495804,1.29170439844189,1.30303109713818,1.30295430596057,1.30909760016873,1.30629472218626,1.33954530208789,1.32264164411827,1.36050929357321,1.38560081085464,1.35733205859993,1.35237902764461,1.37026177312866,1.44852158200221,1.42928539201293,1.42493709158122,1.46843929369271,1.45284108574232,1.44742730772139,1.45875400641767,1.43922025061518,1.46052020350251,1.45882119869807,1.45745815529564,1.45358979972394,1.44952946620824,1.44612185770215,1.43021648504136,1.45779411669764,1.48629324248516,1.46841049700111,1.47873891038857,1.45905157223088,1.47393946178845,1.49321404736653,1.47076222681517,1.46926479885193,1.41102828953808,1.34524704702483,1.34547742055764,1.36879314185702,1.34592856872605,1.37096249262427,1.33059912989726,1.23228722477241,1.09778747720264,1.01573610393499,0.950958906068894,0.922215008402775,0.874760940313949,0.857331262777753,0.831662851774591,0.813745550260623,0.824960901749384,0.801704693612643,0.769485035270317,0.783283449995662,0.808431600770571,0.816087681177482,0.816465877727171,0.894365727955719,1.12465479046612,1.10144465703594,1.01356675316774,1.30243596551176,1.28030090856801,1.29314423302193,1.07748580962414,1.06913476905993,1.04108679144083,1.15474733318887,1.01885574552507,1.01953726722629,1.14343983228699,1.031891047923,1.03466512921387,1.03896543515957,1.04201788446925,1.04465758119932,1.04561747091934,1.03493389833547,1.03683447998112,1.0841282464867,1.01108063879288,1.55322635266243,1.01123422114808,0.968883886700622,1.00507172914553,1.12694892689697
0.78802338543314,0.773032787675526,0.771777251921734,0.770514996939903,0.764316029127988,0.769745165384443,0.769878590055527,0.753342569848673,0.748742778310318,0.748844526620641,0.738230066096616,0.711118940844258,0.715627542859211,0.715472040724567,0.742732908773248,0.742432463290881,0.723656060477491,0.728934494047903,0.676939187693643,0.679955161193959,0.690728003521788,0.692927110870363,0.695135817116138,0.708197036536505,0.696687958793417,0.69759217490968,0.695495775761147,0.693534721063138,0.739142921220358,0.736597293682855,0.728941213275943,0.752691764618497,0.752962453519544,0.75359982029364,0.753091078742027,0.751475584343227,0.748850285958961,0.744501985527252,0.741498490593297,0.73721450277283,0.734266681442637,0.734058385373391,0.675002130238635,0.733699386618102,0.614272787321877,0.604457914934631,0.605046327333006,0.621485398678137,0.657689559248282,0.673066992563067,0.744479908063692,0.812141574538463,0.821395871329215,0.971254814309081,0.975708702609993,1.05137680923948,1.14036818518291,1.17841821368466,1.29344179883514,1.35943421708679,1.34712843087608,1.30585317291505,1.30461491517621,1.29922033494968,1.30719701852308,1.32190252903385,1.30577638173744,1.32686515888637,1.36033651342361,1.36604785725775,1.40528814901233,1.4159909193906,1.39360629111964,1.37754733610364,1.4520539761719,1.40990521856565,1.46149929101694,1.45238993757391,1.45240913536831,1.44496999003812,1.4318962920514,1.43078281997617,1.45928194576368,1.46866006832832,1.46247837853136,1.45369538759314,1.45484725525717,1.45395455781755,1.45034537247026,1.46219041161535,1.48635083586836,1.52596548461375,1.51250783073901,1.50379203208119,1.50527026225003,1.49257092125411,1.48650441822356,1.43467037334227,1.42248937279516,1.38512086599463,1.36215070499445,1.35515310893548,1.33713597889063,1.35267659345782,1.34910580369933,1.272007461387,1.13064450231907,1.02423112795721,0.997661380506941,0.928485008053972,0.915746311579533,0.8663983810731,0.855375967418064,0.854901781896372,0.816267180555126,0.802720256936428,0.809826320533765,0.787795891569495,0.830703921944287,0.838358082571759,0.835158770134919,0.896599391334215,0.897506487119637,1.01524656017778,1.01013034797005,1.01863497088947,1.00518691591193,1.00586843761315,0.963585295446089,1.02059314591831,1.09034833187246,1.09375594037854,1.05040732062226,1.01839499845946,1.02838745044491,1.03167027328739,1.03385882184905,1.0358553924667,1.03936858884198,1.04215226903005,1.03900383074837,1.03900383074837,1.03670969431752,1.09085707342407,1.09396711611695,1.06660066019906,1.40952126267764,0.967760815728194,0.836386469086829,0.839525308471308
0.787419614799245,0.766450823865321,0.767752434325674,0.768989732174785,0.765340231459253,0.770242388259416,0.747470924431287,0.746605103903825,0.747382614577044,0.747399892592005,0.725685267345622,0.701018981210165,0.714299055486697,0.684836200420281,0.0040639427010488,0.766046710293191,0.757250280898891,0.69198545905502,0.678196643226875,0.677036136555366,0.690275895463657,0.690431397598301,0.695889330546357,0.701072735034487,0.696293444118487,0.698370645472619,0.695829817383716,0.70281589476605,0.734213887508035,0.73522561127294,0.725768777751264,0.753060362270986,0.753404002790755,0.753021006792465,0.751506300814268,0.74761298810985,0.743958687945719,0.743327080509943,0.738768564229549,0.73321848186837,0.731821842325735,0.731104804704877,0.738377889113499,0.733552523490939,0.734267641332357,0.602168577952374,0.613946424817069,0.664634361372656,0.6703936996928,0.739408810672805,0.748557519594354,0.828721749672438,1.00022428605941,1.0561762578396,1.07485571179127,1.11736922749113,1.16672675689477,1.16973121171844,1.22570238129304,1.27745003609954,1.32872734494322,1.32666358204517,1.30466290966222,1.29680141285522,1.31329231824523,1.32684596109197,1.31379146089964,1.33425630973056,1.37052094335306,1.37254631066231,1.40576809387234,1.39854972317776,1.37737455595403,1.38563920644344,1.42239338382316,1.41715238595183,1.49679443602222,1.47315235221803,1.45277389346192,1.46219041161535,1.43808758074555,1.43145474278019,1.45275469566752,1.48534295166233,1.4639662075974,1.47664635079892,1.46937038672113,1.48591888549435,1.44369333671049,1.49819587501345,1.48479581452192,1.488155428542,1.50947457922374,1.50297612581917,1.50021164342551,1.52050371210681,1.49660245807821,1.45748695198724,1.39232003889481,1.40572969828354,1.37633787505641,1.33880618700347,1.29313463412473,1.28436124208371,1.26739999073088,1.24885492134002,1.21395333111995,1.08839015684361,1.01144539688649,0.982591111902565,0.928258474080046,0.901548582730659,0.882632036018146,0.848241107129126,0.8120091097571,0.793478438712037,0.769972659248089,0.798760711841329,0.830121268884233,0.826319145703218,0.843052903192396,0.907273365020882,1.0601981957665,0.986939412334274,1.00934323839963,1.00917045825003,0.950711254521128,0.953866412030847,0.957583105026779,0.961627120417241,1.09381353376175,1.01457463737376,1.07103535070558,1.01644642232781,1.17060471136366,1.03071998246457,1.03357085493304,1.03473232149427,1.21805206022445,0.00439357842980224,1.03837990243036,1.03716084248593,1.03861027596317,1.09499419811737,1.11754200764074,1.04422563082531,1.00488935009872,0.966157799895754,0.838294729850237,0.839876628108837
0.790895375475452,0.767475026196587,0.766178215184834,0.766901012144012,0.767124666448778,0.770445884880061,0.746602224234665,0.741548404858739,0.742927766386413,0.739894514871137,0.728758834229139,0.70122439761025,0.699267182471122,0.683982858459179,0.68278875564747,0.689367839788514,0.671865210633596,0.672646560865696,0.678830170442091,0.678042100981951,0.691485356510887,0.689674044609202,0.785876112129447,0.695180931932979,0.695742467419193,0.697954053334129,0.696917372436503,0.713117431241348,0.734777342773689,0.735161298661699,0.726031787534551,0.754243906295776,0.755006058733475,0.752635131125016,0.751263448715101,0.745910143746528,0.743628485882031,0.740693143118197,0.73559900837403,0.730887869628152,0.727913171385798,0.730489515394342,0.738984539416554,0.610243170277216,0.623749778527674,0.599371459308224,0.624473535376572,0.661112525989888,0.716639266624116,0.742270241928197,0.830590654957325,0.852695955319757,0.968317551765808,1.13357216596514,1.12504834525133,1.15016865922435,1.16487416973512,1.18128828394753,1.22690224344307,1.37413972759755,1.47543688975169,1.4680937333935,1.32180654006185,1.2961390889484,1.3399772524619,1.31760222308814,1.32578048350274,1.33252850823451,1.37897757178647,1.44199433190605,1.45139165226508,1.44440365510331,1.42061758784112,1.41737316058743,1.4160869083626,1.44353975435529,1.44345336428049,1.45136285557348,1.4521115695551,1.44136080469083,1.43531349945468,1.44940468054463,1.48330798545588,1.48534295166233,1.48589968769995,1.48491100128832,1.48560212188674,1.51174951786019,1.46106734064293,1.50537585011923,1.4721252702176,1.48278964500707,1.4838551225963,1.49675604043342,1.50331208722118,1.504118394586,1.49248453117931,1.44601626983295,1.41721957823223,1.41933133561628,1.50458874054881,1.32244966617426,1.30225358646496,1.26935816575973,1.28965983333824,1.25173459050009,1.18064515783512,1.16363591199629,1.08049986334501,1.03447315126986,0.964909943259723,0.952110773732923,0.902067883069192,0.862879425359492,0.825328539512153,0.791514504344868,0.777885030210247,0.795109291346358,0.822567896677364,0.838501106140042,0.856625743833536,0.897172445497069,1.06427772707661,0.999379583105784,0.959105490122738,1.03038402106256,0.948655170740836,0.951523321224268,0.954777347375149,0.963815668978895,1.09555093415499,1.01731032307583,1.06591913849785,1.02052595363791,1.15793416705935,1.18428313987401,1.03232299829701,1.1799540372367,1.12984779385145,1.03509707958788,1.03368604169944,1.03685367777552,1.03506828289628,1.07352146508044,1.11116833989978,1.11455675061146,1.19441957531746,1.09464863781817,0.950744850661329,0.837525858184498
0.791959893174959,0.756556280631314,0.758606605073285,0.767447189394706,0.768369643415649,0.767825385944396,0.738626500550986,0.736218137243445,0.73560092815347,0.735173777228059,0.692422208877631,0.692114084277503,0.690926700693833,0.678499008488682,0.67879561441217,0.686102294960992,0.682449914576301,0.673051634327546,0.677961470245469,0.678864726472011,0.690856628744271,0.668599665806075,0.666102992644292,0.694146170814794,0.696217612830605,0.697859024251846,0.710683150911367,0.715367412745084,0.73399407276215,0.736077993344322,0.729104394528347,0.754346614495819,0.756606194896755,0.756102252793742,0.751814425414395,0.746997698799315,0.743090947638817,0.739109325080157,0.735812103891875,0.7287905105899,0.728522701358013,0.722371728032099,0.620495752376792,0.620854751132081,0.630529479620203,0.624580083135494,0.62439866397841,0.674110392688733,0.732778852376599,0.79520144075948,0.825160558811149,0.91281672815402,0.989281543251132,1.19873907905757,1.21454846274636,1.1921158399894,1.25179218388329,1.25337600192133,1.19687689300072,1.23661632740972,1.26656488667446,1.44756169228219,1.43281778618262,1.30992310532795,1.32921688870043,1.33895976935867,1.33388195273975,1.34350004773439,1.36360973736889,1.44172556278444,1.47176051212399,1.44274304588767,1.45491444753757,1.45302346478913,1.46164327447494,1.4841334906151,1.44458603415011,1.47902687730458,1.49732237536823,1.4681993212627,1.45830285824926,1.46651951425266,1.48826101641121,1.50637413542806,1.51642418079671,1.50699806374607,1.50088356622952,1.52606147358575,1.56835421465001,1.48504538584913,1.47716469124773,1.45840844611846,1.46201763146575,1.47892128943537,1.49656406248941,1.50125792322033,1.49530660695618,1.48917291164523,1.4120649704357,1.41040436122006,1.42271014743077,1.32964883907444,1.29631186909801,1.29342260104074,1.26960773708694,1.2161994730648,1.17279325992532,1.21307023257753,1.12128557754883,1.087833420806,1.00308475742508,0.940998130444205,0.897500727781317,0.859763623328294,0.828517293162073,0.774970805020254,0.782102785640032,0.795477888998847,0.831384483755784,0.832182152113124,0.839320851960943,0.994724117963668,0.987544142857888,0.991988432261599,1.02370318861119,1.01827021279586,0.947487944841287,0.949185029866289,0.954166857513214,0.964199624866905,1.10349882103679,1.11471993186387,1.11748441425754,1.16334794508028,1.14661706726027,1.18700922667887,1.18046277878831,1.01755989440304,1.2679951223573,1.03456914024186,1.03320609683943,1.03564421672829,1.03725683145793,1.08698871785237,1.11299213036782,1.15780938139575,1.00427502067791,0.989377532223134,1.0720912293976,1.06838605507831
0.771438410850566,0.757551686270979,0.758296560693717,0.768986852505625,0.766852057768291,0.733858728311626,0.734914607003653,0.735783307200274,0.735404150760865,0.733128252234688,0.69201905519522,0.691497835077247,0.679155573057179,0.678621874372845,0.677805968110825,0.678224480028755,0.681491944635717,0.679583683872309,0.677117727181568,0.688971405334144,0.672862536052702,0.665753592786204,0.665512660466478,0.688742951580778,0.689908257700887,0.701874242950707,0.702335949906038,0.728384477238329,0.73359571852834,0.733561162498419,0.741690468537302,0.7552085954644,0.75640941750415,0.75558775190381,0.752783914031619,0.744375280084209,0.742314396855318,0.733387422459095,0.731075048123557,0.729160068132109,0.727307480972463,0.722289177516177,0.621930787508228,0.621107202128447,0.593150414032749,0.630887518485772,0.632588443069655,0.71642809088571,0.762148598140174,0.828451060771391,0.886200905997195,1.0041022405283,1.0841762409727,1.23406302075445,1.29161800836709,1.2201734165057,1.2479622239004,1.20684054829457,1.19754881580474,1.21307023257753,1.24149256718744,1.27283296654622,1.40212051293625,1.32368792391309,1.35011368790535,1.38579278879864,1.40314759493668,1.35392445009385,1.36096044174162,1.44306940839248,1.45178520705029,1.51455239584266,1.45347461295754,1.43954661311999,1.4398153822416,1.48695556639197,1.46636593189746,1.46988872716995,1.45508722768718,1.50312010927718,1.48218491448345,1.51522431864668,1.51337173148703,1.52709815448338,1.67446042430146,1.56539775431233,1.53837685869366,1.61398737193995,1.61180842227549,1.52048451431241,1.49941493495789,1.48852978553281,1.45744855639844,1.47651196623811,1.51079922703737,1.49843584744346,1.49775432574224,1.48589008880275,1.44881914781542,1.42759598610569,1.42318049339358,1.3401212359199,1.30937596818753,1.29074450872187,1.26754397418889,1.22474249157302,1.18673085866007,1.20644699350936,1.1238676808957,1.09438946759376,1.00498533907072,0.936049898937481,0.928274792205287,0.853484984669617,0.841947110234929,0.812643596862036,0.804257040378186,0.813459503124056,0.829326480196053,0.828494255808792,0.841658183429201,0.855167671348819,0.894446358692201,0.985873934745047,1.02822426919251,0.942968784039414,0.946706594609187,0.951016499452095,0.951495484422387,1.02759074197729,1.02746595631369,1.02398155663,1.02158183232994,1.16116899541583,1.18735478697808,1.10761674793569,1.01436346163536,1.01107103989568,1.01288523146652,1.0280610879401,1.03410839317625,1.03668089762592,1.29361457898474,1.11263697117142,1.28709692778578,1.15121493901918,0.998995627217775,1.08429142773911,0.958627465042166,1.04472477347972
