0.946438956882898,0.815072179387157,0.758677324941214,0.755754705071036,0.754754635648099,0.755248581109429,0.755131862148599,0.755588954865202,0.758225524218619,0.759709381847091,0.760344992175313,0.766655498093862,0.765827104646103,0.765484090876034,0.763452526019935,0.76194302250915,0.76202918033825,0.763114705875971,0.763753467852302,0.764259708085365,0.76284792150422,0.761793438879637,0.747789736941979,0.746144266793773,0.736540252848779,0.735936701338428,0.734202190293887,0.731206935958201,0.729724872605428,0.72928125358881,0.729862270817181,0.729331635709864,0.728615954378174,0.727501254693699,0.727385093397994,0.721058605627662,0.71724952083973,0.711528241922762,0.697790022114227,0.685382563242146,0.665887683233047,0.659848307672069,0.660530417778742,0.656344722163973,0.652787942903698,0.649968573160016,0.648435317691046,0.663218239755305,0.673145126147306,0.682431961640987,0.690325464632137,0.708658151272856,0.714067755549083,0.715480097605014,0.734105093319216,0.748234245622477,0.758957432703774,0.772219213902945,0.783683888277779,0.796157779459552,0.808559354354466,0.821127051698896,0.842842117396281,0.869065853023574,0.895309789374461,0.91541860206922,0.922153827027777,0.930567120922403,0.938115197656393,0.946709044363723,0.955452869809392,0.963240577087671,0.972645547659996,0.980707801155399,0.987463306887346,0.995706446719223,1.00738750964298,1.00830387394929,1.015019652268,1.02137349776436,1.02167374414093,1.02293985728546,1.02533578550621,1.0281510788951,1.03074537372428,1.03290958640038,1.03475157003403,1.03634814213092,1.03753291216841,1.03819175438572,1.03846089401289,1.02586634944311,1.01364314682133,1.00297990520327,0.995110494875825,0.98820358302759,0.982065886511216,0.976505614670544,0.969339571129517,0.962116569125694,0.95521742899974,0.948863950608672,0.944250770960152,0.938308144324125,0.933365094862492,0.909533459656126,0.898206800280673,0.882633859376445,0.870338786969445,0.862647280395222,0.857966961964571,0.853871454799461,0.847479430974659,0.840826276167954,0.836264403999858,0.830414301667162,0.826181302409541,0.823435414987739,0.821278658311786,0.812333146031714,0.797152352738621,0.787878343893045,0.77789339361429,0.75299514755702,0.738056729010362,0.719457520607245,0.715892879163985,0.71435787841171,0.715151047295485,0.704162195393853,0.70371892123927,0.702198697020899,0.71825420176078,0.731743929394757,0.747447546902523,0.760687489954745,0.780815503479369,0.783444162595049,0.78507238778385,0.786082715914199,0.786933425290435,0.799669463836526,0.800905095436809,0.803289926260427,0.804227942179911,0.805039391456722,0.805642329994318,0.815581879220741,0.826086178087158,0.827473217168958,0.850321627399119,0.85082147663579,0.863907498018162,0.866027164306469,0.868378525005518,0.869592852299842,0.875943272211328,0.920929600318809,0.95801923078258,0.904685354093433,0.904216697920382,0.928674725814983,0.930841360943918,0.933889468874954,0.977049060516774,0.997138827541691,0.970823773335043,0.971842996972033,0.9756307404337
0.937629953373378,0.765578082265437,0.760615501096188,0.754232508701351,0.751467403281338,0.74816437052474,0.746430594136916,0.746076702986996,0.746766611401035,0.748310744631396,0.748448619810487,0.820820959852469,0.763073872989087,0.760344667806043,0.759291243714854,0.760304291654624,0.760918763614019,0.761389964719805,0.760254095285011,0.752467924496098,0.828492559413982,0.840722558759038,0.742370555552404,0.742045658058193,0.737477206744399,0.736769764301364,0.73298866259329,0.729584196256982,0.727833326660945,0.727202107181441,0.728181709418485,0.72966062790141,0.729382518539892,0.697573507205716,0.72738632511037,0.712899178647169,0.713924807080445,0.705800064289384,0.668905955519508,0.676413716285623,0.660605153421581,0.648541733030764,0.668673468988928,0.658838307217942,0.644450272091567,0.648434503605374,0.642658387663897,0.68567641048056,0.69292742316828,0.692635311683513,0.695471352186256,0.710462302400925,0.717826517503074,0.722067852993835,0.762389063103543,0.770028424520651,0.809124869008534,0.795453563506753,0.828151522372009,0.815475965687578,0.832838356087401,0.833973831752132,0.868218165195938,0.940674405906237,0.939182626811257,0.976474151909756,0.977784849057433,0.995255914507007,1.02606639355847,1.00124421969501,0.984890013726116,1.00340014680699,0.983507026057483,0.989519393031071,1.00528425010027,1.04145213179233,1.0344742812113,1.03477262847041,1.10697210306112,1.08273097791544,1.08262788350621,1.05095324111838,1.05084545201608,1.05121006050344,1.04833724539662,1.07360423430318,1.07451984447882,1.07522177786635,1.07739193537894,1.12175209344064,1.0691249349956,1.06443786143938,1.06588101092506,1.01429773614089,1.01438294832023,0.995236620391836,1.00441887666574,1.00248052005229,1.00278019873243,0.987050504686944,0.987252316741143,1.01091096743107,0.998593634694104,0.985796134012497,0.964602733428713,0.921552474216591,0.921747760754844,0.922120079485552,0.88455185887895,0.873887911075739,0.867774198608842,0.863681267596707,0.853751370204017,0.866878764678083,0.883757332384141,0.869459018725246,0.860913699093837,0.842351740088707,0.841384121602737,0.80956545382369,0.807032543748821,0.808185997513344,0.795911070488941,0.774063408216548,0.771209715190907,0.729544821287959,0.716769445159298,0.710731049104019,0.713426441409938,0.684812279806541,0.684886749264282,0.694055958673917,0.695664620284345,0.710724208209479,0.715408229519736,0.715245696403328,0.77945276777011,0.78080225933972,0.784516911580902,0.784422300617439,0.784306969282555,0.798799322215212,0.799190008728384,0.802267561478769,0.803457104863581,0.803554272822344,0.804467586561249,0.81633438938417,0.822516711162103,0.82232078051208,0.850463087590684,0.850839200177696,0.860431473107088,0.861179462115803,0.860965890763664,0.867021327761537,0.875565564509812,1.19772602676317,1.15393819871197,0.903723408326153,0.903504780409083,0.914625014711369,1.23999702557018,0.944074913489354,1.00733829909531,1.06991188071028,0.97000313058567,0.971292881117524,0.979861403205939
0.821295230128598,0.766541523377479,0.762154154289119,0.753650391765408,0.752650352462013,0.745707891427298,0.744860668131739,0.744571795228782,0.745197156454644,0.746903765297266,0.748462617147803,0.750126735381058,0.752941576215628,0.755637809651495,0.759025545545351,0.760570509035768,0.761299989945588,0.761800863127468,0.761695901288598,0.749836643244527,0.747662656755144,0.745399001340001,0.74339057140095,0.741981725501085,0.739818362721963,0.738427130125938,0.736860889864583,0.728490242843669,0.726506569432109,0.724315250101745,0.722585724358373,0.721228502950976,0.711831364909427,0.695536201789502,0.694693166248659,0.695290214230804,0.694761661748191,0.682983306196889,0.664121648996892,0.661635262720389,0.657884437488178,0.652800131144204,0.665756112773269,0.667907297572714,0.673928361543026,0.676730564691632,0.678624012018455,0.691803035868104,0.696028948498403,0.701045134611887,0.718008589084184,0.731688300606499,0.740944662118611,0.760877339160555,0.771987062614845,0.801516507541728,0.823636862920235,0.838981131848707,0.854295529575511,0.869574574895729,0.887769724834769,0.909402456363844,0.931009954272262,0.956935663545847,0.975967578878752,0.993288995678647,1.00666815049865,1.01588295618469,1.02946796098313,1.03125233981575,1.03723889758661,1.04551005484355,1.05297742923847,1.06031922601569,1.06696719863493,1.07387221018378,1.08268295896091,1.0923690316111,1.10661945210601,1.10617089577124,1.1056184612597,1.10512163720915,1.10528502366482,1.10651919526283,1.10862679490781,1.11124037453718,1.11417332010358,1.11716668725173,1.11964345567264,1.12103160100891,1.10387472164025,1.09634224914307,1.08784513169592,1.07933346513572,1.07140696572942,1.06444844848613,1.05786852372259,1.05109502190324,1.04395296615679,1.03599549882872,1.0276286838542,1.01907588246344,1.01055470374965,1.00219277174219,0.989195959871955,0.970294510347607,0.951623290125082,0.936610699244313,0.922297266681378,0.909989694037951,0.890466929811855,0.888032146697865,0.887391207923008,0.887508255233882,0.88651638274815,0.875382687736021,0.870678113243104,0.852899698297678,0.8404738747251,0.829508888008988,0.817734795872965,0.810432855285923,0.796131698087958,0.784000821195719,0.779249509275174,0.765737512106108,0.754231707503322,0.74382051801731,0.734837074829859,0.728332089522645,0.721440604614391,0.713481227909654,0.713419662179537,0.713340522667076,0.715584872686398,0.716171209093086,0.742505850785747,0.778332499498182,0.778621811237534,0.781021141213268,0.782110235681151,0.793085629178985,0.79711395956153,0.800679839660403,0.801186879885012,0.801982726140087,0.802599909997315,0.813598210190715,0.818558922213433,0.820729012529994,0.851284909545639,0.851263530880958,0.860530307017612,0.860668936340942,0.86071408774633,0.864728254925186,0.873929325239182,0.929181696978322,0.963105289978894,0.905853569578678,0.908853958923247,0.962400310086272,1.04243664894958,0.997934349559576,1.00811349073989,1.00797616323346,0.997571880066265,0.980131977398537,0.980189431418263
0.766469953713729,0.765862049861566,0.763289682493625,0.754726997518435,0.75305421644213,0.744421151065672,0.742546797479225,0.741974359592685,0.742913444407009,0.742704447444371,0.740902603552645,0.748503567635701,0.748769645451897,0.754354609390374,0.760242018517207,0.760944761804352,0.752377875522812,0.800991398589127,0.808778365766803,0.719611742698253,0.719387525939168,0.717356031429941,0.705735184462852,0.715994465686832,0.855285584427217,0.892907835516792,0.874305953501577,0.722440551905356,0.721800403327785,0.721573169693147,0.721037428195862,0.719267154634208,0.704248754573889,0.695346375564351,0.689690690236555,0.698057141492506,0.695445440752656,0.662730742256261,0.647193203884143,0.649378654237584,0.64742583591151,0.634337937081961,0.661418456783358,0.679417091879022,0.681057050681749,0.701975680287124,0.682105209340984,0.709457292278494,0.705923039852176,0.707763484076383,0.771631157937425,0.76513021118245,0.746348783875293,0.796544226509941,0.782607187324999,0.829518667145378,0.87655122875474,0.867635856599734,0.908385353810981,0.890142157745131,0.91007113653232,0.961815804937503,0.94822634847266,1.00636856500932,1.03541565609722,1.05108309390969,1.05728584046476,1.11060266078701,1.05253681347525,1.06585226690539,1.07341238429873,1.08185885833418,1.07412265874102,1.07455499686122,1.08074671411218,1.09024581527367,1.12491813956419,1.12504293783172,1.18170103382867,1.16864987721632,1.20346575662829,1.13497540966268,1.13256927142419,1.13441104158826,1.11716765900631,1.12602753761394,1.12579166685086,1.13621364165763,1.14124962886825,1.17507914506805,1.13738593974924,1.11656477122448,1.12000366215952,1.1219091551963,1.10592061993361,1.12277905895855,1.12297178233026,1.09966145921632,1.10007785670398,1.10760564345425,1.07672508288145,1.10580271470936,1.09974346232023,1.04026079797688,1.01229971059523,1.01258061547628,0.970752103032161,0.960170068715375,0.943723946365927,0.934757530029626,0.894479298076443,0.925191013952675,0.903768489188225,0.928320891779418,0.915987663641237,0.885552803898548,0.87848992987582,0.863372413466929,0.839747691791005,0.841501273747327,0.846265660217563,0.813370143612255,0.795646615101264,0.789888652350921,0.789980130470522,0.780935004169619,0.77361844154237,0.779372967879213,0.767158275603611,0.743491457957394,0.743674607733291,0.714782822441258,0.717000402448274,0.702929213626733,0.703059368372103,0.687586569418393,0.705267099828456,0.776745553172298,0.776388573204226,0.777680436021963,0.778556885694406,0.787509725927588,0.793193193720349,0.798866914688138,0.799581552191862,0.800833254256215,0.802020190475868,0.809403564484512,0.815758710933589,0.815470097404619,1.0851530572889,0.851390895136564,0.85928689666521,0.859840696322438,0.859972892920392,0.863756418799057,0.870455049804985,0.877530068388336,1.21609493650662,0.903613057561976,0.910889549152772,1.14656318755116,1.16393481344085,0.972822170439809,1.32605578102344,1.00656087566456,1.22988568354564,0.977878245228227,0.979234533827654
0.834376376595326,0.804199977839525,0.757771310086175,0.75416049587769,0.753268667578294,0.742124583551199,0.741146815487576,0.741084454269564,0.742521202282434,0.74283426929891,0.742235256359052,0.741802829524249,0.74211812678248,0.743546812360404,0.74381941942798,0.743013344471624,0.741529203382014,0.741001141352797,0.729297415000417,0.717601677940076,0.716745003537823,0.714507142755503,0.7125413545296,0.7136290973033,0.71212545737034,0.71093882332878,0.71002224479725,0.710003630254326,0.708875218342986,0.708369786904472,0.709014720232019,0.706397609987305,0.70114958743346,0.695501628201103,0.692830239281922,0.683779508430879,0.677269203821447,0.662455012106893,0.658086225268205,0.65963461075979,0.659893777751626,0.660824405902703,0.669518080797575,0.677449260330405,0.690300706036423,0.703640846207016,0.706006594035973,0.708324843155074,0.727637114172546,0.738542399278854,0.769237659159146,0.784144161301771,0.804150828928124,0.825612714077612,0.847100432995282,0.868592031749391,0.890096344980071,0.906353923912906,0.927221858368451,0.947738255262932,0.968536816358473,0.989265159103326,1.01227094607216,1.03517563316298,1.05799642843357,1.07698843720842,1.09376025974047,1.11455262406458,1.11780824315121,1.11943400738303,1.12208522046101,1.12857616652118,1.13585124063121,1.1422813036471,1.14732883030929,1.15034976309654,1.16242275930321,1.17562060682365,1.18334523704133,1.18896116173214,1.20144962400285,1.19857445388196,1.19542199796788,1.19334439777475,1.19271508950019,1.19277694256673,1.19252654821785,1.19133519331193,1.18904644517358,1.18582391535128,1.181961116256,1.17787316818781,1.17425728939255,1.17130178818856,1.16925384936306,1.1671747056578,1.16327480793213,1.15833035456885,1.15169248404476,1.14315729645498,1.1346776876368,1.12272806462615,1.10994200953604,1.09255407678139,1.07184514906369,1.05184746996339,1.03274874269066,1.01455186523834,0.997076575793127,0.984045381597975,0.971548735108271,0.958181997762688,0.945782884569432,0.932876026748126,0.922705001004224,0.901588903761318,0.876697534317906,0.869530976947065,0.84854301062342,0.84392907063689,0.84560143292724,0.823502978592621,0.813423133126518,0.802627512600297,0.796167103497361,0.788880972331068,0.782188036932678,0.781382345949587,0.765294754085666,0.749585579611487,0.746514204726258,0.73792057669878,0.727200179789438,0.718748408956444,0.703599389198455,0.69941756930395,0.7107273776302,0.740709983257231,0.751863586703051,0.763506611667452,0.775810980099385,0.782312527508173,0.795431253728398,0.797028433489517,0.798188332834874,0.799424212224634,0.800494820384354,0.809572905797251,0.811354614752219,0.813878166674806,0.902958761859687,0.855901038291598,0.858567981364887,0.859933363270892,0.861352345700075,0.862877947269304,0.86854319099355,0.883422885752422,0.889805177754898,0.894202637451113,0.911654350660726,1.14228538399506,1.15852773208279,1.10858081881377,1.13802737662394,1.00986016933757,0.999814340421823,0.979234033171545,0.979604142462395
1.02906249175269,1.07401247444135,0.753684420785609,0.75332608523043,0.751882203888642,0.740413144257793,0.739168107809906,0.738318133397552,0.731370457703688,0.732569791550392,0.735208627480615,0.736845147921694,0.737928052331908,0.74569400794905,0.745550350011711,0.744510707492855,0.740179248067042,0.739906034830477,0.716512193993524,0.716104842691949,0.715848251216984,0.711252363974452,0.710970932373055,0.713807970675545,0.711394249918664,0.708089981744972,0.708142788283797,0.712841736760643,0.71065807816431,0.709334942296552,0.710257614596543,0.701963110053362,0.698635076220947,0.697029366804762,0.695524361314552,0.675544600163353,0.671539316408173,0.660885999967216,0.654956457208597,0.67809874678466,0.707085777631592,0.663309732047218,0.675655986407957,0.673987131144446,0.726622073929338,0.70529866685032,0.731317583937956,0.7077572513822,0.747457742943861,0.747950600274765,0.766456313985146,0.8043491676165,0.83118256258408,0.883657183980718,0.919383330430624,0.937007547081633,0.909605852867806,0.927997946463409,0.9544545851321,0.97545468953846,1.0101856011293,1.0111093128793,1.05464031670183,1.08335306745557,1.0993935284261,1.13851836851074,1.20275512406292,1.16498407433971,1.20556649361289,1.17718489630371,1.17061170461458,1.17291555764653,1.369250538764,1.36845161791267,1.15268397098138,1.15429137891377,1.20843418506165,1.23953762860369,1.28014929096792,1.29285906003217,1.2579339689604,1.32213592426287,1.26369285823278,1.22053526673676,1.22080932373063,1.22095467951909,1.25092111601926,1.2431248697497,1.20942663456892,1.20211905628126,1.26736976528634,1.24504178202909,1.23811703897656,1.22595940324193,1.2438507664637,1.19310973162241,1.23522680017108,1.22452690377007,1.19778552775849,1.21733834979832,1.22534891801777,1.16744242794268,1.15222511536643,1.1473648893519,1.15447775340262,1.09823223865944,1.06626190614096,1.05868338953595,1.02252900463769,1.00741777044606,0.986391986053498,1.00714355286484,0.995282119701683,0.958536810895156,0.927819304649507,0.915977532057734,0.874926034995632,0.874194131571279,0.85020425960639,0.842230240825248,0.84594298953569,0.833907591689526,0.828722774266876,0.807983277595511,0.807153543326942,0.808874032896004,0.78339533063564,0.782767623167357,0.763298039648376,0.752961774411727,0.763630971018082,0.746436328812108,0.737856267218248,0.72727876182543,0.70742244257995,0.697067011761041,0.720496614230517,0.731917724996206,0.730840004906072,0.735304212782283,0.76897080220766,0.778446541282731,0.985537613639774,0.795057554523884,0.796334793659003,0.798195652080154,0.800241918377852,0.807123197819787,0.808643446767404,0.808240431561272,0.967505720362687,0.844836198137104,0.858050551804614,0.859176889950175,0.861251859814339,0.863514162921931,0.865899285352796,1.09019936594744,0.888600734360018,0.888754845318614,0.910497053034003,1.14122313172331,1.19420662383957,1.05205681471355,1.25468655856693,1.01170261811935,0.968357482266839,0.978666994428054,0.978744486186572
0.767565064921415,0.765212528294384,0.754488900372358,0.752820579103557,0.75183003692796,0.745590327866409,0.736872416395794,0.736498762031719,0.732347103367904,0.73332586777594,0.734019427509434,0.734580087741275,0.73470031701733,0.733601890066782,0.732757892016835,0.732118460813363,0.730877953786146,0.730515668424045,0.718974122023972,0.713878958688476,0.712427089871732,0.71008084011704,0.709043853822018,0.707771101657579,0.706888520204482,0.705271940375804,0.701202008195762,0.697343992552437,0.693848702246413,0.691573275579487,0.690149164934518,0.686498931153343,0.68426749976317,0.678490037939132,0.675416062296584,0.671303130961917,0.66619123507655,0.659589978286116,0.657380277213812,0.689859927410723,0.705395295679552,0.704319678443508,0.704757043612657,0.716026582518695,0.732454403337606,0.74039977592911,0.749830767198502,0.765343283827233,0.774608344571578,0.801382620255425,0.828159176459578,0.855301190926762,0.882812795279382,0.910628254070956,0.936482894291866,0.955298761239238,0.970687483146444,0.986280763233196,1.00212456314915,1.01822646930124,1.03452815935717,1.05033820009147,1.07144494928808,1.09101836824434,1.12905563382937,1.1677204757374,1.20275359367426,1.20248138120577,1.2022272976639,1.19897767741766,1.19633730772093,1.1943410589867,1.19328434432311,1.19337830688457,1.19428547916712,1.21498571662162,1.21908047791962,1.25827397143912,1.29052746101849,1.29720963343776,1.30315760376837,1.30907671758968,1.28771754690351,1.2786324054486,1.27570440148665,1.26776233516462,1.2677129228156,1.26946100438508,1.26881716922929,1.26520732816646,1.26408049572585,1.25934137376679,1.25461980167266,1.25021955677607,1.24652880541007,1.24372120661024,1.24223274281119,1.24200791408646,1.23862427249462,1.23418627299672,1.22978926168244,1.2124899625527,1.19823323606741,1.1837976248718,1.16913447188299,1.14886565824807,1.12837496943588,1.10812212383198,1.08821491881225,1.06871259847772,1.04959420857715,1.03071867104128,1.01125753461187,0.984559371426102,0.960616844222302,0.93095363482075,0.910861933923171,0.878790695488306,0.864898726876013,0.85711488613446,0.847858362480036,0.841074436983416,0.836223184321746,0.816984346926978,0.814155024890588,0.811745551743192,0.795542371947853,0.789184437053291,0.7723866574785,0.769018021850677,0.76654169081243,0.755394977262552,0.746362300348231,0.738849017362041,0.731442706947162,0.732647054537478,0.733627742076462,0.733122441230312,0.732417096247111,0.737234769664834,0.767128611358052,0.770945766321717,0.800376949105057,0.798271086330721,0.797937230877083,0.79736589563107,0.798964153375479,0.8050110439923,0.809273862861139,0.809778585443449,0.901486280195424,0.852096563903225,0.859188424509175,0.859868877731352,0.861343178668289,0.863739013263584,0.867202462236746,0.918707976142691,0.945412511053273,0.972883993188757,1.0013804158853,1.15661222116189,1.16331273291583,1.11976950820992,1.14888040374345,1.01576208845937,0.973368419320301,0.97616481236776,0.978692318480625
0.767872829489307,0.757053494859693,0.755953735001587,0.750307722227639,0.74981294242633,0.748923927813101,0.735195557589752,0.735134358780149,0.724613060474933,0.726991273268741,0.72768815200873,0.73315084291552,0.733805810067906,0.735287364171866,0.734567081160649,0.734065460213933,0.73009832947951,0.730132617105543,0.720535129749423,0.708442285723742,0.707515181002331,0.707554365399386,0.707356937018066,0.706658893731359,0.705897337610235,0.699240886078608,0.698906480762802,0.698173246457453,0.673560157557301,0.677266706493409,0.678073655481476,0.677778839134622,0.680939676898289,0.659094453839131,0.64404955937545,0.65271674586292,0.636791137561888,0.64198460735322,0.649665415225105,0.696418599269246,0.710762726158493,0.703013754738589,0.705153280566572,0.734660252515277,0.744102812358396,0.764150454521917,0.784818585350827,0.776814368932729,0.785524880114145,0.859590535475478,0.858636774355609,0.913389809992144,0.972224057315031,1.01452801282719,1.00340259266065,0.995744291851713,1.05932918393814,1.0391695916838,1.04048260223113,1.08035161742955,1.0685833667866,1.06926424700581,1.08617439210129,1.10274979640378,1.15969649528473,1.24003450343653,1.25663658286963,1.25916727431034,1.25609045295231,1.31305907636443,1.24265146962208,1.23872839467024,1.1906577940345,1.18438089345369,1.19555187855626,1.2248415997909,1.22891561358346,1.30298943684362,1.29860862063426,1.31224400581313,1.31994440816835,1.4187243520468,1.33243758799631,1.28091178901312,1.2820114038942,1.26835156789504,1.26521818735106,1.34218608563664,1.27165021771695,1.26097215829888,1.26410166951885,1.28094483844016,1.33070842701385,1.33110088979985,1.31601577074017,1.31098857802269,1.30977139708455,1.27495845511996,1.30051236253093,1.2477374402326,1.24032710283475,1.27426725065219,1.25677315863767,1.25519675516348,1.21316510715948,1.18774403626491,1.22713309063397,1.18769808041724,1.12702317046413,1.14931932833871,1.10339132382292,1.08464713307808,1.06348768605732,0.999799663083067,0.998763614789324,0.944778035231675,0.938491289821654,0.883336740625008,0.874247170456154,0.873071708328886,0.84911636132138,0.849632915511334,0.838989605989436,0.818635557470269,0.820461587840928,0.812255671780068,0.804654145000861,0.793318246694275,0.776543388100573,0.778776961906046,0.776862884153337,0.761277624092022,0.762899429806348,0.757433933612993,0.731099599103968,0.740058622273725,0.740908422651124,0.701480654353457,0.70873767788134,0.737733856134052,0.766097812539901,0.765833798381051,0.801295360281844,0.784348703583614,0.784858444560708,0.79378638462819,0.797851181757776,0.80239450732445,0.808111039654456,0.811370402847874,1.15034312628597,0.839042582035698,0.858353400030748,0.859522535301001,0.860464083896168,0.864427266070547,0.868972658238194,0.874301850959447,1.36696004839681,1.32584962216167,1.14592701357921,1.16502165731465,1.20006793390307,1.06305728675696,1.31709600850726,1.01871792440752,0.971720779866406,0.973765413579915,0.979336978181987
0.772592255452015,0.757363469975419,0.756965566537545,0.750666500282524,0.74957689015563,0.748683902495179,0.736841699904056,0.729005214376056,0.726287753606222,0.727462229413697,0.728855731946397,0.731136859614286,0.732540168823199,0.733225515012255,0.733022067976205,0.732306618908436,0.730546107430855,0.723628219280254,0.719604606425447,0.708728960409179,0.707668543768626,0.706564204782339,0.705760858206874,0.705084581838764,0.704337668202439,0.698158463495535,0.698033472385486,0.695343815681031,0.674445174333557,0.675051923738048,0.676169433745511,0.669683893606663,0.66437173298032,0.657199087641708,0.655617240047548,0.653846139251654,0.65255599673014,0.649426061569126,0.684925192473719,0.700266346850894,0.71433254555105,0.720017113581736,0.737717831177318,0.750081297281121,0.768191280089822,0.786334301750273,0.80246308703504,0.818482218595707,0.835413825294076,0.874397247094821,0.904019696460791,0.933699833228884,0.997890903002405,1.0249388641468,1.0409244050035,1.05700913262556,1.06862060967937,1.08259783495328,1.0945272261603,1.10539463174979,1.11610686660816,1.12786535657359,1.14198439544637,1.15437799686757,1.16992044700894,1.20730430165323,1.23940921800833,1.27002222248463,1.2768724082248,1.28885506068227,1.28206958648009,1.27807907588377,1.27814148444895,1.2774651450332,1.27493578821745,1.28194264046044,1.28434599724485,1.29095922242911,1.29992347231265,1.31583753633621,1.31848416337466,1.31803651741446,1.31773406168111,1.31769188996614,1.31965045025221,1.32820123030924,1.33063418755694,1.33444357066333,1.31721402906824,1.31475393936575,1.30138193615716,1.30182050144959,1.30443909841326,1.30701576926791,1.31231600671146,1.31117011847679,1.31063912892336,1.30456746259317,1.30298976541807,1.28965788888405,1.27718276774333,1.27387956968782,1.26356009883835,1.2592919446075,1.25092239774654,1.24061984283308,1.23377281459562,1.20467775154518,1.18134371145704,1.15370785059297,1.13454033988881,1.11068178027522,1.08418721073734,1.05453484810342,1.02093410074214,0.993194604095491,0.965401638237194,0.937566491834898,0.915872082928418,0.899617733421897,0.885209280849689,0.870625687244884,0.855695412024912,0.829284818219687,0.82441901825886,0.819084050010186,0.812408035628836,0.804127332235315,0.797298762945362,0.787566195295164,0.774796781232419,0.770807497388944,0.766129875136937,0.764738938697507,0.754205391267134,0.744591726746702,0.743257445333741,0.713390023033091,0.713695938614488,0.727589013827574,0.755132172532113,0.757645494650473,0.781312250153232,0.782414925144992,0.783724355243803,0.791958378171694,0.797075874951998,0.804309862559915,0.808864688232454,0.832964826469088,0.837384475349889,0.837726543461092,0.858208308437861,0.85867891861643,0.859151459615399,0.898599431744681,0.923688134205764,0.948756231093833,0.975061857375744,1.00303779058249,1.15154770790523,1.15785380664778,1.13830794710779,1.11471558778354,1.04981164317776,1.00687044753775,0.972066991705966,0.973242230394517,0.979835522569156
1.1739175329691,0.758479234818689,0.756885416620239,0.751508010001423,0.747842698270651,0.747011694813164,0.738786322513436,0.719085670610253,0.718728470026245,0.719315350959046,0.719570022504638,0.729027213875863,0.73224899806756,0.732087494044979,0.732058692903064,0.731459042163157,0.728257119037917,0.717586067849101,0.717848479420384,0.710273845223035,0.707946817014877,0.705420909730142,0.703729468751791,0.703856219853431,0.702903285084973,0.697025830159108,0.696986292085809,0.688692299946557,0.670374268074568,0.67107568557083,0.677077985122304,0.665848525200097,0.64929520270405,0.635398119796375,0.663824923722326,0.685470044288025,0.65631974437462,0.645301855512464,0.727104194392541,0.704559702212268,0.736810486530839,0.724573132670331,0.75353912601806,0.764054600107981,0.788429315354203,0.814334829251216,0.822861659498105,0.847389437636036,0.848120775376914,0.893812268443089,0.960633970175407,0.947357791131795,1.03007424403182,1.08329922496319,1.15511148501889,1.18011763407211,1.17352198495801,1.16358445478212,1.17953349404222,1.17556724021397,1.16284479659549,1.17677343038314,1.14433336994887,1.19226096964203,1.18676340742849,1.17698536656258,1.2213809165663,1.28941350103528,1.34008800819679,1.32224208280692,1.31214046729419,1.27721703286541,1.27759683371465,1.28505258409009,1.27027054955382,1.32518265055119,1.28454649079046,1.27289753872076,1.30110633004681,1.37137099633233,1.31882586971467,1.31851336162929,1.31790822409781,1.31513540324248,1.32013234794803,1.33238384961244,1.33107707536705,1.33466336181009,1.3438090925526,1.4043735215412,1.30286850984432,1.30245313623719,1.3009124513441,1.30296410608891,1.37627723123647,1.33087807706553,1.39484381186735,1.30530899631376,1.35442669515422,1.3567897896161,1.28519877014191,1.27353843756817,1.30538033518661,1.39055303528859,1.27046473842391,1.24359190577729,1.30997239392418,1.21298605450362,1.26271365757722,1.16014012799183,1.25839024556587,1.17804600718784,1.10367804332362,1.11576170342988,1.04043068363545,1.04103615979987,0.997408991884939,0.956871052186526,0.940579673936254,0.914181368773784,0.913078503261905,0.886830491015253,0.886013270068003,0.837294029143488,0.837582693125527,0.838555259265771,0.821101053631123,0.81613114186365,0.805611301241445,0.795958729955997,0.773698279183378,0.785843567622085,0.78015826655027,0.771882332546143,0.75926731478624,0.747286787645793,0.766176735643074,0.71282119836361,0.71399464518839,0.721840773477897,0.74357223073418,0.752893690906589,0.781096778803761,0.780416048616806,0.78480564016012,0.789894825422432,0.794366393287161,0.805226747091888,0.808343557489509,1.12629123956279,0.836794768475066,0.836637249067839,0.85659203923893,0.856812613297169,0.857232108507938,1.20855760346842,1.25592509792966,1.2548742533109,0.8897776390146,0.896114610764833,1.29981306039113,1.34483666259864,0.929654487934186,1.31779818503674,0.983768776288772,1.00188487510615,0.969184334421692,0.971503960437126,0.980289069435214
0.761327520025471,0.757370038261269,0.756744213115476,0.748840886940554,0.747796883568192,0.744537276073288,0.739083837995133,0.724458437146675,0.717364314028155,0.718220845467708,0.719178249534394,0.724163849743452,0.726711499071843,0.73008575866244,0.730907353010431,0.730965574454127,0.730580974453722,0.722122333608863,0.711366039370819,0.710265580028598,0.708125935889031,0.704819808888926,0.70324535594253,0.702578653461703,0.701773433017417,0.690868568370721,0.681550360035196,0.676162943990635,0.665156853030169,0.661883252257321,0.658296087295523,0.652820988932403,0.649989214817985,0.649752306746818,0.649942945538929,0.652452841540839,0.656832490336738,0.659420723018197,0.734744394726848,0.741440972635648,0.749181261143537,0.766837471960298,0.782853835772501,0.797737787852642,0.812867692556304,0.827134739045694,0.852201363116567,0.876119902106319,0.900061102365797,0.932810630156873,0.97909693046957,1.00600382486279,1.07376459307597,1.12238374882623,1.16969493470347,1.17837898154021,1.17791466654021,1.17825789341346,1.17937372402595,1.18095214548795,1.18284181090938,1.18504354993289,1.18678994953883,1.18852732782563,1.18781485029249,1.19105161081564,1.24008186577912,1.29350288105658,1.31642864615846,1.31891197388294,1.31320751096174,1.30089640520479,1.28855658471395,1.28568840884965,1.30263889560913,1.32266640481413,1.31974581818076,1.32087791781507,1.32163117019624,1.32424280130753,1.3264593884359,1.3280479977674,1.32907764623212,1.33001356409908,1.33150230634833,1.3334396887367,1.33534254389984,1.33613637060357,1.3392899067923,1.36720648954538,1.34930875429526,1.31886200997626,1.31919050861989,1.32381002465909,1.37812403222608,1.3858866159169,1.38874887681211,1.36746273671823,1.34910555320192,1.34513427724445,1.32481808310809,1.30204119795194,1.30531100894807,1.3062943728189,1.27336632453755,1.27013576839046,1.26918546040563,1.25622229225428,1.25708593655068,1.25762158189738,1.25762666447152,1.20318146153516,1.17273502796532,1.14135868087532,1.10559981522224,1.07433358196726,1.04594553016623,1.01876153790134,0.992731462984355,0.967709683451143,0.943302231253228,0.919316413943415,0.896708024727769,0.858974388340978,0.849598082883062,0.843692949082057,0.833687435418108,0.824719478101316,0.809262451171782,0.803159051554338,0.798898245386706,0.790289811566981,0.788014690665431,0.773770807498608,0.760630667229344,0.75730456071657,0.752946811908373,0.743384527745206,0.735337749267061,0.735294662117244,0.740027720152997,0.744253518446462,0.758230452859511,0.768386087222391,0.777499796381566,0.781273558308849,0.799018976129032,0.80468985165623,0.805627320030951,0.889074258982469,0.836507179587391,0.835786593683829,0.855962592780159,0.856670376214362,0.857342252127413,1.22873006795058,1.25565082832754,1.25524090523955,1.24949722735396,1.24359863705483,1.25551889376696,1.25235801708131,1.11327521622297,1.1424473768466,1.0512061332868,1.02656486541863,1.01653577582261,1.00111371419919,0.981660589362132
0.755719091804869,0.756288092232595,0.755916261924077,0.74708459695299,0.747143336460342,0.740967213109036,0.73957566005998,0.730644211197391,0.71593216720801,0.717032966995173,0.717886326015657,0.718245511813861,0.724666385680157,0.730441161791425,0.729658612894185,0.729894458493008,0.831649988223069,0.833711578513627,0.702797298026552,0.699915965128244,0.697308548423612,0.700539303052992,0.70136847060766,0.701222327274631,0.699601681562871,0.677081129140102,0.677404200426608,0.665960409591327,0.657299581331437,0.659530495289252,0.64631984684678,0.64092186910182,0.63837808212841,0.648747473024906,0.647752070297178,0.649275910938458,0.668208277550865,0.664814740466387,0.75689341464368,0.755135027275805,0.759846821612949,0.816637758822774,0.815194217322126,0.828070589854457,0.828856273369341,0.841459091906567,0.87459688631404,0.920765263091787,0.918103183049702,0.971661853064192,1.01028159000803,1.03131048525578,1.10555312129746,1.19164538482234,1.18408492280679,1.17718547983938,1.20272260794571,1.20361217468469,1.20493831119154,1.31572949973715,1.1973111944089,1.1855614290181,1.18912654188498,1.18678909120306,1.18375383210097,1.19259550853859,1.25418171631359,1.29974465555417,1.31482119405828,1.34245857833519,1.31562661401358,1.30649255503392,1.29276521028654,1.28443588928859,1.33640245210563,1.33802333302698,1.31519087928212,1.32125012025607,1.32224901305298,1.32193382892724,1.33635279276647,1.34135702170117,1.34184063243309,1.34150086977176,1.34163726579574,1.37298260162248,1.34161683171732,1.3362095275289,1.33606554369117,1.488389624103,1.40990563402904,1.31789741301672,1.31873947656065,1.33106623228607,1.37893054800524,1.42555521375377,1.4253117907674,1.38379479441525,1.34763978128187,1.34114138067494,1.44033282315325,1.29813183750345,1.30717532276723,1.30640417857268,1.27950188508486,1.30512790545334,1.26589527198995,1.25701926884339,1.25381552158779,1.26062980614286,1.25810953881158,1.22571992584784,1.23898093259741,1.18437532303898,1.15283632522492,1.15183771560218,1.09418764231331,1.05401408761746,1.02818181889394,1.01839061342878,0.976793229449445,0.950793594686288,0.907996215544168,0.872242066423371,0.858028584218517,0.849861059419789,0.849499822607672,0.841821752459055,0.811921867739363,0.812151102966504,0.809188774933521,0.80992068648992,0.792428938580193,0.775542879158527,0.762356762593217,0.762874649776129,0.747666961289689,0.746616469491507,0.735631218742057,0.735350733727451,0.737010947904765,0.736891166868909,0.750637669483536,0.756413585756268,0.77374023940493,0.76604704427543,0.901398140700427,0.802002730148879,0.80291906861317,1.12689979255501,0.82964730684112,0.834425519103583,0.853073185404782,0.855126924211102,0.856952853331084,1.26385591406881,1.4063379642275,1.3083123606335,1.31305868824609,1.23234994328338,1.25820823762262,1.24881208394332,1.05498731057302,1.38807201210726,1.08282805875863,1.03641458408383,1.03838875845991,1.34787942755973,0.980925249455973
0.756716832222932,0.755763380822515,0.755177591166683,0.743936974932882,0.74193557857151,0.738426550684048,0.735050557059095,0.73046899155863,0.715800139075053,0.716384514851309,0.71792013655129,0.718701694100987,0.723806389220187,0.725276972733952,0.728628526224627,0.730266152299187,0.716228991437347,0.713912491991787,0.702075045277082,0.700293987182946,0.698684359149242,0.697864755401693,0.697812233839985,0.698723550413052,0.698895219152515,0.67664260061422,0.675358897765534,0.660639373881069,0.651000927197922,0.649683937625737,0.645451305206078,0.643401173152406,0.659111377908197,0.669392779972262,0.681343145875865,0.694592358314691,0.70733950321174,0.728288112831825,0.769356552845237,0.788217922647256,0.810878684018213,0.833662139293367,0.850856655426509,0.868249339948216,0.88587165804733,0.903705339353259,0.92169401430026,0.941304423390395,0.96166219643213,0.984263600928212,1.03116661449613,1.06146436449536,1.12701053904165,1.18804845269881,1.18513519617816,1.18667471361239,1.20183004077543,1.22960002987715,1.24681784298767,1.26389238697439,1.24245463166048,1.22733172527008,1.22498068840994,1.22207274043274,1.2168973991089,1.21843238377322,1.2613982642014,1.29246233622753,1.3257355743013,1.32807191136057,1.31940536175311,1.3146671830662,1.31348569913902,1.30288113985852,1.30427800141297,1.30663148220086,1.31069707231138,1.32290919439943,1.3226215541964,1.32278319071215,1.33620094105462,1.34234776780934,1.343005013205,1.34454455198687,1.34680166128184,1.34931272822706,1.35044810149055,1.35671706211852,1.35908395540443,1.37252254497008,1.37381606971836,1.37461297330723,1.3759197457712,1.37824408154788,1.37944211066435,1.3951168981821,1.39247722229314,1.38747909848881,1.38629465520385,1.38377502097253,1.38176538442196,1.36193686293609,1.33945288163071,1.30544787948658,1.3011066200965,1.30384352886996,1.28605290313742,1.27792761779321,1.27247841789641,1.26644039900147,1.26261715376913,1.25267803958688,1.24493987606081,1.22049355966467,1.19581728655286,1.17095074131174,1.1401056440391,1.10522328415699,1.07217853944748,1.03822470108753,1.00724284473258,0.97796462433799,0.934462810374457,0.904673337936414,0.882959243654916,0.870402562383391,0.852261808861695,0.849468609235758,0.833454139842864,0.82021955166256,0.818469027239387,0.814791201279681,0.797199053416452,0.790534889553904,0.780634067301828,0.772358614512942,0.767232658761217,0.763655000346335,0.759246390207324,0.753278023256378,0.747973198892956,0.745106155660224,0.746529436835031,0.75159633269951,0.760910788836734,0.761825278964309,0.78583342016314,0.800541274899836,0.801633025409589,0.895497516487852,0.830326380605912,0.834528021075309,0.853642354294673,0.854920036433786,0.856225081714297,1.26454986393352,1.34641870841725,1.3267930976983,1.22167389278175,1.22210349934183,1.2226956905417,1.22310540134499,1.12138988422975,1.09275831842982,1.05961693250259,1.04395454946109,1.04036055930889,1.02839401174211,0.983618876519704
0.757611222756639,0.75367022808767,0.752683136121842,0.742283339669596,0.737921433081469,0.73014462089297,0.730092677748982,0.73019938829833,0.714783705019778,0.714210287604532,0.705747741037619,0.712180887123701,0.722059283839378,0.722313320597983,0.720186767739647,0.827502018973156,0.689548977278951,0.689180224285888,0.689569231685245,0.690081796025679,0.691864500296581,0.695021792984525,0.695650986858486,0.669513578225626,0.698311241686398,0.660233618576827,0.673238384487008,0.633285262554856,0.642855266107653,0.645109236026518,0.635848028123347,0.634260258091182,0.67982479449451,0.681184932378098,0.707841266104562,0.722303740663556,0.721877980202932,0.749817305004365,0.789979219080618,0.834276878578313,0.868191508672587,0.869650210793587,0.904022318286035,0.924468887062588,0.923779675582661,0.934302880174164,0.948789860436175,0.96513733518867,0.98288850448969,0.999216036558246,1.0530405069272,1.09055494852811,1.1548395115675,1.22172394877223,1.18156069274798,1.18851796349415,1.20143057525712,1.28636149840681,1.28477519058443,1.28262254846496,1.28605498268528,1.22957455159487,1.22943419855432,1.22410298306175,1.20539498463294,1.2283694088753,1.26867780072695,1.28696539256237,1.36583867549537,1.37706816287462,1.37652762312178,1.39431666723172,1.39450291604477,1.29960869812852,1.29796571912118,1.28293922501549,1.31059191475376,1.32589371050847,1.35555929077745,1.32395419742895,1.33552628393836,1.34227650445068,1.35702271452735,1.35653262807144,1.35752004884355,1.350105336422,1.35009851384209,1.36273878063301,1.36174569752512,1.37004261302067,1.36509990035177,1.38410405882663,1.38276265456317,1.3839507659228,1.36476863682957,1.39805576441982,1.39033532006705,1.38909542925012,1.3892972691042,1.39671622136753,1.37999692641561,1.40656291502256,1.39595395880652,1.30300185813505,1.29740663779706,1.33179132652851,1.29486381030065,1.28166592718589,1.28564354456859,1.28142101071813,1.2936697202962,1.27613271346734,1.27596080829154,1.33993910384448,1.33873449334429,1.23375218545085,1.20276288111239,1.17365527840578,1.11668537837626,1.06047436938564,1.03765744607354,1.00636879148256,0.956907828161124,0.919499805980317,0.893519452520977,0.8942442473225,0.860184438274903,0.854500521884759,0.847048302817995,0.824872260371844,0.82434228690264,0.818500790870839,0.803093943893725,0.800553670161638,0.801331640546752,0.782131951151359,0.774755787271008,0.772547590374242,0.760371544876006,0.763440880498764,0.756523180163946,0.735520784495964,0.731292123905528,0.73337934450293,0.757911386849445,0.744360978694643,0.770947755558005,0.79772711016339,0.801533260280461,1.37608819933744,0.826401152225553,1.24005319969254,0.850929654516357,0.852447303164198,0.85469913711815,1.265673207532,1.39610801082052,1.39567110097996,0.890912504267821,0.892016024165517,0.901147309855931,1.29962536683975,1.33373335755595,0.934439586912304,1.04679028787692,1.04988642310014,1.04152537864624,1.01963641377116,0.972227270990796
0.759635736935311,0.756195262682198,0.752683449136608,0.7401531667196,0.73884309792427,0.730093677182502,0.729666486271324,0.729000232632918,0.721009381311127,0.711737382780637,0.708006855900567,0.706590804444915,0.706143657277204,0.705886472875637,0.698523382634185,0.694718178920749,0.688842111344613,0.689071304256501,0.689594565374956,0.690305811078955,0.690829161581577,0.690694124952858,0.680384346573901,0.663129979201023,0.659860753406946,0.658894722396073,0.65394859524623,0.649550262330731,0.642413224585335,0.644545574060226,0.662245750409457,0.672017080818217,0.679075914398488,0.685489867348485,0.720080624989376,0.727661719848245,0.73192669244635,0.777111226514744,0.808116441186801,0.84875032241231,0.864299509001188,0.898304470193841,0.923984436397452,0.942398801279682,0.957546978563642,0.972712481522497,0.989777867761292,1.00805735647717,1.02991577693467,1.05175764720914,1.08588788537159,1.11709371325725,1.15499935757369,1.18345524010548,1.18279669944397,1.19693682546333,1.22911120166281,1.28516327850967,1.28431976868815,1.28336695610235,1.28119851315186,1.25186997796395,1.25070337284094,1.25641094689581,1.26509605020236,1.26986443912183,1.28609396170518,1.30355884584523,1.34779039614586,1.37572084902234,1.37532186185678,1.37466105244381,1.37444371768343,1.31725005790078,1.31617931975452,1.31367946477404,1.31892871800488,1.32426018793256,1.32488709191285,1.32704561782556,1.33941243227858,1.34500731909535,1.35263090438759,1.35787974714812,1.35818428354699,1.35890031533318,1.36082989221961,1.36434733955114,1.36815813423178,1.37038383456253,1.37206489348149,1.37176294497741,1.37215880226095,1.36918569863128,1.36686392839879,1.38231337461501,1.38679031344906,1.39090366768768,1.39217032343312,1.39550215638753,1.38343316618434,1.37657285449456,1.37282928537387,1.35843545781294,1.34153821567141,1.32947012334502,1.31857038120339,1.30870662780306,1.30613093705795,1.30463084474151,1.29966424857727,1.29288748246649,1.28791758682199,1.28479121342879,1.28272191037879,1.2614425702376,1.23273792373752,1.20320770958074,1.16700083437042,1.11502518270837,1.06447163266171,1.03541646054995,0.99365393598603,0.947297316659061,0.926203803758936,0.892736272307167,0.879533732572993,0.868626368734729,0.856568060277424,0.839547707181272,0.833292540442432,0.817873320263815,0.808404963722053,0.805226282759689,0.798553262063674,0.781770395508049,0.77900509266053,0.768913524805023,0.766216278730931,0.764543379243084,0.757388563016886,0.756433305457418,0.751501625750167,0.740584213906993,0.742769234622372,0.74466315080771,0.760218492787656,0.796811187402068,0.798709129699112,0.88613372362997,0.870079059907128,0.90291081898165,0.850678030213204,0.851710300998206,0.853715279840402,1.26671522582847,1.27500926309426,1.27896535579494,0.955451924037278,0.895472029877405,0.900389640670971,0.95640028090425,0.985131906291349,1.01427205234419,1.04748361216084,1.04801849511649,1.04503567771172,1.02078674087377,1.02239975628523
1.16980743811462,1.17089347114688,0.75150923006191,0.738459201097653,0.737692537654421,0.73010843689374,0.728842781508687,0.72660576156743,1.01524436201371,0.700189914271742,0.701122675021759,0.703074451710562,0.706252610717429,0.70620080530275,0.687828444906158,0.687244534871784,0.687863222523409,0.688830324165515,0.689330454587646,0.690480725834967,0.690261805469356,0.690403210947877,0.662033480421492,0.66201158084639,0.659927823472419,0.658019812943685,0.640962734060011,0.68217705186633,0.640059019388669,0.645894692602821,0.677050740980628,0.679138788164207,0.678893810499404,0.690198242334765,0.7396827535476,0.737315477559778,0.744518241947784,0.807111073376859,0.827343070660985,0.860411793914272,0.860609534160455,0.962920774909788,0.976577340543798,1.00131679506821,1.00902254402597,0.986147945385387,1.03452218177878,1.02758317656534,1.06656590239868,1.0669653160213,1.12027074156954,1.14743913115141,1.15500406082659,1.1846380813807,1.18386383667129,1.21101495538937,1.24406159448551,1.32553018318534,1.29420622479201,1.37765171718715,1.27157107482702,1.25306103112945,1.2494307071753,1.26062061710669,1.27781901370143,1.28034983147209,1.30721873403189,1.32298556317419,1.32947413579912,1.46365430813207,1.35458650378755,1.36870223187172,1.37500435171112,1.31762477428616,1.31679089695649,1.31022492233101,1.32945673729298,1.32178865161123,1.32240300083246,1.33440747220817,1.35096104747084,1.34708667653527,1.3458814047424,1.45007890138152,1.37202161789967,1.3750054872995,1.37562616974337,1.36523237410047,1.37187835886675,1.52358271994348,1.3732226284087,1.34463837322397,1.3759809035923,1.33008089665027,1.33884044106274,1.378542574953,1.36824422132628,1.39950990814639,1.52380741643291,1.44595908183284,1.38539449497552,1.36257313186093,1.35530515043516,1.39955816813358,1.39840351815825,1.32769323386341,1.32679326554628,1.31209515450168,1.31266397727873,1.30969069025763,1.40097066889802,1.40062114501945,1.35491541867681,1.27466592881335,1.27353025899623,1.29520163569159,1.29629798509446,1.24115053794195,1.22827229781953,1.16644617501182,1.09084557877335,1.06035043479056,1.06135536276345,0.960220601587536,0.960881834818882,0.891794679821498,0.891584134562887,0.890974375478662,0.869186177049308,0.848011809934915,0.84481954179788,0.815909531295149,0.815814792345327,0.818135320905924,0.797785461423344,0.767681366913568,0.779043695548719,0.760507474872691,0.778613319825172,0.777920381218639,0.758704358649159,0.758118594180444,0.754726561933117,0.738460921533406,0.73750615782473,0.746822432985344,0.755452791150732,0.793624280360767,0.792984160813493,0.928414091459623,0.825670083163707,1.19839072560996,0.8476372746601,0.848662830005699,0.853540719906645,1.26848593853134,1.26852911107342,1.28318511217184,1.32660928979316,0.892267668492505,0.900505219651615,0.907063111611017,0.914619562007861,1.05950012179081,1.33469723351293,1.04803297247358,1.04656160512542,0.970265869073609,1.0222640768113
0.751698079891531,0.749919577301356,0.747881660008786,0.737802793187311,0.736930759636331,0.729460954290171,0.726405593304971,0.725365161834502,0.709136449378852,0.699899973277928,0.701112449048124,0.703295325914281,0.705040087945725,0.705410066177602,0.695170589837278,0.687887132043579,0.688497981355979,0.68899950823352,0.689519446110528,0.689834065644049,0.689968477417169,0.67374943632076,0.662546353840876,0.662430231541593,0.66177671987246,0.663729815557299,0.665646301723453,0.680145310048556,0.678438057318338,0.676921374726589,0.68021244036947,0.694911517618121,0.710236906218804,0.725661021931732,0.752347938587466,0.766651864092075,0.787384030276311,0.82213693704024,0.84023946245993,0.867348743469412,0.895682224660222,0.956456982461893,0.997721053738014,1.02046066291556,1.03753884519184,1.05473315851422,1.07220461528158,1.09001803882726,1.10809014382955,1.12650154197025,1.14593029012075,1.16465401754981,1.18044722294487,1.19549937794299,1.20331217592564,1.21527895550281,1.27403521572304,1.32151958828159,1.32002550044516,1.33089722797922,1.28267818537841,1.25212910203004,1.25062727601906,1.25889834384645,1.26418634379739,1.28923935666962,1.30063800923985,1.31969830847229,1.33091773797892,1.34399024060662,1.35876043391945,1.36821369934449,1.37142943425179,1.3590228716618,1.35314806074705,1.35030963325324,1.34641332180606,1.34816144862073,1.34754425381417,1.34760020413427,1.35261200428793,1.35323145418537,1.36165096369461,1.37885662016432,1.3782808173169,1.37728074460877,1.3768283278489,1.37646329466116,1.3760884588645,1.38118425347544,1.37412231034315,1.36170637736114,1.36283296902073,1.36186236116347,1.36361678130581,1.37507680038831,1.37217029814442,1.41093830770075,1.42037206674956,1.43070540148802,1.39260786256722,1.37950007867567,1.37483418359183,1.3816720560656,1.38982962634049,1.36518280620034,1.34839481913212,1.33591779875619,1.33490066261312,1.33343185831437,1.3646814996114,1.35963932489162,1.35365352333871,1.31019956160891,1.30538946410528,1.29822695845283,1.2969714238179,1.26534518398711,1.24452242149247,1.19399932256439,1.14454326653155,1.11502949881297,1.08561222459723,1.02192541727275,0.992591586849784,0.96352902986866,0.934560174438575,0.910955046904181,0.891037617899433,0.865981901185631,0.855869327489767,0.831090919099351,0.815404501978705,0.817175983855891,0.805653228563877,0.784418233149611,0.782332252064029,0.782261438325505,0.780268111447987,0.779333924848039,0.759708418179438,0.757961743938591,0.756290517092041,0.747107912261839,0.746625906962067,0.746349149375664,0.748929773725145,0.78723453251338,0.791538407527343,0.813189400934104,0.817010519809833,0.898537295092951,0.848351858279178,0.849649892840766,0.851486115957259,1.2675882877268,1.26721550418694,1.28305523523054,1.29573467805617,1.15648291777344,1.15591651551772,1.15490653095053,1.15338250307838,1.15152267472341,1.15025919904084,1.04818350679579,1.04342255686534,1.02316346514248,1.02273577990694
0.749640460996456,0.749129435912136,0.742011692447963,0.737288727772934,0.73528836281832,0.729807420172106,0.724073939713137,0.722243646687622,0.696859543023344,0.698535037796176,0.699615450135489,0.704270954672181,0.704855763370426,0.704771477489462,0.70402918388109,0.687768556250439,0.689106960799305,0.689190306517624,0.689837416660814,0.689587452835198,0.689942042444427,0.660632810331325,0.651853788523289,0.638581721347829,0.660637505835266,0.66861064520503,0.668351725850645,0.679430322736088,0.678090726836085,0.675572270605281,0.685549511006022,0.708033816980813,0.726339137085143,0.743094432502935,0.774389463480605,0.788835348369513,0.80753494264308,0.833753140791319,0.854610839658796,0.876258983059173,0.919594682418786,0.950526706583723,1.10023982756763,1.08960571624143,1.10637012258076,1.17353377309009,1.11309007987692,1.17108628561311,1.14910322812399,1.15084354800528,1.1688279008461,1.21657296636067,1.19162941568174,1.20216113194246,1.21667744229188,1.22348638315687,1.3317915558983,1.3199042204528,1.31992587618121,1.33259259741711,1.2997112668815,1.24411072826596,1.24685118168887,1.25630316498813,1.24647120705612,1.29613001023136,1.29479714883503,1.31685857333675,1.33217182731571,1.33257834976216,1.3651093252433,1.3643549543317,1.3776207784593,1.36133571856129,1.40630024780536,1.40636000002695,1.34292721009002,1.35871902921077,1.34519843972092,1.34663420335589,1.35343356391173,1.35321575797845,1.37595809544545,1.37993595038654,1.37899748115477,1.37870322066381,1.37752748941684,1.37647095027536,1.37535883825125,1.39374764131047,1.37508902165634,1.36159915528506,1.36689453830544,1.36030068616697,1.3656800955691,1.40289837958276,1.37067245846156,1.42957408360587,1.4089866381183,1.53219608537179,1.407664459959,1.38958843574581,1.3644890704704,1.36117570482672,1.40230277565527,1.40975534880915,1.35857290455965,1.33677955102285,1.33529135217921,1.33213178373022,1.37641787714995,1.33527397901953,1.35269829356573,1.31489591165852,1.31968068655256,1.3000630354314,1.32994180746375,1.27492292454276,1.30516795368988,1.2214970332104,1.16828114541046,1.18155730972283,1.14861980626728,1.10898924135072,1.04472632760623,1.01307220967102,0.960435489263326,0.925767739268031,0.915542322659021,0.875053174828653,0.885029329439531,0.84406250776621,0.812439653253376,0.817660035195316,0.811476214236029,0.791531198324926,0.781903648746889,0.784733263175657,0.784675609276615,0.787088251165914,0.762819165754017,0.765486183163835,0.779248865755345,0.74719140422447,0.746904095751973,0.729903313390336,0.746702080594393,0.783211504951478,0.782449643041613,0.781412406281262,0.815530534586851,1.27082725639128,0.84410986894157,0.849944374387714,0.850488514228025,1.26816717500821,1.20811481333392,1.28291134120065,1.31058203709408,1.2966951432893,1.2638924370088,1.36456443832728,1.36502004491077,1.38901803631713,1.43863808458366,1.04804216328879,1.04101262297907,1.02371397361636,1.02268948906029
0.749843490028444,0.749436266005642,0.739764315761865,0.736907624553115,0.732855917754374,0.730726791273574,0.721787642694333,0.721038244414564,0.706738710076436,0.699937741278914,0.701015461759204,0.702675289055954,0.703590424163912,0.70336491799141,0.701641267386011,0.693566773004775,0.691300082103228,0.690686527019875,0.69055112281484,0.679038261117632,0.668974850868266,0.662253149729416,0.652931300630948,0.653067289066882,0.653956608819323,0.667355187218669,0.677849233139703,0.683616881449367,0.69416468065538,0.704990518394652,0.714986107589901,0.727187708755162,0.749570508165398,0.769113674519908,0.787704403989626,0.796361421227549,0.82484881183671,0.847827365766789,0.861572147094578,0.900589082562458,0.942555081362778,0.992347359327478,1.10644719231174,1.12159421292953,1.14584211298407,1.17952966412755,1.18304211074591,1.18625581727383,1.19283828577617,1.20046805732634,1.2080730152209,1.21709209017616,1.21872639012353,1.22030546500261,1.23442542188138,1.27080959899809,1.30947008642016,1.31301218972597,1.31572995675044,1.28884969852828,1.27027406005313,1.24494100573649,1.24604874070006,1.25299868732812,1.24891797437315,1.30229368548563,1.30522734741839,1.3182166345665,1.32536446756981,1.33968358732857,1.36422282532809,1.36426792924401,1.37569656299386,1.37272096822745,1.38735789517461,1.37758415839572,1.37447493691972,1.36410708139956,1.35704520614684,1.35472080620005,1.3534713621469,1.35219118146115,1.36402900241961,1.37923143416708,1.37941152651945,1.37942462312599,1.37874862327413,1.37847345588501,1.37761616295507,1.3780806627291,1.37366048511311,1.36289432229791,1.36291768448298,1.36236565478808,1.36417543933319,1.40463893114028,1.40700607685393,1.40758532964019,1.40828998767476,1.42541257093485,1.41886427073022,1.41570512628245,1.41234778581835,1.41124947764733,1.41016061691277,1.40912246463718,1.38822422772964,1.38669456238423,1.38194559496161,1.37648636703472,1.37746829957779,1.35718647859507,1.35416032640714,1.3370740574028,1.33635514435746,1.33481717832274,1.33256910920234,1.31203290098481,1.30340165426894,1.26196048790316,1.2323538065622,1.20325007766553,1.16894636979838,1.1331233001675,1.09505852908553,1.04667751744227,0.966450791779088,0.952448208163304,0.929777675318244,0.904417924637072,0.890106321024071,0.853006924848022,0.842498841035258,0.829259332000431,0.812061407738225,0.805355795902081,0.796627382668457,0.784070611199303,0.783874004591794,0.784726709273744,0.783301778450639,0.781260461847777,0.779068322860032,0.758484316353052,0.744473669546933,0.7394688470135,0.74161653694289,0.765576283887904,0.777855743239457,0.782777547729507,0.802004526821334,0.825966315966234,0.843522645055228,0.847822584340959,0.852142541772055,0.902890506679007,1.23679276861947,1.2798546440567,1.27766722831938,1.27522217756807,1.27081749051772,1.30119089467786,1.29533099614515,1.29216301569511,1.28657128141771,1.11701715531839,1.08771829116046,1.05842732139582,1.00064052849151
0.749367910710147,0.748819546937729,0.737716549194472,0.736619156042013,0.730348946131415,0.729866243291382,0.719964466062368,0.719283105992123,0.718602447782621,0.690467895855282,0.819325875463872,0.702105724335971,0.702757210574526,0.702035222492421,0.696934469900647,0.694575194293438,0.853265543207135,0.84957539796717,0.690272727025167,0.661511596592532,0.66081882450677,0.662856961993858,0.644128605822986,0.652907123886548,0.639370646060255,0.667020793337682,0.688385298440645,0.686181382332205,0.714942147932366,0.714800293402722,0.723142550123548,0.742059012391033,0.774127774626479,0.795510230235643,0.807146323210055,0.807193022841313,0.839658699579036,0.862526817204522,0.87573720482698,0.921964907933286,0.970116174336838,1.07255221815778,1.11334747943374,1.17071908332868,1.17387066584486,1.23813643228434,1.25760410961439,1.25698056602382,1.26359292727585,1.26243421902496,1.22926193383785,1.21591196193904,1.25570035069765,1.22413450712035,1.24838371724051,1.32777790304707,1.30317528944723,1.30299395238225,1.33383971659747,1.24469635803167,1.23837972160396,1.23165353972523,1.22591955228285,1.26032978586454,1.24714396734726,1.30920965677269,1.30963002011951,1.31981398364272,1.31957952974868,1.34946567032054,1.3644485015677,1.36473145852604,1.40781096945061,1.368918133329,1.39829645263108,1.37136004442455,1.4158338969286,1.42337638264822,1.35880908542767,1.35289734867541,1.35343345330287,1.34909154559289,1.34812012706062,1.37812973495549,1.37973466708418,1.37995892340489,1.41983234892408,1.38502961147859,1.39280211892753,1.3800479026569,1.37232337502499,1.35229554569997,1.35972060297277,1.36186941277546,1.36413004967225,1.4075236166932,1.4434254975861,1.40777848774859,1.40892916510573,1.43659534619406,1.50569701864273,1.65015237997097,1.41362653043871,1.42138860062238,1.42205452253256,1.40705296469601,1.39115178983405,1.38829737364909,1.38523651151604,1.37338888283681,1.42917977040516,1.42872772530701,1.55004073157434,1.33720090049072,1.33820768680012,1.35938018082963,1.35941506412971,1.34373980850079,1.30120581472024,1.30999920033459,1.27378483918615,1.24584885978573,1.1897028395385,1.15771228165835,1.14400823861827,1.07722305739938,0.977516133876217,0.978253697319268,0.943988482544975,0.919573582392558,0.895845897240854,0.866964230740698,0.854610399167503,0.840759969166903,0.811861865669314,0.820697169853257,0.811275896344374,0.77635646946784,0.776802460596707,0.799707944526044,0.792360117218028,0.781677860382199,0.776387653878738,0.769200217355646,0.740494121545049,0.734393212939804,0.735388414939535,0.75112663850827,0.769457291036304,0.782827001283507,0.791939529853866,0.792813621591853,0.841952700478274,0.845927711624877,0.853205994999012,0.854223797442703,1.25812658512616,1.35924532498361,1.25891568669777,0.88176323991675,0.992549887135214,1.31273921055134,0.919128393634852,1.25357309940651,1.27997169123972,1.25730963257449,1.27077357441823,1.26809019546915,0.966919910718554
0.750126692568421,0.747264315211856,0.736510982636963,0.735460587141352,0.733164129953675,0.732156212387594,0.723110528769382,0.712969389867547,0.708675164724769,0.706809550224211,0.706168895968937,0.704393657126893,0.70382655057657,0.702552271982581,0.700715494811998,0.687848917629139,0.687238837640365,0.68553918897659,0.673261613756869,0.657481450647581,0.654005902414359,0.650467249127883,0.647869061762193,0.64978134793725,0.649372126935744,0.677329550137869,0.679532425594411,0.697155515488847,0.724296579059745,0.731770443352217,0.742828480298549,0.773901205816447,0.797374085783648,0.81448882846077,0.828728817781507,0.848252597777159,0.866642565635275,0.886405005674856,0.90842283887345,0.929063101673597,0.970286285153806,1.06639950137489,1.10434764416223,1.1502978859568,1.20272659066356,1.23842141418244,1.2592504986515,1.26053021518559,1.26382976332803,1.26394505747463,1.26417347148866,1.26527171704447,1.26807949516124,1.28664264155723,1.29742879144859,1.31358426253803,1.30257952583046,1.3019154639961,1.30055049145874,1.26252866429152,1.25452815925354,1.23037646602925,1.22834067775474,1.26344388600362,1.2860500060853,1.31143801898735,1.31378436314687,1.31985833706071,1.31960258942851,1.33773798935497,1.3493965864794,1.36622367720687,1.37462862265423,1.37065606685382,1.37113851363542,1.37118749922534,1.40952028359605,1.41380494686525,1.3971641548045,1.38771306479453,1.38240869275155,1.37402235595685,1.37218865521742,1.37737082459627,1.37967587858027,1.38151680277159,1.3839478821609,1.38511156899028,1.38829234857528,1.37741778775282,1.37285811357986,1.35690238433826,1.3579159025152,1.36535713366093,1.37039567918388,1.39415944289022,1.44347111819005,1.44815581331513,1.45965200982843,1.47344024876826,1.4879210431231,1.47136392018169,1.44728204237543,1.44308187017327,1.44057388054402,1.43619859951181,1.43223373116344,1.42831064979874,1.42306693537448,1.41629942240128,1.41026323416749,1.4035066492272,1.39665629589919,1.39120810833279,1.37982617126055,1.36565230649611,1.34342872658057,1.33688308524462,1.30947598313541,1.30945909987144,1.2846840669424,1.26084611860182,1.22373850358735,1.17166837963208,1.15834183928657,1.11338356968377,1.03524914370084,1.0055593788731,0.969513698557868,0.942062287881329,0.907192280117623,0.895525708563522,0.87776296980265,0.861072919587862,0.848514165962392,0.832787364139646,0.820625089295656,0.799504468938973,0.796657265850508,0.794841183163353,0.793194004783017,0.787387769240844,0.784724925688414,0.772301422766938,0.750449603684956,0.740368517401927,0.739026464453158,0.763432439544406,0.768361873649964,0.776156536300014,0.781179087429249,0.785628754964549,0.821706197288109,0.838730201390117,0.852725537108716,0.854335492150958,0.903272049856131,1.26330737652411,1.26503271681413,1.27210762016953,1.27708133452061,1.27993781538572,0.981516528705788,1.26841665752258,1.27842191886594,1.27644939468834,1.27357438649844,1.26857133575356,0.987700906050394
0.750522044824465,0.744116545417204,0.736988483149416,0.736077887990362,0.744902281707455,0.895698437047749,1.04164619952222,0.682157739677399,0.682561570887468,1.04828410831425,0.679918474591034,0.681337338432513,0.69271934076327,0.928027773914366,0.926729527530968,0.681081757689567,0.680646384463795,0.682416207659371,0.649274723904092,0.647272469141066,0.638162927699764,0.640462623853576,0.633997665078876,0.631862666413273,0.6484110240178,0.692067328217953,0.673292166005348,0.709245844718229,0.740153633845747,0.740318626741703,0.758008040874552,0.822644308859347,0.827859885447438,0.841233230157642,0.84058818036703,0.88656611905639,0.88773060225195,0.903176596242598,0.929008081237101,0.940880313167842,0.970550621606109,1.0604028443159,1.09692166630639,1.12866672676666,1.23864852330553,1.2385003996395,1.38910228271373,1.34264504975409,1.34199029425225,1.34231513028158,1.32961155093664,1.28182836910186,1.2729233860846,1.32446779600778,1.32767662439051,1.32685651254849,1.29049158846768,1.29056203803852,1.29900936101122,1.27912143228784,1.27717425361608,1.21699320857329,1.21593239496476,1.27136548380732,1.30706315966818,1.38097667576147,1.35175375895068,1.31997138941859,1.31943651751469,1.32697642185704,1.32526556726723,1.36809733085494,1.37875771337156,1.366385131932,1.37165807188584,1.37096516796594,1.39942775672589,1.4228354918879,1.49006648608334,1.45113459391584,1.45045878050948,1.37474516246052,1.36917789050084,1.37470910241652,1.44030554197303,1.36903015873339,1.37147613431215,1.37598771059791,1.39246709784752,1.37539463070783,1.37338118282424,1.3579452886458,1.35768149900676,1.38042389409436,1.37769895827372,1.38415119620582,1.44441963878305,1.51962457476283,1.5131396288105,1.51492316010333,1.51445268365928,1.45352699016418,1.45354947412505,1.49809165162992,1.46518867473951,1.46794418936723,1.46938709231564,1.47178762627835,1.49643290644322,1.42972543904306,1.39559526612484,1.39371505672961,1.38709930812957,1.42656071754928,1.4033604234735,1.40610773503689,1.33143287815474,1.32944383360836,1.30958694616762,1.30924021635748,1.29131338796371,1.29340202959339,1.27440904084168,1.18666531247411,1.1679332137293,1.14523068784068,1.08475925915362,1.0439492509745,0.989498034537774,0.960793098804717,0.921420883923004,0.915077426773631,0.89998833596181,0.876629505890237,0.863755999861619,0.841633971075532,0.846228322043237,0.804682497692678,0.82260471359852,0.790599342015809,0.792313755385807,0.79168956716739,0.787799747739295,0.776719467643146,0.758844276611403,0.742780149790576,0.738163289097497,0.779863732288894,0.768525534295236,0.769557624948378,0.768117647248155,0.768187680583099,0.805280005356971,0.828060439041081,0.849141446366495,0.844544134129807,0.844143280793318,1.25942197956443,1.23818788061441,1.39443866874497,1.40599424440498,1.39216969339602,0.917814855405898,1.30460230329208,1.28676091428205,1.38792219287906,1.38769749638962,1.2679535595451,1.00799192385891
0.750044942372724,0.741575202216378,0.740260023399051,0.742450661628627,0.743598695569143,0.854680591584072,0.839372909772005,0.785643122771986,0.775086081774464,0.760930014568397,0.749239507477784,0.73787875679906,0.724678992649578,0.713458408246746,0.699938868460231,0.681620578854693,0.680987706082832,0.662947473699169,0.648394322049291,0.646332614089195,0.64223734325976,0.640991368729864,0.637688605876757,0.639725722700873,0.653217777697567,0.691378863808277,0.692420821961571,0.71429510069388,0.747928108199299,0.750674251914406,0.777987564912599,0.835971610824841,0.854182143993665,0.871584991931055,0.88896382224518,0.906353917142785,0.923171852074806,0.939999772659824,0.956703023675722,0.972614546154161,1.01640790085288,1.08236042604905,1.11285123345908,1.15285738006005,1.24824895419206,1.25077062829897,1.30235266155905,1.34015538469876,1.34043581967893,1.34053564077386,1.33715593270458,1.33569460790936,1.33456484953688,1.33329117170995,1.33097333628023,1.32059208669322,1.3109006445687,1.30343394730402,1.296972134114,1.26465332145886,1.25997790110554,1.25292856383472,1.2582507988767,1.2696217669294,1.31534038155754,1.32452650762958,1.33340999412725,1.33229158488489,1.33156262662934,1.33037864863645,1.33068754945822,1.35203938265118,1.36228821983985,1.36644799385749,1.37153616963106,1.37293248547486,1.39658393055618,1.40471913752585,1.44540922244926,1.44685718635593,1.44875173129066,1.3850969854093,1.38017985512629,1.37724795337932,1.37487245096253,1.37202980387474,1.37208621295627,1.37329361012467,1.38091167549603,1.37723333331158,1.37653023471759,1.36509421897247,1.36482701667524,1.38415783840364,1.38825028720893,1.39106932358498,1.42751000150538,1.45953794465678,1.51121592755181,1.51055024300481,1.50867809541131,1.45374260713294,1.45483667327446,1.45879421465994,1.46198900068768,1.46496558324359,1.47238700831464,1.47398558974927,1.47661121034205,1.44560018983562,1.42137031929157,1.39671543185572,1.39201623446802,1.38793555905122,1.38638641833778,1.38636904925941,1.33899753015848,1.3300067322614,1.32077908932567,1.30853955936957,1.29723884739592,1.29599798475422,1.29002375825334,1.22139076458384,1.194211881851,1.16879599832873,1.10490129122327,1.07356899338337,1.01370522412276,0.986766674073139,0.964420501318046,0.941743727375555,0.909725381282592,0.901073649581926,0.886837831820833,0.869925879229608,0.857879315182407,0.833413904263388,0.827525514081104,0.802784193148863,0.79116156502649,0.790060963996082,0.788541969458343,0.782150935246616,0.773397465704269,0.769108456560718,0.761883666310574,0.764467845381906,0.76693704480253,0.767719488172011,0.768124536634684,0.768150802464284,0.788554504952255,0.828089298267228,0.837753949764209,0.842520220871082,0.899004830249192,1.21632282503849,1.23660166745723,1.24499642253244,1.24961952704333,1.25777183146927,1.25875865067941,1.26335819263858,1.26283942445499,1.26344980088946,1.26498346740333,1.26667220933403,0.989033933090432
0.747989012421019,0.740393964595107,0.740476273163766,0.742803838416619,0.74368923359308,0.893893915457351,0.81747446836283,0.808874790669563,0.808978440621522,0.672324940864806,0.925248366383693,0.896793083062878,1.05775881028539,0.673007874193866,0.667986146169038,0.66862143987045,0.679951270569812,0.636563578815194,0.636145725257568,0.628702522293055,0.643199129110855,0.643088902564203,0.624936741372169,0.649114488655854,0.662556790883664,0.688927757811993,0.692088172946915,0.717836805005401,0.751552527293203,0.762675040693003,0.792977084634367,0.862402676847933,0.899878615827574,0.929963012487359,0.927699632487211,0.926181436744864,0.973348105792355,0.970679792199491,0.980425712087288,0.985877582196911,1.06468684578679,1.09910311412921,1.12524696214314,1.17160595650495,1.25243221080427,1.26500069725556,1.27115729993495,1.33109790760511,1.3549289579132,1.3547152397659,1.33903023774854,1.44182128889886,1.33758629507234,1.42959404755232,1.36399638761249,1.3163549556247,1.34879105056078,1.31185220803775,1.2964691943415,1.24817294824656,1.220619712576,1.24039114611805,1.26670923442231,1.26740247256688,1.32063061777661,1.32165522970245,1.33471077844119,1.3321975219559,1.331244732843,1.3318999977113,1.33124632491893,1.33021397084418,1.35552012236953,1.36638337579212,1.38744878349819,1.37572044606098,1.39445490532014,1.39392181660525,1.44416529945147,1.44029654025115,1.45603329792629,1.39048984809799,1.38846709493546,1.45513502550982,1.37075925209973,1.37099627956329,1.3857254963736,1.37170052976358,1.42400725962787,1.36477797100645,1.37898697572685,1.36551745039549,1.36482011693241,1.38832836054936,1.39980644782913,1.40109881825739,1.41636160863123,1.41397202880139,1.51096736238798,1.51094735769694,1.49999304155259,1.45250470339958,1.4526854902408,1.45244248265437,1.45213479291563,1.45057336328485,1.52762766499317,1.45837058015105,1.47739763688632,1.46489425364402,1.4366359762845,1.40050749588078,1.42929131709027,1.37503554020285,1.3834221172374,1.38320036606245,1.34780818923995,1.33144255006369,1.33161290805654,1.30799215471029,1.29809443939159,1.29727037710049,1.29751104833796,1.2490689451388,1.21204322382948,1.21127307053729,1.12199830994236,1.11258068152312,1.03150742303803,0.999060985854173,1.00993206369788,0.96871353150396,0.920675335114143,0.919803040781518,0.931817390380008,0.887603216843424,0.878664439976036,0.843518948709437,0.844168693599246,0.811922198389932,0.791945669114385,0.806108099774879,0.808536976588596,0.786643650853849,0.786354711708561,0.771147769855642,0.758150284030359,0.749947714734031,0.766999823884561,0.766479373541728,0.780916091035693,0.762506634944681,0.770463782404096,0.828826295511831,0.833812896700237,0.840370020876952,1.21938762537724,1.19369610024379,1.2354463353919,1.24117205655991,0.97940509934409,1.25582523651605,1.33850771147958,1.26434190919896,1.18909156927055,1.25056685124918,0.940682404389948,1.36515297018498,0.960447894133773
0.744794822279565,0.741856902683218,0.741453805188177,0.74245553606511,0.743192776303025,0.854007606161612,0.838575379391254,0.761675096110214,0.731449496531848,0.669670690103384,0.668151561766889,0.667657708440949,0.669244469846326,0.672946275019454,0.66729859687814,0.661661751485384,0.649017079875183,0.638936018485857,0.634447986664496,0.632683109786058,0.638510201608554,0.645588804026267,0.646359671021184,0.660264022650968,0.675195855038272,0.688371377541942,0.701027317096187,0.716052174149883,0.75662021107008,0.786762378761068,0.8259741379364,0.885460720459812,0.91619356078325,0.942899199295507,0.959745801194653,0.97670018327395,0.992466089661421,1.00763049527126,1.0227476905625,1.04216741827783,1.0940875706943,1.12346188892948,1.13820434379134,1.17910199879303,1.25264326269908,1.27023713705182,1.27261182001906,1.30912379805249,1.33460445294461,1.33955539871446,1.33968738986691,1.34001072260991,1.33856936244221,1.33868883218265,1.34029173240642,1.31331127053481,1.31050316191416,1.3098118293855,1.29137296953059,1.26585478860154,1.2631600064578,1.28258683108588,1.29201956388972,1.30346571468921,1.32104312098445,1.32164396095904,1.32710430306353,1.33263714246785,1.33207363230378,1.33239393258931,1.33428090817142,1.36644700917735,1.37800053761582,1.38929063100484,1.39832743372115,1.40854219521665,1.41961087708493,1.42688649729057,1.43795957272885,1.43907769011601,1.44746343177998,1.43113664579865,1.41934548940675,1.43345566142504,1.42266788585083,1.41049204803596,1.40179384408822,1.39091339944284,1.39130172249615,1.36986984490801,1.36659551543359,1.36633421742838,1.36623158827543,1.38826010852243,1.39901186834712,1.40961603669702,1.41894319009802,1.42068189943584,1.4665706063248,1.46292982870619,1.45917059048411,1.45451906727321,1.45415702886455,1.45339396676441,1.45313114033999,1.45285268135512,1.45465805583756,1.45640403599943,1.47352272640537,1.47095776385438,1.45719784102199,1.39361415392374,1.38787843041729,1.37949198296686,1.38149491201016,1.38218779507199,1.34454545496938,1.33744094441477,1.33582669535901,1.31294436666004,1.31160601748767,1.30692817866953,1.30263914788318,1.27305040830354,1.24573604919694,1.21974845715857,1.18241081883914,1.14248129730473,1.09447792546826,1.06254595784991,1.03300040978136,0.999352196055928,0.962705731529925,0.949401327626432,0.941190255424891,0.881947836831042,0.860413155764546,0.838783465669511,0.83318638554196,0.818508162609316,0.810861798910802,0.808482811259226,0.801865145178349,0.790198447486013,0.787750028755984,0.773459290692402,0.771752541138063,0.762799093842295,0.766895592678335,0.768450315983224,0.770802067054859,0.772386087016296,0.771952183974428,0.825527232758771,0.831213529620187,0.833549206353238,1.20902325752799,1.19452393299188,1.19675506799396,1.17664352773146,1.0660015465572,1.19948861019863,1.20034715970774,1.19886578117941,1.19487260623589,1.19870013292276,1.20779218746324,1.22945670960172,1.00116824565612
0.741590597596237,0.740546401447783,0.740788015561745,0.742054979587458,0.742925283824515,0.896926989740943,0.899339363858042,0.673110246589349,0.671667520244455,0.66893365437778,0.668025832099361,0.66705221653381,0.666742753068354,0.677575270016778,0.667337947196338,0.633638024595775,0.642859754434,0.642059734782578,0.632248538571907,0.632219194063609,0.634409472030977,0.64695141849251,0.64689784059129,0.67045589073809,0.688029303582298,0.687573130829848,0.714383247948804,0.714630044676928,0.763124502707406,0.804248032394531,0.85534741168826,0.910132015449143,0.937106533968712,1.05669452552144,1.03720014793591,1.06324983026839,1.04495808941992,1.03932686517655,1.03929588479453,1.05763834217145,1.16991017123326,1.1695137440764,1.14720888560862,1.18828788403747,1.2519171966945,1.27402093268643,1.27358955359772,1.28477151514173,1.32427381259476,1.33947123817866,1.3400800693301,1.34165430440519,1.52084891265536,1.33442777150397,1.34271123030022,1.30854932430674,1.30758138618198,1.3063887700283,1.28608965594034,1.27028694377707,1.26230341169173,1.30366449694397,1.31183257121651,1.3501128388623,1.32599987172363,1.32214905907257,1.3221492001034,1.33649936372875,1.35838027248134,1.37482303496285,1.33789072732793,1.42716674023696,1.42728177995106,1.41337771778123,1.43727673589162,1.43639105712868,1.42209461976933,1.46150425654203,1.43671091700598,1.42962391577011,1.48732147042924,1.48720289531528,1.39653389163467,1.46529305079596,1.43631488088165,1.46783400261097,1.41616282755591,1.39147397632128,1.39268916530866,1.3783168864765,1.35732918778032,1.35767483051137,1.35775762958255,1.38914251567967,1.39795916287741,1.42602150266567,1.41987436687457,1.42238026871819,1.47463870390633,1.43472587319929,1.42874644107884,1.4288401175348,1.4786995616496,1.45316051105891,1.45328073430474,1.45266241739797,1.45057562952793,1.45082900387008,1.54627702223917,1.6136672874991,1.50125348482993,1.36899487769804,1.37034222878593,1.38093891378231,1.36450885281423,1.40048496996292,1.33949627718416,1.35555341967041,1.33870625626211,1.32082747310108,1.31601699499736,1.31333186061162,1.31226994890503,1.32831947870536,1.31047811326006,1.22401906797693,1.24110801394247,1.17195117755714,1.1713145823006,1.12079515662635,1.07731557469372,1.03450898546485,0.976723976580037,0.970326684718979,0.970569552269237,0.873838904282697,0.845696083671715,0.828154271081764,0.828508499538883,0.829852376788282,0.813009539977975,0.817714827794163,0.796410814814382,0.79334005499417,0.79490551261753,0.779470341525463,0.781245031405668,0.759774809345567,0.772498857883595,0.769696892692284,0.770590346302201,0.79892391146681,0.77255212190607,0.822113696723096,0.826838746314847,0.826487064480423,1.22632923640264,1.16485490266656,1.20028012712483,1.14872194129368,0.976577668517866,1.19704573654127,1.05771182587739,1.12866914846826,1.13518256046146,1.10581109362521,1.4473357111955,1.37460890431151,1.00176903842489
0.742527068664213,0.741025755926146,0.741133413937945,0.741630286883473,0.768123230428613,0.787697794161425,0.717452132415876,0.673193402074298,0.672213968142981,0.670688457461544,0.669856609063094,0.662064976314847,0.656780317959607,0.650899647746958,0.642987058775267,0.632989396246155,0.632749158869054,0.632575091426941,0.631808790664364,0.647967019768947,0.657843956143787,0.667270328756193,0.674909903260078,0.689602291359279,0.704455143371396,0.718367164430205,0.732381554338626,0.763371986947916,0.786589326304987,0.828966726699683,0.883880164302623,0.930832722546167,0.971893100103399,1.06411543246305,1.07502548552708,1.08821465939855,1.10252377379844,1.11829854434051,1.13755962135931,1.15723608898755,1.17645084460567,1.18451518321884,1.19213548381445,1.21905881963913,1.26581706915579,1.28184813561417,1.28599009993352,1.292427279769,1.31059522219337,1.34034275267905,1.34199364643799,1.348208538236,1.35525345318017,1.3383671148549,1.34013675303906,1.31283704641995,1.30808986134127,1.30766830836563,1.30746994822181,1.30656050854375,1.30485660953342,1.31178525224508,1.31478386089383,1.32949804982195,1.32912031799978,1.32981292323095,1.33963881565993,1.34826030399179,1.35726106329464,1.37594897589136,1.39423511625111,1.42983206289187,1.43239242765759,1.43515657388957,1.43637117556946,1.437030161874,1.43897298125907,1.45276563714942,1.44554034022152,1.43709186018829,1.43147661653579,1.42862652544496,1.42506180158389,1.44000757972755,1.44741611498201,1.45862461617997,1.41457085789085,1.40479175789486,1.39929058960012,1.38972893688334,1.37418674899706,1.37530438778732,1.39168468393784,1.40039387578865,1.40683334444621,1.41220146943031,1.41699815659221,1.4211058502444,1.43098440879202,1.43301181083963,1.43175185157315,1.43360805706328,1.44275446747457,1.4429853753564,1.44370023509491,1.44601508394522,1.44888562875594,1.44974394723804,1.44922686541705,1.43605772500918,1.43010095917061,1.38884552668717,1.37499272308641,1.37868865691306,1.38211722492839,1.38996253187938,1.33648684823217,1.33482423182637,1.33535952494726,1.33210738616112,1.32990432107671,1.32961688765623,1.32851952621799,1.32603534781665,1.31051334149595,1.25529204755249,1.24888046915742,1.2144740528316,1.18986336784036,1.14439238540152,1.09211144915986,1.04933868268667,1.00119165313102,0.970624702037903,0.945820192510689,0.872497832892185,0.866353707382052,0.848485392259576,0.836150994990747,0.832190988043904,0.812505560021115,0.812147076118969,0.796469919346525,0.795252982237605,0.794079548773306,0.791848893122194,0.790674236846533,0.789076858282916,0.784877126652481,0.779928081693707,0.773475519605824,0.782564127086154,0.787648417856981,0.804297532863938,0.810356370705462,0.816154962201917,0.879396040870645,1.16064917267135,1.18084264060809,1.16697524762209,1.15858961762684,1.14256887477382,1.13225995615509,1.13097233341587,1.13145522853698,1.12934927016167,1.17983449892381,1.05179232627454,1.00278101683582
0.742351199746552,0.739805045451638,0.708143928936496,0.693490433607351,0.795592252645631,0.825821844023406,0.64663123789338,0.646278752547153,0.66086684593043,0.847852031032905,0.69969332829628,0.622081861319749,0.623408075782319,0.648842908090216,0.635971368396262,0.631600924788069,0.621551569762258,0.622426712334418,0.630212255445476,0.660477072880343,0.677161778743948,0.681174786563648,0.682000874779147,0.720475275285376,0.718335814860601,0.730832165531696,0.747564604144397,0.799543473122302,0.799429839297293,0.85095315328261,0.915659026184774,0.950167088898667,1.07410387882512,1.09119164127858,1.14800156219119,1.16701719686028,1.20333405874867,1.1292404238523,1.23218676025332,1.2342098486843,1.20673365268824,1.19744127918461,1.1992573088753,1.24054940914036,1.27456075068599,1.45247406143044,1.45235547161657,1.30523232865469,1.29624309198183,1.45086531259287,1.34523150565161,1.36239257606868,1.36374988555142,1.33892926438484,1.37920829008068,1.32477208407787,1.30887233425648,1.30902618737126,1.30899275135901,1.30904274796441,1.30364048903862,1.33352058953242,1.32035851042668,1.32916689958511,1.33102988218016,1.33046767376195,1.37846801289758,1.35480357940408,1.35497734867878,1.37758026605565,1.41828570021306,1.47487186542075,1.43619085251874,1.43659038625589,1.44567064181361,1.43628228649781,1.44147590273725,1.48713777108569,1.45221639647061,1.45543135873193,1.42615753189474,1.42579435500579,1.40974711821228,1.43065538686869,1.46284333905482,1.46368515395215,1.41330290011454,1.41147601347538,1.41177108479103,1.39769135740182,1.37488964403493,1.37892537021284,1.39664304886825,1.41385226226527,1.42215143808439,1.40867459501871,1.40721529494426,1.41836397322064,1.42626717651137,1.44170755056415,1.43182786427972,1.43631827813795,1.44233368894485,1.44269927522733,1.44279905457049,1.44229722196999,1.44096596189663,1.44902097407938,1.44733928977377,1.407155522559,1.41003389089734,1.40878260256943,1.36297088193042,1.36237742433647,1.41858210331749,1.41665970703252,1.33341942090679,1.3322804688429,1.36068056200395,1.35303320635979,1.40654883707422,1.40731655259021,1.33595240796329,1.3200534258122,1.31124513130458,1.26470409283282,1.2639479632183,1.24040466887432,1.25806205756022,1.17468097932647,1.11841903799619,1.06775059763258,1.02846386259103,0.971773501262134,0.92527530690568,0.871058108915934,0.89407313384965,0.861623299759319,0.838363560829855,0.840707824265745,0.811107872098368,0.809725827402332,0.798264788178139,0.797395574327513,0.805649910640125,0.803626742960227,0.795621347216516,0.79522232280451,0.785331216232484,0.785234747259408,0.768557762992273,0.777574898540161,0.794762839892128,0.793160211600954,0.799193941137611,0.797670382181102,0.843971701778413,1.14712954999985,1.30301004947499,1.28040047465311,1.33900391622708,0.969434192669874,1.1335632109868,1.14167616796363,1.08687493637511,1.1263479669392,1.29936371054942,0.992594884645679,0.953694901706347
0.741124384150363,0.740056197869883,0.740299719866064,0.770652965488627,0.805474638671288,0.811811662421234,0.751315476267947,0.721703555244495,0.684579019271752,0.674177348616377,0.658608384080412,0.623315870908753,0.623841409097314,0.627630745746424,0.635629271317291,0.634088165543545,0.63721481378519,0.640265775160638,0.642540788364206,0.673860262986337,0.687942976047641,0.701052220966084,0.714625490833352,0.729037542792842,0.750510522610177,0.772289900703355,0.796817517974777,0.826276297469977,0.855834158796756,0.885399831165262,0.928394953236755,0.988151895742034,1.06202440882178,1.11595760610146,1.16830733764621,1.19209926296583,1.20978131952265,1.22307620055399,1.23646014811968,1.24007321335487,1.24636704051176,1.25369694328599,1.25903868713006,1.2634993175575,1.28574091113501,1.29004802899024,1.29114357222791,1.29231769341157,1.29387410253445,1.31003607309931,1.31323449525255,1.31546996666422,1.32468430478402,1.32438992204083,1.32389877756102,1.31246238854753,1.30906807027429,1.30904120911278,1.30896571456507,1.30921733631361,1.32119863045822,1.33497015104381,1.33454429942895,1.33363576042838,1.33264916263383,1.36581100054099,1.382977763044,1.38695756136605,1.39813766419442,1.40880534265335,1.41788411716918,1.42135487105416,1.43147670188678,1.43771725351096,1.43662994984829,1.43585407159111,1.4356674611942,1.43356196958912,1.43037501830583,1.4286044113479,1.42726751986573,1.42518049156842,1.42326180031013,1.43141713655104,1.43193714672474,1.43159800065595,1.42250618406077,1.4207496493207,1.41805457716558,1.41560948830442,1.41357231772093,1.41169733765048,1.40977544286899,1.40989821808089,1.4087880250703,1.40872699873455,1.42059690441743,1.42797184529215,1.4300980837018,1.4403470802665,1.4392967615854,1.43815013793086,1.43960415376654,1.44024611957534,1.44049650415836,1.44145474293422,1.44078639264817,1.44766792730441,1.44695313117588,1.43771088294856,1.42776351050504,1.40949852075087,1.38758767292478,1.38404927708006,1.37577519593494,1.37116281839841,1.35307668893274,1.35312342474442,1.3549584986426,1.35524973518086,1.35633891314866,1.35607879581866,1.34249158761341,1.32098464561884,1.31707508398979,1.29223970384365,1.27690711405558,1.26452301683562,1.25682594757964,1.17570354254389,1.0923198163149,1.05671536753688,1.01301435215236,0.966767042129657,0.934018043452444,0.894159352796954,0.890391995045528,0.865820005607362,0.854758262508963,0.842983441331302,0.834932455304791,0.825438777313925,0.818025081962505,0.813061387980206,0.805175681745302,0.804129121837854,0.801127144835812,0.798548869170054,0.789519705015869,0.787106526282472,0.771520909618894,0.776205524250506,0.792153597003895,0.792747827934973,0.801532155763075,0.803816219409292,0.828245030237676,0.870760638912684,0.900420830266593,1.1260885383582,1.12758310613316,1.12943810084589,1.13144820261966,1.12364317365322,1.11154938842886,1.14273078860366,1.1548163593149,1.0050545251024,1.00865623833023
0.739430857626475,0.739061566919537,0.740872313498953,0.817758574312913,1.12909994568072,0.840675020384134,0.840095280217248,0.842062103487551,0.707577818589884,0.628456171507483,0.632615268688295,0.614515713985695,0.614330420743224,0.600807401672374,0.636304537394537,0.633753178992028,0.652408897431535,0.656929128735456,0.646533055865012,0.707382344393496,0.699263247062443,0.721792599499946,0.723662108475004,0.742247836079687,0.77911786713323,0.796994141484955,0.8185007831419,0.86599712251558,0.899051317289581,0.913401084683805,0.941352777424994,1.05419021017724,1.04985432707986,1.1433587548824,1.2448947105898,1.24386052500801,1.2716694594246,1.26536940053211,1.26605851145355,1.26217651253797,1.27652538905389,1.27581748961357,1.26646085557603,1.26700323162194,1.33570094431698,1.28880344799186,1.289058574328,1.2916392851495,1.29409916475035,1.29276607693754,1.2934476298154,1.30748046174234,1.32541181108382,1.32551866144726,1.3236910431391,1.30909141900848,1.30895532132948,1.37377156191219,1.3084465550786,1.31020414551905,1.33834974578706,1.33562477374758,1.33388780401676,1.33581245032783,1.33252968239049,1.4221923983093,1.43000191059394,1.42904596649281,1.42510577491304,1.41988834774501,1.41851622394908,1.39670020531243,1.42507671619339,1.49313742897097,1.43469165768642,1.43359573001468,1.43525917107322,1.43496536778096,1.42653847935607,1.42931858704711,1.42964538840093,1.44842379781094,1.42267891837103,1.43854027526212,1.43175455301954,1.43061534328796,1.42290050031177,1.4218639982215,1.42005905059946,1.43915507967836,1.43809603025692,1.43304738166071,1.40788648532576,1.40753586311697,1.40762221653571,1.39922763153394,1.44207615673404,1.44117389121719,1.45219439799512,1.45055796686493,1.44002173287227,1.43802170166861,1.43776390401865,1.43794110319756,1.43717375240335,1.44197549902436,1.44024641574126,1.45421228438558,1.47636680151947,1.46898459692553,1.44180425550737,1.41004318192201,1.39372290076388,1.38912121171604,1.37017066874976,1.36895112860335,1.35108673229013,1.34981815273146,1.33309452811483,1.33244739810576,1.35587692870328,1.35360913091694,1.35282645903118,1.32116651000838,1.3207913959157,1.3094337510722,1.30888706292814,1.27485273472135,1.25566477133055,1.17718028468592,1.06581675008022,1.0451051294079,0.997258204384729,0.961162919731758,0.941586551424104,0.902086104098453,0.886969289232705,0.868976878718441,0.867792919921057,0.84450426288246,0.846356866899592,0.838769764506343,0.821196106302998,0.822912382105788,0.806133175960501,0.805240575638202,0.805093293166551,0.806286863412582,0.791780493438705,0.792345780187454,0.76087615532279,0.778198552756784,0.78834950143756,0.791827829804692,0.821452382624991,0.806141388786465,0.806712503557862,0.821981103796359,0.848709900909712,1.12493871505822,1.12100567145781,1.1455414784519,1.4720336003258,1.11590708362232,1.06607298462065,1.17221687830143,1.18299761620478,1.00032580567541,1.00954429668865
0.738050847021559,0.738135961445673,0.739520017770359,0.75128017062867,0.757310460206444,0.770594170781826,0.765112437198365,0.745685964671036,0.668753363699572,0.62388449273472,0.620610067498491,0.614630530694858,0.615219562556229,0.630447078341404,0.637959869341286,0.639264306176908,0.659121851939473,0.667338549412346,0.672671135006756,0.718651167207679,0.733931736123454,0.751841142686716,0.775784152242865,0.799694793068434,0.824107992568534,0.8492147250619,0.87505233524296,0.901656495087467,0.929036448281037,0.957173991284328,0.986057795727055,1.07314605581326,1.10253242689403,1.15782499523267,1.25960375327487,1.26367088919094,1.26928925091953,1.26889440274688,1.27049971333217,1.27328589566508,1.2762092034089,1.2789773191268,1.28231838200466,1.28594004050569,1.28657995985329,1.28799485186445,1.28953313074445,1.29147806612329,1.29295468623831,1.29315657908917,1.2930558620396,1.29717807161522,1.32637611089588,1.32748475489575,1.32946914133191,1.33106739599459,1.34408372944444,1.36807248020443,1.36077439150941,1.35371971272486,1.34747790531874,1.34213369131953,1.34068437711166,1.33743898086992,1.33659793587586,1.38548707833366,1.4307817795967,1.4298957447974,1.42767746341914,1.41936026125376,1.41888672740907,1.4186185870153,1.43231027466425,1.43570018435816,1.43526061391189,1.4346843104832,1.43443092219393,1.4342708615807,1.43214718452663,1.43058699650986,1.4307757245207,1.43232166756921,1.43414045417709,1.43641800204414,1.43715515085734,1.43803972489371,1.43885517245168,1.43917409046414,1.43857789516286,1.4379978666708,1.43641741917986,1.4340537805681,1.43259813914288,1.43078543831325,1.42846642144473,1.43244014763198,1.43671325285085,1.43992222931746,1.45240087971329,1.45252935364028,1.45414765212784,1.45520610281359,1.45596319690789,1.45665797682196,1.45678197242418,1.46249065344122,1.46545281174334,1.46752450154647,1.47348336255633,1.47106855378266,1.455245461945,1.4347371640516,1.41956746384805,1.39102848632324,1.38778106061346,1.37999940059542,1.37286506323191,1.35962896904302,1.33243115565628,1.33231712416141,1.35283687135812,1.35385538086872,1.35349984954349,1.31981424351668,1.31927761059476,1.30793935129386,1.30795330380381,1.29109172686153,1.25508733716955,1.18177724276263,1.077470626611,1.06594755414392,1.02250331717785,0.976643020487692,0.962231288141101,0.923430904818612,0.913748227841636,0.898411078531624,0.883462099854646,0.869491202407782,0.860599243969966,0.852445983050667,0.845365518793229,0.837004460140883,0.830423503853848,0.822963333370332,0.816290427433599,0.813051818915423,0.797271008769677,0.793197708001577,0.773136503728912,0.775380590231387,0.788158222509702,0.790461428972493,0.813544589227957,0.815372856871316,0.81870053377551,0.828254702815545,0.832566075369223,0.893680885830868,0.985390958961252,1.01493351209902,1.10238066773601,1.09249399796719,1.0841460833394,1.05927852801991,1.03796359353146,1.00452244841988,1.00923315415551
0.735965430251098,0.735883000899287,0.678082513567918,0.677297946677439,0.741728261060904,0.782808938323962,0.760759437135207,0.723588778163235,0.60935262261374,0.611662636386649,0.596144924053704,0.614145711227477,0.616308929536368,0.636848072449717,0.64214966244575,0.640001120409379,0.67604554328708,0.680122265395744,0.684529781117906,0.747444526264258,0.764782330064826,0.770198195352967,0.808238889909198,0.840727193572089,0.884748980792733,0.929703815767017,0.958346458000635,0.961624672102603,0.977808640517191,1.04030575526419,1.03895129674702,1.0965939337415,1.13619342007766,1.17416446131619,1.26871692365618,1.2778416050704,1.29814312584592,1.29801852247054,1.33146933337066,1.33167902583177,1.35798603369449,1.44300094820769,1.29208713671836,1.29114189463247,1.28519703966454,1.28666650520084,1.28930029797995,1.29158630733318,1.29315211511027,1.2940321725235,1.29277212445179,1.29289364823405,1.32663777048222,1.32831929609849,1.33260047258316,1.33189691604548,1.40977123187447,1.41587299361182,1.37161378558865,1.39091866020292,1.38173523219902,1.37165488330643,1.34277120611833,1.33643907368827,1.33561810050108,1.36045427320076,1.43208426474328,1.43189171006163,1.42729343819734,1.41066978565315,1.4046137595182,1.41682979002863,1.44343213813194,1.43602124959711,1.43624048178022,1.43608036298138,1.44736019370327,1.43608726724113,1.44704070701973,1.45434051878539,1.41393705309278,1.41385958148842,1.44536026830804,1.4531339277761,1.44284694467391,1.44312846992153,1.44309957223168,1.44359579305758,1.43775878052998,1.43693076578059,1.43512869435967,1.4618243349116,1.47992848584262,1.44170497237167,1.42491552826226,1.47434913198362,1.42687115499155,1.43881586098053,1.45215781087098,1.45787731155537,1.51017719025937,1.46410675277287,1.46408901274005,1.46454675304259,1.45572387658979,1.46821895617861,1.48721108276114,1.48558127428924,1.47759771383136,1.48655698103294,1.47113460951881,1.45404466309357,1.45458111540403,1.4002929800013,1.39948737903992,1.40634220853316,1.39261417325234,1.41377406585391,1.33192861299162,1.33161362825122,1.35020438557568,1.33888117799448,1.51007284351625,1.32054031801401,1.33450343449155,1.30141300968273,1.31878970897797,1.31912619215865,1.25443985429521,1.18695481542499,1.09005531215376,1.09055873016604,1.03881923801609,0.990123386149389,0.990770846801414,0.937300043100918,0.932649663562234,0.915055325002001,0.896690959574545,0.875070857884367,0.883035921742752,0.865642974384615,0.854493624908446,0.855043714578275,0.840469003476095,0.839303732036881,0.830692039214458,0.819574265950535,0.805289177803879,0.793954097523463,0.771699437376003,0.764668787016726,0.786482534239918,0.787702721121515,0.811386128929439,0.815294948361528,0.822212320671493,0.833297857686108,0.821458429874134,0.842160177783362,0.970623363187857,0.898050101118645,1.1226577862744,1.0675762966752,1.10652649405594,1.0109484109744,0.98015845942356,1.00021326719231,1.01882003316411
