0.527359036325708,0.55583406681251,0.572848159623969,0.590330164994677,0.602912023044864,0.632130556720993,0.655709712053212,0.673915068739128,0.687807707200081,0.758282885548833,0.787543949258858,0.835253174500921,0.872688175710369,0.943134151141865,1.08506413371947,1.09045803453565,1.09302350376836,1.09477805426841,1.09632392299703,1.10138095153277,1.13874414638117,1.15680365954771,1.16206174325237,1.16473639651352,1.16478304498228,1.16438952657788,1.16353676522139,1.16345582340987,1.16307921159384,1.16252014899857,1.16202705202827,1.23283094115413,1.23313265644083,1.24947525098567,1.26472194102406,1.28216580908832,1.28964252766594,1.29955332654105,1.31027723419054,1.310006568468,1.3093219662925,1.30878987641846,1.3171934868164,1.3285918422748,1.34322801638743,1.33991437302885,1.33621527229746,1.33254857417986,1.3294095562722,1.32734977878061,1.32586424447349,1.32464076639364,1.32359899755725,1.31842793165002,1.31609419366865,1.31873083852168,1.32062819391125,1.32165886819133,1.3218837951959,1.32244863933098,1.33241043132217,1.33361530338976,1.33379215973644,1.33133599649287,1.32896898663249,1.32812644450267,1.32993858160032,1.33430256755425,1.33994702047963,1.34513183615724,1.34842051133947,1.34913946322308,1.3474122390867,1.34422192063605,1.34237809796143,1.28614078676298,1.26477496757207,1.249585048697,1.23463350284326,1.22039929397086,1.20744097652907,1.19644560920063,1.17879557345011,1.17691925927102,1.17411563698143,1.17224289713268,1.17106782725534,1.16715359128741,1.16529448576741,1.16084250460783,1.15944194265214,1.13516282943362,1.11802371579783,1.10072696034584,1.08711097637436,1.07340467893018,1.06078779573456,1.04859006804688,1.03697834728264,1.02495433374649,1.01252175658988,0.994384898537286,0.969422524547874,0.941602836738711,0.895482827790945,0.874153530817951,0.849864963944177,0.818092506797713,0.772475397761414,0.761629810306336,0.74807054880484,0.742417905174859,0.727850382663524,0.711373293615052,0.694462884022592,0.679572270649345,0.660270166322106,0.651113625100489,0.632302972372934,0.629151142112515,0.626250151750576,0.624226256752231,0.622803709710138,0.621017866840853,0.618210957493103,0.61465871577752,0.6112853636845,0.609785415491081,0.608238620292892,0.596739870544707,0.581153399817613,0.580845530244905,0.58060260548008,0.569380479023996,0.568863118254703,0.570600974250639,0.571937047428951,0.573175308238894,0.57363286458135,0.577255789392933,0.592247662104602,0.601673131912543,0.609002067511339,0.641588279826697,0.650413080144413,0.662006418490544,0.662543767515034,0.664108509475486,0.665787505590549,0.665291812787988,0.663688062987107,0.661562329993469,0.660556870589974,0.660740173103127,0.661516898173421,0.662558278818345,0.663995563057563,0.674365862422753,0.674520183671719,0.674298031195302,0.686566270060838,0.703185459253867,0.702699324448458,0.71911509984413,0.724894749230327,0.738840529259919,0.738431330202674,0.755738540383783,0.754260031198248
0.524269969589747,0.54137970194049,0.561497864893801,0.565494135079863,0.572332343410121,0.618273451457379,0.638836648390244,0.638618726473127,0.638432907207376,0.739831794204494,0.770640974821085,0.814664103903268,0.828882323946407,0.913687937918949,1.08391225360126,1.05152345428855,1.02817931951879,1.05702951062315,1.0807089363771,1.09372317877043,1.16028966715915,1.15831828134304,1.17982167443264,1.17582602017744,1.17552276938035,1.16596249580529,1.16381114435628,1.16401043522892,1.16289534092289,1.16231690665148,1.16038876358616,1.21774462720918,1.21765404483035,1.23848042355615,1.23683226649387,1.27650347493071,1.28351271414769,1.28962823310716,1.31055394553354,1.30949681055069,1.3093426556521,1.30858227410591,1.32730348994609,1.32819403672422,1.34610204520461,1.33204318603001,1.32106469633049,1.32501557759736,1.32844935762511,1.31833078931664,1.31184212834645,1.31792977149605,1.32317492772984,1.30738199003267,1.27897341147986,1.30017432459879,1.31054930534957,1.31050929760694,1.31059692678162,1.31715466595494,1.32938324063304,1.33265703535581,1.33563091640739,1.32160836494559,1.31703419373642,1.30461153714773,1.27460986971404,1.28017463902973,1.290469935359,1.28922425361593,1.28791614439354,1.28896893123695,1.28984500137438,1.30877342524253,1.35805261578125,1.25706299279726,1.18618836513091,1.18582097586422,1.1660526140182,1.15704276663662,1.15154164155244,1.15293515833702,1.15400844462602,1.17001450690817,1.19339684420185,1.17302431347861,1.17518275530431,1.16692683303414,1.16755702721297,1.1593841203536,1.15892512228159,1.11097160166621,1.08001201026701,1.06447574620722,1.05062031661946,1.03839452234537,1.02732737163655,1.01343318508286,0.996343391674711,1.00146037922893,1.00688969545269,0.968181947790653,0.943542522852888,0.916436606616164,0.89671727687167,0.858516909266355,0.850720758936067,0.804225200959698,0.768843392823357,0.753727500854074,0.744141498313232,0.739325587369644,0.715028885691365,0.701154095526016,0.642686745914806,0.650468887635208,0.657638114717039,0.64297395372654,0.613526333052968,0.610545695155301,0.604164194687241,0.601997590431113,0.598506095842102,0.600626283876257,0.601939035981341,0.605216839617333,0.60795417413469,0.60819028074062,0.606162119258457,0.594913371675955,0.580264846561372,0.580072738060739,0.579181275384364,0.566119817078959,0.529859448069393,0.538251430792805,0.530063299500997,0.547517198381178,0.543099002440309,0.585021931647592,0.612712325667323,0.616908530335083,0.621263721521594,0.662234073862978,0.729866528294718,0.66167576243913,0.66051054835673,0.66326905962553,0.665036521076885,0.658996047595887,0.646295101234784,0.645347926318427,0.64468091779969,0.652805709724167,0.652583969831656,0.661977057476809,0.660099700993658,0.675458896764105,0.675743680797409,0.676030226789279,0.695494733453501,0.702755523324947,0.702774076824898,0.722395193553325,0.73915115244886,0.740010411805523,0.7398483344821,0.754209669970591,0.753127712615167
0.513854956867853,0.527605040803646,0.543870942697336,0.556889286173768,0.571428105173198,0.602992158794142,0.626837906968164,0.627571851889509,0.644875253506513,0.721389228739518,0.773990021669,0.800713375635834,0.844698692657649,0.884405976583751,0.91368838046094,0.943134870536064,0.989368602228373,1.01908735774258,1.04871898316077,1.08668211474111,1.15217498405919,1.15758599671462,1.1781572157644,1.17537387733578,1.17283341792594,1.16865583447388,1.1665865066465,1.16471002806763,1.16267854515789,1.16329195932128,1.17623930496417,1.21887757163846,1.21916342930665,1.23982003615915,1.23913610337771,1.26920196745592,1.27493415387327,1.28012515564606,1.3095498194148,1.30839231055353,1.30839636974158,1.30845850791341,1.30907527507915,1.30852984290246,1.30813758927277,1.3077137575909,1.30756764479009,1.30817351192049,1.30889756458922,1.3061971859633,1.30429448857119,1.30207785880744,1.29633815473631,1.29146533056132,1.28681648004592,1.29298104236571,1.2990800689111,1.30479858725302,1.30936232326731,1.31310065176023,1.3162498153221,1.31948607930928,1.32329958074257,1.31605273341815,1.30796574733261,1.29398096481186,1.27439036015231,1.27494896691963,1.27619220194888,1.27744026083718,1.27830733081655,1.26577778016494,1.25743803318365,1.25000327078472,1.2397377147225,1.22687539140558,1.19031999851478,1.18446036509336,1.16823472333667,1.15430741610263,1.1479538624179,1.14446772565958,1.14071310129913,1.13704520458147,1.13414264714728,1.13211634409297,1.13040840177357,1.12848044669478,1.12635242162426,1.11756501086832,1.10626571465342,1.08372605804653,1.06000281453955,1.04160021486861,1.026247999868,1.01177324117836,0.997585013222606,0.983618581336073,0.969802617185987,0.955628811618664,0.940560409747441,0.927108798055569,0.909765082624816,0.889405269492313,0.867891412330138,0.848454326323236,0.843295597201367,0.790331464224346,0.752743415976796,0.744912002727797,0.738359617501612,0.735224663974998,0.717109878261249,0.683870410945069,0.650946688212131,0.639910193023929,0.635341394031546,0.632917610916911,0.611737705704701,0.606587356285559,0.60298280481579,0.601310062328666,0.598988027660426,0.596549122067195,0.593840584087619,0.591150045827301,0.589700442219835,0.589741584633023,0.590688600850182,0.592136786509047,0.584334543022886,0.57014300915807,0.56534153071653,0.561217092403481,0.55145963444545,0.552457620272984,0.553924022150932,0.555995581382535,0.55651152118511,0.591896861966955,0.611458180161064,0.623166210468017,0.658299185207255,0.68297808937537,0.697555838929297,0.661517684591243,0.661238238448621,0.662186677496416,0.662180927294233,0.656815931209168,0.645832825481294,0.645636111725787,0.645299215590463,0.653237741194855,0.65520498918535,0.663512147431446,0.664873211158476,0.676624742328973,0.67925523049071,0.67930156915054,0.695633946577838,0.702202089966895,0.701852883397157,0.726557096448341,0.740924892942068,0.741920366395309,0.741897625436509,0.752565546293351,0.753822794040375
0.49436279541393,0.510536016113259,0.521850852525907,0.548384032569431,0.570527196032496,0.588253077194733,0.615155154596659,0.621430357546179,0.651204209800091,0.702938186194691,0.777315289494454,0.788862429058047,0.861984688239695,0.859950368029839,0.857938246876047,0.902110775294245,0.949884602684961,0.986816639285547,1.00849773797586,1.08047746719842,1.13613694059544,1.15639148233996,1.20089961724064,1.17376467834904,1.1710277845495,1.16985769991231,1.16769558848888,1.16621421291582,1.15942611000638,1.16612593509963,1.18633823410113,1.22126647764783,1.22223300293203,1.24086815208904,1.24041409014855,1.26138966666872,1.26384373441909,1.27213534159783,1.31035680264498,1.30572209848639,1.30119740796004,1.30576728710339,1.31056313028516,1.30907410027366,1.30778207574211,1.30691889999969,1.3061370092618,1.30842387224809,1.31353541859499,1.30507707183255,1.30228318609111,1.29320015519444,1.28211437573232,1.28187924941887,1.28268501480791,1.28251649525428,1.28319282938135,1.28127466416502,1.27132544923594,1.28916962751427,1.29791282375779,1.3087215492891,1.37783106561984,1.30849826303441,1.26890163682635,1.27614605725497,1.26712996266007,1.26317959359283,1.24558482554838,1.26139869811979,1.27880779055005,1.26315919377107,1.25376105876087,1.2321536405142,1.20904781547597,1.19743202612966,1.19367956069891,1.18234724638975,1.17062679524,1.14650966753574,1.1248084694228,1.12483254772261,1.12455370673569,1.12286346248174,1.12052821714256,1.12096096217476,1.12070460499498,1.12281232130642,1.12373230901296,1.10370357356927,1.08123179802119,1.05767021625997,1.01096644414496,0.996009164888404,0.964304830201927,0.949767881867799,0.941282881532286,0.930540931314751,0.920287987119201,0.92024530568921,0.92018956946457,0.899832093760634,0.884882886862274,0.863553746011166,0.83922326960201,0.834427096662914,0.829129639107453,0.777639229116046,0.739240611189295,0.735315848232734,0.730754248944524,0.72956119302289,0.719192139972247,0.666629944198292,0.654329701079212,0.635057503766949,0.632279019739323,0.62556583882546,0.610108603096525,0.602319282334758,0.584099266923745,0.586246101938394,0.590368024508872,0.590942619149677,0.59185480478559,0.590333266889753,0.579843374992582,0.58976203142487,0.590350918952421,0.590266784888414,0.588158552788841,0.56477782848353,0.554574129580017,0.553184357830349,0.550124464830972,0.552137061514737,0.553803806995636,0.55588368651195,0.560491261372357,0.59801516084934,0.610090607229912,0.627298312853475,0.736511913218004,0.711202213192204,0.996028515400564,0.660565890613597,0.660265833809069,0.661432281537112,0.661470191270791,0.652595980802462,0.6457891460276,0.646401719388655,0.646311670864681,0.651915061369992,0.659385381893993,0.665059007389727,0.668106900821347,0.677721802036761,0.685114367042132,0.683370618199831,0.695302785141727,0.701928250839993,0.700514871986065,0.730633080467753,0.741115132390577,0.743406858234795,0.743986642974944,0.751494476351335,0.752479411068449
0.4876407405865,0.50089468793633,0.509965757170716,0.53869976602835,0.553233591740262,0.576373337146356,0.598650186974153,0.6157394129291,0.658126488042878,0.684491155640238,0.714146361032991,0.75457111446259,0.786216268285409,0.812289974962499,0.837980591073819,0.867531801059877,0.897104828546684,0.926703793587798,1.03187834065747,1.07457068024103,1.14664781905264,1.15499859113256,1.17372884296617,1.17352561600413,1.17218279299987,1.17100302628323,1.17075664597126,1.17292570464472,1.17146864857876,1.17159187273476,1.20392807809625,1.22335133296246,1.23451686957591,1.24542024449955,1.24829358979989,1.25280381633795,1.25827394726192,1.26264494182199,1.26643739948615,1.26999680045176,1.27013580426962,1.27101621673692,1.2728043350067,1.2736306582003,1.27455060340811,1.27497398837129,1.27575493788707,1.27655017413763,1.27742465662371,1.27877974965205,1.28077312466916,1.28094000387939,1.28114997455552,1.28107104027726,1.28122205677249,1.28213759177675,1.28439122582615,1.27871724353199,1.27570665663877,1.28369921131427,1.29282777551757,1.29628228380305,1.30567601458654,1.30109908637324,1.285379345909,1.28073752502312,1.27490437225108,1.26131500984892,1.25214004412474,1.2421916297419,1.23445707973497,1.22800552003906,1.22068687640201,1.21063438367974,1.20398453100568,1.19569912638243,1.1863728909771,1.17997847208983,1.17377573176672,1.1398491368762,1.12510655229691,1.12496063633141,1.12449337466217,1.12328784346775,1.12192380580797,1.12168676865491,1.12200646864047,1.12391708342466,1.12474056615056,1.08724527302734,1.07153645235662,1.03683746627841,0.996137948401826,0.972376315206236,0.948953474431794,0.935481038051641,0.923389569937093,0.910234289883583,0.898079915527908,0.886237326916293,0.875413079496646,0.863228774228647,0.849954565122422,0.837800387497201,0.824750532502009,0.807731928540484,0.794084282693921,0.763463226958878,0.737207598826327,0.719970957182045,0.705322519857931,0.688665534068836,0.672477767495091,0.657533744931297,0.643497287206214,0.632097937182226,0.624896673023861,0.6179416839858,0.609463978510621,0.599268423091951,0.585775589293776,0.585150811255022,0.585492063486779,0.586824777563147,0.587169964766778,0.58718388669816,0.585555282185291,0.588490123807609,0.589545752925475,0.578702088094657,0.572246546172293,0.559720355461405,0.552920416804224,0.552202668002716,0.551501160847145,0.551816706802327,0.567017585943084,0.575446414054368,0.59280843017934,0.603862667125432,0.609318540576815,0.629955760735168,0.712615631159682,0.697055556610078,0.682102139374519,0.659530792194571,0.657625784026987,0.655061565508082,0.653237229091495,0.651248623723599,0.648535484241136,0.648082590041337,0.64847357225054,0.651690847603337,0.657362566645178,0.66686360098104,0.670407653712188,0.679088164196231,0.684220036002031,0.685929192070896,0.696755313244665,0.702928012987274,0.718507651645995,0.734375217914801,0.744320470643937,0.746085580281934,0.747338359183909,0.750665870192324,0.751524598442114
0.473818105327345,0.489088684131165,0.49315859785318,0.52964940118871,0.533172643826259,0.565878896909341,0.578785555291507,0.605512741980577,0.66593661089938,0.670441357542357,0.676646077283572,0.725410068859793,0.762717318771119,0.783052041571746,0.80650002219337,0.829044636521283,0.844987180035052,0.896904902415846,1.05968083233541,1.06831987130398,1.15241539099779,1.15357486060084,1.17322817275964,1.15615658175694,1.13663003718032,1.15275575289754,1.20984492595512,1.1755086569177,1.17872534273648,1.17443009264688,1.22628846555688,1.22506667102063,1.25218497950191,1.25226337210043,1.25223717792956,1.24630200525319,1.23268820249679,1.24332312728721,1.24336217101821,1.24716292769279,1.2518321436959,1.26659680859123,1.27463126905334,1.27517568234086,1.27681378759117,1.27662186347766,1.27536854117669,1.27309620387913,1.26417983579602,1.2774571148855,1.28280563048996,1.28138126265148,1.28035928622205,1.28013912373765,1.27911171278667,1.28037237357819,1.28723936104377,1.27066347201791,1.24875125251538,1.27683591286899,1.28796917287232,1.29246658718757,1.31845688429158,1.29792261273323,1.29484659101923,1.28515605360549,1.29209595499444,1.25919925051341,1.25625727043496,1.23805543509739,1.22974476681645,1.20909000273158,1.17743933520841,1.17696007490697,1.17657078737418,1.17687767032283,1.17726869122921,1.17800221275668,1.17703028967759,1.12822454931731,1.11965767946966,1.10895417236353,1.09366825609845,1.09618759442759,1.10143165121007,1.11172050925355,1.15482740820805,1.12591591615897,1.12926605391766,1.07088228293963,1.0561188279812,1.01778139916212,0.964754999296775,0.948240629780584,0.916710495160694,0.90156393385546,0.874694278219607,0.873718773163153,0.872778063329631,0.857986245088491,0.846450264621586,0.838037407845456,0.829002544841727,0.82299726774963,0.812192063239538,0.796198020788897,0.779940689154273,0.74826011897344,0.735133049606511,0.705811499578046,0.682083639689208,0.669015891316696,0.627256361309693,0.624532708920064,0.612229016382517,0.612434365008118,0.610986708243516,0.610016554155596,0.608534091911727,0.597262011213335,0.588924280545087,0.580359313904881,0.580093476238761,0.582800569337244,0.586470505825464,0.575715224308747,0.564998178556616,0.574568287138302,0.601861141915409,0.572778560802511,0.565323693798136,0.552442811061386,0.534191844255624,0.546667810472618,0.552233645121828,0.551800770276442,0.586988962772243,0.581725356053674,0.611178562608255,0.609860387217441,0.608376357248868,0.63456508957433,0.914533160995205,0.68111947375231,0.654962123116522,0.655843403190191,0.656048661765789,0.649064025571616,0.638939190521088,0.639569375594935,0.639532338557249,0.648901990794952,0.651764269600607,0.652531741245959,0.655433390005366,0.669015624093343,0.672762056753299,0.680693639300183,0.683354643787228,0.689337812169956,0.697468129773158,0.703806725112566,1.05653528245135,0.736439845360126,0.745274304778814,0.747689761231248,0.748160044680417,0.751527866358427,0.750789388576064
0.467205734153152,0.485819277812566,0.49113871491096,0.524518583493416,0.536820242325475,0.551849529667697,0.563802927759971,0.592095556394424,0.619715554660477,0.642881177533417,0.662328028401383,0.696099492443362,0.723725549281679,0.749674233146351,0.775599316464779,0.801525318233521,0.829572870562907,0.867203598785198,0.950493878108443,0.984617909563379,1.03797764220645,1.04966086960865,1.06335834532666,1.0779021909192,1.0925516212768,1.10706844247514,1.12151809903083,1.13620480361937,1.15128602742339,1.16626884375189,1.2140527563859,1.21687256093475,1.25248953192567,1.25240403336072,1.25233328487626,1.23984574806224,1.23800926215433,1.2423225048049,1.24396629356895,1.24657512279359,1.24770127190174,1.25622136743669,1.27494407500091,1.27612299343587,1.27747641665331,1.27777261621771,1.27779463887162,1.27076135279007,1.26740676011358,1.27420447017699,1.28257915808416,1.28182071699239,1.28095897492569,1.27987338573708,1.27895788855123,1.27039001860971,1.26482855480064,1.2602417091849,1.25876293793558,1.26381919682573,1.26764185021907,1.27114413443834,1.27613577342791,1.2708088568873,1.26620881350384,1.2619827809897,1.25503856212127,1.24953455901814,1.24208255127163,1.22828680481867,1.21749252455005,1.18987511541761,1.1725977184372,1.16736265862771,1.16069704711023,1.15060060743464,1.13856128923449,1.13021394818755,1.12419714683637,1.11398192408828,1.11047927917512,1.1052719574469,1.09027747085029,1.08844363384653,1.07814239073886,1.06810334919493,1.06558598548519,1.05264985109355,1.04858181699606,1.04311575052083,1.03401367081294,0.998708195329072,0.968285237970367,0.928607376289466,0.900113940871965,0.881259044842503,0.867828710771659,0.855549842950809,0.841696154629476,0.831365709966395,0.820951236888042,0.808360854665414,0.795663563908847,0.782709690804763,0.768874206667843,0.755612856329799,0.74230338459643,0.724148180775921,0.705570053289643,0.686780536743421,0.667380483636797,0.653981133170191,0.626363688607006,0.62171520002626,0.614079461813219,0.613849340094394,0.613219971468822,0.603655298205316,0.599125223636602,0.595162131907721,0.589767609445474,0.577795275056559,0.576952860808781,0.574344034615885,0.570548843601668,0.565856967384402,0.561092897804313,0.556599077874948,0.552580487087611,0.549000682701874,0.54628037316935,0.543842323416722,0.541524103494495,0.544817647523414,0.54756211523269,0.549624292056023,0.56846556776806,0.576979063274584,0.608333119409892,0.616147723495824,0.639607068089278,0.640811113916925,0.654744942143586,0.654935430709399,0.653958917256488,0.650928153055025,0.648498059316454,0.645142931359415,0.640019825738582,0.639904616937466,0.639426243919975,0.65012222705893,0.651135090656821,0.65201334016999,0.652917657169476,0.671051894952341,0.673828771765696,0.68247416172135,0.686112516087308,0.692885766578624,0.697855253872626,0.705036402579675,0.722350565395412,0.736157172147149,0.737528901470127,0.749957093613901,0.748927536231182,0.755615185708693,0.756160571275471
0.450675609663228,0.482681881064875,0.48933301170102,0.517452661832852,0.540216250426191,0.536848368309261,0.533398745934893,0.575210296441478,0.591290572473555,0.619505920905453,0.642954587670012,0.668851156725832,0.697806628834091,0.716483060538137,0.732627563285824,0.771591046630977,0.809929056519433,0.837558780934406,0.903816202414928,0.950503427584217,1.03014468915957,1.01302106422146,0.99355958458923,1.0237661503424,1.04961507902527,1.05571901234565,1.06181935053234,1.07538548687159,1.09063247669622,1.14241033360573,1.20782220124068,1.21368742270315,1.29490292489882,1.27049204498075,1.2966842414683,1.23622830950652,1.20445943960958,1.23057177466648,1.22912127963264,1.22775107665841,1.22537702197262,1.24797238976251,1.30704316061842,1.27742503391736,1.27927604222302,1.27903977097155,1.28035778987904,1.26834504754571,1.25977367588823,1.26850401782951,1.28277078842561,1.27313527534299,1.2623736740189,1.27222094936135,1.27739150274942,1.26553071224711,1.25665885776548,1.25637666089417,1.2414012382867,1.25443647727765,1.25260363248718,1.26826531907184,1.28727992849734,1.26766581567849,1.26546661646328,1.25849486843076,1.2494178386985,1.24493587741874,1.23124315461856,1.2190111629515,1.20507122789663,1.16967109399948,1.14968666020628,1.13276901067611,1.10094129945114,1.11923331833965,1.13772502421963,1.12852720832964,1.11806392596086,1.0891451811666,1.05340805140717,1.05350416732042,1.05323269238183,1.05803417012063,1.06205623838314,1.0622522880913,1.06280297689142,1.05082151075436,1.0370011064354,1.03193185668724,1.02016104971299,0.98403112774993,0.971807393338839,0.907877354196231,0.855267104710184,0.840534387520913,0.831287708818942,0.830967561881851,0.830648027421657,0.807794170832684,0.783348850183206,0.766628230200615,0.751262340905985,0.748591400382463,0.745829817810757,0.730021816632214,0.71717355954528,0.699957080247331,0.679385543366547,0.664392011874437,0.644918229192789,0.633974965874627,0.62543247395956,0.618884650746702,0.615462724870193,0.614902481773014,0.615121921329622,0.598021657499633,0.592219680032343,0.592163559264674,0.590668070196014,0.576424957229651,0.574358807742992,0.566060355906862,0.556375519744002,0.557332187833283,0.558339962447691,0.545168351944546,0.537445190689954,0.537414438161025,0.535748426886164,0.535362029283451,0.5182032785917,0.533801084093821,0.529130464299162,0.541831330407108,0.531258804210109,0.573299974738054,0.60524751587106,0.62233805118391,0.731916961278138,0.65426359224932,0.652758399099729,0.654266377667346,0.653837115413768,0.649239525687522,0.625726742781053,0.638927716473853,0.639304840064594,0.640010178035569,0.639225000830881,0.649819264373215,0.651013317618593,0.651943301160023,0.651758061603126,0.672788036154345,0.674946531278099,0.684593985240562,0.688635644688133,0.695896531956153,0.697599513817404,0.706800164727246,0.71923495313933,0.730893196273929,0.722281603286659,0.750742066468509,0.747527458247723,0.758062466539401,0.759289084384561
0.457138032020304,0.478170938414675,0.487939578505308,0.510297345578967,0.527411048141694,0.529449148896251,0.531501872756622,0.560226553255152,0.576136612525273,0.597758324009053,0.617190152265899,0.640568111847675,0.664140971589044,0.687666649883848,0.712012608361481,0.741642154870494,0.771266950353484,0.800884709216417,0.83051316795527,0.873378406826934,0.928310539991709,0.950077147616181,0.969344168304455,0.986594161030741,1.00394447969471,1.02124893009728,1.03848826975073,1.05893449482917,1.07877380138194,1.11497033897294,1.1550512259875,1.18453527193795,1.24993242528817,1.25024627181842,1.25075227814382,1.23294140921018,1.22942663569262,1.23051731146856,1.22972375527719,1.22836854382058,1.22697045692795,1.23972067621384,1.27182267937512,1.27120769786502,1.27065655731819,1.26800501662132,1.26678959215711,1.26579457360477,1.26309876860695,1.26547756500636,1.26653529389917,1.26617736098141,1.26430721131507,1.26334893262492,1.26160379985966,1.25944025528722,1.25745565315965,1.25685845602575,1.25692854904909,1.25566423714389,1.25430460512475,1.25271457750117,1.25101074896013,1.24984902528923,1.24988610267083,1.24734965030427,1.24723631889597,1.22220664080291,1.20871212351862,1.18324719353941,1.16271406837278,1.14228625758843,1.12778544766652,1.11626738813793,1.09494611148721,1.09199164763113,1.0864462961611,1.08055173131929,1.07742248987629,1.06673253833751,1.04736195844991,1.04393953322751,1.04074981939853,1.03603449193196,1.02921333141305,1.02112186711833,1.01275962379828,1.00415738202985,0.997032212492594,0.987786498534748,0.975990456138139,0.952771905051659,0.92536009684129,0.887163396309424,0.840960495659473,0.833339380500431,0.823719875267302,0.808251742216998,0.792781663468556,0.780913423298235,0.769157061464029,0.75443101070604,0.741694439523414,0.728332281319761,0.715889798748763,0.702418308981878,0.688994952865398,0.677412807999936,0.666903807927606,0.652232711152265,0.63450475279334,0.627016935756152,0.616373106490702,0.614102747318844,0.609773451260596,0.603856120455513,0.59734964224907,0.593556621804647,0.587853268506019,0.583724333850535,0.577792847093246,0.572228323057763,0.566354472693556,0.560884523217532,0.555171425526449,0.547707370125659,0.543925247310672,0.542866588813345,0.539163447644853,0.538348798312499,0.536684721902082,0.534995790158843,0.533193343581773,0.538573998341676,0.541006307003344,0.548928080817459,0.555667608619065,0.571153868138502,0.626345924781834,0.629098814845196,0.653573979494616,0.654082588699545,0.653688426049559,0.654147257419352,0.654294151045948,0.646380239716212,0.635038435247811,0.63817493238185,0.640438230036052,0.641299890317262,0.641952711653668,0.649810701936793,0.650403948446105,0.653566026609068,0.662185403180103,0.674364233757119,0.675753843804494,0.687125693726149,0.690713367218926,0.698020138868476,0.698341812076021,0.709967007252779,0.718290575143315,0.731668278728049,0.736173378447768,0.752644138298619,0.753714664223031,0.760771301722136,0.761195211897963
0.465552664534402,0.472922775777662,0.486500137982784,0.504835904485055,0.52534072481718,0.524889498302458,0.5245296873502,0.547044568757741,0.562237625700302,0.568963206989765,0.579710696252181,0.607920165171413,0.622761031247342,0.654291682397333,0.668586457408502,0.711875526794871,0.728402908136929,0.767009997973025,0.782222961351077,0.843871340768657,0.910678085736758,0.925939885688228,0.945965104595397,0.94449971586135,0.943025608624474,0.951715334317836,0.965723229816864,1.02599404473029,1.07001116431632,1.08831024995257,1.11168841404072,1.15794733692088,1.25006688825006,1.25056609602384,1.25171978010747,1.23043469012848,1.22673125693805,1.20725155695713,1.18857089490024,1.20629599301522,1.21073204151288,1.22786744767697,1.27318490005647,1.27230302623867,1.27300528603891,1.26676030498003,1.26499333344259,1.2606994520471,1.24873313823836,1.23342338666136,1.21523977997493,1.22573323853431,1.22692923010895,1.23706699515562,1.24770290188233,1.25318658660557,1.27673394906034,1.25745697716094,1.25872284974584,1.25663815308231,1.25591235362984,1.25009778969818,1.23908941716402,1.24743533569852,1.2531270227509,1.24539957146378,1.24505568382391,1.20754662064676,1.1934643951641,1.15817443879723,1.11115075016099,1.09795201036139,1.09226876275457,1.08207973725653,1.07130418011862,1.0739171273898,1.07652685443527,1.07539123852911,1.07430249316766,1.04725549098612,1.02662303234179,1.03338878362292,1.03998498942756,1.02589014484275,1.00670403829642,1.00095937234533,0.996299616169391,0.990901263854624,0.984126189542952,0.97492857979674,0.960928513209902,0.927512951548935,0.895674549891525,0.866473019860689,0.821856454024507,0.807576114064681,0.782559350440797,0.781001867775182,0.779467623073113,0.762066769812513,0.738521860428642,0.726944077211707,0.718075757821518,0.702413305613501,0.679467009857973,0.675683385302858,0.671810716213147,0.655090011407829,0.628391626783655,0.629426919433031,0.63015338228025,0.620686729179127,0.610812238141358,0.606403017886844,0.588965302902641,0.590985252594267,0.592772357928108,0.59215926942044,0.584493345191382,0.579233355352083,0.57252343427922,0.568086502309161,0.545618844447581,0.54081240534333,0.527969872015902,0.529620685495519,0.530965248639095,0.524804043012404,0.520370654001479,0.519328448268777,0.508864007797013,0.531401064900922,0.531207136452684,0.54088257504134,0.543677701885003,0.555298688756196,0.568699930663903,0.570698586939127,0.936586667449874,0.637873963961301,0.652284694006966,0.653492981750119,0.653016128976184,0.653244519791476,0.654697354335954,0.64245196876502,0.630654063535298,0.637840851312925,0.643131251709116,0.64303590587364,0.644590233731081,0.649946899876553,0.650946882920053,0.655938492437964,0.668335618483053,0.675746947054713,0.676640115800008,0.689738733940476,0.692326175437487,0.698854532778386,0.69869001825269,0.713780017846633,0.717381300404587,0.745368858012428,1.14743096818572,0.757880557697573,0.753791885690091,0.763148139035403,0.765805129740537
0.458139465941991,0.467621406458763,0.48849969914829,0.49995388632403,0.513560438556873,0.517118710869809,0.520592718241418,0.533587489427954,0.546383607328977,0.557702587819419,0.569170136297113,0.592168718775625,0.607531751171142,0.637181955106471,0.65271200862185,0.689945660678784,0.715997178438106,0.74597833904492,0.768516829496663,0.814468594280903,0.90218770710372,0.908044117757772,0.912469128010136,0.91641173551376,0.927523372506409,0.939472948830092,0.951968654100536,0.995673544679371,1.02500230252322,1.05424788831634,1.0835648733751,1.13103912604847,1.20974687062872,1.20939215940804,1.20723021402709,1.20317004260411,1.19802415798573,1.19341367267933,1.19040152726967,1.20436978605937,1.20901427977203,1.21368796130165,1.22278430570871,1.23569670299025,1.2556191136216,1.24778633404312,1.24084763991158,1.23597558348613,1.23087433974263,1.22623305599945,1.22003266245749,1.22388948464856,1.22551496016076,1.22646623009223,1.22719249130911,1.23125497727548,1.23723633864766,1.23644140454537,1.23741960470703,1.23909191609958,1.24105398951972,1.24243029485694,1.24266396758883,1.24534800136613,1.24626096659316,1.245400765409,1.24338323262425,1.18472657494633,1.15940714818603,1.13296523804619,1.09772742630807,1.08691263496672,1.0786744663963,1.07376575185902,1.06691656459645,1.05914174205481,1.05190635668214,1.04848165303404,1.04606954960251,1.02472880711399,1.01557821323702,1.00452573224349,0.995606015274471,0.986150050003884,0.976896555996836,0.967883852042535,0.958692570459217,0.949129924737944,0.93970469072154,0.931390777230995,0.924708084034737,0.904203038466975,0.887686146909341,0.845768241831178,0.805478666400964,0.795131732739057,0.773072219481609,0.765427504876303,0.754788895809593,0.746141498266697,0.736664165046467,0.714174024357382,0.695385585821282,0.682055193059347,0.671159489305786,0.659419224912473,0.65027124983874,0.63987338803712,0.627082024430019,0.625681486668153,0.624399485965655,0.613876018799287,0.605028927249165,0.601019310767346,0.59076937680221,0.590952325612164,0.590954000152256,0.590400696380894,0.588009456258157,0.57376665351742,0.565120832728957,0.562834499219748,0.547688449963675,0.537170094248683,0.526666414600969,0.525342167999116,0.5239884821658,0.522177982854209,0.520341111822403,0.518612167768851,0.5171041860412,0.529062507471197,0.530372803036816,0.551080195417443,0.555743332699885,0.560374915413218,0.570401254445719,0.57113874631859,0.610802992454503,0.624186357132293,0.638954209025656,0.654584098172899,0.652823651010181,0.651265470926088,0.645302828408597,0.638292105308217,0.636263069105298,0.638050115668331,0.640858098602082,0.643609072784141,0.645218672420755,0.649869934310522,0.657115191196694,0.658984474607932,0.669207828290612,0.677182441315142,0.682389211354175,0.691833424485523,0.693100145840479,0.716172346645581,0.735660784543969,0.744228125856131,0.745117019257369,0.747841452800009,0.761137993519564,0.761760168857295,0.764238214713381,0.766520352912891,0.767465239317079
0.432880385409924,0.46244069093929,0.490500208871983,0.495730905724643,0.508530732649438,0.509383899893078,0.510391878472263,0.515517896039147,0.521959840398398,0.525298838873337,0.537123382200559,0.572597678286255,0.594348776152054,0.617499233054628,0.641794793816361,0.669170400180989,0.705052766878994,0.725997162376093,0.758632742734459,0.785150670121538,0.893061149238396,0.862162075191262,0.840606252676252,0.851129615613897,0.864375767996851,0.873301434655157,0.885048160809647,0.96634901308005,0.984943684780961,1.00936217959185,1.02417163631651,1.10363895947756,1.20889342032031,1.19329246537796,1.18191371340356,1.1748313926626,1.16409131960779,1.16550756504908,1.16348025298068,1.16478761692419,1.16508131342451,1.16955340846909,1.17743564771678,1.21932246941459,1.2684147884364,1.23087385178447,1.21254346410731,1.20649527144345,1.20084070514958,1.19372428447063,1.17739022857898,1.20642882541852,1.21072387944995,1.22033452418682,1.22189737395709,1.23094000204343,1.24164228015956,1.22943115747917,1.2162517240557,1.2115277980121,1.20780599034623,1.20230490001433,1.19517765695713,1.19788161194042,1.20058324067138,1.21773036089834,1.24080722376975,1.1584033491259,1.12997602029887,1.10795144280217,1.08962509930805,1.05747992081775,1.01694485556284,1.01396815992673,1.01103478144505,1.01533304397404,1.02048038306374,1.02961587080805,1.03873682737531,0.99831377809866,0.967527640751707,0.964299207189717,0.960970431289676,0.943975199713151,0.927187983587871,0.922160165634857,0.917198326087139,0.918580189028481,0.920031964999589,0.918870530754792,0.917736776768504,0.887981825339235,0.873537307619547,0.824909120796606,0.79142804401562,0.77639341139903,0.74968314396823,0.736979697197037,0.726775893431887,0.730773573339187,0.735074284449461,0.698730360291437,0.656554163084051,0.644617072252231,0.631025769525246,0.617950274176875,0.606681325382245,0.61590912827675,0.623914782098707,0.623646011549016,0.62288173940759,0.607746636026423,0.598077752326063,0.593981587356427,0.591721097172523,0.590715387014397,0.589630147644007,0.589597659067631,0.588530669741794,0.568990396992502,0.556316328971925,0.556008511118826,0.550476875893535,0.534159549130696,0.526402411566368,0.521512415400652,0.501352552000707,0.49947174673955,0.494818966244621,0.517601400916597,0.515113545605255,0.524434776324332,0.51929232474589,0.557492907811749,0.573490405079034,0.573010892344801,0.572149125449384,0.572088883303716,0.572504638313842,0.611120599855362,0.582116712612121,0.65715539678443,0.663028843432352,0.647617640187923,0.631348666530344,0.631951426785362,0.633399654898194,0.637992817022065,0.639712552257321,0.645111438927843,0.64793848961204,0.65126296542467,0.663550069457629,0.662565032549288,0.669970694235142,0.679229605262107,0.692548613745356,0.69298890471624,0.693558554403723,0.7282086310322,1.14169009568037,1.11384764880475,1.15366558825981,0.765016265583794,0.758187821131,0.763420933997944,0.768280402752991,0.768299115188457,0.767894277149088
0.455026292858419,0.45830247995973,0.47035842512176,0.477552975074136,0.48392334848286,0.492701934961686,0.501086659388222,0.509176771867723,0.515804095130574,0.520132565492451,0.534216332600849,0.557298011250712,0.575396959226989,0.596557166963116,0.618958106107537,0.64612212190164,0.67465030677771,0.701042775763889,0.728017412080342,0.750281721593728,0.771116782583598,0.79198030898947,0.81286592534302,0.833764916853919,0.851356887264521,0.867500031804762,0.913595965463189,0.955257735232069,0.968149246485078,0.991783682708564,1.00891390104927,1.07540605524492,1.16591095276527,1.17018032719423,1.17259035404353,1.17196674901351,1.16812062171931,1.16670450768179,1.1652891757806,1.16511226457572,1.16495235300005,1.16598882818247,1.18669108600632,1.19796434145086,1.19952555711886,1.20093752013765,1.20186074815075,1.20129864164716,1.20127965805851,1.18918487855558,1.18590433486924,1.19560401982055,1.21957148780515,1.21976466587256,1.21957987382334,1.21738137932965,1.21662952774765,1.20687399373628,1.19577013469529,1.18787013788685,1.17872030146223,1.16914579114819,1.15989699509099,1.15142258219684,1.14519621139612,1.14064147754308,1.13757011219365,1.13374879460708,1.12917530984356,1.08129680804232,1.05595506803447,1.03056447410177,1.0122858139473,1.00732114326103,1.00012652809428,0.991407385405121,0.982197304855827,0.973028158038748,0.964810632459345,0.958089340347834,0.953141788937172,0.942517467588918,0.930117166138795,0.919104544147858,0.910931552566613,0.9016349973989,0.891341692171598,0.880481164223104,0.869592785717238,0.859348764850459,0.850230976506297,0.839190646583137,0.823783200644838,0.803417003905361,0.788417981566255,0.759870913448015,0.739740547115877,0.73359495064254,0.723526146015146,0.7182609992284,0.713448787888767,0.683980332558625,0.656725475821238,0.636904811772165,0.617586902450935,0.613629087100999,0.603873058932259,0.601649864889929,0.600274989965408,0.599219341519028,0.597794732706946,0.595858115115689,0.593713812683353,0.591682038089603,0.589870528272426,0.587832321707915,0.585031223248123,0.574189496854771,0.568549685199604,0.567724465227542,0.559321911949539,0.555118740264556,0.54724418918343,0.531001568152343,0.519733340415039,0.513553282892036,0.499533045406362,0.499036832773065,0.49933340974783,0.518970920965289,0.521811235006887,0.525771212960526,0.531658461671359,0.563408743953246,0.575407280572084,0.597001952725536,0.609716494847469,0.616368678411383,0.625263010797734,0.635595156082812,0.646103283423768,0.659620956377044,0.661545042079267,0.644474788100892,0.631969512219314,0.632688930655948,0.633535738394907,0.63677708977854,0.63799720478736,0.646362099693212,0.647504782667369,0.654083953360227,0.664616025136488,0.66510475661532,0.667427978095306,0.681850344402177,0.692661846532543,0.693707050620845,0.694139595078522,0.739795481622707,1.09873448393247,1.09900393564817,1.10012505401116,0.769666247201059,0.768950327768626,0.767784081323504,0.768884875333816,0.76914094949319,0.769229993630037
0.44858075813536,0.456529860969357,0.441962946012305,0.470437945250429,0.475344783713854,0.479524019452618,0.487505984262815,0.491148363089516,0.495242863390416,0.516884924739998,0.528686753265748,0.5376423064892,0.548905129100611,0.570637348766883,0.585570140305656,0.621754436734795,0.651714995329076,0.675485762559967,0.709478085875311,0.724662239732616,0.742813996535234,0.747690232844494,0.752714877978573,0.805293780223788,0.840710945185056,0.863078296118512,0.943326617041361,0.944810742296881,0.946244087985242,0.970894106671385,0.986655636313112,1.04663955106965,1.1607635395062,1.10762406716405,1.07524729882616,1.0768567327027,1.07852693517595,1.08462919093108,1.09105676425559,1.11442058233261,1.13365478495151,1.15295363985943,1.1972493465386,1.19580413658222,1.19179381135266,1.1960074531627,1.20328900946963,1.20244029372676,1.22816218232359,1.18655011721529,1.17915621786483,1.1890081489519,1.2879518880795,1.24763189653151,1.26781542969105,1.21661582421728,1.21379518775087,1.19001425881569,1.17411189343442,1.1397758882024,1.10410842385701,1.09691109301475,1.09144473544877,1.07886701965046,1.06669631523021,1.0757318972658,1.08344178097056,1.102265622995,1.12297285962587,1.04556738581549,0.996531942364303,0.980961987468652,0.949085039552095,0.954562817099636,0.959776282754399,0.955730195586509,0.953392341310295,0.948517061261418,0.943884831973322,0.946488992246201,0.948883838741055,0.913857216784018,0.888623683625272,0.87255520075025,0.850887317631942,0.849960498642342,0.849035539505548,0.829593815399874,0.805811597513979,0.827677205855925,0.847696049853808,0.815261398688433,0.795133000739015,0.790689423256729,0.785957910018263,0.739641782583557,0.713081211266099,0.711846371326599,0.711285518980513,0.707606093427433,0.705399936199414,0.668597279090691,0.656924739745285,0.630821823343381,0.611656726866296,0.605790813907611,0.581547277166026,0.582744225272307,0.584120422925474,0.581513029876464,0.578416509231541,0.578723843519713,0.559167130890758,0.572735792022648,0.574023338868026,0.578239153397489,0.582281812234597,0.56932681278436,0.561708072415574,0.56180154670357,0.561981051364027,0.553532444797954,0.539332117731894,0.527797349185769,0.497323077536179,0.497102577447035,0.498672406593268,0.498844232221314,0.501001761192122,0.520050451222595,0.529608331917286,0.530792024031341,0.542438155026686,0.569036193963136,0.577017641361757,0.633651622047844,1.07280918251733,0.844353246182379,0.919826777030944,0.677976033647111,0.67193616319988,0.672652760620961,0.669547056547698,0.641968983561566,0.632083490067848,0.632573308179642,0.633123996017263,0.637877964349655,0.638725202422996,0.647118436231735,0.648672539161661,0.657703986401318,0.665435011059134,0.666319026936671,0.666847969158411,0.684724959614108,0.691269524617641,0.693277030615991,0.694608968859644,0.750948090564752,1.10054743162319,1.10046700750337,1.10332854611445,0.769607740380351,0.76880490641373,0.769279680494467,0.769085228221494,0.769872519139808,1.17522535669816
0.461629419233924,0.460126311534011,0.458704665205624,0.465342216178321,0.472249181332661,0.47685562881521,0.481727930316378,0.484538053796614,0.49891036200377,0.50920388692869,0.518849855326197,0.526630675186253,0.538198688079755,0.556388185946931,0.570605130172762,0.598690901417264,0.62292466279129,0.64297008385566,0.663065451620986,0.683116195656049,0.703177791775936,0.723246870672403,0.739297388777377,0.776829004199006,0.826668239109892,0.840693458201874,0.869986542184376,0.89928864615945,0.928506418968898,0.95217768712362,0.984491827811404,0.996188788157991,1.00835207657447,1.02149286522103,1.03226684530065,1.04255951225623,1.05270737502693,1.06467084785451,1.07813122225878,1.08894203085584,1.10610700484526,1.12815355210853,1.1568126446338,1.16977565869541,1.1901798238864,1.1887353654802,1.18802308697511,1.18701509921496,1.18653839458451,1.18417782784689,1.17747114121232,1.17155080058419,1.16344537912076,1.15482679922858,1.14637919244759,1.13922444594037,1.13176949282977,1.12582700182012,1.11386635505382,1.10230577487246,1.09136821697378,1.08437701043723,1.08089079811426,1.07599614400457,1.06590769004361,1.0642905329036,1.06293144056584,1.0347696790539,1.02425950644197,1.00127773717511,0.975661846716101,0.956914946009594,0.946292328201022,0.93850551821979,0.928964431374256,0.918708913643805,0.908877006866246,0.899699135730709,0.89070914921698,0.881595451655886,0.872946163878534,0.86344104575476,0.852412997459946,0.840968502842899,0.830066868256138,0.818032778390259,0.807024944309614,0.79784643215041,0.788289839964978,0.778162076573093,0.767573060415206,0.756986740925215,0.747286265809429,0.735881403010134,0.723267595310403,0.713054071226543,0.704548758662982,0.691371454173521,0.679427739443027,0.66734743264466,0.654814644959221,0.645466354101088,0.635017182927698,0.620053305153291,0.604212311652574,0.602870649376215,0.588056032809017,0.582645654809658,0.582094320349434,0.580672923350887,0.578381548086899,0.577245316878748,0.574958521763229,0.572327248825829,0.56803549174209,0.565260247489976,0.564613288378876,0.562927954985423,0.561105936888424,0.559180887702495,0.555890438152014,0.551099503558572,0.542075033054593,0.522886352913561,0.508829074995137,0.496209499686081,0.497131368690627,0.497658341775891,0.498378834509349,0.520947795249544,0.542074838525184,0.552711671335013,0.560540816935437,0.605439858376644,0.635083480932969,0.664946661350211,0.832770829942848,0.815251556045213,0.730696597294516,0.679103826426874,0.677182809938384,0.674593050424844,0.672394184084189,0.640308638718697,0.632695817324111,0.633036133562168,0.63253596564665,0.638571386331317,0.643307865747024,0.64807994813187,0.648982870348562,0.661671459268311,0.666770744879126,0.667626966436438,0.677089822839703,0.687399179368393,0.691869779316465,0.693146943887447,0.693197584451255,0.761411855211557,0.910717042982729,0.88145929864693,0.830462567962179,0.769562211137351,0.769478124069682,0.7618216020234,0.755386323749184,0.751222884314754,0.74790239696562
0.4620462566043,0.45989207074974,0.457805002941819,0.460502598242753,0.448023844041637,0.466055999272629,0.468875189718175,0.478057250853212,0.5026280884517,0.499561004060919,0.496511749942801,0.507352985435981,0.51846780752289,0.532707213622485,0.547781984168548,0.575493129937105,0.605609354039007,0.605354510608743,0.605108327279103,0.640205943330759,0.654938993409123,0.693373284389723,0.720360651624214,0.748375714733441,0.813216229815255,0.813039851986404,0.81284704673101,0.871227994075397,0.913504988089376,0.931581552815342,0.982127493258931,0.986002670197327,0.990162952769524,0.988978129530174,0.98793207578053,0.981243961766461,0.973198861816601,0.98515029744721,0.99432197893775,1.03841624193224,1.06602274495734,1.09625157579865,1.14437141511143,1.15905156241487,1.19078749727867,1.18933230130804,1.1894754923105,1.18768403730164,1.18710412203548,1.18126364711365,1.16708003399807,1.13704462360644,1.1063441935146,1.12278330095044,1.13969670220746,1.12630356901127,1.11453739544739,1.10712655684763,1.09543113470789,1.05122047593425,1.00933049870272,0.993072425643372,0.978750589347039,0.975826528146613,0.974565824857233,1.01232383519378,1.05778791726406,1.01791302052492,1.0030376108482,0.974139557097994,0.919328713017311,0.905222872177968,0.89710147913178,0.891596531248068,0.886140337464061,0.887753878993678,0.889437450083707,0.870612960571822,0.853003951519882,0.856187764384382,0.859361727354523,0.814414509215281,0.775245567600945,0.773190919102891,0.770433522116818,0.775179023608267,0.779925872852824,0.756409038580486,0.734010696539754,0.728168162669937,0.72260125490202,0.724287457812293,0.72605323490366,0.71598282484261,0.704912285342466,0.685045626501601,0.656655391283975,0.649650880885393,0.645793161578766,0.641481164030909,0.637095858290032,0.624714557122191,0.597273267430319,0.59890200662334,0.600927147748607,0.598424445579005,0.595762757739592,0.574290235214861,0.564317788752926,0.570611001143735,0.576301951055114,0.57657517995059,0.575880368350852,0.563598277823899,0.559297801259631,0.562586984906268,0.565974637369492,0.556833980408714,0.546265021804776,0.549028654374549,0.551197756726912,0.548295007971866,0.5451363879078,0.519547990678484,0.516841688676722,0.495805645413649,0.497797224923672,0.496778693202875,0.497433106193179,0.521777246935105,0.588452307090003,0.574090383673623,0.574343739230865,0.633827986594378,0.685695599900749,0.716263817095634,0.877260032562111,0.798744516320012,0.68161271979823,0.681810756427019,0.681898658753599,0.675819581754686,0.678236130625558,0.639467843015995,0.633420308051018,0.634312127739909,0.633132080566129,0.639904445770996,0.650522474254918,0.649505077053464,0.651049021129455,0.665813131240712,0.667888581311351,0.669955707334778,0.689726998270351,0.689505589139458,0.690831690599582,0.692475576649523,0.691030895408808,0.771795698076589,1.16198163552609,0.852634449914683,0.765344605770443,0.767938243241904,0.768308282482356,0.754081856817454,0.737000507679815,0.73717336462805,0.737737138044628
0.469413247152593,0.467045642733023,0.464786327098674,0.462751018829335,0.461427599945291,0.464287244505999,0.465902756185583,0.474916448729791,0.480030033457104,0.486205299615297,0.494303492984799,0.501157261317734,0.507983004494914,0.520949371743556,0.534388857979075,0.550679477106695,0.564604037163735,0.579958481444001,0.594541667189803,0.61770540102249,0.644507434562675,0.666792043574858,0.691639083327748,0.717816244921192,0.74399267002797,0.770177941999325,0.795779512998333,0.843169845304869,0.873339356431172,0.904035901646787,0.956097442689585,0.961071977001049,0.977115430513341,0.978250504926602,0.977301536891321,0.975382936034603,0.973972413304138,0.983466176640702,0.987307949417961,1.01049762227672,1.03777821590886,1.0657871262009,1.09425735586434,1.12302578329054,1.16779442570603,1.1538947133053,1.14428788015029,1.13427919551039,1.12527817063511,1.1176677441756,1.11129272116822,1.10416243535443,1.09624497754997,1.08776427286203,1.07943128365473,1.07262090611511,1.06778125880144,1.05011260910636,1.03008965609105,1.01018051987397,0.99475454300515,0.991668236024324,0.976156030024196,0.975408037310953,0.976001645711061,0.978876248749128,0.98123696905272,0.981627109897129,0.979447888307699,0.950741625400456,0.922370432153163,0.899140541309894,0.883243997720978,0.868905527290991,0.855282120741986,0.842645810314749,0.830420619107273,0.81831364423176,0.806233983854922,0.794234613639404,0.782629697668629,0.774110383324288,0.766285408271079,0.757144317919948,0.746950178202067,0.736856108622277,0.728129281189782,0.721473253788552,0.715061805514246,0.708207214240944,0.700659130559417,0.691621768679703,0.682223203554184,0.673361058141881,0.66554250357718,0.658777068669441,0.651951671838105,0.647840472322337,0.641182866925592,0.639390410947215,0.635373782169369,0.612649071507503,0.591819386936665,0.587465008423524,0.583453654697903,0.579665633694182,0.575874983737712,0.572180383911144,0.564989894609338,0.564216279690216,0.563047784345479,0.561047961967167,0.559061741593453,0.55738950357697,0.556337531048578,0.553909240192467,0.552567364497037,0.552491781014676,0.544562641583197,0.539971121930161,0.53192225636186,0.52506571421671,0.519970551226067,0.51592758170559,0.51075751698215,0.49555925961235,0.495594202712316,0.495955645272236,0.496283936009364,0.522943893159876,0.556870248172601,0.572960485620231,0.572404978507681,0.662380041369149,0.716263819139551,0.746829451730688,0.81174233901118,0.783924662884556,0.682951423074095,0.683829876359245,0.683826273871258,0.673844454651541,0.660447373576555,0.63932991416693,0.638548649585621,0.638030552504876,0.638981411703715,0.641753427896588,0.649804069666725,0.649454085814626,0.65018880972336,0.669602656016281,0.670192482272039,0.672956211932334,0.689249701213614,0.689858817330782,0.690313748578829,0.694489121985809,0.751203884164042,0.783433836061057,0.853453639339353,0.8240642440487,0.758763736549694,0.75367893198566,0.749434626098173,0.745506595578606,0.73774508312883,0.737400009812027,0.737375619232903
0.481069299178169,0.479963515384443,0.493803069790331,0.464219572099903,0.457864009052472,0.462214115398362,0.438095763218219,0.444258635582811,0.444097663839728,0.455599272643843,0.459527933771023,0.477252898583784,0.487445784937447,0.503211518620328,0.517960513240325,0.525555178558693,0.53510849745247,0.539443741177799,0.547463408205832,0.594042056679748,0.634518040756692,0.63848811559262,0.642753784193793,0.677031006853403,0.692103592292212,0.741140562662847,0.763274723578709,0.815126147369429,0.839658705364204,0.876481135577118,0.943764710038632,0.95638924711891,0.97411561472518,0.949878285400811,0.929818061137153,0.933245790574597,0.936540046957011,0.936735491789501,0.936994733032998,0.971146452062769,0.98980358383109,1.01020527405432,1.02545907465101,1.09017439037767,1.19182842600027,1.12484784408824,1.09652938741237,1.09699945784385,1.09746652115437,1.05537899755237,1.00167941967334,1.00035409069359,0.999038412579706,1.03037321739742,1.06256160673606,1.06266681088622,1.06280770115798,1.01729868845925,0.970838451092706,0.956471746530349,0.944344130980056,0.930496634839366,0.915750936629715,0.903533274546619,0.892098273692293,0.924578418433028,0.953332515519208,0.963470909530657,0.975289541671812,0.938709629287617,0.925431072065057,0.875379614698366,0.843480910862401,0.827734632566812,0.812443371853555,0.796015284513023,0.775381592730064,0.77556876426182,0.775774212819572,0.758773901676354,0.733683258332282,0.721963621424593,0.713667650107777,0.707909588335381,0.700599162844779,0.707345392016413,0.713432514443041,0.693567098435797,0.675273295229088,0.661577867310196,0.652881027949539,0.65309147215126,0.653252784519565,0.648243355228782,0.64308167621246,0.63221828282903,0.622036917484902,0.631503820849653,0.638728281986479,0.636479504941194,0.633036941394477,0.598936242393019,0.585275814420906,0.576834729497011,0.568320601358062,0.564002643460704,0.557861498523375,0.556875099251245,0.55702532159545,0.560051471298951,0.5637015054994,0.557640977473783,0.554884934799663,0.555048899796085,0.555076608022086,0.553631213943851,0.552215976940233,0.530083115819885,0.511647323428323,0.520892575350919,0.529013423875843,0.511247001971141,0.479811366715812,0.49384017526599,0.489887304396546,0.495279458145629,0.494609132451868,0.495404945221126,0.49614758329925,0.524850836249568,0.527467301326522,0.571480341660561,0.569316378672029,0.691269541834732,1.12523224549013,1.03291083434563,1.09409788343647,0.769655112200336,0.682576710023208,0.685400810101495,0.685245764699676,0.671144905585896,0.641513502187612,0.639718312107813,0.639620781401324,0.639355037326529,0.640697313352728,0.643886880165116,0.650085268348525,0.649761109205134,0.650604456279929,0.672517164032986,0.67260509109965,0.676604044971435,0.687615991921462,0.689105628009847,0.689779236821046,0.695412091469902,0.824139938695898,0.798281329606107,1.15262970961072,0.795874326959989,0.756876907989976,0.74793170700084,0.739154932875369,0.738701417976808,0.73918129068523,0.737773858838592,0.7374303063051
0.480182127633417,0.479497977780632,0.468843480837833,0.465535263240762,0.46578483832812,0.464811026118191,0.453059959471824,0.444027129331392,0.4440520683054,0.453050693188677,0.45525274687871,0.466417152490207,0.486652920354734,0.49526556601735,0.502913624483296,0.511156076195322,0.520908009802858,0.528806442233171,0.535656002110176,0.570379218969848,0.59764152746499,0.613800226327527,0.629372728486857,0.654612531248068,0.67675450377438,0.714959040993444,0.756627000760621,0.789942672005995,0.818413842987337,0.848916232828843,0.895980339031337,0.899096893352599,0.899884762440384,0.903238718323891,0.909281421757926,0.916178289605872,0.923075302113698,0.92871961119467,0.932975637806916,0.946654076045233,0.96690374220438,0.987925817678996,1.00937993400401,1.036980359475,1.06241551162634,1.04798992238435,1.03495474403882,1.02257016522562,1.01059143457208,0.999472667219102,0.990112537367332,0.981143988216399,0.971459810118181,0.962008347493344,0.953087830085681,0.944627173858258,0.936439939967604,0.928454919052605,0.921043076330297,0.914965253752385,0.91027764400431,0.907031670023154,0.903380177496092,0.898645197045353,0.889785308907582,0.887342047798235,0.883268703317787,0.881663109614948,0.879340389262347,0.876812748703127,0.873268431551572,0.848357699842837,0.824794175310746,0.809949103334843,0.798008234108358,0.783908532566811,0.767437898601147,0.760959088087158,0.755471037256133,0.73502396274514,0.720209483836205,0.709734541812798,0.703585875376218,0.695412251538646,0.686184670891453,0.677686989923206,0.669717944630252,0.664240103412272,0.659266941470555,0.654993986527316,0.650340238389445,0.644239904059264,0.639238897866968,0.632784296470848,0.627695786869991,0.622127500300635,0.615821940877702,0.60783780507282,0.599547818596474,0.592443599795816,0.587487345736051,0.583531517160316,0.579442428056653,0.574688398928537,0.566932782222289,0.561978639689279,0.554105615157018,0.552307152340594,0.548622096885534,0.543579145804169,0.538554833832789,0.53395419646931,0.530261323326023,0.527333528302405,0.52486263890212,0.522230433411781,0.519036986980991,0.51497278138582,0.510600508950393,0.506669447580518,0.505986914348052,0.503777001021726,0.498144793859053,0.497140506770607,0.498288604642435,0.499839493131981,0.502984801114296,0.506505531558515,0.509116011629045,0.532425641644132,0.578583124543817,0.608628533344135,0.63831670099327,0.720508362464327,1.03291082955021,1.00303043735652,0.97340061099483,0.755421774177137,0.690922588954495,0.689246749634807,0.688217463490985,0.667744237511463,0.639647301367573,0.639374045986866,0.639294103065657,0.640182766426487,0.640168970070194,0.647290698811035,0.649212420951406,0.649565037001959,0.650176542699499,0.674499359779334,0.674384976802629,0.680438853763704,0.687939126343869,0.688728717618407,0.68916190457069,0.695815741294645,0.728145170161735,0.732477835249144,0.745296661644346,0.742717041883609,0.740015324832465,0.738257987571279,0.738390838153557,0.738222824479978,0.738518094342137,0.737885872559511,0.737616652481873
0.480256828221455,0.478025593883102,0.446117907241263,0.466487056545381,0.478152516486419,0.468026254611242,0.47191908432663,0.442787590351121,0.423844487589761,0.421135943526472,0.418504217865405,0.450907293281646,0.485781643839963,0.479254936607553,0.471853446740607,0.478969327811816,0.491845478889157,0.495086797488157,0.506582748164757,0.547139393076308,0.584279295538982,0.588543506935656,0.592534584396944,0.631499346959746,0.65944728030453,0.688779640197153,0.749882222722302,0.765916304542954,0.795072468895013,0.821341788794377,0.888896532851172,0.879908102588853,0.869228824457827,0.86776750624729,0.86630449328727,0.876183203953895,0.886336181938927,0.886272636882674,0.886212259877429,0.921283502168603,0.941786377286265,0.962011767234848,0.975392592800865,1.00963862654446,1.09041910440044,1.01809040170553,0.987809278210319,0.961865274887623,0.926598749698802,0.933552653456757,0.940390033144563,0.915143643619886,0.886674204313072,0.891939389127342,0.897456863565094,0.8999342450581,0.902907332196097,0.898579986375504,0.893984593247385,0.875954368144508,0.857986648572118,0.849184440374757,0.842796194393389,0.829935084190974,0.817096502689794,0.824738621178893,0.832039845814149,0.849313949960822,0.870862672876855,0.870147366289358,0.869432671606499,0.820616386430621,0.789422738114127,0.77566797823123,0.761860160106502,0.762415674859411,0.762948989455766,0.757883347388378,0.745990722455323,0.711954139541406,0.676611369885965,0.662910778281135,0.656769640182699,0.64033887258506,0.625814595455344,0.638631876126638,0.654112622930785,0.637806515366025,0.626179330631854,0.620869269018788,0.615373269900264,0.626863886480275,0.63655798162956,0.614988732608152,0.595655846333437,0.595482194086583,0.595280401527382,0.588097136923011,0.581381919764663,0.580497830125479,0.579693898822566,0.561629158595801,0.538001139240159,0.550031742619661,0.565554310581481,0.545739855254122,0.528340426774223,0.533325745475377,0.54208548117718,0.535281247782092,0.531469775299407,0.525905080532335,0.505881896138681,0.507968412899042,0.50996940154918,0.501347695412298,0.49503705749561,0.483656815341835,0.451235250251871,0.475877085312707,0.482358622523782,0.486020776625929,0.495939368970134,0.496921007012164,0.509492637076377,0.511593240491216,0.513768140217266,0.512369432542641,0.51089143611353,0.535052592968553,0.910747678472962,0.917223153445388,1.14669521331961,1.11737384132721,1.10355943861672,0.973400515675484,0.943116557746993,0.740862782653251,0.691526535354795,0.690963690049779,0.689547150179004,0.664017644205605,0.637580757300176,0.638564118258158,0.639784418252506,0.640628027861855,0.641064605950762,0.648707401241174,0.65085078575938,0.650318765326571,0.651265500100154,0.67564283744461,0.675181807058238,0.683868757456204,0.687405590464532,0.688218487052154,0.688388630192212,0.698412799673955,0.722117565049347,0.73068901954344,0.748115854144301,0.738795021728471,0.735187409662192,0.73718467807809,0.73844969122918,0.738005833577666,0.740477990545882,0.737879936009835,0.738736682489312
0.479178429946161,0.476053309227516,0.469179556643752,0.467186810965173,0.466228656531375,0.466011770791614,0.448549471130441,0.441220839685737,0.421910529426462,0.420516440854371,0.419343359684714,0.435574438901409,0.444718188261341,0.45464349047317,0.469306746847283,0.47496018032883,0.484462537566253,0.490651096473376,0.495925524584023,0.523848158325169,0.54689539483026,0.56547018010882,0.578534813776741,0.610074799456872,0.637120350566746,0.662308378424075,0.690662018275245,0.719020639060768,0.747385432429195,0.770678979478285,0.787394535733893,0.800732694477902,0.813597801428015,0.825791462983388,0.837172995739391,0.848771995674622,0.861484397006095,0.874013379920029,0.885099949676461,0.900311445655304,0.917139450173491,0.939291178433763,0.973859419353917,0.982096069439856,0.986674169589073,0.964778214836434,0.948753623587541,0.931493482439822,0.92110004811344,0.907682998729631,0.901421425463548,0.895820631834158,0.886471314703483,0.881730038338666,0.873326384008112,0.864418068202988,0.85601079863134,0.84890457458375,0.843315081556674,0.83889249665156,0.83494817106344,0.830804756544423,0.826043136575628,0.820757700760885,0.814367498731253,0.806910588690181,0.798861024048178,0.790741390466833,0.783233352862326,0.77673651597451,0.771051613568105,0.766408576028744,0.761708306966712,0.755108724973848,0.746722299680005,0.736997244205854,0.727403615988403,0.719774435561546,0.714067395427699,0.690165704932773,0.664011473702123,0.654789711232321,0.64710046668659,0.639345673608096,0.620604915820113,0.61786514588122,0.61662249949738,0.615594614554704,0.611099446621721,0.606254624167927,0.601743784780067,0.597544586714997,0.593360237361873,0.589377851174777,0.585279632824502,0.580481433839359,0.57509197733391,0.569062613618638,0.563203858812403,0.557586337425381,0.551797044604017,0.546168407936606,0.536329193798997,0.53504142604548,0.534037690305496,0.532867464256805,0.531121050729395,0.531523495432596,0.531494259981435,0.531565739427038,0.531588168360908,0.521339419727415,0.507209291540984,0.5016964911644,0.494633488243331,0.488142496237234,0.481309881854565,0.473875911660326,0.467800937829944,0.472303359265746,0.477754999180248,0.481915027349568,0.48668857826917,0.496346577567452,0.510869696926028,0.511853203135803,0.512278032319809,0.521567313467307,0.536812766654459,0.539792659571381,0.608399992266348,0.92241374712151,1.12888459425714,1.11784521643158,1.11737475852508,0.876818696194226,0.757708853197372,0.72535520995979,0.693183572154363,0.69287062006703,0.692062731250479,0.660529399530584,0.638166134374698,0.639019365325076,0.639861706029813,0.641860556975664,0.646570104774372,0.650287249304959,0.651669043957121,0.654766278364098,0.668436834689708,0.67835354993437,0.681000000101624,0.686785898588355,0.687908826982566,0.688098069913479,0.70338033053607,0.703995258407407,0.719129383867318,0.729013741859203,0.736299565691845,0.736233684898129,0.736045257896851,0.736537920977389,0.737022069390312,0.736200641875944,0.735625290637965,0.736086148842258,0.737862631011653
0.477440317823378,0.473785283491822,0.471056871035303,0.466440432188817,0.464981589137789,0.464308182028218,0.439012622927901,0.439940639511412,0.392373438841579,0.40539193256167,0.409437411596685,0.412273864092728,0.42140127862875,0.441618130973849,0.462023894013467,0.463055298620352,0.464040553529154,0.46619578798553,0.468435053615513,0.499919265027551,0.522916903428652,0.540852630950962,0.565480749705185,0.586807176490486,0.624433423123629,0.621930569349361,0.619427155992742,0.65667262677772,0.726214794078464,0.744029220820202,0.773774465976774,0.782121525606339,0.789762698078699,0.791260752662913,0.792744305093346,0.808749452563316,0.822853384370903,0.846354981747424,0.883930237184136,0.883194426422936,0.882412394211272,0.91281915706885,0.972454986170823,0.977363530402263,0.992755721641282,0.936508952098457,0.90287444856898,0.890556753368161,0.879892365063017,0.86839266030725,0.855815588973721,0.85003552689055,0.845259395939098,0.840814882622625,0.833890872568234,0.840425492065453,0.846452575332364,0.839742680042595,0.834137909949502,0.815064593015446,0.798754346648606,0.78487646312067,0.771132657523501,0.77346691671234,0.775739717708575,0.770312224802485,0.764771423370407,0.767756277739823,0.77080027158005,0.76873938923171,0.766716931877031,0.739043914923718,0.708404428541482,0.708226889666424,0.708078436789704,0.707159205157329,0.70626942504329,0.706547912724387,0.706810696116515,0.66892764237027,0.645370990107381,0.628932252039695,0.598380171498479,0.598090495265509,0.598057327489773,0.589004160776636,0.582686136920329,0.58452665728581,0.58615803945174,0.585454404593343,0.584813244175586,0.56969022683731,0.558984886212217,0.565029381549873,0.572590322937451,0.565574986700565,0.560674732224598,0.558451047874243,0.556024202833326,0.546447281633694,0.540767328310367,0.528507324224766,0.517502676660044,0.524702254789134,0.529548497539282,0.517915441696257,0.509907153279371,0.522993713881121,0.531327432648645,0.531547239717795,0.531746302116495,0.515392194153056,0.508310068761702,0.49326877840383,0.481739829044336,0.474517173045709,0.449469919343598,0.45976263619576,0.461413971566153,0.45941541245225,0.455999788447785,0.472763295709412,0.474756650124928,0.495349240201688,0.521036139888492,0.513495174373636,0.510309060625998,0.529639936407254,0.552602531918772,0.55526160380756,0.556574287080149,0.925602849678694,1.1433649263239,1.11943691150348,1.12654537417266,0.84895902788461,0.689477109267353,0.693607267900917,0.694299549161218,0.694237354349398,0.693097887954632,0.657717964780869,0.638453267945714,0.638791776822713,0.639903208582551,0.644474530369368,0.654078582571035,0.652863562148583,0.65473289678556,0.658973050956233,0.678420744735297,0.678981797095839,0.688270045251783,0.688670256618938,0.689165425710562,0.688913857476643,0.716617284883473,0.713816351302596,0.71667329060958,0.725033381923215,0.735436147814848,0.735725209740741,0.735391514558684,0.736690926281422,0.736982984143057,0.734453883859713,0.733237802239787,0.732304388052394,0.729643676718509
0.454171794299289,0.454170055361737,0.455063936189023,0.456239163760562,0.457562394738383,0.45959304414134,0.441260118266848,0.439791627947607,0.399298991717607,0.403617283078218,0.404660165203191,0.410122258492626,0.415204913495158,0.42290846068687,0.431425546183097,0.44036142974555,0.449353839977447,0.456992640932159,0.462503425624241,0.478354534322447,0.494394429906093,0.512650134439595,0.532295919243048,0.551919924348663,0.571534742417906,0.589344423820348,0.605415368481405,0.624456291116579,0.643493569260072,0.66252868229676,0.681557714187688,0.700579342525494,0.719592830213687,0.738598525835784,0.75715825149092,0.77195726193074,0.786710513459591,0.80142399228214,0.816024937728587,0.830128662487905,0.842455464835055,0.847145195007653,0.863187963571093,0.858022889970307,0.85122985996655,0.845215554612133,0.840557176900766,0.83818892935275,0.836904411485647,0.837085884363652,0.83239523064195,0.826980108552208,0.820996767282239,0.814718737164764,0.808042647218023,0.801433519763349,0.795326413296732,0.789734397707914,0.784515756649022,0.779476956416236,0.7745580615496,0.769300091351756,0.76336494198944,0.756870465897077,0.750044162644159,0.743226068860703,0.736738112649781,0.730760812419422,0.725295664987886,0.720271963614841,0.715314066823488,0.710045630540138,0.704756621190646,0.697613767919934,0.69280147964149,0.680775597735513,0.671938217383011,0.66246796365031,0.651408273803636,0.637976820095979,0.625472994548319,0.609637166708908,0.594708892980237,0.591973201716116,0.589491347175905,0.586484786027238,0.582102250727185,0.580143000720796,0.576914856182054,0.573008769040516,0.568704112574464,0.564888394805481,0.562103459437364,0.555973827489012,0.550586563773281,0.547400307046848,0.545834280406336,0.543144312723272,0.539549183321622,0.535846539214903,0.531634020283628,0.527085194540974,0.515070484485314,0.512500521816853,0.510868169166461,0.509970462380747,0.509454402024707,0.503100099702721,0.497898186608101,0.493354042618245,0.489578565366016,0.486236874111238,0.482719729667131,0.479041718143439,0.473550671287096,0.46680796878041,0.456264558502725,0.459004833734182,0.459999200168671,0.458845609354871,0.457401681237903,0.470490759491294,0.472558550005787,0.494142851229,0.527637927147923,0.532657866346645,0.534908243398389,0.537226417044957,0.554691453673534,0.556273664843681,0.613737083642539,0.926532927190358,0.981862980743093,1.01239886599779,1.04405268393833,0.822773858118882,0.69597082874215,0.695625447708932,0.695770808862085,0.695632101489071,0.695235818291055,0.655645568021068,0.638619805086265,0.638985576839917,0.639196925334484,0.646370799326198,0.653302316548779,0.653211714564595,0.654089199767474,0.663312459834896,0.677511113261017,0.680280940158676,0.689232385780459,0.689881161328859,0.690138717904597,0.689835665575439,0.709291002293104,0.710019043070471,0.716208312522514,0.716514749966819,0.71833463641559,0.721191153885975,0.723584333439069,0.724984489293083,0.727732236026094,0.72966363447673,0.73055822267272,0.730465022836783,0.730142614100298
0.455269317171904,0.454430993750432,0.454125647320819,0.454711690909732,0.455629224032609,0.457115075846483,0.442545051203351,0.440015030753579,0.385817897866396,0.390245768332894,0.384973901765874,0.398896030273874,0.387816295274211,0.412278417420659,0.413112529071705,0.416741326277374,0.421829466470975,0.42996351373062,0.438066272234517,0.448693925934419,0.462581552187885,0.46868382998513,0.481267341232509,0.517333287936607,0.54638481203088,0.561449877228693,0.584956886250776,0.584490352943987,0.584047091813496,0.623641516096057,0.653030652453144,0.669113828881604,0.686515590126294,0.70930622028959,0.73539173705379,0.743732463225624,0.751383813189728,0.768985373203072,0.785557871303516,0.799443517560768,0.813780237398322,0.833584302884267,0.867135275915328,0.850653513145497,0.835973624028202,0.826882688884481,0.815560353484007,0.813239483444263,0.810910004112144,0.810873488425373,0.81086384731072,0.795575971780247,0.779246146174133,0.788258949281847,0.797091163055458,0.776504816233437,0.759635570355672,0.747860241802286,0.7415838522499,0.733531026731028,0.725721751223193,0.727569280138456,0.729817665504545,0.725408605885029,0.720865696678171,0.721997144447121,0.722782261208856,0.707274563672829,0.697086372733377,0.679773729167089,0.666122733033436,0.677057870337409,0.687035288241065,0.687882762320796,0.688766323839087,0.661763965579649,0.643385607926698,0.626678768772978,0.610164224753968,0.611235366576887,0.612354004955297,0.59362894200091,0.549018131641292,0.555199648074373,0.556985113754016,0.557041136712231,0.556777999047647,0.55942589479265,0.561677744440899,0.559114416176676,0.555693147897933,0.560349589052983,0.565353924808368,0.555145538971681,0.547896424967808,0.546950037893749,0.545987236292167,0.541885114413325,0.535379315614136,0.524931535877382,0.49653033174334,0.499342665298668,0.500674746376582,0.506312169492593,0.51161086950577,0.510215477136903,0.50866786068035,0.496323627656754,0.487119601590053,0.48217428946637,0.478398319732347,0.473963816718932,0.433545641914009,0.441770613121286,0.435802849608038,0.455211928956501,0.453758696066106,0.460386700997465,0.462081640280977,0.459273511623014,0.457918094894812,0.466284672395332,0.465562541787165,0.492758656752429,0.530516680363411,0.534021998955099,0.544115428811507,0.545361565639299,0.55395983993745,0.556437473338226,0.923104927400038,0.9254613905597,0.943940417894544,0.981862974637577,1.12853349470042,0.7981167437947,0.69581911267303,0.69656586377012,0.696368241960143,0.696409463657613,0.696179723454685,0.654019884765547,0.639337897513602,0.63941163351971,0.639118590598357,0.647534023141078,0.653257780006447,0.653473395448511,0.654367688632286,0.667377531805774,0.676681751186942,0.681145930839876,0.689602543080139,0.691415241440423,0.691156954075023,0.69165014633109,0.708268567610637,0.70868159022224,0.716352406965356,0.71582906565314,0.714899050510572,0.72224715644264,0.724163099348434,0.725052030644915,0.726090143312302,0.728060381151922,0.728741515123854,0.729563140295359,0.730549699131679
0.454220559086978,0.45374151453463,0.453296314190327,0.453926522899737,0.454315109652426,0.455909201169681,0.449352518728729,0.440276421508747,0.424284996805598,0.420144122194705,0.413939801492891,0.410889101477881,0.40749874049212,0.411210197616416,0.412905964094072,0.415733234867991,0.41647713392247,0.428775356892905,0.435704902949782,0.442207986313232,0.448180514499791,0.458684978606809,0.472038664644015,0.489749512306775,0.509711922896656,0.529677831780444,0.54679880981327,0.560977341209806,0.57384844232224,0.596466007644313,0.614622391759196,0.628369458325125,0.642283677280389,0.655918278713466,0.668939923481437,0.681682915998387,0.694339871434092,0.706977539547479,0.719568035834254,0.731877356167949,0.739995705982158,0.74536930913262,0.755817972115536,0.755054252549957,0.753418997011701,0.751604052854394,0.750472535351066,0.750377921177117,0.751007612604383,0.751765999924282,0.75226033061969,0.752532317423608,0.75288077220293,0.753433999564269,0.754122127061572,0.750611274986481,0.74758620748291,0.741938125344723,0.736051287058658,0.730527605829716,0.723431898182073,0.716362163011168,0.709053960394968,0.701877572404355,0.695361934341346,0.689563328106715,0.68432793202951,0.679413258030629,0.674696469959257,0.671146695546399,0.664984843489819,0.65913156214787,0.651166278548583,0.642999884128398,0.635072644870551,0.62755998771913,0.620508328408481,0.614292945763293,0.609838953477263,0.598257136078277,0.590608406499373,0.578212105470875,0.552326834691318,0.554543182500353,0.555735894933276,0.555280443459097,0.553700804971731,0.551792176679995,0.550360429792468,0.549649393153621,0.549673482491924,0.547293596928099,0.54441824125001,0.53984230548236,0.534714629102039,0.529457227079679,0.524191538058815,0.518840495946654,0.513738728105228,0.508244917645238,0.501914213510997,0.500548100925569,0.500093335021273,0.495049988973221,0.491461714820485,0.488888231825196,0.487267766508748,0.485943372434546,0.484354732590218,0.481937807653729,0.47873321219443,0.470669980853266,0.448941351754732,0.453417761501254,0.45619207349019,0.456520314650448,0.458558815352549,0.461033017022773,0.461270930159715,0.459898109995857,0.460531145213082,0.463563413013253,0.465614698390622,0.491008567837408,0.534248248528749,0.535034341091662,0.545536152810296,0.546304820633411,0.555779020845505,0.55748533231589,0.612148937352087,0.642545138417542,0.672177008809995,0.747887637517478,0.803327635727289,0.774833890899608,0.697080262278654,0.69752800439648,0.697469040362219,0.681179142501984,0.670838769691147,0.652579516950364,0.640161561288476,0.640781418713741,0.641391342853417,0.648427747602129,0.653634546396064,0.653232654408102,0.666540995004987,0.670822257623696,0.678381553084382,0.682704484211359,0.6926846989843,0.69376940121579,0.693910613651895,0.693949192101125,0.70291423237193,0.707317132116468,0.709546738029085,0.71593091997153,0.714770160330425,0.722304998192163,0.722873701029909,0.724851088831133,0.726391941926705,0.727315216468005,0.728232470112966,0.728773419280087,0.729774898485393
0.454150669946782,0.452657099293729,0.452634623702917,0.452273644782191,0.452879075268546,0.454445113456574,0.738593035927345,0.440153620080584,0.429096522287124,0.429927045730238,0.429491358935558,0.412456484665843,0.397719809401551,0.408270019516934,0.405451812540086,0.406384584231491,0.394795135874326,0.398613410276633,0.377821017902044,0.412404014174149,0.42832913281398,0.431259714655932,0.43392817282817,0.462602579808615,0.477793386272556,0.501249144013903,0.526954766540218,0.54298888255647,0.554077418095541,0.570157204487878,0.594361096663742,0.606008679740005,0.61573018835535,0.623785675603027,0.633185622434817,0.649609464593668,0.666146814457381,0.674062802815717,0.681724893739014,0.695882711283021,0.71012685767447,0.729102279939257,0.755772135189203,0.748943835576511,0.743172584436338,0.741305074060286,0.73959555183095,0.736582854055093,0.733650804174095,0.741109681205928,0.749371125738253,0.735735224935266,0.722706778371557,0.73957519004674,0.754896286383955,0.749087417825149,0.743121977631546,0.708869636419916,0.678384215655734,0.683911524813508,0.688938515900098,0.680906627144647,0.672894446542184,0.680891350326798,0.687793359160506,0.673622036171226,0.658867988227811,0.666453641257794,0.673487398355342,0.644648351554154,0.619687386604425,0.619094499173386,0.618546508234828,0.60361123471365,0.595251624216327,0.602070942843732,0.609199118447258,0.609332044299186,0.609399213078735,0.592749253863891,0.582065809011101,0.565568635987914,0.551691841873914,0.541883820658638,0.531895469926899,0.532285055170792,0.532884365923004,0.543449154152479,0.550401898675579,0.550026484220746,0.550716252906615,0.530887005339073,0.512820767198971,0.515724239952009,0.519040624988298,0.516013071477412,0.510436405599103,0.508847814676763,0.50642573225877,0.505486410309978,0.504598074401153,0.501925873077486,0.501384133697221,0.489055219672831,0.475322788034787,0.478012223646198,0.4813499432443,0.477140107652862,0.47299906907159,0.47463005670008,0.475771187967295,0.46544211602295,0.44095653437839,0.456636554579269,0.464580718833642,0.465303418574899,0.466329276635931,0.464100671032481,0.46305513188969,0.478133653740902,0.501708261806346,0.478931534867326,0.468688941152797,0.489041058077566,0.538851769013907,0.537597468378789,0.545947372747995,0.547609296486195,0.55633586453867,0.557081455668209,0.561829387611852,0.589493239838207,0.587627866661941,0.718557334977106,1.19266098669152,0.753784346884523,0.69713449380572,0.6976740969221,0.697385479725568,0.673075433455523,0.651116927537486,0.651187107219687,0.641051393737025,0.642734949856996,0.643164028005041,0.648847812007206,0.656046831883311,0.653612923987042,0.674756922700913,0.674468504549268,0.680041486727692,0.684887514523503,0.69450942753972,0.695977020853221,0.701350365920969,0.697866311315369,0.697149293458141,0.703780285015872,0.704421184911826,0.716352345841147,0.714823265380815,0.721369882296637,0.720336055456224,0.725797768005175,0.726826634720214,0.727283792261476,0.728289301117452,0.72819976806118,0.729706221484554
0.452588285524012,0.452174383499297,0.451385572420754,0.451040145861441,0.449729336197904,0.447327075886523,0.445842927034784,0.43945340818563,0.430740730380654,0.430394063441587,0.429819667190108,0.41709097188134,0.413725537127364,0.408634500328133,0.40728748672064,0.407387284120989,0.403881775206691,0.401331185448834,0.390793283232997,0.400231975957983,0.409691868853168,0.418867491628144,0.426959177213169,0.440895990420407,0.455142220520253,0.471901490329738,0.488496724064393,0.505121810910314,0.521720352833262,0.538312397222811,0.551256012150698,0.565984947269563,0.579628198163085,0.592471169974214,0.605025231586729,0.617503861018041,0.630114647013241,0.643024911162486,0.656308486688684,0.668320803135153,0.676898053259488,0.681035762919986,0.684942721789042,0.689503193165807,0.692202624613273,0.690311764772647,0.688549700937018,0.687796009880018,0.689271021361805,0.689788003478969,0.690329843640491,0.690342366710706,0.69041881521105,0.690153165637095,0.689881721126885,0.688313799537894,0.68508599714445,0.681779241614649,0.676901915584521,0.673472342237548,0.668132708465936,0.662281583600574,0.656189395679398,0.650207907681913,0.644525971697574,0.63921705871283,0.634255369785491,0.629577587657042,0.625094449312566,0.620664866304403,0.615845261202449,0.610107025016287,0.604174529787304,0.598869956715867,0.592650477305072,0.591491036907018,0.590446176792292,0.588381965281022,0.58507487204917,0.569513479869264,0.561910414110412,0.55399016833778,0.54444253537578,0.539277272751148,0.529005654899956,0.526501323854978,0.524714958341736,0.52330041558861,0.521680501026821,0.51963032194451,0.517237478485541,0.51469649454202,0.512171279948577,0.509102556383566,0.506367277773901,0.504248253322297,0.502561700420794,0.500936857461154,0.499253772699565,0.497998196214136,0.497017191741609,0.492893470513892,0.487248642341139,0.481468695628236,0.47342553749083,0.472018548248413,0.471049348722977,0.470127162350466,0.468556465106407,0.465807007971036,0.462028650425973,0.457705953064156,0.454811854890691,0.459693884337076,0.464308955516458,0.464906373373156,0.466256690713944,0.466147193521775,0.466973777474546,0.483277221539484,0.490509087871152,0.487259041044836,0.483823526946088,0.487405247100758,0.539736692820746,0.539281460893288,0.548533437914149,0.548699171600291,0.556951484934732,0.557291028606044,0.565077186212857,0.589922199301984,0.588142897959221,0.689566978273361,0.762759539097278,0.733398135596211,0.696433601664222,0.680750722468988,0.673163932188915,0.664339076635313,0.650599990835404,0.650020978904439,0.648272850843798,0.646949196225853,0.648310166048769,0.649402033233798,0.65485235595162,0.65318061944416,0.676055955838979,0.676872569392688,0.678851719645347,0.687975225884459,0.697444500896746,0.698180828738783,0.699494411181748,0.698487676203797,0.698108042142785,0.700757146757161,0.701823201678038,0.71861172981837,0.718595112242843,0.720879828947522,0.722519199426849,0.724282605815523,0.725822340395618,0.726294143954571,0.727016534724601,0.726261880577199,0.736826264697808
0.452260014412482,0.450869581192953,0.451431316072374,0.449101029704404,0.44871927782694,0.446570073200205,0.440060102724809,0.438703536290303,0.43161130949983,0.430400313643543,0.428976702925458,0.423082653297962,0.422454462101603,0.410644692791845,0.40776293792744,0.407878982050745,0.406974123589423,0.402534088862792,0.360824172283158,0.378716757445352,0.375103781544889,0.387194333922971,0.387748391005378,0.411720658153759,0.427907877226059,0.435735826265327,0.447208531518012,0.452353533191836,0.455509172145996,0.502902372427475,0.534226018093826,0.541951722840699,0.548362713627373,0.552893581018575,0.558787482252824,0.577528014701966,0.59560524153885,0.596695106751843,0.59779315538771,0.630930725441823,0.662787854841391,0.673616674880072,0.681075354898477,0.687744331611721,0.694466713250206,0.675874410063007,0.654946447082608,0.675143539371973,0.692720710656716,0.692199462166387,0.693223096685163,0.691807027669167,0.69167770469759,0.690499093912545,0.68976729811857,0.670851700224264,0.651679121609681,0.643708680668791,0.638179288538048,0.636404382670173,0.634800534632645,0.632399549157119,0.627104961641538,0.626438590453135,0.624954790964614,0.608975961704844,0.606394442348278,0.594231673978354,0.58852737561016,0.586432643266976,0.58433418892375,0.581576897811493,0.578738992478646,0.582030163928832,0.585220879143366,0.577243828513388,0.565504893397316,0.572748466979541,0.580847889053048,0.5545689482352,0.532452053211902,0.531196492764992,0.529849392917632,0.521213359419886,0.514530272153136,0.513796089736186,0.500147389093326,0.502472894985437,0.500780914472477,0.507530283269146,0.512786272715093,0.497947805010762,0.482046179710408,0.493281149897362,0.505267037539387,0.503135825004524,0.50126116956242,0.499521382834556,0.498221612199211,0.497535945789821,0.496416504625275,0.489490033726707,0.478842525496445,0.473355583511171,0.471544180422212,0.466021271711831,0.45621662795037,0.455386992897088,0.445197288596966,0.450455588541429,0.451181257098142,0.456216362374259,0.452001633167127,0.466897848780512,0.491994245098089,0.477291841203198,0.46823740470279,0.467501742581519,0.46825515605271,0.493058298442073,0.681586948391052,0.487535040953412,0.477050597109177,0.486552887602393,0.541578731356327,0.541296706598351,0.551226458724759,0.550333279066476,0.55694828215721,0.55706426009202,0.567786230318742,0.588877919279582,0.587959556871715,0.660937674376422,1.15005454160504,0.712769444848614,0.695344380293944,0.672489507666508,0.65143474504958,0.650683305410034,0.651433770503973,0.649671530089016,0.649241676989576,0.648541389143507,0.650083588434315,0.651265588192999,0.654652572973201,0.653679799883554,0.676753716342685,0.678365881878808,0.678972437893876,0.691526873519062,0.699266967762095,0.699236664146909,0.699068927573485,0.698264227599579,0.696729842691885,0.699517161058411,0.70009880710625,0.720101421129363,0.71899518902275,0.720944304558056,0.723907680020999,0.724471212723702,0.724701455729851,0.725918674373759,0.727346786772759,0.725102455007437,0.742751664599767
0.449634877712323,0.449200478437992,0.448303293279724,0.446925051991827,0.445361361950209,0.443588966314438,0.441999811701777,0.436633770156686,0.433791139546872,0.429719079825943,0.427214633210451,0.422876461591239,0.422496386474257,0.413407667882919,0.409049511379937,0.409661199568847,0.408391443537629,0.403058600905734,0.383061762336616,0.382832497630321,0.384835607404105,0.386351375152556,0.387199258021504,0.399880596885672,0.411518841752213,0.420926027577631,0.433086851722173,0.44040166067414,0.450248452138013,0.476584969032711,0.491110154504265,0.502825143679342,0.51399264654854,0.527118055476197,0.538921903731057,0.548711770601225,0.558560268709247,0.570224975023905,0.583259728335579,0.592856925516419,0.600990975295381,0.607708867713023,0.615129073360675,0.621987342870026,0.629739787216645,0.630997916189849,0.630495895721037,0.630075858053885,0.630933253945846,0.630900873576591,0.631003062760903,0.631764066767927,0.632827878985779,0.633620249881275,0.634010326170102,0.633951308344999,0.633522230218526,0.632872858674776,0.632064240909754,0.631177484656791,0.629765204047723,0.628115136215476,0.62600186225979,0.622924082721925,0.619283042479823,0.603946026658077,0.598650661475194,0.591420136036972,0.58453402093639,0.581445880132356,0.57627314880049,0.571358488186043,0.56645759823555,0.56165546713402,0.556802318271871,0.551869433485751,0.546809474134549,0.541764667160807,0.536811304229574,0.532630436165841,0.530871178698669,0.526802744746977,0.522857633368336,0.51859696068637,0.513665915230248,0.51241473427168,0.509618398701805,0.506300918364071,0.504334573369354,0.498319938144551,0.493398799166978,0.489058666181498,0.480360057872836,0.4786742850021,0.4770346644896,0.475501024816134,0.47379580013285,0.469703078993742,0.466678149998963,0.464896454751791,0.464119458638737,0.463924635278002,0.46385564276821,0.463499659095367,0.462450921985048,0.460334478556693,0.45718178104907,0.454368995985037,0.450055477838202,0.450118707384876,0.450610858987862,0.459513424444724,0.461197837767641,0.473437955411361,0.496143802381773,0.499548503264713,0.502734193825695,0.503935304434172,0.503962637401638,0.504264072155767,0.508684343295783,0.49274264161836,0.486479310340194,0.486415751353222,0.521613341744087,0.543327525515359,0.550898401135186,0.551087661559953,0.553190256967749,0.556940585433235,0.567028873147939,0.586197733299227,0.586745346711393,0.628143311252718,0.629546146291302,0.635752469377693,0.646478763414067,0.648727111354401,0.649729648872556,0.649986390614098,0.64976522106717,0.649985576602321,0.649673817221796,0.650294426026945,0.650969291913841,0.652510531881984,0.653959959150011,0.655505175326189,0.673340095488182,0.680806081476722,0.680700935327064,0.694990235085895,0.698812468037362,0.699456324079416,0.699751044754938,0.698867740880557,0.697905537980253,0.697781929610355,0.708429884875197,0.720296787704945,0.721206875500242,0.721655205625376,0.723147795531169,0.723260197622118,0.724578270416363,0.724570548763488,0.724930779122763,0.723267776328222,0.743176987833628
0.447934848193218,0.44721720743114,0.446704543080852,0.445161267697122,0.439259371420733,0.441161071265219,0.440585680809657,0.435536812792654,0.434566709839746,0.429888084284719,0.424071904377473,0.423155371564162,0.422190685632098,0.415924147804236,0.410309398359746,0.412751692840725,0.414712837974981,0.403671362704815,0.383624561616033,0.384104032940701,0.384819096952372,0.386088611310348,0.37200871550812,0.37776776564974,0.369009461985033,0.387138645071127,0.387561606842248,0.42319528571204,0.44565403606741,0.45204917115358,0.459033466183709,0.481258077647713,0.503871513372028,0.504278779566694,0.504204558189524,0.508001192812385,0.512040451809984,0.519148875202199,0.532416743209003,0.564848407600903,0.585153595287287,0.585430462408093,0.585722143042815,0.59504314929768,0.613558485776654,0.604408263843604,0.59640085707741,0.614010684790193,0.633033088407796,0.632017631417205,0.632423411639254,0.620901700838161,0.612067890822161,0.619578244624154,0.625961566716961,0.617601996000517,0.611241185682469,0.610350346060206,0.603333884834969,0.612281806182176,0.617983921431258,0.614183665181656,0.61036255987797,0.61309220301978,0.615254401933649,0.596334931703492,0.584238131455701,0.583023798820277,0.581823410041101,0.569325186821617,0.556061079703585,0.555382481654066,0.554691201538297,0.540768475485656,0.528511497263388,0.520431431740652,0.514871032463555,0.513566698419052,0.512585474978761,0.519260558234269,0.526041030152324,0.512957396927817,0.49856362123676,0.505000606798084,0.510801110204797,0.511715359175556,0.518928977024051,0.507786617632994,0.509652499541889,0.488237036620173,0.476039906337451,0.47441437230444,0.47288751907075,0.474245866822225,0.475431413300354,0.475767356468859,0.476576966650591,0.468674226190127,0.460808179918189,0.460085342141696,0.459247434129535,0.453089620867008,0.447361795018496,0.446014973452742,0.444734834585488,0.430791124482514,0.408116674999875,0.415934915763872,0.418137070709668,0.416269697587075,0.415197314619798,0.461735516154966,0.46334326946859,0.480048373278232,0.495976083749503,0.498110306284243,0.551058868038389,0.511441526850408,0.511122657707479,0.512755352272801,0.532153474102569,0.497624924386661,0.487440185638326,0.486722095267952,0.487253425702331,0.54495914569021,0.550159209625571,0.550446034417337,0.551183173547837,0.55775678640367,0.565776686835845,0.581954208495871,0.576908421603745,0.618812231323625,0.618201794162723,0.633404274990261,0.642708684167357,0.648835200027614,0.649041039240335,0.648787503710333,0.649821600568719,0.649622661630686,0.651900986603948,0.651347304306415,0.653210947692016,0.653803275532481,0.65515450952652,0.657861032495637,0.669075646436769,0.682895023471341,0.681617918043086,0.697548644582597,0.696732381019968,0.699788508396356,0.70071702973569,0.699454515937107,0.698451820137419,0.697028855832469,0.715623334343948,0.719318905641016,0.721695120048266,0.722323749835376,0.720778001913956,0.723379719266022,0.723349101426591,0.724123500657342,0.723949986043442,0.722217606630415,0.744150791259372
0.446410749176731,0.445579271517861,0.444487377784675,0.442871046092702,0.440878566990016,0.43959658460936,0.438334301268475,0.435909936804543,0.435363699850583,0.429386602944351,0.422968127218072,0.422821645705154,0.421627893876728,0.419303053591377,0.418761611168206,0.417034137666347,0.416087781759207,0.404812121498208,0.392017088925932,0.389051342047346,0.386289510491391,0.386837398729112,0.385708358941689,0.384461858978621,0.384009591003983,0.385703929244996,0.386072027832899,0.406994445942002,0.420039129493895,0.431191145455042,0.442188073144921,0.452330023383206,0.461440570415299,0.47118713424797,0.481835139992687,0.493080654084061,0.503911294684942,0.512102637790221,0.522616374433185,0.542408784313864,0.562423681739967,0.56853116191569,0.583542383928991,0.587180272539066,0.58944965127688,0.590777867926755,0.591974840210033,0.599417070030636,0.605299512389702,0.606303986178464,0.607278629235692,0.608649539042924,0.61078966255911,0.611435855776545,0.611884143480809,0.611695827387004,0.610663419706178,0.609191332473753,0.607149078807991,0.609235280211621,0.611378256873629,0.610500743868072,0.609119234848703,0.606804241472048,0.603477732031335,0.585307108582212,0.577336627784813,0.568334326199729,0.559938738403532,0.552888715548012,0.545736263400614,0.539011584204422,0.53310585170872,0.527456779871541,0.522837856168444,0.51893032371237,0.513642354889195,0.512639226968393,0.511329451504325,0.509330285815081,0.506401108573649,0.502876292153439,0.499173918582986,0.495884055455453,0.493270048208443,0.491691112799805,0.490935071567808,0.490262144638026,0.489127848955438,0.477884768737562,0.475334255399423,0.474329507919258,0.472890376311825,0.470692234731103,0.467707610837315,0.463989884429355,0.460120365054014,0.45708448380437,0.45584180657486,0.450645720809918,0.448268857510503,0.443958168811583,0.438753186431673,0.432800442800884,0.42650964696038,0.420448012476731,0.410984862834852,0.41424978775096,0.41550124796856,0.415326110940382,0.414887631752982,0.472996350029693,0.477151353667271,0.486330414789177,0.496647300206844,0.497597730864581,0.510233154607977,0.511146209142732,0.511628948564348,0.513411555790466,0.516108594491453,0.503971757697649,0.485889211452409,0.485637395944078,0.48562530216949,0.545705445849956,0.548625278450557,0.548742309351271,0.549067683545681,0.558627451336236,0.578704316190811,0.58931197252607,0.601344762609277,0.619466519870432,0.619620764680833,0.630648322511515,0.635789737914403,0.648292514102844,0.647931957963854,0.648127054816717,0.647878135080802,0.649491429501362,0.651373911472383,0.652661371949778,0.653732095957903,0.655390639468545,0.656652091061801,0.659785235413019,0.665890526800802,0.685266606752051,0.684880578723303,0.699288705828935,0.699640439614873,0.700488885048581,0.700315912202773,0.699215913646948,0.698498213273522,0.69683516274262,0.718293408738615,0.720470512108186,0.722471145783904,0.72210560939107,0.722246934839667,0.722375184225558,0.723641943010624,0.72294321349946,0.722936386944454,0.721217724548718,0.742065081007749
