0.622001, 0.616653, 0.616143, 0.616109, 0.61664, 0.616902, 0.617197, 0.622427, 0.624297, 0.62326, 0.623558, 0.626234, 0.626486, 0.627574, 0.631851, 0.638681, 0.639831, 0.645212, 0.659026, 0.65704, 0.949444, 1.0625, 0.955834, 0.697321, 0.742838, 0.717954, 0.717941, 0.733173, 0.731969, 0.731562, 0.738725, 0.750232, 0.751071, 0.754019, 0.906502, 0.84221, 0.903871, 1.01249, 0.821761, 0.825382, 0.833984, 0.837017, 0.836579, 0.847734, 0.835036, 0.835006, 0.833012, 0.832315, 0.831087, 0.860272, 0.843462, 0.815813, 0.00433725, 0.617905, 0.604593, 0.579982, 0.579186, 0.563544, 0.563496, 0.544948, 0.544558, 0.545106, 0.535892, 0.53507, 0.534488, 0.535941, 0.535036, 0.534553, 0.533749, 0.500784, 0.507398, 0.526025, 0.528515, 0.572516, 0.571982, 0.598894, 0.618441, 0.652027, 0.705515, 0.734956, 0.757064, 0.789599, 0.807714, 0.842905, 0.886322, 1.00157, 1.05187, 1.11714, 1.23835, 1.19874, 1.22416, 1.23509, 1.25333, 1.24803, 1.25333, 1.26765, 1.26411, 1.26016, 1.29489, 1.29883, 1.32455, 1.35728, 1.33667, 1.33643, 1.35544, 1.41912, 1.4243, 1.56306, 1.5034, 1.50571, 1.48405, 1.48283, 1.49201, 1.51992, 1.49565, 1.51666, 1.53087, 1.62338, 1.57604, 1.57588, 1.57294, 1.54782, 1.54773, 1.53616, 1.54181, 1.55978, 1.5687, 1.56875, 1.57233, 1.56458, 1.62681, 1.62567, 1.57883, 1.65211, 1.58179, 1.58747, 1.63644, 1.62816, 1.69718, 1.69898, 1.69824, 1.6501, 1.6808, 1.67909, 1.71932, 1.70576, 1.69278, 1.69266, 1.7102, 1.71314, 1.71807, 1.71732, 1.71714, 1.80656, 1.64246, 1.6957, 1.61241, 1.62965, 1.56865, 1.5887, 1.58944, 1.63338, 1.56732, 1.56231, 1.52657, 1.47861, 1.50708, 1.47552, 1.44893, 1.4157, 1.43002, 1.39809, 1.36576, 1.31311, 1.3015, 1.3003, 1.29201, 1.30665, 1.30143, 1.3006, 1.28243, 1.30569, 1.29472, 1.23313, 1.2497, 1.23657, 1.24309, 1.21483, 1.24011, 1.24024, 1.15679, 1.06587, 1.04293, 0.985357, 0.941411, 0.942086, 0.902791, 0.855762, 0.841215, 0.841952, 0.826542, 0.809614, 0.81621, 0.798362, 0.788633, 0.756303, 0.745857, 0.741937, 0.721424, 0.711583, 0.685432, 0.671667, 0.657622, 0.649194, 0.642831, 0.636622, 0.635073, 0.636355, 0.639848, 0.958247, 0.974269, 0.994988, 0.864675, 0.97395, 1.05691, 0.768914, 0.977846, 0.787166, 0.7934, 0.78801, 0.791531, 0.795937, 0.792415, 1.14188, 0.785175, 0.786993, 0.787467, 0.880198, 1.01791, 0.801478, 0.817423, 0.817805, 0.819824, 0.829087, 0.83601, 0.837939, 0.836081, 0.83538, 0.83586, 0.836368, 0.835809, 0.843096, 0.845553, 0.849828, 0.866179, 0.862986, 0.862647, 0.864671, 0.865228, 0.87302, 0.87309, 0.875818, 0.879256, 0.880095, 0.883009, 0.888311, 0.891062, 0.890752, 0.88808, 0.888388
0.616725, 0.615249, 0.614352, 0.614257, 0.615263, 0.61559, 0.615214, 0.62437, 0.623392, 0.623386, 0.621574, 0.626599, 0.627917, 0.626485, 0.632464, 0.639304, 0.641274, 0.641707, 0.659057, 0.657599, 0.959989, 0.957259, 0.693259, 0.696278, 0.749132, 1.08203, 1.25793, 0.732321, 0.731642, 0.731557, 0.736726, 0.752465, 0.750814, 0.887768, 0.903192, 0.896325, 0.898453, 1.03699, 1.47258, 0.00444842, 0.836406, 0.836468, 0.836203, 0.835525, 0.845442, 0.845387, 0.845397, 0.829784, 0.857034, 0.861448, 0.86593, 0.816024, 0.00430216, 0.605798, 0.603931, 0.581246, 0.578538, 0.565905, 0.564718, 0.547003, 0.544258, 0.535854, 0.533383, 0.534884, 0.53423, 0.529099, 0.519026, 0.533454, 0.500461, 0.509723, 0.520374, 0.52173, 0.531386, 0.568779, 0.566536, 0.600889, 0.600829, 0.657405, 0.666522, 0.732262, 0.742862, 0.73609, 0.806455, 0.838744, 0.874914, 0.884496, 1.01457, 1.04667, 1.22558, 1.19908, 1.23684, 1.22992, 1.26773, 1.23834, 1.22207, 1.222, 1.26369, 1.26363, 1.2789, 1.2917, 1.33048, 1.32668, 1.32903, 1.36076, 1.34761, 1.36602, 1.41694, 1.41853, 1.4838, 1.46179, 1.46171, 1.47109, 1.47269, 1.4748, 1.49362, 1.50255, 1.62386, 1.58003, 1.58125, 1.58464, 1.57233, 1.67111, 1.54561, 1.55772, 1.62032, 1.57084, 1.59131, 1.58873, 1.57353, 1.60085, 1.57127, 1.57107, 1.58439, 1.58146, 1.58083, 1.58108, 1.67384, 1.65379, 1.70587, 1.69889, 1.69842, 1.68049, 1.66872, 1.69644, 1.74966, 1.74055, 1.73859, 1.69286, 1.69043, 1.72172, 1.73455, 1.71715, 1.76334, 1.7622, 1.65074, 1.59081, 1.6815, 1.54141, 1.57796, 1.58862, 1.59561, 1.59707, 1.60786, 1.56585, 1.50902, 1.4529, 1.45249, 1.46779, 1.43244, 1.45084, 1.40062, 1.36713, 1.36613, 1.34022, 1.33831, 1.30389, 1.39862, 1.29817, 1.30221, 1.30879, 1.24719, 1.23219, 1.23048, 1.25354, 1.23052, 1.21895, 1.24344, 1.20289, 1.23613, 1.155, 1.14564, 1.08531, 1.0186, 0.970246, 0.967322, 0.935367, 0.908666, 0.894531, 0.857496, 0.831575, 0.831203, 0.810678, 0.805584, 0.797205, 0.785402, 0.769684, 0.75238, 0.752453, 0.709662, 0.708513, 0.715836, 0.671564, 0.653154, 0.635891, 0.632779, 0.646804, 0.661993, 0.650767, 0.671426, 0.839666, 0.925752, 0.966386, 0.980898, 0.991427, 0.985808, 0.765412, 1.08192, 0.783594, 0.784556, 0.784154, 1.01491, 0.787483, 0.790257, 0.77814, 0.773952, 0.774772, 0.775353, 0.778361, 1.04963, 0.802432, 0.804718, 1.01827, 0.816955, 0.818596, 0.82392, 0.828492, 0.833847, 0.835025, 0.83648, 0.833821, 0.835739, 0.839117, 0.845985, 0.846272, 0.862842, 0.863583, 0.863738, 0.86474, 0.870069, 0.873508, 0.875171, 0.877695, 0.879883, 0.880966, 0.89255, 0.893655, 0.891437, 0.888748, 0.887513, 0.88805
0.616153, 0.615205, 0.613482, 0.610976, 0.608603, 0.609477, 0.612489, 0.624572, 0.624123, 0.6226, 0.619981, 0.627241, 0.627313, 0.631443, 0.631422, 0.652004, 0.65166, 0.651058, 0.650406, 0.662614, 0.939852, 0.961225, 0.956404, 0.74911, 0.749342, 1.09864, 0.740364, 0.735175, 0.733872, 0.732962, 0.74288, 0.752816, 0.752217, 0.860403, 0.904069, 0.824805, 0.00480114, 0.915384, 0.887149, 0.850536, 0.83743, 0.836134, 0.837241, 0.83637, 0.845963, 0.96324, 0.846349, 1.10115, 1.00042, 1.02542, 0.640074, 0.747225, 0.965463, 0.936068, 0.569273, 0.569358, 0.565592, 0.566649, 0.560227, 0.549394, 0.534283, 0.535959, 0.535025, 0.534744, 0.531338, 0.530206, 0.530217, 0.518619, 0.510155, 0.501346, 0.518211, 0.521292, 0.528918, 0.542606, 0.591824, 0.594232, 0.612196, 0.662794, 0.649147, 0.68931, 0.728207, 0.735543, 0.816081, 0.828689, 0.876755, 0.877939, 0.939735, 0.989366, 1.10595, 1.25523, 1.27143, 1.22846, 1.22463, 1.24954, 1.22191, 1.22248, 1.27129, 1.31478, 1.30608, 1.29542, 1.2986, 1.31569, 1.33276, 1.35717, 1.37305, 1.37134, 1.38264, 1.37983, 1.49979, 1.48624, 1.44736, 1.44644, 1.45052, 1.44475, 1.4451, 1.49407, 1.58317, 1.58303, 1.5844, 1.5825, 1.5916, 1.58975, 1.5725, 1.58249, 1.55741, 1.60431, 1.59422, 1.59154, 1.60866, 1.59979, 1.57315, 1.5747, 1.58154, 1.58018, 1.58051, 1.58098, 1.6088, 1.64811, 1.62846, 1.71525, 1.6991, 1.69923, 1.72381, 1.71103, 1.72412, 1.74474, 1.7388, 1.69168, 1.67165, 1.67657, 1.76865, 1.75743, 1.76015, 1.62392, 1.62491, 1.6659, 1.66195, 1.54419, 1.54457, 1.61399, 1.60308, 1.60886, 1.48444, 1.48464, 1.53855, 1.4517, 1.45115, 1.4569, 1.4063, 1.40548, 1.39665, 1.36638, 1.35711, 1.34047, 1.30668, 1.31183, 1.30216, 1.29984, 1.26541, 1.25068, 1.22669, 1.22783, 1.25093, 1.24799, 1.2466, 1.21972, 1.23776, 1.23698, 1.18044, 1.17495, 1.12643, 1.04731, 1.03009, 0.998301, 0.962242, 0.946743, 0.887261, 0.866413, 0.850365, 0.825113, 0.821767, 0.819535, 0.794463, 0.794784, 0.770817, 0.763921, 0.759291, 0.750712, 0.725867, 0.715494, 0.676696, 0.675008, 0.640166, 0.634146, 0.632803, 0.608517, 0.633754, 0.645947, 0.679839, 0.845814, 0.921818, 0.952906, 0.981583, 0.973787, 1.04697, 1.09989, 0.777893, 0.783027, 0.783816, 0.780504, 0.780564, 1.01315, 0.779623, 0.777264, 0.775637, 0.776071, 0.77366, 0.776872, 1.10216, 1.0498, 1.02594, 1.05922, 0.81782, 0.818734, 0.812946, 0.821632, 0.822227, 0.835373, 0.832658, 0.828935, 0.838078, 0.842268, 0.843027, 0.847586, 0.857042, 0.863623, 0.865431, 0.867329, 0.87306, 0.874636, 0.876476, 0.880016, 0.88049, 0.893551, 0.895333, 0.896151, 0.892643, 0.888897, 0.887678, 0.890106
0.616, 0.615136, 0.60537, 0.605093, 0.610008, 0.609258, 0.623221, 0.625978, 0.62479, 0.621349, 0.61975, 0.619239, 0.628354, 0.632212, 0.957004, 0.651135, 0.651312, 0.651201, 0.65088, 0.661405, 0.963851, 0.963066, 0.693625, 0.752046, 0.749073, 1.10158, 0.738953, 0.73873, 0.73668, 0.735335, 0.736879, 0.753188, 0.757951, 0.760075, 0.911157, 0.904561, 0.00451185, 0.997508, 0.841823, 0.847027, 0.839994, 1.47544, 0.91637, 0.940228, 0.950437, 0.968073, 0.976831, 0.970558, 1.00484, 0.974288, 0.00446852, 0.618442, 0.612235, 0.952521, 0.57302, 0.571395, 0.567193, 0.563629, 0.562203, 0.560595, 0.538593, 0.534263, 0.533421, 0.531944, 0.530861, 0.530041, 0.515027, 0.521803, 0.479875, 0.479851, 0.522691, 0.521476, 0.521123, 0.535403, 0.570995, 0.591424, 0.628323, 0.62848, 0.635455, 0.685224, 0.684134, 0.712674, 0.728145, 0.801919, 0.839646, 0.88107, 0.898813, 0.964082, 1.02226, 1.18875, 1.19432, 1.24094, 1.22566, 1.22607, 1.22262, 1.26399, 1.21395, 1.26041, 1.26166, 1.27439, 1.28812, 1.31282, 1.3468, 1.35068, 1.36686, 1.36815, 1.38558, 1.50102, 1.49976, 1.3913, 1.42086, 1.40346, 1.41339, 1.41397, 1.45164, 1.48543, 1.63645, 1.58518, 1.58197, 1.59604, 1.5869, 1.5751, 1.55728, 1.58274, 1.58719, 1.59617, 1.59646, 1.6259, 1.58962, 1.5891, 1.61001, 1.57937, 1.58118, 1.5814, 1.58174, 1.59267, 1.6144, 1.67193, 1.63458, 1.636, 1.63613, 1.66122, 1.66138, 1.68945, 1.70922, 1.70727, 1.72375, 1.73169, 1.67895, 1.72396, 1.70969, 1.6972, 1.63352, 1.60491, 1.60084, 1.66601, 1.57543, 1.54403, 1.54459, 1.62674, 1.62258, 1.55635, 1.51377, 1.48671, 1.45677, 1.45082, 1.44699, 1.45747, 1.52806, 1.40195, 1.39976, 1.36693, 1.3542, 1.33966, 1.31409, 1.31313, 1.29686, 1.29794, 1.26209, 1.24181, 1.22466, 1.21948, 1.24327, 1.22662, 1.21646, 1.22541, 1.21961, 1.19548, 1.17771, 1.15246, 1.12426, 1.03898, 0.983967, 0.968337, 0.967523, 0.939638, 0.891882, 0.866013, 0.853716, 0.827427, 0.811238, 0.789443, 0.784381, 0.758845, 0.769889, 0.749487, 0.749988, 0.72036, 0.726346, 0.702202, 0.687918, 0.683366, 0.663798, 0.635055, 0.63367, 0.622017, 0.633902, 0.633019, 0.69227, 0.915517, 0.915523, 0.97776, 0.992349, 0.954573, 0.75486, 0.76714, 0.775023, 0.777503, 0.78129, 0.769864, 0.771808, 0.773097, 0.766492, 0.768927, 0.771318, 0.772849, 0.771201, 0.776937, 0.790818, 0.785596, 1.04346, 1.04217, 1.01209, 0.811699, 0.812359, 0.813944, 0.82771, 0.828134, 0.821249, 0.81531, 0.836847, 0.838074, 0.842489, 0.845068, 0.853784, 0.862819, 0.865446, 0.872389, 0.872613, 0.876342, 0.878985, 0.881753, 0.884218, 0.892855, 0.895186, 0.89588, 0.889318, 0.889398, 0.889127, 0.88871
0.614077, 0.606526, 0.602353, 0.604943, 0.606107, 0.609208, 0.60773, 0.624921, 0.624264, 0.624065, 0.618858, 0.618992, 0.629489, 0.63605, 0.648503, 0.649307, 0.651476, 0.653316, 0.666152, 0.663745, 0.687833, 0.687774, 1.06067, 0.753399, 0.749903, 0.740298, 0.740295, 0.738864, 0.738146, 0.736064, 0.736003, 0.821755, 0.759062, 0.766428, 0.839924, 0.906498, 0.916314, 1.0267, 0.856238, 0.849963, 0.949387, 0.926809, 0.991966, 0.00475493, 1.4653, 0.954148, 0.977413, 0.962314, 0.965496, 0.00453407, 0.614882, 0.617644, 0.612101, 0.611593, 0.573414, 0.56993, 0.564369, 0.560894, 0.560155, 0.548001, 0.535009, 0.534934, 0.534128, 0.530755, 0.527567, 0.527192, 0.525646, 0.513703, 0.508835, 0.489206, 0.5221, 0.51784, 0.517778, 0.535963, 0.535717, 0.583379, 0.576436, 0.587259, 0.639903, 0.649833, 0.712843, 0.712817, 0.714248, 0.785593, 0.802481, 0.881098, 0.901496, 0.952474, 0.999972, 1.03265, 1.22225, 1.22347, 1.22639, 1.23247, 1.23172, 1.20594, 1.20794, 1.20908, 1.32592, 1.27123, 1.29039, 1.31388, 1.37818, 1.35704, 1.36556, 1.36555, 1.36874, 1.37938, 1.37435, 1.37412, 1.40205, 1.3755, 1.38707, 1.41329, 1.4093, 1.52465, 1.5734, 1.58654, 1.57343, 1.57546, 1.58462, 1.5825, 1.60233, 1.58891, 1.60266, 1.61012, 1.62376, 1.61287, 1.58958, 1.58872, 1.61003, 1.58467, 1.58487, 1.58476, 1.58426, 1.5983, 1.61006, 1.67997, 1.67321, 1.63143, 1.64354, 1.63909, 1.64401, 1.68692, 1.74447, 1.66918, 1.66942, 1.67717, 1.67813, 1.63703, 1.70722, 1.62609, 1.64914, 1.60687, 1.60976, 1.56609, 1.54497, 1.57627, 1.55067, 1.52282, 1.51228, 1.48987, 1.48917, 1.48217, 1.4579, 1.45741, 1.50194, 1.48589, 1.48389, 1.42773, 1.45071, 1.36734, 1.46037, 1.40241, 1.32284, 1.29872, 1.29771, 1.30637, 1.2518, 1.26171, 1.24947, 1.20553, 1.2067, 1.20837, 1.22266, 1.22148, 1.23346, 1.18702, 1.17701, 1.20115, 1.0844, 1.02287, 1.00182, 0.966922, 0.923742, 0.907328, 0.873986, 0.863123, 0.832401, 0.797143, 0.800947, 0.789444, 0.773473, 0.766184, 0.759365, 0.743054, 0.737186, 0.732643, 0.704618, 0.69085, 0.679592, 0.668838, 0.628824, 0.630537, 0.62497, 0.617972, 0.612221, 0.702007, 0.702483, 0.70168, 0.94288, 0.914084, 0.887241, 0.750289, 1.04035, 0.767839, 0.773828, 0.774377, 0.774432, 0.769481, 0.768558, 0.768665, 1.0755, 0.763656, 0.765885, 0.772505, 0.767974, 0.768992, 0.786742, 0.783995, 0.784951, 0.79098, 0.795486, 0.804298, 0.806933, 0.810562, 0.823261, 0.817251, 0.819535, 0.814151, 0.835453, 0.837141, 0.842026, 1.07329, 1.09909, 1.09999, 0.868971, 0.870278, 0.872806, 0.876888, 0.878104, 0.880477, 0.890287, 0.891875, 0.894274, 0.894335, 0.889715, 0.88958, 0.889468, 0.892086
0.604055, 0.603381, 0.602581, 0.604668, 0.605268, 0.605627, 0.605501, 0.623179, 0.624797, 0.625954, 0.624208, 0.627467, 0.628422, 0.636886, 0.648496, 0.647208, 0.647612, 0.646863, 0.66648, 0.668537, 0.687557, 0.687318, 1.06143, 0.701169, 0.756471, 0.738478, 0.73882, 0.738442, 0.736809, 0.735102, 0.736207, 1.07767, 0.768721, 0.772177, 0.781291, 1.34794, 0.994636, 0.882457, 1.47604, 0.918551, 1.30141, 0.960394, 1.00125, 1.01922, 1.06102, 1.05355, 0.998092, 0.994965, 0.962704, 0.963122, 0.609975, 0.608151, 0.608536, 0.909059, 0.567725, 0.563234, 0.561858, 0.560332, 0.559954, 0.54965, 0.535913, 0.53551, 0.535144, 0.532665, 0.524999, 0.526119, 0.510951, 0.536099, 0.509245, 0.491147, 0.507337, 0.518972, 0.518357, 0.541064, 0.537704, 0.550041, 0.563998, 0.607828, 0.614705, 0.643205, 0.674692, 0.701896, 0.713428, 0.730105, 0.80278, 0.801558, 0.852804, 0.949378, 0.950187, 1.04981, 1.18511, 1.23261, 1.2313, 1.22958, 1.23308, 1.21559, 1.31233, 1.20918, 1.21553, 1.26397, 1.2718, 1.27141, 1.37065, 1.37502, 1.36133, 1.34738, 1.37102, 1.44672, 1.37037, 1.37136, 1.37259, 1.37437, 1.37556, 1.40335, 1.47574, 1.46757, 1.55856, 1.62387, 1.57433, 1.57293, 1.57165, 1.66925, 1.59899, 1.59154, 1.60205, 1.6022, 1.60657, 1.60639, 1.59861, 1.5993, 1.58386, 1.58514, 1.58456, 1.57372, 1.57904, 1.59971, 1.60056, 1.61267, 1.73088, 1.63387, 1.62771, 1.64319, 1.5822, 1.57999, 1.62103, 1.62004, 1.6449, 1.64396, 1.63665, 1.65271, 1.61314, 1.60679, 1.62285, 1.6235, 1.66555, 1.55505, 1.54745, 1.52695, 1.52333, 1.5159, 1.49767, 1.48955, 1.48851, 1.44866, 1.48212, 1.45689, 1.45505, 1.47715, 1.41921, 1.47821, 1.44843, 1.4529, 1.42759, 1.40056, 1.32311, 1.3095, 1.27735, 1.27702, 1.2682, 1.26846, 1.22731, 1.20867, 1.20866, 1.2123, 1.21551, 1.25967, 1.18479, 1.17733, 1.19497, 1.08256, 1.02647, 1.01375, 0.960424, 0.963156, 0.908456, 0.878924, 0.856545, 0.831862, 0.823456, 0.796791, 0.782573, 0.78422, 0.752976, 0.742756, 0.737136, 0.745131, 0.748288, 0.711549, 0.704195, 0.674945, 0.677969, 0.66632, 0.648044, 0.624737, 0.642821, 0.636164, 0.636442, 0.694084, 0.709306, 0.700719, 0.721388, 0.92338, 0.741606, 0.749981, 0.751411, 0.752214, 0.771863, 0.773392, 0.767707, 0.756411, 0.757425, 1.02323, 0.757775, 0.759467, 0.761761, 0.769184, 0.768108, 0.768951, 0.781998, 0.774526, 0.776185, 0.791074, 0.797859, 0.801354, 0.802702, 1.09792, 0.815676, 0.815736, 0.816003, 0.825185, 0.83327, 0.832009, 1.19216, 1.11055, 0.84757, 1.09181, 0.86619, 0.869816, 0.87346, 0.876434, 0.878174, 0.887947, 0.891319, 0.891753, 0.89295, 0.893945, 0.890306, 0.888839, 0.889331, 0.899873
0.599971, 0.603762, 0.601782, 0.604671, 0.60352, 0.604674, 0.606696, 0.62471, 0.623479, 0.624876, 0.625497, 0.625656, 0.631079, 0.640644, 0.647697, 0.648448, 0.646329, 0.646174, 0.666652, 0.962263, 0.686971, 0.687134, 0.694475, 0.69413, 1.07372, 0.739549, 0.73657, 0.734975, 0.734934, 0.734914, 0.734383, 1.20839, 0.768173, 0.774073, 1.00245, 1.00283, 1.02949, 1.03001, 0.873686, 0.00430661, 1.37108, 1.44447, 1.04657, 0.926103, 1.06174, 1.06103, 0.992807, 0.955898, 0.955823, 0.00436002, 0.607808, 0.607219, 0.608988, 0.573603, 0.564454, 0.562644, 0.561951, 0.561145, 0.560405, 0.551013, 0.538851, 0.534982, 0.533283, 0.531941, 0.528116, 0.512857, 0.513382, 0.514824, 0.493999, 0.493929, 0.500628, 0.52044, 0.524943, 0.522616, 0.523257, 0.540724, 0.541625, 0.588705, 0.615745, 0.645753, 0.673891, 0.674647, 0.696233, 0.729001, 0.81777, 0.801471, 0.873892, 0.953073, 1.0387, 1.08713, 1.08774, 1.34025, 1.23001, 1.23013, 1.2162, 1.21641, 1.23969, 1.24012, 1.23334, 1.23901, 1.25734, 1.354, 1.36571, 1.33616, 1.34287, 1.34022, 1.36004, 1.45212, 1.48494, 1.37302, 1.37293, 1.37811, 1.37598, 1.3745, 1.47123, 1.44301, 1.54666, 1.63611, 1.57437, 1.57182, 1.63479, 1.5928, 1.5936, 1.59243, 1.59236, 1.60969, 1.64846, 1.60753, 1.61351, 1.61375, 1.59569, 1.59381, 1.58911, 1.57548, 1.57498, 1.5931, 1.60732, 1.60097, 1.59256, 1.6171, 1.68039, 1.57928, 1.5541, 1.56996, 1.62847, 1.62129, 1.65546, 1.63514, 1.61017, 1.61761, 1.58922, 1.58488, 1.58179, 1.6295, 1.62904, 1.60612, 1.51641, 1.51833, 1.52121, 1.50896, 1.5664, 1.49606, 1.48026, 1.48102, 1.44768, 1.47276, 1.40691, 1.4072, 1.47557, 1.47546, 1.37257, 1.40184, 1.39916, 1.32756, 1.32704, 1.34055, 1.28196, 1.28482, 1.25842, 1.25354, 1.23235, 1.2082, 1.20804, 1.21461, 1.21207, 1.20128, 1.21879, 1.18522, 1.19649, 1.07945, 1.0186, 0.975921, 0.941254, 0.932128, 0.882542, 0.856741, 0.833572, 0.819766, 0.814314, 0.780987, 0.786718, 0.780101, 0.728731, 0.72597, 0.719757, 0.722171, 0.694245, 0.694794, 0.69209, 0.677284, 0.676129, 0.662608, 0.650398, 0.624444, 0.623969, 0.662651, 0.664405, 0.701301, 0.699618, 0.84756, 0.861521, 0.912342, 0.742583, 0.75179, 0.752115, 0.753522, 0.766039, 0.765934, 0.766564, 0.752446, 0.757869, 0.761998, 0.758928, 0.758058, 0.76609, 0.76657, 0.769298, 0.769938, 0.777208, 0.776371, 0.778051, 0.777749, 0.791264, 0.802505, 0.803069, 0.814533, 0.818108, 0.818535, 0.818092, 0.826103, 0.831629, 0.831334, 0.836308, 0.838661, 0.852382, 0.856023, 0.868894, 0.870994, 0.873207, 0.874847, 0.875447, 0.890255, 0.889142, 0.893854, 0.894835, 0.893258, 0.891578, 0.890789, 0.891931, 0.902222
0.600643, 0.603688, 0.603948, 0.605291, 0.604465, 0.603573, 0.602509, 0.621844, 0.621696, 0.621248, 0.627902, 0.627977, 0.631604, 0.641589, 0.64356, 0.646231, 0.645121, 0.646395, 0.668046, 0.745408, 0.688823, 0.694284, 0.694818, 0.695766, 0.756979, 0.790804, 0.73667, 0.737424, 0.73903, 0.738212, 1.13309, 0.78731, 0.770641, 0.855562, 0.993617, 0.806343, 0.811273, 1.02964, 0.853815, 0.95296, 1.31346, 0.904963, 1.08458, 0.923451, 1.03984, 1.04197, 0.958305, 0.958745, 0.959919, 0.609634, 0.609426, 0.608202, 0.607129, 0.576199, 0.574235, 0.562094, 0.562849, 0.560853, 0.553725, 0.551668, 0.53853, 0.536581, 0.534585, 0.52954, 0.765831, 0.495122, 0.495118, 0.492813, 0.465994, 0.465306, 0.466222, 0.521665, 0.521013, 0.545926, 0.5529, 0.546307, 0.576171, 0.624795, 0.644913, 0.635527, 0.662185, 0.65974, 0.708161, 0.761907, 0.764301, 0.818388, 0.862837, 0.946386, 0.947269, 1.07099, 1.21409, 1.36827, 1.2464, 1.25612, 1.20852, 1.20964, 1.2107, 1.25988, 1.26669, 1.24756, 1.25461, 1.28269, 1.36786, 1.34653, 1.35531, 1.34836, 1.34361, 1.34374, 1.35542, 1.36054, 1.37385, 1.39176, 1.36911, 1.39931, 1.38842, 1.42613, 1.53546, 1.5372, 1.53741, 1.61366, 1.56815, 1.60342, 1.59955, 1.59793, 1.64131, 1.61083, 1.64751, 1.62693, 1.59743, 1.59205, 1.5875, 1.58566, 1.57804, 1.57711, 1.57588, 1.57492, 1.59281, 1.59051, 1.58929, 1.59999, 1.68593, 1.58183, 1.55544, 1.55496, 1.69043, 1.68939, 1.65284, 1.59625, 1.6991, 1.69691, 1.60666, 1.61346, 1.58957, 1.63069, 1.59478, 1.60817, 1.52028, 1.51957, 1.53439, 1.55129, 1.55463, 1.51292, 1.51197, 1.45168, 1.4302, 1.44764, 1.41218, 1.39644, 1.37421, 1.35503, 1.36485, 1.35826, 1.35924, 1.39209, 1.3393, 1.38539, 1.30595, 1.26783, 1.2604, 1.23836, 1.23604, 1.22772, 1.20939, 1.20163, 1.19487, 1.28442, 1.29214, 1.2714, 1.09839, 1.01275, 0.984737, 0.988199, 0.91235, 0.896419, 0.825774, 0.829476, 0.819701, 0.810912, 0.792218, 0.796649, 0.767893, 0.757563, 0.729265, 0.725903, 0.718058, 0.690205, 0.663061, 0.684913, 0.65936, 0.680145, 0.674854, 0.632386, 0.632108, 0.625102, 0.656832, 0.652709, 0.69142, 0.689217, 0.905038, 0.84356, 0.933398, 1.05446, 0.742007, 0.747948, 0.751864, 0.753483, 0.75536, 0.758647, 0.75058, 0.752241, 0.753918, 0.752234, 0.75276, 0.753693, 0.76378, 0.767092, 0.769652, 0.77009, 0.771028, 0.774254, 0.784364, 0.788048, 0.792056, 0.798719, 0.803473, 0.817016, 0.813302, 0.812376, 0.814154, 0.821135, 0.827312, 0.830028, 0.838697, 0.842889, 0.84535, 0.86705, 0.869231, 0.871066, 0.872428, 0.87183, 0.88491, 0.888121, 0.889259, 0.892794, 0.89416, 0.894555, 0.893339, 0.89307, 0.901453, 0.904952
0.600067, 0.601269, 0.600709, 0.597729, 0.603954, 0.602303, 0.601331, 0.622179, 0.62148, 0.61941, 0.631575, 0.632581, 0.633012, 0.641339, 0.645549, 0.645478, 0.646304, 0.650378, 0.674292, 0.686453, 0.693823, 0.696913, 0.696165, 0.69665, 0.781179, 0.00429086, 0.740702, 0.741981, 0.741269, 0.741354, 0.767442, 0.774034, 1.23611, 1.3445, 1.34626, 0.805642, 0.805334, 0.892309, 0.861205, 1.2953, 1.37967, 1.37943, 1.11902, 1.03235, 1.03963, 1.03427, 0.958352, 0.958206, 0.957852, 0.958013, 0.608071, 0.607104, 0.58054, 0.577996, 0.562735, 0.563019, 0.561948, 0.559982, 0.557678, 0.542161, 0.539661, 0.534183, 0.531238, 0.525488, 0.524898, 0.4992, 0.498152, 0.500444, 0.465392, 0.488241, 0.469036, 0.453847, 0.520302, 0.51063, 0.520733, 0.56034, 0.56052, 0.583048, 0.652801, 0.652188, 0.671351, 0.672487, 0.716483, 0.752938, 0.774821, 0.815419, 0.865688, 0.914428, 0.996322, 1.02651, 1.1875, 1.20629, 1.25634, 1.22549, 1.21074, 1.2084, 1.20406, 1.21223, 1.21633, 1.27499, 1.27248, 1.25662, 1.32584, 1.35209, 1.34886, 1.34658, 1.346, 1.34298, 1.34301, 1.37991, 1.37281, 1.38184, 1.38174, 1.37582, 1.40531, 1.44909, 1.4451, 1.47956, 1.60761, 1.56708, 1.56798, 1.60992, 1.62723, 1.60297, 1.60594, 1.59893, 1.6603, 1.6544, 1.63648, 1.56352, 1.56019, 1.5807, 1.5786, 1.5767, 1.5751, 1.57371, 1.58266, 1.5913, 1.57224, 1.58004, 1.68613, 1.62513, 1.62102, 1.55433, 1.6297, 1.61659, 1.59517, 1.59498, 1.62814, 1.59188, 1.60531, 1.58282, 1.57468, 1.57447, 1.5373, 1.5745, 1.51762, 1.5569, 1.54731, 1.55108, 1.44752, 1.51396, 1.51001, 1.46687, 1.40929, 1.44708, 1.38295, 1.34645, 1.31888, 1.34842, 1.34733, 1.47926, 1.35978, 1.35819, 1.36296, 1.32554, 1.28111, 1.26392, 1.28719, 1.2566, 1.23083, 1.23313, 1.21517, 1.19639, 1.21208, 1.1853, 1.18539, 1.07461, 1.05033, 0.983171, 0.930017, 0.931585, 0.920709, 0.896737, 0.83368, 0.825224, 0.805563, 0.792396, 0.794842, 0.756016, 0.739798, 0.73508, 0.72788, 0.710747, 0.693085, 0.690846, 0.660372, 0.669934, 0.680589, 0.658934, 0.650884, 0.655112, 0.642168, 0.629152, 0.622276, 0.654459, 0.702505, 0.694077, 0.920292, 0.918288, 0.934801, 1.0027, 0.739197, 0.736963, 0.739208, 1.04357, 1.01871, 0.752127, 0.74524, 0.746988, 0.753968, 0.752858, 0.75254, 0.75284, 0.762458, 0.765961, 0.766736, 0.769325, 0.77099, 0.778924, 0.783562, 0.784064, 0.793866, 0.797693, 0.801349, 0.811323, 0.811342, 0.811601, 0.820751, 0.820983, 0.820922, 0.832698, 0.837479, 0.839792, 0.845274, 0.862721, 0.866328, 0.867212, 0.86744, 0.867924, 0.886641, 0.884896, 0.885288, 0.89479, 0.894752, 0.893726, 0.89139, 0.89252, 0.898923, 0.90323
0.5977, 0.596917, 0.595978, 0.594445, 0.597704, 0.599015, 0.59695, 0.619218, 0.618795, 0.618754, 0.632828, 0.632474, 0.632218, 0.634226, 0.645211, 0.646436, 0.645396, 0.679947, 0.760144, 0.818791, 0.693396, 0.693527, 0.694965, 0.695615, 0.762667, 0.78772, 0.743685, 0.742411, 0.739936, 0.739328, 0.75646, 0.771252, 1.25569, 0.798354, 0.801928, 0.81601, 0.824838, 0.829593, 0.859425, 0.864582, 1.33989, 1.31308, 1.11939, 1.0354, 1.02902, 0.956952, 0.956243, 0.957309, 0.957973, 0.608758, 0.607952, 0.583616, 0.582681, 0.561619, 0.561377, 0.559971, 0.557881, 0.55742, 0.55102, 0.541103, 0.537906, 0.536133, 0.525792, 0.525282, 0.520641, 0.496084, 0.495868, 0.49635, 0.455025, 0.451813, 0.450533, 0.456724, 0.453804, 0.504793, 0.525781, 0.519054, 0.532455, 0.58987, 0.588418, 0.635693, 0.629134, 0.691541, 0.725859, 0.72952, 0.7978, 0.830096, 0.842291, 0.940461, 0.941134, 1.05952, 1.22301, 1.24851, 1.25151, 1.21688, 1.2241, 1.20785, 1.20611, 1.20162, 1.20863, 1.2378, 1.25203, 1.25527, 1.2854, 1.29877, 1.3897, 1.37831, 1.4198, 1.33338, 1.33986, 1.36433, 1.38124, 1.37829, 1.3783, 1.3786, 1.4244, 1.53348, 1.52785, 1.54795, 1.57767, 1.5755, 1.59534, 1.6133, 1.59295, 1.621, 1.61611, 1.60282, 1.60582, 1.54823, 1.54854, 1.55002, 1.54758, 1.56599, 1.57817, 1.5758, 1.5746, 1.58987, 1.59338, 1.60321, 1.56541, 1.57492, 1.57881, 1.5889, 1.55142, 1.54096, 1.56036, 1.57146, 1.5859, 1.64248, 1.63381, 1.56219, 1.55836, 1.55773, 1.58396, 1.5807, 1.53071, 1.56772, 1.53744, 1.53665, 1.48673, 1.55365, 1.54315, 1.46031, 1.39825, 1.45135, 1.38097, 1.36498, 1.36745, 1.35739, 1.33913, 1.31045, 1.33686, 1.33742, 1.34746, 1.35221, 1.35306, 1.27625, 1.27761, 1.32576, 1.324, 1.25948, 1.27906, 1.26477, 1.19587, 1.20041, 1.14287, 1.12159, 1.08019, 1.03583, 0.993719, 0.967977, 0.959873, 0.910297, 0.880628, 0.846101, 0.833084, 0.807558, 0.797986, 0.785099, 0.778545, 0.766148, 0.750257, 0.743618, 0.735455, 0.694385, 0.694553, 0.684942, 0.669713, 0.66808, 0.663768, 0.661079, 0.660576, 0.615134, 0.639824, 0.633401, 0.635704, 0.641787, 0.64975, 0.684599, 0.900997, 0.908446, 1.0202, 1.0811, 0.737361, 0.738597, 0.739225, 1.25131, 1.05254, 0.749236, 0.745341, 0.745828, 0.749706, 0.74866, 0.746737, 0.74845, 0.75541, 0.755765, 0.758051, 0.766763, 0.769448, 0.769398, 0.781915, 0.785287, 0.793966, 0.797309, 0.805821, 0.808356, 0.807827, 0.809481, 0.821331, 0.821812, 0.822797, 1.10002, 0.835654, 0.84003, 0.846531, 0.853032, 0.865169, 0.86617, 0.866296, 0.86974, 0.887566, 0.885172, 0.895063, 0.896296, 0.890241, 0.890768, 0.890577, 0.892972, 0.900985, 0.903007
0.594187, 0.59319, 0.593968, 0.594515, 0.596657, 0.597511, 0.596969, 0.61745, 0.61858, 0.618403, 0.632727, 0.632522, 0.632836, 0.639176, 0.645403, 0.645167, 0.9952, 0.873798, 0.680657, 0.767131, 0.69323, 0.693003, 1.05683, 0.785701, 1.06128, 0.930471, 0.745945, 0.745207, 0.742167, 0.740929, 0.758393, 0.7575, 1.18269, 1.31044, 1.00315, 0.929151, 0.942189, 0.881275, 1.18858, 1.12931, 0.907527, 1.34719, 0.934459, 1.24442, 1.0886, 1.00508, 1.02292, 0.00405802, 0.624612, 0.61167, 0.608142, 0.576008, 0.575213, 0.563864, 0.5604, 0.561647, 0.556862, 0.555921, 0.54334, 0.542919, 0.537825, 0.536377, 0.526715, 0.524616, 0.524004, 0.506064, 0.49672, 0.455008, 0.455462, 0.454674, 0.450882, 0.449742, 0.450011, 0.492419, 0.49733, 0.54244, 0.523573, 0.546443, 0.579958, 0.595179, 0.636074, 0.704532, 0.725871, 0.73238, 0.783511, 0.82691, 0.867808, 0.881103, 0.952484, 1.05172, 1.08995, 1.17769, 1.28412, 1.21868, 1.21666, 1.20538, 1.20465, 1.1966, 1.21361, 1.21903, 1.23177, 1.26372, 1.26198, 1.30226, 1.38477, 1.39246, 1.36018, 1.33322, 1.33708, 1.34539, 1.37416, 1.37558, 1.3765, 1.41013, 1.46079, 1.53983, 1.45973, 1.4592, 1.50328, 1.52609, 1.5382, 1.4993, 1.52568, 1.54449, 1.62389, 1.5613, 1.54928, 1.55107, 1.54941, 1.54987, 1.54945, 1.56495, 1.63415, 1.58584, 1.58597, 1.58605, 1.58812, 1.55921, 1.55917, 1.56047, 1.55189, 1.56693, 1.53949, 1.54213, 1.54652, 1.597, 1.56206, 1.57159, 1.57869, 1.528, 1.55922, 1.55831, 1.55752, 1.52937, 1.52657, 1.52606, 1.5261, 1.52322, 1.54296, 1.43932, 1.42314, 1.38665, 1.39282, 1.38901, 1.37547, 1.35854, 1.34811, 1.3388, 1.3405, 1.34867, 1.32616, 1.33858, 1.34962, 1.34539, 1.34997, 1.32508, 1.41231, 1.31907, 1.27242, 1.27117, 1.28891, 1.20789, 1.22943, 1.15333, 1.12608, 1.11514, 1.05292, 0.984171, 0.982378, 0.954064, 0.918809, 0.88839, 0.873838, 0.847213, 0.819076, 0.798447, 0.791326, 0.790814, 0.762246, 0.755531, 0.731809, 0.711238, 0.690718, 0.684988, 0.681575, 0.667625, 0.65048, 0.669831, 0.638963, 0.647358, 0.649951, 0.608724, 0.625643, 0.619355, 0.622385, 0.655216, 0.673729, 0.936071, 0.711338, 0.939761, 0.94699, 1.03904, 0.7391, 0.73859, 0.739082, 0.725123, 0.734785, 0.734848, 0.735469, 0.736949, 0.742537, 0.744461, 0.745584, 0.747772, 0.753066, 0.756732, 0.759684, 1.05255, 0.767034, 0.781865, 0.782955, 0.783334, 0.794977, 0.797707, 0.807498, 0.807242, 0.807469, 0.816263, 0.820037, 0.821241, 0.822456, 0.838327, 0.83899, 0.842778, 0.847636, 1.11794, 0.86656, 0.866744, 0.866404, 1.13774, 0.890226, 0.891108, 0.897774, 0.892976, 0.89096, 0.892571, 0.892911, 0.896277, 0.902951, 0.904398
0.59438, 0.593169, 0.591231, 0.595083, 0.59545, 0.596594, 0.594105, 0.585871, 0.58726, 0.61886, 0.632895, 0.632696, 0.638505, 0.639292, 0.647087, 0.647223, 0.646559, 1.11563, 0.694543, 0.692531, 0.992289, 0.971029, 1.05769, 0.719935, 0.743913, 0.93921, 0.748722, 0.747507, 0.74732, 0.74691, 0.758725, 0.00447231, 1.28868, 0.804155, 1.0128, 1.00152, 0.831726, 1.04114, 0.979026, 1.40528, 0.874582, 1.00125, 0.938927, 1.04901, 0.954001, 0.00421025, 1.02296, 0.645637, 0.632206, 0.614675, 0.65248, 0.577599, 0.576098, 0.563197, 0.557168, 0.561908, 0.558714, 0.554435, 0.546296, 0.543343, 0.540326, 0.539321, 0.534671, 0.522081, 0.515324, 0.507386, 0.506098, 0.4568, 0.456172, 0.45546, 0.448946, 0.449467, 0.458063, 0.449608, 0.501424, 0.50075, 0.515126, 0.536155, 0.548606, 0.585119, 0.63407, 0.635064, 0.733215, 0.739766, 0.782968, 0.842926, 0.856762, 0.884387, 0.962808, 1.01507, 1.10329, 1.20997, 1.28088, 1.28157, 1.19387, 1.19239, 1.21422, 1.20291, 1.20632, 1.20999, 1.22323, 1.26071, 1.26417, 1.28082, 1.28105, 1.32003, 1.3295, 1.33104, 1.31846, 1.40092, 1.37618, 1.38125, 1.35998, 1.36845, 1.38998, 1.49442, 1.49538, 1.46936, 1.47086, 1.50849, 1.48582, 1.48517, 1.51182, 1.6308, 1.58614, 1.56246, 1.54991, 1.55241, 1.55415, 1.55333, 1.54968, 1.56436, 1.63352, 1.56783, 1.55622, 1.58472, 1.55374, 1.55978, 1.55989, 1.56822, 1.58061, 1.54038, 1.53645, 1.53706, 1.54488, 1.5445, 1.6235, 1.56936, 1.57025, 1.56829, 1.56618, 1.49488, 1.49407, 1.51321, 1.46744, 1.46741, 1.52106, 1.52103, 1.54043, 1.52402, 1.38434, 1.38611, 1.39904, 1.39144, 1.38991, 1.35738, 1.34373, 1.33463, 1.32107, 1.31553, 1.32436, 1.31397, 1.34696, 1.34223, 1.32771, 1.32692, 1.40472, 1.3206, 1.32067, 1.27136, 1.29407, 1.19846, 1.17458, 1.17592, 1.1152, 1.0516, 1.02548, 1.00926, 0.953741, 0.958542, 0.90382, 0.892057, 0.87222, 0.868655, 0.813094, 0.803405, 0.799224, 0.789015, 0.750105, 0.735701, 0.730446, 0.744066, 0.710524, 0.69077, 0.681595, 0.681003, 0.658699, 0.670067, 0.648134, 0.652479, 0.63468, 0.607643, 0.622303, 0.631205, 0.624956, 0.669875, 0.670989, 0.902148, 0.71189, 0.719828, 1.04688, 0.734992, 0.737581, 0.738115, 0.722763, 0.723611, 0.736037, 0.736818, 0.736316, 0.735333, 0.740211, 0.740592, 0.741632, 0.742749, 0.755334, 0.752935, 0.753039, 0.752731, 0.768526, 0.769163, 0.79384, 0.794585, 0.79694, 0.804664, 0.806136, 0.80542, 0.806935, 0.81933, 0.820087, 0.822015, 0.835747, 0.837143, 0.840552, 0.83905, 1.14486, 1.13979, 0.866059, 0.860274, 0.866827, 1.1449, 0.887153, 0.897552, 0.898636, 0.893323, 0.893463, 0.89397, 0.895576, 0.903812, 0.905875, 0.905776
0.590143, 0.587717, 0.586585, 0.583209, 0.594409, 0.593795, 0.585122, 0.586409, 0.590486, 0.690869, 0.631527, 0.63312, 0.636631, 0.749368, 0.646391, 0.654237, 0.00411303, 0.683892, 0.763489, 0.694904, 1.07604, 1.05753, 1.05625, 0.721273, 0.732332, 0.732769, 0.748837, 0.748567, 0.747584, 0.746957, 1.21419, 1.29583, 0.874913, 0.857643, 0.808009, 0.816866, 1.0575, 1.20429, 0.880952, 0.957095, 0.00404682, 0.929357, 0.966327, 0.956186, 1.06309, 0.974167, 1.06516, 0.939672, 0.619552, 0.618676, 0.575241, 0.5746, 0.575974, 0.555328, 0.559809, 0.561651, 0.55951, 0.547603, 0.543258, 0.542191, 0.541884, 0.5423, 0.521307, 0.519451, 0.507277, 0.50716, 0.505512, 0.586305, 0.584908, 0.584005, 0.459723, 0.459282, 0.472838, 0.476163, 0.496784, 0.493751, 0.525921, 0.518351, 0.556794, 0.596716, 0.638608, 0.659252, 0.659906, 0.726458, 0.728973, 0.807352, 0.839109, 0.929098, 0.92942, 1.01217, 1.1066, 1.10675, 1.20669, 1.20649, 1.19453, 1.19451, 1.19789, 1.19741, 1.21315, 1.21236, 1.22249, 1.22959, 1.24379, 1.27201, 1.27393, 1.31225, 1.3124, 1.31367, 1.31728, 1.31889, 1.39222, 1.39142, 1.36, 1.37541, 1.40216, 1.48641, 1.48173, 1.46915, 1.47036, 1.46997, 1.48548, 1.48434, 1.51261, 1.52236, 1.53197, 1.5611, 1.54164, 1.59592, 1.55274, 1.54462, 1.54262, 1.56722, 1.54491, 1.58468, 1.55485, 1.54983, 1.5455, 1.60942, 1.55895, 1.53269, 1.53433, 1.53806, 1.53678, 1.53637, 1.52471, 1.5582, 1.58176, 1.60858, 1.55004, 1.5591, 1.56425, 1.46296, 1.46231, 1.5645, 1.49169, 1.47182, 1.50589, 1.47855, 1.47435, 1.47734, 1.37038, 1.36096, 1.37754, 1.3954, 1.34032, 1.35518, 1.36131, 1.30318, 1.29896, 1.29941, 1.31253, 1.31385, 1.3176, 1.35412, 1.42128, 1.31396, 1.31217, 1.31305, 1.31622, 1.29777, 1.22891, 1.22884, 1.15247, 1.13225, 1.06325, 1.05495, 0.988522, 0.96352, 0.943748, 0.910708, 0.898665, 0.873439, 0.86856, 0.852323, 0.814499, 0.793123, 0.781144, 0.76473, 0.773127, 0.742912, 0.728131, 0.714979, 0.697391, 0.693224, 0.68734, 0.65907, 0.679539, 0.66977, 0.648478, 0.602118, 0.608625, 0.608785, 0.623056, 0.628168, 0.642638, 0.62799, 0.686265, 0.825897, 0.912163, 0.895586, 0.723439, 0.736764, 0.738216, 0.723585, 0.723671, 0.722978, 0.736662, 0.735027, 0.73631, 0.731638, 0.734015, 0.738946, 0.741895, 0.741848, 1.04098, 0.746221, 0.750789, 0.762435, 0.764516, 0.765834, 1.03658, 0.796192, 0.797107, 0.803975, 0.804681, 0.806239, 0.806946, 0.821133, 0.822465, 0.823581, 0.836559, 0.837425, 0.838462, 0.838365, 0.838304, 0.857931, 0.859535, 0.860358, 0.860553, 0.885993, 0.899086, 0.898436, 0.894718, 0.893874, 0.894099, 0.895012, 0.902232, 0.904305, 0.904619, 0.912509
0.58853, 0.586611, 0.585253, 0.58443, 0.582867, 0.582285, 0.587213, 0.586308, 0.590036, 0.697196, 0.970228, 0.87829, 0.862855, 1.24317, 0.655647, 0.654184, 1.01321, 0.684879, 0.691585, 0.69111, 0.704753, 1.06829, 0.759902, 0.722013, 0.732402, 0.732356, 0.732799, 0.748019, 0.747537, 1.21956, 1.23962, 1.24115, 0.870165, 0.872232, 0.801312, 0.949554, 0.956491, 0.926733, 0.867673, 0.00378675, 0.00444886, 0.00444016, 0.988822, 0.970065, 0.970481, 1.06753, 0.00438957, 1.05025, 0.620306, 1.01874, 0.575657, 0.57505, 0.572082, 0.555966, 0.555084, 0.558662, 0.556559, 0.555856, 0.537464, 0.541547, 0.541109, 0.540009, 0.540951, 0.515407, 0.51016, 0.505869, 0.800643, 0.727836, 0.585036, 0.499929, 0.501894, 0.460358, 0.459359, 0.457304, 0.494459, 0.491581, 0.491382, 0.535117, 0.555307, 0.56627, 0.598375, 0.621891, 0.666222, 0.725814, 0.759246, 0.78894, 0.852475, 0.902417, 0.902913, 0.984412, 1.03659, 1.15533, 1.20503, 1.23266, 1.19463, 1.19544, 1.2032, 1.17567, 1.20447, 1.20523, 1.20649, 1.22739, 1.2398, 1.25001, 1.2559, 1.27888, 1.29606, 1.29863, 1.29803, 1.33256, 1.30859, 1.4259, 1.35701, 1.38097, 1.3904, 1.40989, 1.44354, 1.55424, 1.46935, 1.4709, 1.47358, 1.52427, 1.49699, 1.51608, 1.54057, 1.56541, 1.56238, 1.59201, 1.59077, 1.54393, 1.55814, 1.55915, 1.51245, 1.50903, 1.50894, 1.52703, 1.55418, 1.53314, 1.52101, 1.51364, 1.55104, 1.55194, 1.561, 1.52658, 1.52364, 1.52823, 1.53412, 1.59995, 1.55799, 1.56418, 1.51916, 1.46209, 1.46749, 1.56459, 1.53468, 1.51314, 1.482, 1.48117, 1.43241, 1.47281, 1.38302, 1.36244, 1.37817, 1.34737, 1.34908, 1.32652, 1.32337, 1.29987, 1.29361, 1.30206, 1.29221, 1.2925, 1.35787, 1.31537, 1.31594, 1.34308, 1.31183, 1.30155, 1.28378, 1.2946, 1.24378, 1.21771, 1.19676, 1.12161, 1.04035, 1.03625, 0.972325, 0.945836, 0.919942, 0.908156, 0.880711, 0.890044, 0.861235, 0.822357, 0.818283, 0.791812, 0.766677, 0.768074, 0.763185, 0.740234, 0.728939, 0.722804, 0.70083, 0.684809, 0.69099, 0.65901, 0.656948, 0.646002, 0.624956, 0.638424, 0.60368, 0.599761, 0.61154, 0.620456, 0.672639, 0.67419, 0.674295, 0.84648, 0.983558, 1.01939, 0.968773, 0.723012, 0.721969, 0.723024, 0.722628, 0.735207, 0.734678, 0.731199, 0.720856, 0.726943, 0.732457, 0.733743, 0.735888, 0.732747, 0.742768, 0.74502, 0.757228, 0.759207, 0.761712, 0.765443, 0.792698, 0.795136, 0.797589, 0.804242, 0.804424, 0.804394, 1.05716, 0.818746, 0.822582, 0.824645, 0.837237, 0.837788, 0.837577, 0.835764, 0.846912, 0.858109, 0.85911, 0.859813, 0.909229, 0.881554, 0.897586, 0.898317, 0.895146, 0.894456, 0.89527, 0.898358, 0.901953, 0.903855, 0.907256, 0.913135
0.586704, 0.586468, 0.583849, 0.583487, 0.582621, 0.582769, 0.581409, 0.582081, 0.583084, 0.924459, 0.885886, 0.96999, 0.874976, 1.21816, 0.662398, 0.663064, 0.661956, 0.691117, 0.691047, 0.693153, 1.07648, 1.08029, 0.71955, 0.721524, 0.732586, 0.732538, 0.7482, 0.745351, 0.745116, 1.2509, 1.1669, 1.2601, 0.877192, 0.880025, 0.957053, 0.956788, 0.985641, 1.0604, 0.833141, 0.836448, 0.836108, 0.004677, 0.989383, 0.988313, 0.90469, 0.795272, 0.793466, 0.983594, 0.976376, 0.57505, 0.57433, 0.562797, 0.560972, 0.55384, 0.553849, 0.557449, 0.556332, 0.545971, 0.539152, 0.540676, 0.54167, 0.541299, 0.539191, 0.505636, 0.506761, 0.50589, 0.503375, 0.728052, 0.583588, 0.503351, 0.503752, 0.459772, 0.461827, 0.476602, 0.495607, 0.490939, 0.490594, 0.514214, 0.550848, 0.558829, 0.558847, 0.610995, 0.64976, 0.675198, 0.714779, 0.694049, 0.832501, 0.852417, 0.907104, 0.953052, 0.98424, 1.115, 1.1995, 1.23459, 1.18759, 1.19183, 1.24693, 1.19081, 1.1928, 1.20525, 1.22369, 1.23401, 1.22188, 1.24303, 1.232, 1.27476, 1.27451, 1.29526, 1.29588, 1.28079, 1.30552, 1.34078, 1.36802, 1.38931, 1.3901, 1.39977, 1.39621, 1.45353, 1.44291, 1.42232, 1.42109, 1.44686, 1.47005, 1.50556, 1.57596, 1.54016, 1.51288, 1.51274, 1.59163, 1.58279, 1.59901, 1.59043, 1.51256, 1.51151, 1.50929, 1.51411, 1.5162, 1.52025, 1.55078, 1.55046, 1.55077, 1.55762, 1.50854, 1.56649, 1.52335, 1.51044, 1.54175, 1.5179, 1.53074, 1.48978, 1.50559, 1.50555, 1.4582, 1.44399, 1.44399, 1.44409, 1.46054, 1.44907, 1.40946, 1.38398, 1.38477, 1.37935, 1.3743, 1.35167, 1.39451, 1.32457, 1.29937, 1.30636, 1.29921, 1.29943, 1.36217, 1.3624, 1.3601, 1.28067, 1.31821, 1.30806, 1.31057, 1.29978, 1.2897, 1.29151, 1.23653, 1.17943, 1.18046, 1.09459, 1.05964, 1.03708, 0.9409, 0.919916, 0.908566, 0.869117, 0.894301, 0.842744, 0.808192, 0.806294, 0.815658, 0.789098, 0.766895, 0.759468, 0.746877, 0.722416, 0.721678, 0.699841, 0.698868, 0.687887, 0.660841, 0.668734, 0.650301, 0.64874, 0.605268, 0.6038, 0.601493, 0.612435, 0.612813, 0.621722, 0.673369, 0.674677, 0.615951, 0.839963, 0.923591, 1.00933, 0.98564, 0.725264, 0.724439, 0.723147, 1.02117, 0.734724, 0.729436, 0.723024, 0.717223, 0.725022, 0.731072, 0.734151, 0.731757, 0.733508, 0.744021, 0.751267, 0.753782, 0.758509, 0.76049, 0.782637, 0.784182, 0.792076, 0.794064, 0.804112, 0.805019, 1.13401, 1.13494, 0.820107, 0.822801, 0.825306, 0.8358, 0.838179, 0.835299, 0.836076, 0.851934, 0.852163, 0.860061, 0.863281, 0.863748, 0.897651, 0.899404, 0.899439, 0.897447, 0.895488, 0.895611, 0.900647, 0.904049, 0.905648, 0.91178, 0.913039
0.572691, 0.57251, 0.584591, 0.583509, 0.582414, 0.583273, 0.587185, 0.583786, 0.585019, 0.970311, 0.783972, 0.852163, 0.704395, 0.735168, 0.660097, 0.664238, 0.663704, 0.690908, 0.690512, 0.69044, 1.09192, 1.09588, 0.768086, 0.822485, 0.804411, 0.746683, 0.747564, 0.746247, 0.745592, 1.54767, 1.27577, 0.766636, 0.874059, 0.88089, 0.815999, 0.815208, 1.21546, 1.22224, 0.836347, 0.836691, 0.836004, 0.834239, 0.826564, 0.985079, 0.0041686, 0.793215, 0.793856, 0.977446, 1.03215, 0.570085, 0.563158, 0.562685, 0.562877, 0.551899, 0.548671, 0.55707, 0.543233, 0.543185, 0.538956, 0.54139, 0.54245, 0.540966, 0.539645, 0.506398, 0.505677, 0.505632, 0.503699, 0.489689, 0.487956, 0.489946, 0.456155, 0.455765, 0.493514, 0.483115, 0.452531, 0.474959, 0.46213, 0.535115, 0.530586, 0.543486, 0.559229, 0.610228, 0.597426, 0.625071, 0.710641, 0.713602, 0.739927, 0.757573, 0.913645, 0.953316, 0.952341, 1.06712, 1.19869, 1.19676, 1.21252, 1.19799, 1.18937, 1.20304, 1.21035, 1.23699, 1.23562, 1.22742, 1.22558, 1.24359, 1.23264, 1.2438, 1.31446, 1.28311, 1.29216, 1.31508, 1.35013, 1.30146, 1.31787, 1.35601, 1.37583, 1.39743, 1.38865, 1.43746, 1.43111, 1.42638, 1.42547, 1.42617, 1.47172, 1.50965, 1.5689, 1.50807, 1.55503, 1.55777, 1.55441, 1.59536, 1.58608, 1.58707, 1.51114, 1.51266, 1.49064, 1.52629, 1.52617, 1.49182, 1.50701, 1.48221, 1.49095, 1.5068, 1.51086, 1.5683, 1.50893, 1.50013, 1.50029, 1.52457, 1.50097, 1.48833, 1.47178, 1.49577, 1.41525, 1.41198, 1.42974, 1.37728, 1.37766, 1.44659, 1.3782, 1.37561, 1.38515, 1.38412, 1.37973, 1.34969, 1.40261, 1.33719, 1.3099, 1.30614, 1.36821, 1.30956, 1.29577, 1.38797, 1.28496, 1.26424, 1.25977, 1.25112, 1.30523, 1.27431, 1.25486, 1.24626, 1.20997, 1.22359, 1.22328, 1.10512, 1.0575, 1.00067, 0.929402, 0.88927, 0.888052, 0.8498, 0.804391, 0.794858, 0.796999, 0.766787, 0.756433, 0.736508, 0.74258, 0.735746, 0.728391, 0.703922, 0.716525, 0.687123, 0.687327, 0.682475, 0.660945, 0.64492, 0.645749, 0.647642, 0.612959, 0.605766, 0.597746, 0.59731, 0.625194, 0.617645, 0.596667, 0.596369, 0.615776, 0.939539, 0.904529, 1.01929, 0.721302, 0.720873, 0.713029, 0.716023, 0.710148, 0.731126, 0.722602, 0.724705, 0.716356, 0.717515, 0.727664, 0.725161, 0.725031, 0.730633, 0.749854, 0.752891, 0.752864, 0.759976, 0.782095, 0.782809, 0.784632, 0.787944, 0.790313, 0.791898, 0.794121, 0.799292, 0.806549, 0.825492, 0.829527, 0.834937, 0.836466, 0.835803, 0.835558, 0.852821, 0.854642, 0.85217, 0.852855, 0.858556, 0.863383, 1.15715, 0.898617, 0.898104, 0.897446, 0.89858, 0.903495, 0.902175, 0.90429, 0.90851, 0.914569, 0.915276
0.566405, 0.570741, 0.570251, 0.582757, 0.58222, 0.582376, 0.587897, 0.588119, 0.588055, 0.628137, 0.629018, 0.882121, 0.762327, 0.652002, 0.658938, 0.655572, 0.664622, 0.00412783, 0.686752, 0.69519, 0.715234, 0.715803, 1.07244, 0.72568, 0.732319, 0.748217, 0.747308, 0.748765, 0.747191, 1.13647, 1.13689, 0.871906, 0.870649, 1.27879, 1.03501, 0.849261, 0.817323, 0.95698, 0.83556, 0.837574, 0.836737, 0.832561, 0.832301, 1.02247, 0.99404, 1.02298, 0.00458836, 1.03243, 0.612881, 0.568072, 0.563336, 0.561515, 0.560526, 0.560161, 0.545826, 0.54473, 0.543739, 0.54306, 0.526421, 0.539677, 0.540615, 0.54169, 0.511871, 0.507297, 0.504102, 0.502658, 0.500233, 0.500273, 0.490375, 0.490462, 0.455229, 0.475495, 0.476717, 0.462569, 0.448708, 0.460563, 0.468417, 0.514996, 0.512149, 0.539353, 0.539638, 0.556055, 0.576416, 0.623927, 0.660159, 0.711831, 0.701238, 0.79798, 0.920864, 0.94629, 0.956313, 1.05446, 1.16177, 1.17201, 1.21668, 1.24564, 1.19087, 1.19135, 1.21574, 1.22344, 1.24984, 1.22753, 1.23637, 1.25316, 1.25082, 1.24715, 1.2513, 1.25133, 1.28862, 1.30125, 1.29447, 1.30131, 1.30863, 1.36147, 1.39248, 1.40669, 1.40735, 1.41268, 1.41554, 1.47177, 1.42507, 1.42616, 1.43472, 1.43546, 1.49232, 1.47865, 1.52124, 1.52091, 1.5554, 1.51401, 1.51368, 1.47803, 1.51051, 1.49726, 1.49044, 1.49007, 1.49844, 1.48304, 1.48119, 1.47824, 1.49313, 1.5138, 1.51961, 1.51118, 1.50883, 1.48131, 1.56111, 1.55471, 1.4726, 1.47183, 1.45758, 1.42141, 1.41783, 1.37162, 1.42023, 1.38481, 1.38059, 1.44411, 1.43677, 1.38596, 1.382, 1.43616, 1.43152, 1.3607, 1.37124, 1.33168, 1.35019, 1.31519, 1.28368, 1.29674, 1.29457, 1.286, 1.26795, 1.24017, 1.23836, 1.25045, 1.24225, 1.21976, 1.23418, 1.22603, 1.19176, 1.17834, 1.13126, 1.04924, 1.00791, 0.950524, 0.910995, 0.911362, 0.856417, 0.799046, 0.784703, 0.777963, 0.745937, 0.7334, 0.731457, 0.715154, 0.722177, 0.714441, 0.709075, 0.686774, 0.683135, 0.683306, 0.676306, 0.65855, 0.639395, 0.636903, 0.63408, 0.625117, 0.586618, 0.611885, 0.59482, 0.576455, 0.608207, 0.607708, 0.596646, 0.596452, 0.74151, 0.903449, 0.989028, 1.08092, 0.9869, 0.711885, 0.714211, 0.713731, 0.711423, 0.719007, 0.71868, 0.719258, 0.718087, 0.723616, 0.727409, 0.727778, 0.7222, 1.09825, 0.750222, 0.751433, 0.750612, 0.772864, 0.777703, 0.778574, 0.783141, 0.788643, 0.790757, 0.790541, 0.793467, 1.07341, 0.806499, 0.809039, 0.832971, 0.835111, 0.835415, 0.83518, 0.843664, 0.856669, 0.856728, 0.851438, 0.853431, 1.13971, 1.10843, 1.11991, 0.898881, 0.899041, 0.899554, 0.901036, 0.905889, 0.906436, 0.904736, 0.910636, 0.917293, 0.918067
0.566454, 0.566799, 0.570045, 0.570015, 0.577158, 0.586651, 0.587152, 0.586441, 0.588165, 0.00471288, 0.632296, 0.632078, 0.646271, 0.655297, 0.655194, 0.655386, 0.655492, 0.774934, 0.688754, 1.05026, 0.717054, 0.716447, 0.720935, 0.721908, 0.780531, 0.740137, 0.746175, 0.746645, 0.746759, 0.756252, 0.756172, 1.19269, 1.19882, 0.857759, 0.859659, 0.963421, 1.06088, 0.836603, 0.836138, 0.833604, 0.832767, 0.83186, 0.832442, 0.00437106, 0.00436451, 0.00464705, 0.932518, 0.973876, 0.975287, 0.560799, 0.562202, 0.560969, 0.55939, 0.557602, 0.544438, 0.543508, 0.544434, 0.544603, 0.527574, 0.537496, 0.530863, 0.528563, 0.513861, 0.50455, 0.503312, 0.502644, 0.500347, 0.499575, 0.499236, 0.490574, 0.495322, 0.465658, 0.461494, 0.459439, 0.467109, 0.462065, 0.468837, 0.467011, 0.49771, 0.547189, 0.539149, 0.566077, 0.567025, 0.603474, 0.674487, 0.707009, 0.694184, 0.804449, 0.833523, 0.953745, 0.918536, 1.10064, 1.13026, 1.23371, 1.2032, 1.26128, 1.22984, 1.24723, 1.22204, 1.21168, 1.22559, 1.22393, 1.22378, 1.21527, 1.26492, 1.25831, 1.26905, 1.2782, 1.27482, 1.28553, 1.28525, 1.29327, 1.2939, 1.34794, 1.41368, 1.41232, 1.40562, 1.39975, 1.39795, 1.47098, 1.4107, 1.41444, 1.47798, 1.43328, 1.44928, 1.45033, 1.52066, 1.57843, 1.55684, 1.51355, 1.51206, 1.47768, 1.47714, 1.46507, 1.46427, 1.4776, 1.54313, 1.47765, 1.48943, 1.50709, 1.49782, 1.51563, 1.47663, 1.47776, 1.47754, 1.48002, 1.46139, 1.46209, 1.46136, 1.43112, 1.41917, 1.4032, 1.40882, 1.42681, 1.37049, 1.38111, 1.38078, 1.37203, 1.37172, 1.36475, 1.41635, 1.37018, 1.40888, 1.34381, 1.3516, 1.3726, 1.35569, 1.29456, 1.29826, 1.29916, 1.27067, 1.2642, 1.26429, 1.25224, 1.24024, 1.23705, 1.26442, 1.18979, 1.17397, 1.13414, 1.11602, 1.10082, 1.04838, 0.999287, 0.937953, 0.935788, 0.887893, 0.885475, 0.809053, 0.79422, 0.790512, 0.748145, 0.735667, 0.724858, 0.730243, 0.725845, 0.71843, 0.700275, 0.669556, 0.661982, 0.673768, 0.652612, 0.669667, 0.649431, 0.641221, 0.621293, 0.614268, 0.611942, 0.618866, 0.593285, 0.617495, 0.597472, 0.583987, 0.620379, 0.620614, 0.621712, 0.741777, 0.959761, 1.20576, 0.994445, 0.704908, 0.709438, 0.710799, 0.710559, 0.704724, 0.707259, 0.718085, 0.719406, 0.718749, 0.72422, 0.724527, 0.71892, 0.721274, 0.746853, 0.748595, 0.749416, 0.749766, 0.772729, 0.77584, 0.778449, 0.784264, 0.787686, 0.789845, 0.789906, 0.792775, 0.795951, 0.804355, 0.807425, 0.942986, 0.831416, 0.832385, 0.833203, 0.842324, 0.858604, 0.859341, 0.851513, 0.852388, 1.13767, 1.12663, 0.89734, 0.89722, 0.899206, 0.901386, 0.901844, 0.906345, 0.906536, 0.907899, 0.915224, 0.918477, 0.918142
0.566267, 0.569018, 0.569495, 0.56899, 0.579362, 0.586138, 0.585568, 0.587282, 0.587644, 0.782935, 0.631434, 0.631901, 0.64736, 0.655558, 0.655483, 0.653847, 0.655303, 0.691141, 0.691517, 1.09901, 0.715553, 0.715221, 0.718506, 0.71967, 0.968045, 0.793909, 0.00448481, 0.765978, 0.801694, 0.756169, 1.08488, 1.03589, 1.18796, 0.879505, 0.949923, 1.21262, 0.836432, 0.83753, 0.836481, 0.835819, 0.848838, 0.99593, 0.81621, 0.888162, 0.00387727, 0.00412477, 0.930908, 0.940152, 0.940149, 0.574062, 0.560557, 0.560062, 0.559727, 0.557562, 0.540058, 0.54123, 0.544761, 0.535098, 0.536345, 0.538376, 0.522954, 0.511417, 0.514682, 0.504322, 0.503096, 0.502057, 0.498999, 0.492269, 0.496154, 0.526208, 0.475953, 0.476257, 0.476556, 0.465035, 0.462783, 0.468935, 0.469367, 0.471909, 0.490135, 0.522189, 0.533009, 0.547781, 0.570332, 0.602006, 0.617489, 0.693184, 0.693258, 0.704747, 0.78631, 0.916611, 0.918793, 0.962844, 1.01522, 1.13999, 1.19136, 1.20025, 1.19474, 1.18479, 1.24034, 1.24017, 1.22485, 1.22348, 1.22154, 1.21654, 1.23978, 1.24002, 1.24002, 1.27068, 1.2724, 1.31989, 1.28698, 1.33648, 1.3269, 1.37021, 1.37106, 1.41037, 1.41065, 1.40309, 1.41166, 1.40776, 1.40947, 1.41331, 1.41301, 1.49417, 1.4496, 1.4502, 1.54929, 1.47486, 1.5268, 1.47075, 1.48777, 1.47738, 1.53696, 1.52021, 1.46095, 1.47248, 1.47551, 1.4707, 1.43665, 1.45167, 1.45519, 1.47589, 1.47006, 1.48304, 1.47567, 1.46766, 1.45319, 1.43295, 1.40876, 1.45397, 1.43974, 1.45407, 1.38867, 1.38586, 1.38207, 1.38127, 1.37487, 1.37447, 1.34716, 1.34752, 1.34283, 1.35511, 1.40954, 1.34285, 1.35962, 1.3089, 1.29796, 1.29072, 1.28942, 1.29175, 1.28949, 1.26212, 1.25791, 1.25243, 1.23284, 1.21079, 1.25676, 1.17144, 1.12838, 1.0978, 1.10868, 1.04362, 0.993659, 0.991873, 0.939299, 0.890786, 0.887264, 0.81424, 0.79498, 0.784275, 0.749896, 0.755099, 0.725394, 0.720771, 0.718674, 0.697507, 0.695063, 0.666345, 0.670164, 0.662135, 0.66401, 0.655459, 0.666208, 0.652756, 0.633115, 0.613236, 0.614116, 0.613347, 0.597714, 0.58497, 0.604375, 0.605159, 0.611237, 0.611006, 0.630089, 0.636875, 0.67406, 0.96087, 1.00769, 0.694923, 0.700565, 0.705358, 0.707068, 0.707746, 0.705504, 0.70753, 0.721143, 0.720372, 0.729976, 0.729512, 0.714205, 0.714554, 0.715324, 0.745265, 0.747599, 0.749912, 0.749605, 0.774786, 0.7752, 0.777059, 0.788574, 0.78932, 0.790478, 0.790587, 0.790465, 0.798077, 0.80254, 0.804373, 1.14279, 0.830917, 0.832432, 0.838379, 0.857059, 0.858013, 0.85745, 0.851152, 0.856252, 1.12488, 0.877201, 0.889167, 1.00833, 0.897947, 0.900317, 0.903446, 0.904869, 0.906026, 0.920331, 0.921003, 0.920913, 0.920801
0.557716, 0.559096, 0.569815, 0.577493, 0.577459, 0.581768, 0.58838, 0.587548, 0.687973, 0.673032, 0.63162, 0.646231, 0.646245, 0.657138, 0.654101, 0.655274, 0.815792, 0.850897, 0.697835, 0.699559, 1.01052, 0.719125, 0.719961, 0.732288, 1.33737, 0.94682, 0.760844, 0.760517, 0.759473, 0.871361, 0.821547, 0.87755, 0.00439549, 0.867659, 0.857463, 0.91979, 0.837507, 0.837334, 0.837604, 0.838328, 0.895132, 0.819173, 0.814378, 0.8135, 0.604198, 0.604318, 0.599798, 0.586805, 0.58156, 0.558567, 0.559269, 0.561165, 0.560048, 0.559068, 0.541102, 0.540321, 0.541612, 0.54111, 0.533045, 0.532144, 0.524395, 0.523376, 0.511586, 0.502288, 0.504106, 0.502209, 0.49539, 0.492974, 0.488294, 0.486999, 0.466531, 0.477288, 0.449618, 0.429513, 0.442091, 0.425909, 0.468282, 0.477018, 0.480893, 0.503306, 0.535356, 0.5297, 0.570391, 0.577408, 0.617211, 0.645472, 0.674329, 0.708047, 0.788748, 0.788265, 0.932759, 0.967188, 1.01113, 1.06728, 1.0669, 1.08909, 1.15709, 1.16991, 1.25141, 1.2103, 1.20821, 1.20677, 1.20274, 1.2151, 1.20497, 1.24724, 1.32335, 1.31724, 1.2847, 1.27065, 1.36671, 1.3138, 1.37081, 1.33159, 1.33927, 1.358, 1.36113, 1.37812, 1.393, 1.4132, 1.41022, 1.40954, 1.49155, 1.49128, 1.45256, 1.45462, 1.5145, 1.53078, 1.53234, 1.48865, 1.50349, 1.53958, 1.49168, 1.45817, 1.4618, 1.46186, 1.46266, 1.46141, 1.43733, 1.43747, 1.45451, 1.45269, 1.51107, 1.51078, 1.47694, 1.47753, 1.43011, 1.43033, 1.41048, 1.44733, 1.39092, 1.45746, 1.38961, 1.39563, 1.39376, 1.3802, 1.38005, 1.39921, 1.32115, 1.3371, 1.34798, 1.34999, 1.38866, 1.30352, 1.26379, 1.29454, 1.29302, 1.28682, 1.28945, 1.28764, 1.28726, 1.3101, 1.27239, 1.2394, 1.22314, 1.21868, 1.15406, 1.15754, 1.14565, 1.09189, 1.04347, 0.986031, 0.970857, 0.911782, 0.905033, 0.86816, 0.853182, 0.799441, 0.78597, 0.7876, 0.741585, 0.722036, 0.732057, 0.718229, 0.708872, 0.672524, 0.692201, 0.692299, 0.668422, 0.6794, 0.653061, 0.656044, 0.641497, 0.629533, 0.626426, 0.620842, 0.614199, 0.603376, 0.569939, 0.563435, 0.611952, 0.607361, 0.62218, 0.627985, 0.63332, 0.676197, 0.675894, 0.679379, 0.688223, 0.695105, 0.696124, 0.707255, 0.708551, 0.708482, 0.707823, 0.70867, 1.02072, 0.726006, 0.732121, 0.731836, 0.714598, 0.715724, 0.716438, 0.746494, 0.748169, 0.74904, 0.770223, 0.772844, 0.77358, 0.777934, 0.791095, 0.791609, 0.791518, 0.791791, 0.795852, 0.797613, 0.799271, 0.80267, 1.08913, 0.929098, 1.08047, 1.10522, 0.856668, 0.859961, 0.858551, 0.85527, 0.85682, 0.87411, 0.87811, 0.879739, 0.871835, 0.878437, 0.886751, 0.941266, 0.902851, 0.909338, 0.922018, 0.92507, 0.921734, 0.923621
0.559407, 0.557634, 0.558801, 0.854657, 0.582832, 0.584033, 0.590523, 0.614401, 0.615468, 0.638627, 1.16749, 0.649039, 0.64858, 0.658759, 0.658426, 0.672051, 0.816518, 0.855886, 0.699965, 0.699642, 0.700817, 1.01221, 0.722722, 1.34017, 0.73473, 0.761788, 0.762967, 0.762958, 0.761372, 0.770163, 0.807394, 0.822625, 1.24694, 0.99221, 1.05745, 0.857937, 0.00445292, 0.837594, 0.82555, 0.82629, 0.824787, 1.04259, 0.8176, 0.646121, 0.600819, 0.604266, 0.58973, 0.587328, 0.583598, 0.558795, 0.557599, 0.557549, 0.562372, 0.562326, 0.541608, 0.542182, 0.542957, 0.541818, 0.532466, 0.529399, 0.526137, 0.704207, 0.511589, 0.504018, 0.50288, 0.501591, 0.497861, 0.492, 0.491691, 0.487574, 0.468941, 0.473503, 0.483667, 0.43278, 0.439781, 0.469394, 0.430855, 0.436592, 0.475993, 0.501704, 0.542035, 0.561087, 0.563819, 0.559964, 0.597198, 0.629492, 0.692106, 0.705133, 0.739569, 0.829218, 0.854514, 0.881397, 0.902629, 0.935306, 0.99801, 1.05831, 1.10584, 1.14222, 1.24042, 1.21577, 1.22612, 1.24992, 1.25055, 1.19463, 1.19561, 1.20808, 1.23845, 1.32637, 1.33877, 1.28114, 1.36702, 1.28865, 1.28752, 1.3645, 1.33772, 1.34561, 1.33439, 1.37942, 1.43057, 1.38336, 1.40918, 1.42937, 1.4486, 1.38915, 1.40991, 1.45697, 1.49316, 1.55061, 1.43901, 1.51545, 1.46937, 1.4336, 1.50305, 1.4796, 1.48938, 1.50111, 1.43068, 1.42919, 1.42588, 1.42499, 1.43876, 1.45685, 1.4525, 1.51235, 1.51103, 1.44352, 1.42992, 1.44174, 1.42284, 1.42344, 1.36358, 1.36094, 1.42338, 1.41745, 1.40189, 1.37581, 1.31397, 1.40143, 1.33427, 1.29486, 1.30923, 1.31882, 1.35574, 1.28374, 1.26432, 1.26309, 1.28179, 1.28075, 1.28743, 1.33326, 1.28934, 1.30799, 1.27179, 1.26771, 1.22237, 1.21194, 1.15359, 1.09812, 1.07756, 1.03712, 1.04444, 0.963033, 0.904803, 0.919736, 0.874053, 0.837264, 0.823794, 0.805465, 0.793254, 0.781379, 0.733953, 0.717303, 0.724629, 0.722547, 0.661, 0.693931, 0.690488, 0.656976, 0.655342, 0.650205, 0.646667, 0.647122, 0.636754, 0.629515, 0.614668, 0.599645, 0.618374, 0.610767, 0.561264, 0.563704, 0.564319, 0.605167, 0.621169, 0.634906, 0.63163, 0.672922, 0.675018, 0.680042, 1.01571, 0.688333, 0.696094, 0.70794, 0.707474, 0.707925, 0.702793, 0.705695, 0.721906, 0.725099, 0.731507, 0.713235, 0.714288, 0.717171, 0.729229, 0.741899, 0.745609, 0.749011, 0.767471, 0.774146, 0.777384, 0.778072, 0.789171, 0.793296, 0.792114, 0.792158, 0.796929, 0.797665, 0.798494, 0.802934, 0.822538, 0.823361, 0.831935, 1.15843, 0.857014, 0.857655, 0.852544, 0.851893, 0.873253, 0.875003, 0.876705, 0.864071, 0.869025, 0.873833, 0.879791, 1.22209, 0.94299, 1.21414, 0.925803, 0.923714, 0.923544, 0.936929
0.557547, 0.558445, 0.560067, 0.873565, 0.583409, 0.583149, 0.614025, 0.613095, 0.614269, 0.638581, 0.638339, 0.65096, 0.653084, 0.658684, 0.663744, 0.736454, 1.01875, 0.698108, 0.698897, 0.700163, 0.698588, 1.01803, 1.25256, 1.05684, 0.795848, 0.754552, 0.762174, 0.760711, 0.760461, 1.13934, 1.17802, 0.871976, 0.880074, 0.993812, 0.874065, 0.00463451, 0.814104, 0.816458, 0.843234, 0.825773, 0.975425, 0.898979, 0.646131, 0.601107, 0.60037, 0.600146, 0.590303, 0.590111, 0.58406, 0.558515, 0.55856, 0.558191, 0.558478, 0.541943, 0.542866, 0.540546, 0.540591, 0.534759, 0.531848, 0.527502, 0.519759, 0.703784, 0.510442, 0.50395, 0.504125, 0.501719, 0.500703, 0.491592, 0.492131, 0.490984, 0.467352, 0.524548, 0.484403, 0.490182, 0.457299, 0.456745, 0.431618, 0.431806, 0.438516, 0.464279, 0.503029, 0.51779, 0.525012, 0.570136, 0.590994, 0.612921, 0.68553, 0.707052, 0.747344, 0.746119, 0.832919, 0.839026, 0.853091, 0.867588, 0.939258, 0.963753, 1.13343, 1.13881, 1.19324, 1.2278, 1.22898, 1.2057, 1.18852, 1.18248, 1.18929, 1.1887, 1.22352, 1.24002, 1.29071, 1.38796, 1.28508, 1.25446, 1.28782, 1.3025, 1.41593, 1.40313, 1.33472, 1.33256, 1.45154, 1.38891, 1.41747, 1.44397, 1.45633, 1.39055, 1.44158, 1.39323, 1.40217, 1.43785, 1.43934, 1.43864, 1.43244, 1.43198, 1.43275, 1.43213, 1.47138, 1.47065, 1.46632, 1.43, 1.42904, 1.42352, 1.42342, 1.42275, 1.4387, 1.43844, 1.55693, 1.44312, 1.44969, 1.39655, 1.42499, 1.39488, 1.3629, 1.40205, 1.3757, 1.37476, 1.41185, 1.38567, 1.3187, 1.3272, 1.32629, 1.30303, 1.30123, 1.32563, 1.29134, 1.28128, 1.23371, 1.24708, 1.24721, 1.33361, 1.27496, 1.284, 1.34917, 1.33976, 1.27186, 1.2251, 1.22456, 1.19915, 1.15076, 1.08725, 1.05742, 1.01487, 0.962512, 0.963302, 0.885068, 0.885295, 0.875185, 0.833245, 0.80738, 0.802917, 0.797943, 0.753197, 0.741869, 0.715328, 0.721765, 0.728721, 0.661185, 0.666901, 0.663507, 0.659987, 0.66027, 0.636363, 0.624956, 0.625153, 0.613315, 0.610408, 0.62615, 0.614515, 0.610914, 0.600408, 0.565738, 0.578022, 0.574352, 0.62449, 0.617565, 0.624397, 0.639016, 0.670004, 0.673892, 0.673296, 0.67298, 1.0738, 0.770068, 0.700867, 0.707139, 0.707134, 0.689216, 0.689975, 0.721159, 0.723492, 0.727028, 0.710065, 0.710989, 0.710993, 1.15254, 1.04482, 0.747079, 0.767304, 0.767236, 0.773249, 0.777385, 0.779999, 0.785508, 0.793154, 0.791305, 0.792574, 0.794901, 0.79689, 0.796969, 0.808268, 0.822922, 0.823058, 0.823057, 1.143, 0.851992, 0.850131, 0.847919, 0.848621, 0.869233, 0.873205, 0.865325, 0.865539, 0.864847, 0.867397, 0.875116, 0.885779, 1.1518, 0.904456, 0.926265, 0.926092, 0.922208, 0.942605
0.554448, 0.5582, 0.558557, 0.58114, 0.582386, 0.582515, 0.900643, 0.602702, 0.689195, 0.637845, 0.636356, 0.65294, 0.654803, 0.653118, 0.728639, 0.698478, 0.698251, 0.697182, 0.697501, 0.695172, 0.695367, 0.703799, 0.720799, 1.00888, 0.892287, 0.753862, 0.754551, 0.761564, 0.763272, 0.767695, 1.05773, 0.800362, 0.79971, 0.867015, 0.842982, 0.843548, 0.812756, 0.812473, 0.94597, 0.914282, 0.854917, 0.868452, 0.00476399, 0.60019, 0.599129, 0.598273, 0.591051, 0.58364, 0.556488, 0.558504, 0.558404, 0.557523, 0.550736, 0.546813, 0.541428, 0.541151, 0.537695, 0.529174, 0.529216, 0.524233, 0.520832, 0.509493, 0.509737, 0.503893, 0.502818, 0.501431, 0.500834, 0.494185, 0.492975, 0.486679, 0.484988, 0.490043, 0.487692, 0.465847, 0.46306, 0.449501, 0.445805, 0.432157, 0.431942, 0.453593, 0.482974, 0.50485, 0.5052, 0.546002, 0.545544, 0.582766, 0.61883, 0.689359, 0.745249, 0.742383, 0.785835, 0.837397, 0.825337, 0.834845, 0.928229, 0.913899, 1.05832, 1.08421, 1.19137, 1.20378, 1.2117, 1.17784, 1.16392, 1.1729, 1.18573, 1.18754, 1.19979, 1.22107, 1.22119, 1.30012, 1.22251, 1.29923, 1.23969, 1.26896, 1.41053, 1.38506, 1.38951, 1.38964, 1.345, 1.36642, 1.36432, 1.38767, 1.42787, 1.39851, 1.42293, 1.38862, 1.38792, 1.41619, 1.42937, 1.41991, 1.43973, 1.42958, 1.42971, 1.4866, 1.48442, 1.47635, 1.47277, 1.49859, 1.49589, 1.43413, 1.4225, 1.42997, 1.40207, 1.41225, 1.45369, 1.4477, 1.45134, 1.37628, 1.37285, 1.36049, 1.41255, 1.37911, 1.39891, 1.40931, 1.34755, 1.3437, 1.33058, 1.28468, 1.29633, 1.27854, 1.28573, 1.26129, 1.29124, 1.24767, 1.24081, 1.23372, 1.24759, 1.31034, 1.30322, 1.28421, 1.32656, 1.27823, 1.30953, 1.2685, 1.25362, 1.25518, 1.13589, 1.10127, 1.07813, 1.00588, 0.966246, 0.905023, 0.886028, 0.856877, 0.853928, 0.828651, 0.802323, 0.804542, 0.794294, 0.754022, 0.721544, 0.722468, 0.711515, 0.673109, 0.65724, 0.66706, 0.677548, 0.66491, 0.663919, 0.642402, 0.622544, 0.621203, 0.624726, 0.606242, 0.612041, 0.591678, 0.590834, 0.57772, 0.581031, 0.559023, 0.576306, 0.593791, 0.593356, 0.594015, 0.593641, 0.6661, 0.672115, 0.673107, 0.671281, 0.674297, 1.07689, 0.700486, 0.701523, 0.707202, 0.689963, 0.690176, 0.720006, 0.721345, 0.725371, 0.695634, 0.695844, 0.709659, 1.0774, 1.04356, 0.747411, 0.772851, 0.772796, 0.774044, 0.775119, 0.778125, 1.14658, 0.788334, 0.788665, 0.790045, 0.791639, 0.794351, 0.795971, 0.815991, 0.818748, 0.822178, 0.822132, 1.15592, 0.848739, 0.849365, 0.845555, 0.863181, 0.860666, 0.865101, 0.867429, 0.866983, 0.86708, 0.86766, 1.15826, 1.15091, 1.14791, 0.960593, 0.922468, 0.923611, 0.94524, 1.03601
0.555092, 0.558131, 0.568121, 0.571204, 0.58136, 0.583607, 1.02171, 0.604099, 0.60288, 0.636948, 0.708644, 0.649392, 0.649837, 0.656666, 1.03293, 0.700209, 0.700498, 0.698469, 0.694219, 0.69392, 1.01415, 0.705353, 0.721205, 1.07842, 0.997712, 0.753376, 0.763569, 0.763226, 0.763042, 0.76412, 0.85762, 0.78415, 0.899228, 0.819236, 0.800315, 0.89953, 1.22554, 0.936132, 0.0042565, 1.28218, 0.00385325, 0.887735, 0.00389193, 0.600339, 0.598786, 0.581902, 0.573625, 0.579959, 0.569911, 0.556779, 0.555719, 0.554862, 0.549768, 0.542512, 0.540937, 0.538407, 0.532216, 0.530354, 0.529898, 0.519307, 0.520053, 0.512353, 0.51044, 0.50671, 0.503462, 0.500589, 0.500648, 0.494487, 0.490736, 0.487267, 0.486233, 0.483964, 0.461002, 0.482529, 0.468553, 0.450255, 0.451661, 0.45459, 0.466806, 0.460556, 0.49304, 0.504739, 0.537968, 0.538442, 0.554613, 0.593128, 0.614077, 0.631958, 0.650463, 0.708525, 0.728742, 0.770234, 0.808064, 0.822006, 0.870961, 0.960345, 0.961016, 1.06446, 1.12588, 1.14261, 1.20446, 1.17328, 1.16315, 1.16225, 1.1541, 1.18179, 1.20839, 1.20564, 1.19753, 1.20253, 1.20892, 1.26522, 1.26496, 1.24818, 1.29317, 1.32912, 1.3921, 1.39137, 1.35659, 1.3427, 1.34301, 1.3461, 1.37882, 1.37796, 1.43363, 1.42066, 1.3816, 1.41412, 1.41222, 1.41918, 1.44275, 1.42968, 1.43035, 1.3999, 1.40839, 1.40751, 1.42639, 1.42492, 1.43348, 1.43271, 1.4398, 1.40367, 1.40211, 1.40224, 1.41052, 1.46066, 1.42359, 1.37574, 1.36094, 1.38833, 1.38319, 1.38434, 1.40045, 1.40137, 1.39268, 1.34666, 1.3222, 1.29273, 1.31523, 1.28118, 1.27115, 1.25037, 1.27601, 1.25386, 1.2441, 1.23958, 1.23835, 1.23503, 1.22815, 1.30239, 1.28738, 1.29379, 1.3117, 1.27116, 1.22565, 1.20163, 1.13227, 1.09093, 1.03279, 0.960095, 0.930426, 0.887689, 0.881466, 0.828615, 0.809084, 0.818526, 0.791323, 0.766988, 0.73803, 0.731266, 0.711962, 0.739622, 0.7393, 0.672907, 0.654115, 0.65359, 0.726188, 0.742385, 0.634689, 0.664298, 0.621515, 0.618247, 0.604704, 0.60415, 0.611588, 0.592895, 0.578255, 0.5784, 0.572187, 0.578839, 0.585938, 0.594209, 0.595805, 0.597088, 0.597832, 0.669323, 0.673632, 0.672974, 0.671051, 0.801863, 0.691444, 0.700141, 0.702337, 0.706121, 1.05446, 1.1237, 1.10903, 0.690942, 0.690617, 0.697474, 0.70003, 0.716787, 0.730085, 1.14425, 1.04991, 0.771771, 0.773575, 0.774846, 0.775341, 0.777083, 1.15349, 0.784876, 0.783818, 0.783375, 0.777137, 0.790995, 0.79749, 0.816723, 0.821043, 0.814807, 0.815128, 0.827989, 0.830642, 0.833305, 0.97182, 0.863501, 0.864778, 0.863074, 0.866015, 0.869407, 1.17572, 1.09915, 1.1606, 1.08735, 1.14635, 0.966217, 0.954528, 1.03476, 0.94713, 0.95662
0.5574, 0.559787, 0.567784, 0.58181, 0.583393, 0.594004, 0.594856, 0.594855, 0.605064, 0.647729, 0.648688, 0.64858, 0.649377, 0.65799, 0.664242, 0.697935, 0.698823, 0.69748, 0.695456, 0.695261, 0.696718, 0.71427, 0.714954, 0.791064, 0.740553, 0.743439, 0.765221, 0.766484, 0.763405, 0.762704, 0.863568, 0.786989, 0.785861, 0.92852, 0.00430703, 1.32342, 1.08153, 0.96313, 1.34307, 0.924017, 0.00434281, 0.00447986, 0.604102, 0.603402, 0.573393, 0.574216, 0.577468, 0.575866, 0.572558, 0.557453, 0.556342, 0.556066, 0.545745, 0.544382, 0.541748, 0.540864, 0.532311, 0.529286, 0.529382, 0.522695, 0.521517, 0.515001, 0.513208, 0.502756, 0.501728, 0.501033, 0.500454, 0.497295, 0.487422, 0.486633, 0.486002, 0.485949, 0.46082, 0.490764, 0.459403, 0.478249, 0.462395, 0.445322, 0.447168, 0.447267, 0.48212, 0.514069, 0.518174, 0.520946, 0.549864, 0.573552, 0.620078, 0.63651, 0.636895, 0.65804, 0.696944, 0.695604, 0.769446, 0.801184, 0.865428, 0.894499, 1.02881, 1.05199, 1.1332, 1.183, 1.18439, 1.16083, 1.14282, 1.17807, 1.1739, 1.19262, 1.19844, 1.19756, 1.19041, 1.19076, 1.19624, 1.19681, 1.23853, 1.29487, 1.39227, 1.41329, 1.33482, 1.33615, 1.33612, 1.34718, 1.34345, 1.34718, 1.34704, 1.34538, 1.36859, 1.36933, 1.40392, 1.38653, 1.46825, 1.42964, 1.44663, 1.45054, 1.45098, 1.40444, 1.39683, 1.39832, 1.39365, 1.392, 1.43712, 1.43602, 1.45109, 1.43197, 1.39523, 1.42468, 1.38173, 1.38329, 1.38851, 1.39202, 1.369, 1.41709, 1.38339, 1.41975, 1.40667, 1.34287, 1.33799, 1.34143, 1.33052, 1.31693, 1.27583, 1.2575, 1.2425, 1.24047, 1.25983, 1.2544, 1.22605, 1.22676, 1.21682, 1.22093, 1.22213, 1.22581, 1.24074, 1.26092, 1.29242, 1.22006, 1.24613, 1.24649, 1.1491, 1.14975, 1.02255, 0.906082, 0.907742, 0.81638, 0.819276, 0.81215, 0.804953, 0.807787, 0.790962, 0.743072, 0.715118, 0.717462, 0.749182, 0.745992, 0.746383, 0.646596, 0.656353, 0.659897, 0.621018, 0.720046, 0.627303, 0.624723, 0.629892, 0.616298, 0.614923, 0.593875, 0.604628, 0.58358, 0.584304, 0.572556, 0.573831, 0.575248, 0.566417, 0.594127, 0.603405, 0.598141, 0.597723, 0.668251, 0.672521, 0.660256, 0.715632, 0.672975, 0.69379, 0.694692, 0.700513, 0.66581, 1.05113, 1.05181, 1.0501, 0.690572, 0.690966, 0.692237, 0.717317, 0.720776, 0.731563, 0.739359, 0.758056, 0.773936, 0.772799, 0.772885, 0.775537, 0.778856, 0.78359, 0.784062, 0.782011, 0.784111, 0.78569, 0.791274, 0.814805, 0.815003, 0.816239, 0.817575, 0.818055, 0.819072, 0.831173, 0.964762, 0.857261, 0.859286, 0.858028, 0.86245, 0.868088, 0.872953, 0.975913, 1.02971, 1.20898, 0.907612, 1.15948, 1.01519, 0.957885, 1.15666, 0.955023, 0.957894
0.566379, 0.56981, 0.569631, 0.580049, 0.582981, 0.594265, 0.595866, 0.597044, 0.595528, 0.648983, 0.649621, 0.649117, 0.648671, 0.653227, 0.747937, 0.698806, 0.699427, 0.698174, 0.691097, 0.690514, 0.696885, 0.695985, 0.714808, 0.718156, 0.728356, 0.739934, 0.763836, 0.762679, 0.762476, 0.763704, 0.850191, 0.891158, 1.22659, 0.879812, 0.881385, 0.875411, 1.11268, 0.886793, 1.19539, 1.19502, 0.895859, 0.00517542, 0.00375796, 0.601581, 0.567257, 0.570499, 0.570433, 0.573621, 0.553057, 0.55349, 0.554343, 0.552894, 0.545085, 0.544787, 0.540193, 0.538121, 0.531485, 0.5256, 0.525302, 0.521432, 0.520555, 0.514175, 0.512408, 0.50199, 0.501136, 0.50081, 0.494016, 0.496598, 0.488579, 0.488043, 0.486203, 0.485778, 0.483369, 0.478349, 0.486449, 0.496353, 0.4639, 0.4697, 0.442344, 0.442225, 0.490264, 0.494499, 0.520743, 0.533155, 0.544006, 0.551441, 0.586786, 0.608195, 0.625709, 0.625484, 0.69065, 0.691265, 0.718271, 0.791317, 0.822879, 0.8684, 0.967559, 1.0677, 1.11271, 1.20769, 1.14868, 1.14926, 1.14465, 1.14503, 1.19287, 1.19213, 1.19251, 1.19458, 1.1893, 1.18958, 1.18909, 1.19019, 1.21493, 1.23348, 1.29909, 1.29751, 1.33363, 1.35365, 1.35372, 1.36205, 1.34692, 1.3461, 1.34645, 1.34636, 1.39956, 1.39015, 1.38112, 1.37867, 1.44796, 1.38746, 1.42635, 1.44757, 1.40309, 1.37136, 1.37417, 1.34675, 1.35414, 1.37808, 1.44387, 1.43238, 1.42326, 1.40726, 1.39487, 1.3806, 1.38009, 1.38584, 1.41067, 1.38988, 1.3707, 1.42235, 1.42316, 1.38279, 1.43319, 1.32718, 1.31625, 1.32303, 1.31236, 1.33079, 1.30958, 1.23049, 1.22975, 1.20558, 1.212, 1.22646, 1.19662, 1.21888, 1.22023, 1.19929, 1.20454, 1.20636, 1.16652, 1.26114, 1.18877, 1.18421, 1.19023, 1.15142, 1.08783, 1.0117, 0.965836, 0.900305, 0.884866, 0.814232, 0.792545, 0.791711, 0.793567, 0.790876, 0.780353, 0.742911, 0.714737, 0.685812, 0.683698, 0.645387, 0.644349, 0.648845, 0.64208, 0.651465, 0.635379, 0.63278, 0.623406, 0.621121, 0.632095, 0.608369, 0.601785, 0.594048, 0.583816, 0.584043, 0.560536, 0.566572, 0.574836, 0.572698, 0.569108, 0.597255, 0.600671, 0.601777, 1.01243, 0.652473, 1.16774, 0.657958, 0.715345, 0.685988, 0.68797, 0.689493, 1.14015, 0.665908, 1.06135, 0.676571, 0.687672, 0.688778, 0.689985, 0.691575, 0.717051, 0.717881, 0.736069, 0.739573, 1.15307, 0.768903, 0.770341, 0.770895, 0.775483, 0.782225, 0.783235, 0.779792, 0.781445, 0.783911, 0.784801, 0.811377, 0.813182, 0.814648, 0.815934, 0.816966, 0.818365, 0.821131, 0.837728, 0.856576, 0.858832, 0.859821, 0.857902, 0.858756, 1.15717, 0.868923, 0.891287, 0.905435, 0.90647, 0.908861, 0.950601, 0.956659, 0.93871, 0.950657, 0.954604, 0.960335
0.563335, 0.562643, 0.577323, 0.580931, 0.587457, 0.592592, 0.593992, 0.596425, 0.596445, 0.649356, 0.648936, 0.648982, 0.648778, 0.655104, 0.660646, 0.699176, 0.698556, 0.697539, 0.691116, 0.69411, 0.697401, 0.715336, 0.715937, 0.721032, 0.732372, 0.731789, 0.784053, 0.749624, 0.818414, 1.01271, 1.17926, 0.793606, 1.03915, 1.22091, 0.839937, 0.00385786, 0.993912, 0.901434, 1.61672, 0.911779, 0.0045066, 0.00495138, 0.00452463, 0.581015, 0.566062, 0.564103, 0.564609, 0.571015, 0.551669, 0.551843, 0.548574, 0.544247, 0.543753, 0.542532, 0.540591, 0.537424, 0.528843, 0.519642, 0.525369, 0.524019, 0.520966, 0.496368, 0.499866, 0.500265, 0.497914, 0.486136, 0.486418, 0.482937, 0.486393, 0.487365, 0.485995, 0.484323, 0.485543, 0.486336, 0.487595, 0.480901, 0.463558, 0.479559, 0.455816, 0.456053, 0.472927, 0.475742, 0.493964, 0.53089, 0.530597, 0.550477, 0.584496, 0.596406, 0.613296, 0.608174, 0.63841, 0.700241, 0.716204, 0.783808, 0.78112, 0.846362, 0.991012, 0.999307, 1.14034, 1.22338, 1.10902, 1.10924, 1.14182, 1.14049, 1.16737, 1.19059, 1.2013, 1.19237, 1.18993, 1.18918, 1.19449, 1.19292, 1.18684, 1.20381, 1.27503, 1.27615, 1.32111, 1.37453, 1.36395, 1.36404, 1.37048, 1.3462, 1.34644, 1.34306, 1.37021, 1.46055, 1.40036, 1.37836, 1.38706, 1.38798, 1.38172, 1.43214, 1.3646, 1.36481, 1.33138, 1.33362, 1.31986, 1.35025, 1.3513, 1.43596, 1.39882, 1.40148, 1.38272, 1.37456, 1.36814, 1.35019, 1.35424, 1.40476, 1.38962, 1.42267, 1.39217, 1.38311, 1.35679, 1.28839, 1.27805, 1.26638, 1.23388, 1.29124, 1.31564, 1.2127, 1.20656, 1.20521, 1.20113, 1.19524, 1.19451, 1.21699, 1.20505, 1.1832, 1.15353, 1.14267, 1.12712, 1.13311, 1.09833, 1.10542, 1.08535, 1.11222, 1.05476, 1.02659, 0.93671, 0.908089, 0.867805, 0.817643, 0.790667, 0.771734, 0.751664, 0.752612, 0.753024, 0.745182, 0.739249, 0.686001, 0.682962, 0.64851, 0.632067, 0.636317, 0.643017, 0.61909, 0.632407, 0.634631, 0.620618, 0.623002, 0.622772, 0.592594, 0.599232, 0.590651, 0.571335, 0.575259, 0.562883, 0.567489, 0.584123, 0.582621, 0.570466, 0.60733, 0.60433, 0.646072, 0.645227, 0.64902, 0.715336, 0.71261, 0.683179, 0.683757, 0.685109, 0.654605, 0.662547, 0.66403, 1.0585, 1.05992, 0.680636, 0.6863, 0.688797, 0.709961, 0.717747, 0.718056, 0.728691, 0.749995, 0.751278, 0.767116, 0.768596, 0.769188, 0.774157, 0.78039, 0.780326, 0.774779, 0.780791, 0.782212, 0.783499, 0.811454, 0.812219, 0.813593, 0.814372, 0.816546, 1.15545, 1.15343, 0.849831, 0.856019, 0.858398, 0.861474, 0.862275, 0.86179, 0.861955, 0.86649, 0.939892, 0.910938, 0.91153, 0.915382, 0.929927, 0.936517, 0.939923, 0.955922, 0.962104, 0.962851
0.562488, 0.563963, 0.891148, 0.586472, 0.585064, 0.590086, 0.593857, 0.595114, 0.600804, 0.648956, 0.649988, 0.650221, 0.652652, 0.653964, 0.657735, 0.69808, 0.698693, 0.696922, 0.693736, 0.693398, 0.692444, 0.705632, 0.716637, 0.715479, 0.731007, 0.731847, 0.777545, 0.00463682, 1.08161, 1.07476, 1.285, 0.797582, 0.921237, 1.01902, 1.04556, 0.961184, 1.14658, 0.894444, 0.892724, 0.934524, 0.933291, 0.604531, 0.00478027, 0.568988, 0.568112, 0.56578, 0.559815, 0.560667, 0.552308, 0.551268, 0.543203, 0.543372, 0.542487, 0.545102, 0.537615, 0.538105, 0.518718, 0.516833, 0.524482, 0.521299, 0.517513, 0.497142, 0.498177, 0.495835, 0.490239, 0.487159, 0.486175, 0.482713, 0.481499, 0.485852, 0.48955, 0.486733, 0.484916, 0.484826, 0.484337, 0.477247, 0.475585, 0.466065, 0.46772, 0.454273, 0.477338, 0.500333, 0.498127, 0.498025, 0.509347, 0.525315, 0.572943, 0.57359, 0.581101, 0.622557, 0.629314, 0.653674, 0.659937, 0.772396, 0.808047, 0.847116, 0.999924, 1.00014, 1.12996, 1.09271, 1.09261, 1.22038, 1.12403, 1.16411, 1.1917, 1.19097, 1.25424, 1.21338, 1.2126, 1.21168, 1.19296, 1.20833, 1.19865, 1.20357, 1.28172, 1.26878, 1.30466, 1.32371, 1.32089, 1.32046, 1.33315, 1.34647, 1.34472, 1.36318, 1.39298, 1.38998, 1.4307, 1.41192, 1.41299, 1.37893, 1.37436, 1.43325, 1.36208, 1.35771, 1.32519, 1.3605, 1.35989, 1.33865, 1.33967, 1.36873, 1.40529, 1.38392, 1.37142, 1.37777, 1.34536, 1.3132, 1.31586, 1.36059, 1.35766, 1.36083, 1.33319, 1.31806, 1.30397, 1.26146, 1.21793, 1.21778, 1.21066, 1.20925, 1.25636, 1.18762, 1.22532, 1.22589, 1.20545, 1.2039, 1.20162, 1.19467, 1.18841, 1.20294, 1.10401, 1.08892, 1.09064, 1.05595, 1.04003, 1.07243, 1.05449, 1.05314, 1.03959, 0.96022, 0.913161, 0.866723, 0.840266, 0.804627, 0.787798, 0.78607, 0.751507, 0.746717, 0.732221, 0.734607, 0.677197, 0.65671, 0.639648, 0.655538, 0.632273, 0.622624, 0.624802, 0.617681, 0.617104, 0.625239, 0.625592, 0.621581, 0.612939, 0.61831, 0.591409, 0.610393, 0.58178, 0.575648, 0.539531, 0.563308, 0.544559, 0.553266, 0.625104, 0.626067, 0.632159, 0.711459, 0.745934, 0.642553, 0.716677, 0.676597, 0.680506, 0.682581, 0.658781, 0.656227, 0.657033, 1.11521, 1.0723, 0.676713, 0.681747, 1.05882, 0.708471, 0.713625, 0.712465, 0.720027, 0.730885, 0.75297, 0.752663, 0.765884, 0.768148, 0.76988, 0.772817, 0.77824, 0.774973, 0.776496, 0.783428, 0.784031, 1.08016, 0.814672, 0.817652, 0.813751, 0.813297, 1.18089, 0.833584, 1.01811, 0.849382, 0.852941, 0.859134, 0.862018, 0.862624, 0.863342, 0.867257, 1.15597, 1.03381, 0.911881, 0.915748, 0.919984, 0.929646, 0.933211, 1.02927, 0.957884, 0.963365, 0.964179
0.563183, 0.56483, 0.58614, 0.586113, 0.587554, 0.595769, 0.593851, 0.600223, 0.600407, 0.919306, 0.652291, 0.653808, 0.655231, 0.655683, 0.655127, 0.69622, 0.697074, 0.696476, 0.694248, 0.695674, 0.695659, 0.717433, 0.717336, 0.721588, 0.750831, 0.752997, 0.829754, 0.771302, 0.771697, 0.776882, 0.992188, 0.79833, 1.21646, 1.24489, 0.838636, 0.942816, 0.89092, 1.58192, 1.58131, 0.00439632, 0.00448782, 0.606509, 0.00430239, 0.563697, 0.561742, 0.561944, 0.562217, 0.561093, 0.555912, 0.550043, 0.539793, 0.544964, 0.544355, 0.543126, 0.54168, 0.520769, 0.520694, 0.520846, 0.513704, 0.509583, 0.510843, 0.497767, 0.498202, 0.494637, 0.488502, 0.488444, 0.488397, 0.484825, 0.483681, 0.486304, 0.48775, 0.487972, 0.485938, 0.485607, 0.485415, 0.483499, 0.479303, 0.473844, 0.470784, 0.455931, 0.444891, 0.501526, 0.499916, 0.498263, 0.511807, 0.535072, 0.57475, 0.548636, 0.584023, 0.598193, 0.598481, 0.651881, 0.659558, 0.713634, 0.787722, 0.86684, 0.999068, 0.988027, 1.03944, 1.05449, 1.08248, 1.10964, 1.15372, 1.17875, 1.24687, 1.20222, 1.20901, 1.20823, 1.2635, 1.19808, 1.19227, 1.18831, 1.18998, 1.21753, 1.29484, 1.27022, 1.31375, 1.31332, 1.31937, 1.35428, 1.3744, 1.34627, 1.34481, 1.35868, 1.36259, 1.38325, 1.35472, 1.35707, 1.37296, 1.35175, 1.34817, 1.37055, 1.388, 1.313, 1.31255, 1.31569, 1.32337, 1.33624, 1.33027, 1.37401, 1.38707, 1.37882, 1.36201, 1.36553, 1.31965, 1.31929, 1.32455, 1.32465, 1.32732, 1.36869, 1.31903, 1.39568, 1.31675, 1.23005, 1.21851, 1.1808, 1.18476, 1.17638, 1.17427, 1.17664, 1.17737, 1.22358, 1.16705, 1.237, 1.21224, 1.19849, 1.19491, 1.11583, 1.10542, 1.08755, 1.03658, 1.01469, 1.01327, 1.02265, 1.02155, 1.01561, 0.982128, 0.956876, 0.889887, 0.894488, 0.826277, 0.800811, 0.787257, 0.77782, 0.747845, 0.736125, 0.704141, 0.662664, 0.661944, 0.654249, 0.643753, 0.618291, 0.611056, 0.625355, 0.611625, 0.620814, 0.60202, 0.613109, 0.621561, 0.614819, 0.636046, 0.604184, 0.608406, 0.572775, 0.552764, 0.546302, 0.549847, 0.540741, 0.546329, 0.553819, 0.625173, 0.625902, 0.632395, 0.746847, 0.746412, 0.669746, 0.672318, 0.673366, 0.676123, 1.13225, 0.659275, 0.658361, 0.657959, 0.667088, 0.674069, 0.673128, 0.689929, 0.700548, 0.702901, 0.710779, 0.718729, 0.718702, 0.756033, 0.75575, 0.759158, 0.763385, 0.768412, 0.770538, 0.777774, 0.778669, 0.776484, 0.77702, 0.783274, 0.784589, 0.815717, 0.816276, 0.815693, 0.816959, 0.818062, 0.828735, 0.839213, 0.84815, 0.849362, 0.855924, 0.857065, 0.858833, 0.865936, 0.866319, 0.876493, 0.877338, 1.18027, 0.912735, 0.922337, 0.923751, 0.922649, 0.928906, 1.15804, 0.963059, 0.966457, 0.964494
0.562368, 0.564283, 0.586791, 0.585328, 0.588646, 0.595587, 0.594495, 0.593661, 0.994911, 0.905606, 0.655709, 0.654566, 0.655479, 0.654275, 1.01873, 0.696138, 0.696863, 0.696973, 0.694262, 0.69199, 0.699721, 0.704161, 0.715932, 0.804132, 0.742757, 1.02814, 0.772426, 0.771947, 0.771357, 0.771382, 0.783212, 0.81473, 0.804985, 0.805247, 0.96877, 0.877118, 0.00480837, 1.04647, 0.925256, 0.00459361, 0.00427104, 0.577377, 0.582336, 0.560468, 0.559068, 0.557986, 0.556476, 0.562438, 0.562223, 0.539575, 0.540823, 0.544843, 0.544655, 0.543238, 0.527696, 0.513845, 0.514348, 0.513367, 0.511361, 0.510345, 0.509722, 0.498221, 0.49077, 0.489479, 0.488261, 0.488648, 0.486124, 0.485251, 0.485893, 0.485805, 0.484483, 0.488782, 0.487431, 0.486008, 0.484188, 0.483103, 0.478548, 0.477037, 0.480745, 0.461707, 0.447543, 0.457235, 0.466993, 0.490176, 0.490698, 0.494929, 0.513692, 0.550201, 0.569599, 0.568281, 0.624708, 0.639266, 0.645464, 0.68732, 0.79202, 0.850589, 0.88153, 0.887141, 0.932026, 0.980062, 1.00666, 1.06451, 1.11767, 1.16729, 1.21653, 1.23252, 1.2332, 1.20697, 1.36007, 1.19695, 1.19236, 1.19433, 1.26455, 1.26437, 1.26199, 1.27871, 1.28576, 1.30924, 1.30918, 1.34329, 1.37146, 1.38122, 1.41328, 1.34547, 1.39895, 1.35307, 1.34332, 1.37244, 1.35647, 1.35564, 1.34627, 1.34255, 1.35746, 1.31653, 1.31784, 1.31604, 1.36369, 1.32895, 1.31742, 1.31535, 1.41441, 1.41682, 1.38965, 1.29901, 1.29965, 1.31699, 1.2743, 1.29036, 1.34487, 1.35382, 1.29555, 1.32448, 1.24614, 1.21617, 1.19524, 1.20221, 1.18541, 1.1507, 1.15309, 1.15311, 1.15523, 1.14976, 1.17114, 1.16674, 1.16524, 1.16052, 1.09606, 1.10139, 1.07, 1.04372, 0.987911, 0.988935, 0.979639, 0.973404, 0.960363, 0.953701, 0.955134, 0.966785, 0.854788, 0.85699, 0.80826, 0.764948, 0.79197, 0.743918, 0.749891, 0.735634, 0.700272, 0.66288, 0.646937, 0.644068, 0.615317, 0.614956, 0.600225, 0.613524, 0.603642, 0.619131, 0.607392, 0.611911, 0.612407, 0.627646, 0.59705, 0.586444, 0.597138, 0.580189, 0.553194, 0.533275, 0.554306, 0.560226, 0.559371, 0.551981, 0.622641, 0.621538, 0.750515, 0.944141, 0.946832, 0.67087, 0.673245, 0.673454, 0.673012, 0.658141, 0.658965, 0.658856, 0.665952, 0.672608, 0.675693, 0.677294, 0.698641, 0.700098, 1.16684, 0.712899, 0.714591, 0.921508, 0.756103, 0.756781, 0.758195, 0.763745, 0.768614, 0.769625, 0.776629, 0.7769, 0.776749, 0.783356, 0.785216, 0.981923, 0.816174, 0.817565, 0.816598, 0.816662, 0.819475, 0.828548, 0.837106, 0.845161, 0.847073, 0.856511, 0.856878, 0.862669, 0.866081, 0.866102, 0.876288, 0.877041, 0.961509, 0.962467, 0.919605, 0.92377, 0.923045, 0.92742, 1.16288, 0.964074, 0.966774, 1.1642
0.560288, 0.56415, 0.582973, 0.588035, 0.587994, 0.597771, 0.596743, 0.600241, 0.599927, 0.609696, 0.654764, 0.656294, 0.655031, 0.655448, 1.01936, 0.695077, 0.69578, 0.693623, 0.693074, 0.691814, 0.69757, 0.704368, 0.720814, 0.736356, 0.73676, 0.766411, 0.772623, 0.77262, 0.77282, 0.771409, 1.23821, 1.23705, 0.800558, 1.23821, 0.00395878, 1.00547, 1.51957, 0.89514, 0.0040504, 0.620206, 0.579236, 0.577386, 0.575697, 0.560301, 0.559152, 0.556205, 0.555682, 0.5629, 0.562763, 0.53944, 0.54001, 0.539924, 0.542866, 0.541078, 0.527327, 0.514007, 0.51259, 0.511189, 0.507839, 0.506425, 0.507091, 0.494016, 0.490092, 0.48989, 0.48876, 0.487449, 0.486049, 0.485391, 0.484961, 0.484669, 0.484845, 0.487577, 0.48637, 0.482988, 0.485255, 0.483186, 0.488385, 0.459668, 0.473526, 0.498894, 0.463935, 0.463331, 0.469798, 0.480877, 0.486878, 0.481142, 0.502205, 0.514607, 0.548006, 0.556132, 0.600673, 0.631456, 0.666361, 0.665684, 0.76459, 0.825668, 0.881273, 0.897215, 0.88276, 0.912013, 0.970246, 1.03296, 1.10491, 1.15116, 1.22998, 1.19108, 1.26839, 1.19949, 1.18965, 1.18967, 1.18785, 1.18771, 1.20782, 1.25414, 1.25375, 1.28556, 1.27272, 1.27812, 1.31031, 1.29469, 1.35021, 1.33323, 1.34591, 1.34406, 1.3396, 1.34054, 1.33049, 1.33054, 1.34687, 1.34871, 1.31589, 1.31508, 1.31391, 1.31737, 1.31544, 1.35861, 1.30282, 1.30817, 1.30508, 1.33307, 1.41285, 1.40676, 1.39478, 1.3144, 1.29607, 1.29914, 1.28788, 1.2813, 1.32258, 1.29135, 1.32284, 1.23974, 1.2183, 1.22185, 1.20577, 1.19981, 1.3173, 1.17132, 1.1516, 1.15299, 1.14624, 1.21131, 1.21186, 1.15048, 1.15027, 1.13399, 1.10999, 1.04736, 1.01922, 0.988116, 0.939929, 0.933367, 0.928679, 0.936045, 0.938958, 0.921044, 0.903753, 0.874429, 0.854324, 0.850115, 0.798747, 0.756372, 0.742891, 0.743516, 0.745881, 0.735589, 0.681548, 0.668597, 0.642412, 0.652386, 0.617414, 0.618177, 0.610503, 0.592741, 0.607063, 0.600615, 0.599943, 0.601775, 0.58095, 0.589791, 0.607578, 0.583297, 0.5693, 0.565748, 0.555282, 0.566315, 0.539724, 0.562162, 0.560048, 0.57383, 0.567856, 0.621227, 0.752098, 1.03413, 1.1293, 0.671799, 0.672139, 0.671724, 0.670588, 0.655289, 0.656071, 0.658906, 0.668256, 0.669861, 0.675169, 0.68253, 0.697909, 0.699506, 0.704451, 0.710615, 0.714291, 0.722595, 0.757694, 0.758582, 0.76072, 0.764632, 0.767165, 0.768421, 0.776424, 0.776162, 0.776373, 0.788632, 0.79203, 0.796363, 0.813594, 0.814536, 0.81286, 0.814758, 0.815354, 0.81631, 0.838278, 0.84199, 0.848817, 0.849902, 0.861667, 0.86265, 0.863483, 0.864756, 0.870073, 1.01279, 0.901167, 0.907592, 0.919219, 0.921844, 0.923023, 1.15723, 1.03647, 0.961914, 0.960482, 0.977297
0.558281, 0.565277, 0.581837, 0.582156, 0.582239, 0.590737, 0.601752, 0.601412, 0.600083, 0.609966, 0.654783, 0.655239, 0.655374, 0.669068, 0.667427, 0.693813, 0.692886, 0.69203, 0.68895, 0.687859, 0.698967, 0.913056, 0.853249, 0.855885, 0.737212, 0.763526, 0.772714, 0.773206, 0.77418, 0.773425, 1.17755, 1.24041, 0.805932, 0.974721, 0.953695, 0.976318, 1.1425, 0.92581, 0.00431016, 0.00455571, 0.583971, 0.575765, 0.575106, 0.556045, 0.556543, 0.558128, 0.555749, 0.560378, 0.556731, 0.53935, 0.536618, 0.542278, 0.539741, 0.525534, 0.520607, 0.514547, 0.51298, 0.51226, 0.506726, 0.504556, 0.490925, 0.491419, 0.49364, 0.488292, 0.486076, 0.486174, 0.485814, 0.486053, 0.485164, 0.484704, 0.490264, 0.489931, 0.48898, 0.482812, 0.483824, 0.482523, 0.477303, 0.507419, 0.485782, 0.493803, 0.463117, 0.452146, 0.469199, 0.46886, 0.50461, 0.49424, 0.499353, 0.498105, 0.532781, 0.573798, 0.573996, 0.634122, 0.660918, 0.690773, 0.743076, 0.837101, 0.78793, 0.834894, 0.824474, 0.875393, 0.973764, 0.991795, 1.08592, 1.14924, 1.216, 1.27192, 1.19945, 1.20108, 1.2536, 1.18878, 1.18929, 1.19182, 1.21939, 1.26398, 1.28437, 1.28423, 1.28931, 1.27455, 1.28474, 1.30996, 1.29943, 1.2881, 1.34078, 1.37418, 1.32587, 1.33444, 1.31237, 1.3272, 1.30526, 1.32418, 1.31601, 1.31579, 1.31311, 1.3189, 1.30555, 1.30485, 1.30485, 1.28079, 1.31401, 1.3232, 1.35837, 1.38851, 1.32487, 1.32903, 1.3296, 1.28011, 1.27022, 1.26034, 1.31978, 1.2921, 1.23656, 1.21198, 1.21817, 1.20031, 1.20931, 1.20841, 1.21982, 1.21773, 1.14711, 1.14675, 1.14717, 1.17495, 1.13746, 1.15001, 1.18103, 1.11184, 1.05112, 1.05145, 0.988389, 0.953926, 0.914577, 0.946276, 0.89479, 0.894647, 0.878036, 0.897648, 0.845847, 0.845904, 0.853258, 0.860642, 0.765398, 0.763087, 0.744573, 0.729033, 0.690123, 0.6891, 0.690636, 0.776988, 0.646236, 0.620357, 0.619034, 0.608329, 0.604999, 0.597381, 0.583, 0.578626, 0.604543, 0.60268, 0.584993, 0.585927, 0.582516, 0.608388, 0.582643, 0.528649, 0.534909, 0.56872, 0.569138, 0.597057, 0.578891, 0.616429, 0.61754, 0.744377, 0.745257, 0.648558, 0.664205, 0.667786, 0.66946, 0.643964, 0.646821, 0.650889, 0.654487, 0.658813, 0.668922, 0.670206, 0.673935, 0.681198, 0.695994, 0.699107, 0.707224, 0.714168, 0.718873, 0.849602, 0.758358, 0.762277, 0.76292, 0.765675, 0.767133, 0.77623, 0.776733, 0.7773, 0.789491, 0.790438, 0.794096, 0.7956, 0.79494, 0.81175, 0.813604, 0.814713, 0.819538, 0.819921, 0.831844, 0.8414, 0.853143, 0.863048, 0.863871, 0.866266, 0.866849, 0.863866, 0.870024, 1.00884, 0.901205, 0.903702, 0.923434, 0.923897, 0.925068, 1.16238, 0.954763, 0.956665, 1.16063, 0.980853
0.911832, 0.566902, 0.57691, 0.584546, 0.587886, 0.606484, 0.605584, 0.613519, 0.614065, 0.722693, 0.662839, 0.6622, 0.665745, 0.669271, 0.6693, 0.677479, 0.690591, 0.691098, 0.688512, 0.689608, 1.05321, 1.05375, 0.898169, 1.34769, 0.864209, 1.02232, 0.776599, 0.776666, 0.777937, 1.09793, 1.25708, 1.23487, 0.912021, 0.900903, 0.936321, 0.898345, 0.91487, 0.00483387, 0.619564, 0.00451599, 0.566214, 0.575859, 0.556703, 0.556839, 0.557539, 0.555788, 0.554875, 0.553776, 0.556154, 0.536251, 0.541794, 0.536615, 0.534979, 0.52937, 0.524724, 0.514671, 0.513872, 0.509497, 0.506094, 0.503614, 0.491025, 0.490902, 0.487661, 0.483046, 0.478164, 0.482465, 0.48722, 0.486478, 0.486448, 0.486646, 0.487932, 0.492679, 0.492053, 0.490123, 0.483637, 0.484772, 0.538796, 0.49178, 0.491245, 0.482369, 0.479083, 0.472182, 0.479585, 0.46352, 0.456287, 0.465838, 0.490177, 0.503023, 0.521855, 0.543328, 0.567795, 0.627443, 0.644654, 0.705615, 0.695043, 0.732707, 0.779128, 0.80882, 0.838227, 0.844432, 0.865939, 0.93659, 1.12171, 1.18316, 1.18423, 1.11188, 1.14025, 1.1608, 1.1711, 1.18784, 1.20133, 1.21169, 1.25341, 1.26318, 1.28574, 1.28553, 1.27053, 1.28453, 1.27137, 1.27752, 1.27758, 1.28417, 1.29185, 1.30984, 1.31059, 1.30605, 1.29639, 1.31006, 1.29775, 1.29804, 1.32668, 1.33715, 1.31497, 1.31326, 1.31061, 1.32427, 1.28528, 1.28282, 1.28336, 1.35995, 1.39269, 1.36511, 1.33385, 1.33251, 1.3262, 1.27337, 1.26023, 1.2642, 1.31265, 1.2445, 1.19955, 1.20699, 1.18846, 1.21509, 1.20895, 1.20933, 1.18147, 1.13283, 1.11385, 1.10195, 1.10348, 1.13241, 1.18397, 1.16083, 1.13653, 1.07777, 1.06071, 1.0021, 0.984497, 0.947756, 0.917325, 0.894886, 0.891119, 0.871711, 0.865382, 0.865867, 0.835553, 0.839526, 0.82905, 0.800463, 0.794112, 0.785491, 0.736828, 0.670825, 0.664369, 0.647448, 0.779313, 0.779242, 0.618471, 0.622267, 0.621751, 0.612302, 0.615368, 0.583256, 0.590059, 0.593613, 0.57608, 0.574178, 0.571434, 0.574022, 0.580418, 0.583182, 0.576312, 0.530146, 0.529927, 0.563865, 0.56286, 0.5982, 0.62596, 0.625986, 0.620087, 0.619334, 0.981418, 0.666292, 0.668164, 0.669618, 0.669917, 0.642874, 0.652664, 0.652653, 0.653297, 0.659266, 0.667988, 0.670934, 0.674405, 0.69061, 0.697003, 0.697791, 1.17496, 0.71004, 0.722484, 0.742432, 0.745199, 0.763034, 0.764664, 0.767337, 0.770354, 0.779243, 0.779174, 0.77952, 0.79013, 0.79068, 0.79194, 0.794326, 0.795934, 0.798752, 0.808009, 0.809877, 0.818955, 0.824013, 0.831625, 1.17825, 0.860186, 0.8671, 0.867463, 0.869131, 0.870406, 1.16977, 0.8777, 0.974661, 0.904654, 0.905885, 0.925958, 0.926969, 0.925184, 0.926158, 0.956134, 1.22201, 1.0356, 0.90949
0.860359, 0.567626, 0.566931, 0.585735, 0.81763, 0.608012, 0.607041, 0.607233, 0.616002, 0.00401142, 0.667352, 0.667443, 0.667717, 0.666299, 0.669681, 0.676757, 0.680268, 0.693754, 0.690908, 1.08147, 1.12395, 1.05549, 0.79021, 0.00461818, 1.15102, 0.82204, 0.779016, 0.77924, 0.77973, 0.894175, 1.30521, 0.00497651, 0.924575, 0.998823, 1.08967, 0.998404, 1.24703, 0.00445282, 0.580128, 0.577846, 0.57308, 0.564378, 0.559463, 0.557353, 0.557812, 0.557226, 0.555605, 0.553177, 0.548326, 0.546016, 0.537016, 0.536066, 0.529615, 0.52804, 0.515975, 0.51466, 0.514083, 0.501035, 0.502606, 0.503827, 0.484052, 0.489977, 0.479554, 0.479198, 0.478767, 0.481668, 0.487838, 0.487477, 0.486941, 0.487907, 0.492951, 0.492805, 0.492952, 0.493101, 0.494314, 0.492906, 0.489129, 0.491597, 0.508468, 0.508821, 0.504848, 0.475757, 0.502334, 0.481458, 0.460056, 0.476591, 0.450569, 0.518662, 0.541417, 0.523806, 0.553232, 0.579498, 0.6257, 0.680628, 0.662083, 0.666046, 0.712199, 0.791013, 0.756885, 0.849937, 0.867946, 0.930242, 1.02925, 1.06188, 1.07031, 1.06848, 1.12211, 1.1086, 1.13572, 1.10704, 1.17111, 1.19875, 1.23331, 1.25986, 1.33657, 1.3577, 1.26549, 1.23823, 1.23766, 1.26018, 1.26128, 1.28533, 1.33467, 1.30547, 1.30542, 1.30927, 1.3139, 1.2878, 1.29179, 1.30468, 1.34167, 1.31098, 1.35165, 1.31225, 1.31145, 1.28959, 1.30327, 1.27756, 1.27976, 1.28237, 1.3086, 1.3161, 1.33098, 1.30302, 1.27789, 1.27489, 1.28156, 1.26509, 1.24389, 1.21259, 1.21879, 1.17061, 1.18457, 1.18899, 1.18355, 1.19339, 1.13805, 1.11065, 1.08815, 1.09507, 1.07939, 1.09296, 1.09549, 1.09316, 1.0849, 1.06816, 1.07062, 1.00415, 1.00635, 0.92843, 0.882243, 0.872116, 0.866067, 0.856305, 0.836057, 0.840858, 0.808438, 0.767304, 0.787009, 0.79828, 0.756434, 0.705962, 0.706758, 0.676445, 0.664235, 0.662789, 0.631499, 0.638978, 0.624638, 0.609529, 0.609959, 0.616249, 0.602124, 0.597737, 0.583484, 0.587151, 0.587247, 0.569793, 0.573839, 0.554, 0.589996, 0.570307, 0.527982, 0.533983, 0.535559, 0.536716, 0.526757, 0.594226, 0.617661, 0.625382, 0.619357, 1.03438, 0.663584, 0.665683, 0.667036, 0.66792, 0.668146, 0.645407, 0.653774, 0.654076, 0.655359, 0.666213, 0.668434, 0.67265, 0.686453, 0.688346, 0.69532, 0.697614, 0.713806, 0.717523, 1.17128, 0.737495, 0.739676, 0.763067, 0.765975, 0.766018, 0.777508, 0.778437, 0.779463, 0.78637, 0.787298, 0.789343, 0.79067, 0.798908, 0.798675, 0.798539, 0.94169, 1.04912, 1.04391, 1.20126, 0.82664, 0.836268, 0.866499, 0.864579, 0.86636, 0.869929, 0.873188, 0.874178, 1.06769, 0.897463, 0.904366, 0.9265, 0.927329, 0.92767, 0.926658, 0.926886, 0.942844, 0.980944, 0.981919, 0.907784
0.912477, 0.564759, 1.22729, 0.950198, 0.830293, 0.608688, 0.607927, 0.607192, 0.791583, 0.780544, 0.665242, 0.667863, 0.667081, 0.666515, 0.669438, 0.670691, 0.694902, 0.694806, 0.697209, 0.784105, 1.06857, 0.731462, 0.731867, 0.732193, 1.15754, 0.827146, 0.774489, 0.778829, 0.779954, 0.957525, 1.11324, 0.926339, 0.923643, 1.09318, 0.992055, 0.912845, 0.926239, 0.00419001, 0.58456, 0.580561, 0.569068, 0.555742, 0.555571, 0.55728, 0.557351, 0.556514, 0.553003, 0.551416, 0.550765, 0.546858, 0.534446, 0.530756, 0.522658, 0.521584, 0.513665, 0.512599, 0.498734, 0.498532, 0.497873, 0.499075, 0.483944, 0.483379, 0.479026, 0.479424, 0.479011, 0.481146, 0.483959, 0.485852, 0.484706, 0.491368, 0.491388, 0.492924, 0.493711, 0.495861, 0.495965, 0.496723, 0.49693, 0.487207, 0.513888, 0.484329, 0.4915, 0.477319, 0.485863, 0.463434, 0.424611, 0.456875, 0.452864, 0.497269, 0.502119, 0.543715, 0.543446, 0.552333, 0.585809, 0.645875, 0.665946, 0.643619, 0.673025, 0.72573, 0.732534, 0.754193, 0.846902, 0.901156, 0.966966, 1.05728, 1.01209, 1.02058, 1.01931, 1.03356, 1.09103, 1.08618, 1.0933, 1.12315, 1.24818, 1.25093, 1.28232, 1.33029, 1.32625, 1.23028, 1.25058, 1.24257, 1.24005, 1.25567, 1.25734, 1.33423, 1.31546, 1.31369, 1.30205, 1.31653, 1.29829, 1.31047, 1.33027, 1.29364, 1.29852, 1.358, 1.31036, 1.3197, 1.31928, 1.27381, 1.26613, 1.28866, 1.33048, 1.32047, 1.29746, 1.29017, 1.27731, 1.27463, 1.26239, 1.27061, 1.237, 1.23662, 1.15147, 1.14275, 1.14056, 1.13977, 1.16706, 1.12979, 1.11961, 1.07827, 1.08108, 1.07831, 1.0751, 1.08497, 1.08897, 1.09102, 1.06155, 1.04692, 1.02232, 1.01168, 0.982825, 0.908633, 0.85714, 0.85084, 0.850231, 0.85218, 0.81261, 0.81276, 0.76632, 0.758221, 0.767579, 0.746401, 0.715548, 0.725134, 0.686915, 0.669928, 0.63713, 0.636441, 0.625797, 0.617863, 0.607143, 0.608507, 0.607998, 0.61043, 0.599494, 0.600764, 0.594024, 0.586897, 0.577769, 0.558398, 0.55727, 0.549259, 0.545605, 0.552146, 0.517286, 0.518734, 0.534808, 0.536049, 0.528462, 0.595025, 0.61477, 0.614581, 0.725944, 1.02347, 0.664576, 0.665201, 0.666336, 0.666987, 0.638658, 0.640587, 0.655032, 0.652387, 0.663573, 0.665238, 0.665676, 0.665646, 0.686902, 0.687188, 0.693875, 0.704547, 0.712978, 0.713308, 1.09938, 1.08429, 0.738481, 1.02305, 0.763414, 0.764758, 0.777804, 0.778193, 0.778672, 0.786363, 0.787047, 0.798707, 0.79969, 0.79947, 0.797288, 0.781266, 0.785223, 0.786068, 0.788227, 1.04279, 0.908523, 1.18412, 0.857355, 0.866006, 0.866042, 0.870473, 0.873369, 0.875331, 1.18707, 0.964141, 0.96635, 0.926104, 0.928703, 0.928018, 0.92831, 0.926928, 1.05349, 0.919478, 0.914573, 0.914782
0.558516, 0.556637, 0.810144, 0.809448, 0.808486, 0.607782, 0.608077, 0.607156, 0.606153, 0.690164, 0.00421625, 0.665887, 0.66378, 0.668123, 0.667162, 0.846905, 0.00443227, 0.70286, 0.703872, 1.05751, 0.784756, 0.731529, 0.731683, 0.731011, 0.756994, 0.831267, 0.77322, 0.786531, 1.22622, 0.790567, 0.940348, 0.0043444, 0.987163, 0.92359, 0.928319, 1.11529, 0.90354, 0.00438823, 0.583299, 0.576466, 0.57575, 0.556093, 0.55591, 0.558408, 0.557973, 0.556923, 0.548522, 0.543929, 0.545387, 0.528916, 0.530324, 0.531701, 0.524804, 0.507743, 0.514401, 0.505163, 0.500263, 0.495735, 0.497306, 0.482911, 0.480673, 0.483562, 0.477691, 0.477544, 0.476955, 0.479664, 0.485637, 0.486563, 0.486075, 0.484794, 0.492533, 0.491, 0.495028, 0.494889, 0.496227, 0.496224, 0.490531, 0.487402, 0.514156, 0.513951, 0.512236, 0.510512, 0.504499, 0.448749, 0.463632, 0.463895, 0.450286, 0.469625, 0.513248, 0.538969, 0.537686, 0.531271, 0.570482, 0.621654, 0.625415, 0.617391, 0.632896, 0.681014, 0.72015, 0.722476, 0.769377, 0.852901, 0.85422, 1.00469, 0.964204, 0.991169, 0.980311, 1.00694, 1.01422, 1.08533, 1.09307, 1.09295, 1.14014, 1.25118, 1.27914, 1.30692, 1.30821, 1.2827, 1.24066, 1.23688, 1.23607, 1.23687, 1.30528, 1.32874, 1.29181, 1.31672, 1.30191, 1.29538, 1.29774, 1.28403, 1.25455, 1.27131, 1.29788, 1.31481, 1.2826, 1.28193, 1.28236, 1.25871, 1.29227, 1.31649, 1.30064, 1.33011, 1.27233, 1.2851, 1.27725, 1.27719, 1.28438, 1.29604, 1.21293, 1.18235, 1.12919, 1.1265, 1.10802, 1.1226, 1.12426, 1.13571, 1.11329, 1.07969, 1.04944, 1.05788, 1.06388, 1.04448, 1.05015, 1.0499, 1.05019, 1.04708, 1.02326, 0.991492, 0.919421, 0.885451, 0.852961, 0.850332, 0.81227, 0.811468, 0.790564, 0.777091, 0.77389, 0.754079, 0.724946, 0.716406, 0.717496, 0.678956, 0.666677, 0.654214, 0.646056, 0.63574, 0.625585, 0.617664, 0.613927, 0.621113, 0.614831, 0.608863, 0.580758, 0.587105, 0.587533, 0.562991, 0.548262, 0.568454, 0.551394, 0.553401, 0.541972, 0.536634, 0.520452, 0.503479, 0.539117, 0.541313, 0.564014, 0.578046, 0.690126, 0.909361, 1.0163, 0.660984, 0.66344, 0.669292, 0.667923, 0.667713, 0.641201, 0.640125, 0.657129, 0.65765, 0.664174, 0.665715, 0.666118, 0.668305, 0.687028, 0.688619, 0.696942, 0.7072, 0.713667, 0.715161, 1.08818, 0.736151, 0.742849, 1.11904, 0.767139, 0.770289, 0.779924, 0.783445, 0.788454, 0.792819, 0.794274, 0.800386, 0.801152, 0.797949, 0.787868, 0.781798, 0.786292, 0.786872, 0.788642, 1.18167, 1.1809, 0.87953, 0.855816, 0.863953, 0.866009, 0.870399, 0.873856, 0.875147, 1.17753, 0.898364, 1.05994, 0.927564, 0.9284, 0.914447, 0.913403, 0.91751, 0.918192, 0.915365, 0.911798, 0.914438
