1.81286364759149,1.81272934481276,1.81287472878458,1.81228761966658,1.81259494206233,1.8123972485282,1.81369427784429,1.82981958298504,1.81497739099714,1.81457785211458,1.81530475288802,1.81913883667285,1.81969677215759,1.88106536795173,1.87897290989998,1.95323333924797,2.03880555333313,1.95040466834779,1.9551740775503,1.95667548321683,1.86894578899596,1.93752622616476,1.93900988732853,1.93978412172925,1.95483693353633,1.9541590226308,1.95740031434977,1.95447677085142,1.95443929969685,1.9274005173643,1.92698200753051,1.92733223368163,1.92740522490879,1.92602452439324,1.92120361611093,1.92150784261156,1.84808851256223,1.91569043938128,1.91582585218626,1.91633866375236,1.83947709668676,1.91335192292484,1.91235557160667,1.91073758800106,1.95184554611129,1.92112668933821,2.02693369005765,1.91873468624204,2.04351402253205,1.90360924947567,1.90374603744709,1.90435986523401,1.82819019604481,1.90181551817837,2.0320257412687,1.90106252263382,1.90031589865344,1.9015851867573,1.94566209509319,1.90132515534318,1.82930258395875,1.90885407348749,2.02809402564435,1.90910506190378,1.90888760233769,1.92556895163266,1.94195557104389,1.93635910992985,1.93693724214269,1.93741618970076,1.93709082999981,1.94913933628822,1.99532486888601,1.99580390365975,1.99870048615909,1.99205006346789,1.98975131917563,1.99165225151483,1.99663546359962,1.90916730825368,1.90552359820764,1.90523579628495,1.90494442238031,1.90363416665541,1.90300945858026,1.90255147603773,1.97511176021863,1.90153899774626,1.90144732648429,1.96758719329344,1.96927616892227,1.98222305005056,1.99416292661787,1.99188744989864,1.99523785902758,1.97087255794822,1.89824186091687,1.98702783232867,1.98699766932207,1.98724932086945,1.98625837463024,1.98281563637089,1.9877230171797,1.98315172389801,1.98458458765017,1.98353606855558,1.98578333521171,1.9841336123298,1.98154634847214,1.97070548009358,1.97789610061126,1.90135971844389,1.88730761018666,1.88615560091497,1.8858032496583,1.88492793155962,1.88575437254388,1.96537308363707,1.96568861575192,1.9784380284724,1.97736023769595,1.92553419422067,1.88383012460413,1.91481790336146,1.88256406920132,1.96437008860735,1.98788079533834,1.96287817433825,1.96316428478649,1.96239305058774,1.87707772628236,1.96351816288011,1.94468275684757,1.95970275980744,1.96135451575565,1.95824349195169,1.95793543099,1.94653219493361,1.94066537272594,1.91700068363701,1.94202561546218,1.86464923940821,1.86257513546871,1.8661767278983,1.86288507788327,1.86424876940346,1.9479541537597,1.86663299215928,1.80563548776118,1.80409810186405,1.80391339389081,1.80431849458092,1.8000107707551,1.80260910104514,1.84538939263289,1.83903832053831,1.84444109606968,1.83231837970869,1.79638193404736,1.79557359218176,1.79258453093742,1.79041981987479,1.79092654908879,1.8162952236944,1.83980285987027,1.83991453643005,1.83867790394641,1.83803895745042,1.88677920785815,1.84685110767224,1.78933434058507,1.78909400939069,1.78864867420969,1.7875537909281,1.78888788544517,1.78724408747056
1.81098939274549,1.83231076786699,1.92346029704928,1.92214133875175,1.9930695291018,1.93104689848957,1.92170782167671,1.8515465904148,1.81535560126634,1.81430901652878,1.81483146577799,1.81879750204229,1.81909682620883,1.89129738289843,1.95818753624922,1.95260515385305,1.94925345342911,1.94825332669134,1.95465919908564,1.95773623226116,1.9566829261497,1.9375667192812,1.93889680960053,1.9389645381439,1.95626576679332,1.9424408960433,1.93165737032564,1.93286819840517,1.93174715331574,1.92857851492958,1.85485873511076,1.92852033646351,1.92909898702417,1.93009791643764,1.9542106546473,1.94223722231088,1.95221933815423,1.92885734779042,1.91557193070691,1.91530175720933,1.91231911166545,1.91217296433437,1.91068662009479,1.90962098486711,1.90864527285105,1.90914030238768,1.83561250794784,1.9063734489764,1.90539772302147,1.90364666264937,1.90381101557746,1.90318854510794,1.90136189869251,1.90084953142663,1.8994081027398,1.90057672012215,1.90102312992343,1.90102660193932,1.90115433659832,1.90214119286097,1.90348664650312,1.90741658604193,1.83075347037473,1.87697521092206,1.94143510030516,1.93097882993936,1.94116511204102,1.93604011766312,1.93675541253533,1.93663757853565,1.93619606532496,1.95687323150452,1.99487201087101,1.9954004216704,2.01559109079618,1.99360477449482,1.9975744070892,1.9921159382973,1.99461163920403,1.90891656472203,1.90565174618308,1.90397006277063,1.90193006386792,1.90218784923836,1.90192112826102,1.90150800908368,1.90120502621486,1.90082823193357,1.90084259026566,1.97027018456428,1.98132526280315,1.98177094992847,1.98419607920061,1.98558042825322,1.98170898958558,1.98180189569241,1.99473424016832,1.98542439772132,1.9855960388386,1.98652394560418,1.99048576018394,1.97743008201846,1.97456009350143,1.97540858257807,1.97311419391176,1.98135893000611,1.98252177948646,1.98167414563503,1.88847970671147,1.97178257105956,1.97876964397714,1.90626649472399,1.88626233264683,1.88531927475894,1.88556381948534,1.88431338188851,1.88421347789519,1.96574906670022,1.97301344260117,1.97517456347634,1.97581840550424,1.96372260903456,1.96138854165615,1.93156953664298,1.96465121731495,1.96451184241009,1.96548141082128,1.9643220620587,1.97442308694104,1.9730149271838,1.97808908327346,1.96504948995749,1.96860108291109,1.95823237139101,1.95788714445066,1.95776461679913,1.96811811200612,1.949331943503,1.9522930197748,1.90978824655727,1.86475699411378,1.86329866082931,1.86629706316808,1.8628826577452,1.86643127317498,1.86192822422642,1.86245420230069,1.86412296116527,1.80490021478704,1.80348049174706,1.9814312738685,1.82060170191689,1.79891499532125,1.80141620632967,1.79888912494987,1.82246204280706,1.79607825105219,1.8244054984179,1.84296315355021,1.79595162262598,1.79241822389567,1.79082998265428,1.7918703830716,1.79131429121469,1.79158159926019,1.78992414206951,1.79082479698244,1.820762599405,1.88538552654741,1.84613517378218,1.78874430382302,1.81854060211134,1.83628185520133,1.78587439249341,1.78536851639291,1.78669411434948
1.81226358924437,1.84185052771448,1.92182532767985,1.92159707301369,1.99724788515345,1.93486788669524,2.08719442416356,1.86968628137725,2.08679166305082,1.81327890045213,1.81453929600485,1.85125680004975,1.91083114801977,1.91998813067269,1.94876318671701,1.95113109656063,1.94848166628918,1.94748380341754,1.87245582233383,1.90908429333318,1.86618399462905,1.93768231749768,1.93864357077435,1.93812424495001,1.93752245850492,1.93662663439251,1.93190450654428,1.93319324396733,2.02700081690977,1.94103633660481,1.92826342084918,1.92820377008898,1.95236868602233,1.93189891580103,1.85088866135736,1.93846441716259,2.02513085460063,1.93632352080368,1.9516721634374,1.91379968586834,1.91292000798082,1.91230120742056,1.95070393218321,1.90871607213337,1.90872251988532,1.90838983788628,1.90475272659682,1.90559624532747,1.94905374752776,1.90265350598279,1.90384093712628,1.90273036125715,2.039858253704,1.900732230401,1.90058968684827,1.90067882615055,1.90101154537156,1.90021983688638,1.82734631561509,1.90259466387748,1.90314989798336,1.90683073931122,1.8291943539528,1.8621625307964,1.83179731057265,1.91230554180275,1.93858930057468,1.92864399122231,1.91287591036198,1.93598444706623,2.03481630040696,1.96676394190564,1.98263980008784,1.98521346842041,1.98279155274242,1.98476638466521,1.98429842800859,1.99036449315128,2.00330989189682,1.90709386765846,1.9046264440544,1.90297828647809,1.90154295050373,1.90169217351012,1.9019515668716,1.93334359615191,1.97488865795054,1.97496510039491,1.97334582794746,1.9738624607109,1.97318779867329,1.9799114285174,1.98722011744785,1.9856269574781,1.98294193533687,1.98209673820885,1.99067505302543,1.98273351201971,1.98409902438537,1.98071569466501,1.89451152800945,1.97744346154881,1.97685922801929,1.97567014156091,1.98589142875992,1.97736773769769,1.97214278245753,1.97628859461879,1.88928522951113,1.97244348418691,1.97363689112441,1.91100679794041,1.8853444558064,1.88436761529916,1.88420907850557,1.88392458300439,1.97739331193601,1.96333643262433,1.96468381009852,1.97073674507805,1.98095586859081,1.96208625770246,1.88232396971647,1.916245220757,1.88034816123332,1.96388754887625,1.96653541837523,1.96367950414111,1.96311186137674,1.96381602599456,1.96140091971935,1.96385104045509,1.96532022649036,1.95684862600089,1.95514965975773,1.95535590415374,1.96147338962515,1.94827689979016,1.93761396274003,1.89951866598204,1.86483371128806,1.86452356241186,1.86115411200122,1.86468774413478,1.86030356277413,1.86188489808924,1.92865038899916,1.86254994915527,1.80485815878519,1.80393923925601,1.80306711071315,1.8291673030786,1.89641032087948,1.84515024857679,1.84568210880439,1.82952197029288,1.97615702120169,1.81220718087889,1.79316996559257,1.79623582604985,1.88094237624026,1.84166983951658,1.880175212216,1.79083837533273,1.78837985618274,1.78872783141907,1.78784223941431,1.78703060113434,1.78530581754918,1.84461404820534,1.88302330865608,1.83685804902714,1.87609006378679,1.7847672052544,1.78570010649107,1.78721093319122
1.87382244106514,1.8508137568394,1.8579047173947,1.86162161289496,1.87147624531612,1.86311135120787,1.86031135791982,1.85141078533252,1.81268559780566,1.81255216884705,1.92049927124136,1.87046581958829,1.92270295164327,1.9317845543495,2.04441544026055,1.97416645007394,2.0314503682505,1.94608629850969,1.94247711542959,1.94586809758913,1.95030528773442,1.93699976343839,1.93821314861617,1.93710600797552,1.93622171875922,1.93521427103117,1.93296031057206,1.93233458870332,1.95376518350239,1.94465271173598,2.02466096663577,1.92619238351806,1.92517267944737,1.9367107363648,2.03474917355483,1.93293020955541,1.91773645184065,1.93090008353675,1.9506246987832,1.91341412550184,1.9134085969624,1.91142346885899,1.90922935601713,1.9085052602636,1.90834536283627,1.90635246636391,1.9060915321191,1.90526460253518,1.950536931308,1.90216785726992,1.90126557188435,1.90191606602003,2.03550888219119,1.90158221345726,1.9001528753755,1.90000047354085,1.89902236226691,1.89855620260396,2.02400887721514,1.9117230894312,1.94147934449078,1.91191507790758,1.90218533660028,1.90345225385292,1.90276025098333,1.90071305746707,1.83519377469657,1.92533005757788,1.93667172948628,1.93659708257518,1.91848324454466,1.92386454955643,1.86119742808698,1.97094452848391,1.98114975899295,1.98245257917448,1.98344461967075,1.97789958970309,1.90344726069324,1.90514041601259,1.90293861814714,1.9020894301142,1.90174499416508,1.92719913178617,1.97404051472505,1.97223278421483,1.9767301103821,1.97576483799526,1.99422437324594,1.98309985574615,2.00036712174819,1.98027400676135,1.8989131300506,1.97446664936827,1.97387145665724,1.97879040928991,1.97783244118347,1.98059805212897,1.9847315095797,1.97984744185442,1.97303292236539,1.97850191757699,1.97815952302487,1.97813437126768,1.98045128816888,1.97566195384514,1.97198686936226,1.9736069546953,1.98270057691297,1.97177254897,1.88758003069548,1.91550024769865,1.97954213245876,1.88362554685868,1.88411685182372,1.88420142511662,1.88471094071014,1.96609423795148,1.96965837427982,1.9673082854049,1.9646679157573,1.96415749701233,1.97344426843959,1.96621428568588,1.95752896929963,1.96091857743853,1.87804626992939,1.95987333972039,1.96894914768587,1.92001800621419,1.87420614321221,1.9579375534964,1.954639636688,1.95726384370999,1.9565773463466,1.95483097511709,1.9418122374873,1.94288869192931,1.94080975060286,1.88941754289977,1.86478113933721,1.86319422173184,1.86587810740433,1.86184231208489,1.8645797442158,1.86033549106152,1.8609657179163,1.86073090063416,1.80506361320374,1.80515115505549,1.84810380558008,1.83819523097073,1.84633861778443,1.84536336022161,1.84502212147495,1.82004370094974,1.79476514595751,1.7928312260348,1.79300027145552,1.79442253445079,1.83827865430852,1.83097177039655,1.78960046610969,1.79083657673851,1.78768224222874,1.78760805493339,1.78784757380632,1.78623885813188,1.88216983867908,1.84250078622654,1.78608416070868,1.81485906674747,1.78425499508626,1.78416875386518,1.78544995345463,1.78695017738688
1.8580915033218,1.84366267646451,1.81073774070384,1.85749224209586,1.85751506685408,1.85770683869404,1.85787740781264,1.84283280282135,1.81384790278117,1.81336021045407,1.81514558669714,1.85319091103517,1.86471551060635,1.93591527421568,1.95012013215348,1.95408310490735,1.94627090563696,1.94632422008598,1.95472651115362,1.94892369250933,1.95428125748562,1.93587542782313,1.9353109288683,1.93599266013544,1.93782670678565,1.93456147417434,1.93322138161105,1.93119900950065,1.93039390582249,1.9411720437126,1.94870331122289,1.92412634824929,1.92519456796222,1.94204115478795,1.95085818366386,1.92907915663851,1.84421433441847,1.91484886074386,1.91323323608199,1.91283821754739,1.83924694748103,1.91060729826694,2.02368283250483,1.93567541716076,2.03416421098633,1.90304413040948,1.83106706108472,1.90183531994054,1.90149053683199,1.90089718949164,1.82711616640276,1.89905648127858,1.89899413588975,1.90479852609352,1.94548003378135,1.91248733428278,1.89878697659302,1.89685203721138,1.82544439529642,1.89758096957989,1.89998952378519,1.91695682727167,1.93899609420557,1.91136953707305,1.90287359316717,1.90129164276121,1.83420924400641,1.92136662639252,1.93471401996345,1.9339780123544,1.93563124127292,1.92819899284178,1.90730488281701,1.97141339148506,1.99153547153539,1.97824068979743,1.97679833361233,1.97703809295465,1.97694525317874,1.97810725019865,1.98128594672215,1.96831247050271,1.97056084339983,1.9421531365751,1.9708230916705,1.96916116632726,1.97673363314029,1.97446578637159,1.97056622020043,1.97230440585599,1.97182127165953,1.98071546007101,1.99458341901497,1.97805345365201,1.98223380676175,1.97997420879213,1.9907769182706,1.97762915653686,1.97488952238414,1.9769259488308,1.97715596864437,1.97912947964165,1.98753742299266,1.97866755349176,1.97605004336517,1.97630605408618,1.8878947396641,1.92778528879765,1.98050717863486,1.97069539563177,1.97848137971271,1.92044528116136,1.88510279593333,1.88377174097186,1.88523997062825,1.88552872685199,1.96455139089292,1.96403146483352,1.88195172203158,1.89441668001073,1.88132576526008,1.9670427936089,1.97007120695096,1.96769412569893,1.96704486897378,1.96460585353505,1.95845868850863,1.95825435974024,1.87572715872887,1.90564744425199,1.87346707445935,1.95823002826416,1.95943860910241,1.95974828746282,1.96125537199514,1.9547055336999,1.95512470233276,1.94416329981921,1.86426325780543,1.87254498838833,1.86413883007168,1.86413847601305,1.86080393901828,1.86381446322674,1.85971041300933,1.86128341378172,1.86106180271861,1.85968889650463,1.80479700318242,1.80593432043737,1.80079473454217,1.79965083228906,1.79750401531145,1.79650720049665,1.79574549309511,1.79415557767731,1.79442116479757,1.79217018922221,1.79196500342523,1.79093060219148,1.78896316385008,1.82683153380051,1.83603781605134,1.81313238973948,1.78629876808393,1.78619400158382,1.78624639637915,1.78558675465679,1.7854850216604,1.84120608316121,1.88392983246167,1.82733790029732,1.7833722505941,1.78366357804534,1.78185522524938,1.78544520191311
1.80858187326814,1.83096270815855,1.80953037507534,1.8571715896239,1.85717125644549,1.85738861100314,1.85770787351086,1.83173447833668,1.81116100675597,1.81283436217028,1.81175236357879,1.84274339033191,1.81608065483835,1.93869883784838,1.95766787899622,1.95540124863232,2.02783510778616,1.946983165463,1.94401080399788,1.942496528775,1.86758472858007,1.90237303258828,1.86344138755649,1.93488149826315,1.93385361909794,1.93437932904579,1.93459099330751,1.92733078075072,1.85459090567758,1.88903468038598,1.85311384684102,1.92206436377866,1.94804684472669,1.9452902172117,2.04485655957451,1.92771863607938,1.91475251196448,1.91550771679522,1.91547239264354,1.91194904800444,1.91182142401331,1.90967722418096,1.90795169186966,1.90700387764974,1.83267810593282,1.90166657480041,1.94787743735727,1.90149614016578,1.90108081771696,1.90076931589209,1.89773077126076,1.89846151163928,1.89765495397953,1.9084606877326,2.04057433517339,1.94588873690148,1.94286884596381,1.89444560373417,1.8247795229875,1.89542231727457,1.93930763038266,1.92357505819257,2.02469006351037,1.92556633226228,1.93782109704793,1.90465855687087,1.9059137637348,1.91020270319251,1.90965965055581,1.93320646957237,2.01702768459434,1.93103672259303,1.90710030655281,1.97170022013496,1.98244296107968,1.98109500893186,1.9915672014737,1.97362688093148,1.97613486120399,1.97696650754741,1.97580026285714,1.97042515217642,1.89869430559906,1.92799402987975,1.89809964626827,1.96870655183673,1.98649930530868,1.9730567824259,1.89648697145174,1.97075835840464,1.98143075852468,1.98167501921804,1.98546544910638,1.97814994926997,1.97959317577621,1.98021820206529,1.97839991473278,1.97872157979721,1.97700197837018,1.97640945365654,1.97545436018499,1.97769344738567,1.97824408355959,1.97745566542683,1.98182085957417,1.97869890031877,1.97864576524251,1.91462468605458,1.88601366640437,1.91784730102529,1.96875018502983,1.92547496997725,1.88472675012846,1.88334351498517,1.88422811213441,1.88479633531197,1.97022316411161,1.96518890260839,1.96715595628158,1.90033708574625,1.88211520793486,1.96772169184539,1.97017247274397,1.97064727444462,1.97109104336163,1.96759610918106,1.97481581265427,1.9600305667709,1.95770446858818,1.95216330519642,1.95805024801377,1.95580695671339,1.95955916488371,1.96045619719644,1.96088923312821,1.95484805449943,1.95269218782109,1.94436044146473,1.94727981866075,1.87681119640582,1.86430683604647,1.86252627445564,1.86294694899957,1.86085124794624,1.86204408661917,1.86016328874755,1.94903777294397,1.85936095976231,1.8072314933646,1.80766966904287,1.80091207474864,1.79910994310685,1.7979245029575,1.7966380568079,1.79531442497809,1.79403439451583,1.79166499470679,1.79177029829568,1.79107772116789,1.78965583105361,1.78724808835264,1.82165725638654,1.8356324295733,1.82260024668578,1.78539357899399,1.7848575463719,1.78413794186699,1.81173082627055,1.87414165543821,1.84721086508064,1.88997061054878,1.84134066903705,1.87476568480023,1.84021568788059,1.96567115924697,1.8730957560759
1.91986636092134,1.91586674940408,1.93420273862477,1.91437401787418,1.91603039540448,1.84771295286018,1.81103513042872,1.81341151091404,1.81409481570922,1.8141579501345,2.08959181173938,1.87184316077825,1.98183403498124,1.95365117684817,1.94746803908018,1.94757317445126,1.94508614936618,1.94722548521369,1.95329162533734,1.94229254293553,1.94135564630201,1.93414891571342,1.93470161644825,1.93435221764227,1.93414269556911,1.9334842714998,1.85466694507706,1.92627999116166,1.92713551857801,1.92227272793553,1.92345112421256,1.921136205409,1.92005996636436,1.93233095172677,1.948796680486,1.92697237250095,1.91429813031856,1.91428706628492,1.91359502723388,1.91207430395152,1.90882753674434,1.90896726934698,1.90800384029623,1.90690360128833,1.9035583769545,1.90256055550161,1.90448448256548,1.90040474609289,1.89922737766749,1.89939501238219,1.82621692678914,1.84665730125525,1.82484679603576,1.9112138290478,2.02722664553249,1.94769673043516,1.82188986482766,1.89488714288739,2.03404913638269,1.89515781035091,1.89819199964564,1.91555040389941,2.01972200400577,1.92503096733896,1.82993549726488,1.90443385612411,1.90575747717047,1.90996671230952,1.91146663683741,1.93154618881834,1.93347667332709,1.93216947715882,1.90504170764003,1.97118563350301,1.98503003341375,1.98425828041645,1.98153565065968,1.97396970055072,1.97635947893798,1.97843491732695,1.97557212810647,1.97455951678791,1.97260334083286,1.97567348929332,1.97333943970295,1.97030600212179,1.97760729109689,1.97598339290354,1.97701955079848,1.97108173434149,1.96722530737174,1.97033876459516,1.89520586420032,1.91548093823759,1.89482367106732,1.91487581716739,1.89309577173182,1.96072360831943,1.97841738378862,1.97475972731702,1.96129862887289,1.97493133518879,1.97976485842073,1.97522775469876,1.96776099690717,1.96596862429678,1.88739520606212,1.90232979455979,1.88546355339007,1.89956477105496,1.8847796294435,1.9294285329501,1.96949850365026,1.97493013590274,1.97344317846586,1.88257903073657,1.88114327248787,1.88193144345659,1.8815826195589,1.90928803628897,1.96317669139845,1.96523922988636,1.96499912009995,1.96631185061293,1.87725993491683,1.9671666200996,1.96392169537226,1.96354732636819,1.87503516011279,1.95188015518267,1.95050694849046,1.95594087470963,1.95558235873729,1.9507239134081,1.95190519896035,1.95195777241251,1.94854706317566,1.94351542798457,1.93680423350979,1.88335106837318,1.86264082605136,1.86265735348863,1.86071601394661,1.86209604559754,1.85977360617931,1.86055342139625,1.86030683562516,1.85942024166153,1.85837516556497,1.82419074765625,1.79969666193044,1.79889961965756,1.79719193573651,1.79704768122741,1.95725601755389,1.79309087582234,1.79276884432259,1.79240619390366,1.79025708146403,1.78874212612102,1.78823111278094,1.81583763333298,1.90090781997172,1.83835880533246,1.88713722573619,1.844501890434,1.88018436676333,1.82197733436283,1.77964355135686,1.77975861612884,1.78038825474652,1.78023274086614,1.77912068879826,1.82858470163433,1.97171193733408,1.87549031640272
1.84561518196617,1.9155937191912,1.91472559815097,1.91409115411556,1.85112052017271,1.83934652721139,1.8122853469509,1.8134879565926,1.81380751058779,1.81406385049405,1.84305099376633,1.85835090518587,1.95599607281777,1.95346695368281,1.94957817677175,1.94822215622519,1.94667839428212,1.94611940543667,1.94391979815362,1.94276299076847,1.94005751789948,1.93602129340167,1.93535886924994,1.93437814787062,1.93369892077698,1.9324062782467,1.92669997758572,1.92557798132021,1.92522292114417,1.92295273647211,1.92144309113066,1.91942926191373,1.91868250588085,1.91707216163602,1.91758829693889,1.91825215552209,1.91331994034403,1.91287374567521,1.91342591975062,1.91106937141849,1.90981918749779,1.90911368384508,1.90908437669389,1.9050079309665,1.90367239742776,1.90276703791959,1.90297460330723,1.8996179465401,1.89745871966711,1.89725518674931,1.86724525605648,1.85768862510666,1.84699216054934,1.91383894770725,1.94744608273338,1.9472993673137,1.91640822914107,1.89657267556842,1.89485399525642,1.89559917638336,1.89716880057604,1.90456728683234,1.91198391799522,1.92446110889211,1.91946165086884,1.91500205838193,1.90636344396771,1.90868515295087,1.91040874650907,1.92993884056782,1.93099785286558,1.93748236679044,1.94402896496969,1.9703536193215,1.97305062360222,1.97232750741327,1.97408001213994,1.97630361010282,1.9788477286956,1.98116004650152,1.9810566969197,1.97969391065864,1.97948504858274,1.97582085808617,1.97441962118536,1.97192332891871,1.97911188585736,1.97725610659804,1.97668792475245,1.97385857829147,1.97157163438376,1.97107532498091,1.95768962106569,1.95496834204155,1.95363975894858,1.95632765194986,1.96022421539085,1.96081686278666,1.96094842823727,1.96236320289615,1.96351913986133,1.96982189516395,1.9729447319385,1.97084520160431,1.96872209320708,1.96605046289901,1.91851198035542,1.91152376448942,1.90134815778539,1.91023804027843,1.9179738083262,1.93135909745482,1.97270581191237,1.97542268615099,1.91231788822683,1.87929746809915,1.88050983383433,1.88168044453926,1.88156139905678,1.91786065683458,1.9641044151948,1.96346811228368,1.9637216796456,1.96562656626669,1.97070388050497,1.96897827801067,1.96691714403252,1.96437680872818,1.96163538899182,1.95585911923542,1.95430821697635,1.95508972639623,1.95241209001345,1.94901196368678,1.94710445365699,1.94869658835275,1.94833705988767,1.94478843388218,1.93956701274338,1.89069889928441,1.86188142963916,1.86161572159058,1.86141474607018,1.86093077579906,1.86031932628045,1.85988183781699,1.85985976064036,1.85961809418503,1.85789430009,1.83494633728995,1.79956647369822,1.79921502365917,1.79764083989449,1.79685899124646,1.79545681256824,1.79368466628931,1.79331300408646,1.79369477894451,1.79969945943792,1.80349480197784,1.80731263607039,1.81209643353412,1.81675753461324,1.82384995013991,1.82985123135989,1.83525164199171,1.84501782843181,1.8304836775328,1.81534914184477,1.7803658607827,1.78049539626669,1.78066956118519,1.80937164787716,1.82637978129881,1.81967200847562,1.81231795932537
1.80793526277114,1.91591229583375,1.9182840691212,1.9131937936838,1.80803525030976,1.82788277593225,1.81078404425297,1.81255994638647,1.81192919385613,1.81227669517576,1.81189200641298,1.84310473267686,1.97744202094233,1.89970133988786,1.87348486112097,1.94786688997357,1.94621984822355,1.94704924031333,1.94535844060001,1.94440278818976,1.93760362098429,1.93653387396849,1.93651640748525,1.93505489986971,1.93466434860949,1.93089723828202,1.92781964896336,1.92649239810594,1.92616693042456,1.92508146535253,1.85155993118391,1.91870671126206,1.91926936923919,1.91698303958879,1.84514452442711,1.91680146054935,1.91353465827524,1.91307737735776,1.94777837602206,1.91116713816987,1.91067909611229,1.90978299832933,1.90996880167439,1.90505769441178,1.90256776575486,1.90276092285875,2.03309977090267,1.89928530871617,1.89818357264007,1.89684597889379,1.94392654263231,1.86611758441601,1.82314790227752,1.91624151503353,2.03099965938624,1.94569403211379,2.02093063156778,1.89971507127977,1.89696272874577,1.89691426954285,1.89868711745882,1.89952769466011,1.89823218831257,1.92534954066183,1.93493783571143,1.91873358196856,1.90707996726185,1.90839251512663,1.91128345038881,1.92674950605646,1.92990922940691,1.93890401723798,1.99401374949475,1.99252038898102,1.97417190444388,1.97264148181477,1.97414503972802,1.97648519104747,1.97883118891642,1.98110381857618,1.8960013605511,1.91951112343451,1.89676903865854,1.97303797044187,1.97197564799515,1.97100723759007,1.97649205724421,1.97578272228086,1.97910424732948,1.97810846066707,1.89485848583224,1.97144893077028,1.98157796985654,1.97187761374823,1.97255488164561,1.97774599564596,1.97699527366099,1.9613197576268,1.89316302199739,1.91615655036726,1.89110025419299,1.96685800835364,1.96884885468511,1.97110474125893,1.98003059240488,1.9684295082214,1.96720875895142,1.91937012246499,1.8851101921334,1.9181838919389,1.96842756085082,1.96955298793743,1.97389175002489,1.97456194410796,1.88137360372151,1.87812222460232,1.88098533313656,1.88090063235477,1.88013669131852,1.92385668996557,1.96390480141822,1.9637652036859,1.95091688904215,1.96200906579912,1.97083148784976,1.96558911232343,1.87529467661529,1.96220297895781,1.96449804109649,1.95759650825972,1.95102801499148,1.95450028508373,1.95519635885544,1.90461668789149,1.86954321826059,1.9346161118269,1.93788398381628,1.94222750418869,1.94682211606153,1.8975053011832,1.86098753048971,1.86051879617518,1.85971816519913,1.85963860866738,1.85875527637089,1.85892112654618,1.85904138056475,1.86039924114088,1.85560740346391,1.84460779907571,1.79906707882424,1.79967491827227,1.79697109572555,1.79564762291209,1.7948016641971,1.79279745266937,1.7906855970748,1.79235015574798,1.83576554803286,1.81748406601418,1.97772011790113,1.80143068547592,1.78453159119128,1.78247574692621,1.78199556734679,1.81417873959125,1.87580064731832,1.84330405766629,1.90122427513173,1.77939144742503,1.77672384865046,1.77994025180661,1.96386321771287,1.83087580494515,1.77589027896547,1.80577217842476
1.92282953196506,1.91575069430908,1.99375384600824,1.9124651242652,1.91482300353791,1.89310432482667,1.91253789741835,1.83584345883144,1.81033718576766,1.81090305753155,1.81090503556466,1.81040414771871,1.81209784175257,1.89616267647633,1.95250150342698,1.94852595263947,1.94978985972365,1.94958249929932,1.9500560352417,1.9456814581434,1.94514785260111,1.9417325566646,1.93559772682212,1.93543539346608,1.85933705804139,1.92956628187599,1.93000151773532,1.92728325039915,1.92720724589851,1.9257649071198,1.92319658540292,1.91942075816769,1.94803821921089,1.93210280604764,1.94712080560238,1.92414892596922,1.91273148898323,1.91283532964688,1.91295361687873,1.91211597984529,1.90822908506084,1.90738128295061,1.90571045145171,1.90519668005826,1.82981082998811,1.90319727473143,1.94501469236681,1.89989726518019,1.82640759149844,1.85883945660602,1.82519822330012,1.8729151131722,2.02659669578816,1.91782722412606,1.82247482392803,1.91359206439679,1.89702718556758,1.8965934453925,1.89581944603762,1.89689383484906,1.8975963464341,1.89882463934711,2.01538787149248,1.92581275295924,1.93520755410771,1.9247504114197,1.93492679937931,1.90755361863473,1.90815330659726,1.9233148504005,1.92919389890723,1.94272958617826,2.00015146768664,1.99790485823612,2.00752165517581,1.97878504689043,1.97128132827225,1.97397300927998,1.89857799279649,1.97935334031822,1.97407385593682,1.93471695391176,1.96967355736036,1.97012513168474,1.97119823111674,1.9724021590548,1.96791748705688,1.97417028443363,1.9844604681605,1.97931257612061,1.97308277494961,1.97203648719724,1.89410876451864,1.97354303957108,1.98855265365106,1.98534680678149,1.98773343382807,1.97599624909918,1.98078658035754,1.97412932432555,1.96788721758542,1.96689500686297,1.88880575084453,1.9549192452471,1.97397497052525,1.9676263195286,1.9677149468428,1.92660888193976,1.88526976928102,1.9251435867395,1.9745259062755,1.96616188078293,1.96562498433524,1.96634174957107,1.97128562852718,1.95883892073503,1.95917071550427,1.91088557336448,1.87928898634788,1.9266642607901,1.97659066687721,1.96525326462298,1.96738073537332,1.96137375050374,1.94023739777103,1.96410897230056,1.96881011522623,1.96469964342329,1.96006113606442,1.95800329595096,1.96178503698796,1.95786241602644,1.86915904419963,1.89500937996668,1.86524221511421,1.9355982782449,1.93823258289748,1.93923650698247,1.93466413564922,1.90231061541167,1.85964200591486,1.85950016872788,1.85872821740485,1.85829216225493,1.85794392055071,1.8577023769326,1.8584568378185,1.88024360194586,1.96861655978375,1.92436069598836,1.97004847765849,1.81177480717653,1.7934942482603,1.79311985779397,1.79167255673843,1.79081377547595,1.83609886395787,1.78883471606917,1.78529448795597,1.78436789965061,1.78409669392435,1.78226776825954,1.7823478614756,1.78147685538451,1.78129519746933,1.78041079075421,1.78090889296066,1.77855683211932,1.77804679856766,1.77776500626179,1.77598396113152,1.77699580016324,1.77563794528258,1.83399252807754,1.87329951565579,1.83622115650272
1.80637554084535,1.80588878845931,1.80518272760721,1.83733238287863,1.90569026850289,1.88851082499312,1.87872292357944,1.84660063377449,1.80939011326313,1.81012789195204,1.81133606490771,1.81024977970343,1.8115839791798,1.88847596606051,1.87487663663119,1.94727062229234,1.95011213189867,1.95020739448532,1.94884873356973,1.94705299031312,1.93813407545883,1.9604654858554,2.02252374164332,2.01894021448148,2.02379826683161,1.92840272580937,1.85423542643066,1.93344293682509,2.02109365392294,1.92493330879773,1.84876966926468,1.88524151102834,1.84615142298693,1.92957399859626,1.94592917602778,1.92843367202307,1.84127034243671,1.9127596590671,1.91188235907895,1.91132436737924,1.90827575086279,1.90640968929795,1.90542044909525,1.9053887550947,1.90511563874958,1.90434791505941,1.94402746513523,1.90017682978795,1.89955119987336,1.87512475297336,1.82500651584621,1.88134226585206,2.03043521992713,1.92004042003098,2.03032839086501,1.91786396242854,1.93863821912274,1.89532273194447,1.89607158841024,1.89616665946247,1.89785115990104,1.89767516574726,1.82500646599235,1.86498284173474,1.82681889108259,1.86680649260612,1.82978223856011,1.90592968161898,1.90994442584641,1.92087039981174,1.92898057483431,1.94956768508763,1.99145128930985,1.98776326127087,1.98574735490812,1.97888330973519,1.97945413613087,1.98474714751924,1.98171930383636,1.97765012915439,1.97323139038742,1.91880576571413,1.89319110385531,1.89234562410275,1.89289394835139,1.92135161886593,1.97848037052888,1.97671591622806,1.97974723941122,1.98059845935301,1.96127936299048,1.97484892939908,1.9793467797951,1.97771707909331,1.98068236602176,1.97838778262273,1.89172416884716,1.9687755674743,1.9700901290502,1.97366055532269,1.97704595209,1.96937326563933,1.96833759773283,1.95412336198522,1.88533563016994,1.9671729445003,1.97377757396771,1.96078054269596,1.96016572851453,1.95854068031619,1.97439456970205,1.96094053978061,1.88095190224048,1.96312589369812,1.97186519377658,1.95947711531454,1.9610863014673,1.92847852521455,1.9620043635372,1.96153462238634,1.96484574281773,1.96560615259151,1.95979262099876,1.96028539431232,1.96136790535574,1.96097880808785,1.87475705364097,1.95666134735227,1.95657320201522,1.95597775310648,1.96550613925423,1.96226655574718,1.96393547925503,1.95154703501073,1.9482650313757,1.94803643539042,1.94755092406734,1.94352042149299,1.94879576075831,1.90500420501102,1.85840356791383,1.88713455033834,1.92854490394582,1.85740921187782,1.8576532764086,1.85684581382759,1.94223557726212,1.89524691113894,1.95801665090731,1.92516367777651,1.84591170128216,1.81980482813936,1.79002188684765,1.7900156019275,1.78892105639262,1.78859658183931,1.78815683836119,1.78794868232452,1.78508139756984,1.78441571206661,1.78023456447741,1.78200174189553,1.89074289665023,1.78057417105852,1.77908924950248,1.77858309188368,1.77780194973583,1.77638183751522,1.77513975081758,1.77539763071594,1.77482171694537,1.7750306138601,1.8758882934353,1.84109004406872,1.87306932587682,1.82125120035111
1.92366380684135,1.805583085215,1.80423656430042,1.80367593930571,1.80378591140956,1.8375089108759,1.87865760379815,1.85698730635057,1.91781419715644,1.84554417619351,1.87158894380357,1.84543205893132,1.98274504226006,1.9341908416411,1.94853909215256,1.94694859691656,1.94386234126493,1.94752312413433,1.86712377320621,1.95675414687952,2.02491194021902,1.97863801211741,2.02287485133098,2.01867429412095,2.02422447719543,1.9304728968123,1.85270109268203,1.93619319325401,1.94763486015668,1.92360055209726,1.92143324154531,1.91818200912137,1.91911051697426,1.92653127681291,2.02844883900557,1.93052569487857,2.02887396773563,1.92400724060154,1.91091694415249,1.90942644864307,1.94563004125901,1.9054194530108,1.9060763643845,1.90443258210334,1.90437489504906,1.90184749715183,1.90136232196054,1.90002459909553,1.89980107763064,1.89840953257174,1.94172094606255,1.89592316137928,1.89573193052946,1.8952160696737,1.89458988934769,1.90914138938899,1.93878844786513,1.89531725010874,1.89512637167037,1.89583557486029,1.89558169811625,1.89663139929287,1.8976753314785,1.89831198152204,1.89817361970159,1.89738403317563,1.9034149437502,1.90332838600683,1.83377131604186,1.91867935474917,1.91525913267302,1.95574176343087,1.98545796151839,1.98782928708565,1.98580142189484,1.98290156665484,1.98538574562474,1.98288979822906,1.98048213581367,1.92312413803115,1.89413344161185,1.89293324644101,1.8926351846397,1.89231600219868,1.89214692693946,1.89142656324685,1.89153657175843,1.93062166431933,1.96359470786195,1.98364418507286,1.98984394991661,1.9760147781827,1.97753272338187,1.97905311501382,1.97973773839979,1.9788347816183,1.89024099089063,1.97209081081716,1.9752816690709,1.97425682289404,1.97028922399255,1.96939888677149,1.97753969258108,1.95331719850822,1.88511258671572,1.96719726107356,1.96025370828212,1.96014225189187,1.96043275632995,1.95878403156444,1.8844712698723,1.95965483888949,1.96060666480061,1.96424367484999,1.96751378261313,1.9240288624543,1.87944619707672,1.91126558614972,1.96145089857355,1.96178867166228,1.96454198462643,1.96460522333859,1.95871047310078,1.96051511588872,1.87533242865226,1.96065037242807,1.9750335598482,1.95438295490444,1.95457681105739,1.95443040638199,1.96128884571903,1.96019801188233,1.9455524530957,1.95243748557323,1.95385490334198,1.95222403766285,1.95495998785174,1.94058877715798,1.861360451435,1.90972849720769,1.93546636169067,1.90277558627522,1.85751953521635,1.85703171154187,1.85637069651297,1.85649463745548,1.94391055204843,1.87586114702174,1.79801029095713,1.92576301982565,1.97488038850237,1.82821835234204,1.78992669031425,1.78893072931742,1.78810456311678,1.81996935616077,1.83583925943745,1.84502456883186,1.87751552130117,1.81325568096852,1.82903786760373,1.78110139079809,1.77865044091301,1.77774684617096,1.77741883040568,1.77752642919197,1.82152929965531,1.77523385635703,1.77401576865196,1.77531053019772,1.87820935440382,1.77401305882674,1.77146136861244,1.76968341243837,1.76907524305687,1.81179656699395
2.08884382681573,1.80548224270351,1.80410738433564,1.80329873047819,1.80362834859485,1.80364476205534,1.80514387845018,1.83534976106416,1.85552767424523,1.83402062175709,1.80890780370914,1.81304640748413,1.81324478571721,1.93384870332878,1.94264695975968,1.94745787350374,1.94997347930357,1.94729640961644,2.02423902642242,1.96464792990859,2.01925079898924,1.96504934316779,1.94516142280371,1.93833602135516,1.93377979342401,1.93545333482092,1.94415302084428,1.93917573543538,1.92739663345923,1.92278964869697,1.92385692632475,1.91831983767837,1.91777466333873,1.88933022285067,1.84099053757829,1.92716478343994,2.02861824639421,1.93107556204274,1.94523169367185,1.90671684238374,1.90555417815774,1.90530068317668,1.90409661724068,1.90423592999317,1.90172933984867,1.90194493629926,1.89752452683571,1.89901433112034,1.89785799493528,1.8973661114747,1.8961404953746,1.89567831688244,1.89527186748525,1.89532556151252,1.8956822889412,1.89613386099188,1.82008703403023,1.89355710328153,1.89439440391479,1.89486334704873,1.89482165079162,1.89521829134947,1.93373867871066,1.91016804689224,2.02788305553767,1.89812022431893,1.82966698675789,1.90299560544958,2.01144656631782,1.93971007513574,2.01232880494573,1.96008057054782,1.99472331325529,1.94072068330712,1.8981536233706,1.98312345467806,1.98347885859892,1.97866665584168,1.89500343113757,1.89299952865535,1.89284143328836,1.89286943113969,1.89344439053464,1.89297107595959,1.89290949620629,1.89121107780008,1.89112901636188,1.91891720216275,1.9849814525547,1.98572153441768,1.99001980981514,1.97613724952007,1.97826116782928,1.97795102664507,1.88990855104238,1.97903206975736,1.98304437138175,1.97467261813787,1.97646048524401,1.97624705232037,1.9758227752867,1.96794286027238,1.88614078640515,1.95330507936456,1.97986817716907,1.96547232745001,1.96937534980511,1.96905650320075,1.97552899399011,1.96803376134425,1.97292793334605,1.96271620108814,1.87955182883529,1.96303313690509,1.96968228855079,1.91322593269282,1.87828121968291,1.87583293164667,1.87654310834367,1.95983906800162,1.95969809325985,1.96004566255248,1.96753427311695,1.96383929103724,1.96142529860265,1.9598204909749,1.87246515322279,1.94980181583696,1.94872365324152,1.95376096787668,1.95336519188177,1.9593220508095,1.96216440450857,1.95601207847313,1.95564290705372,1.94649102126885,1.93378319378125,1.93845016455611,1.97447783138248,1.9327286871863,1.93320673966857,1.93315948135687,1.93497580226702,1.85675977250239,1.85507900582583,1.85376568589664,1.85431906867002,1.85575912074977,1.79788882331957,1.92481112024312,1.98228595035439,1.83554039069833,1.79091237934015,1.81768883301386,1.89075709047975,1.85513631076946,1.83545629494498,1.85250001844101,1.88655426593864,1.80471059771158,1.77785091692406,1.77837585357236,1.77969194100973,1.77789590693817,1.77659176474308,1.77734172400966,1.82077119798261,1.77462261323283,1.77281584617694,1.77058113358845,1.77012021233471,1.76936550565785,1.76914263887223,1.76757710678203,1.76830757531683,1.80331402907669
1.80299821412866,1.80286017500731,1.80173319791822,1.80211885309791,1.80303381045969,1.80324390878402,1.80467176858041,1.80908966831502,1.80794981135933,1.80761258950076,1.80817022773071,1.81168060870115,1.89220807986574,1.93359102911096,2.03352171111601,1.94779290624407,1.94724759289057,1.94551174596853,1.93780942921961,1.93827377916883,1.93465377177851,1.94091300069991,1.93825344842256,1.93513241358717,1.93135280632167,1.93131250434833,1.92804233425892,1.94156066041083,1.94740653549563,1.92237077829882,1.9208302951057,1.91798921337354,1.84168384869198,1.87355460470152,1.84040906649503,1.91376145886213,1.91276058852363,1.92662586072804,1.94330267905541,1.9070066095972,1.90489869058315,1.90480810234483,1.9054272293295,1.9024444561718,1.90176359463624,1.90049145916948,1.89915744169989,1.89808254639596,1.89719326150974,1.89627122149782,1.89549869018945,1.89519705530704,1.89441579441096,1.89463960045544,1.89221338951155,1.89367364282606,1.81943494460562,1.89362247524521,2.01386313299425,1.9099960022782,1.93187884278038,1.89559984978313,1.89632741918811,1.89709038778687,1.8986358464173,1.89832188515772,1.90399704770053,1.90372096860083,1.91240101365892,1.91454061128803,1.91169210613088,1.93342179141035,1.89978804498074,1.92825286977272,1.8986665730286,1.98393853477129,1.99441726677995,1.97394589312512,1.89438629091891,1.89226412100902,1.89226172063171,1.89229712779731,1.8929897941248,1.89285886278473,1.8907914146626,1.88986430506921,1.88974495400593,1.90962109698011,1.88902011701676,1.98253880613531,1.98387205440408,1.97529040116198,1.97539249782869,1.97640907448814,1.88898795402207,1.97743113018581,1.98430202970836,1.97291203840048,1.88777007474301,1.96925477721321,1.96830471151627,1.96852910271859,1.96731611167108,1.95410407232162,1.88399418757832,1.92466297001555,1.97528296291661,1.96932748484605,1.97068353289216,1.96603705034534,1.95741426167074,1.96859983154216,1.9759546260823,1.961483976598,1.8780581416825,1.90233304563635,1.87751457715057,1.87568400386671,1.87582260371783,1.95854106331202,1.95862096308536,1.95784222307669,1.8711993323789,1.96157046320248,1.96797570708479,1.9597342141466,1.95852173275607,1.95906174396547,1.97480092709533,1.95464774228983,1.94852307405308,1.95698990303928,1.95738165455868,1.95524659130823,1.93510663789832,1.94174393023584,1.93397118272203,1.93597165513991,1.93374617025099,1.93198228475674,1.92953426918943,1.93000378430177,1.92988335071943,1.85707337961437,1.85395302926007,1.85333510077146,1.85469649140105,1.8547027233581,1.95072551779725,1.92298885392939,1.95438872601311,1.8420513190316,1.78990651990989,1.83203168855442,1.88234781136695,1.88154660143452,1.88640928951882,1.86527003744278,1.88462422537841,1.79777446534256,1.77630951154197,1.77401448024866,1.7735204663291,1.77327073946706,1.77358245769263,1.77406648684747,1.7719309513483,1.76920912714179,1.76716385635967,1.76907894467799,1.84196085425736,1.76782840105241,1.76551041782266,1.76535471956848,1.87298304948853,1.79408115154534
1.80237051464741,1.8028544973329,1.91086177318655,1.80157856987686,1.8029883764831,1.80264796681708,1.8038449063883,1.80850982642665,1.80776084327607,1.80741638936042,1.80695750382767,1.81216636540007,1.81110769941209,1.93368520503326,1.9419053474555,1.94802073942776,1.94735840878897,1.94565028560093,1.93684706308654,1.94012983731484,2.02104569817137,1.94218453833772,1.94490966945917,1.93193482377287,1.93059955503027,1.93177072447818,1.94504217930497,1.94346769497523,1.94302272832206,1.92165533905029,1.91931250540409,1.91754765429347,1.91587266016142,1.91459200974195,1.94408667022194,1.91321269542839,1.91205184322436,1.91390173242144,1.9087874926089,1.9089373545128,1.90528687654581,1.90442334230055,1.90183672849875,1.90236521056226,1.90081547432381,1.90063658075717,1.82227344349317,1.89797217838273,1.89722732188957,1.89622126983962,1.93932178226805,1.91186903093631,1.9375857917789,1.8942095836783,1.8930773519821,1.89244320289403,1.9345671255362,1.89353896424412,1.89439771032106,1.86821738631913,1.81859509107205,1.89415919871468,1.89505125956452,1.89508394548858,1.82443109232637,1.89746990216814,1.92777194265675,1.90614663887014,1.90829034045074,1.91438523817279,1.92818521398156,1.94610727646457,1.9859259063556,1.9926122607776,1.99030428742004,1.98544733722534,1.9809595747908,1.9772170580182,1.97726429269675,1.89109487304117,1.89081606372606,1.89066023812789,1.88932702493105,1.88760969316162,1.88786838652134,1.88820795048786,1.8892533165963,1.91910908180385,1.96187072717876,1.97239660443699,1.97910242284407,1.97395282894324,1.97341725370763,1.97330701734108,1.9732075867773,1.97154670884647,1.97163429424822,1.97073292598295,1.97213844934934,1.96924888042963,1.96993299735583,1.97083551120308,1.97135580954294,1.95490819407285,1.88333823265704,1.91224612098906,1.88181642754763,1.95706819323911,1.95909370974795,1.96509533109274,1.96910133003028,1.96860127693163,1.95874197885163,1.95999929112186,1.96120857661854,1.95324468972484,1.95123460082539,1.95234942294353,1.95957059398359,1.95629462959113,1.96331277365727,1.96031868452536,1.96667484342046,1.96228786484538,1.87151578594056,1.95833493439802,1.95760126908562,1.95850890257283,1.95688526378035,1.95488594322307,1.96211953762222,1.95591962778814,1.95575142715459,1.95442868773128,1.96825349542265,1.94724461705652,1.94434412185883,1.93934942431069,1.93848872086468,1.93315115004096,1.9329832983777,1.93018246225992,1.92927022336807,1.85631679822312,1.85291188595593,1.85229769609225,1.85143851224864,1.85265785933295,1.98819190683233,1.88859517108035,1.87914869440957,1.85203256660946,1.87808831422757,1.84789203483289,1.87826067497114,1.88112587953428,1.88000060561017,1.8135118305784,1.77795901529134,1.77673091772126,1.77461626826359,1.77372776684539,1.77113896793693,1.77096799027412,1.77180718395691,1.76940735874954,1.76772942530289,1.76839569685385,1.82368254168474,1.76652568961063,1.76486238473312,1.76663597088809,1.76564962853475,1.76492925042776,1.76232432964111,1.78388998663712
1.80175943797588,1.80214818200439,1.80176545733972,1.80130958414601,1.80224651312982,1.8018663895514,1.80192048024906,1.83666533161002,1.91969256481548,1.91995249450273,1.97702967027929,1.87158474806851,1.97835302822115,1.93392642933275,1.94785242898083,1.94875824353821,1.9470989289857,1.94704309448928,1.94814212063142,1.94652896699901,2.02127584737865,1.94004238626389,1.93020722603525,1.92962846118379,1.92944737707512,1.93068313409917,1.94146144125898,1.93303693282134,1.92081550184671,1.92182699955523,1.94172017869337,1.9149375872921,1.91489800978338,1.91388700136369,1.91294722923536,1.91346115860215,1.91165514317442,1.91884170865863,1.94065476663912,1.92175924539264,1.9045422819759,1.90218590997087,1.82877421025883,1.85707804815278,1.82573651714588,1.89858080499223,1.89815469632052,1.89704351217516,1.89607828714629,1.89482149544197,1.8937771428907,1.89389455689444,1.82081583186134,1.89491253607276,1.89418893127276,1.89150950039436,2.01789074412164,1.89232223069726,1.81794935238636,1.85175385883178,1.81934480671623,1.89327564605279,1.93149746060688,1.89550353752512,1.89437951239263,1.89639261326591,1.92630512140358,1.90624483004921,1.90545662482882,1.91657409301718,2.03025167446259,1.99756729195374,1.99114197910792,1.99239370304122,1.97531478712917,1.98658917642234,1.98784208225568,1.97694757519871,1.89158351787995,1.89095252736213,1.89160563203245,1.89010558861058,1.888899979075,1.88770144656155,1.88759372233611,1.88697129437596,1.99401276386643,1.93487791593551,1.97953645528839,1.97361284119401,1.88681111668192,1.97202010259133,1.97390652122473,1.97281090918577,1.97863564478445,1.96698508223256,1.95532155281739,1.96835508593049,1.97100637288897,1.96497473574667,1.96328682966603,1.96420069252353,1.97236061498695,1.9644000696893,1.95314695155772,1.95863246929686,1.95357962400998,1.9537991436943,1.95905204455146,1.96159162487327,1.96441054307028,1.96653185958534,1.96843313497712,1.95831751961607,1.94792078087233,1.9531361353931,1.95038618706071,1.95304977884261,1.96460160861096,1.95358808290821,1.94611830961552,1.9565635624398,1.96369011501111,1.96319925147229,1.96732692524366,1.95355562396027,1.95388602816386,1.95269044630875,1.95117682429545,1.95438061736056,1.95745110502117,1.95501487628149,1.95456636481708,1.95421880134379,1.95478001825223,1.94871913007412,1.95006668696806,1.94065815258327,1.93982368385008,1.9323173001765,1.93091390581994,1.93070783215018,1.93003156568717,1.85546672314793,1.85153917047757,1.8511556281803,1.85117515862686,1.8510934939117,1.93471096879075,1.83237839738385,1.78969718853597,1.82817737555211,1.88397752628699,1.82305575503726,1.78114523721231,1.77874536853835,1.77878236296378,1.77653006473066,1.77178924455375,1.77219867745202,1.77307252657199,1.77185758935672,1.77064356550545,1.77009342142897,1.76738909700964,1.76622838598007,1.76396008413903,1.76250332113885,1.76250571787547,1.76316331877934,1.80963020088927,1.78905310828021,1.75975075762544,1.79440875289751,1.96198366585342,1.83208148046209
1.80206164950518,1.82087859036093,1.84872177194462,1.85719790719089,1.92921617246706,1.87155290800753,1.88227169909844,1.86037173538807,1.85362822180314,1.91767778798622,1.91410866893231,1.86222841251547,1.81167865894579,1.91602894519276,1.94544740751547,1.94718642793423,1.94742485547834,1.94952979805898,2.02050869135444,1.94683719623412,1.9450945665065,1.9398672066355,1.92975830952911,1.92900366389509,1.92884733805719,1.9280015643208,1.9269716561845,1.92468415446544,1.92136465323909,1.92160311903503,2.02049910180413,1.91338132077605,1.9135932949397,1.9125828233393,1.91310064664213,1.91428728414184,1.91109563171306,1.92517200713119,1.93974816601471,1.94029109414555,1.93763776235494,1.90095345172068,1.82781813585673,1.86821190926381,2.01450563286457,1.89648149702847,1.89697061253417,1.89636285563101,1.8961192994031,1.89431994720445,1.89358190659706,1.89311668937706,1.93741295956206,1.91110821287523,1.93563927648256,1.88944148363043,1.88801107993495,1.88854511329874,1.88912131730894,1.89012405327089,1.89156045762601,1.89200911990811,1.8926639405954,1.89627376683993,1.89715119858496,1.89732484034052,1.89942838676882,1.90144944360769,1.90349962218586,1.91975942471482,1.9223499364164,2.00076133494791,1.99714648784466,1.99009803988133,1.89479985239854,1.98683063971931,1.98911209743149,1.97916611222384,1.97249451771632,1.89039891813178,1.88980025283899,1.88986550632432,1.88774077811088,1.88787578901396,1.88588768524622,1.88605388718286,1.88502062088575,1.92257461276785,1.96241158443368,1.97565158101941,1.9809748418098,1.97242894391681,1.97153739787282,1.97223236602935,1.96753407497996,1.96699284415837,1.96151071941998,1.96750917268445,1.97533345874648,1.92619645428117,1.88325657723506,1.95699672695482,1.97295871765576,1.96464529263193,1.95624816534982,1.95801988475824,1.95312386773224,1.95227680081383,1.95094873007659,1.950345869413,1.95025325667371,1.95058861163649,1.87547628113645,1.95390523162307,1.95403098409269,1.95726247492574,1.95625636021934,1.95282368708669,1.87249391969742,1.95587369336065,1.95689419733866,1.95719657235306,1.95998692580338,1.95581727607062,1.86770873395368,1.94873149308359,1.95218672837555,1.95253342220993,1.95085941203103,1.95101782015818,1.94717043792617,1.94665856714893,1.94665070158981,1.94851098834362,1.94912089780983,1.94965725415542,1.95438317478531,1.94195455721163,1.94410048040708,1.93179266450902,1.93103542074135,1.8883456201299,1.85400365687196,1.85320375753163,1.85191205141042,1.85103178651207,1.93530553690965,1.85006972517971,1.79207883730044,1.81192305958811,1.78862713534917,1.80974170599386,1.78235571989673,1.80283664737153,1.78060017151884,1.77845297649039,1.77513170976238,1.7749731192178,1.77254063421674,1.77259092810219,1.7717012682292,1.77201909283994,1.76903993083763,1.77021841228093,1.9802421696309,1.76501121622578,1.76311951119058,1.76251021100025,1.76167002355493,1.76076185151886,1.75861123793976,1.80059235096641,1.96595373967898,1.80820727984693,1.755990471775,1.82292036453817
1.81597080321189,1.82544497480211,1.85688356775697,1.86229155184729,1.87421332263803,1.8704644134497,1.86831123230712,1.86494968528219,1.86977533170891,1.91609007991192,1.91452954496425,1.85069680097184,1.84085033221744,1.91624780153808,1.9462107867011,1.944974418406,1.94107735678339,1.93808984851272,1.9375729492544,1.93844758650044,1.93973319744352,1.93983778491558,1.93763424329802,1.92654997591384,1.92640970439677,1.92579700034826,1.92477921195634,1.92315892987534,1.92217089626163,1.92178492903704,1.92218574703985,1.91334761485657,1.9119466791101,1.91024414853759,1.92255181577148,1.92630813655382,1.92783017386782,1.93206189070786,1.93689243297068,1.93855294649399,1.91164422134304,1.90111317956842,1.89736960875724,1.8967466973265,1.89563050411965,1.89494971056589,1.89505114477394,1.89490267198833,1.89446307544975,1.89299636980939,1.89235484769349,1.89163451201556,1.89126722018088,1.89043102274824,1.88980392939757,1.88762470567017,1.88685906959687,1.88625335058058,1.88818591903208,1.89077767586836,1.89306156936651,1.8926946603826,1.89235332206377,1.89475483047462,1.89605514879955,1.89628031732223,1.89734277215689,1.90005694103581,1.91813323216598,1.93332170809985,1.93901354597532,1.99952453663274,1.99399233365295,1.98832288272721,1.98713846925446,1.98906786771937,1.98593562786443,1.95278583554319,1.91131247539197,1.88973765843396,1.88968416626793,1.88924765898709,1.88857451672429,1.88758950921878,1.88668025967306,1.88559759844177,1.88499302405597,1.91453384918426,1.96790329913586,1.96074127546659,1.96540721458377,1.96878869266132,1.97129975919842,1.97006507280887,1.96858016728847,1.96768864820808,1.9703349919647,1.97153497437872,1.97504458435594,1.91729602579852,1.90656621443474,1.95763169540167,1.97010189004962,1.96641847472037,1.962791812038,1.95842879524538,1.95779967663337,1.95726620916839,1.94979236438243,1.95024402534884,1.94999233687722,1.95128882800495,1.95209067553041,1.95782703809205,1.95696962447147,1.95931158978585,1.95372629558077,1.95269655154187,1.95571851226932,1.95705780812182,1.95765829637632,1.95762543125275,1.95735210493579,1.95587712064195,1.95114702336575,1.94824699589348,1.94978203420119,1.95337947277529,1.95272053650314,1.95085388604574,1.9454981672363,1.94638144079603,1.94277423597804,1.94409946281021,1.94268596081517,1.94072361105609,1.93872315179685,1.93835681252254,1.89754826227507,1.88783344283392,1.87901452494517,1.86955910807325,1.85271790219249,1.8525981704199,1.85160581437771,1.8506981582444,1.85028838970908,1.84993719400562,1.83106015043491,1.82802041548427,1.82126507531533,1.81497984631065,1.80936255255814,1.80491730355923,1.80272968180338,1.77692657404632,1.77499260260215,1.7743644767569,1.77448005667086,1.77230721115596,1.77233309008826,1.77183911738493,1.77015314143453,1.76988441612006,1.80757837778192,1.76435001027882,1.7637524263202,1.76304804581346,1.78630722547117,1.79630750493324,1.80588798438423,1.81670602866263,1.83862508382537,1.8280348029143,1.8220622150233,1.81452471624579
1.79904141344903,1.83263505049202,1.89513303525156,1.87050076414257,1.92725031465488,1.83891176031722,1.80167076942091,1.83291596727814,1.90873411846102,1.91284702187726,1.91156185352078,1.84293640267958,1.81021553915273,1.91610085961092,1.94810340362181,1.94426960808502,1.94076369276034,1.94085771608896,1.93753440987219,1.93915642359809,1.8582917962356,1.93942346685619,1.94533718759299,1.92507317881563,1.9265583187295,1.92505575929998,1.92399517100637,1.92316372325708,1.92194795205526,1.92145804303143,1.92157764305259,1.91355940900373,1.84233478816102,1.90946205276951,1.93809333542149,1.92884580927045,1.93909841854271,1.9372493543128,1.93853087248014,1.93810707240773,1.82849706473399,1.90106232329984,1.89897932542812,1.89776977275648,1.8951656635431,1.89441689036682,1.89370961662997,1.89468930778917,1.89416239659449,1.89240605331411,1.93528634180895,1.89112026514523,1.89156279017071,1.89102165187175,1.8898691916233,1.88910247900134,1.81652125271987,1.8465661097441,1.81571701588503,1.88939288956675,1.92976765843398,1.91991691515297,2.0218243133966,1.9050499942831,1.81981852208037,1.85852201635319,1.82599528637271,1.89948013702154,2.01425630455669,1.94130412289764,2.02184322910493,1.9947697942111,1.99661692883565,1.98853420602196,1.9872521274608,1.99378149001645,1.99508545030132,1.95217246858872,1.88771572164133,1.88865339450238,1.88698398725442,1.88849463405658,1.88643982904197,1.88730521841185,1.8850600927064,1.88532762203961,1.8841038479382,1.90613084421576,1.96088235859303,1.9633227887294,1.96695991296493,1.96785239749718,1.97005646264469,1.970789041991,1.97628978510274,1.96973850915614,1.97140154836158,1.97402129270581,1.97357535652689,1.90909254672928,1.88160050796105,1.95800540198124,1.96963872381393,1.96610726162053,1.97718126744569,1.96257671824658,1.96375392281594,1.96093508012916,1.9513935341456,1.9499627102944,1.95095592475945,1.94873027854226,1.97006264388314,1.96435421066673,1.87400882991169,1.9649228226069,1.9785639426447,1.96049100839112,1.95543382154192,1.95724296757311,1.95609686681636,1.95709963096996,1.95751724475659,1.95728897899435,1.95535968087393,1.95142132244138,1.86768955570305,1.95612641862928,1.95515128604994,1.94667980782568,1.94395254109052,1.94426721233316,1.86009604790367,1.8910939329618,1.85828329037625,1.93834798092059,1.93301541798748,1.93893209027609,1.85512497043706,1.85362755423779,1.85420180335288,1.85273344574638,1.85224245431105,1.8516019403375,1.85154216991383,1.85030171370619,1.85018014574874,1.84948101318114,1.83639170382559,1.83105928959481,1.97400896193375,1.836326323474,1.87929297358809,1.83153328185534,1.87999460101857,1.77655214029315,1.77402601519404,1.7735568900141,1.96677844100507,1.77170001067408,1.76978820327462,1.77094777828308,1.76863338443905,1.76905007113089,1.9680346720948,1.76233095089153,1.75973470751125,1.76230115215461,1.85321898631343,1.81183989123996,1.87449819843645,1.83038432759402,1.87156434309872,1.87028014300049,1.94854089365654,1.80801712632559
1.84753471861198,1.84000429699234,1.85732947633108,1.84313305618573,1.8017734691883,1.82655429194088,1.8017594093127,1.80231923673635,1.80259740083366,1.80320927571211,1.80519542349278,1.83311472446893,1.80857582449589,1.91567414887585,1.9468640335407,1.94290786530695,1.93786426612423,1.93854200133782,1.93775083429731,1.93798208611267,1.93946248965408,1.93916186203032,1.94134043770617,1.92574954749218,1.92722647069851,1.92543067987415,1.92468571988383,1.92400846099199,1.92059579963691,1.92004037017905,1.91853292139262,1.91571549106532,1.91224249677934,1.9107074043524,2.01222331989239,1.9156166650694,1.90352813253541,1.9036416808545,1.82973411328812,1.9389065977338,2.02115119122476,1.9009175749374,1.89960217519778,1.89924452011513,1.90036905309066,1.8941713688645,1.89536580243405,1.89481665469389,1.81919840227389,1.89148141722379,2.01721947560041,1.89113027303509,1.89141591475566,1.89145965673396,2.01141779766691,1.88809626242409,1.88751400803735,1.86186229314851,1.81540506364966,1.88917748157662,1.88845624901216,1.91715959362435,2.01762995661274,1.90717958034558,1.89656334773879,1.89555215982623,1.90084797811957,1.90014430596512,1.92421152158568,1.93406148922563,2.02100574171178,1.9897553275074,1.98705801865809,1.98514839473845,1.89194152535972,1.97832968315754,1.97748683848952,1.95147179496233,1.88873843119748,1.887857534222,1.88899163307939,1.88680927606664,1.88843890637608,1.88551695541432,1.88683464382493,1.88413110169313,1.8834750559446,1.89889362396785,1.88461619045076,1.96281303643126,1.96495758856382,1.96500850062668,1.97013939277769,1.97050023832816,1.9689814776796,1.97122466705454,1.96920587832863,1.97320138929096,1.88116627087659,1.89930234831144,1.88088656082234,1.95760838527035,1.97800383929886,1.96275180150127,1.87887097149179,1.96466993381546,1.96284467871083,1.96411442763486,1.97088807886683,1.96085580963499,1.94952043509387,1.9490065256027,1.96007031372729,1.96595058980313,1.87228326685207,1.9682979093245,1.96417677723485,1.95916348529112,1.8701157122584,1.9566984130242,1.95717768886966,1.95735578299589,1.94872677443333,1.95716590545616,1.95924318057769,1.95516950223789,1.95397488569999,1.95503796403786,1.9466768791774,1.94692893592239,1.93309600092398,1.94188586355493,1.9443684334138,1.94410531034712,1.94493542875506,1.94344514411311,1.95515408618526,1.94426411257395,1.85532923691734,1.8531499241864,1.8525436698808,1.85209837627802,1.85031305636955,1.85067451263671,1.8498452626827,1.8490970118571,1.84846235988766,1.84801044292529,1.78840590155318,1.78667942789954,1.78542368355903,1.78408180719058,1.77640856445438,1.81207648007462,1.88153532210063,1.77568964567126,1.77314159386525,1.77285229129175,1.76842786889364,1.77028051448874,1.76602751202047,1.76375605661155,1.76066830689791,1.76111557680718,1.76014137707839,1.76009510556807,1.75814897900326,1.75756055958962,1.75692732511312,1.753248940541,1.75154347412601,1.75053067448573,1.75197505582184,1.86930010513538,1.96242913238573,1.79725715371736
1.84900067564286,1.82503094954149,1.79902589491545,1.83277542367999,1.98497940748072,1.83836889894339,1.8015901787004,1.80228692112003,1.80178985394542,1.80177829782294,1.97624332715442,1.85616042906749,1.95751493541208,1.92356677497149,1.94154157293101,1.94330172590003,1.94196919115406,1.9423373403435,1.94153586255438,1.93587375655551,1.93217484838584,1.93160510815592,1.92810562224385,1.92747994762659,1.92605804657137,1.92609776288416,1.92221142508436,1.92338984817647,1.92176768832784,1.91966301696995,1.91755171069667,1.91746524025648,1.91153882487884,1.9111295122165,1.91075947998621,1.90820303783525,1.90853388514913,1.90437396669815,2.02786387643707,1.94054594852253,1.90090539278502,1.90165801487759,1.8991724248269,1.89797012551744,1.89786921683065,1.89411648004466,1.89349395985391,1.89443708601607,1.81836730802405,1.89235426019863,1.89383046774632,1.89073697757283,1.81571568225273,1.84567881213652,1.81467937393767,1.88773400529048,1.88738837369175,1.88689957081183,1.92895725460887,1.88943161883583,1.89013421494134,1.91451359332165,1.92561852288544,1.9114469280891,1.92559634223167,1.89614364841031,1.89635230073661,1.89729887915848,1.8271832932674,1.90611471305811,1.90516700338403,1.9326767963451,2.00381543559118,1.98073974068595,1.97941299827643,1.97885965356088,1.98757860273555,1.95115207875357,1.88811759653048,1.88722604529415,1.88504882502666,1.88683677423204,1.88377939711411,1.88638784181037,1.88299569814054,1.8842952761982,1.88259744719641,1.90814724010687,1.97410096766623,1.96103851722153,1.96196919805966,1.96313391442501,1.96856878959774,1.97072274347161,1.97562656063918,1.97420431720312,1.97434084155781,1.97265891461724,1.97065241992563,1.91068249430667,1.87902140762678,1.95700100364543,1.97412762593132,1.96396659300934,1.96421779924959,1.96493026931217,1.96726871536634,1.96426025270726,1.96750160731601,1.96610838303227,1.96796607484357,1.95106196279025,1.87369261563571,1.96369779652496,1.97158106568163,1.97012392645556,1.97804703480798,1.97756254238063,1.98027882382941,1.96129294447909,1.96436199099178,1.95793920066992,1.95866944051156,1.95647765245259,1.95387326639024,1.95636937030095,1.9547026295565,1.95216005417554,1.95840641887944,1.94882475145199,1.94864532128755,1.94754941252262,1.94843020605455,1.9448521434005,1.94501399209825,1.94332923368709,1.96455428273574,1.94763019031943,1.94581568404206,1.85182013851528,1.85236787600756,1.85052263383474,1.84979841189781,1.84899772607067,1.84920285761814,1.8475695743981,1.93776046178729,1.84597610945917,1.78662035889681,1.78585561119935,1.78043792656563,1.78183338562298,1.77580816970841,1.77384682328668,1.77391017842749,1.7744251910652,1.77158035161136,1.80801271862238,1.87594213840658,1.78646075940054,1.76220650925544,1.76240882053235,1.76049152453194,1.76003007392921,1.75879737730956,1.75871815875368,1.94993919067248,1.75548165834353,1.75483900699721,1.75167128566189,1.74934959442529,1.74965768005229,1.86831426857801,1.86915064485011,1.95176463823352,1.79624664537268
1.79780956823159,1.7975064408832,1.79878045333436,1.82379048971776,1.90910686948095,1.85347608657736,1.98379030324312,1.80261109507927,1.8017645796421,1.80153380413838,1.80219226592174,1.83925021665448,1.85454170103877,1.92474750635051,1.94318396316398,1.942358738752,1.93298710648074,1.94140194724075,2.02373078025634,1.93635598514993,1.93355060421677,1.93407834854507,1.85425809150639,1.92506964865975,1.92509302933101,1.92490941234421,1.93743026787758,1.93156164080627,1.93827530214058,1.91865201213547,1.91648924364441,1.91710466055368,1.91223267045715,1.91108949518711,1.90905046925082,1.90669601246202,1.83212351799551,1.90266690911023,1.9360407354814,1.94012775454857,1.93544714965075,1.91703523562311,1.933601405651,1.89608453344359,1.89710820002622,1.89429647176654,1.89354123629764,1.89275111445472,1.89077054933853,1.89085029830896,1.89127192841702,1.8906853193467,1.88785208608343,1.85768535135096,1.81447675183346,1.89632390557768,2.00608347849577,1.88684856491474,1.8878348721467,1.88603215902527,1.8130962438211,1.91146819248947,2.01447686421366,1.90443213777086,1.89369968229534,1.89436173513553,1.89555987506083,1.89546447311891,1.90042643903621,1.90585408546842,1.90490023703857,1.9106857062577,1.89305630753056,1.97926368733046,1.977824464407,1.9786029996516,1.98451545193239,1.95114844377124,1.88679434991135,1.88583538867427,1.88640874477316,1.88391379691806,1.88602171720458,1.88305024103458,1.88547643688229,1.88260954505638,1.88221937678902,1.91765109282706,1.96747143555384,1.95833918337441,1.88160399575407,1.96337864158297,1.97458331701997,1.96930022468537,1.97077913293783,1.9700544663889,1.96818076160737,1.96745348096535,1.87875589468196,1.92427943847569,1.96634741649628,1.96750592834112,1.96668365776925,1.9644797778614,1.96172504241495,1.96144564544889,1.95377855366903,1.96201643178738,1.98177365684054,1.964962714894,1.9607501605729,1.95205928538874,1.95193071002048,1.9592860505793,1.95717209552141,1.95361273766478,1.86916634689419,1.91653562728249,1.95561191182969,1.95747472705726,1.95493847901562,1.95455977051264,1.94594504716453,1.94737560830022,1.94445583423995,1.95041715397297,1.94938957051956,1.94985780296451,1.95160221501455,1.95120722519596,1.96833113156248,1.94459513314855,1.94561904644329,1.94561578379042,1.85767074521615,1.88222839059853,1.85474446412761,1.88342034711471,1.85266545711814,1.85189064311686,1.8506686149243,1.84978838100245,1.84786587265663,1.84758095390657,1.91910878644738,1.84588406745026,1.84522991013144,1.84477967415993,1.93930437938612,1.78438138182605,1.77995764619244,1.78167330653753,1.77241986903596,1.77279104520901,1.87625308614195,1.80557194042174,1.81538236285224,1.82564205605301,1.8752025320396,1.79449517652073,1.76229179721395,1.76221566763497,1.75946936221477,1.75889113817417,1.75355846259859,1.75606278876109,1.75246892990941,1.75184822796139,1.8633167827828,1.74940529430126,1.74851989086721,1.74855671975169,1.86538198836707,1.81424319885345,1.79197426052433,1.78985832026025
1.79844287718017,1.79693705997804,1.79679568343483,1.79557266482096,1.79615915091701,1.79877484166503,1.79988071178989,1.80204227305413,1.97905306539329,1.80121110718675,1.80118044456066,1.82736552424845,1.80302982319042,1.92546061147313,1.94405490742304,1.94229133721091,1.94165941561185,1.9382598820373,1.93163676878805,1.93672990957643,1.93810892933365,1.93707203530254,1.85206469443945,1.92507525716434,1.92481373632725,1.92405792284824,1.8465829534591,1.92827429142089,1.91736313916523,1.91867971394697,1.91512476962657,1.91605607711843,1.91091267205124,1.91205071650197,1.93552186154642,1.90336975957686,1.83189976152554,1.9023131317092,1.90327452191811,1.90306321566048,1.90403030492454,1.90387827210467,1.89897665429696,1.89544417028929,1.89620059406132,1.89452073173636,1.81834172784581,1.89141111650686,1.89019546564405,1.89053926881172,1.89135664831617,1.89081447250082,1.81253046038882,1.87301979117689,1.92889039210923,1.91134362048682,2.01552463839913,1.88628027738178,1.81221400554317,1.88537387694661,1.92717133613349,1.90721684927731,1.88950722814059,1.89103720882658,1.89189559435455,1.89316337705812,1.89442666163548,1.89373444294396,1.8994432289207,1.90521424362335,1.90300252102794,1.91264184543196,2.00079257593086,1.98117865276931,1.9843785899567,1.97940190561863,1.97328598612719,1.95117057311816,1.88676792461442,1.88564322184036,1.88481622878985,1.88391052651323,1.88090647663452,1.88396412425716,1.88075276007685,1.88259331765238,1.88200368395247,1.92706179746668,1.95148707317807,1.95871949032542,1.95217187750682,1.95644792656642,1.95674591399627,1.96495719079891,1.96763038904337,1.96964063710679,1.87877507807201,1.96487090898499,1.97486272063329,1.96080517697184,1.96693012158509,1.96861997358406,1.9656204291897,1.96509265498836,1.97096689728032,1.96249104645804,1.94676344209169,1.95799106132764,1.96490584209079,1.96273971537314,1.95940491061622,1.95394651148286,1.9551719993085,1.95612203300464,1.96478714800692,1.95328219257903,1.95411731380687,1.90416430758778,1.86461746844748,1.94801744617311,1.95389046120919,1.9550883619964,1.95848077843439,1.94872131512556,1.94857072655242,1.94987205644059,1.94856834998878,1.94833495024938,1.95364789644524,1.95277333707911,1.96151075443755,1.94298394988384,1.94251086103629,1.94532562142873,1.9447166068303,1.89287376362947,1.85354574504802,1.89904192999371,1.9324637282135,1.85213238510829,1.84949547677818,1.84837783884085,1.84731035965852,1.84604911210668,1.8457908019458,1.84493090381925,1.84576336046946,1.84405838048756,1.78251601900162,1.78222283704048,1.95072553379735,1.80299327834206,1.77119362105512,1.77101946279327,1.76921123464326,1.79695432992791,1.86099393357177,1.8353305503491,1.87500619829698,1.80471469367536,1.80468216238007,1.78406677752201,1.804978317702,1.78385519690231,1.86523469284346,1.77786698170573,1.79768676183336,1.74726108332297,1.74575729689923,1.7434019275807,1.74420161621231,1.74873220135455,1.74090551016258,1.77891125535497,1.79846521461892,1.79013186127217
1.79855837128713,1.79659759481974,1.79590571936419,1.79614742792946,1.79721408942164,1.79778166726455,1.79912049783927,1.80069695950911,1.7998052864761,1.80169541022819,1.80173872191696,1.83782529167759,1.85139601230404,1.9247093881609,1.93821522459952,1.93976985890823,1.93391342607042,1.93393168060609,2.017775669518,1.96755454563091,2.01425367511017,2.01142741954719,2.01218216245783,1.93606533701384,1.92429936045982,1.92751147245096,1.93528460093006,1.93286823371816,1.93789393283266,1.93312537131929,2.01721947560041,1.92157871579686,1.91194720763861,1.91314842874132,1.83551661221604,1.90165608840474,1.90328842110923,1.90196547197834,1.93399741296565,1.90173467934653,1.90139973222559,1.90309721713454,2.0177852590683,1.8954384938093,1.89444256903173,1.89379715411089,1.89141460124667,1.89093007418498,1.89020299624482,1.89043590003019,1.88985843462176,1.89127413137383,1.88534979188182,1.88665835083152,1.92842577971609,1.90066422244414,1.88515979925284,1.88537322702297,1.88409951408561,1.88508701313754,1.81147560967879,1.90262890982174,1.92523141718142,1.89092141028326,1.89024501652289,1.8920895743493,1.89290651495289,1.89159052924196,1.89794279152061,1.9064253356942,2.00593401916031,1.91728857134219,1.91801390783026,1.96727250470687,1.96108021529709,1.98110626632008,1.98214434440707,1.96916219320697,1.96816046876871,1.95466698444603,1.95531521843699,1.88154846242934,1.8828890419684,1.88160872659149,1.88252509108772,1.88077482633682,1.95447258221884,1.95229233187161,1.96791854146826,1.96081016018451,1.95785724766288,1.95719240054964,1.96073543542657,1.9634979423934,1.9697630123571,1.96912497429767,1.96738856949667,1.965051299212,1.8760612341476,1.9591196498928,1.95810022493458,1.96289478918538,1.96233470445227,1.96400785559613,1.96663405998879,1.96500087520737,1.97427787136512,1.95540394348258,1.95045771535381,1.95476438899927,1.95396149218499,1.95542674483677,1.95697214216162,1.95473555686936,1.96022900926933,1.95397346328507,1.86757649610652,1.89421751167969,1.86531554979206,1.94688202564482,1.94771456201744,1.95097897097878,1.9646588679906,1.94924372183464,1.94950034528591,1.95021172905671,1.94838097764204,1.94938394929068,1.94047741880688,1.94436964687231,1.94595252410463,1.91789499722312,1.85552013677638,1.8862773846368,1.85343089268909,1.90376733351179,1.95518740592824,1.93000556817502,1.93131945979943,1.85297779079414,1.85011187722987,1.84862692865096,1.91954990576133,1.84483860742563,1.84474658092862,1.84451140698746,1.92748046386216,1.84292910921751,1.77855743790135,1.77999767035029,1.82248882688705,1.80902354936121,1.87189941430416,1.7669653991479,1.76659639120313,1.76475822394063,1.76037551703164,1.80529921563838,1.80568966347537,1.80522494396442,1.75393596360001,1.77313926123584,1.75464363687159,1.7756942300668,1.74671283350021,1.76356402040716,1.74526900862752,1.74421291003731,1.7435529386103,1.74332894283648,1.78823209924508,1.7684266296535,1.84342804745372,1.76917303292429,1.73898707681445,1.73722812478244
1.98070246804545,1.7957041834209,1.79608325829182,1.79588896984832,1.79613302450499,1.79651554149961,1.79767701315385,1.82688224639552,1.89902185165269,1.85553350455718,1.97166911165975,1.85470043262357,1.97070056707912,1.92352212331588,1.94029630127753,1.94054785192097,2.01067940229356,1.93232091360044,1.93220266005588,1.95243766407982,2.01456439776027,2.01129430458005,2.01158163119881,1.9435274850699,2.01019033522809,1.93141431824488,1.93548372579236,1.93013375164935,1.91522950333828,1.93179024160225,1.93119283669029,1.93069205952066,1.93328747489819,1.93366197005608,1.93208793418213,1.90073696353318,1.9021774899872,1.90132501886309,1.90097821941626,1.90065822361107,1.90050671751677,1.89986383579607,1.82145833171178,1.89424631699868,1.89290153079016,1.89397349728816,1.92812967389459,1.90848813639916,1.93103536905117,1.89041189083607,1.8895240085176,1.89114158292081,1.92792956151199,1.88617990787117,1.88546212346199,1.88472565911716,1.8849467321707,1.88506579760039,1.80961523706998,1.88559844856294,2.0086621357632,1.89838006763314,1.88686010440872,1.88986587201588,1.92133830662521,1.89169645207147,1.81789101900446,1.89011303762006,1.89895422504419,1.90693898671744,2.01020805406172,1.91650351237661,1.91492625179311,1.963345519302,1.97071554994,1.98138595483671,1.98176312611667,1.97055938142615,1.97073302328784,1.95450987651061,1.88156744545154,1.88151225611447,1.87908052272675,1.88190912033422,1.87964636617791,1.87997173438658,1.9515879369944,1.950559140533,1.97583841422909,1.96319033985808,1.96673761613446,1.95518564990002,1.95089293026245,1.9530181477382,1.95811436472307,1.96271747568094,1.96312485808168,1.96343412087442,1.96088776186182,1.95982871589941,1.96381981104775,1.96375425907771,1.96837609636435,1.96177873766678,1.95594219251125,1.95533575493215,1.8713719455769,1.95322563423862,1.94285134369915,1.95565870662342,1.96442212131059,1.95582084745226,1.95158750077629,1.95326096537561,1.95106664876531,1.94915626295639,1.9481853307373,1.94864192859819,1.94816680385798,1.94735882608532,1.94632385678799,1.94773544679502,1.9481686528492,1.94899141528674,1.9514510572983,1.95067869164145,1.9545320053128,1.95232170270173,1.95874772788375,1.93936127479666,1.93797555935164,1.91642037772686,1.85484997998243,1.9013279712943,1.94352030067386,1.94540368040387,1.94406271089958,1.92837276536047,1.92833249793648,1.85322034331912,1.8490471408582,1.84778962996505,1.84625615546859,1.84497171275322,1.84430156582498,1.84294290156487,1.84256630959096,1.84266969805665,1.77495436042061,1.77780422656282,1.77186843309878,1.80331538271622,1.96370794520635,1.76627671976838,1.76544725609372,1.76483345342711,1.80807287022374,1.80657044397323,1.83932977007319,1.80482422796821,1.75248565195328,1.78228808567648,1.87500644460252,1.7865499121227,1.74254390415037,1.77459458636835,1.79176675725243,1.77173881521218,1.74171788780998,1.74384961113502,1.73704417825853,1.76143830077389,1.84204715221004,1.7587699216863,1.73362130294157,1.73369551032153
1.7954122666033,1.79562296302684,1.79547018949919,1.79569190915699,1.79469622369554,1.79613858983731,1.79609765403266,1.83887071182864,1.89881546619972,1.84062151730551,1.79981034726017,1.79990572797289,1.80089515972918,1.87278481566164,1.86104312915951,1.93152189022913,1.93150637886882,1.93149656913666,1.93381374438039,1.93512799652537,1.93503824058696,1.93337284857273,1.85094655490382,1.88714690434241,1.84576784133496,1.92182171272021,1.91885804619526,1.92564161878499,1.84146213329026,1.92852889958489,2.0212758553787,1.92988075847367,1.93277635667429,1.93420047846702,1.90435515982278,1.9015652342221,1.90235744601006,1.90133629237512,1.90093915139154,1.89982873612693,1.89838317354358,1.89838170527175,1.89712759670466,1.89574085581988,1.81823624278966,1.88853976982978,1.88899461922065,1.88936600590502,1.88937899018168,1.88970508310007,1.88523783806993,1.88469143802029,1.88608357825068,1.88620713291906,2.00658466431405,1.88408521859353,1.88355857529776,1.88347869304314,1.88771864556223,1.88626560038732,2.00521680358725,1.8954145490282,1.88646800472038,1.88918873986258,1.88936265348523,1.89055083126185,1.89041749681653,1.88999677351689,1.82128571972998,1.90839537411554,1.91576573885626,1.91658153318666,1.91211677720823,1.96108194885857,1.98827603509277,1.98182541444306,1.98084631181092,1.97073276812812,1.9723726021465,1.95517664765989,1.95671176840323,1.88132271211822,1.88261581011012,1.88127803899571,1.87991082708585,1.87878367711683,1.87824936881683,1.95139049223039,1.9717207967154,1.96034343119005,1.95693929437778,1.9578738027602,1.96786478916006,1.95076518038252,1.94816771531857,1.96060845620328,1.96701846983903,1.9634205414387,1.96087773672378,1.96019645661909,1.95173033645428,1.95569169816223,1.95694093660373,1.95587372912456,1.87193772631455,1.95591013535732,1.95655696638902,1.95786137508853,1.95936142854887,1.95726248872013,1.95697973864684,1.95426484515664,1.94897678205077,1.9482593545696,1.94704413111244,1.94816755615365,1.94840988784358,1.94855933518122,1.95056361952479,1.94612614949937,1.94401732603236,1.94307427923089,1.94272831944212,1.94363661684307,1.94314693892137,1.89902827406627,1.85877805153047,1.88249572963144,1.85810403944692,1.88057144015165,1.85488911561095,1.91603170491063,1.95041879425989,1.94099282113434,1.9446065935297,1.9450183703099,1.84949887003789,1.88406555739627,1.84849177277518,1.84931276888933,1.84698477539142,1.8461641316082,1.84440809446255,1.84364926679973,1.84356564180924,1.84293789880046,1.8418772673015,1.84229157184153,1.82222699366859,1.80113920661307,1.7676765222275,1.79500133001267,1.97051059977462,1.76700191150639,1.75849716936608,1.76515806592025,1.80558841389023,1.8070998385468,1.80232910592162,1.80347720225098,1.79862974501233,1.7911241822522,1.74619954092735,1.80057658626592,1.82490995214156,1.79215998666009,1.73833610967843,1.78874332116593,1.96164662255398,1.75085487422225,1.73247329981368,1.73097258533114,1.73120072189574,1.72947800544232,1.73009622689547,1.72895951495712
1.79484809065658,1.7940907785952,1.79272143453758,1.79590472296404,1.90407237157181,1.84068981999127,1.89437733621518,1.85382480668311,1.89524861200777,1.82867093116883,1.80043612119834,1.80076865870665,1.80236768422439,1.88022032039065,1.93832070484885,1.93104132260421,1.92996823758023,1.93012260578385,1.92945041304846,1.92748346118697,1.85443679584095,1.91910339819574,1.92355599096577,1.92342331597495,1.92857886559506,1.92781028827401,1.92948728872533,1.93071169770772,1.93275637635327,1.92451352445745,1.91155824581678,1.92394533702464,2.01205070798693,1.93787786908204,2.0151769013858,1.90075331589767,1.9010080258323,1.900319678868,1.90015122051931,1.89867213550622,1.89805110509114,1.89682163010235,1.89556517966958,1.89521529461694,2.02095940021869,1.8885200299715,1.88894842251441,1.88903509413651,1.927802248376,1.90704670467243,1.92686423587034,1.86883472439566,1.80911788065232,1.87938629466886,1.88051840092763,1.88040583921893,1.88177958249036,1.88216955499304,1.88212450624305,1.88478673866402,1.92115011752601,1.89243730924281,1.88460296962508,1.8893229831588,1.88883856634146,1.90176119433577,1.92071312626101,1.90592224793608,1.89580078473367,1.91025531467005,1.99438675632826,1.92732687681567,1.83259180054735,1.96083424659875,1.9562474033076,1.97220535252955,1.97731727151624,1.96889312863519,1.95429022458586,1.95355544323351,1.88108798029297,1.88153205729689,1.88037116943398,1.8821205957897,1.9542832282293,1.91803697515765,1.95689141619622,1.95291521404354,1.95262186269628,1.95836419275293,1.964017536841,1.95938740600374,1.87465156888839,1.95034828105077,1.95034708650691,1.9603043314442,1.96349097133639,1.9625257093976,1.95470040939785,1.95853939077502,1.97137303302428,1.9529861314073,1.95327038314909,1.95392790981193,1.96080732608729,1.95544257847476,1.95651428321161,1.95653440717004,1.95008224073227,1.95116122073269,1.95180045747543,1.95458854369085,1.95423060784068,1.93584685252728,1.86462302076662,1.89350629156678,1.86215772736557,1.94645820791244,1.9471480861226,1.94495264631692,1.94168514671938,1.94247660722637,1.94232588002922,1.94287815822452,1.85855289342975,1.88543290978454,1.85956343394839,1.89351019415374,1.95877116650182,1.89159388281034,1.85341069081587,1.91689474909465,1.93978157078548,1.93928275561023,1.95360868452771,1.9433189372175,1.94364200429797,1.92651131773505,1.92501893064976,1.84788265912871,1.84542363233283,1.84445768827462,1.8428962481509,1.84296571552955,1.84246815529794,1.84307246545575,1.84208547387953,1.84731445117858,1.85852454563082,1.81015293164559,1.76548569816058,1.76415844140627,1.76335306234529,1.76710716813259,1.85422588909528,1.76497004594992,1.75288483720185,1.81337447890862,1.86877323690538,1.82965861298807,1.9552230328896,1.83367063581732,1.85269078109488,1.83154098012597,1.86707912175754,1.86510173280099,1.93520005185631,1.81114415780126,1.94248950312555,1.75652784220411,1.72898187671729,1.7292712864408,1.72741379128574,1.72780613086857,1.94369639342503,1.72341258843803
1.7950822646376,1.79362841294316,1.79432093200247,1.79569534106168,1.79337454680688,1.79397531580639,1.79464523327714,1.79449353389723,1.79344356838634,1.79374745904202,1.79899243691948,1.80106448348632,1.83871993990099,1.88421127447842,1.93275976734558,1.9319711817206,1.93171153539771,1.93096255313757,1.93013129978845,1.92928021316081,1.92808074922648,1.91994545697057,1.92308651398886,1.92444396613037,1.92552010575343,1.92656301772278,1.92687776860861,1.92910945961967,1.9297667000608,1.92148666879784,1.91099495296852,1.908763090942,1.90736521375182,1.90595537595187,1.9041830167856,1.90077823602994,1.90071572460404,1.89985757279496,1.89875546307647,1.89756764815678,1.89681419528296,1.89560125471028,1.894577249435,1.89396880040116,1.91924894105233,1.88789790587793,1.88807831309639,1.8878564141191,1.88619048352442,1.88363859842895,1.88137370290712,1.8565332566417,1.84045292056087,1.87912039734,1.87971109608535,1.87993646366115,1.88121280788272,1.88141279684545,1.88177902315173,1.88263147632459,1.88750156241499,1.89013898267294,1.89604944692294,1.90071153280956,1.904404499538,1.90854807665846,1.91799883534406,1.91408744108857,1.91412407902942,1.91336745519425,1.92236239212653,1.93080288488573,1.94105063290696,1.9613963710661,1.95838186678931,1.9573613897348,1.9578192752185,1.95909809686923,1.9586490081957,1.95469986418194,1.9105878582022,1.90089704488999,1.88107263392527,1.88185392104965,1.8981706116931,1.90606486591094,1.91429669848618,1.95276731499775,1.95213785867034,1.95103454263628,1.95148845072675,1.95613387575825,1.95651029687868,1.95702623900667,1.95870454017687,1.95933087336841,1.95938599776052,1.96003564698816,1.95785309154127,1.95568779641385,1.95373266839707,1.95136691460543,1.95160490175497,1.95336142086269,1.95897801271227,1.95552865762876,1.95112351676192,1.95107293801863,1.95051636441855,1.94849634743497,1.93502064802885,1.93527924268473,1.93533046236884,1.93506506532368,1.93478325526504,1.93459025059766,1.9344236818098,1.94377181490849,1.94297688390804,1.94204044855707,1.94156608229184,1.94147142073617,1.94034860009206,1.94020780632609,1.94139189114294,1.94214452042876,1.94278814601853,1.94242505387441,1.94151043724638,1.91809242310447,1.91823378983844,1.91793637089612,1.91808161188828,1.94447613248193,1.93983236887609,1.94083079291121,1.94228386942994,1.92824756325071,1.87818675409883,1.84669758495943,1.84515843084938,1.84410525123681,1.84268521283784,1.84239346465904,1.84298724060413,1.84337801742119,1.84336061066683,1.84983584133205,1.85227394964581,1.82214381268287,1.80481677598555,1.76087561455035,1.76240628428268,1.76750363861658,1.81249180281828,1.76379348293284,1.76156524287638,1.81855736192945,1.83010891122763,1.83231826411424,1.83418830769662,1.83432545624585,1.83404709450152,1.83278426514584,1.8651150576184,1.86362755380625,1.87925711186528,1.79558150147863,1.77902943421304,1.76203573601284,1.75998360286237,1.75556755631344,1.74539771422749,1.72331730769107,1.72109229887695,1.72015274084891
1.79470230591727,1.79397718353673,1.7944293939688,1.79541027533592,1.79456318326716,1.79580835848855,1.79473329001203,1.79615705327236,1.79697838623888,1.79667356660775,1.79797628562975,1.80034199800632,1.96670172460264,1.9325715516231,1.93357510977967,1.93291445959257,1.93374011168863,1.9320899870447,1.9312928286633,1.93019875490531,1.93266274329201,1.92158956082482,1.92106395000502,1.92404389440872,1.92369701451782,1.9204755294208,1.91692898896259,1.92189257994837,1.93087102915394,1.91864549535165,1.90998551732358,1.91067365344267,1.90838347473426,1.90795653317293,1.83048210042193,1.90030309318118,1.90062222242204,1.89964985227937,1.92791703655835,1.89726419083289,1.89539295003334,1.89448194137329,1.89367044046777,1.89308799317705,2.00797514910803,1.88762580361019,1.88767347504315,1.88762173368123,1.88715979254283,1.88555155572605,1.88247669428796,1.84573855750666,1.80793170192565,1.87903264468854,1.88000463243508,1.87911527433632,1.80622053600687,1.88041286837189,1.88162809208462,1.8816846134643,1.88245431880061,1.88800964872727,1.9209957472611,1.91622612452102,1.91769040939019,1.91021781822178,1.99663071109923,1.91445802564315,1.91416514232708,1.91314982978343,1.91227356956279,1.93303129124231,2.01064860093241,1.97193520633132,1.9739687671848,1.95954013571118,1.95269034561933,1.9588342190055,1.96490056368263,1.95271352336918,1.95479697289052,1.90999464976287,1.87896649712546,1.87937711349764,1.87599629891781,1.87603083795007,1.87552891017856,1.95228118046879,1.95339816186192,1.95174284433629,1.94964155507716,1.95614937946347,1.96812684488665,1.95772685834122,1.96062300539364,1.95953213067839,1.95737931178916,1.95801992974169,1.96501089505824,1.95415810510024,1.93915616666928,1.9479749811225,1.94947222839685,1.95427174623093,1.96006852566349,1.95410707346288,1.8673379559339,1.94627444687861,1.94232028112346,1.94474371020159,1.86866114252605,1.89201652793056,1.86417362556251,1.93421466649385,1.94641068723933,1.94785635677401,1.94619522690503,1.94342551923463,1.95386818442263,1.95217373999707,1.96227812323598,1.9405083096831,1.93732815578746,1.93766960293068,1.95038437163586,1.94175872096107,1.93993854858356,1.93822567551217,1.9428505888246,1.94738204301679,1.94477180033174,1.88410801381857,1.85165969222761,1.94452044163031,1.94129968096856,1.94118132275524,1.94335994341291,1.93078573103553,1.84495872025998,1.84455437756567,1.84362858825133,1.84266711849176,1.84122388950769,1.84087040498353,1.91733471964127,1.8416634171314,1.84102663272789,1.85636347171887,1.93523841005753,1.83667626555834,1.92799829957854,1.75793902644825,1.75724011432453,1.76837669764587,1.86719096110533,1.76536173045264,1.75027600112677,1.82181413766933,1.95250300027221,1.83404719327102,1.74123432296866,1.73947264125655,1.73859014428622,1.78418403743434,1.86504616708703,1.86403461288558,1.96033426320125,1.78056331333657,1.73057901435904,1.76887117977361,1.77560428823572,1.76024362073518,1.77298701489192,1.72112330312355,1.72118420630601,1.72088903142391
1.79306786557218,1.81958277518599,1.91085218363624,1.81633231945628,1.7946435521129,1.79525744437401,1.89288136636787,1.79513014511815,1.79601261873273,1.79634852440688,1.79810149946984,1.79956542538846,1.79891963361039,1.93201661092755,1.93257159232504,1.93235867882645,1.93108900842501,1.93149767008504,1.93315763266186,1.93009442459315,1.85086948414425,1.92048939905519,1.91766880526297,1.92569875689899,1.93153833245789,1.91892098865076,1.91500464815765,1.91951585726947,1.93101859853083,1.91533485916719,1.90972067485506,1.91115239310464,1.91051551170368,1.91391356416513,1.92906768611025,1.89932330532996,1.89893227148198,1.89911678448919,1.92891656487095,1.8974547061075,1.89652834324275,1.89347053282076,1.89240416703269,1.89089393921225,1.89052836793984,1.88800194783394,1.88685600430788,1.88721523004156,1.88655853955519,1.88621475236477,1.80940631624835,1.83558739164724,1.8066967034954,1.87875216351218,2.001492613103,1.87853362099736,1.87871659928929,1.8785160287604,1.92131436701704,1.88005061897991,1.8063931482062,1.88223866711084,1.88354140672588,1.91544643051418,1.9892851155669,1.90613941406684,1.88840200999153,1.89280655922174,1.89329452577961,1.9117591112213,1.99702819557815,1.9786741262225,1.99556828772571,1.96839188010734,1.96921191914308,1.96192933352471,1.95340899531112,1.954959156889,1.88153686645657,1.9521342125152,1.95400234727994,1.91733542238896,1.94734871393873,1.8781936857692,1.87792946443571,1.87627129786552,1.96502135455846,1.96455161989438,1.96730531671957,1.95158637841109,1.94582195414602,1.94679689069519,1.94466976086395,1.95633467725926,1.96285930943768,1.9606441814174,1.87155414366156,1.9563869226032,1.95681360056156,1.95448591527418,1.96556489992616,1.95046357095973,1.9545451354457,1.95426291935737,1.95139137030581,1.94620982896045,1.86566296069975,1.9460702835686,1.9606897884664,1.95305233331017,1.95783415297259,1.9011305967911,1.86272034604857,1.93383282198032,1.95042244853472,1.94711737519668,1.94627818198979,1.9449484060614,1.9581046947935,1.94884184511402,1.94755105931505,1.94278218770792,1.9438571400035,1.93910825947477,1.94181892231017,1.94030808975675,1.85492586431576,1.93465899629504,1.94778994863649,1.94969598529878,1.9482242035478,1.87635790017805,1.84816912422885,1.94107688863469,1.93441347303038,1.93350778251295,1.91801609830011,1.93376927141133,1.9374303694608,1.84209343562961,1.83959641620606,1.84062822557524,1.9139208397333,1.83951275407733,1.83887080510042,1.84001912877071,1.91203488684027,1.86821938879653,1.812405612576,1.80454756693493,1.75976506443319,1.75662529097514,1.89129909056782,1.77006224257457,1.75233083613862,1.7673276303077,1.83647400169991,1.82354779878568,1.95860472847781,1.83397876677835,1.73968035381125,1.73922212584398,1.7365214203092,1.76680260221555,1.73255584701372,1.75967037082711,1.72893690751893,1.76813924823137,1.83894971946203,1.77803828667715,1.72501845868919,1.75145136673655,1.76836545734678,1.71896650928776,1.71769126044853,1.71564758244091
1.79146761424441,1.83060898762208,1.85501383476625,1.82375788104318,1.84125492972653,1.79353546285324,1.7937791054013,1.79445960942937,1.79499842391844,1.79500364906841,1.7964330854232,1.79869338004301,2.06377674232291,1.93030933865739,1.92922345216595,1.92747611336567,1.92917060753749,1.92988035266062,1.93190078596803,1.93057494067561,1.93152445843002,1.92818702855101,1.93115759722974,1.92804453465226,1.93106922041365,1.91636503739881,1.91674699060839,1.91526323756321,1.91108420881399,1.91076894210202,1.91052205447601,1.9125203544978,2.01801540827558,1.9189582678374,1.9012585129862,1.89946266830503,1.89914367279913,1.89875074707346,1.92389959709092,1.8949800804587,1.89530178808822,1.8941601844045,1.89438452495216,1.88797401256639,1.81420863167355,1.88725905974955,1.92277839416752,1.90295093758803,1.92270154532685,1.89538919427935,1.92222345005341,1.87983861336913,1.87992656766382,1.87936076609871,1.88079107338805,1.87894341292031,1.80516568574714,1.87764042699816,2.01420835680517,1.87982576050169,1.88076125099514,1.88128386877242,1.91520778080013,1.91511697751975,1.91460076436528,1.90224585712327,1.8122235947428,1.89295009767469,1.89261296220427,1.91111420718633,1.99438927067084,1.97911724846628,1.83865239534578,1.9660161382662,1.97435949493695,1.96408947244222,1.95174696039249,1.9536978757699,1.95061336488026,1.95098724486691,1.87556587053382,1.87442640162834,1.87654342422718,1.87599429347051,1.874799143547,1.87501757263831,1.87437404386877,1.95220571054649,1.94839874502317,1.95159102630222,1.96173906918896,1.94666677020059,1.94498414862904,1.95578839877907,1.95688449674782,1.96040859466829,1.96716748793154,1.95457866232118,1.8686389222562,1.95424796047118,1.969671535877,1.94965549077639,1.94746959475804,1.95023475936499,1.94328842679148,1.95036583539544,1.95032572737432,1.94933298711889,1.95271492666424,1.95090560265789,1.94441593745928,1.91631384961343,1.95264329870584,1.93354723566941,1.86279888382843,1.94344293612625,1.94697867603063,1.94555702334663,1.94127340363315,1.94175003177563,1.85842270449161,1.94860456337987,1.95383004439421,1.95011214523232,1.95356392025091,1.93898773879844,1.93676706233001,1.93419287904657,1.85251967482097,1.88610438841084,1.85123656109971,1.86601404554048,1.84791020328003,1.938884599535,1.93411534551874,1.93353084576973,1.93068131126524,1.93478752879846,1.93493001712022,1.84006859627802,1.84052449820854,1.83960115616475,1.83867221978546,1.83756590885815,1.8382233609149,1.83944475173346,1.91070513586488,1.87567284154811,1.90775408715119,1.78751504544993,1.75595082531482,1.75615586027458,1.86268385646269,1.77372820169264,1.74805808949628,1.76919885963321,1.86447674317342,1.78489918961034,1.7396053844304,1.83230758936407,1.86034212577023,1.85909321366372,1.86412976628801,1.7868323513797,1.9511666531113,1.76991334438075,1.72410709841698,1.7586036108267,1.94685135547482,1.79421920832967,1.94606501234995,1.74186185092512,1.71396103659045,1.71214389240875,1.71214646945566,1.71151581728464
1.87658825861374,1.84146917245878,1.86888549081187,1.81692219754205,1.79053239877972,1.7896325008258,1.8941375974576,1.82260442968958,1.7935012216983,1.79404076778053,1.79570087545391,1.79726214679006,1.96430113217566,1.92855188829883,1.85610537729459,1.92671449153942,1.92466990389637,1.92928829622015,1.93127122562835,1.93077547754721,1.9280492694503,1.92875936588619,1.91898363107551,1.920520501963,1.9155784253671,1.91534348728113,1.91317198160599,1.91359124193795,1.92562057627566,1.91181181186819,1.91051489535334,1.91790105393814,1.92573026678114,1.92271918371167,2.01308637941969,1.89927567244639,1.89838739227788,1.89815027902356,2.01171507372631,1.89348183795166,1.89129879032931,1.8906166376767,1.81789101899359,1.88848068355789,1.88826413161177,1.88675642023951,1.88432298370003,1.88201994278999,1.80854601022614,1.87910931930255,1.88109762233515,1.88000508365758,1.91921184916416,1.89123550158263,1.91855081522635,1.87847187145151,1.87863776525614,1.87789554723384,1.87807030574365,1.87834836072559,1.80458072315114,1.85523837495391,1.88066264382903,1.88202674642996,1.8829495740413,1.89551791742655,1.91282200354951,1.89284822027902,1.8916558508463,1.91147092794265,2.00738332728027,1.97792747975933,1.88380960376756,1.9644300042485,1.95294418243464,1.96411535539293,1.96798774012246,1.96302977350698,1.96532164329982,1.95136704550836,1.95594128281439,1.87268046905162,1.87404725149175,1.87385336629953,1.87366154569255,1.90004539372457,1.95049923543826,1.95212027009927,1.95106780590676,1.95168477175456,1.9513334135313,1.94912850703254,1.96376929851761,1.9569845587698,1.95904433161067,1.96038486114793,1.95880873349967,1.95526568876314,1.96989263043329,1.95515160865814,1.95641104330589,1.95112045575372,1.95064370328674,1.95274409808327,1.96388983506823,1.95092870614979,1.94940621354444,1.94964420814016,1.9536944760795,1.94785497607263,1.85982620577815,1.89756521531808,1.86177323705759,1.93311901968481,1.94022426169412,1.94140900572055,1.85611497397505,1.94021753584988,1.95487766147978,1.93830855155912,1.85531273520232,1.94751719644482,1.94641628399635,1.94542574731966,1.94327186186797,1.93912843588369,1.93975082929119,1.93233860270701,1.93232056444405,1.90200279369134,1.93363294534129,1.93027939158535,1.94842812401168,1.93710277514793,1.93803856018185,1.93198284351253,1.84298841825392,1.87295142859481,1.84036991339686,1.83895779889853,1.83889656041673,1.83825838140574,1.83805240513143,1.83660621090757,1.83527585461859,1.83432308666996,1.83280655727749,1.83175365905668,1.75746456252909,1.75554111402272,1.75319297955084,1.75146282263798,1.74572682123248,1.76728094539018,1.86197424574034,1.76575618124768,1.74037708091457,1.76711469775915,1.73895697032287,1.82865329353799,1.85934444859701,1.85894316638985,1.94018661801403,1.76946155888848,1.72550529137207,1.78228642347442,1.94714863153422,1.74920271834116,1.71639672495242,1.71430621375602,1.71364081526721,1.7338333722592,1.93805773784669,1.71151866902422,1.70870964058189,1.70976083122662
