0,0,0,0,0,0,0,0,0,0,0,0,0,0,0,0,0,0,0,0,0,0,0,0,0,0,0,0,0,0,0,0,0,0,0,0,0,0,0,0,0,0,0,0,0,0,0,0,0,0,0,0,0,0,0,0,0,0,0,0,0,0,0,0,0,0,0,0,0,0,0,0,0,0,0,0,0,0,0,0,0,0,0,0,0,0,0,0,0,0,0,0,0,0,0,0,0,0,0,0,0,0,0,0,0,0,0,0,0,0,0,0,0,0,0,0,0,0,0,0,0,0,0,0,0,0,0,0,0,0,0,0,0,0,0,0,0,0,0,0,0,0,0,0,0,0,0,0,0,0,0,0,0,0,0,0,0,0,0,0,0,0,0,0,0,0,0,0,0,0,0,0,0,0,0,0,0,0,0,0,0,0,0,0,0,0,0,0,0,0,0,0,0,0,0,0,0,0,0,0,0,0,0,0,0,0,0,0,0,0,0,0,0,0
1.70399415000676,1.80461416932962,1.70374568191839,1.704108827586,1.70443374739386,1.70249378501163,1.70291426946886,1.70607745936305,1.70530338570314,1.70438596506918,1.70635459684622,1.70742492091918,1.70773072779717,1.71037786858475,1.77312561736183,1.77287714927347,1.7740430379958,1.84860257743515,1.84865035975984,1.77258089886042,1.77222730965774,1.77265735057991,1.84331785232493,1.84836366581172,1.85067633032651,1.84625168706062,1.85150774277603,1.84446462811738,1.84499979015386,1.94147230369402,1.83773687680165,1.83795667549521,1.84001131545669,1.76684701989815,1.85454669862604,1.93824221854527,1.83704881132618,1.83710615011581,1.85431734346755,1.83708703718593,1.83721127123011,1.93478277823804,1.83356070162414,1.83469792095165,1.85726073466818,1.83549110754143,1.85874198673343,1.83437300114379,1.85655355626283,1.8347361468114,1.8351470748037,1.76245104602708,1.83472659034646,1.83562489805055,1.76484971872629,1.76491661398085,1.76563334885114,1.94407166215691,1.8413014382232,1.86034747284286,1.9513823578338,1.9483434019838,1.93211652452058,1.94736864256022,1.95377147406808,1.94925126615283,1.91590875998724,1.83800445781989,1.83924679826172,1.92502562753725,1.91187593178378,1.91540226734557,1.9141981527635,1.91247798907482,1.91241109382026,1.91451351610642,1.83667610919363,1.91465686308048,1.91305137697104,1.91192371410846,1.91398791053488,1.9137872247712,1.92536010381004,1.91243020675013,1.9254269990646,1.93404693043788,1.91600432463661,1.91754291549149,1.84233353643641,1.84088095376596,1.92816970450156,1.930988861658,1.94382319406855,1.92793079287813,1.91953066019841,1.9339226963937,1.91963578131271,1.9190910628113,1.92758676014039,1.92951716605769,1.92290409232121,1.9223880432146,1.92244538200422,1.92261739837309,1.93034857850722,1.92396485992923,1.95175505996635,1.9258379270569,1.93268035595187,1.93808931510628,1.93223120209983,1.92870486653803,1.94543823664292,1.85518698177682,1.92811236571193,1.93183938703741,1.92685091234023,1.93902584867012,1.9345151972198,1.94166343299276,1.85463270681047,1.94516109915974,1.9412620614654,1.95229022200283,1.95808143975472,1.93789818580754,1.95470800763192,1.92957450484731,1.93489745581728,1.93724834619181,1.94340270961131,1.85719383941362,1.94022040678725,1.93082640175407,1.93742036256068,1.85623819291991,1.85536855461063,1.85488117489884,1.85628597524459,1.85742319457211,1.8606150538611,1.85845529278532,1.9452279944143,1.95155437420267,1.93871048532719,1.93787907287766,1.95947668363554,1.79924343603496,1.96456072298208,1.80146053590037,1.80054311526641,1.79875605632317,1.80170900398874,1.80052400233654,1.84793362488955,1.79947279119345,1.7978099662944,1.89922317220704,1.79919565371028,1.96799149389451,1.80031376010792,1.99411886903257,1.96777169520095,1.89820063045877,1.80253085997333,1.80197658500698,1.80309469140462,1.96920516494152,1.8059998567455,1.8041459025477,1.80379231334503,1.97324754960992,1.97373492932171,1.80340049828261,1.80539779945446,1.80439437063607,1.80506332318166,1.80305646554487,1.97513972966747,1.80257864229802,1.80591384856107,1.97568444816888,1.96112995206966,1.80407900729314,1.80276021513182,1.96503854622894,1.80375408748528,1.80240662592915,1.97492948743885,1.80060045405603,1.96593685393303,1.87557092148769,1.80029464717805,1.96514366734325,1.80020863899361,1.96842153481668,1.96870822876479,1.80088714800415,1.79978815453638,1.73257753663366,1.73318915038964,1.72756039254168,1.83264328099017,1.87805560237133,1.82951831695574,1.82940363937649,1.72484635649954,1.72312619281086,1.72106199638444,1.8841239576064,1.88217443875923,1.71415267223491,1.71354105847893,1.7168284824173
1.70356410908459,1.70405148879638,1.70463443315754,1.70547540207201,1.70467265901729,1.70547540207201,1.7062208063371,1.70669862958396,1.70652661321509,1.88022491991206,1.70656483907484,1.70820855104402,1.71038742504969,1.77449219184784,1.77436795780366,1.77406215092567,1.84463664448625,1.77318295615146,1.84684418788672,1.77512291853369,1.92865708421335,1.84906128775213,1.84630902585024,1.84607967069175,1.84822031883767,1.84220930239222,1.84478954792524,1.85172754146959,1.83886453966423,1.84021200122037,1.84129188175826,1.8392945805864,1.85180399318909,1.84003042838656,1.84160724510118,1.83865429743562,1.83757441689772,1.762919312809,1.83377094385275,1.85656311272777,1.83525219591801,1.85603750715623,1.85527298996126,1.83766042508216,1.83180231207571,1.8359211484636,1.83556755926093,1.83630340706109,1.83309243484222,1.93196362108159,1.76231725551796,1.76266128825569,1.86122666761708,1.83707748072099,1.83830070823294,1.83773687680165,1.86119799822227,1.83923724179678,1.76960883826498,1.86129356287164,1.86099731245859,1.77389969102174,1.77872570581498,1.8583215022762,1.85830238934632,1.93839512198427,1.94729219084072,1.92210134926649,1.91522069451177,1.91040423618346,1.91871836067875,1.91115919691349,1.91095851114981,1.91507734753771,1.83875941854993,1.83925635472666,1.91308004636585,1.91560295310925,1.91318516748016,1.91341452263865,1.83887409612917,1.9135292002179,1.92170953420407,1.91251621493456,1.93192539522184,1.93167692713348,1.92484405470344,1.92641131495313,1.927949905808,1.84219974592729,1.93148579783473,1.90775709539588,1.90728882861396,1.92564679775816,1.91585142119762,1.92442357024621,1.93757326599967,1.92178598592356,1.93465854419385,1.8462707999905,1.92280852767183,1.92263651130297,1.93687564405927,1.92452869136052,1.85172754146959,1.92450957843064,1.92604816928552,1.92901067341602,1.93480189116791,1.93548040017845,1.94523755087924,1.94731130377059,1.85537811107556,1.92814103510674,1.92751030842089,1.93776439529842,1.93857669481807,1.85555968390937,1.93604423160974,1.93750637074511,1.85633375756928,1.95429707963962,1.94187367522138,1.95122945439481,1.9380702021764,1.96801060682438,1.92579014473221,1.85602795069129,1.94096581105235,1.95462199944748,1.95143969662343,1.93389402699889,1.94036375376131,1.93669407122546,1.94146274722908,1.85797746953846,1.85785323549428,1.85692625839538,1.85537811107556,1.85774811437997,1.85514875591707,1.93433362438599,1.93499302046665,1.93220253270502,1.93214519391539,1.9325847913025,1.95181239875597,1.80224416602522,1.80061956698591,1.96522967552768,1.80078202688984,1.80060045405603,1.79989327565069,1.84795273781943,1.89656647495452,1.79875605632317,1.79911920199078,1.79990283211562,1.80082025274959,1.79926254896484,1.79839291065556,1.79770484518009,1.89528590865295,1.80196702854204,1.99193043856197,1.80298001382537,1.80260731169283,1.80390699092427,1.80301823968512,1.98885325685222,1.98969422576669,1.79944412179864,1.80367763576578,1.88929400513738,1.80344828060729,1.80587562270132,1.80300868322019,1.97349601769828,1.99732028478651,1.802884449176,1.96532524017705,1.80394521678402,1.96686383103193,1.80279844099157,1.96671092759293,1.80149876176012,1.80173767338355,1.79937722654408,1.98440950065647,1.80052400233654,1.80209126258622,1.80260731169283,1.80004617908968,1.80305646554487,1.80220594016547,1.97504416501809,1.97056218296259,1.9678099210607,1.80002706615981,1.73170789832438,1.73007374282014,1.72933789501998,1.73029354151369,1.72619381805567,1.8778931424674,1.83105690781061,1.72406272637469,1.72086131062076,1.82531347238341,1.7192749374412,1.71863465429041,1.71633154624057,1.81917822189378,1.81814612368057
1.7066317343294,1.75409869567204,1.7062208063371,1.70613479815267,1.70591499945912,1.80512066197129,1.7064501614956,1.70832322862327,1.70713822697107,1.97333355779435,1.70913552814292,1.70952734320535,1.71098948234072,1.7109321435511,1.77403348153086,1.85042786223814,1.84695886546597,1.85063810446676,1.84490422550449,1.84894661017289,1.8455253957254,1.84818209297792,1.84885104552352,1.8513452828721,1.92541744259967,1.84337519111455,1.92191977643268,1.84143522873232,1.84099563134521,1.85251117159443,1.84108163952964,1.8398870814125,1.85188044490858,1.76637875311623,1.84015466243074,1.76419987911057,1.85506274773264,1.83549110754143,1.83590203553373,1.85625730584978,1.83498461489977,1.8557985955328,1.85785323549428,1.93830911379983,1.83399074254631,1.83469792095165,1.85869420440874,1.83241392583168,1.8592484793751,1.76273773997519,1.83510884894395,1.83520441359332,1.83760308629253,1.83782288498609,1.76408520153132,1.86205808006661,1.86318574292919,1.86209630592636,1.86165670853925,1.94276242646053,1.86152291803013,1.84596499311251,1.85867509147887,1.95182195522091,1.94913658857358,1.96749455771778,1.95090453458695,1.93145712843992,1.839963533132,1.91149367318629,1.9117516977396,1.91625279272498,1.91225819038126,1.91817364217734,1.9181640857124,1.84008776717618,1.91321383687497,1.91422682215831,1.91434149973755,1.91626234918991,1.91699819699007,1.91659682546271,1.92430889266696,1.91408347518425,1.91415992690375,1.91394012821019,1.91821186803708,1.92917313331995,1.9406695606393,1.84414926477446,1.90890387118834,1.84259156098971,1.92816970450156,1.84589809785795,1.9278734540885,1.92996631990973,1.93362644598065,1.94006750334826,1.93917875210911,1.91372032951664,1.850905685485,1.94493174400125,1.92460514308001,1.85117326650324,1.92563724129322,1.92708026749872,1.92736696144684,1.92607683868033,1.93403737397294,1.92754853428064,1.94302045101383,1.92632530676869,1.9286188583536,1.9282079303613,1.93185849996728,1.85540678047038,1.93749681428018,1.93172470945816,1.85660133858752,1.85636242696409,1.85770988852022,1.92738607437671,1.92744341316633,1.93864359007263,1.93028168325266,1.92968918242656,1.8575760980111,1.95836813370283,1.93623536090848,1.93876782411681,1.93956101070659,1.93828044440502,1.93208785512577,1.94413855741147,1.9292878108992,1.85586549078736,1.85806347772289,1.85961162504271,1.92753897781571,1.85587504725229,1.8559801683666,1.85966896383233,1.94925126615283,1.95485135460598,1.93419983387687,1.86124578054695,1.93449608428992,1.89164489551191,1.80160388287443,1.80228239188496,1.80009396141437,1.84995959545622,1.80033287303779,1.90198499057387,1.90003547172669,1.7986604916738,1.79911920199078,1.79934855714927,1.80155610054974,1.79874649985823,1.7991765407804,1.79918609724534,1.80319025605399,1.80335271595792,1.80491997620761,1.80286533624613,1.80536913005965,1.80482441155824,1.8036298534411,1.80792070619786,1.80526400894534,1.88821412459949,1.85161286389034,1.85104903245905,1.8922087269432,1.80604763907019,1.98430437954216,1.80542646884927,1.80294178796563,1.80353428879173,1.80495820206736,1.80257864229802,1.96876556755441,1.80283666685132,1.80204348026154,1.98798361854295,1.96390132690142,1.79890895976216,1.80052400233654,1.8001035178793,1.80163255226924,1.80210081905116,1.89754123437811,1.80033287303779,1.79871783046342,1.79758061113591,1.80027553424817,1.79972125928182,1.79835468479581,1.73331338443382,1.73008329928508,1.73043688848775,1.73131608326196,1.72711123868963,1.8297667850441,1.72124356921825,1.72545797025551,1.72239990147564,1.72229478036133,1.72044082616353,1.7143820273934,1.71706739404073,1.76539443722771,1.76485927519123
1.79254435411405,1.79321330665964,1.70769250193742,1.70710000111132,1.88168705904744,1.88079830780829,1.70947956088066,1.70750137263868,1.7094891173456,1.71031097333019,1.70983315008333,1.71094170001604,1.71189734650975,1.76551867127189,1.92603861282058,1.77577275814941,1.85160330742541,1.84850701278578,1.84592676725276,1.84664350212304,1.85206201774239,1.85180399318909,1.77216997086812,1.84522914531235,1.84602233190213,1.7723706566318,1.85191867076833,1.84286869847288,1.841635914496,1.84278269028845,1.84141611580244,1.92611506454008,1.8529412125166,1.76605383330837,1.83801401428483,1.83819558711864,1.85801569539821,1.83773687680165,1.76321556322205,1.76290975634406,1.85551190158468,1.83571090623499,1.85871331733862,1.83646586696502,1.93519370623033,1.83527130884788,1.76257528007126,1.8344781222581,1.83467880802178,1.86146557924051,1.76328245847661,1.83853006339143,1.86183828137305,1.83806179660952,1.76576713936026,1.83924679826172,1.83907478189285,1.84151168045181,1.93787907287766,1.94469283237782,1.86298505716551,1.84869814208452,1.85958295564789,1.85863686561912,1.8638069131501,1.95489913693066,1.92128904974683,1.91484799237922,1.91492444409872,1.912602223119,1.91169435894997,1.91501045228315,1.91394968467513,1.91453262903629,1.84188438258436,1.83935191937603,1.91634835737435,1.91516335572214,1.83939014523578,1.91456129843111,1.91636747030422,1.83984885555276,1.91499133935328,1.91423637862324,1.91594698584699,1.92704204163898,1.92208223633661,1.93500257693159,1.84329873939505,1.94017262446257,1.94523755087924,1.84522914531235,1.93267079948694,1.9277683329742,1.93294793697011,1.9353657225992,1.93520326269527,1.92230203503017,1.92143239672089,1.8494913286743,1.95130590611431,1.93838556551933,1.92401264225391,1.92473893358913,1.92570413654778,1.94136718257971,1.94248528897735,1.94996800102311,1.92742430023646,1.93010011041885,1.85526343349632,1.85501496540795,1.927949905808,1.9298038600058,1.93542306138882,1.93620669151367,1.9351841497654,1.93877738058175,1.93204007280109,1.95368546588365,1.85586549078736,1.93190628229197,1.94444436428946,1.93076906296445,1.94500819572075,1.93081684528914,1.93081684528914,1.95062739710377,1.95088542165707,1.92883865704715,1.93757326599967,1.93780262115817,1.93004277162923,1.9313233379308,1.93010966688379,1.85804436479302,1.85747097689679,1.85814948590733,1.85873243026849,1.85860819622431,1.85782456609947,1.85940138281409,1.93155269308929,1.95979204697846,1.93427628559637,1.93356910719102,1.93388447053395,1.80250219057852,1.8006960187054,1.85060943507195,1.85014116829003,1.84941487695481,1.84820120590779,1.8482298753026,1.89453094792292,1.97372537285677,1.96842153481668,1.79947279119345,1.79996972737018,1.89136775802873,1.80006529201955,1.79910008906091,1.80024686485336,1.97565577877407,1.97772953166542,1.80131718892632,1.80143186650556,1.80183323803292,1.80556981582333,1.80564626754283,1.89644224091034,1.80609542139487,1.80498687146217,1.80490086327773,1.98073026165568,1.98480131571889,1.80198614147191,1.85282653493736,1.85151729924097,1.87541801804869,1.87410878235231,1.80263598108764,1.80459505639975,1.98882458745741,1.8029609008955,1.96728431548916,1.97745239418225,1.80151787469,1.8019574720771,1.80240662592915,1.80096359972364,1.80147009236531,1.79838335419062,1.79838335419062,1.80258819876295,1.8480483024688,1.84655749393861,1.87521733228501,1.78324591373024,1.782825429273,1.72990172645127,1.77879260106954,1.72919454804592,2.02238689231655,1.72408183930457,1.83815736125889,1.77238976956168,1.72225655450158,1.71995344645174,1.83326445121109,1.83244259522649,1.83332179000071,1.82970944625448,1.90445055852764
0,0,0,0,0,0,0,0,0,0,0,0,0,0,0,0,0,0,0,0,0,0,0,0,0,0,0,0,0,0,0,0,0,0,0,0,0,0,0,0,0,0,0,0,0,0,0,0,0,0,0,0,0,0,0,0,0,0,0,0,0,0,0,0,0,0,0,0,0,0,0,0,0,0,0,0,0,0,0,0,0,0,0,0,0,0,0,0,0,0,0,0,0,0,0,0,0,0,0,0,0,0,0,0,0,0,0,0,0,0,0,0,0,0,0,0,0,0,0,0,0,0,0,0,0,0,0,0,0,0,0,0,0,0,0,0,0,0,0,0,0,0,0,0,0,0,0,0,0,0,0,0,0,0,0,0,0,0,0,0,0,0,0,0,0,0,0,0,0,0,0,0,0,0,0,0,0,0,0,0,0,0,0,0,0,0,0,0,0,0,0,0,0,0,0,0,0,0,0,0,0,0,0,0,0,0,0,0,0,0,0,0,0,0
1.79401604971436,1.71007206170676,1.79374846869612,1.70806520406997,1.88317786757763,1.70727201748019,1.70997649705739,1.70964202078459,1.71163932195645,1.71265230723978,1.7127096460294,1.71343593736462,1.71487896357013,1.71479295538569,1.77606900856246,1.92732873558709,1.8511637100383,1.77332630312551,1.77391880395161,1.8526831879633,1.85145040398641,1.84671995384254,1.84860257743515,1.92572324947765,1.77317339968652,1.85158419449553,1.93680874880471,1.85180399318909,1.84178881793499,1.84269668210402,1.93388447053395,1.85409754477399,1.92575191887247,1.8550531912677,1.76572891350051,1.85556924037431,1.83584469674411,1.83523308298813,1.83504195368939,1.83680034323782,1.83598804371816,1.83553888986612,1.762919312809,1.8360740519026,1.861694934399,1.86039525516755,1.83696280314175,1.85980275434145,1.83543376875181,1.83620784241172,1.83602626957791,1.86529772168029,1.83655187514945,1.83739284406392,1.8363320764559,1.84015466243074,1.8424099881559,1.86210586239129,1.84235264936628,1.84954866746393,1.94410988801666,1.94474061470251,1.85977408494664,1.85649621747321,1.866253368174,1.96122551671903,1.80039021182742,1.91531625916114,1.9231334474797,1.91359609547246,1.91902416755674,1.91427460448299,1.91415992690375,1.91207661754746,1.8397819602982,1.91377766830626,1.83912256421754,1.84546805693578,1.84044135637886,1.91668283364715,1.91904328048661,1.91449440317655,1.91526847683645,1.91600432463661,1.92460514308001,1.94770311883301,1.84197994723373,1.84196083430386,1.91131210035249,1.91727533447325,1.91855590077482,1.8456018474449,1.9104902443679,1.90984996121711,1.8484592304611,1.94184500582656,1.92294231818095,1.92190066350281,1.92296143111083,1.94872566058129,1.84987358727179,1.93778350822829,1.85180399318909,1.85450847276629,1.94710106154198,1.93565241654732,1.92858063249385,1.95099054277138,1.95337965900566,1.94187367522138,1.9429344428294,1.93094107933332,1.92867619714322,1.9437085164893,1.9278734540885,1.92750075195596,1.94912703210864,1.94779868348239,1.85663956444726,1.9420074657305,1.860022553035,1.85888533370749,1.94142452136933,1.93507902865109,1.93233632321414,1.95142058369355,1.95262469827563,1.93155269308929,1.93135200732561,1.93060660306052,1.94061222184968,1.85742319457211,1.94139585197452,1.93201140340627,1.92916357685502,1.85796791307352,1.85753787215135,1.85782456609947,1.85971674615701,1.85945872160371,1.9368852005242,1.93419027741194,1.85806347772289,1.93412338215738,1.93398959164826,1.95829168198334,1.95365679648884,1.9833105071887,1.80031376010792,1.79989327565069,1.88629327514713,1.80211993198103,1.80097315618858,1.79983593686106,1.80165166519912,1.8005144458716,1.79862226581405,1.80132674539125,1.97806400793822,1.89438760094886,1.80258819876295,1.85419310942336,1.85483339257415,1.89573506250499,1.89525723925814,1.96733209781384,1.97762441055112,1.97872340401888,1.80376364395022,1.97659231233791,1.97112601439388,1.97184274926416,1.98424704075253,1.98198215856244,1.80391654738921,1.80266465048245,1.8016229958043,1.88185907541631,1.80026597778323,1.87861943380262,1.8766316890957,1.96760923529702,1.96568838584466,1.79990283211562,1.84816298004804,1.79961613816751,1.80215815784078,1.80068646224047,1.96425491610409,1.97412674438413,1.96374842346243,1.80206259319141,1.98214461846637,1.79942500886877,1.7987369433933,1.79677786808119,1.84728378527383,1.8773006416413,1.79582222158748,1.81310986665871,1.81465801397853,1.81668398454519,1.7274361584975,1.72692010939089,1.72551530904514,1.72433986385787,1.7210524399195,1.76883476460507,1.76777399699705,1.7204599390934,1.7184244120618,1.71955207492438,1.71735408798884,1.8282473071191
1.71030141686525,1.75751035365459,1.75938342078226,1.80031376010792,1.80997534615934,1.71110415991997,1.71035875565487,1.71101815173553,1.71200246762406,1.7127860977489,1.71376085717249,1.71272875895928,1.76301487745837,1.77794207569014,1.92405086811366,1.8498258049471,1.85292209958673,1.84820120590779,1.85217669532163,1.84928108644569,1.85177532379427,1.85385863315056,1.77251400360586,1.85318012414003,1.85203334834758,1.85339036636865,1.84319361828075,1.84295470665732,1.853791737896,1.85485250550402,1.83928502412147,1.83926591119159,1.83934236291109,1.8383676034875,1.84021200122037,1.76606338977331,1.86124578054695,1.9447119453077,1.86170449086393,1.83682901263263,1.83587336613892,1.8589140031023,1.8588375513828,1.83862562804081,1.83357025808907,1.76282374815962,1.76190632752566,1.83379005678263,1.83872119269018,1.83593070492854,1.83769865094191,1.9392265344338,1.76290019987912,1.83939970170071,1.83788978024065,1.83957171806958,1.86257412917321,1.77095629982111,1.84380523203672,1.77225597905256,1.93525104501996,1.86516393117117,1.86245945159397,1.86372090496566,1.94475017116745,1.95530050845802,1.95641861485566,1.92925914150439,1.84068982446722,1.94462593712326,1.91490533116884,1.91455174196617,1.91467597601035,1.91523980744164,1.91335718384903,1.84015466243074,1.84008776717618,1.84137788994269,1.84042224344898,1.91459952429085,1.91524936390658,1.92105013812341,1.91872791714369,1.92607683868033,1.92363038365643,1.84286869847288,1.92569458008284,1.91648214788347,1.91456129843111,1.9146377501506,1.9514588095533,1.91899549816193,1.91777227064998,1.91799206934353,1.92168086480926,1.9137872247712,1.84934798170025,1.93215475038033,1.93863403360769,1.93446741489511,1.85058076567713,1.94165387652782,1.8520906871372,1.9316578142036,1.92567546715297,1.93741080609574,1.93164825773866,1.85492895722352,1.93591999756555,1.94197879633568,1.93243188786351,1.92773966357939,1.92917313331995,1.93762104832436,1.93204007280109,1.93112265216712,1.93891117109087,1.93520326269527,1.92485361116838,1.9313997896503,1.94511331683506,1.93311039687404,1.95446909600849,1.93213563745046,1.93872004179213,1.93811798450109,1.95088542165707,1.93893028402074,1.93498346400172,1.94136718257971,1.92931648029401,1.93462031833411,1.94087024640298,1.93171515299322,1.92999498930454,1.92927825443426,1.9313997896503,1.85847440571519,1.85901912421661,1.85792968721377,1.85841706692557,1.85912424533091,1.85796791307352,1.93109398277231,1.95521450027359,1.86138912752101,1.8518326625839,1.80513977490116,1.85033229758877,1.8502367329394,1.89136775802873,1.80266465048245,1.80174722984849,1.80108783376783,1.96418802084953,1.89124352398455,1.80230150481484,1.89456917378267,1.96830685723743,1.80022775192349,1.79977859807144,1.79983593686106,1.85598972483154,1.80276977159676,1.80168033459393,1.80183323803292,1.80404078143339,1.80281755392144,1.80290356210588,1.8023684000694,1.80358207111641,1.80359162758135,1.80183323803292,1.8005144458716,1.80292267503575,1.80259775522789,1.80401211203858,1.80155610054974,1.80215815784078,1.97097311095488,1.84850701278578,1.98724777074279,1.80175678631342,1.80158476994456,1.84985447434191,1.85121149236298,1.84833499641691,1.84759914861676,1.9653634660368,1.96435048075347,1.9651054414835,1.97212944321228,1.80033287303779,1.84827765762729,1.84512402419804,1.84597454957745,1.79795331326845,1.79906186320116,1.78080901517127,1.81310031019378,1.86147513570544,1.81749628406485,1.77369900525806,1.78241450128071,1.7212053433585,1.81884374562098,1.82825686358404,1.72034526151416,1.76721016556576,1.76563334885114,1.76537532429783,1.71550969025598,1.71571037601966,1.82918384068294
1.75903938804453,1.75883870228085,1.75989946988887,1.71083657890173,1.71103726466541,1.71132395861352,1.71222226631761,1.71154375730708,1.71300589644245,1.71373218777768,1.71114238577972,1.71221270985267,1.86320485585906,1.8490517312872,1.93154313662436,1.93096019226319,1.9310653133775,1.85228181643594,1.8520142354177,1.84847834339097,1.7770055421263,1.77365122293337,1.77233243077205,1.8519377836982,1.94165387652782,1.8544606904416,1.7696661770546,1.92811236571193,1.84370011092241,1.85527298996126,1.84342297343924,1.85501496540795,1.76609205916812,1.85940138281409,1.83982018615795,1.93952278484685,1.83945704049033,1.86138912752101,1.83938058877084,1.83619828594678,1.83693413374694,1.86154203096,1.8596880767622,1.8354815510765,1.860022553035,1.83696280314175,1.83504195368939,1.93803197631666,1.93657939364622,1.83251904694599,1.86287037958626,1.83637985878058,1.86512570531142,1.83924679826172,1.84015466243074,1.76916924087787,1.76909278915837,1.77090851749642,1.84536293582147,1.84608922715669,1.86476255964381,1.86565131088296,1.94521843794936,1.86549840744397,1.94058355245487,1.95799543157029,1.8025499729032,1.93127555560612,1.91197149643315,1.91310871576067,1.91792517408897,1.91517291218708,1.92118392863253,1.91609033282104,1.91839344087089,1.91784872236947,1.83897921724348,1.91457085489604,1.84120587357383,1.91744735084211,1.91784872236947,1.9153831544157,1.91494355702859,1.93134245086068,1.91760981074605,1.91591831645218,1.93310084040911,1.91930130503991,1.91738045558755,1.91987469293614,1.92064876659605,1.91798251287859,1.91804940813315,1.93042503022671,1.93024345739291,1.92065832306098,1.92388840820973,1.9320687421959,1.84971112736786,1.93984770465471,1.93507902865109,1.93698076517357,1.93285237232074,1.85037052344852,1.85210024360214,1.92822704329118,1.93716233800738,1.92996631990973,1.85682113728107,1.9476744494382,1.94305867687358,1.94694815810298,1.93247967018819,1.93515548037059,1.93286192878568,1.9313997896503,1.93050148194621,1.92751986488583,1.92917313331995,1.92881954411728,1.93594866696037,1.85637198342902,1.94824783733443,1.93765927418411,1.94206480452012,1.94231327260848,1.9313233379308,1.85903823714648,1.85792013074884,1.94795158692138,1.93203051633615,1.93210696805565,1.93246055725832,1.93329196970785,1.93130422500093,1.93210696805565,1.85787234842415,1.85895222896205,1.93237454907389,1.93442918903536,1.93359777658584,1.93658895011115,1.92965095656681,1.93478277823804,1.93404693043788,1.93639782081241,1.86070106204554,1.88266181847102,1.80273154573701,1.80298957029031,1.9821255055365,1.80013218727411,1.80305646554487,1.80078202688984,1.97513972966747,1.79944412179864,1.9668064922423,1.79977859807144,1.79953968644801,1.79842158005037,1.79959702523764,1.89151110500279,1.88894041593471,1.85561702269899,1.85371528617651,1.85035141051864,1.80318069958905,1.80405033789833,1.80376364395022,1.85233915522556,1.8051493313661,1.97813090319278,1.99082188862927,1.8041459025477,1.8047384033738,1.80377320041515,1.88263314907621,1.80178545570823,1.85210024360214,1.85151729924097,1.80226327895509,1.98569962342298,1.80199569793685,1.84876503733908,1.84882237612871,1.84940532048987,1.7995874687727,1.79877516925304,1.79829734600619,1.79953968644801,1.7990714196661,1.79936767007915,1.79816355549707,1.79998884030006,1.79852670116468,1.84453152337194,1.79622359311484,1.84601277543719,1.8436714415276,1.73020753332926,1.77711066324061,1.72570643834388,1.7758969921936,1.77411948971529,1.79134979599691,1.823096372518,1.82133798296957,1.71915070339702,1.82206427430479,1.82004786020306,1.76617806735255,1.76543266308746,1.7630244339233,1.71586327945865
1.71343593736462,1.76110358447094,1.71170621721101,1.81742938881029,1.82026765889661,1.82069769981878,1.71097992587579,1.71350283261918,1.78959140644848,1.82460629397806,1.80172811691861,1.71595884410802,1.71618819926651,1.7162359815912,1.77715844556529,1.85107770185386,1.7784485683318,1.84893705370795,1.85459448095072,1.85032274112383,1.85213846946188,1.8551296429872,1.85288387372698,1.84506668540842,1.84582164613845,1.84558273451502,1.93779306469323,1.93768794357892,1.85288387372698,1.85641020928877,1.84179837439993,1.76930303138699,1.85966896383233,1.85987920606095,1.85921980998028,1.85947783453359,1.8422284153221,1.84228575411172,1.94796114338632,1.8625454597784,1.83765086861722,1.83838671641738,1.8633959851578,1.8354815510765,1.95497558865016,1.86319529939412,1.83577780148955,1.94514198622987,1.83695324667681,1.83559622865574,1.76437189547944,1.76545177601733,1.8397055085787,1.76573846996544,1.84160724510118,1.84221885885716,1.86534550400497,1.84524825824223,1.84691108314128,1.86649227979743,1.84827765762729,1.8523487116905,1.78124861255838,1.86273658907714,1.94833384551886,1.938739154722,1.94242795018773,1.91740912498237,1.91527803330139,1.92732873558709,1.92502562753725,1.9446354935882,1.91553605785469,1.91544049320532,1.91557428371444,1.84217107653248,1.841483011057,1.91165613309022,1.91173258480972,1.91743779437718,1.92142284025595,1.91620501040029,1.84323184414049,1.91560295310925,1.92115525923771,1.9484198537033,1.92924002857451,1.91614767161067,1.930988861658,1.91803985166822,1.92677446062074,1.91813541631759,1.92148017904558,1.92140372732608,1.92131771914165,1.92210134926649,1.84895616663783,1.92780655883395,1.91940642615422,1.94994888809324,1.94158698127326,1.93175337885297,1.93018611860329,1.92848506784448,1.96045144305912,1.94617408444308,1.93904496159999,1.93875826765188,1.85484294903909,1.93195406461665,1.93404693043788,1.93113220863206,1.9458969469599,1.85795835660859,1.94742598134984,1.94413855741147,1.937372580236,1.9380702021764,1.94362250830487,1.93268035595187,1.93043458669165,1.94236105493317,1.94168254592263,1.94079379468348,1.93231721028426,1.94081290761336,1.93218341977514,1.95108610742075,1.94152964248364,1.93092196640344,1.8583215022762,1.93189672582703,1.94817138561493,1.9316578142036,1.93248922665313,1.93324418738316,1.93403737397294,1.9315813624841,1.9372961285165,1.93575753766162,1.93660806304103,1.93441963257043,1.93471588298348,1.94279109585534,1.86036658577274,1.93556640836288,1.80378275688009,1.80518755722585,1.80418412840745,1.80369674869566,1.80280799745651,1.80184279449786,1.79909053259597,1.8499787083861,1.8499022566666,1.79841202358543,1.97022770668979,1.99370794104028,1.80037109889754,1.9655450388706,1.79841202358543,1.7992529924999,1.79952057351814,1.80039976829235,1.80074380103009,1.84958689332367,1.80378275688009,1.80295134443056,1.85262584917368,1.88277649605027,1.88195464006568,1.80279844099157,1.80324759484361,1.80190968975242,1.80367763576578,1.97415541377894,1.80432747538151,1.98200127149231,1.80009396141437,1.80258819876295,1.80254041643827,1.79939633947396,1.97721348255882,1.85052342688751,1.84859302097021,1.84862169036503,1.85020806354459,1.84892749724301,1.84806741539867,1.79982638039613,1.79857448348936,1.79634782715902,1.7969881103098,1.79650073059801,1.79669185989675,1.84573563795402,1.79624270604471,1.79542085006012,1.79440786477678,1.72793309467423,1.72835357913146,1.72632760856479,1.72632760856479,1.72548663965032,1.72268659542375,1.72072752011164,1.72017324514529,1.71815683104356,1.7198674382673,1.71932271976589,1.78973475342254,1.71585372299371,1.76077866466308,1.7639514110222
0,0,0,0,0,0,0,0,0,0,0,0,0,0,0,0,0,0,0,0,0,0,0,0,0,0,0,0,0,0,0,0,0,0,0,0,0,0,0,0,0,0,0,0,0,0,0,0,0,0,0,0,0,0,0,0,0,0,0,0,0,0,0,0,0,0,0,0,0,0,0,0,0,0,0,0,0,0,0,0,0,0,0,0,0,0,0,0,0,0,0,0,0,0,0,0,0,0,0,0,0,0,0,0,0,0,0,0,0,0,0,0,0,0,0,0,0,0,0,0,0,0,0,0,0,0,0,0,0,0,0,0,0,0,0,0,0,0,0,0,0,0,0,0,0,0,0,0,0,0,0,0,0,0,0,0,0,0,0,0,0,0,0,0,0,0,0,0,0,0,0,0,0,0,0,0,0,0,0,0,0,0,0,0,0,0,0,0,0,0,0,0,0,0,0,0,0,0,0,0,0,0,0,0,0,0,0,0,0,0,0,0,0,0
1.71480251185063,1.71528989156242,1.71291033179308,1.71316835634639,1.71301545290739,1.81246958350793,1.81415152133686,1.71664690958349,1.71494585882469,1.71561481137029,1.71679025655755,1.71722029747972,1.71712473283035,1.77858235884092,1.85069544325638,1.77820965670838,1.85130705701235,1.85212891299695,1.84947221574443,1.85273097028798,1.84666261505292,1.84729334173877,1.84735068052839,1.85496718308327,1.85609484594585,1.84550628279553,1.85670645970182,1.8427444644287,1.84308849716644,1.84219018946235,1.84272535149883,1.84232397997147,1.85859863975937,1.85811126004758,1.84180793086486,1.76743952072425,1.84309805363137,1.84366188506266,1.94583005170534,1.86265058089271,1.7631773373623,1.86207719299648,1.76285241755444,1.76293842573887,1.95065606649858,1.83434433174898,1.86507792298673,1.76340669252079,1.83569179330511,1.86583288371677,1.83551977693624,1.8389601043136,1.86543151218941,1.76631185786167,1.86451409155545,1.84164547096093,1.84123454296864,1.84549672633059,1.86620558584931,1.86543151218941,1.8681073223718,1.85439379518704,1.85493851368846,1.86258368563815,1.86173316025875,1.97180452340441,1.80338138535273,1.84132055115307,1.91435105620249,1.91491488763378,1.84132055115307,1.84234309290134,1.92471982065926,1.91677839829652,1.92612462100501,1.84291648079757,1.84085228437115,1.84218063299741,1.9174951331668,1.91717021335894,1.91784872236947,1.92096412993897,1.91467597601035,1.91818319864227,1.92785434115863,1.91634835737435,1.8425628915949,1.91820231157215,1.92087812175454,1.918833038258,1.91777227064998,1.93134245086068,1.84650971161392,1.84777116498562,1.93530838380958,1.92292320525108,1.94091802872766,1.94456859833364,1.94492218753631,1.9241655456929,1.92413687629809,1.93192539522184,1.92510207925674,1.92747208256115,1.9473399731654,1.85456581155591,1.93647427253191,1.93456297954448,1.93458209247436,1.93530838380958,1.92651643606743,1.92885776997703,1.93381757527939,1.93744903195549,1.92979430354086,1.93585310231099,1.95640905839072,1.93306261454936,1.95596946100362,1.93423805973662,1.93160047541398,1.9413385131849,1.94300133808396,1.9428579911099,1.94197879633568,1.94511331683506,1.94070778649905,1.93124688621131,1.93019567506822,1.95460288651761,1.85827371995151,1.85908601947116,1.9364456031371,1.93509814158096,1.93268991241681,1.93188716936209,1.85916247119066,1.93255612190769,1.93403737397294,1.93126599914118,1.93693298284889,1.93441007610549,1.95244312544182,1.95294006161855,1.94098492398222,1.94555291422216,1.93396092225345,1.96496209450944,1.96340439072469,1.80098271265352,1.80562715461295,1.79953968644801,1.79737036890729,1.8512401617578,1.85029407172902,1.85238693755025,1.79953968644801,1.80183323803292,1.80082980921452,1.97104000620944,1.80003662262474,1.80165166519912,1.97297041212674,1.80343872414236,1.8026264246227,1.80224416602522,1.80094448679377,1.80492953267255,1.88153415560844,1.85281697847242,1.85195689662808,1.80039976829235,1.97819779844734,1.97122157904325,1.97477658399986,1.80287489271107,1.97851316179027,1.80543602531421,1.80273154573701,1.80497731499723,1.80265509401751,1.8026264246227,1.80233973067459,1.80223460956028,1.80015130020399,1.7997690416065,1.79887073390242,1.98184836805332,1.79916698431547,1.79755194174109,1.80167077812899,1.7946945587249,1.79756149820603,1.79565020521861,1.79733214304754,1.96234362311667,1.79338532302851,1.79609935907065,1.79379625102081,1.72882184591338,1.72674809302202,1.72667164130253,1.72378558889152,1.72296373290693,1.71991522059199,1.72114800456887,1.72114800456887,1.71954251845944,1.71794658881494,1.99529431421984,1.80616231664943,1.82230318592822,1.81919733482365,1.71150553144733
1.71399021233098,1.8096313134216,1.81093099265305,1.71595884410802,1.82179669328655,1.8219113708658,1.71390420414654,1.71602573936258,1.71659912725881,1.71663735311856,1.71748787849796,1.88171572844225,1.71890223530865,1.85432689993248,1.85135483933704,1.93117999095675,1.93388447053395,1.93134245086068,1.85159375096047,1.84822031883767,1.93461076186917,1.932661243022,1.85444157751173,1.85552145804962,1.93118954742168,1.84758003568688,1.85833105874113,1.85945872160371,1.84178881793499,1.86056727153642,1.84244821401565,1.84224752825197,1.86100686892352,1.76743952072425,1.7678122228568,1.76728661728526,1.86172360379381,1.83819558711864,1.83770820740684,1.83806179660952,1.84204684248829,1.83788022377571,1.86316662999931,1.86419872821252,1.83782288498609,1.83622695534159,1.83683856909757,1.95118167207012,1.83604538250779,1.83586380967398,1.94189278815125,1.76527975964846,1.76546133248227,1.83982018615795,1.84277313382351,1.84109119599458,1.867772846099,1.84361410273798,1.86586155311158,1.84782850377525,1.96825907491274,1.85482383610921,1.85921980998028,1.86525949582054,1.86746703922101,1.97081065105095,1.91720843921869,1.91644392202372,1.93578620705643,1.93523193209008,1.9180876339929,1.91860368309951,1.84131099468813,1.84180793086486,1.84312672302619,1.84372878031722,1.84330829585999,1.84373833678216,1.8421519636026,1.84259156098971,1.92070610538567,1.91465686308048,1.9144561773168,1.91541182381051,1.92945027080313,1.92908712513552,1.91943509554903,1.93716233800738,1.91818319864227,1.91896682876712,1.84561140390984,1.93278547706618,1.9346967700536,1.94076512528867,1.84851656925072,1.93407559983269,1.95458377358774,1.93304350161948,1.94341226607625,1.92487272409825,1.85451802923122,1.92528365209055,1.92490139349306,1.92481538530863,1.93473499591335,1.85489073136377,1.85813992944239,1.93102708751775,1.93334930849747,1.97461412409593,1.94458771126352,1.95158304359748,1.94480750995707,1.94802803864088,1.94266686181116,1.93468721358867,1.95423018438506,1.93074995003458,1.85828327641645,1.93103664398269,1.93103664398269,1.85916247119066,1.93064482892027,1.94654678657562,1.93198273401146,1.932661243022,1.9425235148371,1.95552986361651,1.96851709946605,1.93290971111036,1.93229809735439,1.94777957055251,1.93941766373254,1.95288272282893,1.85863686561912,1.85836928460088,1.93406604336775,1.93395136578851,1.93040591729684,1.93223120209983,1.93736302377106,1.93492612521209,1.93490701228222,1.94861098300204,1.94724440851603,1.94138629550958,1.80351517586185,1.80278888452663,1.80173767338355,1.95859748886132,1.80040932475729,1.80054311526641,1.79978815453638,1.88559565320672,1.85222447764632,1.85460403741566,1.8549480701534,1.79991238858056,1.79841202358543,1.79798198266326,1.79913831492065,1.89069880548313,1.79935811361421,1.88741138154477,1.80179501217317,1.85638153989396,1.89471252075672,1.80202436733166,1.80322848191374,1.98434260540191,1.80455683054,1.80424146719707,1.97485303571935,1.98734333539216,1.80214860137585,1.96826863137768,1.80313291726437,1.80281755392144,1.80252130350839,1.80588517916626,1.80061956698591,1.86178094258343,1.80225372249015,1.9660324185824,1.80180456863811,1.80046666354691,1.79800109559314,1.79774307103984,1.79824000721657,1.79887073390242,1.97072464286652,1.79398738031955,1.7944365341716,1.79522016429644,1.79517238197175,1.79438875184691,1.79479012337427,1.793614678187,1.72574466420363,1.72426341213837,1.7276177313313,1.72429208153319,1.72310707988098,1.72133913386762,1.72104288345457,1.72233300622108,1.71824283922799,1.71977187361793,1.7168284824173,1.71737320091872,1.71565303723003,1.71320658220613,1.76231725551796,1.82312504191281
1.82161512045274,1.82270455745558,1.71476428599088,1.76543266308746,1.71772679012139,1.71712473283035,1.71704828111085,1.71609263461714,1.71665646604843,1.88500315238062,1.71683803888224,1.71980054301274,1.71940872795032,1.92973696475124,1.85858908329444,1.93426672913143,1.85817815530214,1.85331391464915,1.8574996462916,1.93427628559637,1.93265168655706,1.93085507114888,1.84929064291062,1.94031597143663,1.84706398658028,1.85947783453359,1.86522126996079,1.84360454627304,1.85855085743469,1.84528648410197,1.84545850047084,1.86144646631063,1.86106420771315,1.94452081600896,1.86149424863532,1.84202772955842,1.76667500352928,1.76611117209799,1.94223682088899,1.76628318846686,1.76635008372142,1.83804268367964,1.83806179660952,1.76381762051308,1.83672389151832,1.94417678327122,1.83655187514945,1.95314074738223,1.8397819602982,1.83735461820417,1.86819333055623,1.8675148215457,1.76665589059941,1.84036490465936,1.84059425981785,1.84272535149883,1.8675912732652,1.84463664448625,1.94386141992829,1.8513452828721,1.85220536471644,1.85299855130622,1.93854802542326,1.86821244348611,1.86740014396645,1.97165161996542,1.92255050311853,1.91919618392561,1.91754291549149,1.9190146110918,1.9225409466536,1.9249874016775,1.93031990911241,1.92031429032325,1.92155663076507,1.91859412663457,1.84277313382351,1.91799206934353,1.84456019276675,1.84228575411172,1.84090006669584,1.84186526965449,1.91687396294589,1.92556078957372,1.91557428371444,1.84372878031722,1.92445223964102,1.91943509554903,1.92884821351209,1.93904496159999,1.92076344417529,1.9282079303613,1.92209179280155,1.9297274082863,1.93053015134102,1.84846878692603,1.84898483603264,1.85207157420732,1.93887294523112,1.93742991902562,1.92945027080313,1.9260959516102,1.92554167664385,1.92605772575045,1.9257614753374,1.85577948260292,1.85563613562887,1.93153358015942,1.85684025021094,1.8556456920938,1.94232282907342,1.85558835330418,1.9431924673827,1.85993654485057,1.9450464215805,1.94054532659512,1.94865876532673,1.93327285677797,1.85839795399569,1.93109398277231,1.93279503353112,1.94095625458741,1.95061784063883,1.94520888148443,1.94219859502924,1.93131378146587,1.86006077889475,1.95423018438506,1.85837884106582,1.94498908279087,1.8590955759361,1.93171515299322,1.93128511207105,1.9536472400239,1.94531400259874,1.93117043449181,1.93460120540423,1.9307308371047,1.93778350822829,1.93779306469323,1.937372580236,1.93654116778647,1.93563330361744,1.93462987479904,1.94570581766116,1.95002533981273,1.94884033816053,1.80399299910871,1.88684755011348,1.96148354127233,1.8017758992433,1.80152743115493,1.79998884030006,1.80029464717805,1.85530165935607,1.85705049243956,1.80054311526641,1.79741815123197,1.8943971574138,1.79708367495918,1.79950146058826,1.79894718562191,1.88813767287999,1.80180456863811,1.85661089505245,1.85745186396692,1.85623819291991,1.85534944168075,1.80339094181767,1.99373661043509,1.80104005144314,1.80293223150069,1.80261686815776,1.80210081905116,1.80309469140462,1.80259775522789,1.80213904491091,1.98721910134798,1.80200525440179,1.84962511918342,1.89142509681836,1.80290356210588,1.80205303672647,1.80186190742773,1.98458151702533,1.9694058507052,1.79717923960855,1.97606670676637,1.8807505254836,1.87884878896111,1.79877516925304,1.79818266842694,1.98540337300993,1.79534439834062,1.79538262420037,1.79560242289392,1.79557375349911,1.79385358981043,1.7279522076041,1.7285447084302,1.72467434013067,1.82525613359378,1.83241392583168,1.82155778166312,1.82764524982806,1.72166405367548,1.76600605098368,1.76455346831324,1.71939917148538,1.78036941778416,1.71627420745095,1.82484520560149,1.82324927595699,1.71348371968931
1.71670424837312,1.76346403131041,1.76445790366387,1.71922715511652,1.71843396852673,1.71684759534717,1.71614997340676,1.71656090139906,1.71683803888224,1.71926538097626,1.96448427126259,1.71803259699938,1.88796565651112,1.77984381221262,1.78013050616074,1.9362926996981,1.93732479791131,1.85297943837635,1.85272141382305,1.85141217812666,1.85223403411125,1.93850024309857,1.84999782131597,1.85895222896205,1.94541912371304,1.84751314043232,1.84894661017289,1.77261912472017,1.84558273451502,1.93332063910266,1.84629946938531,1.84584075906833,1.86244033866409,1.84265845624427,1.86443763983595,1.86325263818375,1.8634724368773,1.86240211280434,1.86281304079664,1.86551752037384,1.83824336944332,1.83845361167194,1.7657002441057,1.86451409155545,1.86470522085419,1.84004954131644,1.83616961655197,1.9504553807349,1.83799490135496,1.8397819602982,1.76605383330837,1.94139585197452,1.83893143491879,1.86608135180513,1.84186526965449,1.84434995053814,1.76718149617095,1.84549672633059,1.77612634735209,1.86890050896158,1.85189000137352,1.85343814869333,1.78295921978212,1.86152291803013,1.86885272663689,1.9410040369121,1.92165219541444,1.92902022988096,1.92048630669212,1.84456019276675,1.84496156429411,1.84407281305496,1.91576541301318,1.92123171095721,1.92472937712419,1.91924396625029,1.92105013812341,1.92006582223488,1.91717976982388,1.91694085820045,1.83980107322807,1.9216139695547,1.91879481239825,1.93719100740219,1.92835127733536,1.91655859960296,1.8449328948993,1.84613700948138,1.93811798450109,1.93853846895832,1.94125250500046,1.84801007660905,1.92819837389637,1.93735346730612,1.94148186015895,1.92991853758505,1.93113220863206,1.93427628559637,1.938892058161,1.92612462100501,1.92407953750847,1.95485135460598,1.85415488356361,1.92712804982341,1.92636353262844,1.93046325608646,1.93780262115817,1.96800105035944,1.85649621747321,1.94797069985125,1.94713928740172,1.94837207137861,1.9388156064415,1.85926759230497,1.95088542165707,1.95385748225252,1.95097142984151,1.93531794027452,1.93275680767137,1.93247011372326,1.85831194581126,1.92859974542373,1.85986964959601,1.93415205155219,1.93341620375203,1.9333301955676,1.85969763322714,1.95768006822736,1.85890444663736,1.94869699118647,1.93252745251288,1.93330152617278,1.9329192675753,1.93447697136005,1.93620669151367,1.93718145093725,1.93472543944841,1.93423805973662,1.93878693704669,1.93735346730612,1.93913096978442,1.938739154722,1.93830911379983,1.93685653112939,1.93248922665313,1.95267248060031,1.95083763933239,1.80555070289346,1.97789199156935,1.80490086327773,1.80323803837868,1.79953968644801,1.80261686815776,1.8016994475238,1.80147964883025,1.84843056106628,1.84658616333342,1.79889940329723,1.79977859807144,1.79944412179864,1.79933900068433,1.80138408418088,1.79909053259597,1.79934855714927,1.85807303418783,1.85587504725229,1.85707916183437,1.80336227242286,1.80326670777349,1.80342916767742,1.80349606293198,1.80240662592915,1.87202547299602,1.80339094181767,1.79997928383512,1.80173767338355,1.80401211203858,1.80258819876295,1.97994663153083,1.80344828060729,1.87999556475357,1.87835185278438,1.84873636794427,1.80056222819628,1.80232061774471,1.79955879937789,1.9705144006379,1.88572944371584,1.79538262420037,1.79532528541075,1.88594924240939,1.88248024563722,1.7936911299065,1.97113557085882,1.96328015668051,1.96824951844781,1.79290749978166,1.79378669455587,1.72935700794986,1.82510323015479,1.72589756764262,1.72409139576951,1.72121489982343,1.72082308476101,1.72132957740268,1.76756375476843,1.71929405037107,1.71893090470346,1.7170100552511,1.81969427100038,1.76208790035947,1.82328750181674,1.82025810243167,1.71348371968931
0,0,0,0,0,0,0,0,0,0,0,0,0,0,0,0,0,0,0,0,0,0,0,0,0,0,0,0,0,0,0,0,0,0,0,0,0,0,0,0,0,0,0,0,0,0,0,0,0,0,0,0,0,0,0,0,0,0,0,0,0,0,0,0,0,0,0,0,0,0,0,0,0,0,0,0,0,0,0,0,0,0,0,0,0,0,0,0,0,0,0,0,0,0,0,0,0,0,0,0,0,0,0,0,0,0,0,0,0,0,0,0,0,0,0,0,0,0,0,0,0,0,0,0,0,0,0,0,0,0,0,0,0,0,0,0,0,0,0,0,0,0,0,0,0,0,0,0,0,0,0,0,0,0,0,0,0,0,0,0,0,0,0,0,0,0,0,0,0,0,0,0,0,0,0,0,0,0,0,0,0,0,0,0,0,0,0,0,0,0,0,0,0,0,0,0,0,0,0,0,0,0,0,0,0,0,0,0,0,0,0,0,0,0
1.71684759534717,1.7668087940384,1.76577669582519,1.71989610766211,1.72092820587532,1.7190933646074,1.80642034120273,1.71939917148538,1.76710504445145,1.7674012948645,1.71997255938161,1.72034526151416,1.72291595058224,1.85933448755953,1.78176466166498,1.78201312975335,1.85813037297745,1.94072689942892,1.93850024309857,1.93874871118694,1.94076512528867,1.94053577013018,1.85977408494664,1.85792968721377,1.77655638827426,1.77620279907158,1.86214408825104,1.934180720947,1.84623257413075,1.84505712894348,1.77249489067598,1.84477043499537,1.84458886216156,1.76972351584422,1.86568953674271,1.94822872440456,1.76860540944658,1.76904500683369,1.86508747945167,1.83990619434238,1.84112942185433,1.83932324998122,1.8379280061004,1.86854691975891,1.83833893409269,1.83914167714741,1.7636933864689,1.76336846666104,1.83931369351628,1.86590933543626,1.83831982116282,1.84002087192162,1.83966728271895,1.84287825493782,1.84393902254584,1.84516225005779,1.84613700948138,1.84507624187336,1.77487445044532,1.77597344391309,1.85158419449553,1.77984381221262,1.8710698265023,1.86975103434098,1.96655802415394,1.95805277035991,1.84561140390984,1.91490533116884,1.84409192598483,1.93162914480879,1.93311039687404,1.94090847226273,1.91601388110155,1.9286188583536,1.92056275841161,1.91995114465564,1.92445223964102,1.84481821732006,1.84345164283405,1.84368099799254,1.84570696855921,1.92463381247482,1.91919618392561,1.94117605328097,1.92077300064023,1.93108442630737,1.9345151972198,1.94189278815125,1.92897244755627,1.93107486984244,1.92071566185061,1.92036207264793,1.92116481570265,1.928102809247,1.8498258049471,1.85038963637839,1.93300527575973,1.93131378146587,1.93056837720077,1.92476760298394,1.92467203833457,1.92790212348332,1.92906801220564,1.92724272740266,1.9274338567014,1.9447119453077,1.93856713835313,1.94424367852578,1.94774134469276,1.8556456920938,1.94804715157075,1.93268035595187,1.85975497201676,1.94427234792059,1.93748725781524,1.94415767034135,1.93547084371351,1.94077468175361,1.86079662669491,1.85911468886598,1.85889489017242,1.94124294853553,1.93539439199401,1.94705327921729,1.93804153278159,1.93593911049543,1.93484011702766,1.9317342659231,1.93276636413631,1.95040759841022,1.94355561305031,1.93471588298348,1.93548995664338,1.9533892154706,1.93689475698914,1.93676096648002,1.937372580236,1.94019173739244,1.93679919233977,1.93817532329071,1.93791729873741,1.93417116448206,1.94039242315612,1.93775483883348,1.94483617935188,1.94777001408757,1.93517459330046,1.96693072628649,1.80363940990604,1.8038878779944,1.80359162758135,1.89763679902748,1.89579240129462,1.79826867661138,1.88963803787512,1.79876561278811,1.79798198266326,1.79846936237506,1.79952057351814,1.79998884030006,1.79959702523764,1.79861270934911,1.79876561278811,1.7995110170532,1.80126940660163,1.7996639204922,1.80218682723559,1.80248307764864,1.80190968975242,1.8035534017216,1.80385920859959,1.80194791561217,1.98415147610316,1.98808873965725,1.80366807930085,1.80234928713952,1.97922989666055,1.96463717470158,1.8023684000694,1.80215815784078,1.80213904491091,1.8023684000694,1.80090626093402,1.80198614147191,1.79913831492065,1.84808652832855,1.84691108314128,1.79847891883999,1.84697797839584,1.79573621340304,1.7968829891955,1.79692121505524,1.97493904390379,1.7939491544598,1.97139359541212,1.79498125267301,1.79439830831185,1.7930986290804,1.81828947065463,1.72777063477029,1.80858965874346,1.72421562981369,1.72291595058224,1.71998211584655,1.81926423007821,1.76558556652645,1.76550911480695,1.76581492168494,1.80588517916626,1.7618394322711,1.78732652425838,1.76244148956214,1.76083600345271,1.8263169012018
1.72013501928554,1.7174974349629,1.71897868702815,1.76630230139673,1.71981009947768,1.71964763957375,1.72074663304152,1.81446688467978,1.71977187361793,1.88971448959461,1.80233017420965,1.76912145855318,1.87279954665592,1.85610440241079,1.86194340248736,1.85934404402447,1.9344387455003,1.93277592060124,1.93994326930408,1.85339036636865,1.86080618315985,1.93548995664338,1.85229137290088,1.84971112736786,1.7766710658535,1.93709544275282,1.84682507495685,1.77328807726576,1.77226553551749,1.86310929120969,1.8462707999905,1.86424651053721,1.93699032163851,1.94570581766116,1.76640742251104,1.86563219795309,1.86609090827007,1.86850869389916,1.86763905558988,1.95067517942846,1.84080450204647,1.76703814919689,1.86897696068108,1.94093714165754,1.86830800813548,1.86872849259271,1.83814780479395,1.76505040448997,1.83814780479395,1.86882405724208,1.83835804702257,1.94195968340581,1.84169325328562,1.76922657966749,1.7696661770546,1.77173037348101,1.8459363237177,1.84847834339097,1.84965378857823,1.84894661017289,1.77944244068526,1.94850586188773,1.87073535022951,1.85907646300623,1.87132785105561,1.94532355906367,1.92251227725878,1.93182983057247,1.9411856097459,1.9208685652896,1.92499695814243,1.9418545622915,1.94383275053348,1.93468721358867,1.92208223633661,1.92089723468441,1.92114570277278,1.84465575741612,1.84556362158515,1.84320317474568,1.84490422550449,1.92540788613473,1.93086462761382,1.91813541631759,1.84545850047084,1.93263257362719,1.91758114135123,1.91878525593331,1.84675817970229,1.91781049650972,1.93800330692184,1.9241655456929,1.84875548087415,1.84801007660905,1.84959644978861,1.94483617935188,1.93238410553882,1.92461469954495,1.93414249508725,1.92814103510674,1.92581881412703,1.85531121582101,1.9384046784492,1.92838950319511,1.92723317093772,1.92557034603866,1.92757720367545,1.94544779310786,1.94150097308883,1.94097536751729,1.94861098300204,1.9433740402165,1.86052904567667,1.93247967018819,1.85820682469695,1.94227504674873,1.93449608428992,1.94783690934213,1.94857275714229,1.95200352805472,1.85997477071032,1.85927714876991,1.9375541530698,1.94151052955377,1.94491263107138,1.8590955759361,1.94670924647955,1.95756539064812,1.93453431014967,1.93909274392468,1.95178372936116,1.93176293531791,1.94526622027405,1.9350312463264,1.93448652782499,1.86167582146912,1.93898762281037,1.93546128724857,1.93529882734464,1.93827088794008,1.93844290430895,1.8621345317861,1.93516503683552,1.94788469166682,1.93500257693159,1.95452643479811,1.99113725197219,1.99214068079059,1.96801060682438,1.80086803507427,1.80004617908968,1.80064823638072,1.80226327895509,1.80133630185619,1.96434092428853,1.79715057021374,1.80168989105886,1.79967347695713,1.97901965443193,1.79895674208685,1.89440671387873,1.88494581359099,1.79904275027128,1.80163255226924,1.79979771100132,1.96799149389451,1.96736076720866,1.79929121835965,1.80155610054974,1.80056222819628,1.80430836245163,1.80427969305682,1.88847214915279,1.88888307714508,1.85162242035528,1.80510154904141,1.96677782284749,1.96491431218475,1.9751492861324,1.80344828060729,1.98320538607439,1.80282711038638,1.80200525440179,1.80204348026154,1.79948234765839,1.88488847480137,1.97216766907202,1.79608024614078,1.79707411849424,1.79440786477678,1.79625226250965,1.84311716656125,1.79515326904188,1.97442299479718,1.98377877397062,1.79458943761059,1.79365290404675,1.79559286642899,1.7275412796118,1.77509424913888,1.77307783503715,1.72242857087045,1.72166405367548,1.71692404706667,1.815346079454,1.76699036687221,1.82602065078875,1.82346907465054,1.71658001432893,1.76308177271293,1.80690772091453,1.80847498116421,1.7625083848167,1.76271862704532
1.81841370469881,1.72028792272453,1.7684811754024,1.76967573351954,1.72243812733539,1.72062239899733,1.72136780326243,1.72222788510677,1.80091581739896,1.8016994475238,1.87495930773171,1.87461527499397,1.77273380229941,1.78567325582426,1.86084440901959,1.85469960206503,1.85455625509097,1.85517742531189,1.86048126335198,1.85271185735811,1.86218231411079,1.85431734346755,1.85508186066251,1.84841144813641,1.77612634735209,1.77668062231844,1.84690152667635,1.84524825824223,1.84651926807886,1.95160215652736,1.84310761009631,1.76920746673762,1.76991464514296,1.76906411976356,1.84311716656125,1.84298337605213,1.84316494888593,1.84226664118185,1.84168369682068,1.94087024640298,1.94444436428946,1.86891962189145,1.83894099138373,1.9444539207544,1.76563334885114,1.9409275851926,1.94253307130204,1.8397819602982,1.84041268698405,1.76658899534485,1.76622584967724,1.76599649451875,1.76715282677614,1.84244821401565,1.87214015057526,1.77006754858196,1.95889373927437,1.77325940787095,1.85233915522556,1.95741248720912,1.87306712767416,1.85736585578248,1.85900956775167,1.78886511511326,1.78962007584329,1.96794371156982,1.93758282246461,1.93275680767137,1.84648104221911,1.92815059157168,1.84465575741612,1.84521003238248,1.92742430023646,1.84449329751219,1.92172864713394,1.8451909194526,1.84463664448625,1.84508579833829,1.84502845954867,1.8456782991644,1.91764803660579,1.920352516183,1.84607011422682,1.94057399598993,1.92420377155265,1.84532470996172,1.92113614630784,1.92492050642294,1.92422288448253,1.92407953750847,1.93267079948694,1.84945310281455,1.8494913286743,1.9424470631176,1.85065721739663,1.94412900094653,1.94123339207059,1.92707071103379,1.93519370623033,1.948008925711,1.95064651003365,1.85292209958673,1.94554335775723,1.94435835610502,1.85777678377478,1.9468239240588,1.94561025301179,1.92970829535643,1.85623819291991,1.94467371944795,1.94754065892908,1.94702460982248,1.94871610411635,1.94473105823757,1.93493568167703,1.93398003518332,1.94866832179166,1.96174156582563,1.94253307130204,1.94725396498097,1.9339226963937,1.86109287710796,1.95491824986054,1.94062177831461,1.86130311933657,1.95175505996635,1.94670924647955,1.86135090166126,1.93312950980392,1.93473499591335,1.95073251821808,1.93484011702766,1.9327376947415,1.93484011702766,1.93767838711398,1.93815621036084,1.93858625128301,1.94066000417436,1.94042109255093,1.93789818580754,1.93804153278159,1.86183828137305,1.95444998307862,1.86078707022997,1.93433362438599,1.96774302580614,1.8612840064067,1.99205467260616,1.80487219388292,1.80241618239408,1.84839233520654,1.80209126258622,1.96954919767926,1.80030420364298,1.80035198596767,1.79724613486311,1.97504416501809,1.89537191683738,1.89541014269713,1.79870827399848,1.79852670116468,1.79741815123197,1.80055267173135,1.80042843768717,1.79845980591012,1.79940589593889,1.9704092795236,1.88892130300483,1.80238751299927,1.80256908583308,1.97769130580568,1.80344828060729,1.85198556602289,1.80530223480509,1.80425102366201,1.80400255557364,1.99129971187612,1.80538824298953,1.85132616994223,1.84961556271849,1.80513977490116,1.80276021513182,1.80109739023276,1.80281755392144,1.80223460956028,1.80141275357569,1.79892807269204,1.79659629524738,1.98089272155961,1.79736081244235,1.79550685824455,1.79312729847521,1.99379394922471,1.79307951615053,1.79571710047317,1.79167471580477,1.79396826738968,1.79094842446955,1.77552429006105,1.72745527142737,1.77181638166545,1.80727086658214,1.72323131392517,1.72017324514529,1.71932271976589,1.7668852457579,1.71931316330095,1.71771723365645,1.71496497175456,1.8094497405878,1.80906748199032,1.80565582400777,1.71357928433868,1.76228858612315
1.72247635319513,1.72227566743145,1.72259103077438,1.72247635319513,1.89516167460877,1.89519990046852,1.72193163469372,1.72399583112013,1.72237123208083,1.77019178262614,1.77093718689123,1.77306827857221,1.72284905532768,1.78526232783197,1.85942049574396,1.85569347441849,1.85767166266047,1.94112827095628,1.85581770846267,1.78006361090618,1.93958012363647,1.85375351203626,1.96046099952406,1.77690042101199,1.85249205866456,1.77656594473919,1.77593521805334,1.77352698888919,1.8471977770894,1.84692063960622,1.77323073847614,1.84456974923169,1.8456782991644,1.94002927748851,1.86594756129601,1.86761994266001,1.84237176229615,1.86644449747274,1.95079941347264,1.94139585197452,1.94720618265628,1.86764861205482,1.8403744611243,1.86925409816425,1.76649343069548,1.86990393777998,1.84002087192162,1.84197994723373,1.96049922538381,1.96190402572956,1.94784646580707,1.8731531358586,1.84193216490905,1.84271579503389,1.8726657561468,1.87186301309209,1.95381925639277,1.84539160521628,1.87349716859633,1.87417567760687,1.9516403823871,1.78445002831231,1.85721295234349,1.8743381375108,1.87388898365875,1.98073981812061,1.95529095199308,1.92099279933378,1.93369334123521,1.92102146872859,1.94537134138836,1.93129466853599,1.93617802211886,1.84605100129694,1.9344387455003,1.92157574369495,1.84496156429411,1.84570696855921,1.84545850047084,1.84722644648421,1.91888082058268,1.84714043829977,1.92781611529888,1.92546522492435,1.84815342358311,1.93100797458788,1.92749119549102,1.84811519772336,1.93547084371351,1.95215643149371,1.94021085032232,1.93583398938112,1.94055488306005,1.92418465862278,1.92226380917042,1.9410040369121,1.85210980006707,1.94844852309811,1.85451802923122,1.96082414519167,1.92835127733536,1.94403343629716,1.9278734540885,1.93062571599039,1.93064482892027,1.92933559322388,1.9478273528772,1.85645799161346,1.94732086023553,1.92834172087042,1.94149141662389,1.93535616613426,1.95842547249246,1.94956662949575,1.94770311883301,1.9391500827143,1.93632136909291,1.94539045431823,1.94693860163805,1.93249878311807,1.94845807956305,1.86165670853925,1.96811572793869,1.93945588959229,1.95011134799717,1.93891117109087,1.93640737727735,1.8610259818534,1.93388447053395,1.86145602277557,1.93853846895832,1.93440051964055,1.93525104501996,1.95872172290551,1.94515154269481,1.93398003518332,1.94174944117719,1.94158698127326,1.94138629550958,1.94155831187845,1.93495479460691,1.93626403030329,1.9552431696684,1.93379846234952,1.93768794357892,1.96210471149324,1.80527356541028,1.85258762331393,1.80319025605399,1.99328745658304,1.80231106127978,1.80028509071311,1.84847834339097,1.84732201113358,1.8461178965515,1.79839291065556,1.79741815123197,1.79802976498795,1.79888984683229,1.89593574826867,1.79734169951248,1.84478954792524,1.79645294827333,1.7960611332109,1.79867960460367,1.79718879607348,1.80185235096279,1.80146053590037,1.85306544656078,1.85139306519679,1.85135483933704,1.80478618569849,1.80351517586185,1.8048148550933,1.80452816114519,1.97079153812108,1.8050728796466,1.8532756887894,1.88229867280341,1.8034769500021,1.85026540233421,1.80064823638072,1.80200525440179,1.79919565371028,1.88539496744304,1.97858005704483,1.79900452441154,1.79956835584282,1.79625226250965,1.79829734600619,1.79802020852301,1.89096638650137,1.79611847200053,1.79363379111688,1.79247745885949,1.79026035899408,1.79426451780273,1.79331842777395,1.77663283999375,1.72758906193649,1.85464226327541,1.7229063941173,1.72202719934309,1.72083264122595,1.8257244003757,1.71561481137029,1.81807922842601,1.71701961171604,1.80983199918528,1.71584416652878,1.80969820867616,1.71519432691305,1.71192601590456,1.70862903550126
0,0,0,0,0,0,0,0,0,0,0,0,0,0,0,0,0,0,0,0,0,0,0,0,0,0,0,0,0,0,0,0,0,0,0,0,0,0,0,0,0,0,0,0,0,0,0,0,0,0,0,0,0,0,0,0,0,0,0,0,0,0,0,0,0,0,0,0,0,0,0,0,0,0,0,0,0,0,0,0,0,0,0,0,0,0,0,0,0,0,0,0,0,0,0,0,0,0,0,0,0,0,0,0,0,0,0,0,0,0,0,0,0,0,0,0,0,0,0,0,0,0,0,0,0,0,0,0,0,0,0,0,0,0,0,0,0,0,0,0,0,0,0,0,0,0,0,0,0,0,0,0,0,0,0,0,0,0,0,0,0,0,0,0,0,0,0,0,0,0,0,0,0,0,0,0,0,0,0,0,0,0,0,0,0,0,0,0,0,0,0,0,0,0,0,0,0,0,0,0,0,0,0,0,0,0,0,0,0,0,0,0,0,0
1.72413917809419,1.72317397513554,1.722801273003,1.72373780656683,1.89290634888361,1.81667442808026,1.72428252506825,1.72223744157171,1.77124299376922,1.72559176076463,1.72630849563492,1.88888307714508,1.89289679241867,1.85717472648374,1.86177138611849,1.86293727484082,1.93686608759433,1.85555012744443,1.85686891960575,1.8613604581262,1.85485250550402,1.85419310942336,1.85232004229569,1.85296988191141,1.85352415687777,1.85248250219962,1.77703421152111,1.94439658196477,1.86515437470623,1.84932886877037,1.86691276425466,1.84525781470716,1.9405931089198,1.84536293582147,1.77049758950413,1.84541071814616,1.84208506834804,1.84133010761801,1.84126321236345,1.87104115710749,1.84295470665732,1.8411485347842,1.84028845293986,1.84049869516848,1.84035534819442,1.83945704049033,1.83943792756046,1.87203502946095,1.8402215576853,1.87191079541677,1.8710698265023,1.8424099881559,1.84219018946235,1.77058359768856,1.95328409435629,1.87345894273658,1.84620390473594,1.87186301309209,1.85148862984616,1.85277875261267,1.96174156582563,1.8730766841391,1.87354495092102,1.79010745555508,1.94823828086949,1.97560799644938,1.9223880432146,1.9227989712069,1.92263651130297,1.93810842803615,1.91861323956444,1.92274163241728,1.92121259802734,1.9212030415624,1.91839344087089,1.92270340655753,1.84590765432289,1.84614656594631,1.84533426642666,1.91978868475171,1.91972178949715,1.92176687299369,1.92391707760454,1.92081122649998,1.92604816928552,1.93377934941964,1.92884821351209,1.84886060198845,1.93523193209008,1.85130705701235,1.95881728755488,1.93718145093725,1.93719100740219,1.93864359007263,1.85436512579223,1.94465460651808,1.85187088844364,1.93462987479904,1.92773966357939,1.92786389762357,1.94755021539402,1.92975607768112,1.92973696475124,1.951200785,1.94991066223349,1.94469283237782,1.93203051633615,1.95199397158978,1.95393393397201,1.86176182965356,1.94998711395298,1.95185062461572,1.95543429896714,1.95737426134937,1.95163082592217,1.94022040678725,1.93335886496241,1.94189278815125,1.95377147406808,1.93667495829559,1.93053970780596,1.94180677996682,1.8622874352251,1.95081852640251,1.94837207137861,1.9357766505915,1.95526228259827,1.9421125868448,1.93489745581728,1.9343622937808,1.94335492728663,1.86176182965356,1.9463078749522,1.86211541885623,1.93742036256068,1.94091802872766,1.94022996325219,1.94426279145565,1.94197879633568,1.93849068663364,1.93799375045691,1.93677052294496,1.96053745124356,1.94438702549984,1.95387659518239,1.86469566438925,1.80432747538151,1.80310424786956,1.80147964883025,1.84977802262242,1.8483063270221,1.84869814208452,1.7989949679466,1.84824898823248,1.84699709132572,1.91174214127466,1.84581208967351,1.84499023368892,1.79682565040587,1.79467544579502,1.79868916106861,1.7965485129227,1.79961613816751,1.98170502107926,1.79878472571798,1.89513300521396,1.79944412179864,1.98541292947486,1.80276021513182,1.80167077812899,1.80308513493968,1.8032189254488,1.98461974288508,1.80248307764864,1.80421279780226,1.89455961731773,1.89296368767323,1.80525445248041,1.86802131418737,1.85236782462037,1.85137395226691,1.98072070519074,1.80250219057852,1.96560237766023,1.80113561609251,1.79998884030006,1.84863124682996,1.84746535810764,1.84601277543719,1.84521958884741,1.84497112075905,1.84378611910685,1.79566931814848,1.79354778293244,1.87480640429272,1.8398870814125,1.7894671724043,1.78023562727505,1.72789486881448,1.77532360429737,1.72625115684529,1.72343199968884,1.7224667967302,1.81377881920431,1.72030703565441,1.71751654789277,1.7174974349629,1.81543208763843,1.71555747258066,1.80678348687035,1.81058695991532,1.80858010227852,1.81224022834944,1.80974599100085
1.81014736252821,1.72193163469372,1.72388115354089,1.72637539088948,1.72599313229199,1.72500881640347,1.72603135815174,1.98446683944609,1.72699656111039,1.72624160038036,1.88833835864367,1.88981005424398,1.72614603573099,1.85612351534066,1.86230654815497,1.86483901136331,1.78364728525759,1.85592282957698,1.85484294903909,1.85500540894302,1.86564175441802,1.85467093267022,1.85534944168075,1.85163197682022,1.85179443672415,1.85037052344852,1.94099448044716,1.84975890969254,1.84981624848217,1.87024797051771,1.77399525567111,1.77060271061844,1.84881281966377,1.95151614834292,1.84587898492807,1.77065049294312,1.77002932272221,1.77032557313526,1.86953123564743,1.87164321439853,1.84161680156612,1.84324140060543,1.76793645690098,1.84153079338169,1.84187482611942,1.87165277086347,1.76638830958117,1.7685862965167,1.8398870814125,1.84168369682068,1.9554247425022,1.96052789477862,1.87478729136284,1.84531515349679,1.87443370216017,1.87319136171834,1.84465575741612,1.84622301766581,1.84998826485103,1.85246338926975,1.87462483145891,1.85447024690654,1.85919114058547,1.86505881005686,1.94949973424119,1.96715052498004,1.94707239214717,1.92643998434794,1.92626796797907,1.9545742171228,1.92228292210029,1.92134638853646,1.94780823994732,1.84832543995198,1.92489183702813,1.9253218779503,1.92417510215784,1.84777116498562,1.84772338266094,1.84699709132572,1.8481247541883,1.84741757578295,1.93090285347357,1.84895616663783,1.84862169036503,1.93113220863206,1.92267473716272,1.92019005627907,1.94760755418364,1.94578226938066,1.94510376037012,1.93626403030329,1.850752782046,1.94840074077342,1.94330714496194,1.85331391464915,1.95569232352044,1.94496041339606,1.93157180601917,1.85555968390937,1.9306543853852,1.85629553170953,1.9555776459412,1.9342571726665,1.93247967018819,1.85828327641645,1.93197317754653,1.93576709412656,1.85947783453359,1.85942049574396,1.95087586519214,1.94452081600896,1.97128847429781,1.95215643149371,1.93446741489511,1.94894545927484,1.93493568167703,1.94754065892908,1.93559507775769,1.94145319076414,1.9427050876709,1.95220421381839,1.94347916133081,1.95020691264654,1.94704372275235,1.95374280467327,1.85609484594585,1.94820961147468,1.93569064240706,1.94802803864088,1.9363691514176,1.93482100409779,1.95073251821808,1.94544779310786,1.93344487314684,1.94299178161902,1.94166343299276,1.94204569159024,1.9410804886316,1.94035419729637,1.94089891579779,1.94314468505801,1.93581487645125,1.93874871118694,1.93717189447232,1.93612068332923,1.89295413120829,1.8042223542672,1.9638439881118,1.80039976829235,1.84765648740638,1.8816775025825,1.88148637328376,1.79967347695713,1.91450395964148,1.91383500709589,1.7985840399543,1.79900452441154,1.79683520687081,1.79721746546829,1.79761883699565,1.97367759053209,1.79844069298025,1.79994105797537,1.89430159276443,1.79923387957003,1.80157521347962,1.80023730838842,1.97184274926416,1.80279844099157,1.80238751299927,1.80173767338355,1.80276977159676,1.80230150481484,1.98362587053162,1.85336169697383,1.85281697847242,1.85419310942336,1.80567493693764,1.80430836245163,1.80487219388292,1.80444215296075,1.96933895545064,1.80167077812899,1.9854224859398,1.80019908252867,1.79771440164502,1.79930077482459,1.7968829891955,1.84564007330465,1.84387212729128,1.84171236621549,1.79360512172207,1.79290749978166,1.79259213643873,1.84173147914537,1.7903941495032,1.79028902838889,1.72915632218618,1.92759631660533,1.7236517983824,1.72380470182139,1.81839459176894,1.72128179507799,1.71931316330095,1.71808037932406,1.71866332368523,1.7171629586901,1.71663735311856,1.71552880318585,1.81146615468953,1.71693360353161,1.80604763907019,1.71277654128396
1.77369900525806,1.72419651688381,1.72556309136982,1.72599313229199,1.72621293098554,1.72698700464545,1.72481768710473,1.72753172314687,1.89200804117952,1.88906464997889,1.88904553704901,1.88995340121804,1.89594530473361,1.85963073797258,1.85875154319837,1.86627248110387,1.86799264479255,1.85742319457211,1.78576882047363,1.85502452187289,1.85531121582101,1.85616174120041,1.86685542546504,1.86846091157447,1.94711061800691,1.94190234461619,1.86993260717479,1.84799096367918,1.84798140721424,1.86992305070985,1.84929064291062,1.87062067265026,1.84747491457257,1.84750358396738,1.84556362158515,1.8719968036012,1.84261067391958,1.84318406181581,1.87251285270781,1.87263708675199,1.87451015387967,1.84288781140276,1.84151168045181,1.87405144356268,1.87479684782778,1.87378386254444,1.87378386254444,1.76912145855318,1.8452673711721,1.84156901924144,1.87442414569523,1.94798981278113,1.77195972863951,1.84729334173877,1.84692063960622,1.84787628609993,1.84844011753122,1.85466137620528,1.85350504394789,1.87749177094004,1.85528254642619,1.87648834212165,1.95731692255975,1.86482945489837,1.87795048125703,1.96618532202139,1.94878299937091,1.95061784063883,1.94141496490439,1.9544977654033,1.92253139018866,1.94269553120597,1.92240715614448,1.84827765762729,1.92182421178331,1.84895616663783,1.84735068052839,1.84709265597509,1.84785717317006,1.92223513977561,1.84811519772336,1.92203445401193,1.92188155057294,1.92113614630784,1.92095457347404,1.84865035975984,1.92267473716272,1.92134638853646,1.94220815149417,1.91544049320532,1.85030362819396,1.85162242035528,1.85247294573468,1.85248250219962,1.85230092936581,1.94355561305031,1.93897806634543,1.94505597804543,1.95109566388569,1.93941766373254,1.95312163445236,1.93300527575973,1.95352300597972,1.95037892901541,1.94552424482735,1.93290971111036,1.95746982599874,1.93404693043788,1.93579576352137,1.86071061851047,1.93283325939087,1.95092364751682,1.93504080279134,1.93511725451084,1.95250046423145,1.9354421743187,1.94737819902515,1.95119122853506,1.93483056056272,1.94730174730566,1.94502730865062,1.86204852360167,1.93529882734464,1.9429344428294,1.94764578004339,1.95900841685362,1.96545903068617,1.86332908990324,1.95325542496148,1.9376306047893,1.94959529889056,1.94753110246415,1.93817532329071,1.95810055268459,1.93761149185942,1.94029685850675,1.93789818580754,1.9420074657305,1.94355561305031,1.94362250830487,1.94230371614355,1.93812754096603,1.94113782742122,1.93492612521209,1.943450491936,1.94705327921729,1.94785602227201,1.80254041643827,1.85105858892399,1.85145996045135,1.84875548087415,1.84934798170025,1.8825280279619,1.88136213923958,1.91638658323409,1.86878583138233,1.84521958884741,1.84437861993295,1.88944690857637,1.7988420645076,1.79825912014644,1.80008440494943,1.79940589593889,1.7979915391282,1.79939633947396,1.79742770769691,1.79983593686106,1.80050488940666,1.8001035178793,1.80176634277836,1.80249263411358,1.80228239188496,1.80450904821531,1.80560804168308,1.80250219057852,1.85433645639742,1.85380129436094,1.80657324464173,1.8058182839117,1.80589473563119,1.80508243611154,1.80474795983874,1.8777115696336,1.9715178294563,1.88688577597323,1.80081069628465,1.7985840399543,1.796806537476,1.79730347365273,1.79872738692836,1.79650073059801,1.84265845624427,1.79520105136656,1.96423580317422,1.7953635112705,1.79451298589109,1.79213342612175,1.78725962900382,1.78288276806263,1.79583177805241,1.72599313229199,1.72552486551007,1.71958074431919,1.7684811754024,1.76690435868777,1.76606338977331,1.719609413714,1.71764078193695,1.7170100552511,1.79585089098229,1.71598751350283,1.71467827780645,1.71399021233098,1.79379625102081
1.72763684426117,1.72677676241683,1.81258426108717,1.7271016822247,1.77473110347127,1.77496045862976,1.77445396598809,1.72805732871841,1.81482047388246,1.72680543181165,1.88508916056505,1.7760785650274,1.72904164460693,1.86505881005686,1.85851263157494,1.85782456609947,1.86656873151692,1.78405821324989,1.85762388033579,1.85552145804962,1.78524321490209,1.78206091207803,1.8696268002968,1.9611395085346,1.77896461743841,1.95114344621038,1.8511637100383,1.94557202715204,1.87007595414884,1.87131829459067,1.84851656925072,1.77373723111781,1.94903146745927,1.77347920656451,1.87330603929759,1.84735068052839,1.84825854469742,1.87799826358171,1.87490196894209,1.87449104094979,1.84262023038452,1.84158813217131,1.8420755118831,1.76990508867803,1.84323184414049,1.84380523203672,1.84177926147005,1.95869305351069,1.83945704049033,1.84044135637886,1.8771190688075,1.84209462481298,1.84190349551424,1.84462708802131,1.84716910769458,1.84693975253609,1.77467376468165,1.8503131846589,1.95852103714183,1.96083370165661,1.95084719579732,1.87636410807747,1.86309973474475,1.86284171019145,1.95175505996635,1.95232844786258,1.94821916793962,1.85037052344852,1.94407166215691,1.94089891579779,1.93372201063002,1.9382995573349,1.92570413654778,1.92473893358913,1.92438534438646,1.84939576402493,1.849233304121,1.84971112736786,1.84883193259364,1.8477902779155,1.84891794077808,1.92805502692231,1.92464336893976,1.95078030054276,1.92350614961224,1.85013161182509,1.92459558661508,1.9372961285165,1.93177249178285,1.93167692713348,1.94712017447185,1.94594472928459,1.94035419729637,1.85485250550402,1.85556924037431,1.94204569159024,1.93335886496241,1.85510097359239,1.94055488306005,1.85619996706016,1.94355561305031,1.95711623679607,1.93806064571147,1.86147513570544,1.94795158692138,1.85804436479302,1.9342571726665,1.95834902077296,1.95430663610456,1.9343622937808,1.95459333005267,1.93379846234952,1.93470632651854,1.93758282246461,1.94932771787232,1.93546128724857,1.95109566388569,1.95219465735346,1.95259602888082,1.93215475038033,1.95401994215645,1.93417116448206,1.93657939364622,1.94142452136933,1.93565241654732,1.9343622937808,1.94468327591289,1.86444719630089,1.93429539852624,1.93778350822829,1.86144646631063,1.96048966891887,1.94892634634497,1.95195574573003,1.95198441512484,1.93864359007263,1.94232282907342,1.94149141662389,1.94206480452012,1.94024907618207,1.93874871118694,1.93744903195549,1.93793641166729,1.94425323499072,1.93499302046665,1.9376306047893,1.93748725781524,1.80308513493968,1.80302779615006,1.85151729924097,1.8495677803938,1.84826810116235,1.88566254846128,1.88388504598297,1.79630960129927,1.79845980591012,1.89859244552119,1.89754123437811,1.79759972406578,1.79886117743748,1.79882295157773,1.79638605301877,1.7962904883694,1.88627416221725,1.79865093520886,1.79822089428669,1.79835468479581,1.79828778954125,1.8481247541883,1.84843056106628,1.80273154573701,1.80163255226924,1.97081065105095,1.80400255557364,1.80468106458418,1.80416501547758,1.96542080482642,1.80491997620761,1.80397388617883,1.86115977236252,1.85536855461063,1.85287431726204,1.80176634277836,1.80309469140462,1.80168989105886,1.80152743115493,1.97495815683366,1.796806537476,1.98481087218382,1.95725958377013,1.79530617248087,1.97445166419199,1.79383447688056,1.79477101044439,1.79561197935886,1.7928406045271,1.79160782055021,1.7309911634541,1.80830296479535,1.82220762127885,1.72551530904514,1.72128179507799,1.72232344975614,1.76914057148306,1.76693302808258,1.71838618620205,1.80886679622664,1.71656090139906,1.7172394104096,1.76266128825569,1.76406608860145,1.79228632956074,1.71634110270551,1.76322511968698
0,0,0,0,0,0,0,0,0,0,0,0,0,0,0,0,0,0,0,0,0,0,0,0,0,0,0,0,0,0,0,0,0,0,0,0,0,0,0,0,0,0,0,0,0,0,0,0,0,0,0,0,0,0,0,0,0,0,0,0,0,0,0,0,0,0,0,0,0,0,0,0,0,0,0,0,0,0,0,0,0,0,0,0,0,0,0,0,0,0,0,0,0,0,0,0,0,0,0,0,0,0,0,0,0,0,0,0,0,0,0,0,0,0,0,0,0,0,0,0,0,0,0,0,0,0,0,0,0,0,0,0,0,0,0,0,0,0,0,0,0,0,0,0,0,0,0,0,0,0,0,0,0,0,0,0,0,0,0,0,0,0,0,0,0,0,0,0,0,0,0,0,0,0,0,0,0,0,0,0,0,0,0,0,0,0,0,0,0,0,0,0,0,0,0,0,0,0,0,0,0,0,0,0,0,0,0,0,0,0,0,0,0,0
1.7298061618019,1.77529493490256,1.72672898009215,1.72646139907391,1.7754860642013,1.77651816241451,1.72924233037061,1.97772953166542,1.89635623272591,1.89267699372512,1.72981571826684,1.7779325192252,1.77815231791875,1.85959251211283,1.93934121201304,1.86865204087322,1.85952561685827,1.7840868826447,1.85898089835686,1.85858908329444,1.8672567969924,1.78243361421058,1.87018107526315,1.94788469166682,1.78000627211655,1.86946434039287,1.77900284329816,1.85027495879915,1.85002649071078,1.87204458592589,1.87219748936488,1.84741757578295,1.84758959215182,1.84793362488955,1.77439662719847,1.84709265597509,1.84697797839584,1.8449328948993,1.84318406181581,1.84232397997147,1.84240043169097,1.87748221447511,1.87749177094004,1.87847608682857,1.76909278915837,1.77007710504689,1.8427444644287,1.84343252990417,1.76913101501812,1.76939859603636,1.84260111745465,1.84290692433263,1.84281135968326,1.84669128444773,1.7738901345568,1.84822031883767,1.87774979549335,1.85153641217085,1.878562095013,1.87843786096882,1.85751875922148,1.85834061520607,1.78938116421986,1.87774023902841,1.79455121175084,1.95904664271337,1.95403905508632,1.92652599253237,1.93588177170581,1.92415598922797,1.94717751326147,1.94004839041839,1.92535054734511,1.94401432336729,1.84969201443798,1.84968245797305,1.84868858561959,1.85021762000952,1.84895616663783,1.85219580825151,1.92572324947765,1.85029407172902,1.92174776006382,1.930988861658,1.92462425600989,1.92455736075533,1.92593349170627,1.92546522492435,1.85283609140229,1.93719100740219,1.94439658196477,1.95144925308836,1.93507902865109,1.93448652782499,1.93474455237829,1.91856545723976,1.91877569946837,1.85617129766535,1.85666823384208,1.94412900094653,1.85869420440874,1.95123901085975,1.94699594042767,1.94119516621084,1.85945872160371,1.85888533370749,1.94140540843946,1.94552424482735,1.95434486196431,1.9486014265371,1.86142735338076,1.95188885047547,1.94499863925581,1.95137280136887,1.95769918115723,1.96008829739151,1.86252634684853,1.8626219114979,1.93632136909291,1.94233238553836,1.8631379606045,1.86219187057573,1.93601556221493,1.9384811301687,1.93759237892955,1.93719100740219,1.94087024640298,1.94812360329025,1.93827088794008,1.93537527906414,1.86263146796283,1.94594472928459,1.86367312264098,1.93730568498144,1.93719100740219,1.94416722680628,1.94385186346336,1.93766883064905,1.94105181923678,1.94215081270455,1.94036375376131,1.94336448375157,1.93704766042813,1.94533311552861,1.9556827670555,1.93858625128301,1.93699987810345,1.80534046066484,1.8035534017216,1.80200525440179,1.79980726746625,1.84977802262242,1.89861155845106,1.89720675810531,1.84479910439018,1.79859359641924,1.79827823307631,1.79683520687081,1.97825513723696,1.79712190081892,1.96911915675708,1.79709323142411,1.89686272536757,1.79690210212537,1.7965485129227,1.84499979015386,1.84833499641691,1.88146726035388,1.79996017090525,1.84906128775213,1.85133572640717,1.84931931230544,1.80253085997333,1.98750579529609,1.80333360302805,1.80542646884927,1.96772391287627,1.97784420924467,1.85323746292965,1.80471929044393,1.80420324133732,1.80302779615006,1.88565299199634,1.80448993528544,1.80253085997333,1.79930077482459,1.97557932705457,1.98816519137675,1.79633827069408,1.79338532302851,1.79602290735116,1.79438875184691,1.96486652986007,1.79259213643873,1.79342354888826,1.79043237536294,1.79190407096326,1.7313256397269,1.72986350059152,1.82633601413168,1.80233973067459,1.72091864941038,1.7197909865478,1.72341288675897,1.72161627135079,1.722648369564,1.7646968152873,1.7190933646074,1.79579355219267,1.71280521067878,1.71585372299371,1.796806537476,1.79456076821578,1.71367484898805
1.8240233496169,1.7266907542324,1.72642317321416,1.72709212575976,1.77705332445099,1.77755981709265,1.81072075042444,1.81153304994409,1.72942390320441,1.89838220329257,1.73180346297376,1.89894603472386,1.97407896205945,1.95464111237736,1.9420074657305,1.86155158742494,1.85878976905811,1.86108332064302,1.86225876583029,1.87196813420639,1.85581770846267,1.85745186396692,1.87100293124774,1.78202268621829,1.85252072805937,1.85364839092195,1.86995172010466,1.85430778700261,1.85251117159443,1.77806630973432,1.87171966611803,1.84793362488955,1.77365122293337,1.84978757908735,1.8755995908825,1.84673906677241,1.84705443011534,1.94759799771871,1.9483434019838,1.84531515349679,1.77011533090664,1.77019178262614,1.96706451679561,1.84834455288185,1.84297381958719,1.84263934331439,1.84313627949112,1.76978085463384,1.77111875972504,1.84644281635936,1.84555406512021,1.87920237816379,1.77268601997473,1.84647148575418,1.96096749216573,1.96064257235787,1.84872681147933,1.77714888910036,1.85066677386157,1.95477490288648,1.95503292743978,1.87872455491693,1.78891289743794,1.86464788206456,1.97650630415347,1.96117773439434,1.93600600574999,1.93548040017845,1.93204007280109,1.92513074865155,1.92725228386759,1.9280263575275,1.9411856097459,1.9234679237525,1.85334258404396,1.8514217345916,1.84935753816518,1.852272259971,1.85103947599412,1.92428977973709,1.85122104882792,1.85099169366943,1.93404693043788,1.92453824782545,1.94849630542279,1.95749849539356,1.9246529254047,1.94165387652782,1.94587783403003,1.9276918812547,1.92742430023646,1.9502738079011,1.91742823791224,1.95031203376085,1.94486484874669,1.94152964248364,1.94505597804543,1.94853453128254,1.94442525135958,1.93845246077389,1.85742319457211,1.93399914811319,1.85893311603217,1.94699594042767,1.86131267580151,1.9405931089198,1.94769356236808,1.96574572463428,1.95803365743003,1.86276525847195,1.86265058089271,1.9539052645772,1.93532749673945,1.93604423160974,1.95100009923632,1.95155437420267,1.94633654434701,1.94221770795911,1.94045931841068,1.94104226277185,1.94415767034135,1.94712017447185,1.9374777013503,1.93789818580754,1.93776439529842,1.93774528236854,1.93581487645125,1.9410804886316,1.93766883064905,1.93744903195549,1.93532749673945,1.9351076980459,1.94057399598993,1.94475972763238,1.93728657205156,1.93913096978442,1.93858625128301,1.93886338876618,1.93985726111964,1.94461638065833,1.94093714165754,1.93973302707546,1.93753504013993,1.9570971238662,1.93505035925628,1.96675870991762,1.89289679241867,1.8033718288878,1.80228239188496,1.99354548113635,1.99279052040631,1.80079158335478,1.80094448679377,1.89110973347543,1.88701956648235,1.84468442681094,1.79790553094377,1.79581266512254,1.79545907591987,1.79610891553559,1.79711234435399,1.79759016760084,1.79607068967584,1.79646250473826,1.84595543664757,1.84661483272823,1.88341677920105,1.88224133401379,1.84634725170999,1.80168989105886,1.95429707963962,1.80306602200981,1.8036298534411,1.80087759153921,1.80156565701468,1.96763790469183,1.98777337631433,1.97528307664152,1.9754837624052,1.96411156913004,1.98422792782266,1.88655129970043,1.88785097893188,1.79902363734141,1.97762441055112,1.79856492702443,1.796806537476,1.997396736506,1.79413072729361,1.96578395049403,1.96490475571982,1.9638439881118,1.96247741362579,1.96034632194482,1.79306995968559,1.79141669125147,1.88594924240939,1.72811466750803,1.72723547273382,1.77669973524831,1.79953968644801,1.8159385802801,1.81455289286422,1.72098554466494,1.72200808641322,1.71920804218664,1.71770767719151,1.80046666354691,1.71696227292642,1.71558614197547,1.71416222869985,1.71234650036179,1.71360795373349,1.71443936618302
1.8267278291941,1.8235359699051,1.7298826135214,1.72971059715253,1.73028398504875,1.77847723772662,1.81273716452617,1.73009285575001,1.73066624364624,1.73214749571149,1.73161233367501,1.73177479357894,1.72986350059152,1.95100965570126,1.86105465124821,1.94900279806446,1.87149986742447,1.8613604581262,1.86359667092148,1.87200636006614,1.85863686561912,1.87218793289995,1.85599928129648,1.78222337198196,1.78260563057945,1.8733347086924,1.77833389075256,1.94814271622012,1.77884993985916,1.87271353847149,1.84654793747367,1.84665305858798,1.84995003899128,1.8760391882696,1.87564737320718,1.84632813878012,1.77565808057017,1.84545850047084,1.84590765432289,1.77242799542142,1.84515269359285,1.77188327692001,1.84455063630182,1.87824673167008,1.77169214762127,1.87729108517637,1.96963520586369,1.77251400360586,1.8459363237177,1.84684418788672,1.84571652502414,1.84610834008657,1.84662438919317,1.84799096367918,1.84913773947163,1.8517562108644,1.87969931434052,1.87867677259225,1.87880100663643,1.78272986462363,1.85878021259318,1.95425885377987,1.96048011245393,1.79406383203905,1.87996689535876,1.96800105035944,1.92638264555832,1.93461076186917,1.93836645258945,1.85331391464915,1.85472827145984,1.9259143787764,1.85332347111409,1.85291254312179,1.85295076898154,1.85415488356361,1.85247294573468,1.85048520102776,1.85106814538893,1.85163197682022,1.92186243764306,1.85256851038405,1.92512119218662,1.92373550477073,1.92691780759479,1.94787513520188,1.8530941159556,1.85431734346755,1.92796901873788,1.92818881743143,1.92815059157168,1.94736864256022,1.92599083049589,1.95125812378962,1.92932603675895,1.92878131825753,1.94120472267578,1.94172077178238,1.85762388033579,1.92332457677844,1.93254656544275,1.94084157700817,1.85825460702164,1.94165387652782,1.86130311933657,1.94877344290597,1.9582821255184,1.93713366861257,1.9346967700536,1.94110915802641,1.86137957105607,1.93838556551933,1.94573448705597,1.94408121862185,1.94611674565345,1.9570206721467,1.93824221854527,1.96541124836149,1.93681830526964,1.9470819486121,1.93467765712373,1.9355186260382,1.9461549715132,1.94450170307908,1.9356237471525,1.93548995664338,1.94298222515408,1.93860536421288,1.93750637074511,1.94938505666195,1.93786951641273,1.93869137239732,1.93760193539449,1.94711061800691,1.93901629220518,1.93774528236854,1.93807975864134,1.94164432006288,1.94174944117719,1.94393787164779,1.93754459660486,1.94078423821854,1.86460965620482,1.93808931510628,1.93711455568269,1.86443763983595,1.85096302427462,1.85447980337148,1.799845493326,1.89500877116977,1.8016994475238,1.84833499641691,1.79844069298025,1.79955879937789,1.79761883699565,1.79764750639047,1.79792464387364,1.79547818884974,1.79517238197175,1.79612802846546,1.79757105467097,1.79687343273056,1.79707411849424,1.79815399903213,1.79830690247113,1.79944412179864,1.84518136298767,1.79989327565069,1.84587898492807,1.84669128444773,1.80170900398874,1.80172811691861,1.80098271265352,1.96694028275142,1.80485308095305,1.80425102366201,1.80561759814802,1.98378833043555,1.98758224701559,1.98202994088712,1.98073981812061,1.8020339237966,1.99645064647723,1.80164210873418,1.9809691732791,1.7982495636815,1.79909053259597,1.79709323142411,1.79539218066531,1.79538262420037,1.96530612724718,1.96400644801573,1.7956215358238,1.99125192955144,1.79588911684204,1.79197096621782,1.79122556195273,1.77843901186687,1.7770819938458,1.72916587865111,1.72599313229199,1.99438645005081,1.77234198723699,1.76859585298164,1.79551641470949,1.71735408798884,1.71781279830582,1.71637932856526,1.71370351838286,1.7143055756739,1.71457315669214,1.79817311196201,1.71316835634639,1.71414311576997
1.83186920733027,1.83213678834851,1.73267310128303,1.82830464590872,1.72701567404026,1.77788473690052,1.77988203807237,1.78737430658307,1.77876393167473,1.77994893332693,1.73063757425143,1.73320826331951,1.73332294089876,1.9658795151434,1.86275570200702,1.9447119453077,1.86238299987447,1.86211541885623,1.86530727814523,1.87300978888454,1.87288555484036,1.78643777301923,1.8732582569729,1.85758565447604,1.95002533981273,1.95084719579732,1.78029296606467,1.8758576154358,1.8761920917086,1.8518326625839,1.87784536014272,1.8500838295004,1.96821129258806,1.95853059360676,1.85088657255512,1.84842100460135,1.77393791688149,1.87817027995058,1.77230376137724,1.88098943710703,1.84784761670512,1.84517180652273,1.84491378196943,1.77173037348101,1.84463664448625,1.96142620248271,1.88033004102637,1.8454489440059,1.88191641420593,1.8803395974913,1.77220819672787,1.84572608148908,1.84782850377525,1.88215532582936,1.85002649071078,1.8821935516891,1.95822478672878,1.95383836932264,1.88494581359099,1.88352190031536,1.88584412129508,1.88271915726065,1.95473667702673,1.87919282169885,1.97410763145426,1.96063301589293,1.85497673954821,1.94710106154198,1.85508186066251,1.94368940355943,1.94806626450062,1.94173988471226,1.92706115456885,1.93109398277231,1.95014957385692,1.85338080990371,1.85307500302572,1.85197600955795,1.9285424066341,1.92545566845942,1.9310653133775,1.92570413654778,1.92645909727781,1.85207157420732,1.92797857520281,1.9447883970272,1.8532756887894,1.92794034934306,1.92767276832483,1.94485529228175,1.94407166215691,1.9346967700536,1.92489183702813,1.93308172747923,1.93252745251288,1.85770988852022,1.9295458354525,1.92983252940061,1.93543261785376,1.9447883970272,1.85991743192069,1.8596880767622,1.95446909600849,1.94551468836242,1.86133178873139,1.86137957105607,1.94832428905393,1.93694253931383,1.9372961285165,1.93778350822829,1.86384513900985,1.94128117439527,1.93908318745974,1.93716233800738,1.93771661297373,1.9441194444816,1.94547646250267,1.93742991902562,1.9378121776231,1.94941372605676,1.94743553781478,1.86431340579177,1.94457815479858,1.8646574385295,1.95629438081148,1.93590088463568,1.94065044770943,1.95503292743978,1.93764016125423,1.9443774690349,1.94071734296399,1.94029685850675,1.93426672913143,1.86444719630089,1.86424651053721,1.93876782411681,1.93816576682578,1.94309690273333,1.94390920225298,1.93825177501021,1.9406695606393,1.93779306469323,1.93614935272404,1.93568108594213,1.9390736309948,1.95162126945723,1.80406945082821,1.80479574216343,1.89223739633801,1.79957791230776,1.98089272155961,1.80145097943544,1.80190013328748,1.79846936237506,1.89787571065091,1.89744566972874,1.79668230343182,1.79761883699565,1.79540173713024,1.84481821732006,1.79515326904188,1.7989185162271,1.79717923960855,1.79827823307631,1.97806400793822,1.99097479206826,1.98749623883115,1.89632756333109,1.79948234765839,1.8002564213183,1.80373497455541,1.80218682723559,1.79889940329723,1.8035534017216,1.98389345154986,1.80213904491091,1.80182368156798,1.80171856045368,1.80341005474754,1.80226327895509,1.80238751299927,1.80071513163528,1.99401374791826,1.79978815453638,1.79991238858056,1.79987416272081,1.79761883699565,1.8452673711721,1.84514313712792,1.7956215358238,1.79392048506499,1.79254435411405,1.79537306773543,1.79386314627537,1.79274503987773,1.88543319330279,1.78907535734187,1.73066624364624,1.72909898339655,1.72708256929482,1.72605047108161,1.72461700134105,1.72102377052469,1.76936037017661,1.76772621467236,1.71638888503019,1.7174974349629,1.71961897017894,1.71658001432893,1.71335948564513,1.76282374815962,1.76202100510491,1.71493630235975,1.7142291239544
0,0,0,0,0,0,0,0,0,0,0,0,0,0,0,0,0,0,0,0,0,0,0,0,0,0,0,0,0,0,0,0,0,0,0,0,0,0,0,0,0,0,0,0,0,0,0,0,0,0,0,0,0,0,0,0,0,0,0,0,0,0,0,0,0,0,0,0,0,0,0,0,0,0,0,0,0,0,0,0,0,0,0,0,0,0,0,0,0,0,0,0,0,0,0,0,0,0,0,0,0,0,0,0,0,0,0,0,0,0,0,0,0,0,0,0,0,0,0,0,0,0,0,0,0,0,0,0,0,0,0,0,0,0,0,0,0,0,0,0,0,0,0,0,0,0,0,0,0,0,0,0,0,0,0,0,0,0,0,0,0,0,0,0,0,0,0,0,0,0,0,0,0,0,0,0,0,0,0,0,0,0,0,0,0,0,0,0,0,0,0,0,0,0,0,0,0,0,0,0,0,0,0,0,0,0,0,0,0,0,0,0,0,0
1.733437618478,1.73240552026479,1.73129697033209,1.73135430912171,1.7307331389008,1.73212838278162,1.73246285905442,1.90622806100594,1.73233862501023,1.73088604233979,1.81858572106768,1.73077136476055,1.73527245974593,1.94636521374182,1.94804715157075,1.78977297928228,1.86545062511928,1.78935249482505,1.94763622357845,1.94823828086949,1.85964985090245,1.87580027664618,1.85912424533091,1.87638322100734,1.87620164817353,1.85480472317934,1.98771603752471,1.87749177094004,1.85428867407273,1.97592335979231,1.87752044033486,1.85218625178657,1.95703022861164,1.85279786554254,1.85236782462037,1.87966108848077,1.88172528490719,1.85293165605166,1.87975665313014,1.84617523534113,1.77325940787095,1.77276247169422,1.8820884305748,1.8444168457927,1.77149146185759,1.84504757247855,1.84457930569663,1.88226044694366,1.88337855334131,1.84625168706062,1.84665305858798,1.84708309951015,1.88356968264005,1.88305363353344,1.84816298004804,1.8505712092122,1.8810085500369,1.88157238146819,1.85216713885669,1.78599817563212,1.79030814131876,1.88195464006568,1.79274503987773,1.95335098961085,1.97126936136794,1.95732647902469,1.94776045762264,1.94466416298301,1.94818094207987,1.85563613562887,1.95110522035063,1.85480472317934,1.93050148194621,1.93152402369448,1.92846595491461,1.85482383610921,1.85298899484129,1.9280263575275,1.92502562753725,1.93220253270502,1.93145712843992,1.93252745251288,1.85499585247808,1.85352415687777,1.9255034507841,1.92747208256115,1.95497558865016,1.95114344621038,1.93079773235926,1.93086462761382,1.94537134138836,1.94479795349213,1.95003489627767,1.95507115329953,1.93405648690282,1.93356910719102,1.93160047541398,1.95523361320346,1.94541912371304,1.94491263107138,1.9431924673827,1.94407166215691,1.94576315645078,1.94224637735392,1.86215364471598,1.86331953343831,1.9537236917434,1.96096749216573,1.95842547249246,1.95804321389497,1.93892072755581,1.95149703541305,1.94688126284842,1.9573551484195,1.95600768686337,1.9566861958739,1.95119122853506,1.95795720571054,1.94519932501949,1.95898930392374,1.965028989764,1.86464788206456,1.94093714165754,1.94422456559591,1.94533311552861,1.95335098961085,1.94492218753631,1.94209347391493,1.86359667092148,1.93938899433773,1.9381466538959,1.95902752978349,1.95191751987028,1.86445675276582,1.8646574385295,1.93953234131178,1.94418633973616,1.94214125623961,1.9415965377382,1.94374674234905,1.93904496159999,1.93941766373254,1.8648103419685,1.93554729543301,1.94207436098505,1.93754459660486,1.80225372249015,1.80163255226924,1.96944407656495,1.98775426338446,1.79998884030006,1.79689254566043,1.79728436072285,1.79651028706295,1.99248471352833,1.79771440164502,1.89727365335987,1.99811347137629,1.79591778623685,1.79507681732238,1.79685431980068,1.79604202028103,1.89486542419572,1.79644339180839,1.79541129359518,1.79938678300902,1.79730347365273,1.7988420645076,1.7999219450455,1.79983593686106,1.79860315288418,1.79865093520886,1.79800109559314,1.97735682953288,1.80193835914723,1.80298957029031,1.80269331987726,1.8511637100383,1.80199569793685,1.80224416602522,1.98783071510395,1.80104005144314,1.79977859807144,1.98439038772659,1.80172811691861,1.84844967399616,1.79843113651531,1.79671097282663,1.7949525832782,1.79374846869612,1.79346177474801,1.79249657178936,1.97064819114702,1.79196140975288,1.79200919207757,1.78999277797584,1.78900846208731,1.72990172645127,1.72809555457816,1.72777063477029,1.72621293098554,1.72369958070708,1.81204909905069,1.72045038262847,1.71740187031353,1.72043126969859,1.71704828111085,1.78856886470021,1.7638462899079,1.79060439173181,1.76274729644013,1.79138802185666,1.71408577698035,1.71153420084214
