1.8473, 1.84566, 1.89439, 1.89302, 1.89396, 1.84196, 1.94095, 1.93816, 1.83944, 1.83899, 1.88814, 1.83818, 1.83693, 1.83536, 1.88466, 1.89277, 1.88284, 1.88235, 1.83361, 1.93539, 1.82913, 1.82853, 1.9274, 1.82783, 1.93323, 1.87852, 1.93129, 1.93331, 2.08872, 2.00851, 1.92817, 1.8726, 1.82142, 1.92502, 1.87149, 1.87194, 1.81973, 1.86959, 1.91024, 1.81936, 2.00002, 2.00391, 1.99859, 2.00503, 2.08095, 1.82325, 1.95919, 1.95905, 1.96108, 1.96217, 1.97244, 1.97361, 1.95814, 1.95178, 1.95283, 1.95277, 1.94858, 1.95102, 1.94744, 1.8696, 1.94711, 1.94431, 1.97652, 1.97655, 1.9787, 1.94177, 2.06221, 1.86276, 2.05492, 1.93566, 1.93675, 1.93884, 1.93845, 1.97805, 1.86279, 1.93883, 1.94061, 1.86551, 1.86626, 1.86652, 1.97989, 1.94486, 1.98038, 1.97938, 1.9579, 1.97872, 1.95976, 1.97939, 2.0777, 2.04948, 2.04808, 2.03573, 2.04861, 2.0442, 2.02787, 2.05002, 2.0288, 2.02767, 2.02983, 2.03088, 2.03252, 2.02551, 2.02694, 2.04833, 2.04504, 1.94911, 2.03747, 2.02962, 2.02871, 1.95187, 2.03189, 2.042, 2.04162, 2.04269, 2.03808, 2.03659, 2.03898, 1.95428, 2.03709, 1.95614, 2.04237, 2.03459, 2.04408, 2.04563, 2.04802, 2.03934, 1.95824, 2.03875, 2.03784, 2.05807, 1.95843, 2.03643, 2.03515, 2.03659, 1.9569, 2.04144, 2.05074, 2.04182, 2.0444, 2.03279, 2.05153, 2.03614, 2.03504, 2.0342, 2.03756, 2.03678, 2.03763, 1.95659, 2.03913, 2.0451, 2.03785, 2.03431, 2.03399, 1.8936, 1.89077, 1.89131, 1.88705, 1.88583, 1.88706, 1.8859, 1.88689, 1.88451, 1.88701, 1.9907, 1.98945, 1.88746, 1.88792, 1.93545, 1.93687, 1.9375, 1.93718, 1.88569, 1.88906, 1.8894, 1.88872, 2.07711, 1.88984, 1.88905, 1.88873, 1.89019, 2.0619, 1.88851, 2.06044, 1.88913, 1.88716, 1.88553, 1.88526, 1.8842, 1.88157, 1.8796, 1.87996, 1.96851, 1.93275, 1.88255, 1.81428, 1.86136, 1.85963, 1.89503, 1.90097, 1.8033, 1.91877, 1.79992, 1.79928, 1.79735, 1.8477, 1.79484, 1.89603, 1.88939, 1.79385, 1.79098, 1.89952, 1.89968, 1.78642, 1.78887, 1.78871, 1.78914, 1.78716, 1.78515, 1.88902, 1.83573, 1.89331, 1.78875, 1.78843, 1.78577, 1.78504, 1.91012, 1.7821, 1.91034, 1.78565, 1.78221, 1.78634, 1.89484, 1.90699, 1.78251, 1.78494, 1.78372, 1.83413, 1.90448, 1.78312, 1.78409
1.84763, 1.84617, 1.84883, 1.93037, 1.897, 1.84455, 1.84379, 1.84444, 1.94435, 1.84044, 1.84192, 1.83907, 1.94194, 1.83496, 1.83498, 1.83432, 1.83578, 1.83549, 1.83191, 1.83197, 1.8279, 1.83157, 1.8312, 1.83043, 1.83036, 1.82717, 1.83041, 1.82872, 1.82357, 1.82212, 1.82459, 1.82306, 1.82335, 1.875, 1.87461, 1.9134, 1.87208, 1.82266, 1.87414, 1.81974, 2.00173, 1.82278, 1.82333, 1.82059, 1.82129, 1.82312, 2.0516, 1.97346, 1.96115, 1.97576, 1.9759, 1.95888, 2.0551, 1.97668, 1.95486, 1.9547, 1.87396, 1.97608, 1.95103, 1.97817, 1.94809, 1.95153, 1.94472, 1.97898, 1.94784, 1.86721, 1.8663, 1.94064, 1.94044, 1.94481, 1.86476, 1.94058, 1.94132, 1.97974, 1.94084, 1.93943, 1.94056, 2.06229, 1.98265, 1.94486, 1.98454, 1.94943, 1.95222, 1.98298, 1.95437, 1.9845, 1.88858, 2.08, 2.08001, 1.9104, 2.03398, 2.06214, 2.05496, 2.03152, 1.95139, 2.03209, 1.95112, 2.02982, 1.95202, 1.95119, 1.95144, 2.03444, 2.02826, 2.02815, 2.02889, 2.04792, 2.0305, 2.03091, 2.05328, 2.03875, 2.03136, 2.03763, 1.954, 1.9555, 2.05189, 2.04206, 2.04655, 2.04858, 2.04265, 2.04214, 2.0394, 2.04483, 2.04773, 2.04196, 2.04503, 2.04204, 1.96067, 2.04235, 2.05213, 2.05366, 2.04524, 2.05862, 2.03442, 2.03437, 2.04931, 2.04101, 2.04718, 2.04882, 2.04841, 2.03441, 1.95568, 2.03524, 2.03508, 2.03537, 2.0376, 2.03608, 2.0384, 2.03823, 2.03805, 2.03915, 1.95862, 2.04091, 2.04376, 1.89289, 1.88967, 1.88945, 1.88868, 1.88628, 1.93818, 1.88577, 2.07882, 1.88702, 1.98786, 1.88682, 2.08615, 1.88605, 1.8896, 1.88719, 1.93868, 1.93593, 1.88622, 1.93777, 1.88775, 1.886, 1.88823, 1.88808, 1.88896, 1.88842, 2.08329, 1.88724, 1.88663, 2.06234, 1.88811, 2.07284, 2.0802, 2.06022, 1.88515, 1.88573, 2.05945, 1.93256, 1.8827, 1.88017, 1.8799, 1.87759, 1.81396, 1.86159, 1.80628, 1.80426, 1.80328, 1.80231, 1.90522, 1.84838, 1.87187, 1.87082, 1.79568, 1.79377, 1.79257, 1.7917, 1.79122, 1.90195, 1.78741, 1.90296, 1.90658, 1.78357, 1.90618, 1.78524, 1.78886, 1.83388, 1.78377, 1.78524, 1.83477, 1.90399, 1.78531, 1.78401, 1.83691, 1.83532, 1.78348, 1.89346, 1.78491, 1.78495, 1.78277, 1.7792, 1.78425, 1.78345, 1.83477, 1.78259, 1.78202, 1.78317, 1.78129, 1.7818
1.84925, 1.85039, 1.85105, 1.8499, 1.89947, 1.94422, 1.84525, 1.84695, 1.84478, 1.94648, 2.12846, 1.84114, 1.9457, 1.94475, 1.83855, 1.83769, 1.8373, 1.93915, 1.83537, 1.93946, 1.83412, 1.83128, 1.83034, 1.94784, 1.83197, 1.88238, 1.83088, 1.93409, 1.93701, 1.82776, 1.82762, 1.93477, 2.01419, 1.82324, 1.93326, 1.82432, 1.8241, 1.92635, 1.81897, 2.00163, 1.82379, 1.8245, 1.87258, 1.82382, 1.82312, 1.8235, 1.88655, 1.88711, 2.05669, 2.06093, 1.95818, 2.05639, 2.05929, 1.9581, 1.95576, 1.95556, 1.98057, 1.95075, 1.95256, 1.87359, 1.94888, 1.94796, 1.98113, 1.86866, 1.94835, 1.94269, 1.94159, 1.94363, 1.86544, 1.94193, 1.98358, 1.94199, 1.94283, 1.94122, 2.06155, 1.98324, 1.86579, 1.98437, 1.98528, 2.07173, 1.8723, 1.95076, 2.06182, 2.05979, 1.88195, 1.88451, 1.98205, 2.06932, 1.98439, 2.05613, 1.95618, 2.05463, 2.03059, 1.95511, 2.05656, 2.03285, 2.03452, 2.03102, 1.95312, 2.03186, 2.03191, 2.02791, 2.046, 2.03036, 2.02968, 2.02992, 2.04262, 2.04807, 2.03864, 2.04147, 2.03456, 2.03235, 1.95504, 2.05113, 2.03805, 2.03799, 2.04553, 1.9585, 2.0359, 2.0408, 2.03565, 1.95971, 2.0483, 2.0453, 1.95894, 1.95976, 1.95935, 2.05887, 2.05835, 2.04638, 2.05113, 2.05133, 1.95943, 1.95928, 1.95916, 2.04514, 2.04099, 1.95817, 2.06041, 2.04789, 1.9587, 2.03444, 2.03622, 2.03718, 2.03792, 2.03906, 2.0445, 2.04079, 2.03539, 2.03468, 2.0379, 1.95811, 1.9576, 1.8924, 1.88932, 1.88751, 1.88733, 1.88583, 1.88821, 1.88658, 1.88864, 1.88622, 1.88479, 1.9374, 1.96481, 1.98875, 1.88579, 2.0669, 2.06491, 1.88601, 1.88955, 2.06725, 2.06706, 1.88619, 1.98629, 1.88544, 1.88568, 1.93838, 1.88583, 1.88932, 1.88758, 1.88923, 1.88773, 1.88641, 1.88456, 1.88425, 1.88391, 1.88268, 1.8835, 1.88232, 1.88192, 1.88352, 1.88191, 1.88008, 1.90435, 1.90803, 1.90444, 1.80605, 1.90737, 1.90992, 1.84986, 1.84939, 1.85066, 1.79297, 1.79276, 1.79108, 1.7909, 2.00734, 1.89072, 1.83808, 1.83734, 1.78605, 1.83635, 1.88703, 1.83475, 1.78426, 1.78644, 1.78514, 1.78517, 1.83422, 1.89326, 1.89089, 1.95834, 1.90481, 1.90538, 1.78315, 1.90778, 1.90932, 1.78291, 1.89464, 1.78498, 1.78553, 1.78258, 1.90722, 1.78349, 1.90479, 1.90391, 1.78402, 1.90388, 1.7837
1.90387, 1.94968, 1.85457, 1.85393, 1.85313, 1.94739, 1.84996, 1.89831, 2.0105, 1.84601, 2.11449, 1.84522, 1.84546, 1.84177, 1.83797, 1.8407, 1.83856, 1.88719, 1.88657, 1.8375, 1.8344, 1.8346, 1.83422, 1.83478, 1.83198, 1.83218, 1.88122, 1.82904, 1.82999, 2.01369, 1.82932, 1.82843, 1.82929, 2.01073, 2.01299, 1.91821, 1.82584, 1.82406, 1.87405, 1.82545, 1.82632, 1.8244, 1.92499, 1.921, 1.92681, 1.87561, 1.96577, 2.05859, 2.06249, 2.06517, 1.96214, 1.96041, 2.06482, 1.95804, 1.95656, 1.8798, 1.95461, 2.07926, 1.98224, 1.87339, 1.94893, 1.9827, 2.05695, 1.98469, 1.94848, 1.94393, 1.86885, 1.9843, 1.86902, 1.86537, 1.98646, 1.98606, 1.86521, 1.94285, 1.94262, 1.98714, 1.94463, 1.94846, 1.94884, 1.98607, 1.98482, 1.98738, 1.98547, 1.95748, 1.95903, 1.88593, 1.9681, 1.98643, 2.08554, 1.95819, 2.05157, 2.03516, 2.03434, 2.03525, 2.04951, 2.03497, 2.03296, 2.03282, 2.03382, 2.03691, 2.03455, 2.03258, 2.03199, 2.03189, 2.03061, 2.03141, 2.047, 2.03923, 2.05562, 2.06339, 2.05304, 1.95467, 2.04441, 2.04555, 2.03916, 2.03983, 2.04087, 1.95866, 1.95966, 1.9599, 2.04882, 2.05929, 2.04174, 2.05298, 2.04622, 1.9604, 2.06894, 2.05144, 1.96045, 2.04407, 2.05637, 2.05253, 2.03903, 2.0382, 2.05607, 2.04842, 2.03476, 1.9598, 1.95928, 2.0359, 1.95877, 2.05271, 2.05898, 2.03783, 2.04121, 2.03935, 2.04031, 2.0378, 2.03814, 2.03664, 1.95856, 2.03383, 2.04096, 1.89055, 2.07774, 1.88969, 2.06875, 2.08928, 1.88696, 1.88559, 1.88421, 1.88766, 1.88636, 2.06896, 1.886, 1.94129, 1.94955, 2.05539, 1.944, 2.0868, 1.88641, 1.88944, 2.07994, 1.98715, 1.98561, 1.88382, 2.08711, 1.88935, 1.88747, 1.8865, 1.98647, 1.88593, 1.88604, 1.8836, 1.88326, 1.88343, 1.88344, 1.88388, 1.88201, 1.88056, 1.88283, 1.88286, 1.88085, 1.87915, 1.90796, 1.81046, 1.90395, 1.9021, 1.91007, 1.90762, 1.79943, 1.90993, 1.79579, 1.79621, 1.79477, 1.8427, 1.79198, 1.78985, 1.78793, 1.78945, 1.83575, 1.83721, 1.8371, 1.78672, 1.78502, 1.7844, 1.89592, 1.90376, 1.78429, 1.78714, 1.9043, 1.78585, 1.90948, 1.90908, 1.78513, 1.78578, 1.83726, 1.83345, 1.9076, 1.78311, 1.78602, 1.78571, 1.78579, 1.78548, 1.77985, 1.78159, 1.78313, 1.78164, 1.8319, 1.90408
1.85819, 1.85475, 1.90541, 1.85544, 1.85485, 1.92408, 2.13534, 1.85109, 1.90122, 2.01387, 1.89965, 1.96297, 1.94756, 1.94893, 1.84474, 1.94154, 1.96047, 1.96104, 1.94833, 1.83874, 1.94583, 1.94441, 1.83589, 1.94566, 1.88604, 1.83629, 2.00754, 1.92778, 1.82898, 1.82905, 1.88637, 1.83048, 1.83066, 1.8285, 2.02105, 1.93489, 1.93404, 1.87677, 1.8259, 1.91797, 1.87612, 1.82622, 2.00647, 1.82647, 1.82736, 1.82871, 1.89108, 1.96685, 2.06392, 2.0608, 1.96451, 2.06626, 1.96028, 1.95999, 1.9595, 1.95863, 1.98557, 1.95427, 1.95326, 1.95195, 1.95073, 1.94906, 2.07015, 1.94948, 1.87054, 1.94616, 1.94519, 1.94621, 1.94354, 1.86796, 2.0754, 1.98934, 1.94218, 2.07609, 1.94384, 1.94485, 1.86836, 2.08346, 1.94714, 1.95114, 1.94993, 1.95332, 1.95566, 1.88218, 1.96007, 1.98925, 1.98605, 1.97448, 2.08287, 1.95926, 2.03866, 2.03928, 2.05214, 2.03399, 2.05234, 2.03155, 2.03751, 1.95664, 2.03338, 2.03545, 2.03734, 2.04561, 2.04836, 2.03925, 2.03303, 2.04557, 1.9567, 2.04665, 1.95563, 1.95529, 2.05224, 2.03326, 2.0327, 1.9597, 1.95988, 1.95825, 1.96011, 2.0441, 1.95824, 2.04862, 1.96126, 2.04813, 2.0481, 2.04658, 2.04471, 1.96189, 2.04468, 2.04454, 2.0443, 1.96245, 2.05904, 2.05603, 2.03762, 2.05521, 2.03833, 2.0377, 2.03756, 2.03788, 2.05564, 2.03827, 2.03791, 2.05554, 2.05917, 2.0354, 2.04008, 2.03948, 2.03875, 2.0412, 2.03832, 1.95645, 2.04915, 2.04927, 1.95933, 1.94182, 1.89087, 1.89003, 2.08667, 1.8869, 2.09394, 1.88574, 1.88549, 2.08027, 1.88557, 2.0865, 2.06865, 1.93811, 1.939, 1.98911, 1.88626, 1.98971, 1.88739, 2.06898, 2.08283, 1.88506, 1.88983, 1.8884, 1.97363, 1.88605, 2.04813, 1.88854, 1.88612, 1.93654, 1.93558, 1.88525, 1.88333, 1.88536, 2.07555, 1.88352, 1.8829, 2.05966, 2.05801, 2.05619, 1.88218, 1.86533, 1.81253, 1.92862, 1.80985, 1.86568, 1.8519, 1.80084, 1.80038, 1.79916, 1.79835, 1.7961, 1.88504, 1.79288, 1.78935, 1.78929, 1.78664, 1.91344, 1.78353, 1.78655, 1.78521, 1.78353, 1.78345, 1.78224, 1.78437, 1.78587, 1.783, 1.7831, 1.78399, 1.78502, 1.90881, 1.78306, 1.91137, 1.83537, 1.78564, 1.78323, 1.78388, 1.78546, 1.90176, 1.78338, 1.894, 1.78461, 1.78345, 1.96741, 1.78312, 1.9032, 1.90656, 1.78177
1.95459, 1.95008, 1.85823, 1.94491, 1.85792, 1.85435, 1.95145, 1.85434, 1.85165, 1.85059, 1.94407, 1.93874, 1.94015, 1.84703, 1.84561, 1.95239, 1.84457, 1.89262, 1.84276, 1.93532, 1.84025, 1.84024, 1.83764, 1.83798, 1.83767, 2.02691, 1.83526, 1.83509, 1.8854, 1.83376, 1.88196, 1.92819, 1.8304, 1.94953, 1.90518, 1.87869, 1.83021, 1.9381, 1.82801, 1.93343, 1.93138, 1.82856, 1.82984, 1.82843, 2.0212, 2.02165, 1.96902, 2.06368, 1.96859, 1.96705, 2.06945, 1.96521, 1.96131, 1.96339, 1.96145, 1.88167, 1.95791, 1.87967, 1.95519, 1.87659, 1.95352, 1.87616, 2.08203, 1.98544, 1.94935, 1.98771, 1.95179, 1.94502, 1.98997, 1.94804, 1.94597, 1.94517, 1.94517, 1.86891, 1.94657, 1.94622, 1.98988, 1.87003, 2.0841, 1.94914, 1.95302, 1.98965, 1.98905, 1.88303, 1.96242, 1.96477, 1.97035, 1.98804, 2.07977, 1.96237, 1.96124, 1.96277, 2.04956, 2.03766, 2.05502, 2.03516, 1.95848, 1.95851, 1.95741, 2.03795, 2.03793, 2.03811, 2.03342, 2.03157, 2.05591, 2.0347, 2.03394, 1.95902, 2.03629, 2.03439, 2.05496, 2.05485, 2.04154, 2.04371, 1.96192, 1.96154, 1.9614, 2.04628, 2.0416, 2.04936, 2.05556, 2.05463, 2.05159, 2.04395, 2.04812, 2.04747, 1.96269, 2.05877, 2.04461, 2.0492, 1.96156, 2.0503, 2.05854, 2.066, 1.96571, 2.05581, 2.05293, 1.96112, 1.95978, 2.03857, 2.04545, 2.04128, 2.03764, 2.03532, 2.03554, 2.04268, 2.04167, 2.04419, 2.04942, 2.05201, 2.05092, 1.95918, 1.89004, 2.08055, 2.07248, 1.88729, 1.88679, 1.88737, 1.88614, 1.88537, 2.07002, 1.99046, 1.98827, 2.08563, 1.88486, 2.07681, 1.99304, 1.88657, 1.88655, 1.98542, 1.9838, 1.88671, 1.88667, 1.88619, 1.99025, 1.88699, 1.96934, 1.88577, 1.88572, 1.88703, 1.88598, 1.88707, 1.88738, 1.98185, 2.06122, 1.88577, 2.0727, 1.88334, 1.88269, 2.05821, 2.05898, 2.06545, 1.88231, 1.90985, 1.8128, 1.8121, 1.85727, 1.85492, 1.80214, 1.85044, 1.8993, 1.79634, 1.79642, 1.79263, 1.88939, 1.91612, 1.78806, 1.91096, 1.78685, 1.78581, 1.78552, 1.91023, 1.90766, 1.913, 1.91075, 1.78231, 1.90948, 1.90927, 1.78346, 1.78251, 1.78195, 1.78576, 1.78468, 1.78395, 1.9104, 1.90641, 1.78294, 1.784, 1.78176, 1.78508, 1.90707, 1.78173, 1.89345, 1.78224, 1.78133, 1.90262, 1.78182, 1.83793, 1.83737, 1.77931
1.90978, 1.90996, 1.94689, 1.9105, 1.86092, 1.96193, 1.85663, 1.85636, 1.95748, 1.85392, 1.90338, 1.85258, 1.8513, 1.84845, 1.84768, 2.0296, 2.03186, 1.84629, 1.84633, 1.84412, 1.89363, 1.84203, 1.84199, 1.84054, 1.83789, 1.83711, 1.83733, 1.83702, 1.83447, 1.83379, 1.83419, 1.83399, 1.83425, 1.95169, 1.94133, 1.82979, 1.83068, 1.83017, 1.93566, 1.93232, 1.82669, 1.83027, 2.01017, 1.83021, 1.83083, 2.00191, 1.9706, 1.98776, 1.96888, 1.97036, 2.0688, 2.06676, 1.98983, 1.96406, 1.98802, 1.96599, 1.88341, 1.95864, 2.08145, 1.98987, 1.95481, 1.95489, 1.87605, 1.94975, 1.98817, 1.95121, 2.07614, 1.8712, 1.8715, 1.86995, 1.86975, 1.94751, 1.98792, 1.87171, 1.86935, 1.94562, 1.94879, 1.87135, 1.9927, 1.99089, 1.95279, 1.98997, 1.95833, 1.95902, 1.88613, 1.96514, 1.96939, 1.97575, 2.08768, 2.05225, 2.062, 1.96218, 1.96137, 2.03865, 2.03776, 2.03468, 1.95992, 1.95834, 1.95806, 1.95915, 1.95832, 1.95836, 2.05185, 2.03563, 2.035, 2.05103, 2.03716, 2.0363, 2.05784, 1.95827, 2.05397, 2.05137, 2.04286, 1.96086, 2.06239, 2.05833, 2.06955, 1.96096, 1.96137, 2.06576, 1.964, 2.04321, 1.96295, 2.05889, 2.05477, 2.04766, 2.04987, 2.04889, 2.05372, 2.05458, 2.04991, 2.04843, 2.04609, 2.04589, 1.96469, 2.05292, 2.04714, 1.95991, 2.05938, 2.03763, 2.03826, 2.03646, 2.04229, 2.0442, 2.04157, 2.04037, 2.04276, 2.04477, 2.03954, 2.04042, 2.03752, 2.04245, 2.03891, 2.00548, 1.88858, 1.88687, 2.07312, 1.93742, 2.05224, 1.97584, 1.93354, 1.93538, 1.9352, 1.93538, 1.93397, 1.88537, 2.0707, 1.88685, 1.8842, 1.88878, 1.88736, 1.88512, 1.88611, 1.8864, 2.07064, 1.88604, 1.9959, 1.98071, 1.88875, 1.88706, 1.88613, 1.88514, 2.06419, 1.88565, 1.88435, 1.88572, 1.88467, 1.88267, 1.93482, 2.07281, 1.88062, 1.88492, 1.88219, 1.91009, 1.81458, 1.80989, 1.80982, 1.91354, 1.88808, 1.91676, 1.79604, 1.91304, 1.79388, 1.79236, 1.79242, 1.79017, 1.78838, 1.9108, 1.78631, 1.83614, 1.78403, 1.91775, 1.7849, 1.91021, 1.83371, 1.89392, 1.8338, 1.91328, 1.78519, 1.87934, 1.91341, 1.90997, 1.78532, 1.83493, 1.7848, 1.78337, 1.83477, 1.83309, 1.78189, 1.78181, 1.91281, 1.78224, 1.90267, 1.78375, 1.78259, 1.78046, 1.77915, 1.83695, 1.8366, 1.78151
1.9113, 2.02419, 1.86382, 2.10276, 1.86227, 1.96333, 1.85782, 1.85542, 1.95075, 1.9649, 1.85775, 1.85511, 1.85218, 1.95468, 1.85313, 1.95677, 1.9412, 1.84974, 1.8982, 1.84761, 1.8461, 2.0328, 1.95494, 1.84349, 1.84225, 2.03007, 1.83966, 1.83885, 1.83632, 2.14095, 1.83727, 1.88532, 1.83633, 1.94245, 1.94746, 1.88315, 2.01788, 1.83063, 1.93804, 1.93868, 1.93062, 1.82927, 1.83084, 1.83212, 1.83358, 1.83392, 1.97493, 1.97586, 1.99488, 1.8927, 1.9895, 1.96637, 2.06896, 1.96508, 1.96487, 1.99084, 1.96277, 1.96028, 1.95997, 1.95556, 1.87853, 1.95457, 1.95285, 1.9544, 1.95037, 1.94946, 1.87425, 1.94904, 1.94918, 1.94822, 1.87058, 1.87188, 1.9488, 1.94869, 1.99303, 1.87198, 1.94929, 1.95101, 1.95264, 1.95299, 1.95212, 1.95833, 1.96044, 2.08648, 2.0924, 1.96871, 1.89602, 2.08381, 1.99147, 2.06282, 2.05461, 1.96226, 2.03887, 1.96213, 2.03796, 2.0366, 1.95887, 1.96124, 1.96004, 1.96042, 2.03888, 2.03976, 2.04835, 1.95925, 2.06688, 2.04756, 1.95907, 1.95999, 1.96194, 2.06269, 1.95912, 2.04487, 2.05514, 2.05569, 2.03925, 2.04141, 1.96192, 2.04292, 2.04914, 2.05625, 2.05253, 2.05557, 2.0455, 2.04759, 2.07971, 1.96479, 2.0573, 2.05876, 2.05099, 1.96267, 2.05625, 2.05645, 2.04917, 2.04536, 2.05532, 1.96273, 1.96187, 1.96348, 2.04479, 2.04822, 2.05277, 2.05619, 2.05004, 2.03788, 2.03978, 1.95949, 1.96215, 1.95837, 1.96002, 1.9588, 2.052, 2.04824, 2.03728, 2.00258, 1.99295, 2.1032, 2.07517, 1.88589, 1.88648, 1.88571, 1.88371, 1.88236, 1.93442, 1.93433, 1.93596, 1.93512, 1.93481, 1.93444, 1.88522, 1.88678, 1.88622, 1.88915, 1.88541, 1.88653, 2.08907, 1.88646, 1.96831, 1.8858, 1.98778, 1.97917, 1.88687, 1.88444, 1.88355, 1.88398, 1.88441, 1.88424, 2.07603, 1.88393, 1.88299, 2.05925, 1.88587, 1.97502, 1.88384, 1.91144, 1.81176, 1.91327, 1.91016, 1.80092, 1.91286, 1.91253, 1.799, 1.9143, 1.79568, 1.79186, 1.79247, 1.91373, 1.90788, 1.83787, 1.91139, 1.7871, 1.78461, 1.91404, 1.91242, 1.78551, 1.78214, 1.78045, 1.90814, 1.90965, 1.90971, 1.90664, 1.83415, 1.8338, 1.78506, 1.91139, 1.78003, 1.78342, 1.8608, 1.78384, 1.78355, 1.78471, 1.78308, 1.78271, 1.90713, 1.78242, 1.78304, 1.78213, 1.90795, 1.78071, 1.83731, 1.90516
1.86513, 1.915, 1.91626, 1.92446, 1.91356, 1.96302, 1.85951, 1.85817, 1.8585, 1.85691, 1.85821, 1.85713, 1.85547, 1.95898, 1.94436, 2.03551, 1.85293, 1.85268, 2.03457, 1.84635, 1.84833, 1.89628, 1.8457, 1.95307, 1.84495, 1.94763, 1.84092, 1.8418, 1.83875, 1.83871, 1.83751, 1.83716, 1.83678, 1.93273, 1.8375, 1.93533, 1.83497, 2.11, 1.83188, 1.83416, 1.83382, 1.836, 1.83164, 1.83305, 1.83383, 1.88552, 1.99298, 1.9719, 1.89628, 1.97186, 1.9716, 1.96937, 1.89202, 1.97182, 1.96598, 1.99373, 1.99283, 1.9607, 1.99617, 1.96014, 2.09106, 1.95566, 2.08062, 1.99022, 1.99453, 1.95022, 1.95137, 1.99388, 1.95328, 2.07014, 1.94984, 1.95124, 1.87344, 1.99626, 1.8725, 1.9499, 1.87522, 1.87637, 1.99352, 1.99377, 1.9931, 1.9569, 1.8824, 1.96489, 1.99264, 2.07575, 1.97361, 1.99375, 2.0908, 2.03894, 2.0399, 2.05886, 2.04812, 2.0419, 2.04011, 2.04104, 1.96138, 1.9601, 2.04483, 1.96135, 2.04536, 2.03863, 2.04089, 2.03796, 2.03814, 2.03845, 2.04912, 2.05983, 2.05485, 2.04768, 2.05552, 1.96071, 2.03928, 1.96342, 2.04992, 2.05136, 1.96244, 1.96324, 2.05831, 1.9651, 2.05937, 1.96337, 2.05039, 2.05053, 2.05104, 2.04942, 1.96569, 2.04052, 2.05199, 1.96454, 1.96526, 2.06339, 2.06589, 2.0547, 2.04833, 2.06451, 2.06352, 2.04173, 1.96193, 1.96216, 2.05896, 2.05, 2.03749, 2.04155, 1.95893, 1.95847, 1.95789, 1.95907, 1.96019, 2.05584, 2.04303, 2.0473, 2.03974, 1.89054, 1.88941, 1.88751, 1.88633, 2.06927, 2.0699, 2.08378, 1.88538, 1.88326, 1.88394, 1.93412, 1.9344, 1.88577, 1.88554, 1.8855, 1.88462, 1.88873, 1.88489, 1.88908, 1.88881, 1.88594, 1.88897, 2.08367, 1.98974, 1.88748, 1.88866, 1.88637, 1.93795, 1.88655, 1.88441, 1.88532, 1.88585, 2.0598, 1.88328, 1.88478, 2.0605, 1.8821, 1.88534, 2.05513, 1.8855, 1.86357, 1.81072, 1.80907, 1.80226, 1.79936, 2.00829, 1.7973, 1.79667, 1.91447, 1.79281, 1.84388, 1.84119, 1.79042, 1.78907, 1.83524, 1.78546, 1.78617, 1.91144, 1.78359, 1.78436, 1.91691, 1.91667, 1.78236, 1.78197, 1.7817, 1.90684, 1.78594, 1.83451, 1.78342, 1.9072, 1.9071, 1.78187, 1.78386, 1.78289, 1.91014, 1.89962, 1.78307, 1.78345, 1.78316, 1.90903, 1.77934, 1.90711, 1.78093, 1.78257, 1.83133, 1.78016, 1.89001
1.91682, 1.86653, 1.8666, 1.86551, 1.86494, 1.86479, 1.86142, 1.9624, 1.86108, 1.8623, 1.91109, 2.14853, 1.85799, 1.85853, 2.03763, 1.85384, 1.85363, 2.03731, 1.85108, 1.84818, 1.85011, 2.04385, 2.0328, 1.84865, 1.84777, 2.01964, 2.0151, 1.8932, 1.9047, 1.89041, 1.8912, 1.93836, 1.83859, 1.83728, 1.83687, 1.83724, 1.83603, 1.93734, 1.94214, 1.94443, 1.83386, 1.83561, 1.83558, 1.83739, 1.83692, 1.83788, 2.07651, 1.97485, 1.97331, 1.9725, 1.97222, 1.97014, 2.07553, 1.96773, 1.96563, 1.99722, 1.88892, 1.99487, 1.88662, 1.95883, 1.95691, 1.95835, 1.88143, 1.99664, 1.95459, 1.95243, 1.87589, 1.87524, 1.95327, 1.87552, 1.94884, 1.99354, 2.07462, 1.95192, 1.95514, 1.95044, 1.99496, 1.95091, 1.95436, 1.958, 1.9603, 1.88286, 1.99418, 1.95956, 1.89069, 1.97024, 1.9732, 1.97414, 2.09148, 2.08968, 2.04575, 2.04486, 1.96675, 2.068, 2.0413, 2.03627, 2.04137, 2.04197, 2.04266, 1.96292, 1.96192, 1.96138, 2.03975, 2.04973, 2.05551, 2.04246, 2.05629, 2.05467, 2.05794, 2.03983, 2.04075, 2.04005, 2.05659, 1.9662, 2.05155, 2.05383, 2.05293, 2.05048, 2.05033, 2.06297, 2.05809, 1.96551, 2.04448, 2.04837, 1.96535, 2.0496, 1.96677, 2.05684, 2.05623, 2.04791, 1.96584, 2.06814, 1.96475, 2.05905, 2.06551, 2.05659, 2.05479, 1.96269, 1.96225, 1.96177, 1.96196, 1.96103, 2.04847, 2.03828, 2.03738, 1.96113, 1.96045, 1.96119, 2.04243, 2.04648, 2.04486, 2.04179, 2.04263, 1.89055, 1.99043, 2.09407, 2.08781, 1.8855, 1.88693, 1.88527, 1.99328, 1.88514, 1.88422, 1.88403, 1.88375, 1.88147, 1.88284, 1.88473, 1.88605, 1.88751, 1.8869, 2.00278, 1.88363, 1.88965, 1.88906, 1.98223, 1.88688, 1.88502, 1.88581, 1.88863, 2.07171, 1.88438, 1.8865, 1.88688, 1.88516, 1.88052, 1.88396, 1.88588, 1.93865, 1.88542, 1.88546, 2.05586, 1.88342, 1.8116, 1.87174, 1.85841, 1.80645, 1.80352, 1.80042, 1.79744, 1.84554, 1.86818, 1.84426, 1.84147, 1.84119, 1.8923, 1.78648, 1.78714, 1.78635, 1.91391, 1.91369, 1.78381, 1.91668, 1.89937, 1.83302, 1.78243, 1.83245, 1.78024, 1.90978, 1.87677, 1.88715, 1.9098, 1.91476, 1.78211, 1.78043, 1.78212, 1.78417, 1.90832, 1.9049, 1.7818, 1.90688, 1.90984, 1.78237, 1.78182, 1.78047, 1.77899, 1.77957, 1.88971, 1.78024, 1.83034
1.96828, 1.86764, 1.86855, 1.86916, 1.86568, 1.86576, 1.86714, 1.86564, 1.86549, 1.91373, 1.86415, 1.91291, 1.85891, 1.9102, 1.85858, 1.95771, 1.85689, 1.85823, 1.96172, 1.96312, 1.85402, 1.85238, 1.85095, 1.8477, 1.84951, 1.84702, 1.93925, 1.89483, 1.89397, 1.89406, 1.84434, 1.84387, 1.96529, 1.84075, 1.88972, 1.83788, 1.88806, 1.8869, 1.88733, 1.83571, 1.88619, 1.84117, 2.01948, 1.83616, 1.94086, 1.84014, 1.99978, 1.97487, 1.97507, 1.97503, 1.97412, 1.97341, 1.99935, 1.999, 1.99698, 1.96625, 1.96651, 1.96566, 2.00012, 1.99695, 1.99825, 1.99766, 1.95687, 1.95543, 1.95685, 1.95574, 1.95605, 1.95576, 1.95448, 1.87573, 1.95223, 1.94786, 1.95188, 1.99758, 1.95132, 1.8762, 2.08955, 1.95554, 1.99972, 1.95844, 1.88061, 1.96304, 1.99673, 2.07348, 1.99833, 1.97295, 1.97559, 1.90414, 1.9966, 2.07265, 2.0464, 2.06361, 2.07281, 1.96646, 1.96604, 1.96507, 1.96325, 1.96466, 1.96299, 1.96293, 2.04268, 1.96283, 1.96232, 2.06985, 2.04072, 2.04136, 2.07078, 2.04084, 2.06193, 2.0603, 2.04216, 2.05184, 2.0721, 2.04835, 2.05603, 2.05546, 1.96514, 1.966, 2.0514, 2.05184, 2.06183, 2.06285, 2.04293, 2.05061, 2.05498, 2.05233, 2.07562, 2.06368, 2.05194, 2.05987, 2.04926, 2.06931, 1.96543, 2.05672, 2.05784, 2.05483, 1.9645, 2.06673, 2.04458, 2.04987, 2.04896, 2.04858, 1.96156, 2.05328, 2.04169, 1.9594, 1.95927, 1.96199, 1.95867, 2.03957, 2.0494, 2.04233, 2.05555, 1.8924, 1.89252, 1.89048, 1.93777, 1.88526, 1.88552, 1.88564, 1.9926, 1.88567, 1.98822, 1.88188, 1.88387, 1.99376, 1.99214, 1.88526, 1.99256, 1.98964, 1.9887, 1.88596, 1.88664, 1.88887, 1.88695, 1.88597, 1.88402, 1.88674, 1.88659, 1.93531, 1.96879, 1.93562, 2.05568, 1.934, 1.88363, 1.88529, 1.88341, 1.88308, 1.88587, 1.88511, 1.88498, 1.88324, 1.88233, 1.86217, 1.80985, 1.80505, 1.89941, 2.09298, 1.79875, 1.79737, 1.7912, 1.87245, 1.8435, 1.78916, 1.78708, 1.78776, 1.78523, 1.91111, 1.84814, 1.78561, 1.7836, 1.91852, 1.78404, 1.78484, 1.83203, 1.78253, 1.78155, 1.83356, 1.91215, 1.90981, 1.9072, 1.78219, 1.78347, 1.78217, 1.9101, 1.90848, 1.7808, 1.78007, 1.90606, 1.83382, 1.78348, 1.78102, 1.9061, 1.91063, 1.78397, 1.7798, 1.77906, 1.7795, 1.77889, 1.77908
1.97536, 1.97294, 1.97261, 1.97324, 2.05175, 1.86766, 1.86849, 1.86682, 1.91701, 1.86709, 1.86651, 1.86491, 1.96853, 1.86026, 1.85944, 1.90952, 1.9094, 1.85819, 1.85791, 1.85744, 1.85508, 1.85221, 2.04158, 1.95844, 1.84949, 1.90106, 1.89876, 1.89736, 1.89736, 1.84426, 1.84454, 1.84463, 1.84146, 1.84422, 1.84426, 1.84036, 1.84069, 2.0096, 1.83744, 1.89015, 1.88951, 1.84035, 1.93555, 1.83945, 1.89025, 1.84023, 2.00119, 1.97873, 2.08061, 2.00197, 1.97629, 1.89765, 2.00084, 1.89579, 1.9699, 2.00007, 1.96622, 2.07957, 1.96542, 1.88761, 1.9622, 1.96053, 1.99981, 1.95814, 1.88052, 1.9567, 1.88006, 2.00067, 1.87885, 1.95368, 1.99835, 1.95155, 2.00171, 2.00174, 1.95251, 1.9559, 1.95255, 1.955, 1.88027, 2.08649, 1.96003, 1.96514, 1.9659, 1.96541, 1.99943, 1.89743, 1.90317, 2.09487, 2.09781, 2.08402, 2.06782, 2.05876, 2.05152, 2.05574, 2.05745, 2.05899, 1.96571, 1.96404, 1.96442, 1.96197, 2.04202, 2.0486, 2.09085, 2.04279, 2.04187, 2.04212, 2.04238, 2.04416, 2.04142, 1.9656, 1.96521, 2.05309, 2.05191, 1.96485, 2.05479, 2.03848, 2.04181, 2.04342, 2.04929, 2.04469, 2.0446, 2.06105, 2.05608, 2.05033, 2.04349, 2.05585, 2.05575, 1.96722, 2.05161, 2.05385, 1.96797, 2.05856, 2.04494, 2.05941, 2.05735, 2.05399, 2.05758, 2.07713, 2.04172, 2.05343, 2.05869, 2.03989, 2.03817, 1.9612, 1.95943, 1.96373, 1.96026, 1.96001, 2.03964, 1.95953, 2.03873, 2.0443, 1.96055, 1.8933, 1.94086, 1.9851, 1.99098, 1.88657, 1.99265, 1.88355, 1.88036, 1.93331, 1.93213, 1.8831, 1.88337, 1.88368, 2.0731, 1.88576, 2.07433, 1.88313, 1.93712, 1.8861, 1.93544, 1.94111, 1.88795, 1.93422, 1.88561, 1.88667, 1.98904, 1.88611, 1.93471, 1.88334, 1.88204, 1.88537, 1.88578, 1.88362, 2.06797, 1.88317, 1.88037, 1.88224, 1.98275, 1.88533, 1.88541, 1.9146, 1.91443, 1.80465, 1.80065, 1.79901, 1.79833, 1.915, 1.79573, 1.91994, 1.79311, 1.79084, 1.78885, 1.91676, 1.78585, 1.91316, 1.90992, 1.78521, 1.78338, 1.78331, 1.78353, 1.89641, 1.78494, 1.78325, 1.83409, 1.78169, 1.87627, 1.7823, 1.78194, 1.90963, 1.78185, 1.77966, 1.78264, 1.78238, 1.78095, 1.89284, 1.90755, 1.90283, 1.8782, 1.78325, 1.78107, 1.78153, 1.78163, 1.78023, 1.78187, 1.77968, 1.77863, 1.77973
1.8748, 1.87368, 1.87196, 1.8723, 1.87205, 1.8689, 1.8683, 1.97887, 1.87097, 2.0524, 1.86678, 2.04501, 1.97246, 1.86312, 1.86442, 1.86193, 1.86386, 1.86182, 1.86284, 1.95936, 1.90969, 1.94694, 1.95171, 1.96375, 1.85392, 1.85369, 1.85125, 1.95787, 1.84898, 2.04804, 1.84644, 1.96247, 1.95869, 2.03185, 1.96064, 1.96213, 1.8427, 1.84176, 1.89227, 1.89283, 1.84142, 1.94568, 1.84098, 1.84128, 1.84383, 1.84419, 1.98316, 2.00548, 1.90445, 2.00673, 1.97883, 2.00659, 2.00478, 1.97371, 1.89599, 1.96777, 2.00287, 2.00264, 2.00397, 2.00277, 1.96306, 1.96266, 1.88332, 1.95788, 1.95855, 2.00613, 1.95781, 1.95492, 1.95628, 1.95476, 2.00023, 1.95456, 1.95527, 1.9544, 1.87848, 1.95337, 2.00355, 1.99993, 1.8814, 1.95888, 1.95993, 2.0036, 1.89008, 2.08808, 1.97078, 1.97531, 1.99816, 1.99843, 2.09207, 2.0632, 2.06341, 2.05137, 2.04453, 2.06028, 2.05663, 1.96657, 1.96564, 1.96858, 1.96756, 2.05096, 2.04732, 2.04766, 2.04131, 2.06982, 1.96531, 2.04997, 1.96654, 2.05727, 2.05854, 2.06362, 2.05699, 2.05861, 2.04771, 2.06656, 2.0547, 2.07071, 1.96947, 2.06333, 2.06126, 2.05611, 2.06538, 2.06499, 2.06336, 2.06558, 2.06405, 2.04813, 2.04268, 2.06836, 2.05849, 2.05251, 2.06304, 1.96603, 2.05681, 2.04675, 2.04733, 1.96506, 2.05483, 2.0481, 2.04312, 2.0499, 2.06184, 2.05533, 2.05102, 2.04007, 1.96284, 1.96413, 1.96155, 2.04169, 2.03987, 2.04053, 2.03997, 2.03903, 2.04612, 1.89315, 1.88736, 1.89063, 1.88828, 1.88801, 2.09066, 2.08998, 1.93352, 1.88337, 1.88179, 1.88246, 1.88224, 1.88213, 1.88552, 1.99526, 1.88545, 1.98566, 1.8847, 1.8854, 1.98933, 1.88603, 1.98702, 1.98602, 1.88449, 1.88674, 1.88671, 1.88257, 1.88265, 1.88213, 1.88426, 1.88319, 2.0613, 1.88478, 1.88534, 1.9785, 1.9772, 1.8812, 1.97522, 1.88395, 1.8825, 1.80931, 1.80585, 1.8022, 1.90341, 1.7981, 1.84738, 1.7937, 1.90861, 1.91805, 1.9151, 1.78964, 1.83881, 1.78986, 1.91659, 1.78565, 1.83821, 1.90799, 1.78445, 1.78232, 1.7826, 1.90288, 1.89937, 1.78159, 1.78165, 1.78397, 1.78161, 1.91245, 1.9106, 1.90743, 1.78111, 1.78359, 1.78526, 1.90233, 1.89954, 1.77897, 1.77897, 1.89758, 1.77954, 1.78016, 1.83586, 1.83577, 1.8365, 1.77884, 1.77812, 1.90388, 1.77738, 1.77596
1.87675, 1.87511, 1.8725, 1.9774, 1.92438, 1.97283, 1.8721, 1.87496, 1.87561, 1.86883, 1.87142, 2.05639, 1.97683, 1.95894, 1.86799, 1.91566, 1.86485, 1.9698, 1.8638, 1.85842, 1.90941, 1.9633, 1.85872, 1.85611, 2.03929, 2.03924, 1.85511, 1.85201, 1.96287, 1.8517, 1.85056, 1.85067, 1.84667, 1.84681, 1.84469, 2.03769, 1.84558, 1.95668, 1.84417, 1.84469, 2.04188, 1.84377, 1.84446, 2.02087, 1.84368, 1.84466, 1.98312, 1.98326, 1.98239, 1.98208, 1.98094, 1.98028, 2.00807, 1.97313, 1.97312, 1.97057, 1.97041, 1.96992, 1.96927, 2.09006, 1.96558, 1.96362, 1.96408, 1.88618, 1.96159, 1.88427, 1.8842, 1.95616, 1.95837, 1.95835, 1.87987, 1.95589, 1.87934, 1.95775, 1.88158, 2.00349, 1.9592, 1.95973, 1.96054, 1.8862, 1.96244, 1.96415, 1.96566, 1.96904, 1.89711, 2.00016, 2.00129, 1.90835, 2.08738, 1.97313, 2.07324, 2.07804, 2.06884, 2.06961, 1.9699, 1.96954, 1.96974, 1.96919, 1.96834, 2.04885, 1.96597, 2.04574, 2.04464, 2.06133, 2.05521, 2.05377, 1.9673, 1.96917, 1.96956, 2.07232, 2.06879, 2.0466, 2.05969, 2.05695, 2.04552, 2.06777, 1.96934, 2.06275, 2.048, 2.0531, 2.06133, 2.06057, 1.97029, 2.06515, 2.05884, 2.05683, 2.0719, 2.06185, 2.04935, 2.06654, 2.05563, 2.04822, 1.96936, 2.05739, 2.05566, 1.96695, 2.04969, 2.06623, 1.96594, 2.06558, 2.05293, 2.0476, 2.053, 1.9621, 1.96363, 1.96209, 1.96237, 2.04311, 2.04284, 2.04444, 1.96189, 2.04022, 2.05267, 2.01627, 1.88903, 1.88877, 1.8868, 1.88527, 2.08671, 1.88328, 2.09326, 1.8819, 1.88089, 1.8809, 1.87986, 1.88203, 1.88297, 1.88243, 1.8815, 1.88311, 1.9348, 1.99215, 1.88359, 1.98247, 1.93443, 1.8872, 2.07065, 1.88638, 1.88534, 1.88341, 1.8845, 1.88373, 1.88286, 2.09299, 1.88624, 1.88287, 1.88357, 1.88268, 1.88602, 1.88537, 1.93586, 2.04259, 1.88552, 1.80686, 1.80455, 1.80118, 1.88895, 1.84866, 1.79365, 1.79409, 1.79227, 1.79098, 1.79033, 1.83922, 1.83756, 1.89435, 1.83723, 1.90094, 1.91735, 1.78471, 1.91344, 1.91218, 1.78399, 1.90997, 1.78276, 1.78296, 1.91357, 1.9126, 1.9116, 1.78024, 1.83207, 1.91054, 1.78029, 1.77754, 1.78254, 1.78016, 1.77899, 1.77827, 1.78144, 1.91152, 1.87597, 1.78167, 1.83564, 1.83468, 1.83457, 1.83163, 1.77783, 1.77829, 1.77805, 1.77846
1.88085, 1.8788, 1.87531, 1.87628, 1.87586, 1.87225, 1.87323, 1.87106, 1.87265, 1.87527, 1.87205, 1.86974, 1.87147, 1.94778, 1.97601, 1.91756, 1.91509, 1.91658, 1.86336, 1.8628, 1.86396, 2.04606, 1.97038, 1.85756, 1.90885, 1.85751, 1.85816, 1.85704, 2.02723, 1.85144, 1.92701, 1.90197, 1.85041, 1.84686, 1.84873, 1.89618, 1.97757, 1.84656, 1.84715, 1.84725, 1.84737, 1.84553, 1.95109, 1.84774, 1.84673, 1.84753, 1.98554, 2.01106, 1.90803, 1.9833, 2.00941, 2.01087, 1.97844, 1.89945, 1.97596, 2.00757, 1.97212, 1.97104, 1.89514, 2.07521, 1.9671, 1.88871, 2.08621, 1.9629, 1.8865, 1.96059, 1.96, 1.95977, 1.95805, 1.95813, 2.09683, 1.95656, 1.95795, 1.87997, 1.88276, 1.95796, 2.00476, 1.88226, 1.88514, 1.96237, 1.88716, 1.96665, 1.8934, 1.89602, 1.97808, 2.08632, 1.98338, 2.00283, 2.08684, 1.97412, 2.07411, 2.06519, 2.06772, 1.9731, 2.04857, 2.04757, 2.04876, 1.96964, 2.04888, 2.04782, 1.96915, 2.04792, 2.05165, 2.07327, 2.06195, 2.06022, 1.97006, 2.04479, 2.04548, 1.9673, 2.07291, 2.06542, 2.05587, 2.05804, 1.97157, 2.05866, 2.05639, 2.04797, 2.06257, 2.05659, 2.0584, 2.06106, 1.96967, 1.96938, 2.06643, 2.06286, 2.07683, 2.0635, 2.06219, 2.05783, 2.06628, 2.04264, 2.052, 1.96764, 2.05939, 1.96627, 2.06533, 2.05595, 2.04966, 2.05996, 1.96469, 2.0484, 2.04905, 2.06546, 1.96354, 1.9626, 1.9609, 2.04204, 2.0421, 2.04103, 1.95904, 1.95954, 2.04227, 1.89097, 1.89066, 1.88661, 1.93863, 1.8852, 1.88633, 1.88533, 1.88397, 1.99465, 1.88032, 1.99386, 1.88222, 1.88084, 2.01268, 1.97551, 1.882, 1.99339, 2.08679, 1.88486, 1.99036, 1.98348, 1.88361, 1.97544, 1.88541, 1.9757, 1.93545, 1.93456, 1.9889, 1.885, 1.8852, 1.88313, 1.88293, 1.88208, 1.88239, 1.88224, 2.08276, 1.93764, 1.93498, 2.05749, 1.92136, 1.80405, 1.80273, 1.93462, 1.84978, 1.89806, 1.79426, 1.91701, 1.79173, 1.79292, 1.91712, 1.91707, 1.78895, 1.78704, 1.78621, 1.83623, 1.78509, 1.78587, 1.78453, 1.91328, 1.91321, 1.78248, 1.78235, 1.9122, 1.78024, 1.8307, 1.83184, 1.89974, 1.89655, 1.90373, 1.77802, 1.90766, 1.77809, 1.77934, 1.77936, 1.78066, 1.77916, 1.77676, 1.77911, 1.90607, 1.77977, 1.83155, 1.83339, 1.77515, 1.77523, 1.90367, 1.77734, 1.89268
1.88277, 1.88227, 1.8806, 1.87855, 1.87664, 1.87597, 1.87611, 1.87836, 1.98664, 1.93493, 1.93472, 1.93654, 1.93077, 1.86951, 1.86995, 1.86968, 1.87225, 2.04871, 1.91642, 1.91691, 1.91498, 1.97189, 1.97314, 1.96832, 1.95896, 1.97553, 1.85893, 1.952, 1.90665, 1.90599, 1.90503, 1.97151, 1.85231, 1.84974, 1.96499, 1.84973, 1.84771, 1.84815, 1.84555, 1.84979, 1.84799, 1.8493, 1.89782, 1.89907, 2.02097, 1.98755, 2.01311, 2.01299, 1.98685, 1.98626, 1.98577, 1.98089, 1.97938, 1.97949, 2.01011, 1.975, 2.01298, 1.89659, 1.97204, 1.96854, 1.96955, 1.9686, 1.9665, 1.96615, 1.96196, 1.96334, 1.96119, 1.9597, 1.96351, 1.9617, 2.0073, 2.00907, 1.95944, 1.95865, 1.95963, 1.96141, 2.00669, 1.96039, 1.96254, 1.88589, 1.88932, 1.89072, 1.97053, 2.00688, 1.9739, 2.00489, 1.98209, 2.00349, 2.00275, 2.09117, 1.97305, 2.06795, 2.06337, 2.0515, 2.05964, 2.05291, 2.04841, 2.04577, 1.97222, 1.96972, 1.97033, 1.96961, 2.04694, 1.96968, 1.96899, 2.04857, 2.05599, 2.04924, 2.04737, 2.05719, 2.06388, 2.04722, 2.04831, 2.05675, 2.07612, 1.97338, 2.0529, 2.06374, 2.06954, 2.05477, 2.0701, 2.05998, 2.06319, 1.96944, 1.97115, 2.06182, 1.97102, 2.06204, 2.05501, 2.06004, 2.05828, 2.05961, 2.05913, 2.06369, 2.06434, 1.96802, 1.96638, 2.0635, 1.96794, 2.05534, 2.05748, 2.0391, 2.05372, 2.05816, 1.96475, 1.96451, 1.9654, 1.96197, 1.96119, 2.05781, 1.96188, 2.0387, 1.89468, 1.89292, 2.00262, 1.99704, 1.99654, 1.88679, 1.88378, 2.08247, 1.88138, 1.88111, 2.01479, 1.99704, 1.99478, 1.87712, 1.88204, 1.8793, 1.96873, 1.88189, 1.8806, 2.07259, 1.93395, 1.88294, 1.98708, 1.98616, 1.88424, 1.88363, 1.88454, 2.07286, 1.93419, 1.93286, 1.88306, 1.88112, 1.88291, 1.88259, 2.0811, 1.88283, 1.88519, 1.88451, 1.88379, 1.88494, 1.80778, 1.85332, 1.85113, 1.91839, 1.9206, 1.91862, 1.79401, 1.79168, 1.78765, 1.78994, 1.91523, 1.91705, 1.86032, 1.88692, 1.78531, 1.78438, 1.91113, 1.78567, 1.91218, 1.7852, 1.78204, 1.78062, 1.78021, 1.78229, 1.78194, 1.78085, 1.78246, 1.77909, 1.89683, 1.89347, 1.77765, 1.90861, 1.77623, 1.89547, 1.8283, 1.82616, 1.77659, 1.77887, 1.77687, 1.90962, 1.77859, 1.8761, 1.77694, 1.77541, 1.90396, 1.90192, 1.7774, 1.90171
1.88454, 1.88276, 1.99401, 1.8768, 1.88004, 1.87762, 1.87878, 1.8787, 1.87606, 1.87526, 1.87719, 1.87731, 1.87525, 1.87299, 1.87274, 1.87394, 1.87013, 1.87134, 2.06586, 1.86747, 1.86674, 1.86577, 1.86274, 1.86243, 1.8631, 1.96967, 1.95136, 1.85809, 1.85804, 2.04082, 1.8516, 1.85509, 1.85265, 1.96644, 2.04158, 1.84965, 1.8497, 1.85042, 1.9441, 1.85067, 1.95044, 1.84989, 1.89974, 1.85254, 1.84958, 1.85116, 2.09358, 1.98828, 1.91361, 1.98597, 2.01575, 2.01458, 1.97972, 1.98014, 2.0132, 1.97783, 1.97778, 1.97534, 2.01187, 2.01241, 1.97128, 1.97052, 1.97188, 1.96399, 1.96601, 1.8873, 1.96208, 1.96228, 1.96235, 2.09797, 1.96164, 1.88368, 1.88374, 1.96025, 1.96151, 2.00836, 1.95924, 2.01114, 2.08281, 2.00797, 1.96702, 1.96946, 1.89525, 2.08946, 2.0831, 1.9801, 1.9809, 2.09149, 2.10968, 1.97704, 2.08049, 2.05267, 2.05312, 2.05177, 2.05609, 2.05525, 2.05063, 1.97152, 1.97073, 1.96949, 2.05362, 2.04591, 2.04927, 2.04874, 2.04864, 2.04842, 2.04811, 2.04891, 2.07456, 2.07995, 1.97272, 2.06183, 2.06474, 1.97305, 1.97393, 2.06171, 2.06235, 1.97229, 2.0735, 1.97228, 1.9725, 1.97196, 1.97245, 1.9717, 1.9717, 2.04826, 2.06977, 2.06964, 2.0681, 2.05882, 2.04777, 2.04624, 2.05092, 1.96838, 2.0725, 2.0495, 1.96804, 2.06231, 1.96547, 1.96371, 2.05961, 2.06036, 2.04251, 1.9661, 1.96523, 2.04436, 1.96556, 1.96464, 1.96395, 1.96304, 2.04087, 2.04059, 1.89303, 1.99521, 1.89095, 1.99656, 1.99672, 1.99512, 1.88421, 1.88133, 1.99293, 1.93057, 1.92961, 1.9914, 1.8766, 1.8765, 2.08952, 1.88021, 1.87883, 1.87762, 2.06811, 1.97852, 1.87917, 1.93182, 1.88015, 1.88001, 2.05239, 1.88308, 1.88194, 1.98767, 1.99404, 1.99233, 1.983, 1.88195, 1.98548, 1.88328, 1.88037, 1.88318, 1.93398, 1.88396, 2.07623, 2.0596, 1.8041, 1.97488, 1.95119, 1.84911, 1.79609, 1.9172, 1.91847, 1.92442, 1.78995, 1.91811, 1.78922, 1.7875, 1.90857, 1.78427, 1.78576, 1.78364, 1.78283, 1.78284, 1.78417, 1.7839, 1.78361, 1.9083, 1.90996, 1.77955, 1.7785, 1.77985, 1.78121, 1.83036, 1.8292, 1.77952, 1.83018, 1.77873, 1.9003, 1.77731, 1.77688, 1.77487, 1.77719, 1.82853, 1.77869, 1.88618, 1.77502, 1.77637, 1.8245, 1.77673, 1.88965, 1.77709, 1.77498, 1.77574
1.8862, 1.88686, 1.99411, 2.15585, 1.88365, 2.07204, 2.14852, 1.88035, 1.87854, 1.88066, 1.87833, 1.88083, 1.8788, 1.87468, 1.98581, 1.87366, 2.0652, 1.87185, 1.98164, 1.87151, 1.97665, 2.05948, 1.86807, 1.86683, 1.86547, 1.8636, 1.86177, 1.86177, 1.85976, 1.85959, 1.96871, 2.04092, 1.85822, 1.96757, 1.85479, 1.85316, 1.85261, 1.91652, 1.91368, 1.85365, 1.85307, 1.85139, 1.8519, 1.85323, 1.85384, 1.8547, 1.99467, 2.01707, 2.01704, 1.91371, 1.988, 1.98872, 2.01198, 1.98219, 1.98052, 1.90286, 1.90041, 1.97605, 2.01352, 1.89971, 1.97249, 1.96981, 1.97045, 2.01575, 1.96552, 2.01292, 2.11078, 1.88763, 1.9661, 1.9635, 1.96241, 1.96195, 1.96146, 2.01184, 2.01199, 1.96329, 1.89029, 1.96544, 1.96842, 1.96572, 1.96883, 1.9719, 1.97257, 1.9749, 1.97835, 1.98048, 2.00697, 1.98802, 2.00681, 1.97852, 2.07254, 2.05748, 2.05569, 2.0658, 2.08363, 1.97567, 2.05342, 2.05464, 1.97528, 1.97479, 2.05237, 1.97345, 2.05194, 2.05139, 2.07197, 2.05089, 2.05666, 2.06847, 1.97292, 2.07355, 2.06023, 2.06965, 2.05532, 2.05617, 2.06556, 1.97365, 1.9729, 2.07013, 1.97429, 2.05298, 2.05509, 2.04891, 2.05587, 2.05564, 2.05471, 2.0729, 1.97181, 2.07287, 2.07565, 1.97186, 2.04822, 2.06902, 2.06925, 2.06634, 1.97043, 2.05014, 2.06842, 1.9704, 2.05901, 2.0626, 2.05883, 1.96632, 2.0506, 1.96704, 1.96513, 1.96676, 2.04262, 1.96404, 1.96311, 1.96537, 2.04495, 1.96261, 2.05263, 2.00377, 1.88713, 1.88684, 1.8855, 1.88458, 1.88218, 1.99816, 1.88193, 1.88125, 1.87522, 1.87496, 1.87701, 1.87722, 1.99804, 1.87841, 1.87971, 1.87915, 1.87852, 1.87961, 1.87903, 1.88275, 1.98703, 1.986, 1.88, 1.87674, 1.88197, 1.88167, 1.88247, 1.87909, 1.88258, 1.88267, 1.88277, 1.88293, 1.88375, 1.88172, 1.97992, 2.08026, 1.88286, 1.88417, 1.80351, 1.79963, 1.79516, 1.79694, 1.79167, 1.92007, 1.91696, 1.78983, 1.7892, 1.91337, 1.78773, 1.918, 1.78284, 1.88232, 1.91642, 1.91427, 1.91029, 1.91393, 1.90997, 1.91078, 1.78118, 1.90868, 1.9134, 1.91286, 1.78097, 1.77922, 1.90958, 1.77695, 1.77743, 1.90784, 1.90831, 1.89836, 1.90683, 1.90189, 1.89821, 1.77775, 1.77561, 1.7752, 1.88562, 1.77591, 1.77561, 1.77197, 1.77608, 1.77477, 1.82399, 1.77513, 1.77409, 1.98696
1.99272, 1.93931, 1.88751, 1.93751, 1.93637, 1.88512, 1.88587, 1.97676, 1.8824, 1.99302, 1.88149, 2.0678, 1.98995, 1.87971, 1.87709, 1.98975, 1.97953, 1.98072, 2.06121, 1.86992, 1.97906, 1.86891, 1.91805, 1.96318, 1.86649, 1.86519, 1.86207, 1.97519, 1.86014, 1.91027, 1.91098, 1.97466, 1.97071, 1.94884, 1.85533, 1.97082, 1.96148, 1.85526, 1.85528, 1.85332, 1.97698, 1.85481, 1.85616, 2.03017, 2.03065, 1.91884, 1.99415, 2.02026, 2.01904, 1.98945, 1.98965, 1.98706, 1.98649, 1.98597, 2.01914, 1.98134, 1.97905, 1.97616, 1.89991, 1.97348, 1.89659, 1.89583, 1.89455, 1.97025, 1.89278, 2.01908, 1.96585, 1.89038, 2.10304, 2.10167, 1.96296, 1.96245, 1.96485, 2.01324, 1.88676, 1.88777, 1.89076, 1.8909, 2.01226, 2.01317, 2.01315, 1.97261, 1.97285, 1.97812, 1.98075, 2.08481, 2.0097, 2.00931, 2.0088, 1.93487, 1.9798, 1.97988, 2.06864, 2.0729, 2.07541, 1.97838, 2.05609, 1.9763, 1.97568, 1.97349, 1.97357, 2.07174, 2.07265, 2.05299, 2.05004, 2.05913, 1.97552, 1.97509, 1.97536, 2.06644, 1.97311, 2.06495, 2.06161, 2.06408, 2.07279, 2.06977, 2.08642, 1.9755, 1.9747, 2.0844, 2.05991, 2.05307, 2.06358, 2.05599, 2.05705, 2.06169, 1.9727, 1.97332, 1.97229, 2.07074, 1.97219, 2.06231, 2.04965, 2.04932, 2.06808, 2.04814, 2.06125, 2.05446, 2.04221, 2.06902, 2.06926, 1.9663, 1.9657, 1.96511, 1.964, 1.96494, 2.04583, 2.03787, 1.96448, 1.96492, 2.04861, 2.04223, 2.05159, 1.89014, 1.99724, 2.0916, 1.88304, 1.88199, 1.88146, 1.99619, 1.99712, 1.87797, 1.87756, 2.07513, 1.87567, 1.97948, 1.87546, 1.99238, 1.92738, 1.92696, 1.92739, 2.11189, 1.87743, 2.07363, 2.07986, 1.88029, 1.98927, 1.88045, 1.87962, 1.88061, 1.93163, 1.93265, 1.93117, 1.88306, 1.88158, 1.934, 1.88276, 1.88554, 1.88601, 1.88346, 1.88206, 1.88291, 1.85217, 1.8496, 1.79827, 1.84731, 1.89923, 1.89862, 1.91096, 1.89811, 1.78672, 1.83932, 1.83717, 1.83438, 1.78668, 1.90992, 1.78309, 1.7844, 1.78346, 1.7819, 1.91518, 1.88955, 1.91219, 1.78207, 1.91064, 1.77943, 1.78025, 1.77856, 1.87632, 1.77886, 1.77568, 1.91062, 1.77609, 1.90333, 1.77554, 1.77815, 1.77623, 1.7764, 1.90227, 1.82413, 1.90722, 1.90463, 1.77504, 1.77426, 1.77288, 1.77593, 1.90696, 1.77232, 1.77467, 1.77262
2.00106, 1.8918, 1.97388, 1.94049, 1.88762, 1.93737, 1.88342, 1.88543, 1.93423, 1.88131, 1.88342, 1.99677, 1.8785, 1.93718, 1.87939, 1.93796, 1.9306, 1.99705, 1.8754, 1.99093, 1.98337, 1.92569, 1.87155, 1.86635, 1.86829, 1.8655, 1.8661, 1.86607, 1.86165, 1.96262, 1.86195, 1.85933, 1.95813, 1.85633, 1.96629, 1.95547, 2.04271, 2.06231, 1.85579, 1.85498, 1.85736, 1.9341, 1.85548, 1.95628, 1.85989, 1.85831, 1.99792, 1.99942, 1.99415, 2.02029, 2.02274, 2.02451, 2.02029, 1.98556, 1.98585, 1.98344, 1.98197, 1.98335, 1.90327, 1.97771, 1.97687, 1.97612, 1.97513, 2.01734, 2.01706, 1.89331, 1.9679, 1.96902, 1.88936, 2.01671, 2.01598, 1.96531, 1.96467, 1.96529, 1.88837, 1.8897, 1.96713, 1.96612, 1.96893, 2.0893, 1.96964, 2.10036, 1.97649, 2.01257, 2.01315, 1.98531, 1.98565, 2.01006, 2.00968, 2.10287, 1.98097, 2.06954, 1.97978, 2.05899, 2.06361, 2.05646, 2.0582, 1.97743, 1.97899, 1.97204, 1.97628, 2.04981, 2.05985, 2.06864, 2.06284, 2.06462, 2.07562, 2.05986, 2.06513, 1.97624, 1.97657, 1.97622, 2.05283, 2.0551, 2.04982, 2.05227, 2.06176, 1.97674, 2.05974, 2.06082, 2.05647, 2.05244, 1.97655, 1.97548, 2.07233, 2.06058, 2.05689, 1.97334, 1.97267, 2.06509, 1.97462, 1.97347, 1.97322, 2.05901, 2.06349, 2.04869, 1.97187, 2.05965, 2.06033, 2.05669, 2.04466, 2.06274, 2.04246, 2.04185, 1.96572, 2.04545, 1.96509, 1.96561, 1.9647, 2.06365, 2.04723, 2.05308, 1.89303, 2.00129, 1.99031, 1.88504, 1.88048, 1.88219, 1.87917, 1.99276, 1.9968, 1.87749, 1.87633, 1.87559, 2.09608, 1.87644, 1.99423, 1.99774, 1.87356, 1.87575, 1.99605, 1.87527, 2.09648, 1.97576, 1.87832, 1.87881, 1.87892, 1.87851, 1.88178, 1.88161, 1.93038, 1.88116, 1.97097, 2.05035, 1.88246, 1.88093, 1.88249, 1.87957, 1.88329, 1.88262, 2.07209, 2.06959, 1.79744, 1.79713, 1.79502, 1.79547, 1.89903, 1.79021, 1.78961, 1.78914, 1.78905, 1.91199, 1.90716, 1.91505, 1.91414, 1.7846, 1.87943, 1.87935, 1.7836, 1.78296, 1.78136, 1.83131, 1.83077, 1.83146, 1.77663, 1.78033, 1.7811, 1.91267, 1.77536, 1.7773, 1.77515, 1.77608, 1.91032, 1.77565, 1.77649, 1.77456, 1.90098, 1.77252, 1.77393, 1.77208, 1.90593, 1.77505, 1.87469, 1.77261, 1.90675, 1.7735, 1.77251, 1.90334, 1.77486, 1.89636
1.99022, 1.89246, 1.89346, 1.89306, 1.89118, 1.89273, 1.93906, 1.88578, 1.95458, 1.93732, 1.88594, 1.99868, 1.88202, 1.97983, 1.98239, 1.87962, 1.87842, 1.97673, 1.87743, 1.87615, 1.87464, 1.87277, 1.8693, 1.97928, 1.87199, 1.86982, 1.98238, 1.97972, 1.91384, 1.91428, 1.86562, 1.91305, 1.85919, 1.85986, 1.85927, 1.85869, 1.85956, 1.96579, 1.85763, 1.85676, 2.0409, 2.04067, 1.85984, 2.05916, 1.91016, 1.91318, 1.99934, 1.92065, 2.10279, 2.10374, 2.02354, 1.98997, 1.99044, 1.98889, 2.09766, 2.11123, 1.98188, 1.98311, 2.11438, 1.97621, 2.10758, 2.01833, 2.01798, 2.02351, 1.9728, 1.97299, 1.97092, 2.01849, 1.96787, 1.89114, 1.96812, 1.89047, 2.01843, 2.01711, 1.89041, 2.01674, 1.96875, 2.01682, 2.01546, 1.96976, 2.09718, 2.01443, 1.976, 1.90312, 1.98236, 2.01106, 1.91312, 2.01393, 2.10669, 1.98195, 2.09441, 2.069, 2.07669, 2.07601, 2.05859, 2.05849, 1.97866, 1.97989, 1.97807, 1.9783, 1.97556, 1.9754, 2.05371, 2.07042, 1.97746, 2.05959, 2.06624, 2.06843, 2.06865, 1.97908, 1.97628, 1.9765, 1.97876, 2.06698, 2.0723, 1.97875, 2.07991, 2.07641, 2.0665, 2.06956, 2.06539, 2.06262, 2.06204, 2.05195, 2.07226, 2.07132, 2.07651, 1.97366, 2.05997, 2.06613, 1.97441, 2.05955, 2.05876, 2.04861, 2.06152, 2.05612, 2.06324, 2.05609, 2.04894, 2.07228, 2.04716, 2.05586, 2.06004, 1.96662, 2.04236, 1.96929, 1.96474, 1.9657, 1.96599, 1.96617, 1.96454, 2.06247, 1.8927, 2.09761, 2.09666, 1.88488, 1.88324, 1.87996, 1.87977, 2.08821, 1.877, 2.00294, 1.98949, 2.00133, 2.09112, 1.87507, 2.08675, 1.87452, 1.87261, 1.87442, 1.96879, 1.8784, 1.87547, 2.07902, 1.87687, 1.87709, 1.87795, 2.06856, 1.98636, 1.87917, 1.94169, 1.97832, 1.93856, 1.88134, 1.88242, 1.96991, 2.0628, 1.97217, 1.93115, 1.8827, 2.05891, 1.88279, 1.79724, 2.10385, 1.79381, 1.79297, 1.79244, 1.79231, 1.78882, 1.78532, 1.78543, 1.91762, 1.786, 1.78488, 1.91328, 1.89316, 1.78267, 1.78192, 1.7827, 1.83054, 1.83005, 1.89543, 1.77932, 1.83111, 1.77713, 1.77886, 1.77907, 1.77533, 1.77711, 1.82737, 1.82621, 1.7765, 1.88088, 1.91022, 1.98249, 1.77496, 1.77214, 1.89975, 1.896, 1.98482, 1.77064, 1.77189, 1.8854, 1.77282, 1.77258, 1.8686, 1.90205, 1.76914, 1.90099, 1.77193
1.89797, 1.89722, 2.00437, 2.00355, 2.00725, 2.06567, 1.8928, 1.9388, 1.88887, 1.88748, 1.88791, 1.88603, 1.8861, 1.8842, 1.88223, 2.07103, 1.87935, 1.88261, 1.87883, 1.87923, 1.87588, 1.98626, 1.87407, 1.9215, 1.97952, 1.87118, 1.87052, 1.86815, 1.98353, 1.8682, 1.91476, 1.9134, 1.91316, 1.86183, 1.86203, 1.86168, 1.85822, 1.96908, 1.85883, 1.85828, 1.85962, 1.96599, 1.96147, 1.86225, 1.86214, 1.91355, 2.00027, 2.00169, 2.02705, 1.99783, 2.10331, 1.99269, 1.99095, 2.02449, 1.98941, 2.02455, 1.98564, 1.98297, 2.09922, 1.98261, 1.9796, 2.02134, 1.97563, 2.11104, 2.0233, 1.96951, 2.02208, 1.96957, 1.9699, 1.96944, 1.96954, 1.89078, 1.89224, 1.9691, 1.96933, 1.97198, 1.96686, 2.0965, 1.97045, 2.01683, 1.97467, 1.97712, 2.09089, 2.01715, 2.11211, 1.98553, 1.99031, 2.01079, 2.09681, 1.98537, 1.98554, 2.0793, 2.07978, 2.06672, 2.07302, 2.05743, 2.06239, 2.05946, 1.98028, 1.97755, 1.97958, 1.97873, 2.06222, 1.97733, 2.05518, 2.05926, 2.06209, 2.05569, 1.9782, 1.9791, 1.97901, 2.06274, 2.06481, 2.06941, 2.07768, 2.06194, 1.97946, 1.97864, 2.06853, 2.06156, 2.06951, 1.97848, 1.97651, 2.07578, 2.05961, 2.06713, 2.06524, 2.07436, 2.05931, 2.07439, 2.06199, 2.05905, 2.05995, 2.06616, 2.06848, 1.97191, 2.05913, 2.04775, 2.0791, 2.05648, 2.05538, 2.0626, 2.05878, 2.04956, 1.96797, 1.96699, 1.9669, 1.96796, 1.9655, 1.96548, 1.96533, 2.04447, 1.89062, 1.93826, 1.93635, 1.93408, 1.88079, 1.87827, 1.8794, 1.92696, 1.87641, 1.87657, 1.87633, 1.97729, 1.8757, 1.87479, 1.87539, 2.00054, 1.9237, 1.87225, 1.87262, 2.08306, 1.87628, 1.99308, 1.87575, 1.87256, 1.92595, 1.87771, 1.8787, 1.87722, 2.07618, 1.87623, 1.87894, 1.88012, 1.88203, 1.88183, 1.88092, 1.88205, 1.88088, 1.98105, 1.87914, 1.87944, 1.79674, 1.92024, 1.79327, 1.91866, 1.79252, 1.78628, 1.78771, 1.78525, 1.78364, 1.78585, 1.91679, 1.78577, 1.78271, 1.78349, 1.78007, 1.78307, 1.88398, 1.91327, 1.77517, 1.82985, 1.90802, 1.77532, 1.77865, 1.83022, 1.7783, 1.7788, 1.77681, 1.91095, 1.77831, 1.77533, 1.8252, 1.77612, 1.77531, 1.90978, 1.77504, 1.77493, 1.89712, 1.77269, 1.8237, 1.82306, 1.77333, 1.87013, 1.90305, 1.90454, 1.9026, 1.76885, 1.89401, 1.89121
2.01124, 1.89558, 1.89733, 1.89435, 1.89573, 1.89346, 1.89414, 2.0076, 1.95966, 1.88966, 1.89083, 1.94094, 1.94127, 2.00032, 1.88522, 1.93387, 1.93396, 1.93372, 1.87898, 1.87844, 1.87666, 1.87564, 1.99299, 1.99244, 1.87084, 1.86928, 1.86881, 1.86823, 1.86654, 1.98326, 1.86462, 1.86712, 1.86209, 1.86268, 1.86018, 1.9106, 1.9667, 1.86047, 1.86105, 1.86076, 1.91774, 1.86267, 1.86442, 1.86115, 1.86344, 1.9281, 2.00302, 2.00039, 1.92221, 2.10696, 1.99794, 2.10848, 2.10307, 2.02713, 2.10453, 2.10148, 1.98662, 1.98735, 1.90738, 1.98451, 1.97957, 1.97925, 1.90076, 1.90107, 1.97564, 2.02399, 1.89641, 1.97319, 1.97209, 1.96968, 1.96935, 1.96877, 1.96577, 1.89466, 1.96865, 1.89578, 1.97254, 2.02014, 1.96871, 2.09199, 1.97565, 1.97645, 2.01849, 1.97956, 1.9096, 1.98934, 2.01563, 2.10793, 2.09881, 1.94033, 1.98683, 2.07676, 2.06095, 2.06907, 1.98299, 2.06042, 2.06073, 1.97836, 2.05712, 2.05607, 2.05711, 2.05885, 2.06089, 2.07321, 2.05588, 2.0651, 2.05609, 2.08259, 2.0564, 2.05625, 2.07822, 1.9797, 1.97898, 1.98004, 2.07368, 2.06992, 2.08642, 2.06608, 1.97998, 2.06556, 2.06252, 2.06541, 2.06429, 2.06369, 2.05388, 1.97692, 2.08142, 1.97821, 2.06651, 2.06283, 2.0536, 1.97606, 2.06052, 2.07725, 2.07262, 2.06603, 2.06254, 2.04903, 2.04813, 2.06345, 1.97189, 2.05929, 2.0488, 2.04631, 2.05139, 1.96932, 1.96927, 1.96628, 2.0466, 1.96672, 2.05866, 1.9653, 1.93836, 1.93772, 1.88565, 2.00379, 1.88227, 2.00324, 1.87921, 1.92744, 1.92677, 1.87383, 1.94706, 1.9233, 1.87248, 1.87262, 1.87169, 1.87176, 1.87286, 1.87138, 1.99686, 1.87177, 1.99706, 1.87191, 1.92497, 1.92655, 1.97659, 1.87676, 1.87564, 1.87839, 1.92824, 1.92795, 1.92932, 1.87897, 1.87856, 1.88013, 1.8803, 1.88205, 1.88153, 1.8797, 1.88167, 1.88067, 1.79695, 1.79491, 1.965, 1.79209, 1.91401, 1.84064, 1.78919, 1.8368, 1.78657, 1.78536, 1.78464, 1.78352, 1.91664, 1.88637, 1.88667, 1.89898, 1.77979, 1.91026, 1.9166, 1.91154, 1.77812, 1.87881, 1.77908, 1.77663, 1.77572, 1.90779, 1.77443, 1.90682, 1.77456, 1.7748, 1.77543, 1.87963, 1.77605, 1.77239, 1.77237, 1.90277, 1.77364, 1.77048, 1.8647, 1.85834, 1.77031, 1.76892, 1.76897, 1.77223, 1.77346, 1.82078, 1.77141, 1.86332
1.90298, 1.90089, 1.95078, 1.90013, 1.90018, 2.00782, 1.94666, 1.99307, 2.00487, 1.89231, 2.00343, 1.89008, 1.891, 1.99447, 1.99478, 1.88412, 1.88453, 1.88425, 1.88085, 1.88073, 1.87554, 1.87543, 2.06691, 1.96866, 1.87319, 1.87271, 1.87196, 1.87201, 1.87129, 1.86867, 1.92472, 1.92583, 1.8652, 1.91456, 1.9132, 1.86463, 1.98245, 1.85926, 1.86448, 1.99075, 1.99251, 1.86457, 1.86597, 1.86592, 1.86879, 1.86936, 2.11855, 2.00012, 2.03147, 2.00153, 2.10685, 2.10794, 2.02782, 1.99294, 1.91689, 2.10324, 1.98949, 1.98592, 1.98553, 1.98301, 2.10118, 2.10775, 1.97537, 2.02774, 1.97635, 1.90016, 2.02499, 2.10183, 1.97435, 1.97068, 1.97199, 2.02315, 1.97092, 2.02411, 1.97195, 1.96959, 2.02145, 2.01981, 1.89616, 1.97471, 2.02173, 2.02075, 1.97992, 1.98311, 2.01665, 1.98736, 2.10789, 1.99583, 2.11436, 1.9896, 2.08734, 2.07764, 2.06995, 2.06269, 2.0741, 1.98514, 2.06193, 2.06251, 1.98237, 2.06149, 2.06131, 2.06701, 2.07431, 2.07165, 2.07219, 2.0588, 2.05893, 2.07627, 2.07661, 2.0755, 2.07283, 2.0651, 2.07641, 2.0638, 2.07084, 1.97979, 2.06642, 2.06913, 2.07243, 2.07155, 1.97957, 2.06278, 1.97878, 2.06209, 2.06528, 1.97865, 1.97884, 2.06241, 2.06557, 2.06996, 2.06966, 2.06387, 2.06947, 2.06872, 2.07338, 2.05988, 2.07307, 2.06986, 2.07295, 2.05777, 2.06544, 2.04866, 2.06533, 2.05927, 2.04613, 2.04905, 1.96943, 1.96857, 1.96793, 2.04649, 2.04268, 2.0557, 1.88733, 1.88663, 1.8853, 1.93329, 1.93054, 1.87945, 1.87861, 1.87747, 2.10093, 1.99281, 1.87367, 2.00024, 1.87356, 1.87294, 1.87369, 2.07928, 1.9833, 1.87322, 1.87175, 1.87362, 2.07026, 1.99859, 1.87272, 1.87335, 1.92309, 1.97593, 1.92657, 1.87519, 1.8727, 1.99019, 1.87815, 1.87784, 1.87719, 1.87865, 1.87845, 1.87664, 1.96808, 1.87887, 1.8767, 1.87973, 1.79725, 1.89735, 1.79539, 1.84347, 1.91049, 1.78787, 1.7858, 1.89642, 1.83401, 1.90379, 1.94625, 1.90946, 1.78241, 1.7798, 1.91049, 1.7765, 1.91023, 1.77843, 1.87285, 1.87568, 1.90935, 1.77584, 1.77333, 1.82489, 1.77578, 1.77481, 1.77421, 1.7738, 1.77284, 1.82379, 1.82364, 1.77203, 1.77259, 1.77397, 1.82321, 1.82228, 1.82087, 1.7695, 1.77055, 1.90476, 1.77125, 1.82202, 1.77215, 1.85155, 1.82175, 1.76914, 1.76938, 1.76893
2.03385, 1.99678, 1.90419, 1.9975, 1.90137, 1.90119, 2.00985, 1.99469, 1.99427, 1.89659, 1.99999, 1.94058, 1.88985, 1.88939, 2.08266, 1.88848, 2.08376, 1.8824, 2.00316, 1.99862, 2.07529, 1.99851, 1.87934, 1.87813, 1.99366, 1.87407, 1.96516, 1.98945, 1.98768, 1.87122, 1.87057, 1.91739, 1.86871, 1.86677, 1.86284, 2.05878, 1.86366, 1.86461, 1.86451, 1.97479, 1.86231, 1.86415, 1.86784, 1.86743, 1.86871, 1.87048, 2.00767, 2.00465, 1.92646, 2.11241, 2.11693, 1.92417, 1.99496, 1.99453, 1.99507, 1.91481, 1.99318, 2.10572, 2.10667, 2.02835, 1.90804, 1.98363, 1.98001, 1.98041, 1.97864, 2.02759, 2.10615, 2.02504, 2.10343, 1.97317, 2.02812, 1.97354, 1.9721, 1.97309, 1.89429, 1.97219, 1.97531, 1.97258, 2.02076, 1.97672, 1.97845, 1.97885, 2.02153, 1.9087, 1.98926, 2.01841, 2.02056, 1.99755, 2.09186, 2.10124, 2.08383, 2.08448, 2.06697, 2.06997, 2.07051, 2.06541, 2.06245, 1.98342, 1.98393, 1.98605, 1.98246, 1.9819, 2.06145, 1.98277, 2.07102, 2.07537, 2.06173, 2.06124, 2.08006, 2.07365, 1.98281, 1.98282, 2.07557, 2.08005, 2.08196, 2.07831, 2.07796, 1.98335, 2.07628, 2.08327, 2.07238, 1.98181, 2.07424, 1.9791, 2.06949, 2.06491, 2.06913, 1.97865, 2.05995, 2.05708, 2.05635, 2.06356, 2.06298, 2.05493, 2.07664, 2.0596, 2.05137, 2.04857, 2.06998, 2.06562, 2.06101, 2.06894, 2.06346, 1.96874, 1.96812, 1.96881, 1.96879, 1.96853, 1.96851, 2.04843, 2.04725, 1.96657, 1.88778, 1.88646, 1.88474, 1.93554, 1.96976, 1.87973, 1.87777, 1.87659, 1.87502, 1.87186, 1.97308, 1.87283, 1.87526, 1.87413, 1.87156, 1.87018, 1.87186, 1.87209, 1.86924, 1.87415, 1.87154, 1.87184, 1.87104, 1.99583, 1.87324, 1.92225, 1.87463, 1.87206, 1.87475, 1.87309, 1.87388, 1.87553, 1.87606, 1.87823, 2.08306, 1.93873, 1.96883, 1.88161, 1.92807, 1.87639, 1.79962, 1.8994, 1.89688, 1.90974, 1.90789, 1.78616, 1.78585, 1.78395, 1.78431, 1.9099, 1.91081, 1.78005, 1.7793, 1.77909, 1.77752, 1.9098, 1.77923, 1.7783, 1.91061, 1.91376, 1.7757, 1.77493, 1.82517, 1.82471, 1.77334, 1.90719, 1.90607, 1.95822, 1.90505, 1.77374, 1.95593, 1.95715, 1.77316, 1.77208, 1.77254, 1.77195, 1.90278, 1.7718, 1.90484, 1.77124, 1.90134, 1.76874, 1.76905, 1.76786, 1.76815, 1.82031, 1.77102, 1.7709
2.18418, 2.00766, 2.0121, 1.90302, 1.90327, 2.00876, 1.90238, 1.94912, 1.89733, 1.89715, 1.98319, 1.94407, 1.94264, 1.89191, 1.8896, 1.89019, 2.0061, 2.08558, 2.08253, 2.00317, 1.97349, 1.97442, 1.97638, 1.97722, 1.99671, 2.07922, 1.97395, 1.8733, 1.87492, 1.87296, 1.92055, 1.87008, 1.86874, 1.86888, 1.98283, 2.08217, 2.06355, 2.08132, 1.86503, 1.86563, 2.05262, 1.86672, 1.91997, 2.03758, 1.93254, 1.93401, 2.00776, 2.00381, 2.00179, 2.00288, 2.00266, 1.99967, 1.99802, 1.99794, 2.10823, 2.10837, 1.99347, 2.03162, 1.98698, 1.911, 1.91148, 1.9855, 1.98174, 2.02924, 1.98146, 1.9029, 1.97658, 1.89951, 1.9004, 2.02881, 1.9772, 1.97556, 2.10352, 1.89757, 1.97343, 1.97288, 1.97503, 1.89788, 1.97688, 2.02853, 1.97783, 1.97927, 1.906, 1.98293, 1.98997, 1.98968, 1.91731, 2.01709, 2.11287, 2.11062, 1.99091, 2.07004, 2.06524, 2.07285, 1.98621, 1.98564, 1.9869, 1.98532, 1.98666, 1.98337, 1.98306, 2.07798, 2.05869, 2.05917, 1.98294, 2.08759, 2.07991, 2.06281, 1.9836, 1.98358, 2.07143, 2.0756, 2.07681, 2.07197, 1.98467, 2.08048, 2.07035, 2.0677, 2.06739, 2.06741, 1.98041, 2.06659, 2.07364, 2.0791, 2.06817, 2.08078, 2.0721, 1.97916, 2.06648, 2.07987, 1.97838, 2.07377, 1.97891, 2.07287, 2.09717, 1.97891, 1.97679, 2.07003, 2.07587, 2.0826, 2.06395, 2.06175, 2.06233, 2.0554, 1.97164, 1.97069, 1.97, 1.96837, 1.96949, 2.05597, 2.06235, 2.05219, 1.89048, 1.88598, 2.00385, 1.88101, 1.88088, 1.93083, 1.87686, 1.87368, 1.87512, 1.99798, 1.92487, 1.87563, 1.87329, 1.87134, 1.86935, 1.87205, 1.87202, 1.86974, 1.86976, 1.92254, 1.97029, 1.96837, 1.86936, 2.09506, 1.9974, 1.99305, 1.87115, 1.87142, 1.87196, 1.92358, 1.92401, 1.87525, 1.87397, 1.87876, 2.07288, 1.92647, 2.06016, 1.98599, 1.8764, 1.87464, 1.80021, 1.9127, 1.79278, 1.91049, 1.79214, 1.78813, 1.78632, 1.78875, 1.78526, 1.78515, 1.78203, 1.78037, 1.77889, 1.89512, 1.8271, 1.82629, 1.77525, 1.77621, 1.77521, 1.77442, 1.90707, 1.77299, 1.82651, 1.77403, 1.96231, 1.77346, 1.90403, 1.95683, 1.77193, 1.76973, 1.77145, 1.90288, 1.87892, 1.76734, 1.90395, 1.76963, 1.77195, 1.76997, 1.77061, 1.77184, 1.77036, 1.77025, 1.76951, 1.90106, 1.76845, 1.76925, 1.76773, 1.89722
1.90712, 1.90759, 1.90674, 1.9074, 1.90806, 1.90605, 1.90422, 1.95226, 1.95129, 1.95039, 1.98914, 1.99049, 1.89333, 1.89445, 2.00883, 1.98593, 1.93867, 1.99118, 2.06333, 1.88559, 1.88506, 1.95596, 1.88073, 1.88192, 1.97514, 1.878, 1.87656, 1.87634, 1.87373, 1.87393, 1.87319, 2.06516, 1.87081, 1.98541, 1.984, 1.86819, 1.86909, 1.86679, 1.86884, 1.86655, 2.07592, 1.8686, 1.9713, 1.8732, 1.93448, 1.93478, 2.00858, 2.00775, 2.03478, 2.00496, 2.03468, 2.00416, 1.92457, 1.99921, 2.03557, 1.92037, 2.03125, 1.91592, 1.9924, 2.03239, 1.98665, 1.98529, 1.90688, 1.90726, 2.03371, 1.90401, 1.97915, 1.90187, 1.97714, 1.97615, 1.9742, 1.97313, 1.97443, 1.8996, 1.97309, 1.90012, 1.89945, 1.97613, 1.90314, 2.1033, 1.97956, 1.98292, 2.10499, 1.98724, 1.98824, 1.99654, 1.9189, 2.02114, 2.02039, 2.10402, 2.09372, 2.07294, 2.06848, 2.07737, 2.06715, 1.98681, 1.9864, 1.98611, 2.0601, 1.98546, 1.98555, 2.0795, 2.08016, 2.08356, 2.08017, 2.07638, 2.06923, 1.98639, 2.08351, 2.05729, 2.07356, 2.07451, 2.08318, 2.0738, 2.07006, 2.06894, 1.98345, 2.07395, 2.07154, 1.98413, 2.06292, 1.98296, 2.07057, 2.06221, 2.0641, 2.06979, 1.98257, 2.07025, 2.07893, 2.07356, 1.98022, 1.97971, 2.06386, 2.0729, 2.06881, 2.08304, 2.06328, 2.05443, 2.05265, 2.0656, 1.97388, 2.06398, 2.04953, 2.04767, 1.97306, 1.97252, 1.97091, 1.9734, 1.96949, 2.06237, 2.06688, 2.06842, 1.93967, 1.88734, 2.0094, 1.99618, 1.99509, 1.98954, 1.87883, 1.99775, 2.00094, 1.92675, 1.92572, 1.87354, 1.87012, 1.87236, 1.87147, 1.9983, 1.86898, 1.99319, 1.87147, 1.86838, 1.86824, 1.8681, 1.86891, 1.86973, 1.87134, 1.87031, 1.92007, 1.9611, 1.95912, 2.04947, 1.97544, 1.92269, 1.86983, 1.8754, 1.87514, 2.06776, 1.98195, 1.87646, 1.87563, 1.87299, 1.79736, 1.79794, 1.79309, 1.7915, 2.0964, 1.78974, 1.90251, 1.78309, 1.88423, 1.77902, 1.78098, 1.90419, 1.77964, 1.77616, 1.77603, 1.82684, 1.82663, 1.82614, 1.91072, 1.76975, 1.88964, 1.88705, 1.90532, 1.77071, 1.77262, 1.77255, 1.8359, 1.83366, 1.82211, 1.82165, 1.77177, 1.77074, 1.76978, 1.90333, 1.90119, 1.77066, 1.77226, 1.87554, 1.7705, 1.77199, 1.90103, 1.83048, 1.76817, 1.77162, 1.76862, 1.89571, 1.76721, 1.76866
1.90998, 1.90938, 1.91012, 1.90638, 1.90681, 1.90508, 1.90309, 1.90436, 1.90506, 1.95176, 1.89878, 1.89894, 1.89647, 1.8961, 1.89559, 1.89227, 1.93932, 1.94101, 1.88647, 2.07033, 1.88599, 1.88572, 2.00437, 2.07929, 1.99743, 1.87877, 1.96567, 1.96659, 1.968, 1.99416, 1.87481, 1.95892, 1.92392, 1.87247, 1.87153, 1.99281, 1.96889, 1.87032, 1.98188, 1.87156, 1.8734, 1.87337, 2.05303, 1.87168, 1.97526, 1.87616, 2.04079, 1.93384, 2.03481, 1.93389, 1.93045, 2.00429, 1.92484, 1.92437, 1.92356, 2.03579, 1.91936, 2.035, 1.99325, 1.99006, 2.03731, 1.98621, 1.98507, 1.98554, 1.98362, 1.98276, 1.98076, 1.97923, 1.97816, 1.9757, 1.97624, 1.89998, 1.97584, 1.97652, 1.9784, 2.03015, 2.02759, 1.97899, 1.97878, 1.97857, 1.97883, 2.10748, 1.98397, 2.02461, 2.02253, 1.99283, 2.02206, 2.00091, 2.10822, 1.99681, 1.99265, 2.07945, 2.07825, 2.09078, 2.06744, 2.07775, 1.98971, 1.9875, 1.98608, 1.98725, 1.98568, 1.98644, 2.08066, 2.0723, 1.98483, 2.06191, 2.06219, 2.0763, 2.0632, 1.98557, 1.9863, 1.98464, 1.98636, 2.0821, 2.0813, 1.98583, 1.9856, 2.08346, 2.07456, 2.07205, 1.98352, 2.08032, 2.07024, 2.07667, 1.98389, 2.07922, 1.98322, 2.08397, 2.07895, 1.98231, 1.98064, 1.98006, 1.98026, 1.97934, 2.06653, 2.07026, 1.97907, 2.06801, 2.06677, 2.06951, 1.97527, 2.04985, 2.0652, 1.97342, 1.97243, 1.9703, 1.97004, 1.97221, 1.96927, 2.0655, 2.0639, 2.04616, 2.04154, 1.88633, 1.88517, 1.88348, 1.88098, 1.88067, 1.87946, 1.93731, 1.87544, 1.99739, 1.87277, 1.87256, 1.97529, 1.97367, 1.86941, 1.86969, 1.86844, 1.86881, 1.86843, 1.86964, 1.86869, 1.99701, 1.86679, 1.9946, 1.99305, 1.9911, 1.98945, 2.0763, 1.99444, 1.87156, 1.92257, 1.86935, 1.87189, 1.97937, 1.97267, 1.92345, 1.87375, 1.87201, 1.92499, 1.80345, 1.80012, 1.79528, 1.9105, 1.90687, 1.90386, 1.83862, 1.83701, 1.78148, 1.90517, 1.77855, 1.9109, 1.77486, 1.90362, 1.77828, 1.90666, 1.7754, 1.77474, 1.77496, 1.77332, 1.82431, 1.77217, 1.77172, 1.77208, 1.89261, 1.77073, 1.7726, 1.77236, 1.88729, 1.77021, 1.82067, 1.76896, 1.76961, 1.76954, 1.76757, 1.76824, 1.76745, 1.90018, 1.76911, 1.81879, 1.76845, 1.76821, 1.76792, 1.86411, 1.89733, 1.7681, 1.76706, 1.76792, 1.76842
1.91382, 1.91199, 1.91277, 1.91098, 1.90796, 1.90621, 1.90919, 1.90636, 2.0173, 1.9526, 1.95125, 1.89933, 1.89537, 1.89686, 1.89196, 1.89254, 2.00727, 1.8944, 1.89, 1.93906, 1.88877, 1.88519, 1.88643, 2.00184, 2.07616, 1.88201, 1.87744, 1.87814, 1.95114, 1.92786, 1.98313, 1.98475, 1.9237, 1.87427, 1.8724, 1.87113, 1.99268, 1.98946, 1.99034, 1.96688, 1.96551, 1.87483, 1.87334, 1.87378, 1.8762, 2.01431, 1.93512, 2.04314, 2.03983, 2.00975, 2.00769, 2.00462, 2.00389, 2.00141, 2.00182, 2.00041, 2.03813, 1.99457, 1.99196, 1.99325, 1.99057, 2.1168, 1.91005, 2.03744, 1.98343, 1.90605, 2.03862, 1.98195, 1.90269, 1.90046, 1.90067, 1.97989, 1.90104, 1.97752, 1.9779, 1.97511, 1.97521, 1.90257, 1.90248, 1.98057, 1.98279, 1.98446, 1.9829, 2.02721, 2.02489, 1.9183, 1.99904, 2.02117, 2.10475, 1.9446, 2.08542, 1.9938, 2.08969, 2.06945, 2.0925, 2.06769, 2.06883, 2.06755, 1.98899, 1.98818, 1.98724, 1.98651, 2.09136, 2.07017, 1.98695, 2.08405, 2.06542, 2.08469, 2.09427, 2.07606, 2.07366, 2.08293, 1.98587, 2.08041, 2.07384, 1.9855, 2.07852, 2.07812, 2.07705, 1.98663, 2.07082, 2.07464, 2.06908, 2.06145, 2.06046, 2.06928, 2.07246, 2.05922, 2.0752, 2.07586, 2.07912, 2.06626, 1.98093, 1.97944, 1.97717, 2.07162, 2.06485, 2.07193, 2.06889, 1.97682, 2.06906, 2.06248, 2.07137, 1.97328, 1.97285, 1.97211, 1.97124, 1.97219, 1.97099, 2.05497, 2.05188, 1.97036, 1.89009, 1.88585, 1.9355, 1.88391, 1.88096, 1.87899, 1.99759, 1.97189, 2.00207, 2.00144, 1.87345, 1.87298, 1.87204, 1.87009, 2.08147, 1.86892, 1.86871, 1.91741, 1.86735, 1.99743, 1.86764, 1.86663, 1.86667, 1.99312, 1.99315, 1.86582, 1.99577, 1.86642, 1.86915, 1.95963, 2.08354, 1.99011, 1.87006, 1.87014, 1.87011, 2.07962, 1.9827, 1.99745, 1.92392, 1.80235, 1.95801, 1.79556, 1.79431, 1.79064, 1.78763, 1.83883, 1.88661, 1.78583, 1.83273, 1.78177, 1.87672, 1.77727, 1.90319, 1.90462, 1.90377, 1.88214, 1.77243, 1.77303, 1.90111, 1.77318, 1.8786, 1.77222, 1.77008, 1.76898, 1.76887, 1.76919, 1.77042, 1.82149, 1.82075, 1.82079, 1.7692, 1.76838, 1.85374, 1.88577, 1.88377, 1.76968, 1.8881, 1.81853, 1.76801, 1.89627, 1.76974, 1.87217, 1.76815, 1.76761, 1.76735, 1.76913, 1.76761, 1.89664
2.01671, 1.91291, 1.9112, 1.9631, 2.00837, 1.90899, 1.90826, 1.90743, 2.09517, 1.90266, 1.9045, 1.94943, 1.897, 2.0173, 1.89414, 1.8953, 2.08717, 1.88988, 2.01041, 1.98693, 1.98805, 1.88683, 1.8867, 1.93562, 1.88216, 1.93434, 1.93197, 1.93147, 1.97367, 1.92885, 1.87841, 1.87616, 2.07073, 1.87718, 1.98986, 1.8722, 1.92383, 1.9242, 1.93065, 1.87339, 1.92437, 1.97584, 1.87587, 1.96861, 1.87952, 1.93272, 2.01468, 2.12108, 2.12412, 2.01137, 2.01045, 1.93229, 2.00309, 2.00649, 2.00287, 2.00237, 1.99572, 1.9924, 2.13235, 1.99286, 1.99246, 1.9907, 2.11411, 1.90974, 1.90935, 1.9888, 1.98435, 2.12441, 1.97898, 1.90457, 2.034, 1.9789, 1.97713, 1.97622, 1.97882, 1.97942, 1.90338, 2.03096, 1.90473, 1.98236, 2.11755, 1.90844, 2.02888, 2.11487, 2.02561, 2.026, 1.92422, 2.02756, 2.03114, 2.0305, 1.99608, 2.08441, 2.08912, 2.08745, 2.07057, 2.07095, 2.06756, 1.9902, 1.98961, 1.99057, 1.98972, 2.07689, 2.08206, 2.07575, 2.07311, 1.98768, 1.9896, 2.08127, 2.08087, 2.08327, 2.08566, 2.07299, 2.07296, 2.07138, 2.0781, 2.06385, 2.06285, 1.98605, 2.07192, 2.0758, 2.07658, 2.07994, 2.06422, 2.06379, 2.06209, 2.08307, 2.07484, 2.07474, 2.07745, 2.06777, 1.98305, 2.07731, 2.07049, 2.07458, 1.98287, 1.98093, 2.07199, 2.06358, 2.06284, 1.97737, 1.97782, 2.07031, 1.97452, 1.97534, 1.97539, 1.97469, 1.97213, 1.97304, 1.97082, 1.97183, 2.04572, 2.06192, 1.94807, 2.00072, 1.88577, 1.88518, 1.87885, 2.09837, 1.92781, 1.87559, 1.87539, 1.87461, 1.87169, 2.00402, 2.0931, 1.86839, 1.86893, 1.8659, 1.8655, 1.86591, 1.86787, 1.86656, 1.91507, 1.86495, 1.86851, 1.86583, 1.8661, 1.86799, 1.86639, 1.8674, 1.99217, 1.86857, 1.98967, 1.86816, 1.92263, 2.06544, 2.0756, 2.06725, 1.87198, 1.87012, 1.97822, 1.8003, 1.79705, 1.79525, 1.79236, 1.78982, 1.78766, 1.78894, 1.7864, 1.78291, 1.84671, 1.7801, 1.77915, 1.77777, 1.90361, 1.77798, 1.87409, 1.77504, 1.76964, 1.77335, 1.89138, 1.76943, 1.77041, 1.77173, 1.77154, 1.76865, 1.7691, 1.76829, 1.89939, 1.87869, 1.76553, 1.76885, 1.87175, 1.89826, 1.76902, 1.89369, 1.89317, 1.76801, 1.76527, 1.76601, 1.81806, 1.85435, 1.81727, 1.76848, 1.81777, 1.89566, 1.76671, 1.81726, 1.81669, 1.87951
2.01141, 1.96394, 1.91132, 1.91191, 1.91365, 2.02577, 2.02111, 2.02114, 2.01837, 1.90519, 1.90104, 1.90273, 1.95363, 1.90016, 1.89705, 1.8965, 1.98651, 1.89548, 1.89342, 1.89255, 1.89035, 2.01051, 1.88695, 1.88781, 1.88715, 1.88517, 2.00447, 2.00315, 1.88031, 1.87998, 1.92957, 1.87881, 1.99647, 1.99507, 1.9929, 1.87629, 1.87673, 1.87772, 1.87489, 1.87714, 1.98392, 1.87761, 1.87757, 1.9657, 1.96541, 2.01667, 1.94165, 2.01503, 2.01367, 2.12342, 2.00748, 2.00719, 2.12254, 2.04168, 2.0035, 1.92486, 1.9981, 2.03881, 1.99672, 2.04194, 1.99007, 1.99049, 1.98796, 1.98899, 2.03889, 1.98559, 1.90882, 1.98292, 1.98113, 1.9061, 1.97959, 1.90042, 1.98053, 2.1111, 1.90263, 1.9797, 1.98018, 2.0314, 1.98225, 1.98212, 1.98372, 2.03031, 2.10648, 1.98982, 1.91791, 1.91888, 1.99937, 1.92818, 2.12116, 2.02407, 2.09077, 2.08904, 2.06941, 2.08282, 2.09377, 2.08074, 2.07128, 1.99086, 1.9899, 1.99148, 1.9913, 1.98955, 2.06665, 2.08026, 1.98921, 1.99034, 2.09339, 2.0755, 2.07623, 2.08539, 2.07883, 1.98675, 2.06872, 2.08381, 2.07941, 1.98914, 1.98906, 1.98854, 1.9871, 2.08669, 2.0792, 2.07713, 2.06872, 2.06199, 2.06979, 2.07426, 2.05855, 2.08652, 1.98279, 1.98046, 2.05869, 2.08244, 1.9809, 2.07057, 2.07436, 2.06581, 2.06412, 2.07321, 2.07347, 1.97642, 2.06572, 2.06995, 2.05771, 2.05815, 1.97571, 1.97187, 1.97222, 1.97132, 1.97166, 2.04705, 2.06105, 1.9706, 1.94107, 1.8865, 1.88364, 2.00071, 1.88094, 1.87885, 1.87614, 1.92511, 1.9761, 1.87193, 1.87085, 1.8691, 1.86834, 1.8683, 1.86578, 1.86657, 1.86479, 1.86479, 1.85998, 1.99937, 1.86382, 1.86411, 1.86494, 1.86285, 1.86447, 1.86495, 1.8659, 2.08783, 1.86297, 1.86823, 1.86691, 1.86478, 1.91843, 1.98707, 1.86835, 1.8684, 1.86548, 1.86852, 1.86751, 1.89308, 1.79812, 1.79635, 1.79305, 1.79137, 1.7892, 1.7838, 1.78584, 1.84482, 1.8447, 1.77937, 1.77769, 1.77537, 1.90324, 1.76919, 1.8794, 1.77313, 1.77339, 1.89893, 1.76948, 1.82038, 1.76777, 1.76949, 1.76922, 1.76959, 1.89874, 1.76895, 1.76838, 1.89723, 1.89592, 1.76216, 1.89834, 1.76795, 1.7655, 1.76621, 1.7664, 1.76844, 1.76399, 1.8966, 1.76638, 1.88566, 1.76718, 1.76509, 1.76774, 1.81722, 1.81731, 1.87996, 1.76808, 1.76504
1.96629, 1.91564, 1.9158, 1.91279, 2.02805, 2.03039, 1.96033, 1.96165, 1.90928, 1.90792, 1.90584, 1.90457, 2.02399, 2.0189, 2.02035, 1.98498, 1.94537, 1.89314, 1.89546, 1.94194, 1.9977, 1.99763, 1.99924, 1.88893, 1.88459, 2.00695, 2.01018, 1.88364, 1.88312, 1.93112, 1.93162, 1.8803, 1.92892, 1.87801, 1.99325, 1.87696, 1.8773, 1.87709, 1.97667, 1.98591, 1.98738, 1.98133, 1.88006, 1.88226, 1.88133, 2.04819, 2.02082, 2.01709, 2.01103, 2.12189, 2.04461, 2.01153, 2.00753, 2.00637, 2.04469, 2.00426, 1.99995, 1.99931, 1.99696, 2.13632, 1.99406, 1.91741, 1.99117, 1.99071, 1.99038, 1.98607, 1.98529, 1.9098, 1.98254, 1.97953, 1.97982, 2.13172, 2.12208, 1.98075, 1.98009, 1.9786, 1.90517, 1.98045, 2.12493, 1.90734, 2.03182, 1.91004, 1.91419, 1.99126, 1.91731, 1.92137, 2.02903, 2.00231, 2.12167, 2.09111, 2.07974, 2.0832, 2.0913, 2.0723, 2.08957, 2.06975, 1.99375, 2.07265, 1.99293, 1.99139, 1.99185, 2.08597, 2.09655, 2.07229, 2.07277, 1.99026, 2.07354, 2.08484, 2.08656, 2.06591, 2.08075, 2.07991, 2.06957, 2.08274, 2.0807, 2.07743, 2.07949, 2.07307, 2.07185, 1.9866, 2.08345, 1.98693, 1.98622, 1.98785, 1.98715, 2.07956, 2.08039, 1.98539, 2.08315, 2.08557, 2.06549, 2.07166, 2.08282, 1.98356, 1.98205, 2.06925, 2.06674, 2.07082, 2.05391, 2.05496, 1.97318, 2.0684, 2.05196, 2.05127, 2.04675, 1.97293, 1.97187, 1.97293, 1.97171, 1.96999, 2.06586, 1.9696, 1.89147, 1.93807, 1.88538, 1.8833, 1.87917, 1.87851, 2.00051, 2.00321, 1.87161, 1.87208, 1.99648, 1.91784, 1.91748, 1.86675, 1.86561, 1.86542, 1.86443, 1.86204, 1.86117, 1.86469, 2.09163, 1.86327, 1.8633, 1.85891, 1.86242, 1.86516, 1.86466, 1.86769, 1.99303, 1.86444, 1.86542, 1.86589, 1.8679, 1.86453, 1.86781, 1.8663, 1.8668, 1.86549, 1.86736, 1.8923, 1.79438, 1.99609, 1.78985, 1.78825, 1.99743, 1.8855, 1.78383, 1.89764, 1.8984, 1.77895, 1.8932, 1.89948, 1.7746, 1.77158, 1.77376, 1.77188, 1.88989, 1.76934, 1.89621, 1.89112, 1.76665, 1.7679, 1.76738, 1.76964, 1.90011, 1.89779, 1.89785, 1.76576, 1.76562, 1.76658, 1.90008, 1.8999, 1.89952, 1.8976, 1.76488, 1.89729, 1.89662, 1.7652, 1.76501, 1.90074, 1.7657, 1.89843, 1.7677, 1.89762, 1.88046, 1.81704, 1.76595, 1.76769
2.0369, 2.03477, 1.91679, 1.91441, 1.91465, 1.91033, 1.91237, 1.96137, 1.91133, 2.01232, 2.0155, 1.90618, 1.90481, 1.90178, 1.90125, 1.89994, 2.02127, 1.89355, 2.10092, 1.89364, 1.98038, 1.89115, 1.94176, 1.94072, 1.88913, 1.93967, 1.93959, 1.94108, 1.99558, 2.00412, 1.87935, 1.88208, 1.93121, 1.9945, 1.87835, 1.87917, 1.88055, 1.97268, 1.87628, 1.87865, 1.87868, 2.00841, 1.88104, 1.88137, 1.88424, 2.05004, 2.01907, 1.94089, 2.1272, 2.12606, 2.01156, 2.12736, 2.00837, 2.01001, 2.13162, 2.04453, 1.92731, 1.92487, 1.99722, 1.9964, 2.13543, 1.91776, 2.12099, 2.04313, 1.98899, 1.98758, 1.98707, 1.90969, 1.98555, 2.12729, 2.12758, 1.905, 2.03789, 2.12204, 1.98363, 1.90607, 2.03421, 2.13428, 1.98479, 2.1144, 1.91068, 2.11537, 2.03241, 1.99158, 1.99437, 1.99916, 2.02781, 2.10853, 2.12055, 2.13436, 2.10112, 1.99816, 2.09299, 2.07397, 2.08321, 2.08272, 2.07362, 2.07047, 1.99309, 1.99348, 2.07224, 2.07529, 2.09732, 2.09361, 1.9899, 1.99045, 2.07718, 2.06874, 2.07909, 2.08057, 2.09661, 2.07436, 2.08253, 2.06993, 2.07871, 2.07502, 2.08428, 2.07627, 1.98832, 2.07408, 2.07663, 2.07385, 1.98772, 2.08796, 1.98824, 2.08139, 2.08458, 2.07952, 2.06815, 2.07532, 2.06491, 1.98446, 2.06689, 2.07929, 1.98058, 2.07785, 2.07373, 2.07609, 2.06892, 2.06659, 2.06638, 1.97677, 1.97413, 1.9738, 1.97431, 1.97269, 1.97201, 1.97167, 1.97197, 1.97165, 1.96966, 2.04575, 1.99628, 1.88735, 1.88421, 1.88167, 1.87702, 1.87604, 2.00071, 1.87425, 2.09385, 2.09066, 1.86858, 1.86832, 1.86605, 1.86635, 1.86272, 1.86265, 1.95324, 1.86159, 1.86361, 1.86281, 1.99749, 1.86114, 1.93517, 1.85914, 1.97132, 1.92734, 1.91433, 1.91382, 2.08479, 1.86127, 1.86506, 1.86431, 1.86316, 1.86514, 1.8629, 1.91699, 1.86595, 2.07291, 1.86547, 1.89915, 1.89271, 1.84397, 1.78991, 1.88796, 1.90042, 1.90088, 1.77924, 1.83035, 1.77929, 1.82879, 1.7762, 1.88589, 1.893, 1.76979, 1.77119, 1.77036, 1.77329, 1.77119, 1.76876, 1.76865, 1.76845, 1.76636, 1.76874, 1.76873, 1.76637, 1.90038, 1.76919, 1.94811, 1.89639, 1.76588, 1.90041, 1.90045, 1.89566, 1.76535, 1.76665, 1.76642, 1.76537, 1.7649, 1.76614, 1.76521, 1.89527, 1.76295, 1.76746, 1.8963, 1.76774, 1.76398, 1.76689, 1.76491
1.91763, 1.91787, 1.91314, 2.03427, 1.91619, 1.91378, 1.96125, 1.91316, 1.90926, 1.91039, 1.9101, 1.90582, 1.90502, 1.90436, 1.9033, 1.98656, 1.95383, 2.0968, 1.89642, 2.0166, 2.018, 2.01661, 1.89269, 1.94047, 1.94047, 1.94198, 1.99661, 1.93949, 1.94044, 2.08611, 2.08299, 1.88303, 1.93098, 1.99914, 1.87851, 1.88012, 1.87763, 1.87885, 2.0006, 1.87966, 1.88164, 1.88007, 2.05901, 2.06202, 1.93346, 1.93418, 1.94545, 2.05242, 2.0177, 2.04985, 1.94018, 2.04798, 2.00922, 2.00686, 2.00714, 2.0052, 2.00302, 2.04524, 1.99947, 2.13185, 2.13908, 2.04263, 1.91732, 1.91761, 1.91554, 1.91174, 1.98955, 1.98646, 1.98609, 1.9849, 1.98243, 2.04293, 2.03992, 1.98355, 2.03736, 1.98276, 1.98652, 1.98349, 1.98495, 1.98541, 2.03441, 1.98912, 1.9904, 1.91699, 2.03132, 1.99885, 2.00228, 2.02873, 2.10415, 2.00231, 2.08579, 2.09267, 2.09292, 2.09265, 2.07306, 2.10403, 1.99949, 1.99436, 1.9941, 2.07484, 2.07336, 2.07567, 2.08387, 2.06942, 1.99212, 2.07482, 1.99177, 2.08207, 2.08368, 2.08102, 2.08244, 2.07698, 2.07952, 2.07758, 1.98982, 2.07286, 2.07734, 2.08317, 1.98803, 2.07297, 2.08571, 1.98715, 2.07364, 2.0702, 2.06966, 2.07854, 1.98577, 1.98488, 2.0801, 2.08702, 2.0622, 2.07035, 2.06023, 1.98239, 2.06575, 2.06986, 2.0625, 2.06544, 2.07061, 2.05008, 2.06786, 2.04943, 2.07265, 2.0655, 1.97395, 1.97227, 1.97183, 1.97026, 2.04659, 2.04628, 2.05221, 2.05496, 1.8896, 2.09379, 1.88436, 1.93117, 1.92952, 1.93809, 1.876, 2.09389, 2.00059, 2.00055, 1.86802, 2.08971, 1.99939, 1.99948, 1.91496, 1.86484, 1.8627, 1.91125, 1.86178, 2.09128, 1.86274, 1.91859, 1.86254, 1.86182, 1.91355, 1.9939, 1.91347, 1.91314, 1.86292, 1.86216, 1.86435, 1.86432, 1.86295, 1.86838, 1.86471, 1.86432, 1.86432, 1.98317, 1.91415, 1.79755, 1.79569, 1.78972, 1.78908, 1.78762, 1.78465, 2.00688, 1.77711, 1.779, 1.87494, 1.87465, 1.77514, 1.77494, 1.77272, 1.76889, 1.77259, 1.89127, 1.77029, 1.89299, 1.89094, 1.86803, 1.76696, 1.76564, 1.76881, 1.89427, 1.76586, 1.81681, 1.8172, 1.81799, 1.81602, 1.76397, 1.82911, 1.76361, 1.76394, 1.88816, 1.76301, 1.89272, 1.89691, 1.89016, 1.76522, 1.82672, 1.88672, 1.81453, 1.76639, 1.86885, 1.89637, 1.89966, 1.89452, 1.87246
1.92033, 1.91847, 1.91953, 1.91519, 1.91545, 1.91124, 1.91405, 1.91163, 1.91038, 1.90728, 2.02757, 1.95985, 1.90649, 1.90584, 1.90338, 2.01638, 1.90104, 2.02402, 1.94613, 1.94587, 1.89389, 1.8937, 1.98658, 2.01639, 1.88771, 1.88813, 1.88874, 1.88834, 1.88647, 2.0079, 1.88549, 1.8849, 1.88507, 1.9994, 1.88101, 1.88209, 1.9917, 1.94485, 1.88167, 1.99643, 1.88098, 1.8822, 1.98569, 2.08597, 1.88582, 2.05315, 1.9482, 2.02217, 2.05253, 2.05367, 1.9387, 2.01422, 2.01103, 2.01345, 2.01029, 2.05209, 2.15228, 2.14278, 2.00117, 2.04863, 2.12757, 1.9207, 1.99601, 1.99267, 1.91625, 1.9134, 2.04762, 1.98978, 1.91031, 1.90971, 1.98561, 1.98472, 1.98494, 2.03945, 1.98265, 1.98447, 2.03728, 2.11446, 1.98423, 1.98641, 2.11059, 2.03451, 2.03559, 2.11693, 1.99763, 1.92666, 2.00332, 2.0034, 2.01162, 2.00329, 2.08053, 2.09918, 2.09709, 1.99975, 2.07378, 1.99396, 1.99549, 1.99584, 1.99633, 1.99604, 1.99595, 1.99378, 2.08553, 2.08476, 2.08963, 1.99279, 2.08274, 2.08333, 1.99296, 2.08981, 2.07675, 2.08057, 2.07987, 1.9903, 2.07698, 2.07616, 2.07335, 2.0898, 1.9897, 2.07996, 2.07203, 1.9897, 2.08142, 2.07242, 2.078, 2.0839, 1.98553, 2.0655, 2.0828, 1.98624, 1.98533, 2.07283, 2.07887, 2.07438, 1.98161, 1.98198, 2.07183, 1.97922, 2.08619, 2.05912, 2.0636, 2.06416, 2.0658, 1.97177, 1.97361, 1.9715, 1.9721, 1.97018, 1.96976, 1.9693, 2.04728, 2.05311, 1.88903, 1.88761, 2.00714, 1.88049, 1.93097, 1.92777, 1.92483, 1.87307, 1.87146, 1.86958, 1.86825, 1.86349, 1.86387, 1.96864, 1.96779, 1.95504, 1.86124, 1.86008, 1.86122, 1.85824, 1.86198, 2.00146, 1.99749, 1.86239, 1.86069, 1.86299, 1.99228, 1.86088, 1.86227, 1.96326, 1.86148, 1.99321, 1.86129, 1.861, 1.86184, 1.91134, 1.96939, 1.98, 1.86149, 1.79389, 1.89106, 1.79015, 1.78701, 1.78658, 1.89415, 1.89117, 1.77781, 1.77693, 1.8266, 1.82664, 1.82587, 1.82436, 1.77202, 1.88835, 1.76861, 1.76886, 1.88463, 1.76811, 1.76851, 1.89258, 1.88792, 1.88537, 1.88357, 1.7666, 1.81743, 1.81644, 1.76592, 1.76613, 1.76505, 1.76305, 1.89977, 1.76354, 1.76133, 1.89542, 1.76292, 1.76384, 1.76251, 1.76857, 1.76531, 1.89034, 1.81779, 1.81613, 1.76474, 1.76523, 1.76455, 1.86563, 1.89292, 1.89074
1.92024, 1.9198, 1.9172, 1.91774, 1.91723, 1.91642, 2.19932, 1.91335, 1.91512, 1.90907, 1.91195, 1.90959, 2.0325, 1.90663, 2.01286, 1.90354, 1.90255, 1.89804, 2.0256, 2.02549, 1.8962, 1.8958, 1.89382, 1.98873, 1.8931, 1.89052, 1.88991, 1.89122, 1.96632, 1.88565, 1.88914, 1.88385, 2.00319, 1.88344, 2.07998, 1.88428, 2.00138, 1.93682, 1.93747, 1.88218, 1.88264, 1.88279, 1.88413, 1.88561, 1.88678, 2.02442, 2.13143, 1.94853, 1.94773, 1.94448, 2.05106, 1.93799, 2.01159, 2.01081, 1.93276, 2.0503, 1.93095, 2.00288, 1.99974, 2.04826, 2.13533, 2.05122, 1.91936, 1.91998, 1.91759, 1.9921, 2.04574, 1.91385, 1.98765, 1.91053, 1.90984, 1.98407, 1.98578, 2.04131, 1.90795, 1.90934, 1.90963, 1.90983, 2.11851, 1.98908, 2.12544, 1.91516, 1.99612, 1.9186, 1.99624, 2.0316, 2.00295, 2.00885, 2.03116, 2.12519, 2.09167, 2.09335, 2.09646, 2.09959, 2.09908, 2.09018, 1.99623, 1.99717, 1.99539, 1.99587, 1.99637, 1.99469, 1.9944, 2.08894, 1.99386, 2.09351, 2.08588, 2.08563, 2.08626, 2.07695, 2.08781, 2.09315, 2.07572, 2.07625, 2.09296, 2.07773, 2.08009, 2.07291, 1.98936, 2.08543, 2.08348, 1.9895, 2.0988, 2.07056, 1.9883, 2.07972, 2.08969, 2.07086, 1.98548, 2.07637, 2.08324, 2.07257, 2.07685, 1.98201, 2.07326, 1.98104, 1.98018, 2.07122, 1.97653, 2.06372, 2.06247, 2.05316, 2.0585, 2.06553, 1.97236, 1.97128, 1.96926, 1.96911, 1.96873, 1.96658, 1.96962, 2.07277, 1.94419, 1.94118, 1.88386, 1.8796, 1.87916, 1.93379, 1.93344, 1.99902, 1.99876, 1.91917, 1.9168, 1.86589, 1.86533, 1.86188, 1.86074, 1.86013, 2.09011, 1.86042, 1.85875, 1.85904, 1.85953, 1.85921, 1.85931, 1.85957, 1.85955, 1.9976, 1.99579, 1.85961, 1.86142, 1.86111, 1.85793, 1.97624, 1.95507, 1.91756, 1.94558, 1.86191, 1.86162, 1.86083, 1.95573, 1.79268, 1.78868, 1.78671, 1.78559, 1.78466, 1.78111, 1.77978, 1.9477, 1.87844, 1.77473, 1.82422, 1.99756, 1.77134, 1.88677, 1.77125, 1.88988, 1.88492, 1.76693, 1.76644, 1.76366, 1.76866, 1.76705, 2.01191, 1.76634, 1.8889, 1.81644, 1.87656, 1.76515, 1.81581, 1.76168, 1.76515, 1.76346, 1.7627, 1.76244, 1.89336, 1.76051, 1.89505, 1.76224, 1.76105, 1.81752, 1.76459, 1.76191, 1.8934, 1.76366, 1.76184, 1.76602, 1.76301, 1.88693, 1.76581
1.9212, 1.92005, 2.05138, 1.91847, 2.17743, 1.96842, 1.91664, 2.03745, 1.91348, 1.96238, 2.01121, 2.03182, 1.91068, 2.00289, 2.0043, 1.90675, 2.03264, 1.90122, 1.89954, 2.10037, 1.99327, 1.89433, 2.01384, 1.89161, 1.89221, 1.89055, 1.8904, 1.8908, 1.939, 1.88965, 2.01308, 1.93722, 1.88747, 1.88344, 1.99051, 2.00395, 1.93709, 1.88299, 1.93918, 1.88296, 1.88577, 1.88531, 1.98421, 2.0565, 1.88693, 2.02382, 2.02404, 2.0232, 2.01874, 2.01968, 2.05241, 1.9402, 1.93925, 2.0127, 2.135, 2.05264, 2.00773, 2.00419, 2.00161, 2.0496, 1.92409, 1.99776, 2.00159, 1.99302, 1.99268, 1.91675, 1.98777, 1.98969, 1.9128, 2.04793, 1.98752, 2.04439, 1.98649, 1.98933, 1.98976, 1.90972, 1.98581, 1.91095, 2.03965, 1.98912, 2.03696, 1.99251, 1.99393, 1.9972, 2.00018, 1.92761, 2.0326, 1.93412, 2.03152, 2.11858, 2.10107, 2.10027, 2.11161, 2.07634, 2.09462, 2.07651, 2.07557, 2.07605, 1.99822, 1.9972, 1.99607, 1.99617, 2.07913, 2.08715, 1.99452, 1.99406, 2.07422, 2.08486, 1.99383, 1.99286, 2.09019, 1.99322, 1.99258, 1.99257, 1.99203, 2.0852, 1.99193, 2.06799, 2.07504, 2.07993, 2.08684, 2.06424, 2.06523, 2.07267, 2.07882, 2.07346, 2.08332, 2.07941, 1.98532, 2.071, 2.07909, 2.06993, 2.06913, 1.98219, 1.98136, 2.07781, 2.07618, 2.06967, 1.97762, 1.97553, 2.08368, 2.05601, 2.05941, 1.97275, 1.97291, 1.96891, 1.97047, 2.04107, 1.96753, 1.96873, 1.96876, 1.96901, 2.00061, 1.88574, 1.88429, 1.88219, 1.87937, 1.87769, 1.93172, 1.93155, 1.86969, 1.97102, 1.9692, 1.86583, 1.86574, 1.86299, 2.00201, 1.99813, 1.86109, 1.86081, 1.9091, 1.86016, 1.90881, 1.90875, 1.8592, 1.85818, 1.96505, 1.85843, 1.96137, 1.86091, 1.86082, 1.90887, 1.8593, 2.08399, 1.86073, 1.98375, 1.97966, 1.85878, 1.98218, 1.95535, 1.95526, 1.79223, 2.01564, 1.83804, 1.78616, 1.77989, 1.78117, 1.77892, 1.89282, 1.77773, 1.77387, 1.7715, 1.77324, 1.76973, 1.76861, 1.87647, 1.88997, 1.81716, 1.76624, 1.76471, 1.76661, 1.88034, 1.76807, 1.76297, 1.76541, 1.89309, 1.76554, 1.8552, 1.81438, 1.81579, 1.89851, 1.89625, 1.89564, 1.86214, 1.76367, 1.76162, 1.76142, 1.76231, 1.88557, 1.76361, 1.85171, 1.76284, 1.86197, 1.89201, 1.76278, 1.8685, 1.8929, 1.76542, 1.89247, 1.76484
1.97253, 1.92361, 1.92449, 1.92031, 1.96891, 1.98356, 1.9172, 2.02784, 1.9143, 1.91494, 1.91096, 1.91376, 1.91279, 1.95606, 1.90762, 1.9099, 2.11643, 1.90185, 1.90191, 2.02752, 1.89401, 2.02569, 1.89488, 1.94467, 1.89253, 2.0933, 1.89304, 1.94215, 1.88894, 1.88993, 1.93846, 2.00384, 1.8855, 1.88716, 1.88738, 1.8856, 1.93421, 1.88564, 1.93439, 1.88543, 1.8842, 1.88523, 2.06685, 2.06608, 1.88927, 2.02726, 1.95104, 1.94873, 2.02125, 1.94442, 2.056, 2.01739, 2.1345, 2.13462, 2.01228, 1.93495, 2.00786, 2.0064, 2.00689, 2.00203, 2.00044, 1.99984, 1.99834, 1.99668, 2.13871, 1.9947, 1.91768, 1.98919, 1.91339, 1.91362, 1.91193, 1.91066, 1.91198, 1.98581, 1.9887, 1.98829, 1.98685, 1.98382, 2.04078, 1.91375, 1.9898, 1.9905, 2.03706, 1.99356, 1.99958, 2.00135, 2.0039, 2.01011, 2.03057, 2.02813, 2.00537, 2.09758, 2.00296, 2.09856, 2.10063, 2.00331, 2.07532, 1.99839, 1.99594, 1.99554, 1.99825, 2.08321, 2.07283, 2.07917, 2.10627, 2.08415, 2.08733, 2.08959, 2.08688, 2.08811, 2.09383, 2.07559, 1.9927, 2.07881, 2.084, 2.08713, 2.09345, 2.08101, 2.08441, 1.98937, 1.98947, 2.08506, 2.08644, 2.0715, 2.08447, 2.08402, 2.06489, 2.07945, 1.98618, 2.07658, 1.98557, 2.07074, 2.05891, 2.06575, 2.05533, 1.98049, 2.06951, 2.06839, 2.07975, 2.06258, 1.97473, 2.07009, 2.04861, 2.05846, 1.97124, 1.97024, 1.96963, 1.96994, 1.96708, 2.06962, 2.06262, 2.04455, 1.94129, 1.88589, 1.88294, 1.88005, 1.87841, 2.00233, 1.87285, 1.87222, 2.00279, 1.86958, 1.86676, 1.86488, 1.86584, 1.86513, 1.86454, 1.85932, 1.8597, 1.91073, 1.85803, 1.85922, 1.85942, 2.07412, 1.85948, 1.85947, 1.95723, 1.85872, 1.857, 1.85929, 1.85731, 2.08451, 1.98822, 2.0833, 1.85606, 1.85881, 1.85983, 1.85874, 1.85791, 1.85507, 1.96554, 1.79161, 1.88204, 1.78661, 1.86255, 1.77972, 1.9003, 1.7789, 1.77618, 1.82468, 1.88555, 1.88286, 1.76889, 1.88911, 1.89754, 1.896, 1.7661, 1.76539, 1.81623, 1.88703, 1.76564, 1.88034, 1.76462, 1.76543, 1.7632, 1.76461, 1.76265, 1.76376, 1.76163, 1.76382, 1.89399, 1.76127, 1.87131, 1.85964, 1.76199, 1.81208, 1.76179, 1.75986, 1.76409, 1.76338, 1.76274, 1.89564, 1.89331, 1.7618, 1.76098, 1.88644, 1.76152, 1.76361, 1.88402, 1.88644
1.99556, 1.97631, 1.92268, 2.02814, 1.92314, 1.92071, 2.02345, 1.91627, 1.91429, 1.91416, 1.91707, 1.91302, 2.03818, 1.90774, 1.96129, 1.90598, 1.90656, 1.90607, 1.90193, 2.02846, 1.89949, 2.11137, 2.0217, 1.94665, 2.10171, 2.01769, 1.89545, 1.89108, 1.89263, 1.89138, 1.88925, 2.08981, 1.88919, 1.88883, 1.88804, 1.88756, 1.88772, 1.93711, 1.88567, 2.07559, 2.07242, 1.99354, 1.8898, 2.06657, 1.89022, 2.14246, 2.02828, 1.9485, 2.13927, 2.02192, 2.05641, 2.01741, 2.01597, 2.13868, 2.01382, 2.01206, 2.01109, 2.05335, 2.00434, 2.00376, 2.13025, 2.00009, 2.05128, 1.92161, 1.99529, 1.9189, 1.91856, 2.04992, 2.14144, 1.99001, 2.04966, 1.99306, 1.9898, 1.98952, 1.91264, 1.98703, 2.04477, 1.98804, 1.99286, 1.99435, 1.99282, 1.99376, 1.99413, 1.99703, 1.92358, 2.12474, 2.11796, 2.00996, 2.03251, 2.03018, 2.09368, 2.00395, 2.09026, 2.09484, 2.09693, 2.00464, 2.00069, 1.9982, 1.99775, 1.99852, 1.99661, 1.99672, 2.07225, 2.0803, 1.99639, 1.99582, 1.99702, 2.09196, 2.0866, 1.99621, 1.99497, 1.99566, 1.994, 2.08084, 2.08766, 1.99304, 2.08006, 2.08361, 2.10044, 2.07307, 2.07458, 2.06787, 2.06658, 2.07038, 2.08182, 2.07468, 1.98675, 2.06279, 1.98543, 1.98425, 2.08372, 2.06811, 2.06647, 2.06618, 2.06906, 1.98086, 2.07682, 2.06557, 2.05999, 2.07035, 2.06939, 2.06267, 1.97215, 2.05539, 1.97134, 1.9704, 1.96692, 1.96679, 1.96823, 1.96764, 2.04352, 2.05994, 1.88885, 1.88595, 1.88254, 1.88231, 1.87938, 1.8762, 1.92458, 1.92503, 1.87138, 1.86803, 1.86815, 1.86514, 2.1043, 2.00159, 1.86186, 1.86116, 1.86064, 1.86099, 1.98203, 1.8588, 1.85896, 1.85797, 1.85856, 1.85836, 2.08739, 2.08328, 1.85686, 1.95125, 2.0627, 1.85698, 1.98936, 1.98667, 1.85809, 1.85764, 1.8602, 1.85659, 2.08109, 2.05726, 1.84216, 1.99396, 1.78586, 1.78515, 1.88664, 1.89729, 1.88644, 1.77391, 1.88192, 1.77229, 1.8247, 1.77159, 1.88317, 1.89623, 1.76818, 1.7669, 1.88979, 1.76578, 1.76571, 1.76463, 1.76272, 1.76607, 1.76249, 1.76752, 1.76486, 1.76405, 1.76472, 1.76386, 1.76038, 1.89244, 1.89353, 1.76256, 1.76183, 1.76062, 1.75915, 1.89409, 1.76105, 1.76149, 1.76113, 1.89131, 1.89331, 1.7615, 1.76217, 1.76163, 1.7595, 1.88947, 1.76491, 1.88933, 1.76385, 1.76496
2.02786, 1.92645, 2.04458, 1.92357, 1.9243, 1.92173, 1.92067, 1.91752, 1.91865, 1.91736, 2.03748, 1.96689, 1.96179, 1.9111, 1.96105, 1.95796, 1.90336, 1.95378, 1.95502, 1.95169, 1.95173, 1.99721, 1.94804, 1.94685, 1.94578, 1.94514, 1.94457, 1.94418, 1.99999, 1.9444, 1.89076, 1.88822, 2.00982, 1.88894, 2.00854, 1.9839, 2.00769, 1.8898, 1.88583, 1.8865, 1.88682, 2.07213, 1.99459, 2.17349, 1.98948, 2.05861, 2.02807, 2.05908, 2.058, 2.02541, 2.02247, 2.0187, 2.01805, 2.01845, 2.01444, 2.01223, 2.00836, 2.00685, 1.9299, 2.00417, 2.00029, 2.05191, 2.05333, 1.99814, 2.05205, 2.05136, 1.99389, 1.99329, 1.9907, 2.12495, 2.04843, 2.0481, 2.12209, 1.98377, 1.98756, 1.98904, 2.04469, 1.91517, 1.99013, 1.99082, 1.98956, 1.99559, 2.04103, 2.13099, 2.12869, 2.00626, 2.00747, 2.12099, 1.94045, 2.04253, 2.09103, 2.08689, 2.09444, 2.10344, 2.09219, 2.00116, 2.00129, 1.99957, 2.00012, 1.99911, 1.99968, 1.99795, 1.99845, 2.08048, 1.99606, 1.99486, 1.9964, 2.08547, 1.99704, 1.99722, 1.99611, 2.09624, 1.9951, 2.07628, 2.07741, 1.99415, 2.08294, 1.99119, 2.07916, 2.07655, 1.98792, 1.98948, 2.0654, 2.08105, 2.07661, 2.08078, 2.07754, 2.06283, 2.07861, 2.07878, 2.07628, 2.07937, 2.06871, 2.07218, 2.06478, 2.08967, 2.08073, 2.07049, 2.05342, 2.0724, 2.06619, 2.05321, 2.06556, 1.971, 1.97063, 1.96978, 1.96954, 1.96922, 1.96867, 2.04839, 2.0489, 2.06192, 1.99785, 1.99774, 1.88572, 2.09078, 1.87895, 1.87865, 1.92651, 1.8734, 1.98573, 1.9205, 1.91887, 1.91731, 1.86579, 1.86488, 1.99275, 1.86165, 1.9135, 1.91114, 1.86187, 1.91959, 1.8593, 1.85842, 1.98944, 1.85863, 1.85826, 1.85798, 1.85594, 1.95428, 1.95245, 1.85763, 1.85485, 1.90684, 1.85825, 1.85713, 1.98859, 2.07705, 1.8545, 1.8579, 1.79153, 1.8775, 1.87623, 1.78439, 1.78123, 1.94289, 1.77612, 1.8255, 1.77111, 1.82815, 1.76852, 1.89441, 1.89245, 1.89067, 1.89355, 1.76327, 1.76576, 1.76287, 1.7651, 1.88843, 1.88768, 1.76491, 1.88004, 1.76425, 1.76278, 1.88867, 1.88943, 1.76247, 1.89074, 1.85875, 1.75861, 1.75994, 1.7602, 1.75964, 1.76126, 1.75813, 1.76171, 1.76164, 1.80946, 1.76045, 1.75783, 1.7609, 1.76039, 1.75989, 1.76194, 1.88645, 1.76014, 1.87472, 2.05571, 1.76354
1.92744, 1.92737, 2.03106, 1.92696, 2.05249, 1.92452, 1.92019, 1.92014, 1.91937, 1.96876, 1.96592, 1.96551, 1.91462, 2.03612, 1.91013, 1.91049, 2.03231, 1.90615, 1.9051, 2.00081, 1.90008, 1.90076, 1.89918, 1.8993, 1.89485, 1.8939, 1.89576, 1.89434, 2.01722, 1.99641, 1.99733, 1.88918, 1.88964, 1.94081, 1.98117, 1.888, 1.88685, 1.88761, 1.89058, 1.8898, 1.88865, 1.89087, 1.89236, 1.98999, 1.89268, 2.13956, 2.02765, 2.03062, 1.95003, 2.02189, 2.02344, 1.9462, 2.02069, 2.02047, 2.13258, 2.01369, 2.05571, 2.00862, 2.00776, 2.0071, 2.00357, 2.00483, 2.12946, 1.92403, 1.99762, 2.05422, 1.9208, 1.99332, 2.05009, 2.04952, 1.99044, 1.99007, 1.9909, 1.98937, 2.13914, 1.91359, 1.98933, 2.13881, 1.99072, 1.99122, 1.9175, 1.99652, 2.13117, 1.92647, 2.00171, 2.00392, 2.00744, 2.12084, 2.11154, 2.03728, 2.09858, 2.0977, 2.10082, 2.10327, 2.10769, 2.08138, 2.00061, 2.00206, 2.00017, 1.99452, 2.00229, 2.00015, 2.07527, 2.09257, 2.10013, 2.09056, 1.99729, 1.9969, 2.0917, 2.09793, 1.99578, 1.9964, 1.99716, 2.0722, 2.06976, 2.07859, 1.99199, 2.09402, 2.08316, 2.07845, 1.98912, 2.09047, 2.07653, 2.0791, 2.08575, 2.07535, 1.9832, 1.98383, 2.07753, 2.06708, 2.10286, 1.98278, 2.07059, 1.9824, 1.97995, 1.97876, 2.07246, 1.97597, 2.07332, 2.04828, 2.08305, 2.04904, 2.06131, 1.96946, 2.0434, 1.96981, 1.97043, 1.96886, 2.04468, 1.96572, 2.06215, 1.96705, 1.88987, 1.93811, 1.93508, 1.99714, 1.88227, 1.92774, 1.92679, 1.92398, 1.92308, 1.92014, 1.86856, 1.86754, 1.86702, 2.09711, 1.86445, 1.86239, 1.86209, 1.86161, 1.8609, 1.85964, 1.85911, 2.08026, 2.08807, 1.85645, 1.99259, 1.99063, 1.85491, 1.85621, 1.85607, 1.85477, 1.91872, 1.85563, 1.90544, 1.85488, 1.85663, 1.8559, 1.85592, 1.85518, 1.83873, 1.78665, 1.78332, 1.83181, 1.77925, 1.8907, 1.77538, 1.89228, 1.89125, 1.7675, 1.86121, 1.76646, 1.7671, 1.89243, 1.7632, 1.89006, 1.76099, 1.76368, 1.76251, 1.81168, 1.76195, 1.76321, 1.87647, 1.76098, 1.89305, 1.75992, 1.76084, 1.76115, 1.76237, 1.87994, 1.76095, 1.76096, 1.75982, 1.76056, 1.75859, 1.75889, 1.89308, 1.75917, 1.75816, 1.87233, 1.75864, 1.76041, 1.7594, 1.90013, 1.76104, 1.87624, 1.75902, 1.76135, 1.76044, 1.75982
2.02887, 1.92752, 2.02888, 2.03058, 1.92508, 1.92476, 1.924, 1.92264, 1.91962, 1.91847, 1.91672, 2.02256, 1.91434, 1.91394, 1.91457, 1.91013, 1.90813, 1.90705, 2.02816, 2.03105, 1.99899, 2.03072, 1.89905, 2.01227, 1.89523, 1.89607, 2.02125, 1.89335, 1.89447, 1.89435, 2.01465, 2.0102, 1.94199, 1.89305, 1.89071, 1.89204, 1.89111, 1.89103, 1.89099, 1.89035, 1.89168, 1.89169, 2.02056, 1.94151, 1.89436, 2.06536, 2.03136, 1.95214, 2.02894, 2.02435, 2.02197, 2.02285, 2.02081, 2.02053, 2.05794, 1.93847, 1.938, 1.935, 2.00893, 2.00688, 2.00744, 2.00317, 2.05609, 2.00124, 2.14334, 1.99703, 1.9993, 1.99578, 1.91752, 1.99242, 1.99097, 1.91409, 1.98923, 1.98956, 2.1326, 1.9155, 1.99277, 1.99343, 1.91634, 1.99154, 1.99291, 1.92018, 1.99719, 1.99949, 2.0391, 2.00377, 2.00712, 2.01104, 2.11674, 2.10913, 2.08462, 2.08234, 2.00664, 2.10146, 2.07964, 2.07895, 2.08323, 2.07956, 2.00132, 2.00047, 2.0025, 2.09711, 2.09811, 2.09398, 2.08692, 2.0888, 2.11208, 2.08211, 2.09039, 1.99585, 2.09306, 2.09148, 2.0879, 1.99414, 2.08922, 2.08035, 1.99308, 1.99272, 2.08014, 2.0864, 2.06973, 2.07714, 2.07327, 2.07783, 2.08132, 1.98642, 2.0756, 1.98586, 2.06941, 1.98358, 2.06639, 2.07305, 2.07012, 2.07641, 1.97821, 2.05988, 2.072, 2.07033, 2.06721, 1.97517, 2.05962, 2.06857, 2.06881, 2.04636, 2.04747, 2.03886, 1.96812, 1.96617, 1.96844, 1.96689, 2.04293, 1.96621, 1.89086, 2.07453, 1.8841, 2.0864, 2.00337, 1.87809, 1.99691, 1.9961, 1.87036, 1.8718, 1.99702, 1.86767, 2.09364, 2.08339, 1.86443, 1.86328, 1.86165, 1.99111, 1.85876, 1.85958, 1.90851, 1.85857, 1.85537, 1.85421, 1.85561, 1.85534, 1.8548, 1.95313, 1.85498, 1.90468, 1.85552, 1.85349, 1.85222, 1.85098, 1.85352, 1.98041, 1.85255, 1.85448, 1.78724, 1.87219, 1.90203, 1.77739, 1.82818, 1.77622, 1.77341, 1.88877, 1.88926, 1.7686, 1.767, 1.76531, 1.76499, 1.7645, 1.76257, 1.7617, 1.88479, 1.7617, 1.76068, 1.76107, 1.89653, 1.75772, 1.76191, 1.81067, 1.76025, 1.75868, 1.76095, 1.75852, 1.76157, 1.75783, 1.87189, 1.75948, 1.75902, 1.89274, 1.76006, 1.85316, 1.75913, 1.7589, 1.89229, 1.8104, 1.75961, 1.81154, 1.75603, 1.7592, 1.88522, 1.88025, 1.88409, 1.87853, 1.75837, 1.75845
2.04862, 1.93045, 1.97724, 1.98269, 1.9866, 2.04777, 1.92543, 2.22248, 2.12555, 1.92032, 2.02779, 1.96684, 1.96447, 1.91298, 1.96284, 2.02706, 2.03164, 1.90879, 1.90652, 2.1146, 2.03025, 2.01526, 2.01663, 1.94992, 2.01351, 1.94733, 1.89787, 1.9482, 1.896, 1.8939, 1.89227, 1.89288, 2.08656, 2.08925, 2.01022, 1.88994, 1.89102, 1.88888, 1.89089, 1.8924, 1.89181, 1.99351, 1.99305, 1.97519, 1.89224, 1.95943, 2.06531, 2.06904, 2.06479, 2.02563, 1.94856, 2.06224, 2.02094, 2.01779, 2.14811, 2.01653, 2.0113, 2.01297, 2.00842, 2.15894, 1.9318, 2.00461, 1.92699, 2.00196, 1.99815, 1.99978, 1.99428, 1.92073, 1.99021, 1.91736, 2.13046, 1.99072, 1.91464, 1.9136, 1.91193, 1.91448, 1.99058, 2.13122, 1.99066, 2.12186, 1.99248, 1.99572, 1.99936, 2.00252, 2.04132, 2.00669, 2.00973, 2.03914, 2.13537, 2.10436, 2.00982, 2.10133, 2.10076, 2.10013, 2.098, 2.00387, 2.07894, 2.07778, 2.00151, 2.00184, 2.00021, 2.08195, 2.08793, 2.08468, 2.08439, 2.08027, 2.09667, 2.0892, 1.99902, 2.09594, 1.99675, 2.06984, 2.0709, 2.08952, 2.08108, 2.07213, 2.07064, 1.99304, 2.07628, 2.08273, 2.07445, 2.08944, 1.98707, 2.07858, 2.07167, 2.07967, 2.07903, 1.98613, 2.0681, 2.0723, 2.06927, 2.07709, 2.07536, 1.98074, 2.06539, 2.07942, 1.97705, 2.08717, 2.05919, 2.06161, 1.9701, 2.06952, 2.04692, 2.04838, 2.04565, 2.04838, 2.04812, 1.96579, 1.96829, 1.96619, 2.04866, 2.04505, 1.94293, 1.98153, 1.88597, 1.88377, 1.88164, 1.99943, 1.87837, 1.87464, 1.87524, 1.8721, 1.87125, 1.91959, 1.91828, 2.07664, 2.07689, 2.08359, 1.86261, 1.85968, 1.86105, 1.86069, 1.85862, 1.85821, 1.96323, 1.85458, 1.85455, 1.85594, 1.85515, 1.8546, 1.85084, 1.85363, 1.94638, 1.99037, 1.85199, 1.85204, 1.85477, 1.85201, 1.84963, 1.85407, 1.7837, 1.93804, 1.88894, 1.88914, 1.82547, 1.77292, 1.88951, 1.76796, 1.76873, 1.89346, 1.76509, 1.88707, 1.76291, 1.76141, 1.76014, 1.81018, 1.88444, 1.75864, 1.88873, 1.75986, 1.99976, 1.75768, 1.75737, 1.75685, 1.75442, 1.88279, 1.81975, 1.81786, 1.8751, 1.80764, 1.87307, 1.75823, 1.75484, 1.86208, 1.94011, 1.75828, 1.80869, 1.80746, 1.75506, 1.87254, 1.75701, 1.75766, 1.75564, 1.75719, 1.88885, 1.75544, 1.88745, 1.88321, 1.75662, 1.75475
1.98947, 1.9301, 1.92968, 2.0474, 1.92743, 2.04204, 2.04511, 1.92363, 1.91949, 1.96924, 2.02786, 2.04374, 1.9206, 1.91545, 1.99429, 1.91342, 1.91221, 1.91353, 1.90957, 1.9083, 1.90499, 1.95459, 1.9037, 1.90018, 1.95032, 1.94888, 1.89758, 1.89657, 1.89553, 1.89429, 2.09327, 2.11047, 1.89505, 1.89401, 1.89305, 1.89249, 1.89213, 1.89384, 1.9862, 2.00141, 1.98105, 1.98346, 1.89501, 1.89359, 1.89668, 1.9589, 2.06748, 1.95412, 2.03226, 2.0638, 2.02511, 2.02442, 2.02398, 2.0215, 2.02129, 2.01822, 2.15923, 1.93551, 2.05988, 2.15587, 2.13512, 2.00386, 2.13821, 2.14102, 2.14947, 1.99928, 2.13302, 1.99631, 2.13293, 1.99631, 1.91757, 1.99316, 1.99409, 1.98966, 2.04839, 1.98964, 1.99099, 1.91755, 2.04569, 1.99385, 1.99325, 2.12615, 2.14496, 2.14318, 1.92778, 2.00751, 2.00825, 2.00841, 2.01771, 2.14538, 2.10702, 2.08405, 2.11477, 2.00555, 2.00526, 2.10102, 2.00324, 2.00372, 2.00215, 2.00214, 2.00004, 2.09055, 2.07788, 2.07934, 2.00078, 2.10814, 1.99909, 2.0725, 2.06961, 1.99886, 2.08362, 2.09155, 1.99685, 1.99676, 2.08132, 2.08107, 2.07627, 2.07826, 2.08743, 2.0923, 2.07954, 2.07975, 2.08277, 1.98904, 2.07946, 2.07693, 2.07193, 2.0698, 2.07313, 1.98398, 2.06979, 2.07373, 2.06622, 1.97988, 2.06629, 2.07666, 2.06563, 2.06466, 2.06564, 2.06649, 2.06843, 2.04836, 2.04821, 1.97086, 1.96989, 1.96824, 1.96719, 1.96699, 1.96566, 2.06091, 1.96568, 1.96552, 1.89564, 1.89049, 1.88687, 1.99436, 1.99014, 1.9942, 1.87705, 1.94177, 1.87547, 1.92141, 1.98064, 2.05619, 1.8668, 1.91537, 1.91456, 1.86051, 1.95641, 1.86071, 1.85935, 1.85947, 1.857, 1.85793, 1.85727, 2.07603, 1.85488, 1.85435, 1.85486, 1.8545, 1.8524, 1.85492, 1.94539, 1.95195, 1.85198, 1.98453, 1.98273, 1.85255, 1.85275, 1.85147, 1.93694, 1.78133, 1.77867, 1.94101, 2.0126, 1.76926, 1.76891, 1.76958, 1.76722, 2.00525, 1.88525, 1.76254, 1.76176, 1.75875, 1.89137, 1.88841, 1.88681, 1.76012, 1.75926, 1.75716, 1.75906, 1.75599, 1.75444, 1.75345, 1.75753, 1.89093, 1.75806, 1.75454, 1.75816, 1.75482, 1.80657, 1.80686, 1.87633, 1.86764, 1.88614, 1.75718, 1.75603, 1.75612, 1.75624, 1.8886, 1.88987, 1.75614, 1.887, 1.7564, 1.89202, 1.89426, 1.75394, 1.75496, 1.75758, 1.75559
