1.78612, 1.78879, 1.78523, 1.78534, 1.78595, 1.78552, 1.78393, 1.78562, 2.05241, 2.05248, 1.77857, 1.78309, 1.77867, 1.78181, 1.78071, 1.77879, 1.83068, 1.86336, 1.77943, 1.78185, 1.77786, 1.77923, 1.7781, 1.77865, 1.77774, 1.77852, 1.77801, 1.77938, 1.77601, 1.77597, 1.77563, 1.87724, 1.82539, 1.77461, 1.77123, 1.77234, 1.87943, 1.76862, 1.76647, 1.76347, 1.76767, 1.76456, 2.04634, 1.76725, 1.76545, 1.76399, 2.07643, 2.06005, 1.76815, 1.76812, 1.81804, 1.76839, 2.00359, 1.85303, 1.85124, 1.84899, 1.92566, 2.00644, 1.85093, 1.92717, 1.92736, 1.85152, 1.92818, 1.84865, 1.8508, 1.92514, 1.92357, 1.92829, 1.92862, 1.92941, 1.93161, 2.00413, 1.9318, 1.92073, 1.93251, 1.84493, 1.92077, 1.92125, 1.92061, 1.84415, 1.91842, 1.9219, 1.84365, 1.91788, 1.93819, 1.93728, 1.94086, 1.93896, 2.02561, 1.92333, 1.92111, 1.9244, 1.92855, 2.01973, 1.9419, 1.93428, 1.93469, 1.94488, 2.02143, 2.0098, 2.02841, 1.92019, 2.01311, 1.99762, 2.01065, 2.00033, 2.00135, 1.92185, 1.9222, 1.92232, 1.92025, 2.00005, 2.00342, 2.00529, 2.00685, 2.00252, 1.92389, 2.00365, 1.92434, 2.00306, 2.00441, 2.02143, 2.01836, 2.00759, 2.02676, 2.00773, 2.03231, 2.02773, 2.02915, 2.01172, 2.03017, 1.93611, 2.03127, 2.01395, 2.02081, 2.03448, 2.02137, 2.02754, 2.03834, 2.01493, 2.02563, 2.0242, 1.94261, 1.94405, 2.03815, 1.94467, 1.94458, 2.06259, 2.0523, 2.0181, 2.04598, 2.0321, 2.04214, 2.02671, 1.94434, 2.02837, 2.02587, 2.0319, 2.0243, 2.03165, 2.02618, 2.0234, 2.02331, 2.02473, 2.02403, 1.94791, 2.02489, 2.02373, 2.02567, 2.02573, 2.0404, 1.95251, 2.06518, 1.87887, 1.87836, 1.87637, 1.87657, 1.87903, 1.88014, 2.06897, 1.87816, 1.88127, 2.07767, 1.8797, 2.07709, 1.88532, 2.06809, 1.8879, 1.88635, 1.88963, 1.88926, 1.88939, 1.94112, 1.88917, 1.8899, 2.08277, 1.89413, 1.8941, 1.89161, 1.98249, 1.94064, 1.89107, 1.89159, 1.94106, 1.93948, 1.88924, 2.09365, 1.88787, 1.88465, 1.88709, 1.8859, 2.04978, 2.04925, 1.95462, 1.93446, 1.88359, 1.88888, 1.88809, 1.88553, 1.81678, 1.81636, 1.92785, 1.81214, 1.9181, 1.80728, 1.80671, 1.85695, 1.92417, 1.927, 1.92466, 1.80001, 1.79969, 1.89976, 1.80029, 1.92429, 1.79536, 1.79414, 1.9245, 1.79117, 1.79246, 1.84274, 1.96154, 1.79569, 1.92672, 1.79179, 1.92531, 1.92098, 1.79262, 1.78939, 1.7891, 1.92057, 1.92009, 1.91723, 1.78685, 1.78609, 1.91887, 1.78554, 1.92057, 1.78256, 1.78243, 1.78528, 1.78054, 1.92051, 1.91755, 1.78149, 1.77857, 1.77698, 1.90012, 1.89675, 1.7767
1.78864, 1.86852, 1.78584, 1.87034, 1.85424, 1.78539, 1.78428, 1.78463, 2.04486, 1.78182, 1.78417, 1.78289, 1.78175, 1.78247, 1.78283, 1.78009, 1.78064, 1.77697, 1.77912, 1.78009, 1.88092, 1.78145, 1.77851, 1.77666, 1.83027, 1.83, 1.77995, 1.77897, 1.77759, 1.77674, 1.8846, 1.77372, 1.77628, 1.77482, 1.88159, 1.88109, 1.82053, 1.82113, 1.76781, 1.76565, 1.76652, 1.96586, 1.77134, 1.76845, 1.76559, 2.06893, 2.06271, 1.76575, 1.76926, 1.81997, 1.77056, 1.82119, 1.85269, 2.00752, 1.85087, 2.00116, 2.00739, 2.00464, 1.85204, 2.03791, 2.02133, 1.85208, 2.00733, 1.92772, 2.03107, 1.9274, 1.92877, 1.92394, 1.92489, 1.84762, 1.92261, 1.92176, 1.93358, 1.92161, 1.93192, 1.92063, 2.03488, 1.93495, 1.93606, 1.93824, 1.9362, 1.92093, 1.93721, 1.93923, 1.93709, 1.91996, 1.94083, 1.92385, 1.94199, 1.84522, 2.02792, 1.94377, 1.9284, 1.92827, 2.02051, 1.94417, 1.94301, 1.94281, 2.02895, 2.04499, 1.9981, 1.99709, 2.01082, 2.01051, 2.011, 1.99996, 2.01479, 2.00287, 1.92303, 1.92407, 2.00196, 2.00093, 2.00638, 1.99965, 2.01901, 2.02342, 2.00924, 1.92685, 2.0312, 2.0116, 2.00561, 2.01979, 1.9314, 2.00659, 2.03086, 2.0087, 2.01092, 2.01428, 2.02117, 2.01194, 1.93643, 2.04574, 2.01383, 2.01571, 2.02785, 2.02528, 2.02134, 2.04357, 2.02826, 2.03768, 2.02782, 2.03365, 2.02481, 2.03771, 2.02411, 2.02469, 2.03729, 2.02868, 2.04185, 1.944, 2.02215, 2.02965, 2.02819, 2.02653, 2.0176, 2.04218, 1.94523, 2.02499, 2.03825, 2.04647, 1.94474, 2.02429, 2.02719, 2.02783, 2.03046, 2.02801, 2.03105, 2.02619, 2.02814, 2.02531, 1.94941, 2.03548, 1.882, 1.88157, 2.08165, 1.87988, 1.87941, 1.87867, 1.87793, 1.882, 1.88059, 2.07536, 1.88352, 1.88293, 1.8831, 1.88133, 1.88606, 1.88592, 1.88689, 1.96315, 1.8889, 1.89011, 1.88974, 1.88809, 1.89269, 1.9424, 1.94305, 1.89124, 2.07993, 1.89265, 1.94229, 1.94154, 1.94189, 1.98184, 1.88809, 2.07645, 2.1049, 1.88839, 1.88756, 1.88788, 1.88639, 1.93743, 1.9359, 1.88378, 2.06678, 2.0628, 1.88601, 1.88749, 1.88656, 1.81772, 1.81502, 1.81685, 1.81086, 1.86395, 1.90884, 1.91, 1.80695, 1.80609, 1.80302, 1.9269, 1.79955, 1.799, 1.92196, 1.79665, 1.92624, 1.91494, 1.79601, 1.79608, 1.79302, 1.79284, 1.79174, 1.89488, 1.89265, 1.7911, 2.11022, 1.78988, 1.78937, 1.9207, 1.78839, 1.78991, 1.85109, 1.83821, 1.7845, 1.78922, 1.78374, 1.78529, 1.91184, 1.78588, 1.88437, 1.8365, 1.7848, 1.89672, 1.88438, 1.77781, 1.78076, 1.90879, 1.90629, 1.77907, 1.77855, 1.77851
1.87179, 1.84773, 1.7916, 1.78855, 1.78525, 1.78587, 1.96176, 1.9632, 1.78545, 1.78345, 1.78482, 1.78562, 1.78389, 1.89008, 1.89066, 1.87205, 1.78249, 1.96143, 1.77992, 1.78202, 1.8894, 1.8806, 1.77828, 1.77986, 1.78032, 1.83322, 1.8283, 1.8677, 1.77697, 1.77745, 1.77852, 1.88189, 1.88223, 1.77486, 1.77552, 1.77237, 1.77349, 1.77241, 1.77442, 1.77263, 1.76961, 1.7692, 1.76718, 1.77031, 2.04692, 1.76829, 1.76956, 1.77088, 1.77211, 1.76785, 1.77139, 1.77482, 1.85377, 2.00754, 1.85394, 1.85329, 1.92659, 2.00753, 2.00656, 1.93134, 1.85059, 2.01316, 1.84984, 1.92903, 1.92994, 1.92545, 1.93438, 1.84829, 1.93179, 2.01037, 1.93034, 1.93071, 1.92349, 1.93466, 1.93491, 1.93638, 1.92154, 1.92198, 1.93646, 1.93758, 1.92044, 2.02082, 2.01495, 1.92082, 1.92068, 1.92102, 2.02899, 1.94127, 1.94295, 1.9442, 1.94269, 1.84861, 1.94438, 1.94535, 1.93157, 1.93587, 1.9407, 1.94125, 2.02797, 2.0155, 1.99504, 1.99641, 1.92276, 1.99967, 2.00386, 2.01118, 1.9988, 1.9218, 1.9225, 1.99728, 2.00352, 2.0014, 2.00182, 1.99977, 1.99998, 2.03912, 1.92723, 2.02401, 1.99948, 2.0004, 2.00168, 2.00698, 2.00717, 1.93075, 2.00688, 2.0271, 2.01055, 2.02304, 2.03459, 1.93769, 1.93592, 2.01411, 2.02225, 2.02452, 2.00922, 2.02789, 2.0262, 2.04288, 2.03077, 2.03296, 2.01873, 2.02112, 2.01975, 2.01884, 2.03532, 2.01834, 2.01866, 2.03482, 2.03333, 2.02289, 2.0395, 2.01977, 1.94536, 2.03773, 2.02426, 2.03362, 2.02143, 2.02155, 1.94578, 2.02119, 1.94259, 2.02363, 1.94456, 2.02971, 2.02525, 2.02658, 2.02814, 1.94838, 2.04144, 2.02393, 2.04479, 2.03081, 1.92991, 1.8798, 1.87971, 2.07769, 1.98288, 1.93086, 2.05537, 1.88292, 1.88091, 1.88107, 1.88101, 1.88378, 1.88305, 1.88392, 1.93646, 1.88594, 1.88605, 1.88895, 1.88603, 1.88664, 2.07993, 1.88992, 2.08331, 1.891, 1.94763, 1.88929, 1.94242, 2.07327, 1.8922, 1.89053, 1.89075, 1.94095, 1.97536, 1.88645, 2.07762, 1.93911, 1.88929, 1.88919, 1.8864, 1.88875, 1.88568, 2.06492, 2.06595, 2.0627, 1.88693, 1.88587, 1.88593, 1.81955, 1.81681, 1.81594, 1.81418, 1.81153, 1.85935, 1.85737, 1.85649, 1.85747, 1.8561, 1.80074, 1.89268, 1.92706, 1.79953, 1.79913, 1.79771, 1.79319, 1.79548, 1.79343, 1.92538, 1.92365, 1.79137, 1.92427, 1.7907, 1.90417, 1.88523, 1.89542, 1.89289, 1.92438, 1.78683, 1.78732, 1.78883, 1.78637, 1.78865, 1.78783, 1.78704, 1.84449, 1.83462, 1.78439, 1.78287, 1.89918, 1.78191, 1.91435, 1.91725, 1.77888, 1.78218, 1.78072, 1.88956, 1.7773, 1.90356, 1.78068
1.79094, 1.79082, 1.79052, 1.7913, 1.79103, 1.78971, 1.88133, 1.78497, 1.78615, 1.78866, 1.78556, 1.78408, 1.7828, 1.78254, 1.78217, 1.78203, 1.78359, 1.78347, 1.78022, 1.78231, 1.7817, 1.78038, 1.8834, 1.88901, 1.89105, 1.77981, 1.77703, 1.83083, 1.82999, 1.78009, 1.77918, 1.77928, 1.7781, 1.77647, 1.77501, 1.77638, 2.06675, 1.77226, 1.7759, 1.77337, 1.77485, 1.88723, 1.7691, 1.77173, 1.7661, 1.77096, 1.82136, 1.77163, 1.77189, 1.77282, 1.8228, 1.77575, 2.01444, 1.85431, 1.85236, 1.85352, 1.85346, 1.85192, 1.92838, 2.0073, 1.93086, 1.9265, 1.92794, 1.93397, 1.93451, 1.92432, 1.93131, 2.00986, 1.92384, 1.93496, 1.9251, 1.925, 1.92418, 1.9351, 1.92076, 1.93464, 2.02443, 1.92164, 2.01667, 1.92387, 1.92096, 2.01672, 1.9195, 1.93976, 1.93925, 1.94127, 1.9213, 1.92296, 1.94219, 1.92635, 1.92497, 1.92633, 1.94494, 1.94733, 1.9449, 1.85838, 1.94543, 2.02076, 2.03852, 1.99787, 1.99757, 1.99976, 1.99853, 2.00024, 1.92015, 2.00282, 2.00834, 1.99683, 1.92393, 1.92142, 2.00433, 2.00466, 2.00174, 2.0106, 1.92506, 1.92466, 2.00336, 1.92572, 2.00509, 2.00422, 2.00501, 2.02454, 2.03578, 1.93157, 2.03431, 2.01129, 2.01029, 2.01085, 1.9347, 2.03864, 2.02443, 2.02423, 1.93874, 2.01371, 2.02839, 1.93722, 2.04096, 1.94186, 1.94372, 2.02886, 2.03549, 2.02315, 2.03409, 1.94473, 2.0314, 2.02769, 2.02022, 2.02069, 2.02235, 2.03, 2.02809, 2.02737, 2.02041, 2.02367, 2.02874, 2.02754, 2.02388, 1.9474, 2.04885, 2.02461, 2.02195, 2.02343, 2.02146, 2.02035, 2.0287, 2.02862, 2.02525, 2.02056, 2.02078, 1.94949, 2.03429, 2.03913, 1.88153, 1.88096, 1.88136, 1.8805, 1.93269, 1.88216, 1.99506, 1.88231, 1.97644, 1.93535, 1.88195, 1.88281, 1.93358, 1.93638, 1.93764, 1.93743, 1.93721, 1.99086, 1.88979, 1.94251, 1.98551, 1.89161, 1.89035, 1.8941, 1.89247, 1.89276, 1.89133, 1.89264, 1.88998, 1.94221, 1.8909, 2.07595, 1.89043, 1.88978, 1.89109, 1.94473, 1.98905, 1.88693, 1.97973, 1.88724, 1.88915, 1.88882, 1.8894, 1.88724, 1.88904, 1.88676, 1.93756, 1.81994, 1.91987, 1.91866, 1.92275, 1.81099, 1.809, 1.80905, 1.91383, 1.80578, 1.80659, 2.11004, 1.80298, 1.91527, 1.79919, 1.79545, 1.89304, 1.79371, 1.92076, 1.92674, 1.79249, 1.92886, 1.79206, 1.78982, 1.92644, 1.84449, 1.79193, 1.78868, 1.78749, 1.84021, 1.78558, 1.78895, 1.91759, 1.89025, 1.78501, 1.78773, 1.78275, 1.78445, 1.8345, 1.83429, 1.78319, 1.78392, 1.78342, 1.78427, 1.78455, 1.8312, 1.8321, 1.90759, 1.90666, 1.91086, 1.78175, 1.78016
1.78964, 1.7937, 1.79027, 1.79007, 1.78827, 1.87342, 1.84156, 1.79007, 1.78871, 1.79004, 1.78775, 1.78692, 1.78651, 1.78665, 1.87561, 1.78564, 1.83377, 1.78279, 1.78532, 1.78584, 1.78164, 1.78001, 1.88869, 1.78117, 1.78316, 1.78372, 1.88746, 1.96244, 1.78179, 1.83091, 1.83225, 1.89981, 1.90123, 1.83071, 1.77862, 1.77797, 1.77822, 1.89172, 1.89014, 1.77592, 1.77522, 1.77509, 1.89042, 1.77272, 1.84395, 1.83439, 1.83527, 1.82594, 1.77484, 1.776, 1.7775, 1.77746, 2.0135, 2.00535, 1.9347, 1.85225, 1.92692, 1.85497, 1.85419, 1.92863, 1.93204, 1.93257, 2.0121, 2.01002, 1.93418, 1.92692, 1.84771, 1.92488, 1.93363, 1.93457, 2.03684, 1.92367, 1.84465, 1.92353, 2.03466, 1.92212, 1.92302, 2.01646, 1.91893, 1.93893, 1.84449, 1.91717, 1.93793, 1.91779, 1.92327, 1.92215, 2.02186, 1.92013, 1.94389, 1.92445, 1.92513, 2.02232, 1.93155, 1.93121, 1.93287, 1.936, 1.93497, 1.94188, 2.02649, 1.87962, 2.01167, 1.99935, 2.00042, 2.00095, 2.01043, 1.99697, 2.01028, 1.92306, 1.92316, 1.9243, 2.00615, 2.00309, 1.92488, 1.92582, 2.00155, 2.00373, 2.03341, 2.02276, 1.92719, 1.92738, 2.00447, 2.02679, 2.0393, 2.00974, 2.02834, 1.93199, 2.04125, 1.93415, 2.03462, 2.02309, 2.034, 2.01595, 1.93806, 2.0359, 2.01572, 2.01611, 2.02526, 1.94253, 1.9408, 2.02192, 2.04672, 2.03126, 2.04183, 2.05246, 2.04148, 2.03807, 2.02645, 2.02552, 2.03926, 2.0202, 2.01684, 2.04921, 1.94423, 1.94433, 2.03089, 2.03076, 2.02256, 2.02176, 1.94451, 1.94431, 2.02133, 2.02065, 2.02773, 1.94645, 1.94417, 1.94257, 1.9421, 1.94915, 2.04585, 1.94864, 2.02371, 2.03446, 1.88257, 2.07129, 2.06574, 1.88269, 1.88083, 1.88273, 1.87984, 1.98024, 1.97643, 1.88298, 2.08806, 1.88643, 1.88263, 1.98879, 1.88626, 1.88716, 1.88632, 1.89045, 1.88929, 1.88986, 2.08987, 1.89248, 1.89173, 2.06521, 1.89092, 1.89024, 1.94131, 2.07934, 2.07715, 1.8923, 1.99387, 1.89063, 1.89257, 1.88921, 1.94138, 1.89001, 1.88972, 1.89104, 1.88771, 1.9383, 1.88609, 1.88719, 2.0711, 1.88995, 1.94049, 1.88662, 1.9395, 1.86932, 1.86876, 1.93505, 1.81607, 1.91795, 1.923, 1.92097, 1.80732, 1.80616, 1.9199, 1.9171, 1.92074, 1.91981, 1.79738, 1.79506, 1.92631, 1.92197, 1.79401, 1.84168, 1.84164, 1.79053, 1.92372, 1.78965, 1.83927, 1.79195, 1.92099, 1.7883, 1.78721, 1.89342, 1.78871, 1.92127, 1.78834, 1.7838, 1.78843, 1.78918, 1.8517, 1.78795, 1.78631, 1.90678, 1.9092, 1.83908, 1.78546, 1.78341, 1.78308, 1.78439, 1.78335, 1.78283, 1.90578, 1.78333, 1.78176, 1.78095
1.79186, 1.79224, 1.79599, 1.79259, 1.7931, 1.78912, 1.78818, 1.7891, 2.05531, 1.78918, 1.78836, 1.78911, 1.78807, 1.78508, 1.7875, 1.78757, 1.78573, 1.7838, 1.96345, 1.78516, 1.78573, 2.06185, 1.78538, 1.88973, 1.78317, 1.78343, 1.88228, 1.78431, 1.783, 1.88751, 1.7819, 1.78017, 1.78164, 1.88389, 1.77877, 1.82957, 1.77858, 1.8935, 1.89497, 1.77818, 1.89618, 1.89639, 1.88344, 1.87518, 1.82674, 1.77546, 1.77649, 1.77642, 1.77537, 2.04448, 1.77843, 1.85494, 1.85607, 1.85587, 1.84835, 1.92928, 1.93113, 1.93319, 1.85599, 1.93066, 1.93492, 2.0105, 2.01225, 1.8522, 2.008, 1.93533, 1.8499, 1.85112, 1.93412, 2.03356, 1.92123, 1.93557, 1.92402, 1.84741, 1.93758, 1.93735, 1.9203, 1.84449, 1.84253, 1.93926, 1.94017, 1.84301, 1.94059, 1.94181, 1.94134, 2.031, 1.91991, 1.92196, 1.94408, 1.92632, 1.94519, 1.94601, 1.92677, 1.92969, 1.94793, 1.85847, 1.94218, 1.94792, 2.05368, 2.0048, 2.01129, 2.00078, 2.0073, 1.99987, 2.00014, 2.00107, 2.00352, 1.92339, 1.92423, 1.92338, 1.92302, 1.92556, 2.00591, 2.00119, 2.00141, 2.00271, 2.00303, 2.00439, 2.0207, 2.02026, 2.03735, 2.00575, 2.00604, 1.93089, 2.03112, 2.0417, 1.93408, 2.02756, 1.93527, 2.01552, 2.04244, 2.03826, 1.93698, 2.03353, 2.0249, 2.02735, 2.02071, 2.01943, 2.01907, 2.0273, 2.03824, 2.02953, 2.02767, 1.94496, 2.0273, 2.03686, 2.02394, 2.02206, 2.03218, 1.94568, 2.03135, 2.02142, 2.04244, 2.02201, 2.04536, 1.94231, 2.02456, 2.04837, 1.94458, 2.03869, 2.02454, 2.02014, 1.94422, 1.94467, 1.94687, 1.94563, 1.9473, 2.02676, 2.0253, 2.04583, 1.94918, 2.02815, 1.93286, 1.88519, 2.07305, 1.88317, 1.8828, 1.8824, 1.93386, 1.88275, 1.93739, 1.98747, 1.9354, 1.88329, 1.88246, 1.88378, 2.06052, 1.88899, 2.07556, 1.888, 1.88966, 1.97906, 1.89093, 1.89246, 2.06688, 1.89337, 1.89163, 1.8925, 1.89179, 1.89097, 1.89185, 1.89239, 1.89059, 1.89107, 1.941, 1.93953, 2.08207, 2.07712, 1.89264, 1.89104, 1.89039, 1.88893, 1.94204, 1.89001, 1.88931, 1.88951, 1.95458, 1.95461, 1.95588, 1.81727, 1.92321, 1.86327, 1.90655, 1.8118, 1.91377, 1.8559, 1.80289, 1.80269, 1.92016, 1.92024, 1.80272, 1.79783, 1.79762, 1.79977, 1.79903, 1.84659, 1.8456, 1.90943, 1.90794, 1.84955, 1.78948, 1.89414, 1.84203, 1.79136, 1.79255, 1.78881, 1.83902, 1.83927, 1.79, 1.78872, 1.7884, 1.78786, 1.78641, 1.7864, 1.91831, 1.88367, 1.78775, 1.78578, 1.78675, 1.78554, 1.78626, 1.78535, 1.78537, 1.90878, 1.78546, 1.90067, 1.90903, 1.78085, 1.78194, 1.91021
1.79448, 1.79529, 1.79396, 1.79104, 1.79045, 1.79245, 2.04785, 1.7925, 1.78959, 1.79193, 1.78952, 1.84086, 1.84413, 1.83942, 1.78908, 1.78851, 1.78653, 1.78719, 1.78704, 2.05212, 1.78669, 1.78933, 1.78386, 1.8403, 1.78696, 1.78602, 1.78711, 1.78585, 2.04568, 1.78467, 1.78278, 1.78298, 1.78468, 1.7821, 1.78243, 1.78176, 1.78271, 1.89564, 1.78012, 1.77978, 1.86746, 1.87968, 1.87756, 1.77826, 1.77711, 1.77952, 1.77863, 1.88907, 1.78129, 1.77837, 1.77983, 1.78318, 1.85758, 1.85554, 1.85653, 1.85446, 1.85536, 1.9323, 1.85458, 1.85356, 1.85062, 1.9279, 1.92848, 1.93227, 1.92793, 1.92742, 2.01223, 2.01207, 1.93066, 1.92311, 1.92722, 1.93781, 1.9251, 1.92316, 1.92364, 1.92256, 1.92373, 1.94139, 1.94147, 1.91711, 1.84498, 1.92028, 1.92098, 2.02346, 1.91988, 2.03643, 1.92367, 1.84453, 1.94744, 1.8505, 1.85076, 1.92929, 1.85126, 2.02484, 1.94717, 1.93722, 1.86317, 1.9458, 2.04103, 2.0036, 2.01464, 1.99995, 2, 1.99835, 1.99783, 1.99832, 2.01702, 1.92451, 1.92376, 1.92338, 1.92389, 1.92613, 2.00392, 2.01079, 2.00298, 1.92641, 1.92723, 2.02241, 2.02739, 1.93283, 1.93063, 1.93111, 2.02775, 2.02793, 2.03169, 2.01013, 2.0353, 2.03086, 2.03232, 2.00337, 2.06352, 2.03241, 2.03494, 2.01425, 2.01394, 2.02049, 2.02855, 2.04456, 1.94373, 2.02205, 2.01737, 1.94429, 2.03672, 1.94342, 2.02711, 2.02019, 2.02053, 2.03024, 2.03464, 2.02963, 2.03119, 2.04074, 2.02573, 2.01973, 2.02746, 2.03424, 2.02088, 2.02104, 2.02062, 2.02157, 2.02167, 1.94505, 2.0248, 2.02329, 1.94702, 1.94558, 1.94479, 2.02536, 2.03748, 2.04305, 2.02772, 1.95197, 1.97553, 2.06171, 1.88427, 1.88408, 1.88329, 1.88531, 2.05962, 1.98383, 1.88597, 1.88579, 1.88585, 1.93818, 1.93617, 1.88643, 1.93777, 1.95346, 1.98398, 1.88643, 2.09097, 1.8911, 1.94191, 1.9398, 1.89261, 2.06277, 1.89021, 1.88943, 1.95068, 1.96646, 1.97983, 1.89247, 1.88912, 1.89068, 1.89027, 1.88887, 1.89299, 1.89072, 1.89, 1.88963, 1.89013, 1.88872, 1.88676, 1.96255, 1.88841, 1.8892, 1.88857, 1.88813, 1.94994, 1.81751, 1.81729, 1.81192, 1.81123, 1.9173, 1.86109, 1.85856, 1.90478, 1.80471, 1.80357, 1.80108, 1.80003, 1.84939, 1.79726, 1.79715, 1.79456, 1.79499, 1.84744, 1.84493, 1.79348, 1.8424, 1.79145, 1.79058, 1.79073, 1.79062, 1.92136, 1.92421, 1.92162, 1.78736, 1.78882, 1.92316, 1.78608, 1.7852, 1.78484, 1.90325, 1.83624, 1.91893, 1.78664, 1.91377, 1.91356, 1.88728, 1.78597, 1.7848, 1.91216, 1.78259, 1.78378, 1.78215, 1.78535, 1.90841, 1.90614, 1.77902
1.79876, 1.7967, 1.79825, 1.79438, 1.79695, 1.79616, 1.79648, 2.04948, 1.79376, 1.79488, 1.87641, 1.79266, 1.84148, 1.84117, 1.78937, 1.79003, 1.78868, 1.78786, 1.78778, 1.78927, 1.78944, 1.78674, 1.78671, 1.78642, 1.7867, 1.78651, 1.78709, 1.78687, 1.78662, 1.7855, 1.78689, 1.78532, 1.83548, 1.83723, 1.88424, 1.88552, 1.88614, 1.78499, 1.78482, 1.88787, 1.78207, 1.78314, 1.88613, 1.78182, 1.78112, 1.78283, 1.78297, 1.89527, 1.78376, 1.78378, 1.78547, 1.78597, 1.8541, 1.93236, 1.93048, 1.93339, 1.85574, 1.93452, 2.01427, 1.93063, 1.931, 1.85399, 1.93544, 2.0213, 1.92725, 1.93377, 1.92898, 1.92827, 1.92923, 1.93925, 1.92639, 1.9238, 1.92309, 1.92398, 2.01873, 1.92349, 1.92198, 1.92205, 1.91833, 1.84404, 1.9438, 1.8454, 1.94189, 1.92038, 1.91992, 1.92123, 1.92148, 1.92425, 1.92369, 1.94742, 1.84854, 1.85211, 1.85261, 2.04144, 1.93537, 1.86136, 1.94746, 1.86899, 2.02473, 2.02414, 1.924, 2.00794, 1.9265, 2.00161, 2.01006, 2.00079, 1.92428, 1.9238, 2.00122, 1.9259, 2.00284, 2.0029, 2.00416, 2.00402, 1.92817, 2.03376, 2.00468, 2.00365, 2.00624, 2.00664, 2.00789, 2.00686, 2.00728, 1.93393, 2.02541, 2.02009, 2.01809, 2.02424, 2.03116, 2.02176, 2.01576, 2.01687, 2.04075, 2.01901, 2.02795, 2.03161, 2.03493, 2.02618, 1.94368, 2.01801, 2.01898, 2.02456, 2.03304, 1.94526, 2.04447, 2.03872, 2.03373, 1.94397, 2.03716, 2.0232, 2.02363, 2.04876, 2.03421, 2.03836, 2.02162, 1.94457, 1.94546, 1.94449, 2.02147, 2.03986, 1.94477, 2.02405, 1.94632, 1.94711, 1.94605, 1.94719, 2.02481, 1.94596, 1.94788, 2.02619, 2.02539, 2.05034, 1.94888, 1.88378, 1.93507, 1.93521, 1.88504, 2.06108, 1.88536, 1.98481, 1.88475, 1.88389, 2.0643, 1.93603, 1.93623, 1.88764, 1.97589, 1.9375, 1.94176, 1.88984, 1.88766, 1.89243, 1.9412, 1.89247, 1.94207, 1.89342, 1.89257, 1.88974, 1.892, 1.8934, 1.88785, 1.89185, 1.88957, 1.89063, 1.94297, 1.94035, 1.88919, 1.89021, 2.07746, 1.88957, 2.05876, 1.89223, 1.8897, 1.88789, 1.93791, 1.93819, 1.8852, 1.89281, 1.88525, 1.96856, 1.81626, 1.81408, 1.81309, 1.81045, 1.80674, 1.80553, 1.91781, 1.80311, 1.80322, 1.80219, 1.8012, 1.80079, 1.92361, 1.92189, 1.89874, 2.0212, 1.89018, 1.92202, 1.79422, 1.84205, 1.92039, 1.78889, 1.79306, 1.79029, 1.78948, 1.79003, 1.7872, 1.7901, 1.78629, 1.92474, 1.78341, 1.83882, 1.7869, 1.83774, 1.7864, 1.78581, 1.83473, 1.78773, 1.78692, 1.78625, 1.78524, 1.83463, 1.83823, 1.8367, 1.78318, 1.90041, 1.90667, 1.83354, 1.90211, 1.90928
1.80079, 1.80036, 1.79684, 1.79765, 1.79924, 1.7973, 1.79742, 1.89266, 1.79061, 1.79608, 1.79553, 1.79508, 1.84386, 1.84198, 1.79189, 1.79224, 2.04956, 1.78942, 2.05293, 1.97536, 1.79233, 2.05138, 1.96807, 1.89744, 1.78707, 1.88492, 1.7891, 1.83769, 1.87859, 1.8846, 1.78515, 1.78676, 1.78787, 1.78905, 1.7846, 1.78652, 1.78224, 1.78519, 1.89462, 1.7847, 1.78532, 1.78396, 1.78186, 1.78211, 1.77945, 1.90662, 1.78298, 1.83489, 1.78725, 1.78559, 1.78431, 1.78692, 1.85754, 1.85643, 1.93775, 1.93285, 1.93176, 1.93804, 1.85526, 1.92934, 2.01389, 1.92944, 1.92946, 1.92956, 1.85483, 1.93382, 1.92803, 1.92634, 1.92593, 1.93803, 1.92711, 1.92729, 1.94416, 1.92407, 1.9407, 1.84537, 1.84496, 2.03143, 1.92143, 2.03148, 1.94376, 1.92034, 1.9456, 2.03871, 1.84579, 2.03915, 1.94733, 1.92262, 1.8473, 1.94695, 1.84883, 1.94879, 1.94854, 1.94845, 1.8594, 1.94714, 1.94932, 1.94842, 2.05303, 2.02882, 2.02456, 2.00674, 2.01275, 2.01064, 2.0112, 2.01046, 2.01355, 2.00636, 2.0006, 2.004, 2.01031, 1.92699, 2.00423, 1.92887, 1.92749, 2.01783, 2.00486, 2.00572, 2.007, 2.02373, 2.02114, 1.93124, 2.02457, 2.04073, 2.01027, 2.03125, 2.03316, 2.02231, 2.02472, 2.0259, 2.025, 2.01832, 2.02704, 2.02533, 2.01527, 2.03917, 1.94104, 1.94176, 1.94287, 2.03816, 2.03614, 2.01728, 2.02129, 2.02438, 1.94583, 2.03073, 2.03066, 1.9462, 2.03839, 2.02131, 2.04208, 2.03765, 2.03576, 1.94492, 2.0272, 1.94549, 1.94454, 2.0218, 2.02054, 1.94605, 1.94553, 1.94243, 1.94774, 1.94558, 1.94547, 1.94799, 1.94802, 2.0281, 2.03585, 2.02999, 2.03221, 2.02545, 1.98311, 1.88477, 1.93691, 2.06894, 1.88543, 2.07698, 1.88969, 1.88205, 1.99026, 1.88072, 1.88533, 1.9364, 1.93775, 1.9516, 1.88671, 1.88609, 2.07926, 1.88846, 1.88897, 2.07628, 1.89073, 1.89256, 1.89158, 1.88865, 1.89157, 1.89092, 1.89137, 2.07007, 1.89258, 1.93983, 1.89182, 1.94049, 1.94129, 1.8888, 1.88833, 2.07341, 1.8897, 1.93841, 1.89021, 1.89126, 1.88954, 1.88866, 2.08585, 2.05839, 1.88743, 1.88888, 1.88817, 1.81972, 1.81478, 1.81517, 1.91681, 1.89302, 1.8069, 1.80723, 1.80623, 1.8046, 1.80318, 1.96867, 1.79994, 1.79975, 1.92004, 1.92012, 1.91987, 1.79209, 1.92143, 1.92142, 1.79305, 1.79098, 1.7896, 1.79232, 1.90442, 1.83914, 1.78713, 1.7888, 1.90838, 1.91309, 1.79033, 1.78879, 1.9177, 1.91987, 1.78668, 1.78553, 1.88285, 1.78716, 1.91328, 1.92376, 1.917, 1.78411, 1.90428, 1.9027, 1.78557, 1.78438, 1.78315, 1.78384, 1.78077, 1.83411, 1.78212, 1.78301
1.80285, 1.79881, 1.79844, 1.80011, 1.79876, 1.79742, 1.79632, 2.05314, 1.79462, 1.79589, 1.79614, 1.79446, 1.7945, 1.97073, 1.79435, 1.79301, 1.87724, 1.79255, 1.79276, 1.79291, 1.79181, 1.79242, 1.79032, 1.79087, 1.79082, 1.89408, 1.89536, 1.78894, 1.8904, 1.89111, 1.78673, 1.78851, 1.7894, 1.78861, 1.97522, 1.97022, 1.78736, 1.88603, 1.78622, 1.78574, 1.88632, 1.78558, 1.78587, 1.78537, 1.78507, 1.78507, 1.78747, 1.78715, 1.78577, 1.78846, 1.78966, 1.79235, 1.85613, 1.85849, 1.8606, 1.93801, 1.85701, 1.85732, 1.85855, 1.93002, 1.93263, 1.93404, 1.93546, 1.93819, 1.93259, 1.93243, 2.03459, 1.92564, 1.92759, 1.93025, 2.01923, 1.85106, 1.92454, 1.92473, 1.92393, 1.92494, 1.92511, 1.92104, 1.92133, 1.94594, 1.92317, 1.8447, 1.9476, 1.94483, 1.9223, 1.9223, 1.92257, 1.92373, 1.84964, 1.84887, 1.85017, 2.03687, 1.85437, 1.85632, 1.93366, 2.02476, 2.03809, 2.04188, 2.05072, 2.03513, 1.92673, 2.02394, 2.0034, 2.00374, 2.00617, 2.00425, 2.00438, 2.00132, 1.92489, 2.00471, 2.00415, 2.00521, 2.00472, 2.00522, 2.01874, 2.01766, 2.00916, 2.00781, 2.00883, 1.93165, 2.01827, 2.02438, 2.02221, 2.01844, 1.93387, 2.0112, 2.0112, 2.01106, 2.02403, 2.02168, 2.01525, 2.01454, 2.01534, 2.01779, 2.01677, 2.03136, 2.01856, 2.0253, 2.03006, 1.94398, 2.03893, 2.03909, 1.94513, 2.01806, 2.01799, 1.94391, 2.03827, 2.03597, 1.94384, 2.03626, 2.0345, 2.04625, 2.04398, 2.02863, 2.02261, 2.02198, 2.03808, 1.94609, 2.03178, 2.03202, 1.94516, 1.94574, 1.94417, 1.94373, 1.94722, 1.94631, 1.94574, 2.03127, 2.0405, 2.03257, 2.02379, 2.03777, 2.05979, 2.05905, 1.88728, 1.88491, 2.1005, 1.93526, 1.88559, 1.88573, 1.88429, 1.98926, 1.88582, 2.06356, 1.88611, 2.0625, 2.06146, 1.88946, 1.88958, 1.88941, 2.07262, 1.89181, 1.88987, 1.89189, 2.06752, 1.95081, 1.89313, 1.89115, 1.8917, 2.07285, 1.89109, 1.88772, 1.89054, 2.05588, 1.89268, 1.88995, 1.88656, 1.88982, 1.88947, 2.06977, 2.06215, 1.8857, 1.88617, 2.0598, 2.05745, 2.06403, 2.06304, 1.88651, 1.88582, 1.8162, 1.81198, 1.81091, 1.91896, 1.96676, 1.91753, 1.80757, 1.80615, 1.80243, 1.97346, 1.91673, 1.79579, 1.79923, 1.92297, 1.90165, 1.79465, 1.79576, 1.88811, 1.79324, 1.79242, 1.88948, 1.9241, 1.92573, 1.92494, 1.84049, 1.78706, 1.78591, 1.78915, 1.78871, 1.78656, 1.78711, 1.91759, 1.78647, 1.92076, 1.78283, 1.78567, 1.78597, 1.91439, 1.78757, 1.83569, 1.87864, 1.87677, 1.78218, 1.83738, 1.78567, 1.78493, 1.83397, 1.88935, 1.7838, 1.90322, 1.78292
1.80353, 1.79799, 1.80115, 1.80222, 1.80244, 1.80225, 1.80123, 1.79959, 1.79824, 1.79682, 2.06684, 1.7963, 1.97694, 1.79723, 1.79557, 1.79602, 1.79333, 1.79642, 1.79372, 1.89884, 1.79358, 1.79244, 1.79618, 1.79038, 1.78972, 1.79289, 1.89214, 1.78982, 1.79171, 1.78973, 1.89574, 1.79052, 1.79186, 1.79071, 1.78882, 1.7888, 1.8397, 1.83848, 1.78927, 1.8387, 1.83787, 1.78671, 1.78589, 1.78616, 1.78818, 1.78916, 1.78975, 1.78908, 2.05138, 1.79088, 1.7912, 1.79318, 1.85929, 1.85966, 1.93585, 1.93118, 1.93877, 1.93176, 1.93148, 1.93743, 1.93863, 2.01758, 2.01726, 2.01311, 1.85231, 1.85269, 1.94167, 1.92897, 1.93878, 1.94196, 1.9301, 1.92851, 1.92424, 1.9239, 1.94395, 1.9432, 1.94414, 2.02585, 1.84414, 1.92128, 1.92154, 1.92095, 1.94811, 1.94791, 2.02564, 1.92216, 1.84711, 1.92508, 1.92259, 1.95124, 1.92729, 1.85359, 1.8549, 1.93092, 1.95247, 1.93763, 1.86442, 1.95211, 2.04626, 2.04459, 1.92584, 1.92733, 1.92786, 2.00323, 2.00358, 2.00397, 1.92703, 1.9276, 2.00574, 2.00706, 2.00799, 2.00724, 2.00728, 2.00419, 2.00603, 1.92838, 2.00663, 2.00748, 1.9314, 2.02161, 1.9322, 1.93116, 2.00699, 1.93402, 2.00975, 2.01866, 2.0379, 2.03075, 2.02978, 1.93765, 1.93851, 1.94099, 1.93969, 2.01793, 2.01847, 2.01795, 2.01815, 2.03497, 2.02421, 2.01898, 2.02135, 2.0354, 2.03389, 2.03821, 2.03814, 2.02164, 1.94596, 1.94517, 2.02495, 2.01757, 2.02937, 2.03161, 2.02091, 2.01945, 2.03079, 1.9456, 1.94784, 2.03161, 2.02692, 2.02735, 2.02778, 2.01888, 1.94605, 1.94644, 1.94555, 1.94586, 1.94829, 1.94713, 2.05173, 2.02636, 2.02575, 2.04235, 1.88679, 1.88927, 1.88842, 1.88733, 1.88613, 1.88599, 1.99083, 1.98938, 1.88715, 1.88749, 1.8887, 1.88511, 1.88642, 1.88862, 1.98698, 1.89096, 1.88942, 1.89073, 1.88993, 1.88949, 1.89215, 1.8912, 1.9763, 1.89149, 1.8907, 1.89244, 2.07562, 1.89077, 2.06185, 1.8904, 1.89056, 1.88714, 2.06231, 2.06205, 1.88836, 2.06904, 1.8848, 1.88904, 1.88901, 1.88615, 1.88498, 1.8849, 1.88609, 1.88463, 1.88644, 2.06498, 1.88502, 1.81406, 1.81543, 1.81303, 1.81337, 1.91754, 1.91973, 1.80528, 1.92106, 1.80323, 1.80226, 1.80041, 1.8502, 1.85023, 1.79616, 1.79637, 1.79474, 1.92072, 1.79333, 1.84303, 1.91769, 1.9129, 1.7909, 1.92323, 1.78991, 1.7901, 1.78815, 1.99967, 1.78668, 1.78685, 1.92183, 1.78673, 1.9239, 1.9209, 1.78529, 1.78775, 1.78385, 1.91802, 1.7852, 1.78222, 1.78637, 1.83609, 1.78584, 1.78695, 1.90996, 1.91136, 1.90919, 1.7855, 1.78625, 1.95893, 1.78491, 1.83407
1.80453, 1.85573, 1.85492, 1.80572, 1.89431, 1.85469, 1.97733, 1.80262, 1.89942, 1.80257, 1.80127, 1.90036, 1.79929, 1.80064, 1.798, 1.79903, 1.79603, 1.79762, 1.79816, 1.79795, 1.79261, 1.79587, 1.79675, 1.79455, 1.84381, 1.79512, 1.79472, 1.89899, 1.79524, 1.79311, 1.79212, 1.78914, 1.97515, 1.79225, 1.79162, 1.84138, 1.87996, 1.78999, 1.79166, 1.79128, 1.78905, 1.87924, 1.78914, 1.97607, 1.97142, 1.78814, 1.7899, 1.84128, 1.7897, 1.79187, 1.79267, 1.79621, 2.0172, 1.86065, 1.86019, 1.93502, 1.93546, 1.9352, 1.94163, 1.94041, 1.93418, 1.94065, 1.93924, 1.93099, 1.93067, 1.93038, 1.93105, 1.92914, 1.84942, 1.943, 1.92753, 1.92788, 1.92325, 1.92759, 1.94681, 1.92624, 1.92295, 1.92426, 1.92391, 1.8482, 2.02471, 2.02412, 1.922, 1.92351, 1.92329, 1.92472, 1.95133, 1.92527, 1.92254, 1.85192, 1.92833, 2.03413, 1.93066, 2.04211, 1.86153, 1.95174, 1.95023, 2.04649, 2.02935, 1.88601, 2.0072, 2.01364, 2.00415, 2.00314, 1.92872, 2.00679, 2.00604, 1.92773, 1.93059, 1.92742, 1.92874, 2.00693, 2.01066, 2.01343, 2.01391, 2.00654, 2.01812, 2.01376, 1.92981, 2.03228, 2.02179, 2.02514, 1.93285, 2.03751, 2.03366, 2.02072, 2.03427, 2.01835, 2.01416, 2.0436, 2.02063, 2.03111, 2.0166, 2.02004, 2.0179, 2.02842, 1.94183, 2.03556, 2.02167, 2.02195, 2.0217, 2.02145, 2.02794, 2.02778, 2.0221, 2.02833, 1.94492, 2.05327, 2.02811, 2.03448, 2.02319, 2.02263, 2.02287, 2.0242, 2.03141, 2.04459, 1.94466, 1.94706, 2.02339, 2.03571, 2.03164, 2.02191, 1.94927, 1.94641, 1.95002, 1.94654, 2.02603, 2.02394, 2.04807, 1.9497, 2.0494, 1.89084, 1.88922, 2.0807, 1.88696, 1.88587, 1.98654, 1.88898, 1.98571, 1.8855, 1.98712, 1.88609, 1.88626, 1.98983, 1.88723, 1.88646, 1.88922, 2.07062, 1.88975, 1.8889, 1.88967, 1.89022, 1.88759, 1.98734, 1.89304, 1.89225, 1.89135, 2.0769, 1.9425, 1.94173, 1.94032, 1.96576, 1.96423, 1.88786, 2.07341, 2.07598, 1.88601, 1.88962, 1.88684, 1.88657, 1.88611, 1.88846, 2.05813, 1.88631, 1.93471, 1.93454, 1.93656, 1.93347, 1.8673, 1.86548, 1.81336, 1.80802, 1.80948, 2.0924, 1.80677, 1.92538, 1.85355, 1.80212, 1.92343, 1.92034, 1.79934, 1.79886, 1.79684, 1.79574, 1.79423, 1.79202, 1.84193, 1.79314, 1.84317, 1.90683, 1.90029, 1.8961, 1.7874, 1.92193, 1.79081, 1.78863, 1.90281, 1.7893, 1.78757, 1.78521, 1.78815, 1.83471, 1.78654, 1.90617, 1.78646, 1.83412, 1.7884, 1.91918, 1.9156, 1.7844, 1.78336, 1.84335, 1.84081, 1.84168, 1.78855, 1.78405, 1.78456, 1.94229, 1.78533, 1.78428
2.07539, 1.97763, 1.97993, 1.80412, 1.80473, 1.80476, 2.06362, 1.80322, 1.80288, 1.80338, 1.80286, 1.80194, 1.90568, 1.80294, 1.80134, 1.79989, 1.79606, 1.90093, 1.90218, 1.79869, 1.7986, 1.97727, 1.90082, 1.79708, 1.84615, 1.97558, 1.79632, 1.79575, 1.79632, 1.79595, 1.88993, 1.89262, 1.79126, 1.79149, 1.84247, 1.84216, 1.84226, 1.84285, 1.84162, 1.79188, 1.79277, 1.84274, 1.79214, 1.89619, 1.89687, 1.79269, 1.79304, 1.97694, 1.79308, 1.79587, 2.05198, 1.8615, 2.01471, 2.01717, 1.94121, 1.93725, 1.94081, 1.93809, 1.85895, 1.93443, 1.94154, 1.93436, 1.94153, 1.85487, 1.93064, 1.94113, 1.92736, 1.92676, 1.92719, 1.92558, 1.92753, 1.92727, 1.84868, 2.03582, 1.95093, 1.92428, 1.94794, 1.92606, 1.92517, 2.02995, 1.84676, 1.84596, 1.92383, 1.9257, 1.92414, 1.92497, 1.84815, 2.04144, 1.9553, 1.9277, 1.92838, 1.95235, 1.93223, 1.95193, 1.86124, 1.95468, 1.94408, 2.03774, 2.05103, 2.05103, 2.04084, 1.92885, 2.00626, 2.00626, 2.00521, 2.00701, 2.00935, 1.92798, 1.92796, 1.92932, 1.92981, 2.00551, 2.00935, 2.01175, 2.00782, 2.01749, 1.93097, 2.01824, 2.00778, 2.00603, 1.93131, 2.01297, 2.00991, 2.00977, 2.02171, 2.00464, 1.93792, 2.02452, 2.02584, 2.02761, 1.93848, 2.01834, 2.0279, 2.04248, 2.02765, 2.0186, 1.9438, 2.03735, 2.02031, 2.02505, 2.02031, 2.03134, 2.03038, 2.02206, 2.03173, 2.02916, 2.04434, 2.02398, 2.03752, 2.02531, 2.03545, 2.03132, 2.03085, 2.03104, 2.03388, 2.03423, 2.03798, 2.02133, 2.02644, 2.02397, 2.02234, 2.02185, 1.94884, 1.94846, 1.94746, 1.94755, 1.94775, 1.94755, 1.94622, 2.05455, 2.05026, 1.94112, 1.89247, 1.88884, 2.09756, 2.08073, 1.88911, 1.88743, 2.0587, 2.05682, 1.88875, 1.98563, 2.0625, 1.88616, 1.88621, 1.88759, 1.94447, 1.88815, 2.08618, 1.88958, 1.88981, 1.88996, 1.89052, 1.88969, 1.88909, 1.88718, 1.89535, 1.89038, 1.94176, 1.88926, 1.88833, 1.93983, 2.08181, 2.06943, 1.88894, 1.93845, 1.93926, 1.96809, 1.93572, 2.06977, 2.05805, 2.0661, 1.8871, 1.93741, 1.93528, 1.9342, 1.88328, 1.88519, 1.93461, 1.95143, 1.81289, 1.90361, 1.86787, 1.80463, 1.80247, 1.80394, 1.85513, 1.85097, 1.8014, 1.84985, 1.79865, 1.79597, 1.79628, 1.84912, 1.79567, 1.91204, 1.7923, 1.92075, 1.9062, 1.9008, 1.90374, 1.7925, 1.78894, 1.78877, 1.7876, 1.78738, 1.92416, 1.92344, 1.78621, 1.78448, 1.78429, 1.78294, 1.83533, 1.78673, 1.83493, 1.83539, 1.78532, 1.9179, 1.78449, 1.91188, 1.78566, 1.84527, 1.84253, 1.91367, 1.91274, 1.91031, 1.90741, 1.78168, 1.83291, 1.90018
1.85951, 1.80954, 1.81009, 1.80951, 1.80779, 1.80406, 1.80407, 1.80424, 2.05801, 1.80496, 1.8069, 1.80429, 1.8025, 1.80447, 1.80229, 1.80241, 1.80215, 1.85103, 1.85275, 1.89732, 1.80052, 1.80001, 1.8007, 1.79876, 1.8483, 1.80037, 1.79926, 1.84726, 1.79465, 1.98289, 1.89792, 1.88588, 1.79611, 1.79567, 1.79547, 1.79551, 1.90224, 1.79295, 1.79138, 1.79312, 1.79574, 1.79248, 1.79245, 1.79468, 1.79616, 1.79499, 1.79538, 1.8792, 1.79562, 1.79463, 1.79743, 1.79929, 1.93798, 2.01777, 2.01802, 1.9402, 1.93512, 1.94158, 1.93765, 1.93877, 1.85805, 1.8591, 2.04167, 2.0288, 1.93262, 2.02206, 2.02813, 1.93122, 1.94469, 1.93117, 1.85122, 1.9486, 1.94853, 1.92945, 1.84984, 1.92547, 1.951, 1.92453, 2.04524, 1.92329, 1.84712, 1.92421, 1.95151, 1.9212, 1.95211, 1.95289, 1.95388, 1.95475, 1.92847, 1.85249, 1.92929, 1.9313, 1.93446, 2.03229, 1.93828, 1.86458, 2.03488, 2.03574, 2.03257, 2.01337, 2.00661, 2.01625, 2.00989, 2.01737, 2.01746, 2.01732, 2.00696, 2.00396, 1.93, 2.00325, 2.00312, 2.01326, 2.01041, 2.00778, 2.00728, 2.00786, 2.00981, 2.01914, 2.00794, 2.00765, 2.01427, 2.01812, 2.00915, 2.01138, 2.02154, 2.02494, 2.01502, 2.02582, 2.02702, 2.03049, 2.03179, 2.03089, 2.02255, 2.02777, 2.02499, 2.04166, 2.0278, 2.02795, 2.03519, 1.94218, 2.02842, 2.0374, 2.03823, 2.03491, 2.03947, 2.02229, 2.03374, 2.03086, 2.02393, 1.94748, 2.03234, 2.03141, 1.94752, 1.94623, 2.0227, 2.0236, 2.04131, 2.03767, 2.03176, 2.02662, 2.0352, 2.0238, 2.02451, 1.94785, 2.0279, 2.02812, 2.02643, 2.02666, 2.04447, 2.02566, 2.04287, 1.89068, 1.89027, 1.88984, 1.88901, 2.06121, 2.07021, 1.88669, 1.88738, 1.88693, 1.886, 1.88542, 1.88804, 1.98647, 1.98467, 1.88718, 1.94634, 1.94506, 1.93802, 1.97232, 1.97241, 1.88938, 1.97217, 1.97039, 2.07203, 1.88725, 1.88879, 2.07965, 1.89205, 2.08627, 1.89228, 2.07823, 2.08651, 1.88607, 1.88683, 1.93793, 1.93828, 1.93775, 1.88576, 1.88587, 1.88454, 1.88421, 1.88141, 1.88633, 1.88566, 1.93442, 1.93359, 1.88207, 1.8809, 1.81146, 1.90156, 1.85907, 1.80723, 1.80619, 1.91591, 1.91032, 1.80066, 1.80072, 1.91344, 1.84969, 1.84681, 1.84657, 1.8447, 1.79565, 1.7951, 1.7928, 1.7924, 1.79116, 1.8425, 1.84182, 1.78922, 1.79034, 1.78977, 1.78791, 1.78813, 1.78721, 1.78366, 1.78609, 1.78498, 1.92935, 1.92216, 1.78588, 1.91636, 1.78454, 1.7847, 1.78477, 1.92168, 1.91695, 1.7863, 1.78269, 1.90615, 1.91079, 1.90206, 1.78924, 1.78515, 1.78585, 1.78354, 1.78533, 1.90375, 1.78502
1.81121, 1.81171, 1.81061, 1.81065, 1.85997, 1.80996, 1.80937, 1.85783, 1.80768, 1.80472, 1.90377, 1.90484, 1.80418, 1.85634, 1.80455, 1.90322, 1.90052, 1.89567, 1.8034, 1.89987, 1.80238, 1.80303, 1.80407, 1.80424, 1.80125, 1.80127, 1.79984, 1.80057, 1.79995, 1.79792, 1.79874, 1.79879, 1.79884, 1.90078, 1.89938, 1.79589, 1.79765, 1.90051, 1.79617, 1.79945, 2.05619, 1.90081, 1.79545, 1.90016, 1.79486, 1.90013, 1.8934, 1.79695, 1.7984, 1.79916, 1.79963, 1.79825, 1.86389, 1.86326, 1.94007, 1.94077, 1.93174, 2.02312, 2.02164, 1.93759, 1.93523, 2.02091, 1.93407, 1.9345, 1.93141, 1.9324, 1.92919, 1.93063, 1.93019, 1.85216, 1.92991, 2.03591, 1.94978, 1.85013, 1.84864, 1.84794, 1.95215, 1.92401, 1.9235, 2.04385, 2.04605, 1.95478, 1.92381, 1.92438, 1.9552, 1.84856, 1.9272, 1.92802, 1.95436, 1.92992, 1.92907, 1.93346, 1.95682, 1.95681, 1.95785, 1.94319, 1.94469, 1.95191, 2.0667, 1.89024, 1.93076, 1.93204, 2.00727, 2.02304, 1.93104, 1.93016, 2.01444, 1.93064, 1.92995, 1.92985, 2.00722, 2.00948, 2.01193, 1.9302, 2.01874, 2.02103, 2.0095, 2.00885, 2.01026, 2.01307, 2.01059, 2.0314, 1.93466, 1.93571, 2.01392, 2.01584, 2.02985, 2.03049, 1.93818, 2.02847, 2.02473, 2.03104, 2.0187, 2.04168, 1.94415, 2.02761, 2.02818, 2.0253, 2.02826, 2.02052, 2.02218, 2.03016, 2.02234, 2.02251, 2.04894, 2.04175, 1.94561, 2.02648, 2.03576, 2.03499, 2.0278, 1.94868, 2.03847, 2.03142, 2.02435, 2.02278, 2.03802, 1.94792, 1.94783, 2.02905, 2.02542, 2.02459, 2.02497, 2.02551, 1.95069, 2.02754, 2.02937, 1.94877, 2.02445, 2.0342, 2.02546, 2.02729, 1.88923, 2.0575, 1.88826, 1.88648, 1.8854, 1.8848, 1.93951, 1.88566, 1.88618, 1.88861, 1.88623, 2.0738, 1.88708, 2.06775, 1.89129, 1.8894, 1.88945, 1.88678, 1.94049, 1.94057, 1.94108, 1.94071, 1.8864, 1.88988, 2.06497, 1.889, 1.88802, 1.89349, 1.88912, 1.88798, 1.88865, 1.89035, 1.88743, 1.88667, 1.88637, 2.08387, 2.08272, 1.88596, 1.97725, 1.88315, 1.88152, 2.0795, 1.88398, 2.05667, 1.87925, 1.8825, 1.88007, 1.8121, 1.91206, 1.80656, 1.80612, 1.80439, 1.80391, 1.80358, 1.80169, 1.80053, 2.09047, 1.79683, 1.90902, 1.79461, 1.79479, 1.85908, 1.79416, 1.795, 1.79134, 1.79219, 1.79014, 1.86695, 1.79217, 1.90815, 1.90601, 1.78717, 1.7872, 1.91732, 1.78614, 1.78346, 1.78898, 1.78722, 1.91688, 1.91452, 1.78311, 1.78682, 1.78587, 1.78513, 1.78459, 1.78554, 1.78708, 1.78659, 1.78697, 1.83589, 1.8346, 1.78448, 1.78596, 1.90745, 1.78521, 1.78312, 1.90894, 1.78125
1.81494, 1.81421, 2.07805, 1.81292, 1.81335, 1.86125, 1.89265, 1.81004, 1.80947, 1.80893, 1.80682, 1.80969, 1.80692, 1.80379, 1.9079, 2.08104, 2.08718, 1.8051, 1.85474, 1.80608, 1.8031, 1.80481, 1.80494, 1.80367, 1.80303, 1.80374, 1.90236, 1.79827, 1.79919, 1.79915, 1.89952, 1.79959, 1.89004, 1.79774, 1.79543, 1.799, 1.97945, 1.79908, 1.89931, 1.90077, 1.90881, 1.79944, 1.79716, 1.79893, 1.9115, 1.79757, 1.80027, 1.79935, 1.79959, 1.97905, 1.80038, 2.0204, 2.02096, 1.94742, 2.02357, 1.93934, 1.94451, 2.02427, 1.94547, 1.94629, 1.94837, 1.9346, 2.027, 1.95437, 2.03482, 1.93085, 1.95003, 1.93274, 1.93034, 1.95103, 1.85455, 1.93059, 1.92898, 1.92824, 2.02695, 1.85125, 1.95085, 1.84856, 1.92489, 1.92514, 1.92611, 1.92399, 1.95607, 1.92569, 1.92429, 1.85101, 1.85078, 1.92706, 1.92857, 1.95806, 1.95716, 1.95793, 2.03544, 1.95846, 1.86268, 1.94272, 1.94463, 1.95601, 2.03801, 2.02431, 1.93158, 2.00829, 2.00906, 2.00659, 2.02171, 2.02149, 2.01086, 2.01003, 2.01111, 1.93217, 1.93104, 1.93013, 1.93013, 1.93215, 2.00882, 2.00787, 2.01073, 2.01026, 2.02222, 2.01041, 2.01376, 2.01456, 2.01405, 2.02093, 2.02516, 2.0269, 2.02111, 2.02681, 2.0294, 2.02827, 2.02525, 2.01858, 2.0173, 2.01694, 2.02402, 1.94413, 2.03721, 2.04112, 2.02145, 1.94554, 1.94602, 2.04489, 1.95001, 1.94788, 2.0305, 2.02448, 1.94819, 2.02429, 2.03042, 2.02466, 2.04869, 2.04105, 2.02461, 1.94928, 2.05198, 2.02613, 2.03715, 2.02495, 1.94867, 2.04896, 1.94842, 1.94927, 2.02496, 2.02682, 2.02705, 2.0281, 2.02988, 2.0293, 2.03117, 2.0284, 2.04109, 1.89272, 1.979, 2.05517, 2.05372, 2.07287, 1.88697, 1.88802, 1.94431, 1.94521, 1.88803, 1.88524, 1.88493, 1.88641, 1.88277, 1.97871, 1.9763, 1.94728, 1.94492, 1.94553, 1.89174, 1.88951, 2.07408, 1.89083, 2.07272, 2.07253, 1.89003, 1.8893, 1.88909, 1.89132, 1.88987, 1.88989, 1.88671, 2.05774, 1.88621, 1.88648, 1.88646, 2.07128, 1.97544, 1.96973, 1.88563, 1.88536, 1.88191, 1.8815, 1.88304, 1.88219, 1.88081, 1.87924, 1.81008, 1.81005, 1.90722, 1.80339, 1.80546, 1.91445, 1.80284, 1.85081, 1.80315, 1.7991, 1.80011, 1.79879, 1.91085, 1.79615, 1.79659, 1.98936, 1.79317, 1.91522, 1.91666, 1.79058, 1.78934, 1.79177, 1.79034, 1.83774, 1.78838, 1.78911, 1.91675, 1.78704, 1.78601, 1.78584, 1.90556, 1.78502, 1.91637, 1.7848, 1.7837, 1.7846, 1.7846, 1.78236, 2.11022, 1.78552, 1.91395, 1.91199, 1.83657, 1.7839, 1.83792, 1.8353, 1.91108, 1.90793, 1.8805, 1.87934, 1.90443, 1.77936
1.88231, 1.81456, 1.81438, 1.81759, 1.81302, 1.81581, 1.87234, 1.81082, 1.8629, 1.81293, 1.80962, 1.9079, 1.80753, 1.80902, 1.80774, 1.80716, 1.9114, 1.80577, 1.90772, 1.89914, 1.90053, 1.80535, 1.80515, 1.8546, 1.86966, 1.80148, 1.80369, 1.80281, 1.80473, 1.89651, 1.8012, 1.85161, 1.8526, 1.80273, 1.85259, 1.7975, 1.92644, 1.80007, 1.80046, 1.85113, 1.79907, 1.80052, 1.80118, 2.07643, 1.80012, 1.80026, 1.79949, 1.79999, 1.97554, 2.05876, 1.80128, 1.80226, 2.02602, 2.02382, 1.94615, 1.94815, 1.94944, 1.94142, 2.03164, 1.93966, 1.85914, 1.93544, 1.94806, 1.85813, 1.95069, 1.93764, 1.95083, 1.94998, 1.95101, 1.93061, 1.95225, 1.93069, 2.03037, 2.04188, 1.92742, 1.92784, 1.92741, 1.95202, 1.95382, 1.95534, 1.95611, 1.9239, 1.84843, 1.84949, 1.95592, 1.92541, 1.92631, 1.95615, 1.92952, 1.85532, 1.9589, 1.95769, 1.95798, 1.95771, 1.95893, 1.95671, 1.9483, 1.87341, 2.03769, 2.01062, 2.02024, 2.01817, 2.01858, 2.01283, 2.02755, 2.01138, 1.93142, 2.0134, 2.01127, 2.0118, 1.9309, 1.93131, 1.93146, 2.02397, 2.00926, 2.00841, 2.02784, 2.00922, 1.93339, 2.02421, 2.02741, 2.02352, 2.01752, 2.04748, 2.0249, 2.01836, 2.02535, 2.02867, 2.02121, 1.94174, 2.04422, 2.03559, 2.02859, 2.01877, 2.03428, 2.02526, 2.0309, 1.94556, 2.03695, 2.02481, 2.03113, 2.02047, 2.04277, 2.03764, 1.95054, 2.04191, 1.94865, 2.04563, 2.02138, 2.04279, 2.04678, 2.02777, 2.0339, 1.95005, 2.02537, 1.94874, 2.04394, 2.03909, 2.04246, 2.05241, 2.02856, 2.03138, 2.03087, 2.02812, 2.0298, 2.02994, 2.03143, 2.0329, 2.02542, 2.02631, 2.04133, 2.04924, 1.89362, 2.05942, 1.8892, 1.98731, 1.9856, 1.88913, 1.88895, 1.93621, 1.93566, 1.88565, 1.88518, 1.98567, 1.88327, 1.88636, 1.88568, 1.97498, 1.94552, 1.94559, 1.94533, 1.8892, 1.89149, 1.88816, 1.88707, 1.89162, 2.08006, 1.88938, 1.89058, 2.0681, 1.89056, 1.88858, 1.97026, 1.93806, 1.93746, 1.8861, 1.88569, 1.88421, 1.88262, 1.96887, 1.88587, 1.88077, 2.07525, 1.8803, 1.88189, 1.88256, 1.88138, 1.87874, 1.81123, 1.91301, 1.806, 1.80499, 1.80535, 1.80465, 1.85156, 1.84902, 1.84925, 1.90996, 1.87285, 1.84757, 1.91085, 1.91134, 1.90678, 1.79557, 1.78989, 1.79368, 1.79372, 1.79004, 1.78999, 1.91025, 1.90872, 1.91086, 1.91059, 1.88707, 1.91361, 1.91737, 1.98562, 1.78429, 1.78629, 1.91187, 1.78553, 1.91641, 1.91828, 1.89366, 1.78219, 1.7864, 1.78453, 1.78428, 1.78549, 1.83459, 1.89704, 1.78768, 1.78576, 1.78881, 1.83398, 1.78348, 1.78546, 1.91008, 1.90534, 1.90294
1.81617, 1.81812, 1.8188, 1.81984, 1.81506, 1.81396, 1.81634, 1.81363, 1.81704, 1.8143, 1.81285, 1.80818, 2.07409, 2.07586, 1.90946, 1.81053, 1.8103, 1.80758, 1.80787, 1.80494, 1.80597, 1.80872, 1.90268, 1.85723, 1.80586, 1.8065, 1.80563, 1.85472, 1.80576, 1.80319, 1.80307, 1.9094, 1.90477, 1.90102, 1.90296, 1.80115, 1.85321, 1.80539, 1.90526, 1.90439, 1.90697, 1.79961, 1.89993, 1.80252, 1.80165, 1.80273, 1.9007, 1.97693, 1.97786, 1.85325, 1.96176, 1.94413, 1.9493, 1.9483, 1.94473, 1.94131, 2.03236, 1.94273, 1.94994, 2.02796, 1.94033, 2.04937, 1.94944, 1.93564, 1.85859, 1.85744, 1.93398, 1.93371, 2.02883, 1.85307, 2.03844, 1.95544, 1.95587, 1.95683, 1.95626, 2.04446, 1.92683, 1.85123, 1.95918, 1.95682, 1.95795, 1.92613, 1.84875, 1.95847, 2.03491, 2.03438, 1.95842, 1.92781, 1.85387, 1.85587, 1.9348, 1.93757, 1.93781, 1.93804, 1.86516, 1.95947, 1.95701, 1.96207, 2.03835, 2.04552, 2.02498, 2.03424, 2.01212, 2.01109, 2.0533, 2.01479, 2.01178, 2.01334, 2.01327, 1.93262, 1.93253, 1.93163, 1.93373, 2.02174, 2.01154, 1.93323, 2.02647, 2.03134, 2.01038, 2.04554, 2.00839, 2.03101, 2.02058, 1.93706, 1.93753, 2.04172, 2.01699, 2.01671, 2.02663, 2.01964, 2.01741, 2.03206, 2.02085, 2.02009, 2.01743, 2.02054, 2.04172, 2.03457, 2.03406, 2.05816, 2.02624, 2.02468, 2.03143, 2.03965, 2.03484, 2.04084, 2.04155, 2.02699, 1.94844, 1.94888, 2.03045, 2.03803, 1.94823, 2.03934, 2.03705, 2.04934, 2.03006, 2.04495, 2.03861, 2.02573, 2.02751, 1.95, 2.02966, 2.02763, 2.03061, 2.03085, 2.03157, 1.95162, 2.02838, 2.02956, 2.0271, 1.89085, 2.05954, 2.06018, 1.88695, 1.88694, 1.8864, 1.88753, 1.88585, 2.06059, 1.88672, 1.88569, 2.07371, 1.8861, 1.98568, 1.88613, 1.88606, 1.8861, 2.06194, 1.88519, 1.88627, 2.08302, 1.88662, 1.89096, 2.07663, 1.97838, 1.94071, 1.89148, 2.06073, 1.88957, 2.07689, 1.8897, 1.8904, 1.88832, 1.8893, 1.8866, 1.97552, 2.06719, 1.88207, 1.88333, 1.88531, 1.93205, 1.88551, 2.06931, 2.07928, 1.88129, 1.881, 1.8821, 1.86135, 1.85926, 1.857, 1.80495, 1.80137, 1.80039, 1.85197, 1.85122, 1.91058, 1.79864, 1.89445, 1.8948, 1.89363, 1.84627, 1.84781, 1.84433, 1.8439, 1.79235, 1.79294, 1.79304, 1.79001, 1.79, 1.8812, 1.78576, 1.88442, 1.88308, 1.88148, 1.78815, 1.78529, 1.91411, 1.78431, 1.90325, 1.78539, 1.7857, 1.83737, 1.78489, 1.78163, 1.78317, 1.78588, 1.83725, 1.89989, 1.83773, 1.83623, 1.89531, 1.89603, 1.8956, 1.83527, 1.78533, 1.91036, 1.78515, 1.78628, 1.78379
2.09653, 2.07345, 1.82012, 1.82047, 1.81975, 1.82071, 1.81771, 2.09222, 1.86538, 1.81593, 1.81434, 1.81535, 1.81285, 1.81159, 1.81326, 1.81206, 1.80947, 1.81139, 1.91298, 2.09306, 1.90943, 2.06694, 1.80844, 1.80915, 1.80978, 1.80413, 1.80866, 1.89479, 1.80667, 1.80807, 1.80468, 1.85779, 1.80623, 1.80726, 1.80559, 1.85501, 1.85726, 1.85419, 1.80568, 1.92365, 1.85418, 1.85501, 1.85475, 1.80231, 1.9856, 1.80443, 1.80601, 1.88885, 1.80464, 1.803, 1.85676, 1.95063, 1.86898, 1.94586, 1.94454, 1.94862, 1.94191, 1.9496, 1.9405, 1.86093, 1.93786, 1.95404, 1.95432, 1.9369, 1.93591, 1.93516, 1.93412, 1.95591, 1.85538, 1.85472, 1.95303, 1.8547, 1.93099, 1.92844, 1.93354, 2.0355, 2.03939, 1.95556, 1.95759, 1.85117, 1.95862, 1.92809, 2.03813, 1.92903, 1.92979, 1.93038, 1.96065, 1.93175, 1.93212, 1.96188, 1.93343, 1.93293, 1.96285, 1.96265, 1.94272, 2.04467, 1.94867, 1.95879, 2.07164, 1.89478, 2.03011, 2.03106, 2.03385, 2.03606, 2.01216, 2.01094, 2.03172, 1.93638, 1.93414, 1.93275, 1.93253, 1.93341, 1.93444, 2.01314, 2.0154, 2.03349, 2.01081, 2.01716, 2.03069, 2.04049, 1.93694, 2.01786, 2.03951, 1.93766, 2.01758, 2.03957, 2.05187, 2.02072, 2.01807, 1.94387, 2.02389, 1.94364, 2.0231, 2.02335, 2.02045, 2.02132, 2.0236, 2.04681, 2.03568, 2.03397, 2.04822, 2.04531, 2.04827, 2.02795, 2.02782, 1.95122, 2.02546, 2.02903, 2.04116, 2.03005, 2.04576, 1.95089, 2.02767, 2.03425, 2.02747, 2.03076, 2.03126, 2.02835, 2.02506, 2.03099, 2.03536, 2.03152, 2.03452, 2.03545, 2.03499, 2.03398, 2.03181, 2.02842, 1.95102, 2.04182, 2.06543, 2.0549, 1.88833, 1.8907, 1.89009, 1.88804, 1.88615, 1.88875, 1.93431, 1.88501, 1.88296, 1.88382, 1.98612, 1.88303, 1.88595, 1.88598, 1.88215, 2.09372, 1.88614, 1.88559, 1.98599, 2.0608, 1.94082, 1.94026, 1.88975, 1.8901, 1.89155, 2.06957, 1.94084, 1.88964, 1.89077, 1.89015, 1.89115, 1.8894, 1.88862, 1.88915, 1.88647, 1.88607, 1.88541, 1.88253, 1.88297, 1.88246, 1.88113, 1.87973, 1.87908, 2.07291, 1.8798, 1.87723, 1.89471, 1.85845, 1.85637, 1.90258, 1.80282, 1.79947, 1.79771, 1.9057, 1.92418, 1.89665, 1.89471, 1.89443, 1.89276, 1.79112, 1.8867, 1.84444, 1.84413, 1.99446, 1.78976, 1.90221, 1.79257, 1.79041, 1.79032, 1.78918, 1.84011, 1.83737, 1.83758, 1.78828, 1.78582, 1.78747, 1.78372, 1.78604, 1.91473, 1.91352, 1.85484, 1.78546, 1.78229, 1.84584, 1.7843, 1.78393, 1.78502, 1.91352, 1.78287, 1.91158, 1.90993, 1.91013, 1.78461, 1.78591, 1.78529, 1.90291, 1.89989, 1.78326
1.87284, 1.82201, 1.8241, 1.82249, 1.82096, 1.82045, 1.82195, 2.07668, 1.81473, 1.81511, 2.07502, 1.9172, 1.81626, 2.07439, 1.81396, 1.81543, 1.81396, 1.812, 1.81223, 1.81199, 1.81436, 1.9911, 1.8123, 2.07128, 1.80759, 1.80832, 1.81085, 1.81056, 1.80902, 1.81074, 2.06269, 1.96797, 1.85782, 1.85809, 1.90166, 1.90273, 1.80714, 1.80699, 1.85691, 1.90637, 1.80669, 1.85591, 1.80651, 1.98334, 1.90363, 1.80735, 1.85417, 1.85645, 1.80911, 1.97917, 1.8067, 1.98637, 1.95264, 1.95208, 1.95155, 1.9523, 1.9436, 1.94471, 1.9428, 1.94462, 1.94117, 1.94226, 1.94144, 1.86305, 2.03137, 1.86013, 1.95581, 1.93385, 1.9561, 1.93209, 1.85533, 1.93401, 1.93047, 1.92943, 1.85155, 1.9313, 1.93017, 1.92893, 2.05234, 1.93104, 1.92764, 1.85212, 1.92892, 1.8518, 2.05611, 1.92905, 1.9305, 1.92895, 2.04648, 1.96406, 1.9624, 1.93693, 1.96403, 1.94182, 2.0493, 1.94804, 1.87615, 2.04297, 2.04537, 2.01442, 2.01467, 2.04256, 2.00962, 2.01284, 2.01445, 1.93495, 2.01252, 2.01381, 1.93496, 1.93445, 1.93409, 1.93503, 2.01355, 2.01325, 1.93485, 2.01741, 2.0273, 2.0227, 2.02354, 2.03559, 1.93827, 2.0352, 2.03031, 2.0204, 2.01014, 1.94441, 1.94082, 2.02934, 2.03652, 2.02081, 2.02206, 2.02154, 2.04926, 2.02344, 2.05025, 2.04368, 2.04466, 2.04804, 2.02388, 2.05628, 2.05306, 2.02685, 2.02557, 2.03246, 2.02628, 2.04906, 2.02736, 1.95202, 2.02833, 2.03787, 1.95218, 2.03407, 1.95249, 2.04933, 2.03588, 2.02716, 2.02885, 1.95209, 2.03908, 1.95088, 2.03103, 2.03386, 2.03429, 2.03608, 2.03518, 2.03193, 2.02988, 2.05262, 2.03101, 2.04176, 2.04203, 1.89123, 1.8903, 1.88972, 1.93816, 1.93774, 1.88597, 1.9875, 1.93767, 1.88212, 1.88519, 1.88418, 1.88454, 1.88325, 2.08673, 2.06923, 2.07821, 1.88537, 1.88306, 1.88579, 1.886, 1.88929, 1.88897, 1.88715, 2.07738, 1.88871, 2.06974, 2.08005, 1.98383, 1.89233, 1.95788, 1.94121, 2.07412, 2.08906, 2.06026, 2.06707, 1.88679, 1.88561, 1.93561, 1.8833, 1.93409, 1.93212, 1.88232, 1.882, 1.87811, 1.92794, 1.87643, 1.8755, 1.81, 1.803, 1.80678, 1.80617, 1.80301, 1.8027, 1.80261, 1.80031, 1.90257, 1.79833, 1.89388, 1.89695, 1.89717, 1.79402, 1.79554, 1.79428, 1.90343, 1.89028, 1.7928, 1.78905, 1.79214, 1.79047, 1.88151, 1.83946, 1.7888, 1.78888, 1.89441, 1.89384, 1.83538, 1.7851, 1.91526, 1.78395, 1.90823, 1.78576, 1.90789, 1.88583, 1.90619, 1.83638, 1.78244, 1.78262, 1.78338, 1.91003, 1.78196, 1.90574, 1.78497, 1.90607, 1.90704, 1.78481, 1.78317, 1.87741, 1.83471, 1.78335
1.82442, 1.87514, 1.87637, 1.82066, 1.82339, 1.91565, 1.82074, 1.81735, 1.82082, 1.81957, 1.81728, 1.92726, 1.90295, 1.9039, 1.81707, 1.81736, 1.91226, 1.91397, 1.81537, 1.81086, 2.07577, 1.81498, 1.91646, 1.81331, 1.81333, 1.81133, 1.80796, 1.91818, 1.80982, 1.91096, 1.81017, 1.8094, 1.80848, 1.80883, 1.90727, 1.90858, 1.90996, 1.80595, 1.80708, 1.85799, 1.806, 1.91064, 1.80809, 1.90941, 1.80965, 1.8062, 1.81082, 1.97881, 1.97891, 2.06255, 1.98521, 1.94944, 1.9528, 1.94686, 1.95492, 1.94485, 1.94525, 1.94321, 1.94162, 1.94376, 1.94113, 2.05296, 2.03319, 1.93982, 1.96188, 1.95646, 2.03478, 1.9584, 1.95946, 1.93772, 1.93564, 1.93161, 1.93067, 1.93149, 1.96059, 1.96298, 1.96396, 1.96515, 1.96307, 1.96272, 1.93084, 1.8524, 1.85271, 1.92853, 1.85372, 2.04197, 2.04495, 1.96656, 1.93657, 1.9366, 1.93504, 1.94292, 1.94243, 1.86612, 1.96734, 1.95135, 1.95221, 2.04952, 2.07844, 2.03998, 2.03427, 2.03778, 2.03338, 2.01499, 2.01533, 2.01374, 2.03835, 2.01833, 2.01733, 1.93699, 1.93535, 1.93578, 2.01735, 2.01789, 2.01476, 2.0176, 2.0149, 2.01398, 2.03522, 2.03519, 2.02073, 2.04113, 2.02727, 1.94078, 2.04152, 1.94173, 2.02734, 1.94371, 2.02957, 1.94444, 2.03205, 2.0423, 2.04153, 2.05228, 2.0242, 2.02427, 2.02501, 1.94922, 1.94845, 2.04455, 2.04853, 2.02769, 2.02792, 2.02715, 2.04158, 2.0387, 2.02762, 2.03682, 2.04549, 2.02955, 2.04071, 2.03644, 2.04155, 1.94902, 2.03631, 2.0379, 2.04251, 1.95242, 2.03082, 2.02807, 2.02852, 2.02802, 2.03569, 2.03461, 2.02793, 2.03459, 2.03448, 2.03232, 1.95429, 2.03235, 1.95171, 2.08741, 1.94075, 1.93888, 1.96653, 1.93716, 1.93712, 1.97676, 2.00804, 2.00649, 1.93419, 1.93322, 1.88452, 1.88277, 1.8857, 1.8855, 1.9884, 1.88526, 1.88302, 1.88563, 1.88743, 1.88612, 1.88937, 2.06336, 2.06323, 1.88964, 1.8894, 1.99485, 1.94208, 1.89272, 1.89228, 1.89219, 1.89005, 1.89267, 1.88916, 1.88791, 1.8871, 1.97919, 2.07008, 1.88193, 1.93471, 1.93171, 1.88112, 1.88006, 1.87986, 1.87822, 1.8757, 1.87354, 1.86562, 1.80732, 1.89272, 1.80636, 1.80614, 1.80184, 1.80262, 1.80177, 1.8003, 1.80052, 1.89697, 1.84607, 1.89278, 1.89284, 1.87957, 1.7934, 1.79264, 1.79085, 1.79236, 1.79083, 1.90273, 1.7886, 1.8383, 1.84046, 1.83754, 1.83861, 1.83811, 1.78294, 1.78662, 1.91408, 1.78888, 1.78665, 1.78608, 1.7834, 1.88387, 1.78501, 1.78336, 1.78024, 1.78449, 1.7844, 1.91278, 1.88931, 1.89323, 1.89037, 1.78513, 1.88976, 1.78485, 1.83449, 1.83391, 1.78182, 1.78341, 1.78608
1.87858, 1.87854, 1.82689, 1.82387, 1.82285, 1.823, 1.82451, 1.87154, 1.87269, 1.87285, 2.09755, 1.82084, 1.91758, 1.81897, 1.92007, 1.82013, 1.819, 1.81758, 1.93555, 1.81906, 1.81705, 1.86688, 1.81382, 1.81193, 1.81275, 2.08061, 1.91368, 1.91478, 1.81338, 1.91357, 1.81297, 1.81259, 2.07324, 1.80706, 1.91047, 1.89764, 1.81006, 1.81289, 1.80954, 1.8094, 1.81046, 1.86012, 1.85988, 1.80993, 1.80943, 1.86107, 1.81033, 1.81244, 1.80963, 1.86156, 1.86148, 2.03428, 1.94819, 1.95585, 1.95867, 1.94679, 1.94788, 1.95646, 1.95624, 1.94417, 2.03848, 1.95792, 1.95898, 1.94164, 1.95897, 1.96006, 1.95848, 1.95972, 2.03866, 1.93278, 1.93489, 1.93682, 1.93601, 1.96375, 1.85469, 1.85543, 1.96462, 1.96482, 1.96598, 1.9663, 1.92891, 1.93053, 1.93064, 1.92799, 2.04244, 2.05554, 1.96813, 1.93256, 1.93262, 1.96699, 1.86224, 1.94017, 2.0469, 1.94521, 2.0673, 1.96558, 1.95184, 1.96759, 2.04604, 2.05252, 1.93895, 2.0162, 2.01448, 2.02482, 2.01694, 1.93779, 2.03524, 1.93718, 1.93781, 1.93698, 1.94115, 1.94054, 2.02107, 2.0169, 2.02956, 1.93739, 2.03203, 2.02891, 2.01779, 2.01568, 2.03566, 2.04896, 2.02791, 2.02925, 2.03113, 2.02746, 1.94315, 2.03172, 2.03243, 2.02972, 2.03828, 2.03714, 2.03981, 1.94881, 2.02417, 2.03189, 2.03611, 2.04915, 1.94994, 2.04874, 2.0265, 2.02754, 2.02811, 2.05227, 2.04984, 2.04628, 2.02489, 1.95129, 2.04112, 2.02696, 2.05034, 2.03749, 1.95266, 2.04179, 2.04039, 2.02876, 2.03057, 2.03066, 2.05595, 1.95242, 2.04702, 2.03715, 2.03377, 2.03456, 2.03581, 2.0341, 2.03332, 2.04171, 2.05091, 2.048, 2.03794, 1.89193, 2.07653, 1.88967, 1.88854, 1.93779, 1.98839, 1.9857, 1.88387, 1.93236, 1.88436, 1.98713, 1.8859, 1.88414, 1.88323, 1.88291, 1.97895, 1.88303, 1.97226, 1.93625, 1.93644, 1.93735, 1.93727, 1.88886, 1.88699, 1.89046, 1.89047, 1.89208, 2.0693, 1.89285, 1.891, 1.88987, 1.89087, 1.88987, 1.88841, 1.8894, 1.88537, 2.083, 1.8845, 2.10416, 1.88201, 1.93406, 2.0679, 1.87924, 1.87694, 1.87978, 1.96591, 1.8136, 1.81292, 1.91026, 1.89345, 1.80455, 1.8049, 1.85229, 1.85032, 1.79992, 1.79966, 1.8791, 1.79905, 1.8486, 1.79621, 1.88979, 1.79633, 1.79613, 1.79469, 1.88931, 1.84282, 1.84061, 1.78951, 1.875, 1.84229, 1.78833, 1.89668, 1.89549, 1.78631, 1.78528, 1.78611, 1.78548, 1.78272, 1.78331, 1.91021, 1.91305, 1.78398, 1.83288, 1.783, 1.83511, 1.90101, 1.78281, 1.89562, 1.78441, 1.9096, 1.83407, 1.78655, 1.78321, 1.9031, 1.7843, 1.78136, 1.78546, 1.90409, 1.78216
2.09833, 1.82932, 1.8298, 1.83052, 1.82573, 1.87857, 1.82592, 1.87543, 1.82482, 2.08999, 1.82343, 1.8232, 1.92324, 1.82255, 1.9238, 1.92407, 1.82109, 1.82142, 1.82074, 1.86935, 1.87206, 1.9069, 1.81791, 1.81924, 1.91908, 1.81337, 1.81331, 1.815, 1.90772, 1.92175, 1.81464, 1.81365, 1.81182, 1.92024, 1.91666, 1.8113, 1.81074, 1.80961, 1.81077, 1.81155, 1.81019, 1.8092, 1.80988, 1.86166, 1.86175, 1.89681, 1.89807, 1.81281, 1.81413, 1.98945, 1.98989, 1.95927, 2.03483, 1.95043, 1.94776, 1.94983, 1.95964, 1.96069, 1.9455, 1.96024, 1.86713, 1.9419, 1.94126, 1.95915, 1.93927, 1.94101, 1.86276, 1.93635, 1.85825, 1.93863, 1.96556, 1.9658, 1.93532, 1.85652, 1.85545, 1.96633, 1.85494, 1.93462, 1.93474, 1.93564, 1.93055, 1.93074, 2.04473, 1.96878, 1.93405, 1.96837, 1.85782, 2.04824, 2.04653, 1.93789, 1.93639, 1.86251, 1.93857, 2.04805, 1.87177, 1.87454, 1.95347, 1.97006, 2.05566, 2.05324, 2.02761, 2.03561, 2.01749, 2.01972, 2.02025, 2.01461, 1.94144, 1.94066, 1.93884, 1.94071, 1.94022, 2.0167, 1.93927, 2.01913, 2.02689, 2.01581, 2.03826, 2.03912, 2.02241, 2.03699, 2.03742, 2.01843, 2.03271, 2.00885, 2.03994, 2.03441, 2.03595, 2.04228, 2.04543, 2.02972, 2.02633, 1.94777, 2.04168, 1.94984, 1.94918, 2.0413, 2.06022, 2.0519, 1.95183, 1.95199, 2.02783, 2.02804, 2.02814, 2.04505, 2.0398, 2.03748, 2.0311, 2.03544, 2.03732, 2.03077, 2.03876, 2.03065, 2.03058, 2.02863, 2.04051, 2.03064, 2.02976, 2.02802, 2.0321, 2.03776, 2.02933, 2.03085, 2.03114, 2.03226, 2.03291, 2.0377, 2.03463, 2.03192, 2.02949, 2.02734, 2.05247, 1.98337, 1.88945, 1.88825, 2.08826, 1.88604, 1.88664, 1.99516, 1.97828, 1.933, 1.88514, 1.88061, 1.88185, 1.88176, 1.88362, 2.08232, 1.88242, 1.9344, 1.93454, 1.97318, 1.97228, 1.93442, 1.88743, 1.9384, 1.88867, 1.88957, 1.8871, 2.06207, 2.08364, 2.07006, 2.0813, 2.07344, 1.89082, 1.97752, 2.06577, 1.8862, 1.8854, 1.88349, 2.09347, 1.8791, 2.05905, 1.88095, 2.05707, 2.05495, 1.87907, 1.87772, 1.97627, 1.81056, 1.80973, 1.8615, 1.80919, 1.90235, 1.80601, 1.80307, 1.80339, 1.80064, 1.88691, 1.79988, 2.1069, 1.79581, 1.79561, 2.1121, 1.796, 1.79432, 1.79522, 1.88312, 1.84282, 1.84868, 1.88855, 1.79051, 1.83912, 1.83837, 1.83752, 1.8359, 1.78557, 1.90686, 1.78515, 1.78314, 1.91069, 1.78511, 1.90767, 1.9068, 1.90986, 1.78377, 1.78204, 1.91138, 1.78284, 1.88141, 1.90979, 1.78577, 1.78596, 1.78474, 1.78023, 1.90012, 1.90305, 1.89924, 1.78383, 1.9534, 1.78534, 1.89842
1.83092, 1.8325, 1.83348, 1.92534, 1.92798, 1.87973, 1.88027, 1.82978, 2.00352, 1.82853, 1.82384, 1.82778, 2.09019, 1.82146, 1.87497, 1.82202, 1.82039, 1.82327, 1.82352, 1.82141, 1.91396, 1.91725, 1.82033, 1.91988, 1.81733, 1.81649, 1.81846, 1.86679, 1.86564, 1.81625, 1.90537, 1.86327, 1.86264, 1.91701, 1.91687, 1.81293, 1.8107, 1.91462, 1.81386, 1.90659, 1.81224, 1.81401, 1.81471, 1.81411, 1.89627, 1.89883, 1.86338, 1.81365, 1.81482, 1.81642, 1.81695, 1.95143, 1.95937, 2.04431, 1.96243, 1.95254, 1.96166, 1.96161, 1.87243, 1.96205, 1.9628, 2.04201, 2.07341, 1.94149, 1.96531, 2.04253, 1.96653, 1.93903, 1.93702, 2.04126, 1.93458, 1.93422, 1.85918, 1.9658, 1.85592, 1.93547, 1.93203, 1.93399, 1.93417, 1.97019, 1.96854, 1.96917, 1.93698, 1.9698, 1.93216, 1.85661, 1.85823, 1.93733, 1.93757, 1.97147, 2.05149, 1.86454, 1.97448, 1.97223, 1.87131, 1.95352, 1.95395, 2.0757, 2.0634, 1.90109, 1.94189, 1.94132, 2.04452, 2.01876, 2.02131, 2.02829, 1.94112, 1.94154, 1.94186, 1.94059, 2.01713, 2.01672, 2.02351, 2.01891, 2.01912, 2.02067, 2.02022, 2.02023, 2.02087, 2.02097, 2.02025, 2.02071, 2.03892, 2.02015, 2.02233, 2.02148, 2.02156, 2.03381, 2.0262, 1.94837, 1.94827, 1.94845, 2.04814, 1.95081, 2.04084, 2.04251, 2.0549, 2.03065, 2.02717, 2.04678, 2.03885, 2.05504, 2.04236, 2.04877, 2.03068, 2.03067, 2.04842, 2.029, 2.03812, 2.04498, 2.04538, 2.03467, 2.05274, 2.0353, 2.03245, 2.03708, 2.03394, 2.04553, 2.0323, 2.04886, 2.03767, 2.03223, 2.03127, 2.03446, 2.03671, 2.0332, 2.03655, 1.95159, 2.05537, 2.03158, 2.03947, 1.89327, 1.94435, 1.88891, 2.08176, 1.88609, 1.88619, 1.88564, 2.07644, 1.88386, 1.88101, 1.88322, 1.88045, 1.88267, 1.88445, 2.06633, 1.88342, 1.88314, 1.88352, 1.93509, 1.93578, 1.88567, 1.8878, 1.93447, 1.88757, 2.06213, 1.88937, 1.889, 1.88845, 2.07574, 1.88856, 1.89056, 1.889, 2.06182, 2.05945, 1.88613, 1.88686, 1.88575, 1.93398, 1.93395, 1.88024, 1.87919, 2.0559, 2.05817, 1.87904, 1.87858, 1.87678, 1.87275, 1.86333, 1.80971, 1.80668, 1.80285, 1.85536, 1.85248, 1.87953, 1.80072, 1.79925, 1.79694, 1.79572, 1.84691, 1.79548, 1.79534, 1.79633, 1.79283, 1.79116, 1.79094, 1.79241, 1.88558, 1.79104, 1.78943, 1.83932, 1.83811, 1.78909, 1.78698, 1.78617, 1.78718, 1.78542, 1.87548, 1.87184, 1.83498, 1.83437, 1.89219, 1.78421, 1.78467, 1.78325, 1.90925, 1.90803, 1.78079, 1.78009, 1.90756, 1.90613, 1.78445, 1.78352, 1.78391, 1.78175, 1.78211, 1.78336, 1.90007, 1.88949, 1.8858
1.83747, 1.83238, 1.83394, 1.83358, 1.83438, 1.83553, 1.88217, 1.91629, 1.92605, 1.83061, 1.82918, 1.82777, 2.0868, 2.09309, 2.10676, 1.82657, 1.82728, 1.82688, 1.81953, 1.8213, 1.82133, 1.8242, 1.8219, 1.82244, 1.81866, 1.81983, 1.86827, 1.86876, 1.81918, 1.81657, 1.90879, 1.86637, 1.86728, 1.81617, 1.81546, 1.81631, 1.8144, 1.81666, 1.81474, 1.86415, 1.86471, 1.81616, 1.81441, 1.99623, 1.81507, 1.81514, 1.99663, 1.99722, 1.81335, 1.86561, 1.8167, 2.03847, 1.952, 1.87528, 1.95496, 1.87474, 2.0413, 1.96399, 1.94883, 1.96664, 1.96613, 1.96593, 1.96619, 2.0481, 1.9665, 1.8668, 2.06848, 1.94231, 2.05216, 1.96821, 1.96838, 1.93751, 1.97181, 1.94097, 1.93464, 1.93388, 1.85834, 1.93466, 1.93396, 1.97289, 1.93381, 1.85617, 1.97313, 1.97384, 1.9345, 1.93544, 1.93517, 1.93782, 1.97342, 1.93793, 1.93918, 1.97194, 1.94125, 1.87184, 1.97215, 1.87926, 2.04813, 2.0483, 2.06243, 2.06276, 2.02773, 1.94565, 2.03117, 1.9431, 1.94416, 2.03599, 2.02059, 2.02179, 1.94181, 2.02069, 2.02165, 2.02513, 2.01709, 2.02108, 1.94217, 2.05321, 2.04778, 2.04776, 2.03949, 2.04171, 2.02281, 2.03881, 2.03962, 2.02399, 2.02788, 2.02412, 1.948, 1.94816, 2.03102, 1.94936, 2.03807, 1.95066, 2.04046, 2.03726, 2.0443, 1.95066, 2.05579, 2.04125, 2.03041, 2.03272, 2.0313, 2.0356, 2.0308, 2.04822, 2.04514, 1.95373, 1.95442, 2.06168, 2.03094, 1.95246, 2.04809, 2.02814, 2.04782, 2.03773, 2.04582, 2.03965, 2.03265, 2.05022, 2.04243, 2.02855, 1.95441, 2.03409, 2.03387, 2.03542, 2.03778, 2.03849, 1.95391, 1.95318, 1.95451, 2.03208, 2.03355, 1.8902, 1.88852, 2.06419, 1.88817, 1.88076, 1.88587, 1.88345, 2.08632, 2.08273, 1.98637, 1.88391, 2.06553, 2.06514, 1.88228, 2.08378, 1.88207, 2.07985, 1.88564, 2.06339, 1.88565, 1.88796, 1.88638, 1.88645, 1.88544, 2.07293, 1.88883, 1.88963, 1.8898, 1.88778, 1.88955, 1.89, 1.88691, 1.9382, 2.0791, 1.97029, 1.93564, 1.93422, 1.88298, 1.88158, 1.88045, 1.87901, 1.87827, 1.87926, 1.8789, 1.87737, 1.8753, 1.81327, 1.81196, 1.81073, 1.80885, 1.80613, 1.80374, 1.80234, 1.80035, 1.80231, 1.8745, 1.84804, 1.87641, 1.87836, 1.84412, 1.79645, 1.88373, 1.79323, 1.79232, 1.79107, 1.79021, 1.89809, 1.89611, 1.88366, 1.8951, 1.90353, 1.78629, 1.78692, 1.78879, 1.90196, 1.78184, 1.90943, 1.84524, 1.78523, 1.78199, 1.90718, 1.78317, 1.90622, 1.83462, 1.83192, 1.90318, 1.78197, 1.90684, 1.89803, 1.78612, 1.7847, 1.90367, 1.90563, 1.90423, 1.78219, 1.90071, 1.78307, 1.84001, 1.83235
1.88721, 1.83992, 1.83726, 1.8383, 2.10677, 2.10841, 1.83428, 1.83726, 1.83149, 1.88174, 1.83029, 1.83, 1.83, 1.87869, 1.87844, 1.87913, 1.87706, 1.87873, 1.82555, 1.82507, 1.9449, 1.82449, 1.8244, 1.82135, 1.82074, 1.94171, 1.8706, 1.82096, 1.88162, 1.86931, 1.86976, 1.8173, 1.81693, 1.81354, 1.81706, 1.81661, 1.81538, 1.99772, 1.90734, 1.91705, 1.99739, 1.8148, 1.81443, 1.81418, 1.81518, 2.00028, 1.8165, 1.81733, 1.81765, 1.81836, 1.86822, 1.95846, 1.87703, 1.95431, 2.04792, 2.04807, 1.96636, 2.04481, 1.96787, 1.94795, 1.94879, 1.94579, 1.945, 1.86717, 2.06025, 1.94239, 1.94191, 2.04668, 1.93948, 1.93925, 1.93956, 1.93814, 1.86065, 1.97446, 1.93734, 1.97305, 1.93461, 1.85775, 1.8576, 1.85668, 1.97215, 2.07035, 1.9357, 1.93467, 1.974, 1.93283, 1.85964, 1.86267, 1.94447, 1.93797, 1.97372, 2.07685, 1.97319, 1.97569, 1.87419, 1.95592, 1.97283, 1.9728, 2.06372, 1.90372, 2.02262, 2.03728, 2.02176, 2.02396, 2.02426, 2.04214, 1.94572, 2.02446, 2.02549, 2.02828, 2.02272, 2.02952, 2.02624, 2.02711, 1.94497, 2.02291, 2.02209, 2.0208, 2.0447, 2.02233, 2.02197, 2.04499, 2.05501, 2.04501, 2.0241, 2.02378, 2.02147, 1.94963, 2.0273, 2.021, 2.04539, 2.02579, 2.03742, 2.05292, 1.95143, 2.04542, 1.95423, 2.04562, 2.04045, 1.95178, 2.03587, 2.0423, 2.04196, 2.04785, 2.05269, 2.03653, 2.03123, 2.0515, 2.03192, 2.03917, 2.0396, 2.03933, 2.03633, 2.02788, 2.04654, 2.04566, 1.95369, 2.04122, 1.95437, 2.03172, 2.0506, 2.03099, 2.03808, 2.03397, 2.03542, 2.03581, 2.03289, 2.03268, 2.03093, 2.0451, 2.04131, 1.8903, 1.98613, 1.88817, 2.09309, 1.88554, 2.08089, 1.88602, 1.88684, 1.88233, 1.98643, 2.08606, 1.88502, 1.88336, 1.88439, 1.88332, 2.06693, 1.8834, 1.9895, 1.88501, 2.06617, 2.08975, 1.88881, 1.88734, 1.88686, 2.08717, 2.08104, 2.08188, 2.0767, 1.88935, 1.89034, 2.07687, 1.88939, 1.88872, 1.88763, 1.97931, 1.882, 1.88575, 1.88448, 1.88393, 1.8824, 1.88334, 1.88049, 2.06972, 1.87549, 1.87775, 1.87563, 1.81534, 1.81071, 1.80828, 1.80729, 1.89952, 1.80443, 1.80099, 1.80057, 1.80015, 1.79705, 1.79827, 1.79511, 1.88821, 1.88732, 1.79545, 1.79331, 1.79125, 1.79233, 1.8649, 1.79225, 1.89343, 1.79016, 1.89313, 1.78778, 1.78576, 1.89944, 1.89996, 1.90926, 1.78554, 1.78304, 1.83467, 1.7824, 1.78561, 1.91086, 1.78501, 1.90235, 1.83324, 1.78334, 1.8335, 1.77952, 1.91042, 1.78366, 1.78103, 1.90472, 1.78317, 1.78129, 1.90158, 1.90057, 1.90159, 1.90118, 1.78239, 1.83078, 1.78019
1.84181, 1.84154, 1.83915, 1.84057, 1.838, 1.83766, 1.83744, 1.83376, 1.83611, 1.83507, 1.83376, 2.10062, 2.09424, 1.83097, 1.83092, 1.83184, 1.87962, 1.99275, 1.87801, 1.83025, 1.82577, 1.82635, 1.82361, 1.92815, 1.92898, 1.92898, 1.82389, 1.92737, 1.8206, 1.82239, 1.92655, 1.92753, 2.00096, 1.81921, 1.9148, 2.00649, 1.81587, 2.0048, 1.92009, 1.90714, 1.87796, 1.81686, 1.8162, 2.00371, 2.00429, 1.99761, 1.82041, 1.81849, 1.86847, 1.86833, 1.86839, 1.95559, 1.87974, 2.04832, 1.95514, 1.95451, 1.96679, 1.95249, 1.9687, 2.04588, 1.95087, 2.06839, 1.9478, 1.8684, 1.94301, 1.96961, 1.94394, 1.97152, 1.94194, 1.94421, 1.94022, 1.97443, 1.86279, 1.93771, 1.93561, 1.93599, 1.9413, 1.93643, 1.97679, 1.97512, 1.93486, 1.93467, 1.93819, 1.97499, 1.93828, 1.93851, 2.05573, 1.97595, 1.86425, 1.94215, 1.94477, 1.94593, 1.97615, 1.87463, 1.87672, 1.95595, 1.95831, 1.88758, 2.06021, 1.90483, 2.04263, 2.04686, 1.95019, 2.02865, 2.03961, 2.03508, 1.94616, 2.02755, 2.02549, 2.03115, 2.03004, 1.9463, 2.02807, 2.02688, 1.94604, 2.02359, 2.02384, 2.02283, 2.0467, 2.05059, 2.04019, 1.94596, 1.94805, 1.94833, 2.04211, 2.02908, 2.0346, 2.0262, 2.03455, 1.95219, 1.95348, 2.03151, 2.02967, 2.03077, 2.03225, 2.03104, 2.04243, 2.0453, 2.03909, 2.0366, 2.04537, 2.04649, 2.04518, 2.05129, 2.04622, 2.03984, 1.95498, 2.03215, 2.0322, 2.03081, 1.95502, 2.03576, 1.95441, 2.04965, 2.052, 2.05067, 2.03912, 2.03921, 2.05969, 2.02908, 2.03425, 2.03207, 2.03496, 2.03419, 2.03444, 2.0317, 2.03782, 2.03284, 2.03093, 2.03162, 2.04795, 1.8895, 2.07387, 2.0731, 2.0671, 1.8853, 1.98945, 1.88672, 1.88577, 1.88445, 2.06256, 1.88566, 2.06257, 1.88588, 1.88469, 2.08618, 1.88555, 1.88504, 1.88388, 1.88273, 1.88502, 1.88601, 2.06532, 1.98317, 1.88567, 1.88587, 1.88332, 2.07679, 1.88882, 1.88855, 1.88592, 2.05997, 2.06747, 2.06583, 1.88787, 1.88548, 2.07327, 1.88257, 1.88222, 1.88262, 1.88182, 2.06924, 1.8789, 1.87835, 1.87702, 1.92957, 1.92858, 1.81217, 1.90443, 1.85923, 1.80371, 1.8055, 1.80279, 1.80021, 1.88559, 1.88414, 1.79799, 1.7969, 1.79681, 1.79715, 1.84526, 1.84188, 1.79253, 1.89017, 1.79066, 1.79109, 1.89267, 1.78907, 1.7861, 1.78565, 1.7854, 1.90007, 1.90246, 1.78536, 1.78529, 1.78306, 1.86255, 1.88902, 1.78229, 1.90347, 1.78378, 1.78612, 1.78296, 1.90688, 1.78182, 1.78538, 1.78358, 1.78352, 1.78361, 1.78208, 1.78249, 1.78125, 1.78039, 1.78076, 1.78009, 1.90065, 1.89879, 1.83372, 1.78246, 1.77883
1.84399, 1.84306, 1.89233, 1.89141, 1.89351, 1.84014, 1.93889, 1.9367, 1.83822, 1.83666, 1.88543, 1.88609, 1.83435, 1.83521, 1.83443, 1.88285, 1.83107, 1.88072, 1.88074, 1.8311, 1.83139, 1.93361, 1.82633, 1.93131, 1.92505, 1.82561, 1.82504, 1.87596, 1.92825, 1.93127, 1.8214, 2.00968, 2.00684, 1.92704, 1.87096, 1.81952, 1.92287, 1.81747, 1.86979, 1.8696, 1.81804, 1.86806, 1.86843, 1.8172, 1.81763, 2.00173, 1.99658, 2.00349, 1.81722, 2.07944, 1.82082, 1.95708, 1.95696, 1.95895, 1.95907, 1.97212, 1.97151, 1.95202, 1.95602, 1.94968, 1.87545, 1.94931, 1.94763, 1.94738, 1.94582, 1.94541, 1.94469, 1.9447, 1.94182, 1.86804, 1.97489, 1.97581, 1.9388, 2.05936, 1.86203, 1.8602, 1.97616, 1.93358, 1.93528, 1.93686, 1.9367, 1.9752, 1.97637, 1.97697, 1.93668, 1.93882, 1.86321, 1.86448, 1.86487, 1.97814, 2.0558, 1.97841, 1.94917, 1.87277, 1.95525, 1.9772, 1.95888, 1.97718, 2.07544, 1.90727, 2.04496, 2.0459, 2.04893, 2.03521, 2.04134, 2.02569, 1.94959, 2.0264, 1.94824, 2.02347, 2.02737, 2.02837, 2.0308, 2.02407, 2.0245, 2.04639, 2.04232, 2.06941, 2.03505, 2.02601, 2.02786, 1.94887, 2.03073, 2.02972, 2.04033, 1.94905, 2.0393, 2.03628, 2.03417, 2.02502, 2.03615, 1.95211, 2.03481, 2.04153, 2.03907, 2.04139, 2.03244, 2.04291, 2.04383, 2.03843, 2.03696, 1.95584, 2.03649, 2.03513, 2.04139, 2.05696, 1.95513, 2.03749, 2.03347, 1.95472, 1.9545, 2.03879, 2.04837, 2.05076, 2.03225, 2.04395, 2.02983, 2.05138, 2.03145, 2.04623, 2.03127, 2.03524, 2.03419, 2.03466, 2.03547, 2.03825, 2.0414, 2.03221, 2.0348, 2.03237, 2.03147, 1.89173, 1.89018, 1.88911, 1.88778, 1.88395, 1.88273, 1.88511, 1.88388, 1.88511, 1.88378, 1.8828, 1.88616, 1.9883, 1.98646, 1.88542, 1.88553, 1.93351, 1.93394, 1.93502, 1.93459, 1.93425, 1.88594, 1.88631, 1.88822, 1.88587, 1.8854, 1.88586, 1.88773, 1.88638, 1.88601, 2.05898, 1.88604, 1.88554, 2.08611, 1.88667, 1.88567, 1.88346, 1.88198, 1.883, 1.97816, 1.87922, 1.88193, 1.87765, 1.9664, 1.93072, 1.87906, 1.8131, 1.80985, 1.85824, 1.85756, 1.80365, 1.89875, 1.85263, 1.91706, 1.91481, 1.79759, 1.79555, 1.84499, 1.84479, 1.79274, 1.89341, 1.84146, 1.79243, 1.78881, 1.89683, 1.88354, 1.89615, 1.78406, 1.78428, 1.90369, 1.89976, 1.78523, 1.78394, 1.90031, 1.87794, 1.83314, 1.90332, 1.78585, 1.78411, 1.78458, 1.78356, 1.90883, 1.78228, 1.77965, 1.90793, 1.78314, 1.7805, 1.78483, 1.89344, 1.90491, 1.78093, 1.7802, 1.78278, 1.83428, 1.90653, 1.78233, 1.7817, 1.7824, 1.78137
1.84473, 1.84766, 1.92797, 1.89633, 1.91187, 1.84333, 1.84226, 1.84347, 1.9439, 1.83851, 1.84004, 1.94143, 1.83618, 1.94091, 1.83376, 1.83431, 1.83219, 1.83395, 1.83387, 1.83424, 1.83021, 1.83113, 1.82972, 1.90328, 1.9271, 1.82881, 1.82701, 1.82706, 1.82693, 1.82798, 1.93007, 2.10962, 1.8207, 1.82224, 1.82063, 1.82127, 1.91929, 1.87276, 1.81992, 1.91174, 1.87017, 1.82051, 1.87215, 1.81818, 1.82083, 1.92079, 1.82021, 1.82107, 1.82016, 2.00857, 1.82058, 2.06056, 1.97248, 1.95899, 1.973, 1.87859, 1.95851, 1.97551, 1.97554, 1.97442, 1.95271, 1.95231, 1.87237, 1.94869, 1.94922, 1.97555, 1.94483, 1.94591, 2.05979, 1.94212, 1.97669, 1.94624, 1.94784, 1.86444, 1.93769, 1.93866, 1.93852, 1.9448, 1.86241, 1.93814, 1.93849, 1.97994, 1.97745, 1.93834, 1.93784, 1.93825, 2.05958, 1.94498, 1.94274, 1.98241, 1.9477, 1.94978, 1.87385, 1.97998, 1.95398, 2.07477, 1.88646, 2.07045, 2.07682, 1.90864, 2.03205, 2.02889, 2.02888, 2.052, 2.05581, 1.94924, 2.03053, 2.02375, 2.02777, 1.9501, 1.95018, 1.94946, 1.94921, 2.03126, 2.02711, 2.02598, 2.03086, 2.04525, 1.948, 2.02787, 1.95151, 2.0404, 2.03626, 2.02897, 2.02831, 1.95186, 1.95293, 1.95424, 2.04052, 2.04416, 2.04515, 2.03552, 2.04076, 2.04432, 2.03727, 2.04133, 2.04565, 2.04621, 2.04046, 2.04091, 1.95638, 2.04874, 1.95798, 2.05049, 2.05113, 2.04284, 2.03301, 1.95696, 2.03847, 2.03226, 2.04728, 2.03942, 2.04644, 2.06165, 2.04681, 2.03294, 2.03206, 2.03419, 2.03303, 2.03226, 2.03454, 2.03314, 2.03415, 2.03742, 2.03651, 2.03544, 2.0378, 2.03723, 2.03575, 2.03217, 2.03832, 2.04272, 1.88976, 1.88769, 1.88697, 1.88593, 1.88349, 1.93618, 1.88364, 1.98777, 1.88538, 1.98619, 1.88495, 1.88555, 2.0852, 1.88448, 1.88685, 1.88517, 1.93672, 1.88663, 1.88544, 1.93511, 1.88608, 1.88439, 1.98608, 1.88639, 1.88646, 1.88611, 1.88618, 2.08076, 1.88625, 1.97748, 1.88715, 2.05995, 1.88606, 1.88551, 1.88501, 2.05885, 1.88276, 1.93188, 1.88197, 1.93151, 1.88017, 1.88085, 1.87814, 1.87859, 1.87596, 1.89974, 1.86053, 1.8941, 1.80409, 1.80263, 1.80108, 1.79952, 1.90329, 1.79881, 1.8494, 1.86976, 1.79433, 1.79228, 1.79172, 1.79148, 1.78981, 1.78938, 1.90045, 1.78644, 1.78483, 1.87604, 1.78179, 1.90527, 1.90386, 1.78266, 1.78614, 1.78437, 1.78223, 1.83965, 1.8341, 1.83171, 1.90129, 1.78333, 1.78187, 1.83512, 1.83387, 1.78277, 1.89227, 1.77969, 1.7827, 1.78275, 1.78078, 1.77724, 1.78258, 1.78158, 1.77853, 1.78214, 1.78133, 1.77952, 1.90027, 1.77907, 1.78057, 1.7762
1.84816, 1.84967, 1.85004, 1.89754, 1.89777, 1.94212, 1.84293, 1.84447, 1.84448, 1.94467, 1.94467, 2.09959, 2.10482, 2.10435, 1.83782, 1.83531, 1.83555, 1.83536, 1.93787, 1.83171, 1.8326, 2.01701, 1.83308, 2.1073, 1.82901, 1.93835, 1.82981, 1.87974, 1.82889, 1.92935, 1.9348, 1.93431, 1.82649, 1.82593, 1.93326, 2.01257, 1.82161, 1.82105, 1.93091, 1.82325, 1.82106, 1.92356, 1.81729, 2.0023, 1.92162, 1.82243, 1.82276, 1.823, 1.82182, 1.8205, 1.822, 1.96339, 1.95995, 1.96193, 2.05844, 2.06212, 2.05289, 2.05677, 1.95505, 1.95536, 1.95333, 1.95309, 1.97769, 1.94882, 1.9513, 1.87132, 1.94749, 1.94756, 1.94578, 1.94586, 1.86638, 1.94644, 1.97979, 1.94156, 1.94093, 1.94102, 1.94054, 1.94038, 1.98183, 1.98198, 1.94099, 1.93928, 2.05995, 1.93946, 1.98196, 1.98235, 1.98262, 1.98278, 1.94476, 1.87074, 1.94761, 2.06004, 2.05857, 2.05809, 1.98175, 1.95982, 1.97992, 1.98219, 1.9823, 2.06584, 1.95467, 2.05645, 2.02911, 2.02876, 2.05483, 2.05508, 2.03377, 2.03248, 2.02912, 1.9514, 1.95163, 2.03127, 2.02736, 2.02589, 2.02843, 2.02788, 2.02802, 2.02776, 2.02733, 2.02768, 2.04462, 2.03582, 2.03648, 2.03202, 2.03035, 2.04128, 2.06643, 2.04926, 2.04671, 2.0459, 2.04301, 1.95897, 2.03488, 2.04165, 2.03429, 2.03403, 2.04164, 2.04544, 2.03896, 2.04109, 1.9581, 2.06579, 2.04246, 2.04207, 2.04866, 2.04847, 2.04159, 2.04774, 1.95656, 1.95806, 2.04781, 2.04269, 2.04054, 1.95542, 2.05877, 2.04544, 2.04386, 1.95572, 2.03245, 2.03426, 2.03512, 2.03586, 2.03563, 1.95595, 2.03906, 2.03584, 2.03243, 2.03265, 2.03521, 2.04479, 1.95532, 1.98244, 1.88812, 1.88708, 1.88548, 1.88524, 1.88469, 1.88565, 1.88373, 1.88476, 1.88574, 1.88204, 1.88404, 1.96385, 1.96235, 1.98625, 1.88392, 2.06532, 2.06195, 1.88421, 1.88717, 2.09359, 2.06533, 2.06566, 1.88409, 1.98412, 1.88342, 1.88605, 2.05585, 1.88379, 1.88955, 1.88731, 2.0699, 1.88548, 1.88591, 1.88495, 1.88238, 1.88247, 1.88141, 1.881, 1.88018, 2.07359, 1.88174, 1.87731, 1.88147, 1.87962, 1.87882, 1.89473, 1.90641, 1.90392, 1.8932, 1.80389, 1.90478, 1.95613, 1.84857, 1.84779, 1.84659, 1.84476, 1.79031, 1.79197, 1.78868, 1.90636, 1.79027, 1.88929, 1.87831, 1.83558, 1.78427, 1.83422, 1.834, 1.8849, 1.78345, 1.78505, 1.78454, 1.78328, 1.78265, 1.83357, 1.78484, 1.89115, 1.88835, 1.95648, 1.90377, 1.90415, 1.78049, 1.78302, 1.90384, 1.90702, 1.78122, 1.89228, 1.78239, 1.78333, 1.78034, 1.77996, 1.78139, 1.90254, 1.87488, 1.9005, 1.78332, 1.90195, 1.90411, 1.77921
1.94741, 1.94951, 1.85377, 1.8513, 1.94221, 1.94601, 1.84779, 1.89638, 2.00974, 1.8965, 1.9334, 1.84357, 1.84394, 1.84216, 1.83966, 1.8362, 1.83862, 1.83664, 2.10035, 1.88521, 1.83669, 1.83657, 1.83311, 1.83321, 1.95306, 1.8333, 1.93807, 1.83004, 1.87939, 1.88034, 2.01654, 1.82751, 2.01356, 1.82754, 1.82672, 1.82699, 1.82663, 2.01051, 1.92426, 1.91673, 1.82347, 1.87229, 1.87229, 1.82312, 1.82372, 1.82212, 1.94401, 1.82217, 1.91828, 1.92495, 1.87418, 1.96415, 2.05658, 2.0612, 2.06239, 1.95998, 1.95813, 1.95772, 2.06226, 1.95521, 1.97929, 1.87767, 1.87607, 2.07601, 1.97869, 1.97955, 1.87148, 1.94748, 1.94868, 1.94524, 1.98256, 1.94654, 1.94257, 1.94194, 1.86537, 1.98028, 1.86417, 1.86272, 1.98401, 1.98374, 1.86365, 1.94158, 1.94102, 1.8652, 1.98541, 1.94357, 1.94691, 1.94687, 1.869, 1.98258, 1.98435, 1.98345, 1.95552, 1.95643, 1.95753, 1.8828, 1.96559, 1.98379, 2.08731, 2.05971, 2.04165, 2.04888, 2.03214, 2.03197, 2.05106, 2.03027, 2.03189, 2.03147, 2.03163, 1.95101, 2.03513, 2.03445, 2.03228, 2.03214, 2.03013, 2.03001, 2.02909, 2.02994, 2.0284, 2.04563, 2.04406, 2.05332, 2.05975, 2.05186, 2.05173, 2.0398, 2.04863, 2.04521, 2.03683, 2.03833, 2.0384, 1.95613, 1.95841, 2.04458, 2.04564, 2.048, 2.04437, 2.04804, 2.04935, 2.04454, 1.95912, 2.06581, 2.06269, 1.95838, 2.04969, 2.05457, 1.95782, 2.0331, 2.03703, 2.03548, 2.05252, 2.04548, 2.03184, 1.95775, 2.04126, 1.95819, 2.03252, 2.03843, 2.0515, 2.05648, 2.03597, 2.03709, 2.03752, 2.03752, 2.03706, 2.03543, 2.03473, 2.03428, 2.04305, 2.04651, 2.03479, 1.88805, 1.88902, 1.88899, 2.06682, 2.06615, 2.08666, 1.88499, 1.88289, 1.88231, 1.9844, 1.88511, 1.88379, 2.0669, 1.88283, 1.93913, 1.94761, 1.94519, 1.94149, 2.07397, 2.08135, 1.88268, 2.0637, 2.07653, 1.98424, 1.98278, 1.88243, 2.07423, 1.88611, 1.88616, 1.88519, 1.9842, 1.88525, 1.88467, 1.8839, 1.88199, 1.88086, 1.88165, 1.88122, 1.88225, 1.88059, 1.87889, 1.8788, 1.87984, 1.88099, 1.87858, 1.87816, 1.90657, 1.90505, 1.80778, 1.90097, 1.89941, 1.90736, 1.90599, 1.7965, 1.79628, 1.90722, 1.79421, 1.79266, 1.79147, 1.84133, 1.78947, 1.83749, 1.78878, 1.78622, 1.78629, 1.83538, 1.83475, 1.8338, 1.78408, 1.78286, 1.78274, 1.91002, 1.9027, 1.78313, 1.78427, 1.78321, 1.90147, 1.78476, 1.90585, 1.90592, 1.78275, 1.78454, 1.83446, 1.83229, 1.83103, 1.90554, 1.78147, 1.78339, 1.78322, 1.90377, 1.78253, 1.82841, 1.77838, 1.77888, 1.78129, 1.77981, 1.83046, 1.90161, 1.78136
1.85257, 1.90324, 1.90324, 1.85291, 1.85286, 1.92247, 2.13303, 1.89916, 1.89925, 2.01211, 1.89662, 1.96034, 1.93899, 1.94602, 1.94665, 2.02791, 1.93993, 1.9585, 1.9584, 1.96184, 1.94714, 1.94109, 1.83614, 1.94419, 1.83427, 1.94265, 1.8842, 1.83411, 1.83426, 1.99958, 1.92762, 1.82675, 1.82711, 1.88494, 1.82905, 1.82763, 1.82736, 2.01543, 1.82721, 1.93206, 1.87488, 1.87478, 1.82375, 1.91606, 1.87418, 1.82387, 2.00466, 1.82405, 1.82476, 1.82499, 1.8269, 1.8891, 1.96502, 2.06233, 2.05915, 2.05947, 1.96179, 1.95939, 1.98341, 1.95834, 1.95763, 1.9578, 2.08557, 1.95183, 1.95148, 1.95151, 1.94894, 1.94786, 1.94758, 2.06918, 1.94742, 1.86835, 1.94456, 1.94393, 1.86727, 1.94318, 1.94374, 1.86491, 2.07021, 1.94123, 1.9399, 1.94161, 1.86612, 1.94347, 1.86572, 1.86633, 1.94472, 1.94492, 1.94811, 1.94775, 1.94907, 1.95408, 1.95338, 1.95716, 1.95751, 1.96157, 1.98393, 1.97235, 2.07925, 1.95645, 1.95735, 2.03644, 2.04887, 2.03161, 2.03119, 2.03057, 2.02966, 2.03477, 1.95517, 1.95188, 2.03218, 2.03594, 2.03419, 2.04423, 2.04559, 2.03821, 2.03139, 2.03157, 2.05274, 2.05135, 1.95439, 2.03808, 2.05153, 2.04911, 2.03117, 2.03056, 2.04977, 1.95813, 1.95714, 2.03306, 1.95842, 2.04124, 2.05571, 2.04595, 2.04946, 2.04641, 2.05514, 2.05215, 2.0513, 2.04208, 1.96008, 2.04251, 2.04206, 2.04123, 1.95978, 2.04618, 2.05352, 2.03639, 2.05167, 2.05562, 2.03584, 2.03471, 1.95844, 2.03638, 2.05523, 2.03575, 2.05901, 2.05897, 2.05334, 2.05597, 2.03299, 2.0376, 2.03552, 2.03761, 2.03683, 2.03878, 2.0351, 2.03473, 1.9553, 2.04649, 1.95748, 1.97613, 1.96125, 1.88903, 1.88587, 2.08359, 1.88546, 1.88405, 1.88358, 1.98935, 1.98863, 1.99054, 1.88398, 1.99032, 1.88416, 1.93582, 1.93682, 1.98645, 1.88433, 1.88284, 1.88475, 2.06739, 2.06596, 1.88286, 1.98288, 1.88728, 1.88584, 1.97272, 1.88372, 1.88325, 1.88664, 1.88341, 1.88529, 1.93382, 1.97216, 1.88284, 1.88047, 1.88367, 1.87896, 2.07275, 1.88168, 1.88015, 1.88204, 2.05521, 2.05432, 1.87943, 1.86431, 1.89966, 1.90393, 1.92537, 1.80707, 1.86351, 1.80039, 1.79829, 1.7985, 1.91418, 1.79567, 1.79587, 1.79073, 1.88197, 1.79003, 1.78669, 1.78721, 1.78731, 1.91304, 1.78109, 1.78535, 1.78474, 1.78142, 1.78297, 1.78174, 1.78024, 1.7818, 1.78445, 1.78229, 1.78047, 1.78187, 1.78012, 1.78355, 1.90644, 1.8331, 1.91028, 1.78038, 1.90407, 1.78204, 1.78302, 1.78224, 1.78245, 1.89999, 1.78127, 1.89277, 1.78354, 1.78221, 1.90339, 1.78097, 1.90177, 1.77975, 1.77859, 1.77957, 1.77683
1.94896, 1.94861, 1.94286, 1.85579, 1.85549, 1.85166, 1.94268, 1.8522, 1.84955, 1.84859, 1.84864, 1.84875, 1.93718, 1.93864, 1.8445, 1.84422, 1.84485, 1.8445, 1.84119, 1.84357, 1.93479, 1.93473, 1.8395, 1.83802, 1.94911, 1.8348, 1.94502, 2.02377, 1.83403, 1.83334, 1.83385, 1.88305, 1.83161, 1.87989, 1.92666, 1.92881, 1.94738, 1.82749, 1.90343, 1.87667, 1.82467, 1.8244, 1.82566, 1.93093, 1.93019, 1.82635, 1.9274, 1.82684, 1.8268, 2.01949, 2.0202, 1.96737, 2.06236, 1.96571, 1.96632, 2.0682, 2.06884, 1.98597, 1.95947, 1.9602, 1.9602, 1.87928, 1.87824, 1.95512, 2.0708, 1.98594, 1.87396, 1.95143, 1.87349, 2.07983, 1.98261, 1.9859, 1.98636, 1.94891, 1.9449, 1.98742, 1.98774, 1.98547, 1.94453, 1.94341, 1.943, 1.86693, 1.86594, 1.94439, 1.94416, 1.98852, 1.86828, 1.94934, 1.87149, 1.8719, 1.95183, 1.9867, 1.98651, 1.88222, 1.96131, 1.9629, 1.96801, 1.98592, 2.08442, 1.96128, 1.95911, 2.05767, 1.96066, 2.04862, 2.05267, 1.95821, 2.03724, 1.95618, 1.95531, 1.956, 1.9549, 2.0355, 2.03604, 2.03088, 2.03088, 2.04585, 1.95568, 2.03156, 2.03271, 2.03158, 2.0314, 2.0468, 2.03179, 2.05188, 2.06273, 1.9566, 1.95623, 2.03759, 1.95901, 1.95805, 1.95911, 2.04362, 1.95839, 2.04715, 2.05301, 2.0527, 2.04111, 2.04805, 2.04201, 1.96199, 2.04494, 1.96065, 2.05597, 2.067, 2.04751, 1.95875, 1.95957, 2.04903, 2.05024, 2.06295, 1.96264, 2.05401, 2.03783, 1.95888, 2.0348, 2.04181, 2.03622, 2.04456, 2.03849, 2.03471, 2.03363, 2.03878, 2.04127, 1.95664, 2.04155, 2.03343, 2.03276, 2.05003, 1.95609, 1.95703, 2.05969, 1.88715, 2.09023, 1.88582, 1.88532, 1.88453, 1.88559, 1.88401, 1.88273, 1.88371, 1.989, 1.98621, 1.88231, 1.8825, 1.97917, 2.07444, 1.98964, 1.8845, 1.88399, 1.88462, 1.98042, 1.936, 1.88581, 1.88413, 1.8838, 1.88413, 1.88507, 1.96769, 1.96574, 1.88319, 1.88491, 1.88402, 2.07902, 1.88332, 1.88556, 1.97961, 2.05891, 2.08009, 1.88182, 1.8806, 1.88101, 1.88113, 1.88154, 2.05657, 2.06261, 1.88085, 1.81301, 1.81199, 1.80988, 1.80582, 1.85471, 1.85235, 1.80052, 1.84802, 1.79922, 1.84839, 1.79434, 1.79143, 1.79056, 1.8868, 1.91325, 1.78569, 1.90903, 1.7845, 2.10454, 1.78413, 1.78299, 1.90702, 1.77921, 1.91029, 1.78211, 1.78044, 1.90743, 1.90693, 1.78275, 1.78037, 1.78175, 1.7792, 1.88066, 1.78269, 1.78235, 1.90915, 1.90445, 1.783, 1.77906, 1.89938, 1.7796, 1.78296, 1.90585, 1.77996, 1.77924, 1.7805, 1.77993, 1.90569, 1.78192, 1.7791, 1.83644, 1.83554, 1.77722, 1.7768
1.90812, 1.85928, 1.94488, 1.90842, 1.95951, 1.96138, 1.85775, 1.85491, 1.95441, 1.8519, 1.85296, 1.85158, 1.84995, 1.84882, 1.8461, 1.84544, 2.02764, 1.84487, 1.84422, 1.84479, 1.84282, 1.84384, 1.89239, 1.84111, 1.84071, 1.83849, 1.84048, 1.83537, 1.8354, 1.8357, 1.8337, 1.8324, 1.83148, 1.83192, 1.83182, 1.83267, 1.8308, 1.93851, 1.82968, 1.82877, 1.82847, 1.83043, 1.82714, 1.92966, 1.82417, 1.82651, 1.82963, 2.00785, 1.82842, 1.82971, 2.00022, 1.96855, 1.98601, 1.96654, 1.96888, 2.06873, 2.06662, 1.98709, 1.96433, 1.9614, 1.98741, 1.95657, 1.88164, 2.08334, 1.87888, 1.98784, 1.95403, 1.95441, 1.95216, 2.08151, 1.9482, 2.06249, 1.94944, 2.07382, 1.94576, 1.86883, 1.94643, 1.86827, 1.86823, 1.94459, 1.98619, 1.98691, 1.98897, 1.86788, 1.98872, 1.94613, 1.86909, 1.99034, 1.98923, 1.95034, 2.07211, 1.95753, 1.9563, 1.88254, 1.88521, 1.96353, 1.96853, 1.97418, 2.08589, 2.07376, 2.05961, 1.96167, 1.95965, 2.06623, 2.03635, 2.03544, 2.03195, 1.95832, 1.9572, 1.95545, 2.03515, 1.9578, 1.95579, 1.95613, 2.04299, 2.03233, 2.0326, 2.04178, 2.04757, 2.03495, 2.03404, 2.0342, 2.03405, 2.05459, 2.04851, 2.04261, 1.95892, 2.05283, 2.05936, 2.05547, 2.06734, 1.95902, 2.049, 2.04929, 1.96228, 2.04209, 2.0401, 2.05555, 1.96059, 2.05274, 2.04534, 2.05161, 2.04804, 2.05256, 2.05231, 2.0507, 2.04631, 2.0453, 2.04294, 2.04832, 1.9619, 1.96176, 2.04775, 1.95778, 2.03795, 2.0363, 2.0518, 2.03505, 1.95637, 2.04064, 2.04163, 2.03514, 2.04063, 2.03976, 2.03841, 2.04216, 2.03737, 2.03751, 1.95517, 2.04178, 2.03543, 2.00342, 2.00251, 1.88563, 1.88498, 2.06899, 1.93542, 1.88611, 1.97391, 1.93175, 1.88256, 1.93374, 1.93774, 1.93251, 1.88302, 1.88298, 2.0691, 1.88542, 1.88279, 1.88651, 1.88542, 1.98249, 1.88289, 1.88486, 1.98527, 1.8861, 1.88374, 1.97558, 1.97943, 1.88629, 1.88562, 1.88421, 1.88498, 1.88287, 2.0619, 1.88318, 1.88265, 1.88379, 1.88335, 2.06732, 1.88087, 2.06273, 1.87962, 1.87889, 1.88256, 1.96745, 1.90908, 1.81286, 1.80849, 1.8074, 1.8063, 1.91135, 1.88614, 1.91372, 1.91194, 1.91079, 1.79227, 1.79022, 1.7912, 1.78984, 1.7888, 1.78608, 1.90957, 1.7844, 1.83411, 1.78116, 1.91731, 1.91446, 1.78172, 1.78002, 1.83148, 1.89221, 1.83119, 1.7826, 1.78201, 1.87846, 1.87663, 1.91029, 1.83222, 1.7827, 1.83354, 1.78131, 1.78242, 1.83242, 1.83273, 1.89008, 1.77964, 1.78003, 1.91016, 1.78005, 1.89989, 1.78284, 1.7818, 1.77926, 1.77857, 1.77647, 1.83482, 1.77984, 1.77836, 1.78018
1.90976, 1.86188, 1.94561, 2.10214, 1.96099, 1.96216, 1.85391, 1.85385, 1.94863, 1.96239, 1.85472, 1.85508, 1.85162, 1.85, 1.94647, 1.8514, 1.9548, 1.93946, 1.84757, 1.8487, 1.89678, 1.83939, 1.84476, 2.03077, 1.95449, 1.84131, 1.84105, 2.02826, 1.83667, 1.83823, 1.83584, 1.8346, 2.13855, 1.8355, 1.88291, 1.88342, 1.94095, 1.94432, 1.83379, 1.88189, 2.01677, 1.82878, 1.93646, 2.0249, 1.92797, 1.82656, 1.82741, 1.83034, 1.82924, 1.83072, 1.8304, 1.97303, 1.98981, 1.96935, 2.06997, 1.98707, 1.98912, 1.96589, 2.06636, 1.96303, 1.96294, 1.98948, 1.96051, 1.95864, 1.95788, 1.95676, 1.9538, 1.95309, 1.95171, 1.95106, 1.95174, 1.94877, 1.94792, 1.94652, 1.87214, 1.94755, 1.99001, 1.94533, 1.86886, 1.86993, 1.94645, 1.9462, 1.98979, 2.08331, 1.9478, 1.94807, 1.94911, 1.95019, 1.95104, 1.99151, 1.9546, 1.95936, 1.88205, 2.08535, 1.96636, 1.96664, 1.89404, 2.07219, 2.07969, 1.91669, 2.05298, 2.05236, 2.05852, 2.03746, 2.03734, 2.03577, 2.03444, 1.95647, 1.95918, 1.95837, 1.95802, 2.03453, 2.04024, 2.03815, 2.04601, 2.04469, 2.06873, 2.04622, 2.05615, 1.9572, 1.95895, 2.05642, 2.05961, 2.04895, 2.04256, 2.0532, 1.95875, 1.95885, 2.0375, 1.96061, 2.04737, 2.04111, 2.04538, 1.96215, 2.05606, 1.96158, 2.05235, 2.04438, 1.96493, 2.07709, 1.96292, 2.05248, 1.96313, 2.04978, 1.96113, 2.05228, 2.05623, 2.07661, 2.06519, 2.04427, 2.04775, 1.9613, 1.95987, 2.04168, 2.04259, 2.04271, 2.05713, 2.05516, 2.05413, 2.04696, 2.03529, 2.03814, 1.95874, 2.03207, 1.95599, 1.95644, 1.95851, 1.95782, 2.04913, 2.0447, 2.03563, 2.00042, 1.99944, 1.88853, 2.09617, 2.0838, 1.88382, 1.88468, 1.88439, 1.88176, 1.87944, 1.97628, 1.93376, 1.97263, 1.93374, 1.9337, 1.88257, 1.88255, 1.88333, 1.88441, 1.88434, 2.07633, 2.09406, 1.88419, 1.88362, 2.08326, 2.05881, 1.96597, 1.97477, 1.88335, 1.97861, 1.9337, 1.88373, 1.88244, 1.88158, 1.88222, 1.8826, 1.88256, 1.8821, 2.07232, 1.88292, 2.05951, 1.88139, 1.8842, 1.97294, 1.88254, 1.91032, 1.80984, 1.80827, 1.91022, 1.90809, 1.79777, 1.91039, 1.90976, 1.79636, 1.91052, 1.79317, 1.79188, 1.79048, 1.78992, 1.91124, 1.90576, 1.8364, 1.9098, 1.78563, 1.78275, 1.78276, 1.91162, 1.7841, 1.78254, 1.7809, 1.77921, 1.7781, 1.90524, 1.78248, 1.90637, 1.77848, 1.83391, 1.83173, 1.78207, 1.91038, 1.90866, 1.77897, 1.85943, 1.78163, 1.78227, 1.78326, 1.78252, 1.78153, 1.78113, 1.90589, 1.78151, 1.77855, 1.78169, 1.95472, 1.78018, 1.77928, 1.8349, 1.90331, 1.90321
1.91351, 1.91451, 1.91302, 1.92283, 1.86135, 1.96167, 1.96259, 1.85584, 1.85841, 1.96169, 1.85558, 1.85548, 1.85527, 1.95782, 1.84948, 1.94239, 2.03361, 1.85138, 1.85062, 2.03236, 2.03389, 1.84527, 1.93903, 1.8949, 1.8432, 1.95135, 1.84361, 1.84367, 1.83894, 2.03416, 1.8399, 1.83683, 1.83689, 1.8361, 1.83503, 1.83542, 1.93027, 1.8353, 1.94067, 1.9342, 1.83366, 1.82716, 1.8299, 1.83199, 1.83232, 1.83426, 1.83025, 1.83034, 1.83142, 1.83249, 1.88367, 1.89677, 1.97033, 1.894, 1.89312, 1.96913, 1.9686, 1.99253, 1.89047, 1.99081, 1.96454, 1.99247, 1.99091, 1.9584, 2.0668, 1.95865, 1.87957, 1.95474, 1.95415, 2.09311, 1.98882, 1.99302, 1.99334, 1.94924, 1.94914, 1.95151, 2.0701, 1.994, 1.94824, 1.99247, 1.87148, 1.99399, 1.87078, 2.08481, 1.99296, 1.87367, 1.87407, 1.87536, 1.99219, 1.99157, 2.06767, 1.95486, 1.96208, 1.96275, 1.99008, 2.07306, 1.97225, 1.99243, 2.08961, 2.05632, 2.038, 2.03811, 2.06, 2.04696, 2.03933, 2.03841, 2.03834, 1.95888, 1.95825, 2.04136, 2.03786, 1.95904, 2.04364, 2.03583, 2.03898, 2.03525, 2.03544, 2.03709, 2.04574, 2.06952, 2.0585, 2.05299, 2.05555, 2.06984, 1.95814, 2.03727, 1.9611, 2.04253, 2.04804, 2.05095, 1.96032, 1.9619, 1.96156, 1.96237, 1.96364, 2.05123, 2.0489, 2.04777, 2.04826, 2.04835, 2.04692, 2.04589, 2.05934, 2.0497, 1.96241, 2.07227, 1.9629, 2.05232, 2.06497, 2.05224, 2.05621, 2.06156, 2.05976, 2.03983, 2.03886, 1.96088, 2.04728, 2.05361, 2.04692, 2.03467, 2.03241, 1.95694, 1.95626, 1.95656, 1.95542, 1.95726, 1.95837, 2.05295, 2.04123, 2.04508, 2.03759, 2.03644, 1.88853, 1.88659, 2.08372, 2.08325, 2.0666, 1.88219, 1.88209, 2.08057, 1.88168, 1.88098, 1.8815, 1.93162, 1.88309, 1.88392, 1.88344, 1.88356, 1.8821, 1.98627, 1.8838, 1.88243, 1.88629, 1.88572, 1.88433, 1.88655, 1.88589, 1.98896, 2.09042, 1.8861, 1.88535, 1.88458, 1.93499, 1.88547, 1.88223, 1.88284, 1.88257, 2.05842, 2.07007, 1.88338, 2.08763, 2.05838, 2.05254, 1.88253, 2.05251, 1.88473, 1.86139, 1.8595, 1.80797, 1.91384, 1.79931, 1.92006, 2.0064, 1.79549, 1.79533, 1.91702, 1.9105, 1.79061, 1.84081, 1.8372, 1.78826, 1.7864, 1.83338, 1.78229, 1.78397, 1.91019, 1.78141, 1.78215, 1.78212, 1.91653, 1.91416, 1.78164, 1.77981, 1.77918, 1.90621, 1.78275, 1.78232, 1.83235, 1.78137, 1.90551, 1.7832, 1.78035, 1.78281, 1.78166, 1.78073, 1.90062, 1.78009, 1.78156, 1.78089, 1.78062, 1.90661, 1.77797, 1.77744, 1.90455, 1.82842, 1.77978, 1.82957, 1.77853, 1.88841, 1.77705
1.9168, 1.8654, 1.86455, 1.86349, 1.86434, 1.86259, 1.85906, 1.96074, 1.85893, 1.91907, 1.86136, 1.85866, 2.14448, 1.85646, 1.85651, 2.03616, 1.85002, 1.85221, 1.85103, 1.94159, 1.84777, 1.84699, 1.84821, 2.03801, 2.0327, 1.95485, 1.84602, 1.84463, 2.01393, 2.02118, 1.8403, 1.90318, 1.88889, 1.88936, 1.93658, 1.83728, 1.83578, 1.8346, 2.00756, 1.83582, 1.83421, 2.03089, 1.94055, 1.94183, 1.93838, 1.83268, 1.83399, 1.83374, 1.83496, 1.83493, 1.83667, 2.07502, 1.9738, 1.97183, 1.97154, 1.97051, 1.96851, 1.96922, 2.07322, 1.96527, 1.99342, 1.99485, 1.88698, 1.99268, 1.99155, 2.07167, 1.95641, 1.95464, 1.95575, 1.87901, 1.955, 1.95295, 1.95149, 1.99456, 1.87271, 1.95133, 1.95159, 1.87256, 1.94717, 1.94879, 2.07225, 1.9496, 1.95199, 1.94756, 1.94789, 1.99254, 1.94958, 1.95185, 1.95555, 1.95694, 1.87983, 1.95695, 1.95665, 1.96502, 1.88929, 1.99046, 2.06935, 1.97204, 2.08689, 2.08821, 2.04413, 2.04283, 2.0417, 1.96495, 2.04275, 2.03875, 2.03435, 2.03944, 2.04041, 2.03949, 1.96149, 1.96063, 1.95968, 2.03637, 2.03756, 2.04707, 2.05049, 2.04269, 2.03828, 2.05318, 2.05174, 2.05597, 2.03735, 2.03787, 2.03788, 2.0551, 2.04644, 2.0586, 2.04893, 2.05183, 2.04979, 2.04917, 2.04669, 2.05949, 2.04832, 1.96318, 2.05569, 2.03961, 2.05882, 1.96322, 2.04754, 1.96471, 2.05384, 2.05543, 2.0463, 1.96431, 2.06218, 2.06326, 1.96254, 2.05665, 2.04985, 2.05469, 2.06331, 1.96198, 1.95957, 1.95942, 2.05658, 1.95884, 1.95815, 2.04588, 2.0354, 2.03501, 1.95908, 1.95855, 1.95921, 2.04118, 2.03843, 2.04345, 2.04165, 2.04029, 2.04262, 1.8888, 1.88796, 1.88597, 2.08566, 1.88534, 1.88559, 1.88461, 1.88317, 1.8819, 1.88066, 1.88262, 1.88196, 1.88193, 1.8796, 1.87892, 1.88098, 1.88253, 1.88335, 1.98334, 1.88573, 2.00151, 1.99955, 1.88572, 1.88674, 1.88595, 1.97991, 2.06493, 1.88314, 1.88328, 1.88395, 1.88582, 1.88276, 1.88086, 1.88438, 1.88522, 1.88275, 1.88002, 1.88222, 1.88195, 1.88322, 1.88257, 1.88283, 1.88284, 2.05374, 1.8822, 1.86201, 1.80967, 1.85686, 1.85488, 1.80365, 1.80227, 1.79842, 1.7958, 1.79258, 1.86626, 1.84219, 1.78927, 1.83807, 1.83859, 1.89004, 1.78475, 1.78549, 1.78349, 1.78289, 1.91107, 1.78203, 1.78159, 1.91397, 1.89698, 1.83119, 1.78041, 1.83029, 1.77989, 1.77861, 1.909, 1.77847, 1.88431, 1.78183, 1.91329, 1.77956, 1.77878, 1.77971, 1.90577, 1.7832, 1.9041, 1.87534, 1.78077, 1.90424, 1.90664, 1.78047, 1.77993, 1.90378, 1.78, 1.77703, 1.77692, 2.06986, 1.77851, 1.8285, 1.82718
1.96875, 1.86721, 1.86687, 1.96887, 1.86469, 1.86268, 1.8652, 1.86484, 1.86373, 1.91213, 1.86106, 1.86201, 1.91183, 1.85774, 1.90864, 1.85783, 1.95537, 1.85488, 1.85524, 1.85523, 1.96072, 1.96184, 1.85148, 2.03849, 1.84913, 1.84597, 1.84747, 1.84538, 1.84481, 1.93748, 1.84194, 1.89228, 1.89257, 1.84194, 1.84048, 1.96362, 1.8392, 1.83616, 1.88854, 1.88733, 1.886, 1.88565, 1.88553, 1.83426, 1.83296, 1.83622, 1.83713, 1.83468, 1.94033, 1.88558, 1.83762, 1.99735, 1.9727, 1.97316, 1.9729, 1.99716, 1.9722, 1.97089, 1.96957, 1.99771, 1.96694, 1.9646, 1.96772, 1.96481, 1.9621, 1.96157, 1.963, 1.99598, 1.95862, 1.95503, 1.87968, 1.95514, 1.95468, 1.95418, 1.95471, 1.95281, 1.87336, 1.94956, 1.95011, 1.94598, 1.9499, 1.94992, 1.87212, 1.87314, 1.99492, 2.08679, 1.95267, 1.99711, 1.95567, 1.87867, 1.87886, 1.95886, 2.07247, 2.07228, 1.89198, 1.9948, 1.97321, 1.99394, 1.99381, 1.92064, 2.07005, 2.06259, 2.07385, 2.07264, 1.96471, 1.96354, 1.96292, 1.96178, 1.9615, 1.96217, 1.96036, 1.9607, 2.04139, 1.96094, 1.96021, 1.96232, 2.03891, 2.03975, 2.05573, 2.03784, 1.96268, 2.059, 2.05494, 2.05242, 2.05109, 2.05608, 2.04557, 2.05275, 2.05348, 1.96284, 1.96231, 1.96452, 2.04938, 2.04887, 2.05905, 2.0611, 2.06673, 2.04966, 2.04791, 2.05261, 2.0513, 2.07326, 2.06111, 1.96465, 2.06549, 2.03881, 2.04567, 2.0483, 1.96351, 2.05395, 2.05607, 2.05183, 1.96137, 2.06455, 2.04205, 2.04486, 2.04917, 2.03816, 2.04586, 1.95888, 2.03485, 2.04012, 1.95764, 1.95817, 1.95698, 1.95843, 2.04054, 2.03708, 2.04764, 2.04471, 1.95815, 1.89008, 1.88947, 1.88946, 1.93572, 1.93552, 1.88272, 1.88323, 1.88322, 1.99018, 1.88305, 1.88304, 2.07205, 1.88002, 1.99119, 1.99196, 1.98974, 1.8829, 1.88239, 1.98966, 2.08413, 1.98581, 1.8846, 1.93493, 1.88576, 1.88501, 1.98187, 1.88203, 1.8844, 2.06562, 1.88529, 1.93409, 1.8832, 1.93371, 1.96845, 1.93173, 1.93092, 1.88257, 1.88198, 1.88243, 1.88147, 1.88301, 2.05477, 1.88244, 1.88175, 1.87984, 1.86046, 1.85895, 1.80433, 1.8996, 1.80043, 2.09072, 1.7963, 1.79399, 1.78918, 1.87142, 1.8413, 1.7884, 1.78668, 1.78571, 1.78575, 1.91024, 1.90959, 1.84691, 1.78389, 1.78275, 1.78207, 1.91726, 1.78187, 1.83085, 1.82993, 1.7799, 1.77968, 1.83216, 1.77895, 1.87946, 1.90748, 1.90636, 1.78, 1.78184, 1.77955, 1.90791, 1.90602, 1.90589, 1.77905, 1.90617, 1.78085, 1.83178, 1.78212, 1.77915, 1.90503, 1.90935, 1.7799, 1.78144, 1.77716, 1.77659, 1.77691, 1.77684, 1.77688, 1.77676
1.9698, 1.86996, 1.97007, 1.97243, 1.8657, 1.86559, 1.86724, 1.86508, 1.91536, 1.91531, 1.86529, 1.91411, 1.86213, 1.96239, 1.85853, 1.85807, 1.90738, 1.90766, 1.85582, 1.85632, 1.9579, 1.85496, 1.85201, 1.84959, 2.04003, 1.95631, 1.84746, 1.89769, 2.02754, 1.89663, 1.89555, 1.8961, 1.84215, 1.84279, 1.84262, 1.84194, 2.13461, 1.84174, 1.88934, 1.83869, 1.83829, 1.83714, 1.83482, 1.88864, 1.88768, 1.83771, 1.93321, 1.83752, 1.83783, 1.8889, 1.83799, 1.97598, 1.9765, 2.07942, 1.99961, 1.97415, 1.97556, 1.89618, 1.99941, 1.89377, 1.96861, 1.99798, 1.96496, 2.10131, 1.96282, 2.08915, 1.96152, 1.95944, 2.07202, 1.99795, 1.9571, 2.08314, 1.95475, 1.8793, 1.87816, 1.9527, 1.87671, 1.95202, 1.99634, 1.94961, 1.99977, 1.99977, 1.95098, 1.95229, 1.9554, 1.95125, 2.08631, 1.95517, 1.99705, 1.88202, 2.07248, 1.96323, 1.96407, 1.9636, 1.96709, 1.89608, 1.90112, 1.90375, 1.99455, 2.08953, 2.06662, 2.05555, 2.05721, 2.05028, 2.04902, 2.05637, 2.0573, 1.96393, 1.9622, 1.96272, 1.96144, 1.95973, 2.04405, 1.96184, 2.05497, 2.04082, 2.04057, 2.04033, 2.04015, 2.04124, 2.04195, 2.03883, 1.9635, 1.96291, 2.05201, 2.05073, 1.96241, 2.05395, 2.05186, 2.05605, 1.96536, 2.04103, 2.04651, 2.04288, 2.04198, 1.96592, 1.9658, 1.96579, 2.04144, 2.04163, 2.05626, 2.05485, 1.96509, 2.05039, 2.05239, 1.96508, 1.96627, 2.0562, 2.06348, 2.05626, 2.05705, 2.05065, 2.05539, 2.07646, 1.96188, 2.05246, 2.05167, 2.03854, 2.03744, 2.03585, 1.95934, 1.95825, 1.96142, 1.95937, 1.95848, 2.03924, 2.03883, 2.03656, 2.03737, 2.05838, 2.0412, 1.89234, 1.93919, 1.93772, 1.9898, 1.98829, 1.88362, 1.99049, 1.88183, 1.87867, 1.97142, 1.93039, 1.88201, 1.88054, 1.88254, 1.88166, 2.07127, 1.88346, 2.07153, 1.88215, 1.88053, 1.934, 1.88316, 1.94089, 1.8822, 1.88624, 1.93241, 1.88303, 1.88387, 1.88312, 1.88384, 1.8834, 1.93257, 1.88163, 1.87979, 1.88341, 1.93133, 1.88237, 2.0666, 1.88158, 1.8804, 1.879, 1.87958, 1.98094, 1.88299, 1.8826, 1.9134, 1.89731, 1.80235, 1.79846, 1.79893, 1.79673, 1.79619, 1.91336, 1.79414, 1.91777, 1.9175, 1.7903, 1.78809, 1.91662, 1.914, 1.7843, 1.9115, 1.90814, 1.78358, 1.78017, 1.78301, 1.7821, 1.78093, 1.78344, 1.78242, 1.78188, 1.83156, 1.78159, 1.77804, 1.78227, 1.78062, 1.91009, 1.90606, 1.7797, 1.77862, 1.78008, 1.78024, 1.89217, 1.89246, 1.90678, 1.7809, 1.90009, 1.87591, 1.87272, 1.78018, 1.7789, 1.89322, 1.77922, 1.77826, 1.77957, 1.77817, 1.77765, 1.77652, 1.77903
