1.93408410753522,1.92896855317406,1.93029790989239,1.93064218310121,1.92985546814643,1.92954915875752,1.92901088162297,1.95073241499883,1.94960772160737,1.94147796982817,1.94282841299781,1.9630754703273,1.96271220415458,1.91829754624633,1.91790225104547,1.91710802621592,1.91576694349073,1.9607315675844,1.96475774678586,1.96368380548927,1.96197932414999,1.9064653088972,1.9050286768506,1.90338073522493,1.90167593968607,1.90051455072353,1.90024607217192,1.89978253293965,1.89969136223281,1.89904817115601,1.89875369890481,1.89896317540995,1.8996952798715,1.89983343181968,1.89899378973398,1.89903053687253,1.87499285989969,1.85957121850102,1.89902558783759,1.89983597092932,1.90103184373457,1.91493314903366,1.9353542289989,1.93252662657381,1.92696983191441,1.91803331457449,1.94705230846435,1.94676403276306,1.94642379281125,1.94726872241786,1.94738293241347,1.95222744190772,1.96128132275522,1.99333243167383,1.99474047705235,1.99704592380234,1.95233618082921,1.94284326319647,1.93678293568812,1.93153261240695,1.91205383389595,1.9113461205513,1.91088114488284,1.91116496168962,1.91135575301614,1.91068985624255,1.92829349302216,1.93989900508304,1.96245572374866,1.96308871978026,1.92539758562283,1.98776003523221,1.99375197145418,2.00623317813862,1.98363878002967,1.9916008398054,1.99241694255236,1.99428536061867,1.99524082441782,1.99521334910475,1.93812141389246,1.92659346571467,1.91842912792814,1.93932193110664,1.98456813952532,1.98292802265475,1.98224958796747,1.98078825212275,1.97925435515961,1.97977176272529,1.97785913303136,1.98205928083508,1.98375313515224,1.93329516542469,1.92125920769888,1.93289114771879,1.9740259905447,1.9751056221286,1.97596247178883,1.97561683875322,1.97598276011703,1.97610340877744,1.97209861187769,1.96432922311315,1.96504413435854,1.91443955774311,1.92391033732805,1.94970379263166,1.94955468199747,1.94954770208814,1.94891772166424,1.9495272536723,1.95057304662378,1.92570585497415,1.91792582995124,1.90874717285421,1.90159239071509,1.89595091154383,1.90711592530791,1.92520873899835,1.92405364808262,1.87843710120161,1.87786305018584,1.877528185174,1.87702573232871,1.87653300353671,1.89728235110362,1.90981623555912,1.9239384592207,1.91023526390091,1.85331078529179,1.80307907303959,1.80298906856075,1.80353216025446,1.79624034653578,1.79583581566693,1.82552342214654,1.84507634421678,1.82212522067696,1.78672924503011,1.78764733066086,1.78838473098864,1.79072626153781,1.79069710888812,1.79037914942813,1.78972886395849,1.78929437475764,1.78986527251821,1.79157361209845,1.79314257145942,1.79154998519728,1.78925870604936,1.78798982791133,1.80306226078982,1.82019926655177,1.81995533463565,1.7982147007069,1.77134147771445,1.77090568514953,1.77134377415338,1.77068311823854,1.77019140468582,1.76946141097595,1.76857223046665,1.76801238888656,1.76801972543778,1.76771295673244,1.76757838824543,1.76839407717119,1.76868304106173,1.7677386667892,1.76739730757693,1.79994194035753,1.82623769171299,1.80815337453314,1.79066381448419
1.93623946898237,1.86289697998166,1.93509129456806,1.96838603213394,1.92888887064555,1.97195405282085,1.92826179809434,1.96752348908557,1.96768270669241,1.93277484908949,1.92238049240806,1.96614654073736,2.05135688712669,1.91791320376215,1.91773389289005,2.04638998963101,1.91454664835102,1.96263659869714,1.96321294621872,1.96358267736003,2.04846191125855,1.90751648890392,1.95966490196371,1.96024411041012,1.90369829911126,1.96001850670735,1.90170661483606,1.90101042900696,1.83055724913136,1.89899419616209,1.89974817916182,1.82774067947384,1.90030308976609,1.90138348400575,1.95564555116042,1.89977720215471,1.9023313630169,1.82774826532927,1.90032616175789,1.90011060137802,1.90208498306684,1.83049048315909,1.95244595065641,1.83394693142489,2.0381404952246,1.91058469869948,2.03850332021006,1.84425872427642,1.91940547340581,1.91932144153276,1.92268447492907,1.94229083301139,1.91999143976834,2.01830302049143,2.00408695457664,1.9998782694775,1.91425713384109,2.01305337261162,1.98543288138136,1.93875215187332,1.91288521000821,1.91143292932872,1.9104459128376,1.91084197159715,1.91059217590158,1.91017405571231,1.98274284875928,1.90984030752696,1.98186119352915,1.96336128332652,1.90907404212826,1.99010629440019,1.99593363233032,2.01338869112347,1.97608944623784,1.99548452563256,1.99527498727691,1.90619541164173,1.99530082843397,1.99382677431747,1.90668925149933,1.98057812698167,1.90419489712542,1.90322088104678,1.98824049357795,2.00887953898885,1.97232303928755,1.90181411565512,1.98947133421448,1.97786266618446,1.97421697608455,1.98371925698252,1.98577023395439,1.89695963919839,1.89684777189723,1.89603519521874,1.98978926412367,1.97565205753518,1.89537444684307,1.920228383759,1.98874930685171,1.98822681629215,1.95905810675109,1.8911692948554,1.97821036566664,1.88919551024672,1.88877088703585,1.98528262365755,1.88753618621636,1.88858482159009,1.88686605483121,1.88617739267581,1.96824989809017,1.96720684795194,1.96636048472735,1.95993210532619,1.87982337841519,1.87920449575333,1.87803832392259,1.92672418573235,1.95147682298792,1.87782501505334,1.87700207818578,1.87699000770411,1.87591707113034,1.87550352463645,1.87488645375311,1.94261508606424,1.94873274763987,1.91018027790434,1.853205350428,1.80189926334407,1.80159304825902,1.80092745510621,1.79584876104001,1.79470190575339,1.79395372091771,1.89938864722315,1.83733996166584,1.78565417897792,1.78870580158957,1.7882541748852,1.90358971377177,1.78113341172153,1.78054213817511,1.77978508302629,1.77923842681179,1.77998245180689,1.78065342996803,1.77953977474926,1.77773546260004,1.98149205736201,1.77327836248032,1.77275421900856,1.82119680906471,1.82045247801246,1.82016781147879,1.77092830834075,1.7695804718364,1.77015776469601,1.76855078275811,1.76883548112276,1.76850117108839,1.76742403182323,1.76718939823637,1.76796142361692,1.76682766908596,1.76607143194397,1.98231318759228,1.76854346010564,1.76673130976381,1.76671721868282,1.76585547031102,1.85084613834933,1.86639452796092,1.86546310576701
1.86325003079128,1.93503299375208,1.93450379223541,1.93435788729411,1.92897165229535,1.9284248606124,1.92917164909951,1.92595617662711,1.92532249595565,1.9235760168024,1.92253077743149,1.92197086915822,2.0383487360653,1.84556679329678,1.91689257903477,1.84320843089124,1.91359882594752,1.96455604357616,1.96303898257744,1.9310629535076,1.90824448193543,1.9085218502612,1.83419509441016,1.90591975694101,1.96051542629929,1.90390512346907,1.83152164714882,1.9007676471049,2.04543518703768,1.89969893458926,1.90088488170614,1.90096638414462,1.90054400916404,1.82750878195246,1.9006259103326,1.82774656216472,1.82792332547622,1.90144151621727,1.83050000597184,1.89960197807521,1.95257108680988,1.90536189865103,1.90611279602831,1.90615354891981,1.90968192815341,2.03827416758766,1.91533427927421,1.94725584340454,1.84958713042384,1.91836604532183,1.91970141882743,2.02798779053567,2.01149456044648,2.01241204725692,1.99934017248193,2.00191606241401,2.00722813836716,1.9133483538097,1.98513447678821,1.98325655006403,1.98415380948132,1.91197229806358,1.91061627536138,1.91188362405773,1.91044850083223,1.91116871798986,1.90788496638553,1.98568640289917,1.98695313532049,1.96379011558972,1.90778182736293,1.99692107664919,1.90660261714533,2.00023708465752,1.90710535763465,2.00144760237652,1.90639880371558,1.99240016361558,1.98646138500669,1.98597994789984,1.97711078025608,1.97661818517874,1.97185738377245,1.99586713801119,1.99519179629744,1.99471954514348,1.98142138221611,1.90081471731079,1.97695611313473,1.97773128877227,1.90057733228155,1.97268279328386,1.9712193992329,1.98041103969975,1.89725629442404,1.96766399281094,1.89585624588776,1.96912840567119,1.89369870278589,1.89505565872468,1.89457114570903,1.9832350568605,1.98282446861436,1.98462832380139,1.97690606827292,1.89018212917989,1.96694968212126,1.89153238034275,1.88783694362941,1.8892406011317,1.97040438040666,1.9744604788211,1.8839884578391,1.96275086784655,1.96429921720018,1.96589229945803,1.97538576676268,1.87940734320641,1.96592571083093,1.92737499849309,1.87683805657977,1.87727749310037,1.87700144641669,1.87854907474147,1.87422803504965,1.87497972436932,1.9638995063293,1.96098701104767,1.9453083052363,1.90824741357362,1.9095028477754,1.80217529009925,1.80076407728955,1.7985091551039,1.85215365748034,1.84275903680988,1.79380356319379,1.89680090092119,1.83775390075999,1.78442274714889,1.78620054222172,1.78493764464542,1.78350300715591,1.87286427459874,1.78080980153573,1.78031414276839,1.77941650218282,1.7781013765352,1.77731959262565,1.77872724770595,1.77651841973768,1.9022817424994,1.77145568699797,1.77119159170474,1.77082131582724,1.88030102743523,1.87400900790885,1.77093957269455,1.76967178280264,1.7697620190878,1.7687139762989,1.8394748279098,1.76986514597906,1.76762686855648,1.85876173201468,1.76691056078186,1.76657669449109,1.89632366603649,1.85679505523341,1.76781575612892,1.76659275978199,1.76578322102277,1.81364752604058,1.85099840935272,1.81376213298541,1.87320556594026
1.94002673398531,1.97299057588442,1.93445167060085,1.97342557506835,1.93186637672825,1.97485573300044,1.96928785322531,1.92610777308402,1.851907026699,1.92313298610807,1.92398469877121,1.96790186129869,1.91968108898021,1.91725333634805,1.96637132937964,2.03898118955663,1.84377331954289,1.96593184002367,2.0553173938787,1.92343933034275,1.90855447391939,1.96383780847666,1.96403261441373,1.96420405920037,1.96311747320199,1.96236625238644,1.90281745798416,1.90213571773193,1.82811296830794,1.9003491918874,1.90074963917833,1.90066890227275,1.82809694034995,1.82875868983989,1.90202266169493,1.90089325505874,1.82737991796888,2.02794484900568,2.02619437758457,1.9005779326791,1.90264572303784,1.90370439535071,1.90649805773115,2.04092851879714,1.95176926919248,1.83834848569117,1.91501584985305,2.02938495544371,1.94547733404375,1.94512752064802,1.94577229446453,2.03251431913758,1.99896304564852,1.99264036847133,2.0060293155409,2.00284208528901,1.99527775755484,1.9873930524955,1.98554768994272,1.98301264106525,1.98272310264346,1.91076142180463,1.91029554143331,1.90983639122599,1.9095505637986,1.90831420034654,1.90700615659561,1.9073377307482,1.99556353519102,1.99387942449544,1.99660536601325,1.90834417707557,1.90708055247484,2.00150400370066,1.90837206240848,1.99023391071439,1.90674889799981,1.99801293669352,2.00923418207042,1.9791391410276,1.9772800546933,1.98942878397799,1.99298944528531,1.90317952763839,1.90279760660105,1.98546653498718,1.9990434362099,1.99240113850957,1.99983917619803,1.99182258896724,1.99887278268692,1.89880658590116,1.98650459000311,1.96738373143376,1.99255433915098,1.97279852744479,1.98773552159909,1.97301650456472,1.8939946440825,1.89490625248533,1.89382722845597,1.89326643711819,1.89324325120739,1.96959514668485,1.9705493553388,1.97206425570264,1.96956843731057,1.95390414418849,1.88706714868824,1.88859728748484,1.88736807054071,1.97255437604566,1.96735046157015,1.97336235019879,1.96979641310367,1.95972363959862,1.96157957958381,1.96103135380394,1.96355366095981,1.92742037521456,1.87769698250871,1.87691615298752,1.87640100091788,1.87566959421486,1.87468728974417,1.87493683320864,1.8741829111343,1.96551960870556,1.95424300802525,1.90762471985925,1.90899128795081,1.90880243498776,1.99949008624638,1.7986460936275,1.84474554441782,1.79613872097693,1.79345420145034,1.78955593543911,1.78769310235536,1.78448893146823,1.98892042153816,1.90262388044005,1.78306991004028,1.90414349927591,1.78064366532941,1.90362133396618,1.90245549045255,1.89808850544857,1.89361858532149,1.79457742920757,1.77710790652458,1.7763817636081,1.89767566513183,1.89807752028993,1.8977442864657,1.89703202447897,1.77256067709512,1.77096762430699,1.76991010611767,1.76941239558163,1.76714756658394,1.89337332602308,1.81483560674468,1.81473574943685,1.76527373845478,1.765225823525,1.76578095841243,1.76716038065029,1.76443174016119,1.76625453957944,1.76496828349156,1.86984078669182,1.86861880246051,1.812356077655,1.81313468658206,1.81328605189187
1.93954440256581,1.94044531245255,1.97356044787839,1.93478140232745,1.97229466583384,1.97314316692169,1.92900574388847,1.92601705235222,1.92614184167645,1.93832335630526,1.96968915013211,1.92345971140202,1.91944618067348,1.91876722211387,1.96806451264515,2.05550799462797,1.84236657758089,1.91241308405326,1.83922712608738,1.90898820752885,1.90935182246357,1.83605530550915,1.83623990113059,1.96577414138823,1.90811569462518,1.83197568694521,1.96104018581276,1.82918236387412,1.90133595647997,1.9012806710554,1.90094299133932,1.95878685169249,1.90128224161082,1.82790597951234,2.0391221181513,2.04516022631055,1.89985884938825,1.90078832598817,1.82984113371769,1.90112485624899,1.90321174141057,1.83235234470584,1.90672028144662,1.90741516899415,2.03528563547052,1.94865286001658,1.8406877610182,1.91647753567191,1.9457486161501,1.9451995608673,1.85392213180404,1.94598380317842,1.99899736873715,1.99332809593388,1.99286122948068,1.91599059797273,1.9868330525584,1.98612468698831,1.98514343368922,1.9829751260025,1.98227081867894,1.98723957846946,1.98588652726654,1.9097400522362,1.90996780501152,1.90986802876724,1.91081427541143,1.98193465758561,1.9981675881879,1.99207039093544,1.98931628515333,1.99951202670621,1.98701331711143,1.98900514508777,1.99596877683871,1.90719677748542,1.99048680346109,1.99857044422891,1.97596755851794,1.97580238669138,1.97587553082117,1.97512163590659,1.99924724233828,1.98566894393073,1.99274795838435,1.98451998121597,1.98593053726873,1.98541097300119,1.89996552206691,1.98371284779363,1.98487743865491,1.99998240907291,1.99895179669442,1.99206795604932,1.89702386023987,1.89701161927584,1.89544097317408,1.89500682639421,1.89417272931802,1.9122853372278,1.97402528265705,1.96849920469952,1.98982096512704,1.99008803206326,1.98165095098463,1.97066132638131,1.97746080057751,1.96896356450482,1.9719703226029,1.91494802284885,1.88679435518456,1.97212108901993,1.96921351851489,1.96765275212652,1.97155761081037,1.97096960654425,1.96526356901387,1.9648012825763,1.95944309352856,1.92685433008691,1.87743546523066,1.87661176787305,1.8755646708199,1.8751424427085,1.87485482027589,1.87499298587232,1.96327049509685,1.95666495159676,1.96381529328377,1.90649053900256,1.80691434348685,1.80108381859516,1.80038588691623,1.79926518986549,1.90630587691672,1.88363928997398,1.79347934163313,1.78979519921061,1.7874288168113,1.7845034650756,1.78418564734164,1.90212101705149,1.78372190761322,1.78253128385128,1.9910816949873,1.98156513026177,1.77829346660003,1.77792528769382,1.77731706773295,1.80307551022042,1.82411851607777,1.86091380013633,1.82315376651841,1.77414732617037,1.77119153878695,1.77005815109754,1.76923855596284,1.89238987935195,1.77010093263173,1.76974506557989,1.76848298033231,1.76826465429779,1.96483075210831,1.81464073776361,1.81360480576952,1.89439024492524,1.89559329619284,1.76646593547303,1.89408942796809,1.81198122886458,1.85655613802407,1.76198458451839,1.8874252331487,1.89033255981453,1.86536600647022,1.94531458710053
1.93869605023578,1.93806981175514,1.93677302344346,1.93618230307548,1.93696767978122,1.93166978062604,1.92885847214013,1.92912582921646,1.93814489693248,1.94558430964963,1.94901609518288,1.92354435906075,1.92018675511253,1.91801183692614,1.91628025472745,1.91587100395083,1.91585568580948,1.90995460618215,1.90907062412782,1.90857957045527,1.90890038637464,1.90586455780144,1.90570043152295,1.90558868001158,1.87370555984703,1.85565086827509,1.86616164284304,1.8760766616058,1.90193656526594,1.90266908027661,1.90133433938461,1.90052268602752,1.90026414005088,1.8997618737789,1.89898024040152,1.89928865406169,1.89967323220039,1.89959753851102,1.90052575430519,1.90132576811047,1.9025785032118,1.90395276300657,1.90575866041957,1.90662039626694,1.91028712749007,1.91054646466047,1.91142974703201,1.91504196879524,1.93141947791842,1.94560242612423,1.94599281159453,1.94626488762547,1.99945302286789,1.9970121703112,1.99582012765257,1.94812608025934,1.98570041785183,1.98572886671649,1.98544663752315,1.98485341087051,1.9794462845509,1.9834051152577,1.9842805184616,1.93610238568395,1.91061779794308,1.91057789944068,1.91086985902185,1.98141305230331,1.99400275130951,1.99140822222342,1.99083346166237,1.98967776316858,1.98761897678001,1.98672127696113,1.94544036590159,1.93404672077203,1.99219256278956,1.99375062012297,1.9914768142486,1.98969275992598,1.98944363759461,1.9899864732535,1.98832370079489,1.98682225624177,1.98640270213091,1.98593558502956,1.98629412720515,1.98231576426709,1.97884200996632,1.98140744788465,1.98345840911655,1.98409638114925,1.9837081262899,1.98608237326265,1.89791561013763,1.89767282611836,1.89713441638655,1.89637658477806,1.89518994076836,1.92269448530747,1.97292061870136,1.97271709828838,1.97067390766504,1.97145247468088,1.97600620849556,1.96962350952872,1.97348830740757,1.9723340743494,1.9733724604943,1.97638637002301,1.97703613737646,1.97414002101185,1.97087900712882,1.97064147687793,1.97184830716428,1.97193524251587,1.96912918879664,1.96538450131828,1.92521967168704,1.92590101625859,1.89537120130575,1.87680608587102,1.87629040053751,1.87595817803006,1.87558656291158,1.87560485525422,1.95804824456681,1.95844231186764,1.96036912832246,1.9063564331614,1.80673842598098,1.80238863341447,1.80011845532013,1.7998628220428,1.79962790739119,1.79857889695769,1.79202358704686,1.7901550630338,1.78706478303559,1.78383106321276,1.78203726953424,1.78098214151524,1.78145298701271,1.78072298351919,1.78019144694017,1.7801517696225,1.77947268166279,1.77866100489667,1.80114423488339,1.80938646365693,1.81619319323546,1.82785836990387,1.8055923263745,1.77313657355347,1.77178719645982,1.77074875242879,1.77032355381392,1.82436725281236,1.80821258359347,1.79451890049784,1.76946943465275,1.76932004261125,1.82407791321036,1.80746170401644,1.80125204270737,1.79248617486941,1.78608768454205,1.76346856880119,1.76183131856866,1.76150762765237,1.76114319371164,1.76118611787198,1.80490761451912,1.88266865856428,1.87874254338845,1.88266884635519
1.86688303876141,1.93830801043726,1.86380388763063,1.93608406685657,1.93689826709623,1.92820467845099,1.92816473975896,1.92891822601991,2.04513919823374,1.95175949497201,1.97009049000712,1.92326007533227,1.92218636132279,1.84732038392717,1.84768957433728,1.91640232614362,2.04232253058341,1.9098673646287,1.90997082123489,1.91914495693827,1.96387198926177,1.90844312318103,1.90820228570569,1.90814699844672,1.83001577797431,1.83110089801818,1.83136798160168,1.90430817473399,1.96114521409803,1.9056073655718,1.82919188279987,1.90031021472121,1.89981154479915,1.90060191628759,1.82882915723377,1.90044338904876,1.90133636099195,1.82961203894962,1.90284898151347,1.90270618196268,1.90267518146041,1.95200774250126,1.90574815749788,1.90661063191696,1.91005535376775,1.9105149026181,1.94954232904755,1.91735100238624,1.92303909380969,1.94557403043,1.94584581609314,1.94648391911101,2.00469552418498,1.91903274388985,2.01520613693268,1.91686043262587,1.99779417812836,2.00607996645307,2.01360968119241,1.98673879471504,1.91285184464582,1.98578156780002,1.98560196856872,1.98585451469314,1.91009810897121,1.90980869115614,1.90979457609955,1.98733093512298,1.9965929191743,1.99321335541397,1.99698136044809,1.90694050513913,1.98883002835296,1.99901958721265,1.90743298419904,1.90729779555486,1.99504547061051,1.9989846243599,1.99453006824538,1.9921307904501,1.98899097725074,1.9916069958449,1.98617546631319,1.98565838737431,1.98554166245795,1.99139764062476,1.99432235610197,1.97931513454854,1.9733013296523,1.97743425511462,1.97887896215311,1.98751160673638,1.98338882468182,1.98851768376491,1.89794854893984,1.89730225698514,1.98668729370731,1.98786555140549,1.89380594106951,1.93381400202382,1.97308785427889,1.97435573259145,1.97284068874046,1.89090738512945,1.97906206037686,1.88920772301508,1.97723898048588,1.98151099266993,1.97336655506046,1.97639185606273,1.97665091321522,1.88618757617909,1.96768554220222,1.97200860098818,1.97304605255077,1.97264034784997,1.97242214348618,1.9654440566123,1.87998297701244,1.92544661718771,1.94951571249519,1.87598341397169,1.87540067788498,1.87522917543971,1.87447975422377,1.87485567865475,1.94937400699059,1.95904003996942,1.96867165838254,1.90563222712752,1.80471681060218,1.80340979314381,1.79868968833379,1.79862563065931,1.79785345900744,1.79493076382703,1.79123948938285,1.79057516314093,1.90083988230297,1.83503845020128,1.88938225118294,1.78285382466213,1.78203482826852,1.99766641329311,1.78088655437677,1.7790574937991,1.99648245807737,1.77577537930593,1.87303603078504,1.81420032739239,1.77570479614962,1.87931678382583,1.77199173901162,1.77219439843217,1.77093720856033,1.76973481801113,1.76993413990804,1.89315984199411,1.89282164699628,1.80912437812458,1.76865520219753,1.76834503199673,1.88929848885072,1.76615431190486,1.76497753726018,1.76642801286872,1.76432531411096,1.76395225447867,1.76265871931208,1.76308459230686,1.76310199756466,1.76235510508567,1.76201335573229,1.96029543978996,1.76410891911574,1.95339221704015
1.86689547219096,1.93702381614645,1.93592101459323,1.93613132701494,1.85975482958267,1.93031354319759,1.93305922267317,1.92930246776527,1.85394077136698,1.92283503682821,1.92510993874693,1.97011722994032,1.96926427295694,1.92114098469545,1.92088748320954,1.91568493367783,1.84334210325431,1.91183399896908,1.83990518502458,1.92298855640474,1.96519266300784,1.9651885670403,1.83534557739488,1.90816870812887,1.90685772470791,1.83436578046337,1.90644182102816,1.90411579008108,1.83042357203376,1.90605144173085,1.95937882930036,1.90071588564744,1.82870497949848,1.90061097484298,1.90217076709218,1.95595273346819,1.90235271377192,1.95538700438878,1.90306022826714,1.90417721143424,2.0417782931052,1.90297715022351,1.83425238256576,1.95224845118432,1.95253107096983,1.95246456386924,1.95277777394965,1.91822997460169,1.94609967934551,1.94546905982451,1.94589491099651,1.94611500639094,2.00544364417426,1.91838104165181,1.91730379663612,1.99755354368411,1.99081112374007,1.98682211901047,2.01952828892944,1.98926140134818,1.9871292824489,1.98624947812375,1.9111453045262,1.98507440999221,1.90954607770705,1.91072304042859,1.91114062961208,1.90951071362291,1.90944288595822,1.98774964554728,1.98967601591788,1.99931199899855,1.99138116252027,1.99734918476309,1.90699530721185,1.99331683922971,1.9971834473717,1.99293516834576,1.99844999577446,1.99427042910082,2.00228794221365,1.99134150281456,1.97663427705999,1.97882906366605,1.90418255651497,1.90395341255507,1.99108926682856,1.97692533475953,1.99292547149366,1.97916325875021,1.90017230964231,1.98588882207191,1.98022274655618,1.98743483074549,1.98603716334471,1.98640588990953,1.98580912487052,1.99168030594122,1.98964189567777,1.97811857146668,1.98136095754896,1.98276213427169,1.98403878783338,1.89070370218978,1.98063179854654,1.88793466277893,1.97574366700996,1.88914803824003,1.88733560373796,1.97559449717881,1.96983753565193,1.88516912308165,1.96963281298211,1.96886535737808,1.95370795998296,1.97136125541088,1.96666703594201,1.9517084355118,1.95300216867589,1.92445532142203,1.87802548276874,1.95527625299095,1.87395776714523,1.95168102131222,1.9510258101989,1.87417589612213,1.95350732840135,1.9659211000018,1.94685466675108,1.90393530177338,1.85265499430915,1.84956608268133,1.79916289330651,1.79820134201344,1.7974152595125,1.90455071028661,1.79069394947572,1.90040067311003,1.78764942741927,1.78816182125605,1.78603387791883,1.78466442972858,1.78258265997176,1.78141415620436,1.90112578674216,1.87308441553402,1.8273648569762,1.77591677611528,1.8241756444151,1.82435044258932,1.88151497806459,1.89668825535559,1.77143571534294,1.77134536620568,1.81950990565642,1.76924309666598,1.76886715528,1.8939419493952,1.89317893804598,1.8259798302054,1.96945199666005,1.76417040677912,1.86966351600989,1.76545297069589,1.76643320337517,1.76603959914662,1.81296808295164,1.85984076722565,1.97252646101059,1.76505235118645,1.76401448364769,1.76284866295537,1.76164832685394,1.7613909560372,1.76151756113879,1.81109037050995
1.93600193276364,1.86479651752656,1.97593457120107,1.86173051675333,1.8588705231364,1.85857851278768,1.97481705062223,1.92753913572872,1.97372479240547,1.92261083147561,1.92252443062982,1.85169662594599,1.91957343402571,2.04275600884765,1.91948122083488,1.91915370937029,1.96526996129352,1.84307475852818,1.9128476857201,1.92641874538552,1.96590148630999,1.96589010545893,1.83654862866248,1.90677381581576,1.83392982802454,1.8337671622301,1.9616800118308,2.04526332257088,1.83141656666739,1.90374143579296,1.90147765869863,1.90109598276942,1.90204754915851,1.90136831738614,1.90149070577912,1.95538621726281,1.82983164655861,1.95439074765146,1.95456205494814,1.90550142514716,1.90547174731249,1.90671601856662,1.90642893051902,1.90928373954899,1.83804289472105,1.83945600255918,1.9490481290756,1.94836981568503,1.94659524820888,1.94511979536211,1.9224519461556,1.94627925458831,2.0064844709099,2.00478939473485,2.01360392984688,1.98975554123043,1.99712927669931,2.01237515756434,1.99661747470249,1.99071362406452,1.98586652171204,1.98798205952649,1.91168849103744,1.91030966155204,1.9097819142901,1.90688313442655,1.99260094195317,1.99046820082712,2.00235407212809,1.98630205094873,1.98653508252944,1.97989751319963,1.90830687170485,1.99270352065734,1.99050498158008,1.90762890772333,1.90705602616733,1.99161894442098,1.90648538310477,1.93438414389749,2.00297553621102,1.99157188598847,1.97625102978331,1.99905191649619,1.99513077160962,1.99234002693902,1.99244167333279,1.9817873744855,1.9981959323348,1.97866540020017,1.89963287564319,1.89958495378428,1.89912207898722,1.98272786755432,1.98031673966864,1.97987968688724,1.98585384357662,1.96928172741306,1.98905505948345,1.97629829179337,1.97816318349781,1.98921757085688,1.98616981727547,1.97141240485974,1.97443410791382,1.97419026404464,1.8900601105477,1.88952117369134,1.9761720426334,1.9757616392178,1.88620044204375,1.96911333436854,1.8847626546551,1.9569848016069,1.95835875644338,1.97880285969784,1.97227142199269,1.95033395261687,1.97609041698901,1.94609365808505,1.94783902642313,1.95399563045725,1.94644253062939,1.95254569686567,1.87674502403284,1.87378803135772,1.87460473775029,1.87468229491802,1.96700657863113,1.90205953414396,1.89009147845474,1.80218706468202,1.79973835463957,1.79725233935369,1.79604957361957,1.90350678876526,1.79155039569012,1.79046180516101,1.78977759007164,1.78972605430209,1.90011434061253,1.78455068730127,1.83079344262716,1.83029856118218,1.86985664642973,1.77911253280064,1.82662647561462,1.77547985835792,1.82432362914454,1.82401875404137,1.82295858529594,1.77499939486653,1.77146533821761,1.77105945508961,1.85151083227007,1.83026841958279,1.76829192622989,1.98013623767947,1.76703891122916,1.80053100807406,1.89290558103285,1.76656129758509,1.76590622824405,1.7650062807901,1.76305740073704,1.76173277923036,1.76237275211051,1.76430366905331,1.76458519397945,1.76527183973139,1.76384240871999,1.81015284019691,1.76130431201146,1.76142577358902,1.76227238996639,1.76161684530268
1.94093221811729,1.93697863743446,1.93694916095622,1.93663959565095,1.93603563079575,2.04942626187782,1.85728206030993,1.92850807410509,1.97320919900507,1.924596896271,1.92653500762788,1.92540632442651,2.06242255296405,2.06224423237914,1.84630199925203,1.91754271256674,1.9147302536858,1.91588034423236,1.96864041445571,1.93023090319014,1.84017213665983,1.83837710658196,1.90922635164841,1.96588103496097,1.9041423033367,1.90406141982431,1.83238101192693,1.90447072437031,1.90195932380983,1.90252151254238,1.90262375367723,1.90495193246504,1.82927469376529,1.82964388415131,1.90252987559919,1.90281503341839,1.90345759475639,1.90345658043364,1.90370094862599,1.90513031836886,1.90540539367719,2.03613247665658,2.03049323860975,2.03229954087863,1.90979470035415,1.94961119877054,1.84433228590135,1.84521720267049,1.9482153723433,1.9466889805376,1.94778030657734,1.9469456120648,1.9203923634684,2.01484232061913,2.00878961060889,1.91588815384212,2.00106901682807,1.99519547412222,1.98991923632641,1.94167684850505,1.91299544985436,1.91248188248289,1.91171428313853,1.91190746377875,1.91008482061381,1.90875340101425,1.90943530869946,1.98891967598672,1.98674639293934,1.98667582699149,1.98920801972782,1.98949730517069,1.99837835424239,2.00027590473781,1.99216220481728,1.98690049290999,1.98764955612583,1.99124365621688,1.90692420687007,1.90394276223916,1.9043695799607,1.97656556832919,1.98951259949765,1.98936658826384,1.90412000147806,1.98925566408237,1.90291422759499,1.90241761610262,1.9906358158091,1.97811679096831,1.90030501872965,1.98301370232833,1.97606562550995,1.89723169975651,1.98552303108845,1.89628749802015,1.89710212101365,1.97042328370643,1.9838931220617,1.97521579921457,1.97302623172015,1.89277781428019,1.89275228723444,1.97406879041185,1.97177971978585,1.97518505761502,1.89004921799402,1.98418835029885,1.9704928692059,1.97257342547458,1.97214887344039,1.96703041261265,1.96879366213364,1.95753539286242,1.95728251056297,1.97184571120696,1.9636164051698,1.97225561839478,1.97042835580153,1.94793548714271,1.95248594850512,1.95321969630855,1.87466609593148,1.95216408791079,1.94318665383423,1.94601715981337,1.9575259698657,1.94430468640046,1.9441082168311,1.90011180795832,1.85037829528823,1.80160647817899,1.99868805206798,1.79709131864972,1.90326508089004,1.79352684568207,1.79034804020266,1.78986839272327,1.78892092663621,1.78992235381726,1.99337934964903,1.78382748250253,1.83116828984506,1.7801481390222,1.77906641821794,1.88136438459932,1.8802061699427,1.89850833365412,1.7755336083864,1.8052000676425,1.82239287245636,1.77337195563116,1.7722356607849,1.77160867575755,1.83784104485672,1.83555684657065,1.76833870128132,1.76857134905565,1.76768858155006,1.7685809142435,1.76753805910979,1.76625458204431,1.76650443005467,1.7669218956347,1.76501345803515,1.89396376643355,1.89296440638586,1.76312292776968,1.76396029833513,1.76527751073407,1.76385691688009,1.85835116689954,1.76135642097445,1.76100443472529,1.88750129007407,1.76422152662582
1.93962276365215,1.93828786321948,1.9376567298303,1.9374723004,1.93672623632132,1.95558297777308,1.92927490532315,1.92817359008277,1.92725942609561,1.92598714844129,1.92619754175007,1.92602514101482,1.99289112832948,1.98535513179274,1.93622893558101,1.91705316171622,1.91634552048928,1.91644486023599,1.93580601626974,1.93362265306813,1.92720614427228,1.90871672995395,1.90936002629411,1.91029380122038,1.90421699554443,1.90300422564531,1.90211521533894,1.90186855873802,1.90136278969181,1.90182057144468,1.90270203876629,1.9036556746199,1.86378838247406,1.88110672112923,1.90277423753641,1.90313358463928,1.90352076674877,1.90376780862449,1.90415024494331,1.90483267852737,1.90515759022434,1.90558615919446,1.90624401028574,1.906381293656,1.89512193861238,1.88825033224589,1.87896640939597,1.8677526198228,1.94775884746253,1.95131098319155,1.95691200059948,1.9614513096384,1.96418546398881,1.96556542952234,1.96672615663216,1.96819034616574,1.99875967154519,1.99534416014031,1.94199842466787,1.93664887202049,1.91286033351696,1.91276921773762,1.91190439589214,1.9114226790903,1.91048420715151,1.9098846479871,1.90985225507358,1.98872573146624,1.98902955002978,1.98909620452277,1.98969507802079,1.99021592520879,1.99674343712835,1.99587890439398,1.99445932872765,1.99066671725,1.98613892477504,1.98497960081487,1.93867753317074,1.90244279034488,1.90337548118635,1.98163415639586,1.98759732932226,1.98919843880164,1.98937727356083,1.98919065448483,1.92351598174872,1.93688375247338,1.99180439705399,1.98825722771038,1.98505457280148,1.98168295694589,1.97928630212435,1.98131894022149,1.98285110340454,1.92400217151803,1.93565131426703,1.97440466546786,1.9726513604017,1.97313863194037,1.97354883229343,1.9668236914581,1.97021230783627,1.97231438142149,1.97308682408257,1.97362058840589,1.92359989359087,1.97304817710755,1.97186054735502,1.97086781785337,1.97036942203649,1.96929673599573,1.96931449857856,1.96409089734302,1.96121640660572,1.96888132882169,1.9669637646954,1.96621841023779,1.93370056359977,1.93334394933333,1.93299510632328,1.9328165481678,1.93250440332491,1.93198962595576,1.93156334704166,1.94482951132204,1.94172257528164,1.94191349358373,1.94261774751554,1.90152823747457,1.87474534816236,1.84995181211749,1.83441998037471,1.82175174312608,1.83992150250642,1.79337032597909,1.79301646984094,1.79015457459878,1.78958088975393,1.78917007321038,1.78734415663356,1.78579384462832,1.78564725127741,1.78104681105923,1.78043335066382,1.78011141789167,1.77931254287446,1.77868884896065,1.77540696412739,1.77537707663999,1.77463817361287,1.77332890122332,1.77182036099776,1.77068166039539,1.7692634278937,1.76821485583027,1.76788448440861,1.76812751712014,1.76828308532911,1.76870148205825,1.76763247038434,1.76668142533252,1.7664412492633,1.7874880165522,1.79975858643811,1.81298859336902,1.8285708898572,1.76455322495247,1.76508293073793,1.76575559525561,1.76488875005011,1.76469942910757,1.7637232000459,1.76257595619496,1.76272015557985,1.76330147006923
1.86783299150199,1.93857446577565,1.93726710032068,2.05082027366409,1.93547863041862,1.97572515797876,1.93068945600335,1.92780423776923,1.92795294967243,1.92654104336045,1.9264196436862,1.92632927115148,2.0549163767895,1.97042985990731,2.05136451114229,1.9161571310652,1.91581871774727,1.9158753123521,1.9653266528583,1.93402651316171,1.96635843625764,1.91189005995213,1.91102006520363,1.91192654745435,1.90683392186046,1.90307225859496,1.90359906193046,1.83297290700856,2.04587439623061,1.90198046472067,1.9034178485367,1.90372300214665,1.83007583866324,1.90249380365231,1.90240869192929,1.95455417520731,1.90352135100289,1.90373395730357,1.90395069340161,1.90431637664494,1.90459549512323,1.833335783958,1.90712347690632,1.90693249313369,1.83874309952219,1.84062724265344,1.94904786524047,1.84604785171791,2.03582987294872,1.9637336682506,2.03774867936578,2.04149230740325,2.01511954144089,1.91893361461735,1.91816973835132,1.99590434680513,2.00194001887089,2.00464418566231,1.91285228397718,1.92792486531183,1.9121408332466,1.91943981218333,1.91086293407926,1.91071647251952,1.90975368025741,1.90994421968219,1.90958563306451,1.99570235537023,2.00417816350348,1.99872908276594,2.01889724710149,1.9861170612108,1.99537828196534,1.99580618542776,1.99942263863003,1.99415612348368,1.98542507322842,1.98393229397936,1.99883414020357,1.90327041119104,1.90541642624937,1.99550194552665,1.98730536966153,1.90302160945814,1.98595296775485,1.98591828018099,1.90212352310881,1.97945662000256,1.99083192111428,1.98552676975818,1.98469361468081,1.98015654407089,1.97922276866708,1.98520619137375,1.99043075855116,1.89733349809288,1.99798571897919,1.9776453388572,1.97555745674427,1.97606041824526,1.98040793231888,1.96543003623996,1.9748261073114,1.97279702387626,1.9752361579353,1.98909797656908,1.88936733639197,1.97172002848214,1.8871789756977,1.96867882478967,1.96936794796539,1.97911760189825,1.97074268319311,1.98621531139406,1.95283642671243,1.97547119633161,1.97538998850644,1.94962773423109,1.87920078573929,1.87882849157327,1.87758852149855,1.87730880256308,1.94766225060591,1.87640977230008,1.87640922422098,1.94897669656105,1.87433696646558,1.96385879263252,1.96307850283002,1.9243898649943,1.92595892229963,1.91648216806087,1.79814160836493,1.79776490054478,1.9003338369285,1.79156549067316,1.83961359574474,1.78901996774607,1.78813450625735,1.78837036936869,1.7852900886862,1.78559592361957,1.78493598108922,1.78159258872907,1.78028861493605,1.77908191210066,1.7779524493252,1.77703882992529,1.7749479879578,1.77512876260514,1.77460589976068,1.77333019796934,1.77081215430058,1.76987286566827,1.76906214721115,1.76815881135377,1.85718641601617,1.98244685995534,1.76781635888887,1.7682641130099,1.76576470550031,1.76528683569226,1.76531751205291,1.85439218743238,1.86601488870934,1.76199298131123,1.86393641810805,1.76422658348534,1.7642808886822,1.76496890275281,1.76280510383524,1.76294269032066,1.89079535902108,1.76129044186491,1.76116049701024,1.76108745581672
1.93919139598108,1.93783340694706,1.93848994211393,1.86084056294018,1.86047725841469,2.05222383347629,1.92861469457453,1.8574237960281,1.92702021933597,1.92628503562053,1.9262045330689,1.97256481615722,1.97245023860173,1.84807792411725,1.97077456067257,1.9693805488863,2.05113535851989,1.91429818545863,1.91380081345749,1.91483585375252,1.91417575362616,1.83773843490361,1.83732267500575,1.83685237809699,1.90631178134761,1.83375281607829,1.90448387428027,1.96228148332435,1.83049254518192,1.8666455682809,1.83087077842385,1.83097898838,1.90352309415124,1.95996360688003,1.95908483979941,1.95869979799657,1.83070672300481,1.83283237480967,1.90354348270207,1.90383616010124,1.90415518138855,1.95282874358411,1.9080867448928,1.95121775304486,1.95139709286662,1.9499803288839,1.84321267250936,1.91723108150466,1.94669442728082,1.94669499446978,1.92602322033504,1.9467375678061,1.99143755800127,1.99076851523052,2.01904619871351,1.99320697055468,2.02548032619459,1.98742858933117,2.01516559416754,1.9367419953821,1.91297802350095,1.9130258608199,1.91019619505646,1.9107564759797,1.90978722687319,1.90982999919123,1.91004079017872,1.90980495395263,1.9825762452556,1.97876689896703,1.979848221352,1.98158751112677,1.90931731697588,1.90904360689912,2.01221594125629,1.97803765602232,1.90737699571444,1.90749315252911,1.90618548308548,1.90471218076867,1.90620687471228,1.9989994859313,2.00059649599273,1.990403893462,1.98999725450133,1.90276784930728,1.90180513446762,1.90143127747572,1.99206442029824,1.98217689475603,1.98192443276079,1.98901940278823,1.98354680570238,1.9820736373179,1.97995557849287,1.98836947013314,1.89640048336596,1.98356704643247,1.98456945484899,1.97869045757425,1.98093968164564,1.9664545598578,1.97529592166808,1.98164058698316,1.96258582013751,1.97235098034543,1.98605574238603,1.97783342496854,1.97672159216355,1.96671868093886,1.96811610190501,1.88555392590567,1.96996742543468,1.96782849253486,1.88293776679993,1.96180498475354,1.95019842324409,1.95690650250554,1.87861687637523,1.87860158625418,1.87720382435037,1.87683754623641,1.87622440565609,1.87600552907577,1.94908846901604,1.95005383401008,1.95862467366956,1.95774352876118,1.95030923278331,1.92076815873476,1.84987100298384,1.80042971453043,1.79735484471323,1.79626244706491,1.79552168724445,1.83986198429565,1.83876346293378,1.83843384480921,1.84565852352681,1.80714042147036,1.78459427786812,1.78409604400335,1.78367745724684,1.78269447346807,1.77931186754472,1.90018106851357,1.77753847316822,1.90337477549583,1.89785634017174,1.8141943571004,1.89882524883103,1.77236588955525,1.8984433277937,1.77027942119432,1.85584014435957,1.99295923650797,1.76896171605514,1.76811496439121,1.86290557526975,1.78051355017276,1.76810115588124,1.81348340974676,1.76519344702122,1.76475644822847,1.76483372513798,1.89476733780935,1.76260036219487,1.98488160656835,1.89058541073104,1.7813226083969,1.76280395457422,1.75881508106123,1.76041443367326,1.76086174183398,1.7608762358192,1.76050218684796
1.94245522578456,1.9805309801871,1.86616368321132,1.8663668942018,1.93587169773294,1.85997476443021,1.92953238318728,1.85814308064841,1.92745476979455,1.92612934564326,1.92595054247234,1.92462344018196,2.05186942566143,1.92263704331577,1.92118296190399,1.91831904333593,1.84362854403231,1.91395790558354,1.91402891939565,1.9148703817568,1.91402343380381,1.91117081245579,1.91006942713271,1.90988188192029,1.90603260441845,1.83335888023971,1.83340144872394,1.96094475969368,1.90318601796674,1.90444459779783,1.90422798780845,1.90446381902515,2.04247019262287,1.90316870319337,1.90329541531491,1.90306106031905,1.90355727463198,1.83072963826705,1.90352061543893,1.90367636414902,1.90431952122803,1.83417599835829,1.90983491493807,1.90945808250754,1.94980282786469,1.91296517888867,1.84110351528728,1.92287350835691,1.94803740822526,1.94759646938698,1.94864235659322,2.02886936204331,1.92191386813966,1.99178473718523,1.99249909363276,1.99273987270482,1.915592015492,2.0090036848429,1.9858732285445,1.98518319924448,1.98441664257243,1.91068615913927,1.90986871170094,1.91005570614697,1.91010765107095,1.90946007512471,1.9881671011716,1.99203177525475,1.98331366600224,1.9783857653475,2.00134411458563,1.98204091186861,1.99626409658832,1.99691516088664,1.98606380050431,1.98297524522166,1.99801215262687,1.90793460042895,1.9861102829578,1.94862846416085,1.98909228600496,1.90497773918917,1.90667092245468,1.98693621641082,1.97948410670342,1.90375644324142,1.9927949860402,1.99146203975057,1.99396106692057,1.98293679793398,1.98695086245608,1.97898678919982,1.98792070275151,1.9825897815175,1.98700374395408,1.98024307649617,1.97950204746678,1.97898041743664,1.89493028785636,1.9729162604763,1.97274368708482,1.9662291293745,1.89315611651598,1.96403397952603,1.97745934055867,1.95605778191634,1.96869404695296,1.88746353109234,1.96783009602646,1.96552308421352,1.96544557407821,1.9728049357826,1.88472536335493,1.9751484428113,1.97173130383779,1.88064624057592,1.9685511719584,1.96254926565606,1.87857845365646,1.87853764692867,1.87719287753497,1.87617017874901,1.87648414889485,1.87547416705527,1.87551979945914,1.87641763155927,1.94617432238738,1.9507951378318,1.95246233262,1.91534698933002,1.84936572144304,1.84847304928938,1.89936172176189,1.91427227959311,1.84181803833827,1.84007366546684,1.83890920580051,1.79016498299631,1.8356564254772,1.81800736258492,1.83348102200122,1.83180081736704,1.7834741890161,1.90615334388394,1.77863587240336,1.77687038908144,1.7765952357751,1.86365252295714,1.77270329582267,1.77413792351889,1.77268145061889,1.77115513144812,1.77039564640543,1.77013204878428,1.76835183659997,1.76787318001077,1.76786123325525,1.76774186050597,1.76439491251036,1.78405436479306,1.81380835234447,1.81347948225825,1.7646676259334,1.7644502538305,1.76366307310897,1.763615025217,1.76260487202613,1.76246570619923,1.76068288690911,1.79074488298218,1.89015738485836,1.88798440896513,1.88680515296162,1.89321004775212,1.98016488175727,1.76087441038607
1.97969894758419,1.9384968594461,1.97946883359213,1.93860227749091,1.97956350151369,1.9342372920612,1.8603092624163,1.93344300769124,1.92828120436985,1.92611510990789,1.85338844605533,1.92392642476725,2.06399287094045,2.05941852293211,1.921477087885,1.91946135146891,1.91635270348047,1.91433481630061,2.04004055238533,1.9472048735623,1.96643436993464,1.91265510899129,1.91151391724685,1.9101386879584,1.96543227774211,1.90819037939948,1.90864704150125,1.90684727669484,1.90435745778687,1.90578570411519,1.83078681956018,1.90539126930909,2.04943147653379,1.90284843415227,1.83100606986651,1.90234560108739,1.83181766065696,1.90345531114387,1.90433248034588,1.90371452082887,1.90527149780883,1.95528272617495,1.90903898825363,1.83793793001053,1.91136841028567,1.91290732710752,1.91474275082721,1.94722493381632,1.92106806078591,1.9207881551568,1.92283887057074,1.94646183950428,1.92035477214423,2.02810187940904,2.00731334549153,2.00393358377658,2.00544466082021,1.98848102101104,1.9887284967635,1.98740788635988,1.98551454428755,1.91220607286061,1.91107097521485,1.91048474568474,1.91029189120098,1.90983563412009,2.0076835707439,2.00605389788126,1.98082269473682,1.97833181234513,1.98118808184441,1.979470795918,1.97930624241671,1.97995363944132,1.99242540070404,2.00065674031215,1.99875526416736,1.99679404125636,1.99191786410138,1.94708870776591,1.90470001873173,1.99701184081919,1.99629963992831,1.99907234073457,1.98864767755662,1.9033423768815,1.9909982242509,1.90044024412667,1.97611447743454,1.98287989450022,1.98795197758109,1.98750065080282,1.98084841975485,1.97661267178091,1.98503520300551,1.89603880815681,1.97607510603628,1.97320702917338,1.97596287036488,1.97540278908942,1.97825927993918,1.98915196489129,1.97898425894521,1.96423657952619,1.97748376482677,1.98022102578871,1.981963123717,1.96165721979749,1.9606624597994,1.96123780054291,1.95639303838144,1.88435999728968,1.88459976297759,1.88463535748266,1.96720286499438,1.96914986085569,1.96721310238764,1.96892442199029,1.87860534391018,1.87868005656372,1.87689496973401,1.87615811267594,1.87543169878176,1.87620330929166,1.87541047599415,1.95096119350981,1.94650604989957,1.94603608925983,1.9460599038495,1.91038516422668,1.9064646180063,1.97832211275213,1.79643525259671,1.79493549866826,1.79299379126374,1.79129088450433,1.83872838357744,1.78877632392952,1.8361914626483,1.81007371279514,1.78178643733836,1.78211391101417,1.78173278154254,1.90640159132889,1.78018853486058,1.90035293298037,1.86160724657847,1.88579022205376,1.77459479650697,1.77526584983921,1.77305160724491,1.77186539878999,1.85741536619086,1.89320146155628,1.76821420419831,1.7682365139901,1.76792385303376,1.81404906434427,1.81406111180475,1.78806285254524,1.76418482860427,1.76335744290215,1.81116074488823,1.81083606151551,1.89285773262268,1.76262539508525,1.76287522341719,1.80916757259851,1.80995802746694,1.80046124483162,1.80880688735732,1.7609352240124,1.76004121959058,1.88771406795324,1.76093097718283,1.76141629618379
1.96709182616136,1.94122954597089,1.94112697162691,1.94106663358362,1.96013706264655,1.94523447115515,1.93107507203584,1.93099352667637,1.92854351147145,1.92630210669661,1.92543969282435,1.93933351521753,1.95895081877723,1.94769075344528,1.93651374226558,1.91894982396886,1.91745620151721,1.93275047663823,1.94693805938497,1.94264165289261,1.93494815044091,1.92627282063813,1.91879433643535,1.91027812245187,1.91016106236329,1.90966751513439,1.90894535545661,1.90722760147004,1.90682360996274,1.90779521961219,1.90368405194806,1.90276146480932,1.90188601121186,1.90174341666469,1.902020381637,1.90121536024756,1.90073159955837,1.90087340966852,1.90303221388923,1.90276274484098,1.90323232099218,1.90735068522209,1.90807304627994,1.90883909773001,1.90900737718662,1.92171499457752,1.92780015570851,1.94004474566868,1.91977493155248,1.91962032520573,1.94249944845271,1.95626627459644,1.96293308618794,2.00110093194156,2.00371542118501,2.00373091366613,2.00423138096074,2.00367712597118,1.99156973968539,1.98996074280837,1.98784591593702,1.91249666537865,1.91202991625024,1.9117322125094,1.91133489662096,1.91068588863899,1.97619597055642,1.97649487067827,1.97776921692406,1.97705991071549,1.97979254763643,1.98679327826597,1.99039698254981,1.99214834172733,1.99209470702428,1.99085402023347,1.99010822278352,1.99030540482851,1.98894722409204,1.94446084524103,1.92445965478526,1.98037474413612,1.98151184645622,1.97994818011296,1.95621252346386,1.95717043010416,1.95837377323319,1.95907038434558,1.9591491604737,1.95899575874078,1.95887895025563,1.9813718368355,1.98077491751162,1.97869862087919,1.97968234142884,1.97830793937976,1.97846038691918,1.97831780475586,1.97738062557815,1.97633642153978,1.97751827337595,1.97852722553497,1.97882429455735,1.97901146356089,1.97803746448796,1.97989299506542,1.98104683392711,1.96495007671994,1.96297787848503,1.96176602352746,1.96212253925636,1.88609311236397,1.88608870125093,1.88541969539442,1.91123292485253,1.9223183576553,1.96183410520869,1.9644157708967,1.87931274939519,1.87910389596091,1.87786893806101,1.87682390405931,1.87650942719791,1.87622805753861,1.87594672731766,1.94757329299329,1.94546027348019,1.94523788686846,1.94527341242937,1.89433118464045,1.84778382353499,1.8288557023557,1.79637996984884,1.79536995986548,1.79405389593308,1.79275830175315,1.79224357480945,1.78918152133489,1.78823203906445,1.78732104517099,1.78398029050282,1.78315160057411,1.78259132429643,1.78232305043608,1.78153122766616,1.80625763977511,1.82064680770552,1.83545226865073,1.77662260588712,1.77678121983243,1.77529574887519,1.80737257083789,1.82788181913008,1.80571781042523,1.76861820082333,1.76832217447182,1.76798705707867,1.809492885227,1.80432871611722,1.79600693626778,1.78754874118256,1.77861965916892,1.78844225971179,1.79667067199681,1.78474161232131,1.76330386706952,1.76338228365122,1.78502675617382,1.79925567813411,1.79565416690947,1.78300010714577,1.76063102164421,1.76042008873052,1.76054591550701,1.76063635771737,1.76109501334531
1.98092883211244,1.94172915366395,1.94085914521333,1.94098603455296,1.97875312357352,1.97816075456742,1.93191285006012,1.93159156350663,1.93010523613327,1.92784025966301,1.92797375261866,2.06083620700843,2.05957586758523,1.92349593862961,1.97527501761706,1.84664409382632,1.91674973959127,2.05205196900949,1.97202052391662,1.9316354159061,1.91521024860429,2.04554976334888,1.96539260291648,1.90894216321435,1.90845008343188,1.96622487217507,1.90874534917033,1.90575031797275,1.83313522965599,1.90925614487405,2.04796541391002,1.83116168923919,1.83142791082737,1.83044109475015,1.95877730366656,1.90240198718226,1.90252953430171,1.8309296405362,1.9039143591532,1.90298106119413,1.83291652335546,1.9084717820119,1.90832180235502,1.91163165159784,1.83938922889783,1.95013826982758,1.95120266804718,1.94719636270383,1.92069450220687,1.92068883678945,1.94756348178407,2.0329497637448,2.00298365523665,2.00492671257176,2.00674114186318,2.00537835251015,2.00518328142386,2.00789157543963,1.91308199443112,1.98884307010726,1.9863241960827,1.91261058317236,1.9119409044944,1.91254309997704,1.91171927093396,1.91026441941049,1.98052955693499,1.98074853164167,1.98022142051094,1.97651714117838,1.90893218950119,2.01552444520237,1.99881823384449,2.01872768356622,1.99233700515391,1.90660160062078,1.98732383160812,1.98266870172115,2.00892280323186,1.94179466386596,1.90612511030739,1.98075306930067,1.98634425008272,1.9821721117277,1.90333789153242,1.99761378760946,1.90122122911889,1.98919323774931,1.90091116924986,1.92538684380383,1.90092792050883,1.98222487449982,1.98260429073124,1.97833093223223,1.8966499432355,1.98833022859737,1.98977451246706,1.98649918885554,1.97877515147152,1.97835835504923,1.89320953636753,1.97865932571631,1.97741891087017,1.97873732842481,1.97526645907631,1.97365720927302,1.99874446899415,1.96623138038077,1.97480211705363,1.97091955089423,1.96958627137097,1.88622437359303,1.98061363897614,1.88383532838511,1.88375911841341,1.88061051959847,1.95874783778246,1.9676867710797,1.87873286508885,1.87872030041406,1.87701098249712,1.87608917177285,1.87614458640878,1.87554693413999,1.87497563567764,1.9518910427605,1.87412781614307,1.94633887030566,1.94624860651739,1.89045393125027,1.80161328775954,1.80082776326714,1.79645362375276,1.79540383069198,1.79413939197628,1.79259845835807,1.79165337855379,1.78823941381499,1.78669875541963,1.78651036866332,1.7846224955952,1.78246066424718,1.78166453540025,1.7810804652965,1.77901604490552,1.77560070917219,1.77544358985029,1.89686790351469,1.77544783990814,1.77612894087025,1.7731684634784,1.89942847373828,1.89851822928871,1.76997124938198,1.76844072580301,1.76751658857068,1.76686504415937,1.81328293020688,1.76478874953647,1.81764095671997,1.87924367997621,1.76203072699614,1.76118184011139,1.81145708897157,1.76087345850683,1.75957604650765,1.75934960926845,1.76058161502862,1.84040098642534,1.78718316217943,1.76016615461368,1.75947561265424,1.75933255357114,1.75924269840166,1.75912885520588,1.76064766083565
2.0551168853341,1.98368604167425,1.94019032342462,1.97696422479204,1.86353617810335,1.97826673786806,1.93030857573383,1.97669417701032,1.92894375512613,1.92828909938286,1.97479732915703,1.92556381547071,1.92436846175475,1.92328107124207,1.97251702994595,1.8473633778962,1.91840051949507,1.91718885294871,1.84063488661227,1.87883685544891,1.83996585591751,1.91107874088061,1.96534804477275,1.90984700235517,1.90913532898073,2.05518372151563,1.83405187402116,1.90495970033046,1.90703110331348,1.90900036475966,1.9621096729978,1.83117460745895,1.9042554085088,1.90514728080281,1.82764514861988,1.90285080538314,1.90320377891599,2.05478270442643,1.95581120303703,1.90358137811598,1.83188474061417,1.83511981562133,1.90888747775291,1.8375559995387,2.02750399433484,1.95004592413815,1.91882938209595,1.91940267807557,1.92451813168655,1.92303527826277,1.92537634086958,1.94710031880663,1.99974759280627,2.00783133957597,1.91830211759381,1.98583104615747,1.99821770889143,1.99696227174965,1.99637505986474,1.99128581082481,1.91310859915564,1.91275114439956,1.91278118389033,1.9113327888971,1.91088891520325,1.91049129574799,1.99582728014822,1.98824226330091,2.01159404060105,1.9782865583273,1.98146066546347,1.99615694518443,1.90769962810765,1.99804907421758,1.98905837432167,1.98723095225455,1.98881366344282,1.97868792732549,1.98856350927709,1.93749148446596,1.90657594936396,1.99194407973196,1.98672517998576,1.90390294374017,1.90320574900036,1.98847629330296,1.99659667562679,1.98738609063076,1.98367686589017,1.98429541568451,1.98292746776145,1.98375971133009,1.89972384945741,1.97818208908098,1.98592072550144,1.97357814933668,1.97476742497741,1.89620151201876,1.98257499299309,1.97941662375659,1.89301187398929,1.89321252478128,1.98079925444231,1.98271854272185,1.97620562154458,1.97528148597752,1.88840395750652,1.88922508773679,1.97284679915438,1.97187169590504,1.97946152530557,1.97906742869575,1.88475189172727,1.97343270916184,1.96729669752139,1.88108673505717,1.96540870882871,1.87925222878965,1.96592877509064,1.87848122841259,1.87738851903775,1.87561575865301,1.87547045754446,1.8740875431523,1.87501047427918,1.87515730142389,1.87403483489902,1.9606869391008,1.95802088587659,1.88500908838469,1.8021716740038,1.80161421322312,1.79570092930451,1.79284280397871,1.79286429682096,1.83885322525353,1.79043979711129,1.78942046692804,1.9789713785156,1.85748921627267,1.97402550108213,1.7818407293129,1.7815800107188,1.78130590049885,1.77844663679723,1.77502635457313,1.77455599687863,1.77392556469758,1.82204040300145,1.79857731678113,1.77131827409255,1.76993312221253,1.98618968612122,1.76691075537501,1.767204008965,1.76701852260756,1.76564385057898,1.8128279347044,1.96618657179084,1.851488136138,1.87966926070074,1.76376674931574,1.87854524174859,1.80952231020568,1.76146369805117,1.76090640267366,1.8898327535482,1.75936415047887,1.89288637670048,1.78126639857036,1.75954588001169,1.75891134020922,1.75964405873152,1.87097365718344,1.76165372189352,1.76055716176595
1.87099436914928,1.97599414654939,1.94086677465029,1.97861300485817,1.93804241102462,1.93255242653565,1.97627335144307,1.93160619408397,1.97417313834569,1.92812810082908,1.92784686946731,2.05580758001686,1.9250156035382,1.92292731893907,1.9211733137609,1.91975663597109,1.97063595187325,1.91659856765743,2.04848100731042,1.88708458796365,1.91541424650236,1.91294061089206,1.91233124625508,1.90950808488887,1.9082895940416,1.90676831115645,1.90643313575785,1.90556501596707,1.83351727797883,1.88663217436544,1.90515001272705,1.90296261819492,1.90363971531187,1.82986983866235,2.04533015875241,1.90655035346204,2.04197880164981,1.90712280820861,1.95240671421795,1.90415838992137,1.90485225398296,1.90372549521569,1.95300074797688,1.90971389668277,1.95225611023458,1.8413083737305,1.91741156420088,1.94939577115115,2.03004376923311,1.94428891158419,1.94722837956103,1.94871445629793,1.99299546270713,1.99313414241904,1.91787543513233,1.91821807256607,2.00114599826296,1.99623087899838,2.00655308014324,1.99278817711819,1.98966572279736,1.98480418273534,1.91136594458221,1.9112005514743,1.91079360542442,1.91010849710547,2.01014930838587,2.00250971110474,1.98346706786188,1.98125831375309,1.98540947749955,2.00509233870121,1.90928122575982,1.90822960041769,1.90679233047956,1.98716776568246,1.98004055639984,1.99252138060357,1.99343950075858,1.93186401398075,1.90669944803184,1.99092763446189,2.00541816634931,1.99245493325295,1.98200853884785,1.9897530642533,1.98980260841397,1.90029720263723,1.89982006847067,1.98021666409391,1.973570157575,1.97994050170507,1.97297703300603,1.97808087217884,1.89630494896637,1.89615218055144,1.98259773001391,1.89586414843578,1.98108102938689,1.97985147349185,1.97698845551524,1.98270182020205,1.98203899843075,1.97419361154161,1.97461891868841,1.96014803731624,1.98954374381502,1.97467134228443,1.97311779546525,1.97243906751122,1.97324766877309,1.96761724801217,1.97170257039022,1.97040626717712,1.98293791937474,1.88060354895968,1.96379124977106,1.95862331460303,1.87713794942101,1.87822472368998,1.87708127205056,1.87611915902729,1.87477183492361,1.8749864830468,1.87480052687877,1.87359521804907,1.95144386668582,1.96395072679437,1.87297348810939,1.87965896494131,1.80069709381674,1.88887185035786,1.89705303274943,1.79419152567595,1.79328631453062,1.86103591594522,1.86016386290997,1.78832136825203,1.78465769524343,1.84490876795643,1.90488835357921,1.78172684711276,1.78085299166322,1.9019665493631,1.77755378591699,1.88034509877727,1.8796385448582,1.82105884073644,1.82109618291699,1.81919707885293,1.86506342913069,1.77169309897849,1.77061012625706,1.7688021503625,1.76779481441561,1.97692810096586,1.76458357393822,1.81303087883671,1.81197785627393,1.83588514660324,1.88023667467328,1.76424510962643,1.81107899878401,1.76115269602,1.96877408681878,1.76412743875009,1.89048856646801,1.88972581553486,1.7586393851489,1.7784198695999,1.89056620639868,1.75856798774313,1.75849534916246,1.75859723594487,1.80708792391999,1.83400862850524
1.94001144800243,1.93935871034941,1.86637701626557,1.86419104618203,1.86404116841793,1.93313576233915,1.93152574515032,1.93068018247398,1.85726440420754,1.92745884414934,1.9278389557835,2.05513285285091,1.97578209375181,1.92329112945078,1.92252437998066,1.91956543105416,1.92018280705391,1.84345183758531,1.84182915190039,1.85691189841978,1.84084921291698,1.84059433523253,1.91032795148893,1.83750829214073,1.90918892892383,1.96434544826361,1.96584130565984,1.90414245626064,1.90542333181427,1.87879020792967,1.83054677912893,1.90933346578252,1.90318546890425,1.9025955797926,1.90116808172543,1.95654306559815,1.90319107847452,1.82960250092709,1.95472798622763,1.90410535149727,1.90526861811464,1.83459982615701,1.83540832624571,1.91093439748857,1.91077946945378,2.0387420208584,1.95212880473212,1.9497658977378,1.91976525913656,1.94252214704455,1.94920200570701,2.02167159587942,1.99349346507081,1.99277818038343,1.99715422008453,2.0136928625192,1.98995915779264,1.99578805650782,1.98695474023173,1.94402600177309,1.9121238973516,1.91160329932032,1.91187843084324,1.91194064444751,1.910791437345,1.90698792635676,1.90269402552768,2.00189178492522,1.98308885249649,1.98036905415081,1.99754492601408,1.99900520461852,1.99072686374707,1.99389826745518,1.90708752285475,1.97854102074587,1.98731531363147,1.97992875028169,1.90658494607829,1.92600824817778,2.00258455121937,1.99028274699084,1.97852606825491,1.97732542042857,1.99270267569896,1.97610772172694,1.98213292431703,1.98083056048104,1.98207071626762,1.97926864479083,1.89948963660881,1.97809719189311,1.97614723015232,1.98232562979016,1.98986276537788,1.97250654116263,1.98382492500044,1.97941209034747,1.89457112934829,1.89600178017621,1.89395844768353,1.97510148910233,1.97506194326717,1.89209160660277,1.89118758712826,1.97923822908711,1.97975310934627,1.97024008276113,1.97844685217078,1.97189940456478,1.97027294928502,1.88609919500728,1.97537912833897,1.97294565896308,1.970771496569,1.97028896639714,1.98235821073066,1.97372730863364,1.98019085871801,1.87892636342407,1.87789504845693,1.87581031263227,1.94672769491732,1.87255090926786,1.87593674879211,1.94641791977069,1.9594848317456,1.96276325037681,1.88278097858978,1.881589765438,1.88174636006298,1.8480448727379,1.79664729489589,1.79589027552845,1.84059711150709,1.98512985524262,1.9017947931768,1.8347224482858,1.83449229259098,1.83466453256283,1.8336736808641,1.8310872011475,1.78106921080043,1.8271965324564,1.87358026826324,1.77710519214584,1.77561539506519,1.82101410200757,1.82067064428555,1.81635837153143,1.76992694713977,1.81698698293963,1.77099229523246,1.8535867019588,1.76623268569061,1.7667102064404,1.89983730161786,1.99299629293556,1.96569131839895,1.81278334146826,1.76446788498795,1.76378710983219,1.76261126253487,1.89437586874609,1.7615096914598,1.84835438374732,1.7615737591427,1.97295612217759,1.76154113111343,1.76224303442435,1.76111304490034,1.75940696857575,1.76028507318372,1.7588278207296,1.75687619315608,1.80984664328719
1.94099700886238,1.94058946698113,1.93833621368421,1.93798546391346,1.93598863578928,1.93398885910554,1.93208716249346,1.92990915291485,1.92742699418857,1.92689157877181,1.92662789368516,1.92612307958898,1.92544704680557,1.92292568112724,1.92224763897906,1.92076081002666,1.91993407780153,1.88217711016309,1.85730218832516,1.86471166401463,1.87159143026521,1.87866773951072,1.88469422909427,1.89192629010507,1.90914160408787,1.90871718507077,1.90840213128766,1.90339534105229,1.90386466394446,1.86836877336706,1.86062258339485,1.90245908910463,1.90221000013339,1.90215376986296,1.90203049184661,1.90290161496701,1.90354485913802,1.90352748978491,1.90277658741287,1.90342001501951,1.90443555304755,1.87854982116096,1.86666408954723,1.91157147966652,1.91162139489735,1.91641721452956,1.91979185600667,1.91996855508164,1.92015543282925,1.94147702431318,1.94465041151888,1.96503439648167,1.99137524229043,1.99179218179086,1.99281792142539,1.99103120380124,1.99091082128991,1.99318208564673,1.99168043098079,1.9376644458216,1.91323937220557,1.91334003044156,1.91239739453058,1.91168398829783,1.91039784535633,1.90818350726111,1.90549065889469,1.98489151837397,1.98195888801346,1.98176378350356,1.99279230578731,1.99025467248039,1.99153025152977,1.9924710386758,1.98839084262178,1.98659562862436,1.98149419100938,1.97797102360417,1.91870565740568,1.92082567316028,1.94138596414464,1.97629923227562,1.97674829560193,1.97670838301309,1.97608431555586,1.97589227911406,1.97616125090519,1.97765292932266,1.97683458581861,1.97531805640334,1.97321375954678,1.97501960569379,1.97528801515932,1.98217009272054,1.98229791392856,1.93669463949834,1.92737726819209,1.91605490657112,1.89602593828276,1.89674067920931,1.89569448927782,1.96594069119152,1.96829701541604,1.9088567164264,1.91662395832953,1.92449639099972,1.93237151291525,1.97120129807713,1.97403927665227,1.972245617351,1.97124541242475,1.92086824608823,1.96920546101996,1.97047819072209,1.96858942902717,1.97066584932316,1.97389263103849,1.97578285613957,1.97521379916917,1.87912561957669,1.87803861253835,1.87679764309003,1.87576771082199,1.87450865522847,1.87532937134907,1.89406053620069,1.91148522943151,1.92632279518152,1.90471466708271,1.88859414929042,1.88082475865539,1.83071647463231,1.79631375734594,1.79665017388554,1.80838085772346,1.81355234459039,1.82083099996326,1.82765444513982,1.8355323367173,1.83519986149076,1.83339778145133,1.8316237464236,1.82638613714942,1.82637761866618,1.80808411462431,1.79770787298927,1.80573368620952,1.81738703766712,1.81698383093795,1.81494611841903,1.80265569961737,1.79605521359401,1.7898381676963,1.78479358651778,1.76715339883936,1.76711416096892,1.87901713790633,1.87119064916622,1.81278364106467,1.79552350356918,1.76419860232377,1.76372113798011,1.76340125606185,1.76337432825272,1.7627125554527,1.76276865429288,1.76241501816416,1.76291995354448,1.76248845737009,1.76248968512387,1.76148926059202,1.76078955489211,1.76104433869825,1.76016650789879,1.76055912243349,1.80091982797436
1.87143910915725,1.94416106522293,1.93988979787874,1.94027832975493,1.93616188920547,1.9774525674374,1.93631965377206,1.92967218814765,1.9760502614065,1.92737667916754,1.85648227309688,1.92690224902276,1.92431830691056,1.92339804025056,1.92253657415055,1.92135919176923,1.9190054657699,1.97211589589545,1.84213294373728,1.87437091289182,2.04894767996419,1.96665464162258,1.84007669290553,1.90879456495304,1.90915791457019,1.90836817111792,1.90790973199423,1.83404878370586,1.96204272853577,1.86213956993596,1.83165999027214,1.90458286493199,1.90182498329136,1.83148984913332,1.90149395145799,1.90209463401816,1.95608476032416,1.90420699471196,1.83257190482595,1.90406483663531,1.90599469343677,1.90659368149716,1.83572245886719,1.91301589283932,1.91336366547913,1.84237777772466,1.91977876485801,1.91983689591368,1.92021084149503,1.93574747831275,1.92867032924545,1.94677728396058,2.01143808661504,1.9917437239957,2.00535199425978,1.98948409836135,1.98881383346008,1.99785965502723,1.99798797214744,1.92988946353041,1.91353646849867,1.91522386484108,1.91210800454881,1.91103343780096,1.91032303319028,1.90916716347661,1.90375670743554,1.99161280603706,1.98234437821107,1.98563567519049,1.99447075006728,1.9862394718658,1.99456968069201,1.99327331877369,1.99185430783131,1.99493269953006,1.90605943614652,1.97832400701065,1.90591294480132,1.91837441442436,1.90603813098251,1.97677347051927,1.97584842271446,2.00298352625719,1.97573107983064,1.97503181743766,1.97386266195254,1.90192414148281,1.97666207325333,1.97414835035633,1.97225645196761,1.99302941540215,1.97504081604245,1.98660577236098,1.9828610671912,1.896768616822,1.89596325810761,1.89490912024582,1.89411315474916,1.89572096219241,1.89364249846575,1.96617963640903,1.97174136407485,1.89162488359605,1.97952088282852,1.88710760380678,1.88766131197674,1.96725410472622,1.88585061177434,1.97092053213533,1.97123727015308,1.88614698183387,1.97010889803225,1.97292751555985,1.88168068857511,1.97081318150375,1.88040013758773,1.87651030101388,1.97088884597855,1.87846234950123,1.87707732706042,1.87621680183508,1.87405950608985,1.87284641541039,1.87437863420404,1.87371679922585,1.87310718076514,1.96601699183908,1.96569367590031,1.89233491688973,1.88097829178189,1.80074857318049,1.79498785101323,1.79378989278907,1.79238917049809,1.79242770351845,1.78795691788539,1.78790382678412,1.87556625765738,1.83623821796367,1.78745084706358,1.8504585726685,1.82818250761762,1.82675910390399,1.77702913513862,1.77610441901065,1.88931793853886,1.88913681041551,1.77406043709176,1.8107839461919,1.89869157646796,1.76914483049576,1.8993050610131,1.76584330255562,1.76613854612729,1.7650378198043,1.8972172398115,1.85785751337211,1.76246218975441,1.76385444262164,1.76298501998698,1.76200687547917,1.76207820058892,1.76135719492327,1.76090804916319,1.7604953693407,1.7604056500878,1.76150373483683,1.76117430534561,1.76159935475211,1.75994382093954,1.75971692916321,1.80847883364785,1.75917239177053,1.76057193001163,1.81740438387289
1.94351219244019,1.94280613563731,1.94043139087381,1.86745086873603,1.93697014769683,1.97808410297256,1.97549808075672,1.97545292141145,1.97574669229111,1.92831838203103,1.92679951584087,1.92633486479735,1.85101871610473,1.92083941668696,1.92214450911905,1.92062397697467,1.91961511885869,1.844060237176,1.84268890429159,1.88367614206307,2.05732328584279,2.05606273056139,1.91403536242336,1.84035357113717,1.91279524496748,1.90800301577285,1.90737949490291,1.83426192828231,1.83278692488331,1.85337773723383,1.83164102150492,1.90374205196567,1.90322718628984,1.83216457457561,1.90440602707799,1.90412349229301,1.90413497923629,1.90551154424711,1.90473598297222,1.90450665603895,1.90709395734799,1.90733376283278,1.90883180373558,1.95244431134549,1.9126276998823,1.91302514384878,1.84396091735021,1.84459000686326,2.0247159707623,1.95259126546639,2.02260585703103,1.94813399024829,2.01169928531042,1.92031346017579,1.91937775363432,2.00784977273573,2.01173514067737,1.99590283474538,1.91532704837062,1.91425376955164,1.91350986207313,1.91491592477456,1.91230232003098,1.91148481331181,1.91054882896891,1.91055859449799,1.91038475955666,1.99859445038155,1.90922967646382,1.93622038426016,1.91021603671085,1.90978177658488,1.99620890739605,1.99443717215355,1.90764482109989,1.99238793770173,1.99879438720302,1.9923439995195,1.99207903008177,1.99057867269672,1.99635580824084,1.98919076032669,1.99820770224878,1.99601843406561,1.98391878608476,1.9021143705846,1.98318131193887,1.99526767360983,1.98564541254498,1.98220200394443,1.98977754255244,1.97785624503812,1.98844478036405,1.96634678687587,1.98383438708653,1.97742980910331,1.97569568683641,1.97835076500856,1.99239975829431,1.9816972390858,1.97750527305599,1.97750029040309,1.8923751186756,1.89219466890849,1.98053149993354,1.97726636847677,1.9721285034068,1.97153618924891,1.97098282449494,1.97019144256363,1.9694065641449,1.96809124527226,1.88465641146793,1.96093257560493,1.88184619810609,1.95212042131384,1.95032288943627,1.94997117025954,1.87677172189901,1.87770670605387,1.87753612820511,1.8747160497041,1.87360389374275,1.87243115637986,1.87294869324474,1.87322584020622,1.87322484497597,1.96536379169836,1.96868598619525,1.90010526512798,1.91412102931098,1.80036378347667,1.79636333882845,1.79419473057833,1.79278973474641,1.88837970845994,1.78764284931533,1.78728746688967,1.78764311235887,1.83564201059629,1.97293702612572,1.78384280952972,1.96576645864977,1.77835875103077,1.77529491932026,1.77515652353012,1.77512430057005,1.88923391591065,1.82017607158967,1.80591049799812,1.77083987969286,1.89180865235662,1.89903190849055,1.76658184707606,1.81392119505971,1.81328335055656,1.89767510783008,1.8975902664753,1.89707406601798,1.76434450480871,1.76170128830486,1.89742168901883,1.75983981634736,1.75985784936946,1.84441978966562,1.76036315040683,1.76039375195984,1.76119739602765,1.76078706607945,1.76139717074209,1.76020418963547,1.76093202713394,1.75987256811002,1.89006016102421,1.76049667183056,1.76053511414586
1.87000354286801,1.86990244578268,1.97909476828346,1.93956478810552,1.93869547033069,1.93389518427548,1.93553849073192,1.86046171375281,1.92961192471387,1.92877590817223,1.92890581642804,1.92738117937555,1.97359583991512,1.92355473093492,1.84965488559366,1.84778983786135,1.97026522434229,1.96946955551451,1.84341095789901,1.89107272788818,1.91581464994886,1.91428503620359,1.83973133488222,1.96660668493191,1.91107115597282,2.04929258951475,1.90699238663466,1.90650489482119,1.83181588193643,1.87107403608281,1.90609703211573,1.83097740967062,1.90267534517247,1.9030788784165,2.04337281343607,1.95933115506605,1.90449759943269,1.90544604824053,1.90527044646087,1.90352060485987,1.90412753053203,1.8338364984914,1.90878569245042,1.90815257042205,1.91359038503645,1.91378298323041,2.04178784113114,1.84792963451941,1.92073963732041,1.94560570666377,1.94725437155077,1.9462040327689,1.92025460157117,2.00212997983473,1.98924881075687,2.00303167728076,2.00459125454755,1.99289203444285,2.00225614573674,1.9138236462507,1.91308608636289,1.91289058180292,1.91242600335089,1.91179739596184,1.91178433211248,1.91097218179644,1.90992180603515,1.90987667368238,2.01022067805904,2.00924525514214,2.00948271136985,1.90929843843135,1.99008975074954,1.99576936589462,1.90931254296291,1.99212323408427,2.00080103562601,1.99210049325081,1.99268333829196,1.98829120460848,1.99145468858139,1.99042501915233,1.9044501896108,1.98909878935622,1.99143293323322,1.90239934769866,1.99359955097648,1.97937490505313,1.90149406614095,1.93005888711491,1.98856057747474,1.98963049872709,1.98749144412709,1.97825421608987,1.98313311367618,1.9777116123086,1.97604518630274,1.89549805721226,1.97817440676034,1.98169880934542,1.89360294922341,1.97741190941117,1.97825922099606,1.89102311820343,1.99091360823052,1.97744994089024,1.96772303087304,1.88811279685581,1.97215329925755,1.97054026807954,1.97604486603724,1.88451487989456,1.96789637765441,1.9662888974085,1.97224348860517,1.88033115572012,1.97979793437456,1.96838959746182,1.95273636127052,1.8772056086393,1.87572627538856,1.87479559033711,1.8743028989892,1.87342913928172,1.87232651181048,1.87288045130371,1.95356278766702,1.9455050284127,1.80405211614618,1.84894974852127,1.84881588516273,1.8478263111885,1.79670199895922,1.79555140092473,1.7921153703451,1.79109003408406,1.90381414652146,1.90432973992186,1.83347748584061,1.83407840734529,1.78352963305024,1.78340127309346,1.78081186034316,1.77866228646245,1.90314117311391,1.98566454469488,1.77567336416065,1.77260062532518,1.77225103017409,1.80165161781906,1.98636155058802,1.76866915443566,1.76810501922691,1.81477786240316,1.81389367885221,1.81375089084637,1.81352252483055,1.76436889813684,1.76383479562148,1.76510121973769,1.9775105305478,1.76202913600273,1.76121083716248,1.76112612709901,1.76115494983092,1.76006618346753,1.7602510958914,1.76094801306415,1.76079219445043,1.76185582559721,1.98694398016995,1.76048398476517,1.80797211750762,1.76063319154841,1.76053365008906,1.88302326591133
1.86978803350126,1.87022661637691,1.94011493589794,1.93883084956026,1.93912348190138,1.86273406258855,1.93606609731384,1.93841963529669,1.93166050894956,1.92820082891404,1.9280336928031,1.97496120762359,1.92518450054071,2.05133273852943,2.04952497895272,1.96948074901835,1.91904395155512,1.91841759602679,1.91800388367707,1.91810449856987,1.9190868008948,2.05510733730817,1.83938124132785,1.91107349040264,1.91077961856689,1.96594161441709,1.96522869445799,1.9052208501067,1.90557976291951,1.90510988870573,1.90530096363852,1.9037680698388,2.05098259010496,1.95911159285473,1.90302556814017,1.830929698361,1.95694373387012,1.83107307521188,1.90414409918668,1.90200001603711,1.83421841960577,1.8349167770221,2.0323486758197,2.03854733628359,1.91167100924667,1.95181364889491,1.91674439662221,1.95074990822338,1.92068777881532,1.94517643436651,1.94760889516403,1.94833562610877,1.92106313250513,1.9206822893565,1.9981908826045,1.990241722826,1.9882725636007,1.91485356303179,1.91519609639688,1.91414260056324,1.91348257286159,1.98534860543657,1.91239935300169,1.91136889056229,1.91048437832627,1.91002784132588,1.90971191875114,1.90910775091163,1.99650550735991,2.00639594392143,2.01494940630078,1.99183238995124,1.99610642968099,1.99467345644078,1.99835480606626,1.99285551705996,2.00700353717409,2.00688144750277,1.98534241312917,1.98277935387708,1.97664325486248,1.99034396693153,1.97325012616234,1.9758363668487,1.98586111265446,1.90234714197505,1.90139734314406,1.98025351178199,1.9006091961734,1.91658978291917,1.89960868131045,1.89932198302343,1.99276790371546,1.97735666389906,1.96765432202287,1.97753161805274,1.98534729326021,1.89577818060608,1.97987353560075,1.98082971736636,1.97764603266658,1.98463222929003,1.89027205752636,1.96703255715163,1.96019567467277,1.97417114659988,1.88804694755125,1.9762501911246,1.88705682080541,1.96957563194774,1.98090601123874,1.88360462613895,1.95332076174539,1.9685548548824,1.96784570775713,1.96430068988212,1.96302763284606,1.95318976751553,1.87653776659368,1.87697079913583,1.87536458176711,1.87485689821129,1.87448535857839,1.87297437916013,1.87207279858073,1.87168869724728,1.95518721403333,1.95616942020451,1.94864521582522,1.84955532824181,1.84981752745512,1.8469299396012,1.84638893075453,1.90684557967221,1.79527070212722,1.789489260239,1.78773894066671,1.78692165470242,1.83330559316666,1.83296649788445,1.8318062695195,1.83129934925452,1.78168954518822,1.82764439434634,1.98470974210155,1.8688555282447,1.86701956647006,1.77406133567722,1.97958245217534,1.79809879496157,1.76923628511593,1.89829055937876,1.7695323533703,1.81450950870805,1.76766632548249,1.81333140829029,1.76495245826128,1.76448285338397,1.7633105185429,1.76478871235628,1.76394640391768,1.76303587199164,1.76278019308226,1.76373249028534,1.8550595517494,1.75971339546469,1.85668026236121,1.76037645173313,1.76012271677916,1.76198575362684,1.76119464159182,1.80746029647047,1.75990854822422,1.76083290441346,1.81081534104602,1.76144643684088
1.90480459997015,1.89238614749893,1.93834289099071,1.93828335456426,1.93792263189803,1.93579162013856,1.93557556395288,1.93678886502103,1.92817319986541,1.9264702558711,1.92532915483312,1.92436335629207,1.92407066193333,1.924121744067,1.92394844480915,1.92408798903122,1.92018357898723,1.91817619533142,1.91776832837526,1.91725415310393,1.91614628860419,1.91470035071312,1.9126228643466,1.91116618276447,1.91070429882127,1.92377032188915,1.92814553413646,1.9048739460435,1.90510693132766,1.90472179714531,1.90429278019615,1.90346210492857,1.93491123671814,1.92285731432201,1.90242346381778,1.9027022909225,1.90250056359469,1.90237014931517,1.90237800776934,1.90139853707047,1.87411468868163,1.86298609056065,1.90772185746,1.90867611800951,1.91074912632763,1.92514945954228,1.9319958204384,1.9393117046848,1.93144731518382,1.93616734434941,1.94667704516973,1.94675357871372,1.95826225904089,1.96117828520386,1.99447076093775,1.99120282458839,1.98729025769285,1.97260727600668,1.97208704637451,1.97186384848036,1.9723935011011,1.97312179703524,1.91194976834518,1.91156269818681,1.91098453345894,1.91049704633597,1.91015004566601,1.93099687904471,1.99360002506,1.9958387679638,1.99726811472122,1.99561275338788,1.99630482496295,1.99659754027221,1.99749982658773,1.99662378466803,1.99661458154175,1.99759853401071,1.99311093803197,1.99213971418499,1.99070626329018,1.99081960987388,1.97986683284607,1.97534225421939,1.94801647662476,1.94208371891747,1.9365963568139,1.93271371860076,1.92531782327243,1.91784049560442,1.91566760346444,1.93325620461516,1.98111551251864,1.97928418352482,1.97928660653859,1.97996450706628,1.98160624756457,1.9678695109959,1.96751996253058,1.96696658254431,1.96580821354113,1.9641906375218,1.96163062361912,1.96355967916943,1.96452559629035,1.966435529574,1.92248182502575,1.93387324064397,1.91474728170617,1.96503069501535,1.96091500836781,1.9581147690558,1.95893567965742,1.96095193151828,1.96242108223483,1.96318706549302,1.96292889956871,1.95927839771157,1.87737031453618,1.87728513844458,1.87601656291062,1.87508900846314,1.87421646010024,1.87305145455309,1.87231737731893,1.87233331938716,1.9441926730077,1.9460874998843,1.8904063260817,1.85010818967165,1.85008867283911,1.8470590106954,1.8463098049623,1.86644701627304,1.82686469505335,1.79025095453156,1.78974499736848,1.81046613717145,1.83225574863021,1.83262554327077,1.83276106568715,1.83253385750779,1.83234622002068,1.83070979583514,1.83102842828521,1.8301977468557,1.83513283688308,1.84208213502933,1.85014152403067,1.79533241967031,1.79364040270579,1.82697756470807,1.80937940211527,1.79268926533244,1.76816102683043,1.76707764921778,1.76595759965384,1.76524656015515,1.76472450611769,1.76508333134561,1.76450320514422,1.78658539114204,1.79736840267676,1.80693882020702,1.82482498346465,1.81241223536473,1.7990937349552,1.78582526580441,1.76168746716687,1.76298646394611,1.76307400605511,1.76219599296682,1.76130916613181,1.76095052938058,1.76156048723934,1.76294222703812
1.94444731900595,1.87026214906946,1.93784938870336,1.93903101079752,1.93862010481004,1.93543730166653,1.93389771884229,1.97490260590044,1.92888292494864,1.92704353381426,1.85758040769861,1.92595663865711,1.853451799572,1.92487646145578,1.9234392187626,1.92353384610619,2.04505326600034,1.9179658916475,1.91718826638859,1.91662277590189,1.91480348673137,1.9134804166589,1.91388989531679,1.91041195174393,1.91045512151117,1.83631118418788,1.96652075269851,1.83498757088804,1.90563405019806,1.90472900132973,1.90390534919203,1.90251328429948,2.05089665787156,1.90561205700438,1.83098377464386,1.90408696325894,1.90375208562066,1.90380230673764,1.90387957153871,1.90327861870427,1.90572832525486,1.83341349173792,1.90704306396083,1.83793791840417,1.9125928676931,1.91622942206532,1.9517220901384,2.03258354413138,1.92000933386598,1.93268046209527,1.94657770897104,1.94615201856894,2.00101309657678,2.01933055886721,1.99931931369512,1.99956125571712,1.9882605313306,2.00738541821715,1.98610187108297,1.98566097384386,1.98847362059994,1.98873541689551,1.91097938966957,1.91096262745264,1.91048134022332,1.90991885548772,1.90945267147327,1.9855325097867,1.98467340534747,1.99267344779024,1.90971650653759,1.99607046668679,1.90909563873632,1.98064670431396,1.98005677855141,1.99911682273522,1.97861646740331,2.00075415316217,1.99751192552578,1.99564125288013,1.99857493253316,1.991770676226,1.9838859078979,1.97570265972454,1.90378606470387,1.98653071050064,1.99461223992704,1.90037502272385,2.00960409201318,1.93335343573365,1.89954998488605,1.98946102456154,1.98400902581005,1.98775761843861,1.97758236989125,1.9663284501222,1.98205919323662,1.9802627129836,1.89307982614867,1.9113877675901,1.8945317288697,1.97140828196854,1.96291096974256,1.96245202991075,1.97323146363921,1.96855699236768,1.88820942275556,1.98313340277088,1.88601488224963,1.96368026201992,1.96042823166909,1.95637257303742,1.98197240920195,1.95263676222361,1.95172392290093,1.97621276108713,1.962665661429,1.96314494285492,1.87657364846954,1.87668104830369,1.87493072806557,1.87416322022663,1.87333231849162,1.87167167316224,1.87082041231722,1.8719123163206,1.94508931828381,1.95017884152142,1.87035242672005,1.85066629510282,1.85052225420795,1.79987961442161,1.84500261198268,1.88942402465712,1.98374539148228,1.78974750812084,1.78885728133713,1.83561632988517,1.83494787131472,1.80353439936829,1.78377930912621,1.78360502712361,1.89526383515789,1.7789423428786,1.77883764591784,1.82397355057196,1.77599994246413,1.89119646939293,1.89124352869113,1.79358003331465,1.76980190807942,1.89277338551401,1.98486251051648,1.76519580802838,1.76748033622296,1.76466020885353,1.7648859646168,1.76444397444605,1.7638718679757,1.76453845734554,1.76312025235453,1.89272601380429,1.89157875261803,1.81572248973794,1.85467779223876,1.85446140723175,1.76047482008395,1.88712891706267,1.76015011946193,1.76247038072493,1.81830599623375,1.75986718799933,1.76093523280087,1.75950457695872,1.75909838020644,1.80974517039602
1.8711374652891,1.97693295070748,1.94149975165886,1.93971597678066,1.86402312743064,1.93490616797164,1.93504637298552,1.93511751037332,1.97563847954512,1.92818261444308,1.92913640127956,1.92618442112872,1.85340724129896,1.97224956825852,1.84996843325206,1.92333817413214,1.84572910973765,1.91935377985073,1.96873589471505,1.93392290361755,2.04204563783134,1.96884432258133,2.04122357876589,2.04854888060763,1.9115266552428,1.83595325774233,1.90985503179717,1.9076721715552,1.90553759540677,1.90483847149874,1.90434430184893,1.90383493001606,1.90386894191373,2.04790812575442,1.83047454546015,1.9031901500953,1.90359161846641,1.90443871084683,1.90545668328683,1.90421222437546,1.90579483772974,1.95400658131099,1.95291174169337,1.83770876468534,1.91336415983908,1.83962792116623,1.91471908984994,1.91776684882808,1.92115721946059,1.93206990406478,1.94590640855393,1.94495906646479,2.00039334007713,2.00269418434542,2.01134130647872,2.00629475095437,2.00239043985759,1.990337680786,1.98921992372633,1.9865423305474,1.98817605578253,1.98861941037763,1.98644798756631,1.97997052460075,1.98557491806012,1.90979616864955,1.91017791039563,1.99264762963374,1.99824793862425,1.99403027447852,1.98653559805071,2.00069227239151,1.90846574261531,1.90900346167901,1.98951281718116,1.98917073366089,1.99469764121103,1.97850926923164,1.99433525470794,1.99082861237235,1.98585355971894,1.97815468349935,1.97613631472389,1.97482051409256,1.98250929718015,1.98783247245832,1.99480292161662,1.98640011152634,1.99696406428006,1.94438459090266,1.9878657661176,1.98318520776424,2.00020089185799,1.97098071669975,1.985358299219,1.98369348004491,1.98229081041268,1.89666896873149,1.89302279973228,1.91927250254984,1.98506140804973,1.96635313939616,1.9719376843806,1.97173836645563,1.98023601580666,1.96257209138021,1.95984076959913,1.97375033821061,1.9608619872901,1.96810282875942,1.96896031999104,1.88367535167268,1.97307482099147,1.97262962420485,1.95074644052058,1.95021281035733,1.970626061683,1.94755852483448,1.94448881897647,1.87635578729908,1.87450702596572,1.87369745636189,1.87243728165579,1.8712728038298,1.87104961017763,1.94733675819796,1.87047357590109,1.94992740961197,1.85154368908456,1.85087495194857,1.85038408202456,1.88731620272754,1.88661601389969,1.84360934525674,1.90336035245042,1.90268554805435,1.88478250509699,1.88057167142834,1.78727817029385,1.78755053360823,1.78275456935241,1.78271980569286,1.78116506365604,1.77820989718287,1.82613802490267,1.82434697677618,1.88510431388749,1.89891242184942,1.77170491167172,1.79281002096342,1.90053377442107,1.89429879530743,1.77031950021811,1.8990751429832,1.89911970043756,1.76392835360663,1.76434090512423,1.97772058711833,1.76442136797578,1.76499013992182,1.89255826774907,1.89223850283311,1.76394079843961,1.76235946174787,1.81791160034833,1.88902908250391,1.98587460126542,1.76131135116992,1.76201557013584,1.76210782660399,1.76085908962835,1.75933825601292,1.96622188045198,1.9749956175261,1.88439829027093,1.73429728252281
2.05011371974502,1.94365336507735,1.94094110838737,1.94085211138395,1.93966896659622,1.863361899799,1.86152531167213,1.86008618204572,1.92886192789036,1.92960389002481,1.93162037245782,1.97508533196073,1.92783256007355,1.9210992082065,1.92217668112641,1.97203007194255,2.04559750347855,1.84618741498245,1.91607816167518,1.8950682333649,1.84137545943488,1.9679786342073,1.84039579308579,1.83925440669419,2.03873247283246,1.83582996402259,1.90603717347379,1.90721711174699,1.95930967273748,1.92825470721618,2.04560705150448,1.83128294650048,1.90393814642512,1.90527199221638,1.90445186871356,1.90437474579694,1.90375663406313,1.90449424765148,1.90414785038755,1.90366240854622,1.83343765322638,1.83384051058313,2.03646004266033,1.90959312667827,1.95037838278488,1.91387417642389,1.91549187243321,1.84728552270762,1.84736189668228,1.92399328385368,1.92782158536909,1.9464474030525,2.00135509799189,2.00839754176421,1.92049341126018,1.99224146811692,2.0150572447165,2.00611921756074,1.99570647575573,1.98590809013781,1.98990908000731,1.98961301540477,1.98588607562523,1.98713662616563,1.98486118641835,1.9841068777334,1.91040989757608,1.98374802661616,1.99253404989253,2.00302831453786,2.00552490815663,1.99387800861071,1.99775159636409,1.98150269602082,1.9819163100427,1.97982675541555,1.90677918756706,1.98901068185326,1.97800553020655,1.98596102319647,1.97922269518338,1.99286769476426,1.90412483635363,2.00796538078229,1.99217800114146,1.98799802681007,1.90074246110162,1.90085077616372,1.9000684011589,1.940153480736,1.98837726670019,1.98470737062373,1.89790907146343,1.98583992715657,1.96898235335155,1.89580850575809,1.97672481260822,1.89555269101742,1.89411170559543,1.92856582080964,1.96661523637187,1.98314066374702,1.97671177036161,1.96922539466877,1.98152312815927,1.97336306341675,1.98592854593356,1.97695643576229,1.88802602461527,1.97319030030629,1.97902951851241,1.88330323989338,1.88320940800713,1.97802252546595,1.95269681316551,1.87799188938009,1.95996645568045,1.9594540305928,1.87681036703661,1.87626054699723,1.87473805497001,1.87375158779384,1.87278421955181,1.8725769545534,1.87107937795482,1.87056293676716,1.87003174174082,1.86973264818478,1.9621954969507,1.85045992760889,1.85064461442886,1.80019115266014,1.84654282317709,1.79589475572268,1.84225352001741,1.89347155706775,1.78798379053212,1.78735847347396,1.786078612983,1.78641594798498,1.78471621154292,1.90331866300984,1.89968049914936,1.87878621947668,1.87752577576055,1.77551292702376,1.82235537983205,1.82239357193578,1.77111976242453,1.77151818474724,1.76974457863894,1.77044894084528,1.76951629335917,1.76818454873486,1.76755465632292,1.97448380632693,1.90034640039015,1.76552615491225,1.96882182694845,1.76544805795724,1.76426542431482,1.76452716561319,1.76365282390095,1.81576124367033,1.81422048042156,1.76085198615888,1.76263263990868,1.76238371603559,1.76041795083921,1.76190127682257,1.76204750449515,1.97802940502951,1.97008587577566,1.75962501187066,1.8853912842786,1.7589531417605
1.94621243748021,1.97888069895307,1.94110727678862,1.94194423457429,1.93825469447516,1.86343248116017,1.93422097978845,1.93298278134691,1.97348126360392,1.93010369828687,1.92978521061552,1.93059224451662,1.92582299790049,1.85285196551738,1.92300481329804,1.84766795077706,1.96974809374448,1.9165942333735,1.84323181762499,1.88805732589606,1.91623020944862,2.04506281402628,1.84109526593483,1.96864996248165,1.90946716762104,1.96415448774494,1.96312966629476,1.90836096106139,1.90822286098678,1.90571485537513,1.90329703346926,1.95992306677856,1.90573252725019,1.90553726698759,1.90542121045978,1.95518690641453,1.83092975447858,1.95601783011596,2.039228970181,1.90419103664429,1.83347768470749,1.83381688716823,1.83353189623773,1.90975204685195,1.95161363610856,1.95004993069278,1.84443394048485,1.9207750484138,1.92122576122452,1.92260298345943,1.92541453696117,2.04325823712487,1.91935665435916,2.0135738682009,1.91929075390061,2.01255164276528,2.00298742912584,1.91545577550533,1.9862418425447,1.98670431304454,1.98786394599064,1.98892048501933,1.98736732749756,1.98726310323593,1.98629727405759,1.98760433171683,1.98442326211626,1.98405419435961,2.01014671587368,2.00919567306862,2.01179038003066,2.0061880913448,2.00587717721977,1.99294583741967,1.99301418423611,1.99805701158004,2.00068840276928,1.90720782243621,1.98796633988392,1.9867990820401,1.98849128879724,2.00999812141153,1.98303743639614,1.98381371311393,1.98324989544382,1.99018848666732,1.98111185039085,2.00444478039447,1.9007371543995,1.93644443050572,1.98680508163609,1.89944388363987,1.9916511569551,1.89692332739458,1.89623602663765,1.98033565925274,1.98069988932788,1.99260598809477,1.96829291923796,1.96954111361752,1.96716827072919,1.98111069134085,1.98271258997709,1.9597119046488,1.97429206369761,1.8868633375427,1.88753193703857,1.96821595922715,1.9829349649146,1.97488153717369,1.88452731458077,1.97640447100271,1.97783975825568,1.87951985760372,1.9761820980395,1.95887973343057,1.97573156041182,1.95027556627359,1.87622021042071,1.87606033669769,1.87426115695082,1.87314031225831,1.87281359088342,1.87155233632379,1.87100191107396,1.87031557345424,1.94761951769767,1.94540631929316,1.80587751455744,1.84959214254236,1.84977068807206,1.80007688289805,1.84588691092141,1.79496541508842,1.9027112953859,1.79166927120487,1.79066007667795,1.78751232975404,1.78508108232077,1.78612409176662,1.78435369068973,1.90016573376858,1.77862968121686,1.8277028450646,1.77851293816242,1.82351321457003,1.86438875610498,1.86329391579796,1.77120703487554,1.77202799806218,1.76980283189753,1.82026327707837,1.8201229306302,1.86659275875793,1.86579708993015,1.7666307234879,1.8974761782997,1.76674463394622,1.76547653795618,1.76647204810546,1.86671523761716,1.76382479347197,1.86318246802182,1.7631862268262,1.76224097950472,1.89204468014279,1.88772247322659,1.76109184507566,1.76085400867082,1.76211322891952,1.7616230704073,1.76167299254244,1.8098474117191,1.89020338141321,1.76210346563843,1.68186479071779
1.95670707381741,1.94943291653525,1.94202862522742,1.94141304018576,1.93685867082869,1.93487850901545,1.9339313045203,1.93239347696461,1.93132089428213,1.93056872127832,1.9297027084183,1.92889071376961,1.9269406572799,1.90168024218358,1.88760538604555,1.87696737772035,1.90044487780084,1.8834405901751,1.86764958315207,1.87781146743965,1.89168018641088,1.94199638247812,1.93572777885968,1.92816892815974,1.92601835907904,1.92342217390763,1.92061710936473,1.915507811123,1.90583298546925,1.90440224995691,1.90335397320887,1.90399539589943,1.90475588099983,1.90506673273255,1.90535663490789,1.90561036287069,1.90564683894733,1.93017477477095,1.92293207712475,1.90560988269768,1.87352710753856,1.85956285288515,1.87527443757739,1.90784223914909,1.90826931990036,1.90884932059495,1.90931422555756,1.90965182882849,1.90970537017638,1.90871678774378,1.90746561537983,1.9545974615748,1.9400904359913,1.9578381971376,1.93920318652075,1.95143546560393,1.98617877889667,1.98646068470033,1.98729311234317,1.98830557864084,1.98979667602064,1.98876857163327,1.98952925851963,1.98992547205418,1.98962951759517,1.988219722342,1.98515886724126,1.98297742165823,2.00633141582284,2.00778949547363,2.00700236115206,2.00646175206185,1.99803908142659,1.99273624983611,1.9935155739084,1.99632636545323,1.99877315795274,1.93551279412237,1.98757637606137,1.98698969998103,1.9870756215858,1.98795363296815,1.97682621893383,1.97924448084946,1.98046797571081,1.98539737603872,1.97761161377084,1.97605623743689,1.93686426205347,1.92618531749619,1.92085475171439,1.91271783716995,1.94366339271133,1.93414957153003,1.92269998562953,1.97710210247113,1.9770230585923,1.97581904632209,1.97128829111048,1.97186530983244,1.97920231044862,1.98198717400533,1.98180371820829,1.97382794545399,1.97277812355765,1.92739136678382,1.91721846674385,1.96810464042273,1.96917005029948,1.97153968800928,1.97425015049755,1.97550241177412,1.9719796950013,1.97180216799403,1.97245749420109,1.95851963906989,1.95758891042521,1.95145313695524,1.90521138447034,1.87608326960498,1.87464407707641,1.87325210415984,1.87237510417266,1.871549123374,1.87103371673535,1.87081637889382,1.87098059170706,1.87079553984686,1.85619386861608,1.84883179094493,1.84924487540203,1.81742073369945,1.8306609813024,1.84030510236117,1.85660850456419,1.79199200865496,1.7917157962336,1.78714955583592,1.78669356180477,1.78698551291634,1.78599224325423,1.80021436026899,1.80828980079516,1.81845238622766,1.7931143258287,1.79969214002413,1.80744171462268,1.81395733702902,1.77295206068705,1.77332692469383,1.77228785073701,1.81260850766395,1.80858073088608,1.80166370100738,1.79358921194478,1.78858950650195,1.78569165735266,1.76684415622858,1.76654919775797,1.76732397214846,1.76728063865289,1.76577529950015,1.79544474482661,1.76232467430366,1.76113552643692,1.76094983703269,1.75949072421622,1.76024189537606,1.76125654263626,1.7627603320254,1.76290514568932,1.76305438914923,1.76360504190674,1.76292177229357,1.76220927419547,1.72650395879515
1.97937943203167,1.94053051615365,1.94394794739438,1.9400930452936,1.93651960037977,1.93545967260482,1.97396656731438,1.93099662870923,1.9301797915139,1.93028821971997,1.92920286637889,1.92852898021069,1.97226877259089,2.0559762076681,1.84965780926061,1.84811377431585,1.96913691180425,1.84658611525382,1.84497611220563,1.8680576341401,1.8443014837478,1.96748521159828,2.06142813047605,1.91113413792946,1.96255811809883,1.83610468420787,1.83457699977142,2.0374530373574,1.90603392449847,1.86977491058551,1.83279110564106,1.90474175068625,1.90467574795746,1.90428400402755,1.90500292040077,1.90457146137772,1.90419005604224,1.95633306315579,1.90598571583553,1.9062675877597,2.03251670794985,1.83323555499927,1.95192664919963,1.95225128208136,1.83776627323107,1.84106225696123,1.91646502315765,1.84691293307512,1.84780431836041,1.88407261235806,1.85074193932095,2.03424932216016,1.92022530271198,2.00794963722333,1.91840623109711,1.91712662384709,2.00208008559126,2.00988104305967,1.91243528175062,1.98965789133356,1.98942553894289,1.91256869159789,1.9124854285094,1.91154053583684,1.99652065018111,1.91105254416182,1.9114596014151,1.98095306004529,2.00068517999735,2.00195937309206,1.90925735433098,2.00516321305559,1.99431599519385,1.98877221150014,1.98634898626066,1.9063705242062,2.00085695611005,1.90571349887495,1.99312358825184,1.99041385336304,1.99613359337878,1.99194968005373,1.90451689771456,1.98069990180987,1.90287494938923,1.98866751800473,1.97604707100362,1.97248348368292,1.98788340375809,1.92172166945243,1.89749966670405,1.89807621326298,1.98713608097443,1.99861971328777,1.89662603949989,1.98951459259122,1.9769393072833,1.97747875678697,1.89349835311887,1.97506734162884,1.98521937204759,1.98546117728107,1.98035931205175,1.97533571907444,1.97053248642764,1.97562779956489,1.88799513817523,1.97163165534237,1.97032237436966,1.96998864781156,1.9716947096604,1.88305539823341,1.96679053671783,1.97118715388183,1.97284616595555,1.8777758973025,1.87759766905694,1.9502358991351,1.94937789972032,1.87542020055065,1.87353255693176,1.87215851810141,1.87106791593004,1.87067205087118,1.86991102262861,1.86994958611515,1.86958307401472,1.86847962388138,1.86790094609599,1.84868309382402,1.84989366945275,1.79789548076427,1.79825878381028,1.90465930923731,1.98251369613688,1.79157215654584,1.79124927991818,1.78642253562203,1.78596931652523,1.78661003270681,1.78497998710696,1.78089095523488,1.8882074067336,1.82708390943678,1.77732714978881,1.77677688978998,1.77592129426952,1.82692367178265,1.77180557811681,1.77283301928352,1.7711939571895,1.85723362671297,1.76691203614912,1.76740120662418,1.76668035825936,1.85564987368407,1.76699899330363,1.76643836647789,1.76537023854607,1.76703405861308,1.76676317385259,1.76489266848961,1.81284506761781,1.76428495107372,1.97216363602512,1.76447022852848,1.76041239429125,1.96896504733745,1.7619975593511,1.76323801593152,1.76272059612964,1.81013175617284,1.76442501878872,1.76316379585614,1.8832428705078,1.76068451790776
