2.00024262864185,1.94644762160269,1.8264243127891,1.82492252664928,1.87600142015487,1.90787864550593,1.82091477747283,1.82180962626029,1.82112401810657,1.81912172766994,1.93331326065078,1.81923240151926,1.81894778846193,1.81729348809285,1.81874171185175,1.81409699537031,1.81433174363823,1.84177363197438,1.86244137761066,1.81466239141007,1.81157690888668,2.00267882742031,1.86107624242328,1.85834794751704,1.85794753796253,1.80929486058445,1.80885078690855,1.8063993726288,1.80499134134435,1.80261492802422,1.80115027447292,1.80044141361337,1.79969726380557,1.79731763058214,1.91370663299545,1.79336778236464,1.84099263411763,1.81995803597917,1.83961759163676,1.83965855432484,1.79074565986163,1.9829720566814,1.90178705365204,1.89486651913436,1.79111459283387,1.83893688234503,1.83898895664997,1.83912397604557,1.83969730609018,1.87067155833947,1.83973192646377,1.83986237465066,1.8391927821183,1.79344553232843,1.85571112934569,1.9262277080564,1.92666196301997,1.92508535147849,1.92450324650435,1.91807562809815,1.84692127566994,1.9610850125397,1.913506797129,1.84346209158891,1.91175133700041,1.91029536113668,1.91005897469311,1.90612131536486,1.95290762556674,1.83169959091044,1.95424818429983,1.9022229606717,1.90197129470329,1.9509993083719,1.89925327560467,1.82473807180954,1.8235164893853,1.89880689280465,2.01694664274685,1.82085961431902,1.88960332210244,1.81779157418526,1.8882038869352,1.88946259963087,1.88757282709892,1.88543237917427,1.88312951359205,1.88455041464852,1.88555935097943,1.88827658604461,1.94000162155693,1.93805014449925,1.88193378608846,1.88111559823971,1.93563580919442,1.88423615930854,1.88491459187924,1.8854816430936,1.93446526162354,1.81504048956806,1.81563400231766,1.89043436210461,1.89110509884554,1.89125175897428,1.92946943253716,2.01415732556834,1.89925161568711,1.90429192675756,1.90443748201944,2.01686796358082,1.97402850862153,1.97749264806476,1.97989259792907,1.89789908761098,1.97374712830714,1.99050289820041,1.96491726638532,1.96533047369403,1.96709369328035,1.89161979878403,1.89121111097776,1.89185880309303,1.89022687638897,1.88881847074933,1.88638451246333,1.98081138870408,1.97173461414698,1.9676746652163,1.97033104647139,1.97817950783191,1.96847303427891,1.88875776344887,1.92038556922492,1.95704498121906,1.9690807053977,1.96524488051534,1.96134923858154,1.96731112630169,1.96505244526843,1.96931049288373,1.95684594743926,1.95620936186819,1.95657720211798,1.95581015871166,1.95469280993063,1.9542401128235,1.95466475020525,1.96025429603048,1.87906791586227,1.95879967108199,1.95486373966929,1.96001961006414,1.95692618777771,1.97184205338527,1.96351541835762,1.9581915217645,1.87397316306491,1.89157240809816,1.87264380267339,1.87281447077094,1.95346067449623,1.87224748783255,1.88856278235194,1.86957437243529,1.9572355836626,1.95023181558264,1.95382368884229,1.94575053060496,1.94420708622686,1.86584586673098,1.86512717167428,1.95165264694306,1.94521812153717,1.94962778763638,1.94775772901027,1.95119450335897
1.87546712773757,1.82339372637343,1.8253830167035,1.82553015328689,1.89532111039714,1.82028694544944,1.82047872176218,1.82173705170552,1.82121515825521,1.82186665080704,1.81999362034234,1.8179300364346,1.81797878062811,1.81795964453088,1.81802252666782,1.81416017693033,1.86207440059218,1.84783438059884,1.81528719368806,1.81545384894336,1.81357357864657,1.92484900780343,1.86329622886412,1.8126263940383,1.81196480769926,1.81093264012446,1.92719409714814,1.8057519155887,1.8050798372113,1.80396390804281,1.80393422187042,1.85066173726111,1.79942881824101,1.7971642514923,1.9128240253351,1.79363441078877,1.7916465711409,1.79955064593443,1.79217319973141,1.79239991963017,1.90105723341355,1.7910345062277,1.82081019667055,1.79183191684654,1.79145353853093,1.83826301270032,1.83896768387783,1.83892087206853,1.79332806960947,1.79333991495042,1.83955803848446,1.84073156230133,1.84033729657897,1.94793045332152,1.85683795118258,1.92589615560405,1.92622413471991,1.92624791495614,1.95930970127583,1.96010614241949,1.96001221253677,1.9184765671211,1.91655313524485,1.91552222723412,1.91594843032821,1.90994570343352,2.02944868609055,1.90707709263781,1.90883692727679,1.90487112715557,1.90343123640207,1.90267412997951,1.90207955206931,1.82953443495247,1.90075975051036,1.95040442262367,1.89722174914139,1.8994432672123,1.82297474643218,1.8932104071155,1.82074630274792,1.88893888551441,1.88908321513723,1.88853357713895,1.89108734729042,1.88533496813972,1.88579649903996,1.88421017852956,1.88521228505585,1.81271112921653,1.81108805122339,1.81166110854806,1.88225027340712,1.88143555387969,2.01294296723496,1.93409666035377,1.88526763012829,1.88555902125421,1.88581403348077,1.8861004476328,1.81606029370788,2.01511477234754,1.89200730762536,1.89358664381792,2.01530554948873,2.01384115637847,1.89981818760918,1.90514630520073,1.90717867308268,1.92515927078567,1.89886102207784,1.97190877750283,1.9758607469436,1.97110895872775,1.96836757460472,1.97819366249428,1.97802700711962,1.96428901558817,1.96820763894452,1.89239164191353,1.95958327306303,1.89186003780614,1.89061041640865,1.88952927708255,1.88818533544381,1.88284900564924,1.96669353238153,1.96639726690011,1.96043715147851,1.97356494073187,1.88910150800856,1.96374803932534,1.96956209543034,1.97620089077156,1.88669363712287,1.95971768096327,1.88548575784839,1.90430393976176,1.88543699617014,1.95631309014728,1.95539678025653,1.98654355021346,1.95637699131719,1.9545188156009,1.95373322584591,1.95335634148382,1.96772776653655,1.96053624812972,1.9507480411136,1.87890317855091,1.95205531378478,1.96141436904602,1.94298394494754,1.87634405882555,1.87619539612352,1.87562674839791,1.96082908716404,1.89784904708057,1.87226238132762,1.96351226257427,1.96229110870561,1.87185712081344,1.89845854341708,1.952883143716,1.95440235403213,1.96017655960359,1.86671203559559,1.94659322526077,1.94759915101505,1.86562574258708,1.94869834415485,1.86298022100535,1.9459724159278,1.95992297872823,1.8611607077128,1.8576257112326
1.87546702116286,1.82141524166205,1.82398114804579,1.82119914305872,1.99758924935214,1.82029592407247,2.01703162642516,1.83882425106409,1.82109300976562,1.82078260446574,1.81995612109195,1.8184412903973,1.81652504228012,1.86537813203166,1.86532276412532,1.81465385059971,1.99651278942677,1.85249547726792,1.86282323392028,1.99687385736562,1.99947842642261,1.92423208924971,1.86396107177765,1.81200677079764,1.92445249830265,1.8978307508512,1.98956301306653,1.80637196680508,1.8064847860677,1.85222120518609,1.9838691066192,1.91214605134824,1.79857358585241,1.79764692556534,1.91175867438729,1.79470517971739,1.79499873085614,1.79779176956198,1.83985325970688,1.83933702071305,1.83863106264325,1.83892942407561,1.83850090550135,1.83905892729527,1.79238706069302,1.97146148958474,1.79359848048038,1.84938664159776,1.89632020691313,1.79292014868893,1.8739956468132,1.84057737414899,1.84099600994365,1.8411969937574,1.9612947771608,1.92657235921557,1.92665916706799,1.92614828213433,1.92237416311597,1.9215541540253,1.92009542024143,1.91737356251963,1.91790034514545,1.95722563498757,1.91479045776982,2.02828392561136,1.91133334315017,1.90859965441801,1.90861925670235,1.90717536567692,1.90258644413941,1.90216380450115,1.90235008422623,1.83039056683136,1.90043050934264,1.82656296339726,1.95050829156384,1.90324914502,2.03238534430799,1.82271036998017,2.03112003176414,1.94447411173952,1.88934906532953,1.89129957210236,1.88900983440619,1.88818021004602,1.88508659082132,1.88456896886532,1.88512389490731,1.88385850612535,1.88290706057845,1.88408623306915,1.88363507632557,1.885306012074,1.88578955517545,1.88553515555438,1.88506667992002,1.88531546183219,1.88514596822017,1.81612885622597,1.88875695739037,1.8900354135975,1.89097140452179,1.89434048302564,1.92953096707819,1.9290274400033,1.92912685873637,1.91960094561855,1.90519382172329,2.01077250386575,1.89950160071944,1.90036309277381,1.91687129811826,1.90031667801727,1.97457422874349,1.89556515538828,1.89521308632724,1.89524531402274,1.89364182947467,1.89203994720778,1.89104095398367,1.89181064829216,1.89064158116281,1.89072091406338,1.88340404935014,1.88292780234622,1.98359919307579,1.97978734119047,1.98660540589326,1.95720766903079,1.97369609715921,1.97161270049013,1.96770248359001,1.96680474819314,1.97997104346804,1.9828529848701,1.88537245332143,1.91168888873162,1.97072673385461,1.97118165019187,1.9538860630927,1.96525791529099,1.95510837239101,1.9536468686991,1.97444666491276,1.88102815688606,1.88039234687883,1.96125805912836,1.96290087088841,1.95462575799282,1.95997588161156,1.95882026877821,1.94181041552533,1.87608192173157,1.8756390122028,1.96434730828017,1.87392014604802,1.90438514579215,1.94885402493158,1.95086516977625,1.87278581875201,1.87162714493921,1.90733326913717,1.95968193973909,1.86744011266833,1.95603250369056,1.95298514396505,1.95143864987768,1.95345268144182,1.94907871388511,1.95598121554842,1.86293615131002,1.94630457488029,1.9449023694547,1.94649000322817,1.9527637843364
1.9370997556514,1.82630118182435,1.82598681922091,1.82021059192564,1.87271670022463,1.81974405388443,1.8201814159622,1.84315578548614,2.01570021546485,1.93234943496906,1.82026723021713,1.81725374832716,1.81537531835083,1.9996760707864,1.86499147682475,1.86407837837475,1.81702584879338,1.81926328811637,1.81713812402651,1.92284070562834,1.99805780472156,1.86214002086612,1.86289928491894,1.86197623783665,1.8113502305423,1.80990535747414,1.80811762435113,1.80763639988225,1.80719114099705,1.8056887631899,1.80165949249016,1.90008079587128,1.79736625744892,1.79877911190664,1.91168813177317,1.7968544982163,1.84205257730877,1.7963110535245,1.79155734924672,1.87934828625498,1.83897702065953,1.86310432499909,1.83804751982963,1.83833268489491,1.79312193231099,1.79190966164819,1.89754865400275,1.87310893611544,1.89527665567691,1.89498311912553,1.96656374234684,1.96623639780813,1.82520763730466,1.79416939927673,1.96172318808148,1.85644889027251,1.92611440181037,1.92629884908408,1.92418883132521,1.91988481680022,1.91989785193675,1.91726474966695,1.91808414695435,1.91590497231396,1.9140449330555,2.0282335649131,1.83910275461397,1.9077854573006,1.90779855735209,1.90599102090949,1.9049799394809,1.82964124278274,1.90375823640639,1.9494412742694,1.89914832390857,1.89883791400801,1.82394755089349,1.894340032256,1.89499753483249,1.89342058702878,1.89275306582548,1.89059641564697,1.8901051741855,1.89046253837486,1.89000085854958,1.81576387699597,1.81445449887981,1.85080748309235,1.81221014463576,1.88267222612943,1.88847742967402,1.88226068316919,1.88263821727326,1.88331076072821,1.88506557494212,1.88497980007771,1.93268152006326,1.88524686633387,1.88549756208818,1.88749665978013,1.8881274761065,1.88795651576603,1.89164521944924,1.92937326512731,1.82378682990553,1.92804082459389,1.92366531733981,1.92015282074062,2.00919280759798,2.00053467595051,1.90001807173715,1.89942232522734,1.92557228099281,1.97849489551523,1.9719359948466,1.97949909275912,1.89459661970836,1.89531500390067,1.89461072709195,1.8924417347796,1.89183517048035,1.89069527498506,1.89108406887405,1.89072516815179,1.88960678714312,1.88847761095255,1.96523037208713,1.97227811897437,1.97303238630765,1.98379478397127,1.95367412178347,1.98052250733998,1.97787092069506,1.98269275231856,1.97129261095332,1.97032986809627,1.98510307019058,1.92009816463506,1.88526926254006,1.96937897111536,1.96932676677207,1.88377890905642,1.95432204597353,1.9705392404249,1.88112529412102,1.96951114558266,1.96957680109244,1.96703912119897,1.96960959290037,1.96577411452499,1.95339436409739,1.87682550832768,1.94171131951771,1.95519788154762,1.95650270396224,1.9665433262617,1.87409615450761,1.91163559407886,1.96331978444857,1.8722645898646,1.96759705944084,1.87124451009066,1.91495741442752,1.94737948600946,1.94910493698532,1.86832972504721,1.95042767311817,1.9497640008713,1.94794906885745,1.94979207434451,1.94802387117077,1.94000864293869,1.94497359306498,1.86275455532813,1.92985560169454,1.92952558792606
1.82748341693732,2.01290519671127,1.86600111207103,1.87375782236261,1.87231659825417,1.82309239579877,1.99989325129765,1.84742285693607,1.8205547410274,2.00989125434275,1.8204381634662,1.86635191423161,1.81548201715949,1.81686236954051,1.98984629199425,1.8643734419197,1.81729825514154,1.81943872288132,1.81758814120745,1.81664745730361,1.81569981892602,1.81527642649662,1.86214926185561,1.99423711537403,1.81010234667124,1.81011842228476,1.81074036122859,1.80909290636681,1.80733291665188,1.80474400781492,1.80019848561211,1.84734921556247,1.79619052666426,1.79770404218332,1.84547797707317,1.79627071674766,1.90548582731702,1.79588378419997,1.7926942905462,1.90810013794438,1.83768248940593,1.79087183277568,1.82329292250617,1.83836070337379,1.83771497372919,1.89956252748019,1.90156370013637,1.87441762066691,1.79426983325133,1.79377316725392,1.79282791077556,1.79452601115657,1.79581561723252,1.79432895344538,1.9631228389432,2.03587911774996,1.92618737564201,1.92690336022139,1.9249551706116,1.85066951544654,1.91911307016353,1.91825494520774,1.91902054654384,1.95643247842741,1.91456423196088,1.915417705425,1.90759833938301,1.90684504575582,1.9540596522972,1.90741114662303,1.90518839701291,1.90348406664678,1.90408133215778,1.90237932591929,1.82687457021776,1.8980506340653,1.82394755089349,1.89465305043737,1.89558266632095,1.89450675877651,1.89252823312933,1.89066124697831,1.88997007713609,1.81643110393512,1.88921064167042,1.88787373996842,1.88599193924038,1.88380408654756,1.8844415675719,1.81285134364911,1.81175109205697,1.8824837869076,1.8821151665008,2.02200789292224,1.88556886575782,2.01407608294587,1.8851070057992,1.88484079835043,1.88470022097584,1.81546332007767,1.88814251032868,1.81768013312028,1.89502422843098,1.89481926580689,1.89518844703518,1.9288916320205,1.90396148624535,1.91781874481138,1.92782866938941,2.01915597005864,1.89969703517138,1.89887175503909,1.93381594979995,1.99592792659142,1.98309620457021,1.98378651039378,1.98454644935078,1.89549375044799,1.89296178276528,1.89222648694394,1.89117986952523,1.89186805778125,1.89102064417648,1.89046909380322,1.88975988324323,1.88945905099779,1.97379664520837,1.97310805793247,1.95953332831358,1.88933757378166,1.98389272444256,1.88762047309217,1.97558357230687,1.98189778770061,1.88563606245936,1.98139366087311,1.98018917914362,1.92910251370878,1.88564067620103,1.97089433979336,1.88501284881836,1.95847014553892,1.95582791462466,1.96564337474152,1.88200173457254,1.96866763401003,1.95590311989197,1.96579308220429,1.96982541195713,1.96050463219151,1.87862403923562,1.87808084922123,1.9427487353933,1.95562267861555,1.87557966052503,1.9648463828839,1.87379203987523,1.91831375941677,1.95804287460555,1.95025774458608,1.95940781120737,1.95969842027165,1.94337151268388,1.94532297336706,1.9557869781324,1.86852487448229,1.95300874619374,1.9493764807246,1.86504080897328,1.9474583457595,1.8638046997625,1.95425622883104,1.94407439631771,1.94586938054091,1.94447269042619,1.94636458988925
1.8738172661012,1.87482735233592,1.86203753366254,1.82336503973513,1.82395140992403,1.87243239858121,1.81985450060638,1.85379520332555,1.88520275788854,2.01162240334553,1.81924938555594,1.81649171308688,1.81666056144995,1.81717199232676,1.91733565179951,1.8648744318296,1.86358788768023,1.86242169343574,1.86262633691229,1.86227381602926,1.86135870774422,1.8148295319614,1.8625530991272,1.86122717515341,1.80994132128415,1.81023243453648,1.81023131970398,1.80988763787497,1.92165428328364,1.92083552448431,1.92150318994013,1.79739831962674,1.79618946622093,1.79738424269304,1.79824098590035,1.86980769098777,1.84247839196663,1.7958421636079,1.79313299133821,1.90776791606955,1.79069825851749,1.79115791862255,1.81192699889601,1.89409801442238,1.7906028261235,1.89952863751404,1.79249414484625,1.87513126459244,1.8979724713131,1.794395413457,1.89539417051306,1.79501816324649,1.79630029693393,1.79494188052594,1.92743926688845,1.96017775579663,1.92629197043077,1.92740080777234,1.92548286102272,1.9209464018393,1.91990776848994,1.91815828163791,1.91852807170563,1.91802964726006,1.91621158250443,1.91588331292445,1.91679909422878,1.90619341309276,1.90794610017475,1.95332291520148,1.90477812076742,2.02271609024156,1.93810825548705,1.94923972904458,1.89916760306729,1.89841746791333,1.897494220939,1.89545390817119,1.8964818165244,1.82336484015457,1.81946916688064,1.8906711661698,1.88996103835602,1.89017495470996,1.94490881142576,1.81442835198606,1.8848123719585,1.883445311241,1.8844813385798,1.88373504892588,1.81247742336586,1.81155284200385,1.85946479026279,1.88263620002187,1.81227485836891,1.81241964537642,1.88420386709305,1.88482894296475,1.88485398014146,1.81578436952909,2.00945863642392,1.81776530134322,1.89613147793187,1.8940184239828,1.89515396791634,1.89568488370858,1.90058308463437,1.91627112781819,1.92699417415254,1.9263031239409,1.90124624016377,1.99235570222105,1.98005026650883,1.96996052229915,1.97198217950273,1.98356002393759,1.89476477458818,1.89526291208664,1.89356754127238,1.96405846694013,1.89156363771853,1.89106768061956,1.89156535595543,1.89016298050573,1.97785415072046,1.88976111522747,1.97440932741812,1.97385312979053,1.97369797502928,1.96969402315379,1.97484776702253,1.97278045682486,1.97398851504906,1.97605550094126,1.96852517675174,1.98412160129594,1.9669815145523,1.96535211155551,1.955762455831,1.96889211048386,1.97643854624059,1.95635901797349,1.95602414424422,1.95041497657852,1.88152090251494,1.88003030567245,1.87968853577385,1.91290265046072,1.9642993953059,1.95901653563457,1.9572566122373,1.95535063539934,1.94889290146337,1.94642505522811,1.96400780359377,1.87547579158487,1.97302852832632,1.964073314467,1.96652193283091,1.96287174267772,1.94524617958808,1.94734529851911,1.9410659380942,1.93924339999117,1.9608070362515,1.86837515776049,1.94528083170868,1.94683690110964,1.96016810299934,1.86300207613393,1.94871721288023,1.94786217558389,1.94548318599411,1.94599313707858,1.95348906197783,1.94103045650028
1.87489535038245,1.92807260048782,1.85685681043049,1.82441579088872,1.94213267793403,1.82268407972552,1.87148882678306,1.86017656280422,1.82278720079516,1.82150087120686,1.81971648362324,1.81804206350081,1.81832690812376,1.93227423258539,2.00651253557555,1.81480688789657,1.8634974384555,1.86214480691329,1.81431493104567,1.81589655186087,1.81605279672587,1.8147791446618,1.86291194609446,1.86031493067512,1.85825551723346,1.80965167582278,1.80905959895521,1.80903336333153,1.80662751235375,1.92061935968562,2.00416348994999,1.99041034171141,1.797253150342,1.79958642021984,1.79962853618974,1.79505414377216,1.79642697363182,1.79572851085248,1.79251358621616,1.91381045324711,1.91405737818904,1.79153257446329,1.79266827824834,1.7920556526839,1.79254245367693,1.83864244787554,1.79381611317762,1.87451514882182,1.89798506148766,1.79495046715442,1.88919477475462,1.7956037773961,1.79708753470941,1.79677691642722,1.85586378581893,1.92820636084322,1.96007394424131,1.94802590845639,1.9247895263854,1.95834458179006,1.95764581046997,1.91849608216866,1.91786495808451,1.91594522348531,1.91579569654672,1.84024003247113,1.90866520074656,1.90702091578067,1.90876479514235,1.83603392221428,1.90449403341887,1.9042269036787,1.9275025200313,1.94952930171245,2.02278218865803,1.89968800281373,1.89755564598027,1.89512857001054,1.82373018098024,1.8931087225209,1.81988715271315,1.8902293682322,1.88967832445174,1.88983027589403,1.88979744608508,1.81616145540168,1.81526685768669,1.88313113754558,1.88382780118908,1.81271062383139,1.88499892162069,1.8114364795126,1.8453061964781,1.81364956458857,1.88412449979287,1.88417987479919,1.93375706430422,1.88657628826079,1.81380691400446,1.88516303386214,1.88632762622273,1.81782306807159,1.89699868784215,1.93192486448015,2.01579084223451,2.00335271509179,1.89928236753317,1.91452989859261,1.92691376536878,1.92531999883857,1.98554315816954,1.99370303273538,1.97833105145893,1.97877421008411,1.96800659972981,1.96976289377742,1.89528482230175,1.92400917327777,1.96941972401204,1.89331244574263,1.89123022603096,1.89097155136491,1.89198168808592,1.8918716204705,1.88965005887987,1.97132798596331,1.96340218581375,1.97368830618333,1.9786261426382,1.95810438886913,1.96875937505476,1.9796735064669,1.97463128262189,1.97597570454448,1.96003161589313,1.95668473525581,1.97680606275292,1.9756275057848,1.9795432426826,1.97911379203068,1.97396564825456,1.98382135095826,1.97165709149846,1.97089680798382,1.96478637635207,1.96372501212844,1.87940511829404,1.87861452408402,1.87952625086339,1.87921531797029,1.95671207963085,1.95509558143289,1.9511025598948,1.96823379555489,1.9541029077504,1.9617016911912,1.95999316496765,1.95907095334535,1.87407542002458,1.96160765021058,1.87441722970414,1.94130392637259,1.93988957680071,1.94091587410778,1.94102451072215,1.86860674547946,1.86709017456189,1.90136815996996,1.86432699123753,1.93490916619561,1.97061915355813,1.86307610649604,1.94625755948856,1.9506763603879,1.85832797382643,1.94279675102356
1.82774329226279,1.87466440265283,1.85109161758723,1.8258342946178,1.82395128282843,1.82348577459374,1.87072086857388,1.86471490274343,1.87817395520473,1.81999477754448,1.81919396327859,1.81904624066736,1.8192727673115,1.81923936108229,1.86536268015512,1.93119379903393,1.92766457079896,1.92685028915741,1.9256422235032,1.81597574843159,1.81483808314431,2.00067698966437,1.86342521772551,1.81305432517383,1.81203593946522,1.80835527602943,1.92174603776858,1.80866645486245,1.80643759224383,1.80479809329216,1.80369200522465,1.91973441871799,1.79871361521903,1.79974644259175,1.90269080856344,1.79469801984847,1.91164459966391,1.87273595630875,1.91263714267269,1.86847715616943,1.79127302823147,1.79148399125755,1.79229998008468,1.79153052684207,1.79151514742656,1.79205714025925,1.89347271331877,1.87385161092897,1.794403719989,1.79418498344827,1.89034119487954,1.7962220339737,1.79737478623079,1.79659757324011,1.93020671092524,1.92829262153731,2.03183767171439,1.95955825404252,2.03181878645254,1.92234963566555,1.92194885599412,1.91838440451117,1.91820617829131,1.84481548178496,1.95449629289542,1.8416922447147,1.83693164742296,1.90734703866647,1.91004909855687,1.90767842049257,1.90499148264036,2.02477458378305,1.91937170019382,1.90440021701021,1.90167082756013,1.8263835534097,1.89663047044235,1.8954498126618,1.89717476694549,1.89489819162679,1.8946269196603,1.89170976577536,1.8895895036947,1.88899206938138,1.88720159184878,2.01585129755963,1.88530557237032,1.88466969132657,1.88484132586893,2.02711635625226,1.88524560785965,2.00645587979001,1.88346831077275,1.88301038891643,1.88346568134985,1.81367377218566,1.88482847713187,1.88531318753971,1.81387911476749,1.93021590837577,1.93195335246583,1.81744240106125,1.89501781924182,1.89273953031336,1.89424072833649,1.82242686575134,1.89981241607472,1.90021259734271,1.90312446644482,2.01243688260852,1.98360120784469,1.8994940643563,1.97813003451806,1.97920720844991,1.98626241319346,1.97804859533164,1.96905691858551,1.97211327157808,1.96882707510517,1.96735792623025,1.96568951061504,1.9608676937444,1.91926753194679,1.8901702238812,1.96379911628425,1.97326124714381,1.9741691091555,1.97292624484994,1.9790358910424,1.97845031898904,1.97095041537849,1.98640061450257,1.97435703385197,1.95868636963059,1.97983380508395,1.95698767921131,1.97470583324684,1.97355946229562,1.98659448553639,1.97392370189686,1.96066461786358,1.95389489621739,1.96935007777795,1.96985599439254,1.96440867661788,1.96153913877745,1.96094182724428,1.87909879472701,1.87983748971165,1.96126495182504,1.96284521463897,1.95574945371349,1.94905958005405,1.94793385540614,1.95474932626605,1.96306745189385,1.96102038339543,1.95526720115753,1.94862024671092,1.95468379373838,1.94920169736133,1.96332814412267,1.94722660568666,1.87018620031021,1.94068290471985,1.96066858613006,1.94341324920909,1.94524690068888,1.94555152485562,1.93482808815706,1.93455724253536,1.93131676307239,1.93153336802887,1.85986637749415,1.94443584428765,1.93501106704504
1.87595804369608,1.93395535955363,1.84690918385141,1.82655951579104,1.87183141436036,1.87054571506361,1.89150287580845,1.84742822268553,1.82306453671816,1.92699614056246,1.8663646916651,1.81825467582193,1.84564895672074,1.86521999419617,1.86475559833972,1.92893930849771,1.92793364148709,1.92728532881354,1.92809446781342,2.00683836837894,1.99726903430858,1.81285742377093,1.86199800832403,1.85933577170058,1.92335609094486,1.8094033938197,1.80693621284954,1.80768433567759,1.80484752308451,1.85010791837934,1.85711735120551,1.8006703430779,1.79986925904659,1.80013464225309,1.84537409279097,1.8446132989512,1.84565041058877,1.84410628078874,1.84060005084907,1.98308231787245,1.79092603229395,1.79035546320523,1.7917013692343,1.79138194667366,1.7928245104396,1.79153822811493,1.89304465487685,1.87412393409829,1.88482736384877,1.88606119713753,1.852169357731,1.88625944392407,1.83068747300723,1.79530943692495,1.92842453204454,1.8565622018436,1.92410759966622,1.94754932695699,1.92572217013443,1.95952100618094,1.92086053715819,1.91972244459679,1.91873613890207,1.91875314142777,1.91596316636365,1.95439422579985,1.84017346765108,1.90772701118227,1.91023438967817,1.95369484023042,1.83389044499448,1.90174524793595,1.91252418393872,1.95114094783576,1.90159491458591,1.89711079166316,1.82452919143951,1.86545986158536,1.94785731139912,1.94692320960356,1.94642203149864,1.89096297469718,1.88901788366353,1.8886988005834,1.8867858316838,1.815127937348,1.94376625308392,1.88614247074129,1.88523321195651,1.88463798720817,1.88540462631582,1.88538013410806,1.88424007777064,1.88388813532136,1.88344610559802,1.88349151500212,1.8844605446386,1.88398231056524,1.81412344719909,1.81492115544269,1.81997028476616,1.89104845839409,1.89150212294125,1.93152322252985,1.89482948979566,1.89816540698032,1.90065181559273,1.8995093986303,1.92592648738574,1.92469892916035,1.98441976379098,1.9783963038303,1.97885604525352,1.9870170884023,1.97689896453825,1.99022390790406,1.8959263753514,1.97311120750492,1.96901631882182,1.96769787114703,1.96219091163011,1.96348653498767,1.96404623968092,1.96570834489359,1.9633094877344,1.98599777730471,1.89000846179031,1.97178863014572,1.97542266527551,1.97584713076355,1.88835523212958,1.9613906844625,1.96682120996645,1.96727842748831,1.97417146392747,1.88658042427041,1.97582564476375,1.97272985577505,1.88620458011235,1.95809095226065,1.88511682201839,1.88355948181549,1.96693065938015,1.96951205562649,1.96606278184991,1.88138264591567,1.88031042032284,1.87940485060717,1.97707900310597,1.96071603398092,1.87711880936569,1.9481366891111,1.94826906645164,1.94819420192126,1.94955561406219,1.87579678827148,1.96209588704447,1.94926930396727,1.94757783095845,1.96115870361922,1.94985789086709,1.94499858430501,1.947900080886,1.95896583518819,1.94085600649643,1.96023615625109,1.95998245071669,1.95346354269661,1.86517290054373,1.94882631776258,1.95043170180215,1.9343612520334,1.93482093942341,1.93009092985049,1.94715265011564,1.94616299189859
1.87508932043779,1.82722274360286,1.84293962948424,1.87461734006902,1.87156541659452,1.82360017801008,1.82372761038041,1.82447268554355,1.82275672299595,1.82235123269818,1.82298272859999,1.93404034323195,1.85282234287667,1.86570009655047,1.86536477004041,1.92821964097168,1.92699644646127,1.92604686935846,1.81092602457495,2.00643548177753,1.99667729711931,1.81306943818651,1.86179481461701,1.92729435924346,1.89535904222219,1.92093432858349,1.91442570737152,1.85065046309098,1.91557055714412,1.80343697214724,1.80284661658981,1.91759128016191,1.79997475927947,1.79990068852302,1.79735938662953,1.84292402576278,1.84227304114367,1.84258204538832,1.84056732749438,1.97933935549189,1.7902261011779,1.7894757935116,1.79105089939021,1.79052753091331,1.97623001820149,1.79161678536753,1.8701913911851,1.85142903700411,1.84068656320075,1.7937742438828,1.85244637324941,1.88578102122031,1.86171122378175,1.88930748014911,1.92880834694167,1.92808648635866,1.96130088004653,1.95578737896233,2.03288580374698,1.92322783223045,1.84957465495965,1.92033612596193,1.91854495532876,1.91789215447998,1.9164336556749,1.91422999974208,1.95345802258833,1.9083256709429,1.9093450775339,1.95363818565813,2.04262115622988,1.83113526500677,1.87169403025841,1.83050295001336,1.90245186738197,1.8260324584593,1.82470574231104,1.8513417866859,1.82355190791417,1.94760047183798,1.82035265013489,1.81944402295552,1.88848498251626,1.8889849905765,1.88553008501214,1.88519817397883,1.88561122690109,1.88710466017404,2.01070506370592,1.88403808666749,2.01772093848263,1.88497923367308,1.88448888548587,1.88448352186685,1.88449364465187,2.02024212093941,1.88408816361868,1.88430549353392,1.81429772898439,1.81491178398707,1.88919180252843,1.890135069899,1.88998330364471,1.81976431906815,1.89466869218931,1.90012038122491,1.90013666084561,1.89977866159871,2.01332587184488,2.01344070423993,1.96376712107104,1.96587055406411,1.97892985042196,1.98663287686011,1.9867451593453,1.89676892431905,1.96823789557588,1.97147356412178,1.96853519583936,1.96901735235201,1.9683679565236,1.9693325198973,1.96449078318134,1.96628817769303,1.96556491107056,1.96257444715308,1.96276819444034,1.97105668759081,1.9601150040426,1.95954339205869,1.97740161163934,1.96690226727428,1.9675112387578,1.99035568811963,1.95767966422799,1.88605243977376,1.96425724916803,1.96653189359436,1.95700699879014,1.9764357575736,1.88407361586843,1.96434921680328,1.96548536550121,1.96927300926812,1.96414475102284,1.8808994519096,1.87992242410774,1.87886117698991,1.97672036611168,1.96486724774239,1.96559751595185,1.96693050941105,1.96815585754742,1.96695814015489,1.95568515626141,1.96336441819217,1.96057158618443,1.94723127244091,1.94653823623117,1.96264643617434,1.94995388783226,1.939092496653,1.94886124849571,1.95730081460806,1.9637762904229,1.96151366094149,1.95059147775278,1.95061798802891,1.95932450500885,1.96617738969935,1.86231276407646,1.95642332842005,1.94806288607852,1.94409486721127,1.85720430074645,1.93049651702732
2.01301850828236,1.82757039611645,1.82950396545869,1.82902772960574,1.87182641771369,1.87186864041251,1.8240026164901,1.82349218619925,1.82249839133671,1.82295932250012,1.82254628322676,1.82026011643359,1.84598580617267,1.8194361048115,1.815394078706,1.81584869528457,1.92614647980204,1.92529891296581,1.99994046445227,1.81107682930821,1.8963963056394,1.81256540777417,1.8600794633738,1.92640288813776,1.92206373803524,1.8077568308706,1.85345122022259,1.83007336999314,1.80351018452599,1.80226503513079,1.79926243012129,1.79937195229192,1.79977613101881,1.84217034260811,1.84271962112473,1.84259652484081,1.84154284712965,1.84223915722943,1.84196646836884,1.79213231941986,1.98272654827737,1.90915867208283,1.84000021373181,2.00535109197187,1.90248205469194,1.79243320256567,1.79211985177622,1.82525808616513,1.84506089502678,1.79374079315662,1.79384978493019,1.84227537431127,1.85195016768609,1.87872753847094,1.96001180127153,1.92858216224174,2.03236645904614,1.94535635964882,1.92458540379251,1.95710897334047,1.92031473671132,1.91836748265549,1.91770981181562,1.91694719389695,1.91495952845701,1.91314160608557,1.91350645265995,1.90925185643131,1.90884491777506,1.90971495270573,1.90420038955793,1.90375398578327,1.90204804852645,1.90249477203914,1.90175534059801,2.04833394793905,1.8241363779214,1.86674066042252,1.89661562025079,1.8947600906222,1.82130988655451,1.89110497003448,1.88908159861935,1.88969529615628,1.94365189835153,1.94270442183701,1.88790488710963,1.88723206195423,1.8849481491003,1.93841508962316,1.88601444502377,1.81123763440641,1.88423710972317,1.88447943420386,1.88425214871127,1.93522662912767,1.93506295564505,1.88539419998588,1.81365194372729,1.8140540908382,1.81389263402201,1.93176723610199,1.90699305465812,1.89477898756241,1.82333358362117,1.89890033747635,1.9010975323117,1.90177792220682,1.90351440794479,2.00705050380544,1.89849143986232,1.89856695094329,1.97537377333845,1.98832278283553,1.99012556402219,1.98032408686524,1.89430169179946,1.91698853189639,1.89437906756255,1.96900280393849,1.96716660772863,1.96600409903505,1.96378774400917,1.96262112117452,1.96396584165769,1.96412873428555,1.97997767962873,1.97971477078135,1.99071597860761,1.98436236275052,1.98468710701246,1.97127602247852,1.96924302043124,1.97604410249592,1.96740888739902,1.88689036608747,1.88636866519477,1.9695410075963,1.96862257479678,1.98860225534025,1.96403063493689,1.96440919590532,1.96550357030175,1.96910601471781,1.96951813871961,1.98268201505826,1.87994135020237,1.87856732396933,1.96683810470815,1.87809812702443,1.9705610313755,1.87629388002313,1.96623588438274,1.96519534350095,1.9579481874055,1.87633799860841,1.94655451195911,1.9487143295724,1.94688012301607,1.94499298745785,1.96041723680409,1.95276784715974,1.95152059316814,1.95159963159141,1.86686679352005,1.86835281020638,1.95351144203815,1.95027409068114,1.86359629709031,1.95511739007932,1.9568677594227,1.96032919522216,1.95097480469146,1.9550028258891,1.95689485752758,1.9425557122051
1.82692958933555,1.82747157944075,1.82886512843146,1.82776532366322,1.82622481848357,1.91746651138384,2.00938309537652,1.82102217791847,1.82234166000697,1.82246264008241,1.92127390622236,1.86769070351135,1.86750224598702,1.89220543154457,2.00935476748375,1.86216122681474,1.86332473138393,1.86226864341416,1.81631132044599,1.85883214165606,1.92482936885093,1.81148062959443,1.86783909070857,1.99605499649735,1.92552643938837,1.80720742160614,1.80466727519539,1.80558095316256,1.80385586105072,1.80307051258374,1.80081232217535,1.80002064499372,1.79935701045947,1.7977124327469,1.84247080865914,1.84306216785245,1.84229322313114,1.82779378379768,1.79295881501527,1.79336708860986,1.91169873980145,1.79059436562064,1.82296899479925,1.79044932107323,1.9751441156452,1.79044581282246,1.9107359301109,1.81429243104262,1.79158979706052,1.79279675529231,1.84323254906401,1.79617046806203,1.82819683431452,1.79800276337449,1.95977888676613,1.92816514031314,1.92886569168923,1.94037731116953,1.85364424195832,1.92369621706527,1.95537688749269,1.84751604372034,1.91736411330189,1.91619126296556,1.95432958910645,1.9181640779108,1.9102254355998,1.90961754748478,1.90864488665511,2.02844776721258,1.95173077421143,1.95378926653966,1.90165538783496,1.83119942444941,1.90112170385451,1.89884382701218,1.94813819120185,1.89212413627331,1.89554237119198,1.94634864330984,1.94666969276127,1.81976555867471,1.88890906366179,1.89023679733597,1.8173469556152,1.94181625089986,1.88672829266502,1.88741015979306,2.02843832458166,1.93782335263184,1.81329466250873,1.88377888181308,1.88380472126567,1.93754355930484,1.88390979117722,1.88532745145459,1.88534584450247,1.88624066763422,2.01220644202287,1.81334873847594,1.93084563532378,1.93087580629516,1.93031948282559,2.01992107148798,1.89542908671897,1.82427904675394,1.90441178519769,1.90283896585952,1.92599410998744,2.00688206961061,1.98962263999871,1.98017034594254,1.97591668828398,1.89766264274357,1.98859446469157,1.89526656214359,1.89333492085554,1.92968926743715,1.96902498128574,1.96959517672208,1.89196704837719,1.96593332703738,1.91764590618942,1.89093022101217,1.89122406464847,1.96616709895317,1.95995713064059,1.97563440666932,1.88842797393321,1.88861684195655,1.98623834140732,1.88809227048036,1.96834168207588,1.96609764397415,1.88626871873128,1.96774484346856,1.97344120546651,1.96994163477725,1.96576785879907,1.98305290106039,1.96321875285591,1.88247631534988,1.96659555612983,1.97687903345997,1.95340974607434,1.87991340126486,1.87952712865386,1.88005702847653,1.87790108590204,1.8775264328522,1.95985464294754,1.9602480523806,1.96470259416478,1.97305537010176,1.87553987259474,1.87544127229085,1.95458989312619,1.95479493104777,1.95317410345336,1.96421601369084,1.95877604944716,1.86893992888135,1.95483831815596,1.95938876602793,1.86720080923362,1.86771222998263,1.95006188780966,1.94997128424161,1.96352055363343,1.86339694014215,1.95731919207369,1.94897653511954,1.94918553949757,1.94377430027847,1.95253484487415,1.92877394510627
1.8764697197654,1.82720433138888,1.82809458347559,1.82590661657589,1.82491232956732,1.93760178156473,1.93828794326723,1.8209041622229,1.82252239007259,1.86845895889777,1.86705022373595,1.86682772870786,1.86725454945535,1.89190958608872,1.86265985604421,1.98967632463762,1.86511483980803,1.86123621772601,1.86040099240036,1.81472876304274,1.81090565377321,1.92300156901778,1.89035588207346,1.99602962830259,2.0064330081619,1.80498365183383,1.80466288553282,1.80550196991935,1.8028676536461,1.80191871221847,1.91902166941507,1.79929255892232,1.79929299963085,1.79896968316377,1.87601507242476,1.89880953626981,1.79215712573076,1.81389344699082,1.7926386878644,1.89458903123044,1.79400745442193,1.79007338463054,1.83996994051292,1.88939361997067,1.79071360026139,1.79019788716359,1.79126743447289,1.79247766940982,1.79186723931392,1.79449334534364,1.84267034952285,1.84252591793878,1.84102058990017,1.84241127644862,1.9334206165352,1.9282212646506,1.96003816034785,1.94519088997076,1.92488875051626,1.85050003279023,1.9194090379434,1.91927554417438,1.91887766171038,1.91955454488882,1.9155130822357,2.02872160350938,1.83827173958556,1.90986825211712,1.90891451528534,1.90920047237234,1.90510145378026,1.90429259622205,1.9032309299676,1.90442579385086,1.90022150341891,1.82623895917224,1.82494217115265,1.89201994660827,1.9480815354163,1.89500349099994,1.82043523769288,1.82033603685651,1.88905796002481,1.94079182434278,1.88878783264408,1.88851800350186,2.02899543980619,1.88637291066635,1.88558902316656,1.88497234217409,1.81291066218448,1.88447511191621,1.88363075911418,1.88343248980606,1.88299321389987,1.81309777169928,1.88498909640173,1.8859351067471,1.8853463329138,1.88736402733596,1.88858459074367,1.88923137938603,1.92979084204534,1.92900880439794,1.82289848476294,1.82508541082915,1.82623627686641,1.8574505972278,1.82938707927042,1.92386400590106,1.89830748448946,1.99891886253362,1.97660771167644,1.97747265857318,1.98012025160959,1.99684642050461,1.98409752352281,1.96317920006194,1.96744404366853,1.89222406392658,1.89036381973075,1.89019941452977,1.89131833317708,1.89125040010485,1.89089630745867,1.97379660791218,1.9795795479456,1.97344094249533,1.97435640930676,1.96701542570613,1.9824105057806,1.96857783934848,1.96930030267903,1.97005080395984,1.97910201176779,1.88621206294574,1.97465190765405,1.91573964067708,1.88549795749648,1.88500669465348,1.96701101788696,1.97346880485987,1.96834766002295,1.95853287190425,1.95813987039483,1.87848954464173,1.87977487973467,1.88062584344707,1.8785481724311,1.9587685679808,1.95883739814232,1.87669819256649,1.96829846877464,1.96302197964913,1.87588908602071,1.94852533906974,1.87361503061015,1.95905651968389,1.95469458214433,1.96107876273643,1.872916474861,1.95752545038398,1.95711977716145,1.95752774285429,1.95227843002296,1.8685521067727,1.95025058976094,1.94990944823522,1.94739644596114,1.86278461996152,1.86273610648163,1.95058599883998,1.94954830172889,1.94474932661594,1.85663934421057,1.85565283462598
1.8291984374418,2.01117719525213,1.8579852018136,1.87202112506957,1.82519342278456,2.01075210752868,2.01233846952395,1.82178481491277,1.82172882640286,1.93692760245396,1.81988820617483,1.82045527641962,1.82018113774323,1.817564870788,1.86349578607884,1.86330202015402,1.81505550299302,1.8448002929715,1.81055328094837,1.92727941949019,1.81122308874014,1.99627672365367,1.87756490247502,1.85574756953174,1.80708943802286,1.8531591023717,1.85062657230342,1.84962556969998,1.8496347952988,1.84979443643294,1.91938048939019,1.79853729893254,1.79877243433407,1.79760495034474,1.79579532921606,1.91518150362587,1.91415540314843,1.84380091705489,1.98641861696875,1.83786646994103,1.79265551735073,1.90077409176555,1.86656525457798,1.88904992310557,1.89002816556824,1.79075303527153,1.79066266254583,1.79278555518412,1.79316755712786,1.79401546830837,1.8423937995973,1.79750655347508,1.84824888022712,1.93074883823685,1.93275175118106,1.92872295909696,2.03008134236248,1.94658008397553,1.95661104393777,1.92380419264634,1.84926166319536,1.91898588368821,1.91907248415972,1.91863719209182,1.91753763887424,1.84286094437251,1.90963702007732,1.9099413935345,1.90936537113614,1.91086865063943,2.04898548947282,1.83628888664515,1.90255989924807,1.90238229638486,1.90135943334192,1.8986786413537,1.89775328797746,1.89508101690633,1.89634616453248,1.94807209278538,1.82129071126038,1.89259873751983,1.89027631994799,1.88936437012793,1.88741918140045,1.94311471155015,1.88523608798851,1.88494313766725,1.88556497895142,1.81336216536516,1.88481442843256,1.88393393252381,1.88334947035115,1.88422782286123,1.8138437395423,1.88520488236333,1.88568178220643,1.88621726291383,2.01203647466624,1.88818918692731,1.8884993845471,2.00939253800745,1.93002838868655,1.93020808886962,1.8221963948405,1.8243301619461,1.82625178866739,1.87178309199101,1.92589806158434,2.01373604441879,1.89832220436124,1.89790599265732,1.92654993809031,1.89786818148158,1.97979202143878,1.9961248422789,1.96536524658447,1.96406445101409,1.96479193520797,1.89233774198375,1.89156101583623,1.89133647380639,1.89132980621996,1.89128504856506,1.89049726525093,1.97089342840239,1.97037231222535,1.97106002360198,1.97504904201324,1.98695468724262,1.98073727064438,1.88832443549826,1.91939324692315,1.88781731798802,1.88670311405669,1.96963806424896,1.88615713788399,1.88367884436705,1.88563290102523,1.88508878952306,1.96498366552578,1.97355572978235,1.96646962322512,1.95873982048011,1.88219894480293,1.97416221067418,1.95745177275024,1.96164157494529,1.95834820169918,1.87885615228906,1.95821727622145,1.96759453326067,1.96861263999356,1.8758536782836,1.87533727524777,1.874170482228,1.87309174830695,1.96368221656092,1.96599726756007,1.87284584798122,1.9660273486615,1.96091012181841,1.95909208446649,1.95812054704541,1.95221446722158,1.9512203728155,1.95129595303399,1.95175167639315,1.9539696554842,1.94199531073299,1.86207660616363,1.96391042593257,1.94824100537768,1.95030900253026,1.857618158759,1.95153564009815
1.82862508288319,1.82922778118785,1.84777426607502,2.01638952752232,1.82579550247153,1.82393826999098,1.8236607481358,1.82221427372794,1.9369351565587,1.93537130272997,1.81883400056863,1.86420158561039,1.82006184446003,1.81808710824032,1.81738801416794,1.88859118528693,1.86226185732562,1.86204818654769,1.9277606550036,1.80609733001974,1.90616569674357,1.80997231871321,1.87030233205017,1.85520865463392,1.85473598896019,1.80458817840082,1.84975353258872,1.84910775173524,1.84915555894736,1.79997679880319,1.79898352854205,1.79899951299656,1.7985392679377,1.79711502088753,1.79554529996719,1.9839068771429,1.79174369598404,1.82350761100629,1.89749702289138,1.79183115111248,1.83897668011584,1.83961245764265,1.85171588069961,1.8995815293855,1.83728102682373,1.79032108896159,1.79034373051445,1.79271444986073,1.89665505436067,1.89525125110986,1.9651349268655,1.89487197149444,1.85292750808263,1.7984806019909,1.92866975814806,1.92927478038764,1.92351115429673,1.92476580524298,1.92411159036058,1.84887640385365,1.84925516419708,1.91874104366834,1.91912586014425,1.91778199583126,1.91473785748517,1.9145191862505,1.95130695185686,1.93852280800036,1.95106562877477,1.83665501413511,1.90321891856775,2.04136528631695,1.90173038041622,1.90110594952233,1.89972316373536,1.89891307895665,2.02363202544121,1.89516850259758,1.89497190064471,1.89442132232371,1.8216032765146,1.94393786880589,1.91117472794439,1.94374911983559,1.89105886444738,1.8902203676144,1.81423093286699,1.88312027621818,2.01347175456672,1.88574027006325,1.93774389088739,1.88322985949783,1.88245486842008,1.88261126302449,1.88199519316927,1.93225568598726,1.88580957718731,1.88597444893475,1.88609518961329,2.02507287366897,2.00763974429547,1.89099232099019,1.89007644190079,1.89367124002374,2.02037431777235,1.89873103853576,2.01196863314609,1.90522555062233,1.90599372011442,2.00914679475351,1.89802882907707,1.98789813881562,1.98274515884679,1.98492146477687,1.96694279005076,1.99242710770248,1.96458176545278,1.96605353290986,1.96609476480413,1.89182670836408,1.89180200871291,1.89017149825896,1.89056521079793,1.88990009626859,1.88917446779173,1.97352773407614,1.88916842246797,1.96775589283836,1.96927189841159,1.98868845974355,1.97387027035956,1.96000805097212,1.97312263801626,1.98334287804331,1.97433082386342,1.97670845300482,1.97537961927405,1.88228015706101,1.88479397032878,1.96308085256708,1.97250447076305,1.88289166467089,1.96273732022144,1.96105071671564,1.95339344072107,1.95165944091667,1.87941764184952,1.96565769357972,1.96100818709899,1.95921681616577,1.95909912537254,1.9595991784837,1.96170729314904,1.95928075917018,1.87521467138373,1.87474461399659,1.96385848403509,1.96213726835293,1.96658205304031,1.87293863150237,1.87243792632529,1.95722638622098,1.95956318171476,1.96172476803251,1.94745099422377,1.86669328195573,1.95807826259121,1.9462166646761,1.86468150506102,1.86346821376192,1.86228321750849,1.94911416058818,1.94500901049855,1.85913024791157,1.93778906770887,1.85568403716764
1.82805713571252,1.82650643352175,1.82802854005341,1.82813814399833,1.8250141519093,1.82402420354245,1.82400234079415,1.82200474721286,1.82012089516471,1.9341023560327,2.00903371803233,1.81770961277958,1.81901594466858,1.81731297537428,1.86163607029728,1.86117640837669,1.86133213602198,1.86124445491484,2.00617260086228,1.81036214354367,1.81058284330119,1.92051849574842,1.87780870869451,1.9215285185936,1.97960103744144,1.85080986605923,1.85060455672982,1.8488938448891,1.90492364660773,1.91869665872429,1.79749466502002,1.7972535611294,1.79791504064353,1.79641603630116,1.79621642672861,1.79612359162422,1.79175711716498,1.7923845855946,1.79134600322192,2.07255429625974,1.79072316040144,1.79025554910417,1.7919340379309,1.79168062568429,1.79206062520021,1.79131946606092,1.79157458859406,1.79271130542747,1.79227618404406,1.79345024341133,1.89181027971994,1.79747021656429,1.86289071283558,1.93159356246657,1.93177027961848,1.93057171000893,1.92513515599482,1.92512041790316,1.92494488808262,1.92263508564505,1.91843148950678,1.9183723106833,1.93484484749613,1.95585008752314,1.91575932128405,1.9151301084294,1.91303356623071,1.92847655349749,1.95155664181048,1.83573875654224,1.83398060375301,1.90384563700345,1.90106338836395,1.9530122067745,1.89966182600181,2.03010967025525,1.94721213604383,1.89571188417975,1.89387828298366,1.89349273017731,1.89213916517986,1.88970902217603,1.88982610665736,1.88883120021988,1.88799065654909,1.88606060794826,1.88563017465506,1.88376849230274,1.81309781363984,1.93739046499779,1.93778632390453,1.81103933845218,1.88157850000358,1.88209001311945,1.93727916563896,1.88458235118192,1.88425079993744,1.88515622823292,1.88544591346248,1.88619895013593,1.88669289269721,1.93094896118969,1.88591903375385,1.82058582877072,1.92747520159148,1.92833134035898,2.01385086424365,1.90630614437494,1.90960986369489,1.9264193325265,1.89908897705351,1.97680298439046,1.97434501076935,1.96903765098527,1.97776284170019,1.96704347545797,1.8947059794944,1.96930070658538,1.96511292403836,1.89160652486583,1.89138745019248,1.89119649847687,1.89070933172623,1.89003798293888,1.88898362681621,1.96687135149071,1.97948206818989,1.97560535185302,1.98789834924418,1.95910984614272,1.95970559385147,1.97790789640642,1.97599736297507,1.97663245713687,1.97027020401534,1.97650502437086,1.96831375601949,1.88286234077208,1.88478595083105,1.97163818230695,1.97065152840181,1.97113053242145,1.96507980562703,1.99529050849304,1.95216359672705,1.87977900070155,1.96695036145108,1.96738544311281,1.96145120205926,1.87841141815196,1.94727099723956,1.95938948402525,1.95915455845659,1.96063401679204,1.95477108637333,1.95378770709345,1.96192962491256,1.95993293041995,1.95511256474693,1.96717975416119,1.96084826455728,1.94846374101982,1.95048764517142,1.95013460299511,1.95142832851494,1.86672906355346,1.8657376795799,1.94589929241435,1.94955535871089,1.86307254500326,1.9425333469363,1.94711746682589,1.94263642958695,1.9375998162667,1.8568738086641,1.92534238363123
1.82870795332425,1.82496630009956,1.82786472251066,1.82725855323777,1.82442659756384,1.8255144738189,1.87147189456927,1.84707855348312,1.81872895791239,1.81838626127253,1.81858322650216,1.81910166492167,1.81896533857359,1.81857922932294,1.81689954464025,1.89562513882566,1.86020743372227,1.85943026463868,1.85888605248071,1.81029903418502,1.81055389439415,1.85634364508203,1.84135219440566,1.80454596845482,1.80477078430519,1.80492294180507,1.80149263376625,1.80250655139829,1.80004396334302,1.91827498780686,1.90575358069738,1.7965963238083,1.81827357575659,1.84345679379348,1.98789166739293,1.79364368735783,1.79247625595516,1.79315206688894,1.79240478481826,1.79231391338666,1.78967416694435,1.79048911988585,1.79157675491481,1.79112533992221,1.79110780522252,1.79138817101858,1.79136450407161,1.79247244736329,1.79179516271941,1.79300265325019,1.89268755671642,1.8919954724095,1.89120078249033,1.89175054504233,1.93081590810596,1.92900914521807,1.95668396062635,1.92471380265011,1.92585001072405,1.92301873458638,1.91905912247543,1.95372719984983,1.94371305366887,1.95398674489507,1.84115182817522,2.03307465636546,1.91250652035812,1.91067669432693,1.91001802186283,1.9102067453835,1.83303492509561,1.83346277402432,1.89866248446965,1.94702186538966,2.03403780471974,1.82712007862179,1.89917202444897,1.89681468397289,1.89527776602831,1.94421972745701,1.82072741748608,1.9440306467498,1.89018772980178,1.89057873636325,1.81721475878226,2.02986416185122,1.88708353623192,1.88460901588366,2.02335818914441,1.93825811754391,1.93762967831453,1.88197913209328,1.88087192439209,1.88260227493753,1.88461415175222,1.88490511730291,1.8845573849003,1.88477497381949,1.88534363769881,1.81136032760922,1.8877351869841,1.88750300143593,1.88574078877835,2.01241417990321,1.89479609178333,1.82297927402531,1.92793062236024,1.86733924431127,1.82988923962963,1.92697328294874,1.96864266849598,1.96872498226356,1.97236393548272,1.96866777054671,1.9646940146024,1.96585658842587,1.89310073416081,1.97339120401332,1.97065527910636,1.89155416567279,1.89068168277199,1.89077229158529,1.89075545201953,1.89038119927737,1.88992305730658,1.89085823732494,1.97319209453522,1.97425939735359,1.97518938583235,1.97622384360998,1.95939743900448,1.95864773551165,1.95514161091796,1.957809851573,1.97001321008722,1.97780368140549,1.88635558465523,1.88523231569768,1.88551078746207,1.9778618668358,1.96581403975362,1.96569855113131,1.96411630342873,1.96501275426585,1.96944023557698,1.87977046817969,1.88051510710836,1.96858554692724,1.96277183448722,1.96656295467348,1.96116416322236,1.94815206644467,1.94533982863071,1.87552495571228,1.87474436867027,1.9532291455689,1.96075555388884,1.96034472435706,1.9626192341512,1.87131141910015,1.94974829292571,1.93910134990914,1.94195586494415,1.94617462721005,1.95106593775622,1.86577545342923,1.8654565845825,1.94563085489871,1.94934792055143,1.95050211110696,1.93991823620546,1.85931135550526,1.90262239575381,1.95009554618929,1.94820826573117,1.93802839532981
1.93703331796458,1.83020234548912,1.82962332552886,1.93543785260874,1.87312762358489,1.9173552143888,1.82170254992989,1.85474439365471,1.86930615344881,1.86894689444063,1.81792053882286,1.81797604977731,1.81827297320306,1.81719594385607,1.81681629206923,1.85942906045855,1.86628321492617,1.85782308856101,1.85760076050863,1.80909464282972,1.91902656006239,1.80712759576343,1.8307388686565,2.00588932193455,1.80488514510142,1.80408094361583,1.80126479292983,1.80225659401713,1.79940102009179,1.90426488019733,1.90507718010981,1.79550135548662,1.82929300383406,1.88650613915928,1.79406712766162,1.79397169616147,1.79348480127374,1.79345063304399,1.79181799224867,1.79107598585893,1.7914578796321,1.78991380847278,1.7921436500115,1.979699738087,1.97711301250833,1.9039962990334,1.83954759356772,1.81772384863478,1.79206715178226,1.79374148650418,1.7939914807737,1.89310460310555,1.89118866196715,1.99018622670753,1.85720306624498,1.92670288629388,1.85641090156344,1.92434616581427,1.92541247837126,1.92429549145267,1.92062230721566,1.9198183632027,1.92027312274749,1.91947759237675,1.9161444063427,1.8426626491231,1.95170134419297,1.90952649742157,1.90898635707727,1.95086719975619,1.90526906644469,1.94680748804329,1.89867281138454,1.90100573710861,1.94706139261276,1.89805435995096,1.89863246672851,1.89721826277901,1.89621494809898,1.89414599410783,1.89455545910125,1.81849902457837,1.88962210443522,1.8896509986686,1.88858270365394,1.88809607578482,1.88667086805287,1.88486708361842,1.81307597440416,1.94063278500276,1.88464658215739,2.0200815962137,1.87844564211148,1.81136039111228,1.88346255989986,1.81323503126413,1.93500349158622,1.88430762980863,1.88518043468575,1.88493326261814,1.81496764641522,1.8896339187167,1.88839201324234,1.89066180803118,1.82102276089781,1.82262342877448,1.82382464753791,1.84684209148939,1.82961081500344,2.00713123168157,1.92574855143012,1.89748879734975,1.98171733092494,1.98447857684637,1.9929758316642,1.96676082219258,1.96829450000933,1.97257293802212,1.96964830396051,1.89114167877507,1.96391102404994,1.89127244999621,1.89122479965787,1.89082443181274,1.88898987334492,1.97965459029467,1.99052566965126,1.97557347124925,1.98127630653695,1.98059693640185,1.88782211542726,1.88811796924956,1.95388243378523,1.95684582802163,1.96560928147512,1.88577770192322,1.96390738484534,1.88602606391219,1.88555709036855,1.96958645535753,1.9682380463901,1.9795344721147,1.97658343893541,1.98947640259308,1.96539747254976,1.95967727237698,1.88182224352112,1.96786141011143,1.96272501652186,1.87720051957402,1.95753082098371,1.94423620618071,1.94764266163466,1.95041564160825,1.95238249616962,1.87397037663572,1.95769040433313,1.90850702286624,1.87238235942299,1.95935938303706,1.95805863507246,1.93801826155239,1.93861276645304,1.93636633899996,1.86725126004985,1.947851600237,1.94719961715952,1.94438467638533,1.94528499337743,1.94486504203785,1.94355139482823,1.859592535229,1.89360723836694,1.94202301267987,1.94323152248787,1.94381953196124
1.82852482200056,1.82750737782382,1.82852386048321,1.82708748696547,1.87164521002562,1.87193076724864,1.93346434274557,1.86235182905892,1.8686999660425,1.86876034480701,1.86893413242847,1.81843358234599,1.8177035151488,1.81627868751869,1.81612902359746,1.81462427208021,1.85890653236371,1.85738827867284,1.85680595085118,1.80815369709733,1.80755355452973,1.80637722528666,1.80702266913478,1.80636766886934,1.92282215903022,1.99294347493741,1.80151772058738,1.83736902486827,1.91943720253131,1.79961369473946,1.90468933313536,1.88866218448949,1.83948092034273,1.79425987386831,1.91401060999944,1.79296477300925,1.79388194227459,1.79428089668762,1.98978963620871,1.79326392621501,1.79052962602227,1.79043284456729,1.7917958178795,1.7915213074955,1.90268188480874,1.90257033936155,1.90180073779836,1.82779615082503,1.84238326923841,1.84297625422968,1.8436850533844,1.79736870973838,1.81916249251519,1.79912515879795,1.85742339308662,1.95715838312453,1.92501863708461,1.92390921764834,1.92522709341181,1.92113124910269,1.92310827528942,1.91936550014982,1.91941015493438,1.91817832075287,1.91584447978555,1.91262504176055,1.84051927905224,1.88112794010739,1.83927354121089,1.90929566846207,1.90601491517077,1.83107974347094,1.87062133029064,1.82900347518343,1.89951569779793,1.94840258486773,1.89847364448559,1.89761204392476,1.89719259857494,1.89322287520605,1.89242391772151,1.94455909541784,1.88916694236176,1.88982917862058,1.94112550522512,1.94121363666327,1.88580133927452,1.88501802674024,1.81344108946735,1.93998468668959,1.8845648719521,1.88312705619215,1.88015405050123,1.93713568167038,1.88312049294509,1.81104399672054,1.88285962896133,1.88372965950937,1.88474093400475,1.81432554751237,1.81489208131647,1.93050130195484,1.88999998792452,1.89094429971476,1.92790305708978,1.92861513193941,1.92960220128087,1.85445805378165,1.82956387547915,2.01925545614824,1.98061524760063,1.89678374868525,1.98762265880474,1.98611748543396,1.9697642781122,1.99627931494458,1.9677985679035,1.97226199747401,1.89137363845581,1.89105433739749,1.96118706187352,1.96146771480049,1.89083467340008,1.88990039379254,1.88899374236415,1.97804419918538,1.88787082762712,1.95645549838327,1.98225114150352,1.98087644638844,1.99652701300254,1.95765450677568,1.95545633112411,1.95900315597165,1.88550379591568,1.98512069254904,1.88390440678721,1.88546172548028,1.88382081552259,1.98374403971655,1.96696042237643,1.96399832319884,1.97483629452254,1.9761030809313,1.96669556501486,1.96217595849364,1.96942353120034,1.96670868637607,1.9742729117148,1.87786633589755,1.87717785725981,1.95499538668061,1.95070869662311,1.8754064197891,1.94342532275242,1.87387390110842,1.87343522360815,1.87326057216439,1.87259862326586,1.9565207755143,1.95044194087714,1.95359037090631,1.94682706037623,1.95193613350609,1.94505524753461,1.86658522286147,1.86654445964921,1.94500961294762,1.94785179011291,1.94709920925525,1.94785764445792,1.85924252115111,1.88143666263825,1.85757298973237,1.9447197199606,1.93854867883652
1.87506499393484,2.01223476991565,1.82772182954429,1.82554369825061,1.82511070113762,1.82396161013457,1.8232734058445,1.85836513395696,1.93378317208983,1.93510945995149,2.00130632906079,2.00254016616822,1.81765775745886,1.81544211018717,1.81504220238019,1.81352159524754,2.00319817212114,1.843319896655,1.81290449306128,1.91779596629756,1.91883420813581,1.8057240250644,1.8066076455155,1.80581717140407,1.80344177819368,1.80339181276851,1.92364400658435,1.86050490576676,1.92089080931767,1.90131111849909,1.79801789011326,1.88725838934426,1.85373075263655,1.79444872646655,1.91491080869415,1.98996904619627,1.79333459717898,1.79328293708757,1.79146178091228,1.99240524497473,1.79265927089619,1.79370377609734,1.79290880957992,1.79215681839412,1.79118635279393,1.88601171110471,1.90113072857712,1.81999320938361,1.79231426772292,1.84259600328447,1.8430922167488,1.79719874798513,1.83134871937731,1.84594697028741,2.02634206051647,1.85649776012841,1.8556353336052,1.92377844340269,1.92575463450104,1.92283951721964,1.91933716076458,1.9516709708037,1.91782704535335,1.91685986432067,1.91708303848415,1.9149166241852,1.91214821308968,1.91416180817459,1.95049750637184,1.90805761360867,1.90626629266669,2.02598324054135,1.90032244824572,1.90150886753163,1.89900698865655,1.89932701815976,1.82597764244162,1.89727352041481,1.89660440689949,1.89222358978874,1.89214018289362,2.02263110656324,1.88861864342105,1.88911842470706,1.8891278458225,1.88768984051058,1.88634114631703,1.88580284020785,1.88637472200252,1.94011660164495,1.88455919284716,1.8839193943142,1.88167506320311,1.93573198507439,1.88242185400594,1.93493742745884,1.81325827770907,1.85377282435026,1.81401368330699,1.93092488121141,1.88628674011662,1.81712985337622,1.89080180883051,1.89142103247738,1.89625775443333,1.89816451816807,1.8270631225369,1.86337838600725,1.90064778474543,2.00220374386252,1.9996800218625,1.99343045129698,1.98622230086834,1.98624656372585,1.99736443429713,1.96542537220282,1.96624739802452,1.96910482826524,1.96471770646258,1.89106571485187,1.88970125593641,1.89028109260072,1.89003537526727,1.88927614344287,1.88940410367369,1.96654717917858,1.88807263172634,1.95517585600987,1.97442449535618,1.96259594227621,1.88676934750213,1.96572307628419,1.96139983997087,1.97797556344517,1.88584243397494,1.96971389875448,1.98970332684639,1.88645771646404,1.88454188157103,1.970818636574,1.96053322752189,1.97117394611457,1.97236090695048,1.97560566185923,1.88034818914178,1.9804347171524,1.96903541126862,1.96538967923493,1.9637206597581,1.97181026596112,1.94880303730115,1.94639677130046,1.95312473786109,1.96910536118892,1.87512641424067,1.96667527852758,1.95808918271086,1.87322315465925,1.87298233072664,1.87134132441522,1.87182087496445,1.87022751887598,1.90725290915887,1.94438673003839,1.86619705190802,1.86619074819855,1.94882024788131,1.94710717264528,1.94756528016344,1.86221833776722,1.94849414242185,1.95360642052219,1.90847455566293,1.95287084524729,1.93947904744305,1.9405851809732
1.87505612679133,1.82455455931106,1.82676791244661,1.82619566487253,2.00461456675978,1.82397216052573,1.82384113213976,1.8531630765203,1.94051655926209,1.92997986808186,1.8180892770376,1.818785410981,1.81830939228588,1.81624448703522,1.81430309261009,1.81338440722579,1.81128579579162,1.83345504225362,1.93122893046711,1.92412303524291,1.91818163528137,1.80567743055679,1.80627778616162,1.80445899426443,1.80287827950469,1.80367437423039,1.79894211616416,1.84429035715684,1.92005663911994,1.79835567945988,1.85936767921927,1.907350483201,1.9065548096197,1.90891514874255,1.79391978829214,1.89066055810223,1.7918826830112,1.79270031004478,1.79159630965025,1.79162989657951,1.79213531945647,1.79309195177371,1.7928771008579,1.84024890276033,1.90088726605691,1.79339307591879,1.79345142018599,1.81117855633156,1.79272870018582,1.79401796327531,1.79713080428492,1.84414325505157,1.84425838365993,1.84581422352185,1.9271178787733,2.04801289848762,1.95390730003284,1.92349662655934,1.9241937252577,1.9218408401743,1.92035514643778,1.91839530432253,1.91759394820919,1.94761922690173,1.91567734230788,1.91518347552745,1.83938313741,1.9155295953204,1.94867822633941,1.90658255020547,1.90266948322325,1.90263338991049,1.90267282055946,1.95020786443652,1.8298489989589,1.89878003281636,1.8981355330104,1.91016574802982,1.94580512554421,1.89278796930854,1.8920710777887,1.81950937849996,1.88877167771313,1.88934711355504,1.88926579507817,1.88817260602999,1.88794489520914,1.8861605351606,1.88584320261099,1.88818471771272,1.81248400068921,1.88382636820716,1.88219686431709,1.93456232372819,1.93370629729873,1.88484731990022,1.88463693389654,1.88433045374753,1.88531334180108,1.88584281725729,1.88644364726981,1.89143818391651,1.89103924171347,1.89149245801148,1.92881087408261,1.89785326852643,1.82672319053796,1.87310423955275,1.92422240661793,2.00960551493199,1.84588258626827,1.98647645073302,1.98556910017084,1.96617582864312,1.99001012405413,1.96538181885846,1.89279143453038,1.89357481935966,1.89198138860113,1.96603224787329,1.8902168397592,1.88857180897655,1.8890669786384,1.88802281281064,1.88857121199598,1.96744400894111,1.88671509496631,1.95456668880275,1.9576857737854,1.96912449867701,1.8858628549334,1.9601675067293,1.95915855092052,1.9589301251417,1.88496593564562,1.96766827470843,1.88531510979905,1.88684795940988,1.886391126005,1.88352163792192,1.96219488196514,1.97990374079661,1.96954523601973,1.96945486173909,1.96889914880735,1.88023487757069,1.9605337895659,1.9586193535654,1.95334946395157,1.97138162818989,1.96429814188128,1.95669902669219,1.95590750086461,1.95947030839293,1.96477678096971,1.87304253620003,1.87271638555565,1.87282776596947,1.87238292860095,1.95469811796864,1.87068706316029,1.87012538369629,1.89479068416749,1.86894308566679,1.86723162114314,1.86690749913665,1.94790435455656,1.94769324277118,1.94750818370715,1.94806483462105,1.95473982149907,1.85953099932042,1.89604795913842,1.93870838370318,1.93887508496795,1.93643469499888
1.87326971937692,1.82544474107961,1.82668455085222,1.82484266790906,1.93436071535592,2.00484118990196,1.82668201299188,1.84311581422906,1.82064460451348,1.81979431635806,1.81834853219409,1.81889786077628,1.81943807661079,1.91285107943793,1.81303751535552,1.81152028265358,1.81128207499631,1.81303727716753,1.81149712617195,1.80581174753458,1.80709062672847,1.80712231337702,1.80682902807912,1.80495783930679,1.84915137953758,2.00584210877993,1.79827687454559,1.83085528147318,1.84578501130455,1.84586683711706,1.79690515076009,1.90635303657577,1.90565000837904,1.90757551313765,1.89987860562865,1.84119042360472,1.79252692068679,1.79298948480239,1.79220626217977,1.79273705395237,1.85049283230029,1.79086459865856,1.7921711443501,1.84094048497669,1.8407433859266,1.84063292293214,1.79410271927836,1.81900247874928,1.85322655409315,1.84164986383037,1.87949102821606,1.84477724392896,1.84449621156481,1.84539453746717,2.03153463168232,1.85657927145451,1.85611841384672,1.92493450204909,1.92275391062075,1.92452745175603,1.91916577641731,1.9184986438538,1.91753829835802,1.91802147886028,1.84423012585653,2.02829668511779,1.83952162933209,1.91418354643709,1.90979099120313,1.90672782858815,2.03671218478499,2.04354017914825,1.90496295550538,1.90391111710909,2.03614351141584,1.89706290661866,1.89697570498309,1.91838924210751,1.94463022304058,1.89291411663068,1.89208212671146,1.89204744747925,1.88921751887057,1.88863294842113,1.88868511504381,1.81463692053994,1.94124507062715,1.88544982564383,1.81231263839986,1.81336391798077,1.88298367313898,1.8823885164208,1.88190981155939,2.00655974873017,1.88270155409927,1.88364120591282,1.884544201294,1.88376873479229,1.88465941735174,2.00960971851871,1.88701002840912,1.89050316370878,1.89072085450057,1.89118110401524,2.01102611315734,1.92603231488074,1.89921524305587,1.88228422486958,1.82970729748693,2.01827249561487,1.96716387630088,1.97877872195286,1.98164307284508,1.98384217973975,1.98448099609077,1.89216092042801,1.9801675952969,1.89351157423668,1.89081384333086,1.89091553760873,1.88727185443132,1.88982816265577,1.88796078556252,1.88711238331666,1.97990801420865,1.95998602853477,1.96824265199229,1.95497765059424,1.96975187198465,1.9561812868825,1.95768613903018,1.97402474319155,1.97298233950059,1.97119644386672,1.88510942721237,1.95112139589496,1.88570999989852,1.88682245438654,1.88539999535423,1.96615491933092,1.98549437260913,1.95344225382539,1.95488664745404,1.95119012587759,1.88145061708448,1.96785478918288,1.95992738782507,1.95893657618692,1.95800405457675,1.96681505556665,1.95514581290994,1.96609102224979,1.95997316741891,1.87605345589981,1.96679684419565,1.8724605568145,1.8724759718846,1.90471523507013,1.95391182586545,1.95401748561,1.95871499455738,1.93819869617877,1.94559727176138,1.95585295957237,1.94627881184161,1.86622113871116,1.94756855389552,1.94720016264084,1.94561158302672,1.9434798516629,1.85907801372724,1.85970946509356,1.88602587074446,1.85897253060767,1.85689612234507,1.94841957580174
1.82489271951072,1.82510827363537,1.82739654257618,1.93564559048907,1.82404372054612,1.82308366499122,1.90950838809075,1.86530009442502,1.93357765431666,1.81766888394801,1.86631745557952,1.81534655080492,1.817687897043,1.81526873208728,1.85948774629798,1.81092172396985,1.8108353405047,1.81292964358263,1.81135422704226,1.99997823497597,1.80655020084635,1.80697599087178,1.80733610183446,1.84969329935021,1.80140568594175,1.79921916795924,2.00040315336756,1.81882570410726,1.79747852248875,1.79723688824822,1.79734101237212,1.90481070458905,1.9037043928622,1.90440065431768,1.84065505033672,1.84070464687311,1.84111488918212,1.79343879388505,1.79157929259882,1.79337395943881,1.79525175055769,1.79335285912317,1.79206695384736,1.7928122870883,1.84038363747574,1.95828901944542,1.8828231744351,1.82964316632004,1.84269322877322,1.79219413865814,1.79438096406227,1.79691619469359,1.8071019274763,1.79728727935915,2.02893471057373,2.03552459012133,1.85626196639124,1.92713634210031,1.9508677128572,1.9238901141879,1.84859424419006,1.84732335933069,1.88786508475426,1.91988038061214,1.91134314303549,1.91177983999938,2.037994267077,1.93329400327307,1.94717621513439,1.90758560050566,2.02975720561557,1.83260629459839,1.90572610476665,1.94632908723323,1.8280171285596,1.8972799661093,1.94619028968702,1.92821384180789,1.94554865625863,1.89283869565731,1.8918147288731,1.89130516286291,1.88909715836635,1.88838722282881,1.88782343495396,1.88682352206758,1.88554200462372,1.8851170389832,1.88564037705851,2.01887293945539,1.88347292925627,1.88367450527819,1.88171891575107,1.8815157587298,1.88227944330526,1.88407433869813,1.88366573736173,1.88384980236962,1.88444797404122,1.88443626426428,1.88873814952275,1.89070138642602,1.89034337581658,1.8910587669523,1.92671218430728,2.01406664031495,1.92621363791047,1.91386762214619,2.01239872126333,2.01341470766917,1.99571832018011,1.97755560781397,1.97849899786246,1.8978520587787,1.96011630680313,1.99639938744822,1.89040360124541,1.891740144054,1.89285804512435,1.8870534752432,1.89156715649086,1.88720444488731,1.88839235656711,1.88762599871316,1.88759918800322,1.88696019441087,1.96985260077964,1.91569972123846,1.88750241700207,1.96759646243163,1.96746390446918,1.97651599465199,1.97226204282837,1.97219524380864,1.9674332338713,1.97328084779385,1.9709464184114,1.96774498460735,1.96004685009976,1.96772135724198,1.96728698830829,1.96235443184417,1.95669238691148,1.97625476830615,1.88037748151365,1.96019539551624,1.9732410450116,1.97233256485841,1.97255150969434,1.97649551673447,1.8758345027585,1.95787949047552,1.96120731624773,1.87512807911049,1.95783233803176,1.9604073036781,1.94939107930965,1.94999226593074,1.95305917818934,1.96024273324656,1.9603125152265,1.95459978896884,1.9470538975808,1.94774643974454,1.94490567711836,1.86570475345203,1.86533054559172,1.89451635046199,1.95106564970116,1.95327547047854,1.92542715412612,1.95080036538347,1.90925732674904,1.95176713968854,1.85621511384061,1.93351573285395
1.82619987427838,1.826419592697,1.82709845470022,1.82489397993787,1.82440690064246,2.01279188514018,1.82122758997266,1.82204262069579,1.82033154661892,1.86777302518181,1.89755265809438,1.86176962047324,1.86045645089388,1.861503965918,1.81195009118502,1.85970448608614,1.85789782213602,1.83955316534204,1.92630682850499,1.80715172777493,1.805425437796,1.80570776094766,1.80620158546271,1.8043424357814,1.80118493653738,1.80019594313679,1.80023053735194,1.80012502295656,1.79669519546974,1.79761850717513,1.7991293016443,1.91179508847219,1.90262448728192,1.90370128841339,1.84088981016546,1.84053797807229,1.89757314829136,1.79377862941657,1.79163105179253,1.79246578358463,1.84256967265191,1.90662838565885,1.79018622817994,1.79192349527602,1.79349245145173,1.79275136789835,1.79404145291105,1.79465896721514,1.79386270854019,1.79337756102414,1.79401984804841,1.84377725720355,1.80519516698698,1.79760206144868,2.03258328050914,1.85379551098279,1.93125453487923,1.92570441416399,1.92155354557249,1.92133814824932,1.92091786311343,1.84744504198427,1.87760659956016,1.8467128203019,1.94807761751345,1.83908389200281,1.91358584871724,1.92671213314134,1.94638302628282,2.02219563426562,2.02574103765002,2.01938628066308,1.90534312602026,1.83019845271911,1.90039775533533,1.89855384053132,1.94470322939222,1.91910700895624,1.89517360024463,1.82019863015432,1.94168902650746,1.82100129906552,1.88830491302145,1.88751664177036,1.94077293908094,1.81460859264716,1.88542857213041,1.88434337086159,1.88518332949833,1.88399401294362,1.81005182324368,1.80995359668811,1.88107158271261,1.88255522352001,1.88283990480377,1.88387966105345,1.88404802422879,1.88322699355658,1.88390782652026,1.8829996412949,1.88675671836556,1.8893790635904,1.89014539297554,1.89148452546598,1.89253247718728,1.82321572006648,1.92531343921577,1.91075825214252,1.82769631932711,1.92682491793124,1.97958249791603,1.98863574109864,1.98375166232315,1.99408754785795,1.97812142727351,1.97810325334012,1.89142284493185,1.89196257914961,1.88880777863052,1.89259305153334,1.88718922038674,1.89067723521062,1.88706564554061,1.88741172539595,1.96266410234442,1.97309158128984,1.88651428615917,1.88836476469749,1.88725772618885,1.8881059100374,1.97969653890036,1.97698861512204,1.97007655915843,1.88577425073481,1.88573045542934,1.88505020326409,1.98078400365419,1.96973527489058,1.88467540299284,1.96893938972211,1.97432936783549,1.88162080231351,1.8813309753782,1.88119691203915,1.88043360162472,1.88108653024682,1.97124593881968,1.971514238586,1.97153045995509,1.95562103257896,1.96446394844427,1.9574232222944,1.96131958622075,1.95960717624166,1.87410677943271,1.87520212461992,1.9502657937846,1.94939791080367,1.87193245774312,1.95890792338898,1.9520740234981,1.95434944094195,1.94840662596985,1.93866864234781,1.95290178406832,1.86611552563739,1.86581973196996,1.86563381911186,1.86331700809979,1.86082162530581,1.94672220070652,1.8592303164772,1.8978810033782,1.9518930414342,1.85600923768906,1.93542543179169
1.82561805746445,1.93113496265696,1.88160017288006,1.93164157631346,2.00546440354296,1.93945029342409,1.82122143343508,1.82223578366892,1.82088336365171,1.86623072879752,1.89663987042503,1.86187317472661,1.86038826393123,1.86110004902884,1.81110419754177,1.81047267510168,1.81056217674222,1.80911550900763,1.81045233319553,1.92334660689358,1.9240452996038,1.80471817484472,1.80559020194171,2.00432184520113,1.90646509933114,1.90735945107631,1.79997516878597,1.80049251267468,1.79977880672294,1.89365421076894,1.79501931787933,1.79529743794804,1.79660012507706,1.7942193357231,1.84121055671757,1.84070811670855,1.7944591266842,1.79476558120822,1.79424873555209,1.84043437547948,1.79313367254504,1.79256935504774,1.78987424667556,1.90819586239228,1.79368023952036,1.79393527636762,1.79370500970767,1.79461669197673,1.79350878111408,1.894312733689,1.89492977356975,1.79580854528319,1.80290183273821,1.9889681273183,1.85891341694374,1.93113703459066,1.92398381554407,1.92554513927837,1.85157974657005,1.85095023733037,1.95043504259753,1.95001141532417,1.93574176659553,1.95188084944161,1.91119766125366,1.94852873320625,1.94800623575067,1.9203858482196,1.83931993267171,1.90802928590295,1.94463514991525,1.83103885098215,1.90480334188433,1.90400902356878,2.02563386319715,1.89851665427639,1.94329685091237,1.91024468229729,1.89570858498349,1.94234985844529,1.89098242450691,1.89036746452099,1.88943230036405,1.88962921007554,1.81441029739775,1.88801039333896,1.81384378833564,1.88267412809282,2.00847259196249,2.00891075408873,2.00987765544402,1.80985541668529,1.88049776460657,1.88262593506745,1.88119105694294,1.81176180875536,1.88337739250458,1.88322407026423,1.88372087756007,1.81336390846884,1.81378567931679,1.92742292884156,1.86485358825031,1.81899468177922,1.92858816345711,1.82323460532833,1.89779991997341,1.90150535256564,1.90091347897684,1.99648616152634,1.98679480367024,1.97755702607839,1.9836379790872,1.98657393297057,1.98238637882946,1.98743497768197,1.89094830810795,1.89099774401629,1.89206260572485,1.88625865748831,1.89230720682466,1.88502150436565,1.88711355119032,1.88596671170915,1.8867891912509,1.88636327886134,1.88631997804735,1.8883364033847,1.88725143091209,1.88700815443184,1.88657744620329,1.97045521510322,1.96803974181348,1.99296357486533,1.97442219363597,1.88505046366724,2.00325002956122,1.96583096368305,1.96478649195672,1.96516967256462,1.96729356985244,1.96971387081103,1.8811271567418,1.88134264716287,1.88056419459292,1.97439958810906,1.9619972484323,1.96673777831876,1.87886035691738,1.96002162963746,1.96512393501685,1.87572561849055,1.95569543750933,1.95738361048659,1.9509544148695,1.95024288692862,1.96131851961145,1.95024157623201,1.95310609830734,1.95569446465326,1.94169942414471,1.94882818586226,1.94947539403159,1.96355475943944,1.95165352818439,1.8654726270972,1.86419201207047,1.86389084772852,1.86248280172823,1.86100795140145,1.95008022146441,1.85911699075781,1.88693262847135,1.85649770544997,1.96346077334865,1.9410550051032
1.82498693567383,1.93056667976489,1.87055657591746,1.82161092702544,1.82091394512221,1.81992706431005,1.82093520660994,1.82230311820338,1.86590550033973,1.81772389438498,1.8169537530703,1.81484201552565,1.83488251033343,1.86168607602611,1.8105235670206,1.92874252370105,1.81026046184232,1.80745917854088,1.92854242071447,1.90752670653655,1.80683355764759,1.80342796259875,1.80382162329038,1.8042705522476,1.90593948621519,1.90683650826756,1.84640310790682,1.80078912363445,1.79894522963063,1.79943551904241,1.7953582090246,1.79568171272043,1.79718146013536,2.00125299015075,1.79512015051623,1.84093518441746,1.794559337792,1.7949200534072,1.79357197659766,1.84039031042595,1.79379882135482,1.9054763846861,1.7914500290803,1.79308202804007,1.79371582158281,1.89461735912321,1.79438192963736,1.79476495339883,1.79214755202051,1.79525753947627,1.88618606599901,1.79638223785409,1.80196121340992,1.93092025691897,1.93116422286941,1.92963793762535,1.85381373784458,1.9253349056362,1.95032919146906,1.95025062201921,1.95018511307299,1.91903743302545,1.91847819980655,1.91700158586915,1.84335213051244,1.914116223098,1.90948339742615,1.90921691675128,1.90631013506115,1.946275718587,1.90271624434826,1.90334486488745,1.90458580630086,1.90214621654492,1.82811155486884,2.03806036549347,1.89691783426566,1.89526734595609,1.82156784946752,1.89265505048239,1.94121711764209,1.88994535765631,1.88979087127605,1.88935191987237,1.8857018489319,1.88608281376376,1.93774640653785,1.88309601843208,1.81381546132093,1.88541989793927,1.81182301652451,1.88222208668087,1.881000291657,1.811407573329,1.88391842035218,1.81094974249588,1.88338540320698,1.88296341751472,1.88265328982939,1.88253237438487,1.92928125724613,1.81711443881159,1.84750760789272,1.81750903096811,1.8921499522434,2.01286742618757,1.82529767296867,1.9027937049313,1.92739205373383,2.00697876217506,1.8955411490855,1.98513094848017,1.9833444759321,1.98163550390394,1.97567134173569,1.9834357645542,1.9774399690131,1.89275909768286,1.88757012505742,1.8907607623813,1.8851436700953,1.88974658576474,1.88612385424258,1.88663142853623,1.88626971898636,1.97754680105904,1.88587644317705,1.89987637045825,1.97084635469695,1.96120002489212,1.9729107986105,1.97336823000782,1.97061154723851,1.97339164555583,1.88488012186337,1.97403592020974,1.962006159088,1.96467960728336,1.97578754255692,1.96527931487493,1.8815837101731,1.88172701248087,1.88108235270406,1.88126450213719,1.88026335910099,1.95747839103655,1.87893577201857,1.96518977853917,1.97211199428316,1.9539862211577,1.95930732480412,1.87553046809388,1.95586461415565,1.96395410390961,1.87409716746993,1.95638895890796,1.96276792634562,1.94957034749278,1.95069946086673,1.86979071127668,1.94202094112117,1.95475668421206,1.95077756264187,1.95017658742258,1.934579896206,1.94945975772489,1.86299135635513,1.86056683592661,1.94846571001214,1.86159654337389,1.94348044707326,1.94295587766618,1.94627916994913,1.94251583460812,1.85582567663151,1.92451964077595
1.92610350113186,1.92579676810488,1.86168977288709,1.8216851140854,1.82062425127846,1.82092055999319,1.82007954046552,1.82066630718027,1.81961766739912,1.81703991273188,1.81638581912097,1.81591109398532,1.81583530149183,1.81426776311084,1.81097115152214,1.92908140330787,1.93051018421007,1.80501047532052,1.80703827984554,1.80686628988852,1.80546183200191,1.80359021467317,1.80171630938359,1.90786061419075,1.90595048106714,1.84674552122161,1.80008558953841,1.80043734210916,1.79811429823813,1.84286778141869,1.84299997793629,1.79470477146979,1.7957528315409,1.79442153835395,1.79462714158274,1.79473458273108,1.8403658875639,1.7956906292358,1.79409524406639,1.79398726155892,1.79377503210223,1.79468995863531,1.79388104152123,1.79556645588843,1.7932537974933,1.79538838503116,1.79453419551806,1.7962595181886,1.89606208165462,1.79523280657661,1.79547870950035,1.79552448798483,1.80299038985059,1.93060349547026,1.93037956989347,1.92866778465011,1.92509363044727,1.92436876668776,1.92332267368479,1.94837808924141,1.94847238071529,1.91802870623479,1.91818913741167,1.91687319265067,1.84263449056219,2.03216816379673,1.83941431176042,1.90736511864938,2.01623844542753,1.90677807563293,1.9025241636652,1.90417455413952,1.90679699732074,1.94460630857246,2.01580408440501,1.89781803649116,1.89743681636207,1.89530794841297,1.94073516855724,1.8922932970412,1.88996027504513,1.93948906079874,1.88988557628246,1.88987974451546,1.8854744848449,1.81433475635036,1.93840739070255,1.88465302467712,1.88542952477051,1.81204019703577,1.8821579733682,1.88228277143135,1.88197281836683,1.93560781996537,1.88370508083593,1.88291724668417,1.88316400193334,1.88325306046186,1.88360028309652,2.00140466742593,1.81369265744751,1.88813579205658,1.85964371891504,1.88872266580049,1.89262335623131,1.8963239958815,1.89908117045265,1.90220647740789,1.99337829892881,1.99332984788561,1.89917736708185,1.98610036952355,1.98077071359135,1.96695575232123,1.96739950068856,1.9840088989401,1.96521378814346,1.89224786888393,1.88874068466607,1.8864317122127,1.88974241685883,1.88452292691015,1.88640859195483,1.88595976144695,1.88610045649326,1.95872335318252,1.885016893985,1.90778757492257,1.96414466209229,1.97076283771081,1.8855226150537,1.96783492523961,1.96914766406246,1.97326826324246,1.96398964741857,1.98385450929684,1.9699886798792,1.96976997587256,1.88278762423193,1.96215784837661,1.96233365082934,1.97279355357011,1.90250271733864,1.8803622323005,1.96105034484428,1.96104600960779,1.94863384020294,1.95932492677333,1.96336377956672,1.95404030697041,1.87740208829341,1.96126861373555,1.95485438796817,1.87503684645706,1.96688071712019,1.96681654166735,1.87247401122939,1.87355071333545,1.87078074748342,1.86932811336017,1.86957164223923,1.95816162845194,1.94894394698294,1.95038868960558,1.94017134502286,1.95029038556151,1.86268327884067,1.85957643150342,1.94585868263913,1.86197526544865,1.95307354638806,1.96045271171129,1.95058417708615,1.85693968292142,1.9424726126473,1.85324520319841
1.88183224819286,1.8226819535147,1.85237251473102,1.92838802212238,1.82229730703059,1.81996798311388,1.81879849251013,1.81908134068465,1.81737656693124,1.93068803992198,1.93204777877507,1.81499973656838,1.81534403454456,1.81470221774442,1.81144492184204,1.8076799149037,1.8072065475221,1.80464281591288,1.80680782684151,1.80622889603247,1.80400059025209,1.80271152412009,1.79989547254634,1.90538762008991,1.90618470444727,1.84626709458811,1.79940446368261,1.81844630025389,1.91380478516128,1.79720259195767,1.79851305172079,1.79397194264654,1.79459971352841,1.79391216156109,1.79481274556165,1.91456019563522,1.79673043994292,1.79606380283549,1.79448680408436,1.79436409648266,1.79516619798614,1.79422057669946,1.7948249409013,1.79339313403868,1.793848736569,1.79341058344118,1.79474422110184,1.79557231078945,1.79394690570748,1.79428712518041,1.8897898144356,1.79442940779224,1.80473831236258,1.92984990371349,1.93053201744961,2.02322599231147,1.92503853171748,1.92378154752962,1.85318155827009,1.94815308044619,1.94918400771168,1.94726522350093,1.91883044627248,1.91692569785582,1.91652838861902,1.84095353292582,1.94676272819016,1.90678295373089,1.83579787098728,1.90570336539792,2.02876707356032,2.02694779333558,1.90886830117142,1.82806294154208,1.94703306471999,1.89594711512159,1.82369241347503,1.89272632673287,1.89367420357601,1.89252664213839,1.82026472857079,1.88861983538861,1.88897450816395,1.8885597538585,1.93806580843977,1.88491547703612,1.88542983241537,1.88527129453183,1.93874277343222,1.88461361436599,1.88262701417987,1.93483370796902,1.88195762908338,1.8795925330663,1.93349267063834,1.88174311570882,1.81141704612756,1.88342131005042,2.02590269641009,2.002474820116,1.88648341530654,1.81559280156938,1.83840894072525,1.81808411682868,2.01191372046422,1.82321082941915,1.89781032374802,1.90013767080453,1.99312484053095,2.00933108120881,1.99314526303868,1.96693973563207,1.97588117443281,1.96614036468215,1.96359972855709,1.96643659148196,1.89037434959228,1.89160259337592,1.96339748277543,1.88810449746606,1.88624061723355,1.88662798079257,1.88544805109935,1.88564745335874,1.95888715955412,1.97639532237751,1.88292106126804,1.91647709223781,1.9813947755735,1.97158622601082,1.88469421899421,1.88501535915208,1.96611513215509,1.96992645692014,1.97047274887791,1.96708846861059,1.97758974490384,1.96864538928758,1.8823218191925,1.88122368983373,1.88129646155256,1.88133682870459,1.91383042804486,1.96266601434563,1.97623162146012,1.95233892510319,1.95382155301019,1.95482462601341,1.87736047500159,1.96936096576588,1.96796298946298,1.97381752897964,1.9509352736434,1.95127514239589,1.96641130701391,1.94790073337964,1.87230460003451,1.87369408628884,1.87161654423453,1.95188697204214,1.95312293072858,1.86763692943021,1.9458211290317,1.94466109154851,1.93823591055994,1.94389119292687,1.8623917361994,1.85927485662184,1.93894430922076,1.93991799729207,1.95353922037022,1.94347396232013,1.94942805335346,1.95177360410769,1.85498264728848,1.85361180287543
1.88175670537387,1.82325715645597,1.8427849828721,1.93342241874409,1.81990135860497,1.93504126210992,1.81729251536048,1.81789248984954,1.81639867107477,1.81638905952027,1.81467596276647,1.81388338572635,1.81506850706121,1.81446494941676,1.81007677670339,1.93135863604946,1.8057966041479,1.83412397955736,1.85427775109958,1.80537307228573,1.85303682086195,1.80160655619257,1.79852543560772,1.90524832788609,1.90550834329409,1.90500988519925,1.90543275327948,1.82401977652127,1.79739421284479,1.79612329070418,1.79401549383442,1.79330515056128,1.79315550211376,1.79442155603856,1.79403658561321,1.79437849957546,1.79379256482929,1.79573464503739,1.79454190726249,1.79287707064614,1.79469730867987,1.88258790624746,1.81762980752352,1.79477244312697,1.79366961556181,1.7952680766555,1.79460067202334,1.82184400734128,1.89481497704517,2.07542485606071,1.8890714860123,1.793611887685,1.805713298607,1.79442125601794,1.92938278650813,1.92680726078532,1.94739391993899,1.92297886968888,1.92368012870144,1.92415319588538,1.9182874708887,1.91864712112958,1.91992758907419,1.84320465354324,1.91488364593646,2.0350764941214,1.90798661896825,1.90757302113406,1.90738768787106,1.90455450714709,1.90361503080406,1.94238890860372,1.90760767625377,1.82783002331796,1.89860620982833,1.89703834707433,1.8950614375746,1.89379758078116,1.89444130371919,1.81767744769754,1.89152139866037,1.88989454202278,1.88829061588658,1.88860337624467,1.93815429375665,1.88415929478075,1.88515876400071,1.88519013954728,1.88537942207079,1.88433006203664,1.8823864933512,1.88204657881884,1.88200012086467,1.8807013886415,1.88019861303238,1.88220507917114,1.88357795768055,1.88346480657808,1.88323143388398,1.8848486215542,1.8854053315251,1.88689888448897,1.84971340189602,1.81734081537346,1.81771472763974,1.89545637239753,1.89583223798388,1.89830779463645,2.00815754737085,1.92344427418834,1.97427813684761,1.97989172446058,1.97809174679181,1.97795554296148,1.9928931074395,1.9731929513196,1.97036068065638,1.89175068639397,1.88707898485429,1.88716776743582,1.88631252439915,1.88477701669465,1.88579606322053,1.88542007597451,1.96006423496187,1.97055014307745,1.88147346202323,1.92458970699311,1.98582066316958,1.88395982457906,1.98698517482421,1.88516899292095,1.96701805750994,1.97074882445992,1.97086640926006,1.95175394731357,1.96645182342278,1.96483254821826,1.96108893883616,1.9610243014821,1.8808184377953,1.97385433157922,1.92508793113214,1.88024764078015,1.96721719379587,1.88008302774279,1.9836051737084,1.95627198336864,1.96216607921587,1.8760425591819,1.87527961865458,1.96233208026552,1.95295895322032,1.9529719262489,1.87337812307972,1.87250310594741,1.95112743736931,1.90577381168992,1.87012950797285,1.95293901521382,1.95132554040121,1.95161592537648,1.94738308186977,1.94945668747825,1.95831876054332,1.95735515788815,1.86205332243299,1.85935455512779,1.86159941099448,1.95068694946133,1.93880665366874,1.85691494889401,1.89451133951001,1.85686784597873,1.96064967717648,1.85281461922827
1.8219314331774,1.82285670843601,1.8203814353303,1.820206706278,1.81880694336831,1.8205000582012,1.81816856396073,1.81799312848424,1.81660967795041,1.81548732149749,1.81481831999712,1.81386378635622,1.81469290705738,1.81370180400625,1.810356661639,1.80982322579239,1.92325685871646,1.84293469406547,1.85352007511,1.85353665231741,1.80695231986646,1.80093439626321,1.79836573025025,1.80142930755467,1.80219681496158,1.91194696205679,1.91750096761883,1.82796503223787,1.79597481857832,1.79642157467462,1.79514637848175,1.99577626421468,1.7913144568194,1.79340017235881,1.79491496791901,1.999144327058,1.79405284366905,1.79644862296037,1.91133991982633,1.97614503452317,1.84080512514373,1.84133062671258,1.83315293793745,1.85374687553857,1.79490151209913,1.79392138879726,1.7939195669458,1.83951041316745,1.96799604403554,1.79239008208241,1.8878876537887,1.84273399311105,1.84409021243473,1.8436122470237,1.92760679748319,1.92607076100715,1.92474219928122,1.92334822899106,1.92365192528972,1.94883537525782,1.91838066700432,1.91873754379522,1.91944414542433,1.84382342652057,1.84300363248383,1.94426648438199,1.90899055171956,1.90838835092946,1.90796002414071,1.94470662681942,1.94502356833227,1.83185074065767,1.90448875179028,1.90126828768884,1.89903113891931,1.82459889616502,2.01348119719765,1.89376869686807,1.89319047062316,1.8918411142663,2.01856133263489,1.88840954068235,1.88595476434692,2.02954311239979,1.9359279855498,1.88491603879385,1.88487007700939,1.88491053897367,1.81007339184916,1.81006149641269,1.80987698531676,1.93498597402887,1.88207339929717,1.8811794624798,1.88127976706829,1.81083154027746,1.88345770037035,1.88339560748079,1.88283036867506,1.88437664935755,1.88566841667539,1.81702085181403,1.8598030689226,1.8879494424603,1.92557983580377,1.89408300371747,2.0099968663866,1.89711741030138,1.8273941668934,2.00940797331638,1.97946894943269,1.98652416250927,1.97649594593615,1.97825975038019,1.97456216281329,1.96280690070601,1.96266807364178,1.89270676094725,1.88743685207877,1.88749651330169,1.95997925038086,1.88672250262119,1.88598549275054,1.88541683303965,1.88589347785029,1.88492542006523,1.98305704035972,1.93369471101417,1.97116786571678,1.88533680590591,1.88532711753689,1.96420482048208,1.96730279993582,1.97798509958565,1.9631263400521,1.95609043245975,1.95415735371112,1.95406515133741,1.95254204774621,1.96458988598014,1.88184752500271,1.96646970884759,1.96457318879637,1.96528214019117,1.96800679018484,1.96260684077935,1.96057963488891,1.95736160429117,1.98350988149205,1.87593682576691,1.95693447537152,1.87418731717417,1.96049825627397,1.96019225373312,1.95316572183013,1.9528573205265,1.95729315736979,1.94869016180834,1.94458038025471,1.94863543334833,1.94975397475415,1.95772922231285,1.93574851533971,1.86697314957982,1.944503352134,1.96676952940523,1.93422885718705,1.90401580410941,1.94285871135779,1.93206640362272,1.94557181785823,1.9445723642492,1.90585801045194,1.94696730496724,1.8540315767559,1.9534721499756
1.82185729978038,1.82229282727358,1.82017692770155,1.92968296394917,1.81957936354334,1.81970373470168,1.81685040045618,1.81771214821638,1.81719283708576,1.81618201776769,1.81641701243652,1.85947666764611,1.83631220389525,1.81235944257167,1.81114987206025,1.80996381693739,1.80891301646695,1.83260136348087,1.91320500876573,1.9129972708854,1.85487186259743,1.85061257703888,1.82648578279495,1.802759224167,1.80297141738988,1.907444669051,1.90781190604796,1.83240712721908,1.79871347023884,1.79474198136624,1.79481243051339,1.79419553390719,1.79138930405547,1.9861636659338,1.79446637423739,1.99508956989012,1.79408823746046,1.79620024784868,1.79530257564771,1.79373185021664,1.79369579454681,1.84051893518433,1.82962673174406,1.79269227804863,1.84081005066496,1.795319798001,1.97289676948523,1.85914542313559,1.90222004840956,1.90315172747646,1.87855043613835,1.84289639926371,1.86780108356322,1.92787273127007,1.94962301672107,1.85623170976125,1.92450900490003,1.92332494026386,1.85212399555414,1.92050937470785,1.91938192285784,1.91827916958421,1.91707264345611,1.91315819345625,1.84211158557279,1.94660825569447,1.90717289313843,1.90868201342204,1.90929304201773,1.94407301136582,1.94312079065781,1.90314781005357,1.9041006779466,1.94365245645779,1.94367242439995,1.94089929976793,1.89502302125085,1.89399505607583,1.94028158360915,1.82147040711731,1.81998476651856,2.00944919379299,1.88306274430932,1.81659162478258,1.88547862033582,1.88564415867853,1.88670503493188,1.88493259086771,1.88471103572617,1.93727882697524,2.02517117428187,1.88262418847071,1.88204763856843,1.92940813868842,1.88047684079814,2.02579438792287,1.88478994604081,1.8834273816918,1.88235045100745,1.93012306469686,1.81215290885951,1.8161571567508,1.86909743542096,1.88725327331376,1.8926925699875,1.89284173345331,1.89736297261473,1.89658440584764,2.00337699373235,2.00927492503357,1.89529621255859,1.97610893135727,1.97623971395298,1.97955094529378,1.97651441762814,1.97701202165525,1.97710479550335,1.89337643347028,1.88763190409815,1.88658007520263,1.88624559180441,1.88529352428568,1.88593852866618,1.8853306501868,1.88743941384767,1.9667119431639,1.88457188867896,1.91875934175163,1.96946238302486,1.98340675216926,1.9698145129501,1.88270063268726,1.91963994555798,1.9539348961078,1.96337845072838,1.95290287376261,1.95398757984959,1.95423375254832,1.95348180169733,1.88109522900985,1.9640943067337,1.96952603146092,1.9625828693658,1.96335346302989,1.95864601130405,1.95572428489113,1.95992405419605,1.95868812444918,1.95818422779583,1.9594977345639,1.95485986649284,1.95581287684772,1.96231563914774,1.87310521214096,1.8726520036038,1.87295431636394,1.95683698424814,1.94963199916825,1.95159266094677,1.95252304243756,1.94838382980714,1.95010780841198,1.93459789393916,1.86658914209601,1.9449449958385,1.8635125430134,1.86254937018838,1.8829186688847,1.86033974257018,1.94804823821709,1.8583852044245,1.85688637610275,1.87922744558762,1.85621183394768,1.94332224958834,1.94393666029599
1.82055664445428,1.82201697580908,1.82001088121295,1.91126870520563,1.81901925836633,1.81891912502537,2.00350977894164,1.85297304157935,2.00294322108619,1.81620460795446,1.86139536879022,1.91141602466715,1.8798811885892,1.92174603776858,1.8111751091669,1.80971119551189,1.80862417155886,1.8091237247533,1.80722347451775,1.8052526829454,1.99710679532295,1.85018461157606,1.83686512572781,1.80300030382384,1.80200453249459,1.80210154109602,1.99521914899015,1.83679549075349,1.79900403506492,1.79521194659523,1.7961404103367,1.91414471987456,1.79279514995814,1.79469424230603,1.79437452894675,1.79321642000862,1.99085665350315,1.83749989361811,1.97775028178029,1.90836549169182,1.79390483766398,1.79472788960267,1.82548863781668,1.8405989170429,1.79400270383622,1.79436162275548,1.79237122982465,1.84365352066116,1.89368810586997,1.79336610262716,1.95676875586661,1.88606927054825,1.88543138551855,1.88696856803955,1.92951109649981,1.94795429177428,2.0197699893932,1.94598626257628,2.02029596596454,1.92102746626416,1.94433708734515,1.84567568450446,1.88469056432071,1.84374098083951,1.9170148424952,1.91159677296256,1.90941262698621,1.90916871502297,1.90920003757702,2.02004382569,1.94248089808461,1.90403296300595,1.9039214596439,1.94492296164123,1.8980345021631,1.89824778260508,1.89393937070906,1.89265434689672,2.02521821810463,1.89104214130267,1.89061133618607,1.88815693485732,1.88463656673974,1.9376818818932,1.93710273386318,1.88497515221717,1.88483433425796,1.88412462285616,1.88435541469163,1.88268790986448,1.8099409547588,1.88216592054769,1.88161020174985,1.88242517336167,1.80825015877571,1.80827279703857,1.93027462020878,1.88296043088366,1.88301026149237,1.92899624407661,1.81246167299171,1.88633046082588,1.88706997828237,1.88817871532476,1.890936376829,1.89233745881834,1.89554824074619,1.89667956158631,1.92192932241229,1.92266584762438,1.84423012585653,1.97862358037578,1.97769867157103,1.97267150285123,1.97093894092437,1.97247203399021,1.88676600588627,1.88662837556147,1.88764915507429,1.88632263821389,1.88569364881149,1.95454973759941,1.88589446254355,1.88519816193608,1.88475718349599,1.88329699252491,1.88325167514114,1.90741485961992,1.97053389308794,1.88197491787393,1.88255682653174,1.88268584367447,1.90773526764416,1.88216853004657,1.98677846180608,1.98667769307045,1.95390471154255,1.95410848882924,1.95250874214354,1.88113730772081,1.88109365332659,1.96931643402024,1.96082903808103,1.96144681412625,1.87853396115693,1.95470063356928,1.96102683773861,1.95918795565385,1.96005851792309,1.95440946912217,1.95660897582699,1.95959987601029,1.96334755033513,1.97087519108261,1.95902848676687,1.96030852783846,1.86956264553709,1.94983203454215,1.95252966835778,1.94342414868178,1.86797762940644,1.86643445866361,1.93433069299743,1.94639412123963,1.95061595346093,1.95094783430465,1.94559474527519,1.89490470539405,1.86046987524917,1.85890059054019,1.85821101145987,1.85807673873143,1.89016195485851,1.93971121835756,1.93798726992422,1.93979012585633
