0.328845948441306,0.329315552198031,0.330105274242415,0.33025658572329,0.331148139345743,0.33101160611857,0.330717194126648,0.330281129600634,0.318012257337952,0.317511082899606,0.317098829204149,0.316747479591796,0.316509179219122,0.316594030789332,0.316683316171072,0.316879635739391,0.317128262208083,0.317715712494553,0.318616663897135,0.319202126788143,0.319151707998283,0.318740975901203,0.318102537498914,0.317734418846067,0.31709301709236,0.316569793122942,0.315786326286969,0.315321873827449,0.314776475951791,0.313549194302056,0.310917725461398,0.308646053388256,0.308067242499601,0.307880112189127,0.360793648516751,0.39899925420232,0.548654110943768,0.567280014402709,0.502687755870202,0.461249139319768,0.413318296447855,0.413791175787625,0.41416989176044,0.414226429300205,0.413711498999901,0.413014632467493,0.412400857153628,0.46013416306537,0.494388340272574,0.40432805147029,0.376644382843738,0.333349199015849,0.333144360047114,0.332127046088802,0.330629951808054,0.329240536769859,0.32796159293076,0.326704759515612,0.325824603160296,0.324996574202862,0.324818787265142,0.324596150228527,0.324797045858259,0.324676114873631,0.324520993545376,0.324489795268137,0.324882454227694,0.324908273211291,0.32576113376187,0.326579507247006,0.327308813132129,0.327585476870331,0.327380665383638,0.327011818116811,0.32659731929668,0.325221934899911,0.323457530465413,0.322741038017503,0.322144589970313,0.321331439197016,0.321338343206443,0.321394697579408,0.321456752396525,0.321144441036463,0.320747834710947,0.320451542734232,0.320517122590351,0.320584729119603,0.320103938391097,0.320246651022628,0.320532086821073,0.321448927467674,0.322400003936259,0.322993811783858,0.32423421667203,0.325209116190245,0.326218746166336,0.32677374886467,0.326942641264734,0.326545008093421,0.325602330417784,0.324030161871155,0.321564564549976,0.320372665662123,0.320287601603438,0.321052949717175,0.322017398823798,0.322744976171645,0.327247882647545,0.328060178210285,0.328378825142085,0.327836537438525,0.327111856914305,0.326724849695812,0.352406107219434,0.388761743196015,0.416637670137317,0.564257166843376,0.563025436510333,0.457743852161722,0.417923430690815,0.412680243709229,0.4029439784906,0.388150132276307,0.682840962685199,0.680085369142966,0.431037458111212,0.370918905357195,0.368814902280178,0.366893662895518,0.326723158023029,0.32671337461913,0.326584748850749,0.325981854602881,0.325410550558339,0.325151202993913,0.325040564404696,0.331906244583894,0.340752224017253,0.341186867774231,0.342359626253454,0.344521659116488,0.345207818266869,0.345149876293129,0.504437134826195,0.513677627693199,0.530189192608421,0.446549093863883,0.462044800884101,0.477576495584035,0.49314089118944,0.326784452198852,0.321632124318305,0.321852775531812,0.32186324179143,0.321469871613758,0.3205138080022,0.319865063510655,0.319374483071085,0.31886088342028,0.318292406685652,0.318793720122607,0.319064214342311,0.319133650725718,0.318527926112805,0.317418625019474,0.31580473975723
0.327028671330634,0.327123716781212,0.32871929694233,0.326185646740756,0.332203291446751,0.331320691969008,0.330632958712464,0.485591807153531,0.317288260917561,0.316900782827139,0.316866314858542,0.316694643783843,0.31676876479058,0.316675002643403,0.316881576545788,0.316546560066508,0.317130950164062,0.318245001771304,0.318537395900066,0.319268160315816,0.319263998432461,0.318137131073872,0.317789965490005,0.317365693999155,0.316704436898324,0.316136844279427,0.315567951632833,0.315009665123238,0.315342371480351,0.314492701031299,0.313065943714572,0.308072658284734,0.30837226429729,0.308803910736792,0.308311725227726,0.347754220538331,0.532325634580005,0.611424469008955,0.533833690470503,0.535036509669779,0.412496444447278,0.413252014644715,0.413857658362298,0.414264405910469,0.41363264647226,0.41277347090908,0.411946965637551,0.410656127378847,0.683046209186464,0.684134544676913,0.00439227486916654,0.334318930855181,0.335133564876434,0.333495544922028,0.330991004674918,0.330097388664232,0.32817017489194,0.326711299838712,0.325821055642596,0.325946455052247,0.325439754856355,0.325210068768087,0.325309682497042,0.32506623081137,0.323855396273905,0.324531904044459,0.325488165860083,0.32543304261309,0.32678371851779,0.327615094948614,0.327705223310911,0.328500592852449,0.328274580960274,0.327894447575428,0.327869412954042,0.327563453675343,0.325748053349725,0.324243432261732,0.323109344363769,0.321047353582511,0.321766412005777,0.32192278442729,0.321929055234,0.322666014146271,0.322543590296353,0.32180796619616,0.32219311827904,0.322072182228206,0.320137170570172,0.320865967440407,0.321286312436693,0.322738218377347,0.32384146593412,0.324039382551839,0.324282766879941,0.32494891615598,0.325595900402722,0.326117062136535,0.326311851831818,0.326312084256761,0.325874049302027,0.324897542865736,0.323254552165545,0.321238455335969,0.321164196598634,0.3216178674361,0.322877350337481,0.322483705139071,0.328036559020036,0.328465204528631,0.329389108673402,0.328421503024027,0.327322373158014,0.326716844538496,0.328849897567472,0.328657554099379,0.368382510950958,0.565894868226424,0.560029889704387,0.559811274313872,0.426524299398506,0.571911555804895,0.426887327779034,0.355533365028156,0.846671370780997,0.677539593874063,0.372897000198472,0.373158847552714,0.373690477717031,0.368725216787015,0.328460716979585,0.328012474077025,0.327611964735832,0.326777660954945,0.326206679210115,0.325717902561276,0.325265748173494,0.515590774787292,0.339423862493774,0.339862637766829,0.458810198156991,0.345848075311595,0.345996288457526,0.345556442727972,0.495868142537967,0.488003790826054,0.564646037203292,0.414578457644694,0.577855270196945,0.536149832018644,0.537325352294525,0.333150570200407,0.321368305280478,0.321577879318659,0.321967982079153,0.323200308362358,0.320936448400753,0.319920928247995,0.320012009495097,0.319606218754192,0.31826485325438,0.319738489118275,0.320060909316582,0.319922221994507,0.319831491398186,0.3188492465472,0.316400961163103
0.327272659714198,0.326906213034195,0.327149000590922,0.326533003468831,0.326412288086387,0.325585038264245,0.324893066943929,0.324329349579349,0.318226808423091,0.317482717609992,0.317231152190682,0.316964502194863,0.316843809440802,0.316711900667219,0.316669867448835,0.316658566677475,0.317478293601434,0.318260769782434,0.318428335957864,0.318780690639517,0.318434434157084,0.318049396790163,0.317392316828215,0.317073116318069,0.316333954369771,0.315849380102093,0.315355175190481,0.315009433325717,0.314504248362581,0.313762217102308,0.31231763763029,0.309690190544525,0.308831673880792,0.308862539492957,0.357681813992099,0.39137007345656,0.473534017542934,0.501196265643372,0.534010112350042,0.534411054806825,0.461475880096262,0.412273870273562,0.412562104299854,0.412681359272476,0.412348624342901,0.411739055124626,0.410965812233491,0.410105238317572,0.682880286833475,0.682911760308386,0.431601984096742,0.404034781340307,0.376607559055595,0.334345305220965,0.333459559785328,0.331919151827669,0.327210595395897,0.327050275131315,0.326823601671697,0.326239454256263,0.325460009163177,0.325188794066934,0.325291071920849,0.325044660109392,0.324932259205462,0.325050247380642,0.32554060947174,0.325967894807343,0.326808064024598,0.32730320275374,0.327704477594031,0.328363866408569,0.32872967673471,0.329067478305288,0.329372849804463,0.328711294612487,0.327330877424915,0.324737935100118,0.324027994197722,0.32329600361248,0.323373382864212,0.323421228872084,0.323561292070595,0.323727132163628,0.323395270480996,0.322768280649436,0.322634452972292,0.322528226076912,0.322047602914413,0.322000628405749,0.322690430388776,0.323927458521096,0.324710108540912,0.325004646161164,0.32494055016379,0.325120713857506,0.325079254182292,0.325357610474568,0.325688875682665,0.325812468588065,0.325688701620198,0.324910070047923,0.324347043746646,0.324667365662422,0.325023328554683,0.326074381021316,0.326369104119203,0.327761733613523,0.328688892002234,0.328988423549877,0.329333183496717,0.329642152320525,0.328991992488049,0.328710683787176,0.328915376953467,0.328738509850924,0.351339868508221,0.403763755047616,0.561062496290705,0.560757689673659,0.570109568513777,0.573621428432576,0.575211340548019,0.577323054809552,0.613072392864897,0.637450904984693,0.373321409069467,0.373345063020083,0.373382492543255,0.371883922236205,0.327648235303553,0.327590462887045,0.32723793916051,0.32683156084433,0.326497859349682,0.326194577978243,0.325923526384979,0.359316523346808,0.364600227293962,0.367902982207955,0.374784514134696,0.371343634665906,0.35846548130142,0.358456994429341,0.393490957365601,0.397582381720706,0.399404816874099,0.404559490809549,0.45483964361481,0.460051831855623,0.397101350875887,0.334156860574491,0.333637220542157,0.331701434725987,0.329371396005301,0.325907212059676,0.323330125554854,0.322089919250016,0.321133326961317,0.320282770495768,0.319686678866361,0.320237106576424,0.320708453009798,0.320397185896125,0.319919707887535,0.318999284250975,0.31580052034552
0.32672593070867,0.326375799773644,0.326063167309314,0.325553942546352,0.325218356161062,0.324158276981936,0.323548340824981,0.323404040943542,0.319849344796003,0.318116308461218,0.317490770483814,0.317285295619527,0.316799314664007,0.316700551431437,0.316446669286732,0.315830278379014,0.318035162679707,0.318652874987845,0.318426610891136,0.31865268495124,0.318021121145887,0.317826201841534,0.317092482710476,0.316753893238292,0.316170610884489,0.315100354487264,0.315439972336811,0.314705122837822,0.31431618851468,0.31348588655525,0.312841525521654,0.30935501979856,0.308390163292135,0.309152365925378,0.465990525527918,0.683191482254843,0.445914763922317,0.0039919853139793,0.614190187864705,0.61411167194065,0.669860567982281,0.410998469594186,0.411453609375396,0.411501775457781,0.411416243016017,0.410826166690709,0.41016345875161,0.408733552919951,0.92266510323271,0.681383581583959,0.686552582472396,0.688934219672649,0.688923303010704,0.33627152004144,0.336578316386874,0.336541980112486,0.325495833105625,0.326844562072836,0.32777339736054,0.326801878069043,0.324752560378493,0.324732927104437,0.325337874086858,0.325163565495509,0.325439973631252,0.32554197938875,0.325259079563811,0.326490485114728,0.326761153063624,0.327490473414628,0.327067202991483,0.328840934948472,0.328980140297757,0.330585143831114,0.331659534338731,0.331063043255711,0.329966904383811,0.3234274930789,0.324672886624052,0.324962846747476,0.324735146436577,0.325073100461732,0.324907978082413,0.325524246181682,0.324320691687587,0.323416763964449,0.322911614735656,0.323438769861102,0.323475705937952,0.322353704290992,0.323510720724954,0.325407205869934,0.325930092205591,0.326035483642258,0.368490588511651,0.3682709930654,0.323967719964575,0.324467016517602,0.325104458953444,0.32560537574017,0.32610975167577,0.48985103073702,0.324840766160081,0.326372839746528,0.328944835274177,0.328871785762288,0.328418583210654,0.330403813674844,0.330263233292769,0.329598179916439,0.329404204281828,0.331673179202337,0.330331938301966,0.330224573802524,0.329150169839219,0.328798064915171,0.339733810941071,0.339289814994663,0.562648385243958,0.561599571262698,0.612289886375674,0.576861460686065,0.575680606909746,0.580861207104017,0.582473202156513,0.688784968647899,0.373566889408328,0.373238474764267,0.37410177024849,0.37437527154124,0.326867575528137,0.327354185300068,0.326880123439119,0.326615279569083,0.326757993606947,0.326498020312553,0.326332875678877,0.326462965254474,0.518783104143693,0.454096015258384,0.386566900419844,0.384471990519979,0.357937624326809,0.357903060088023,0.357701584187953,0.397247558156132,0.398030133711081,0.389042324319577,0.446848994599393,0.464427152926004,0.334378544543143,0.33514383971612,0.33462373237944,0.332236377288568,0.329666138968873,0.329555156046336,0.324222791301232,0.32372784892184,0.322201655670139,0.320709406129089,0.320162940987764,0.320835493885617,0.322284197811501,0.320856968020225,0.320579291969899,0.321374440705452,0.312982656187655
0.32703964924626,0.326186168110507,0.325485071587832,0.324917061490862,0.324530919565033,0.323922320978905,0.323609218722267,0.322911809393256,0.321446405494025,0.319929323983994,0.318498333921936,0.317707505926123,0.317128731375771,0.316785700301481,0.316987427576029,0.317243954310255,0.3178163395686,0.318106044374623,0.317999927288099,0.318333045314222,0.318481733909122,0.319303183158432,0.319097931835243,0.31877911580998,0.31804527355824,0.316347605773207,0.315687605124939,0.315238291820505,0.314577314887594,0.314298509593406,0.314298650166615,0.315558046824024,0.317006141622088,0.317799902513904,0.326458755586112,0.328070621521352,0.331984362473845,0.338566985058537,0.613418350662565,0.61339234364107,0.479518535370525,0.438228486211887,0.427732454431164,0.40980425528565,0.40975790059663,0.409774897189436,0.409957255299496,0.482593314822672,0.74585971615523,0.717943800148259,0.684590756685449,0.683951691773362,0.40065444383754,0.336530259788957,0.336517446611295,0.33598511333983,0.334409321580313,0.332347982241829,0.330268246046115,0.328841964932894,0.327923832189896,0.327613457067124,0.327276350734628,0.327121825727048,0.327203670773043,0.32702512806605,0.326906219128319,0.326508335029249,0.326775511258747,0.32692510875538,0.327249010377575,0.327812859877162,0.328798110084304,0.330916718491014,0.33193170929094,0.331592933194127,0.330792515585812,0.329675982289264,0.326725940280294,0.326097496653762,0.326057310944071,0.325993387502186,0.32604830360364,0.32590488168376,0.32527583625651,0.324475017378941,0.323997470658838,0.323910266112993,0.323927995867088,0.323876835511633,0.324570331941347,0.325527842371777,0.325890454449383,0.326144616316237,0.346604629062381,0.369059395218782,0.369430803990991,0.379231987450379,0.395246265736397,0.412426960606085,0.429730152123764,0.447140879378211,0.38051548615234,0.329385058693421,0.329261196026928,0.329151739423845,0.329323165130084,0.329967735649991,0.330198416833722,0.330500426891065,0.331949089323388,0.332970829705908,0.332621839124946,0.332066814383548,0.332726655418453,0.336645473860636,0.33907443303308,0.339011880923285,0.399721967774201,0.427362906216009,0.455074637085053,0.578337483787014,0.578109365872874,0.580404445873319,0.580926226817761,0.430755447047416,0.373847194928819,0.37372678230035,0.374192492321757,0.374331314862854,0.36038604684351,0.326845629945888,0.326907048171187,0.327072296704702,0.327740463516657,0.327903995538971,0.327651723183518,0.327522676046393,0.479187212280285,0.466552070469046,0.431952297252553,0.40881357142749,0.35871838244117,0.358932795042889,0.359329149666241,0.379092608673454,0.400256100121241,0.401432676093333,0.402094596732052,0.402360098442406,0.383110859510472,0.334988747831359,0.334529335817469,0.331278000425564,0.329897224915209,0.328841415323819,0.326871246709751,0.325769845777841,0.324352692037229,0.323504587332118,0.323170436394695,0.32282067574943,0.32300041542444,0.322687828823054,0.322909713655618,0.323157378616219,0.323234794642381
0.327174698985928,0.325996597461193,0.324642799276278,0.324239848488214,0.323763651567995,0.323443229207377,0.323833605300017,0.323501868772149,0.322693601176806,0.322267632742668,0.318275403422442,0.318073178571525,0.31710004120724,0.316355930173649,0.317514923465748,0.318202223284158,0.318090703676807,0.317674136701001,0.31747205574726,0.317813651501384,0.318522940821912,0.321534253088284,0.321688026478342,0.320958830412373,0.321174230820645,0.316272997981253,0.315968011836328,0.315532069461293,0.314885524299567,0.314588490644083,0.315335003455043,0.315852502954661,0.317944475625947,0.317820674854215,0.31749348396036,0.322163810054925,0.321002084748358,0.349241980170472,0.706773374696178,0.625749828578857,0.434240672456968,0.453669239196495,0.541997257408827,0.408164241900294,0.408106450462549,0.408549255816132,0.409984942725514,0.818439880011369,0.818237465731136,0.803613505336354,0.683121186878066,0.682836665303229,0.336520534419306,0.336908905659722,0.336907549851306,0.336385057221208,0.335095800760217,0.332782296156557,0.332485550530207,0.330793927331211,0.550245395006039,0.330015523727515,0.329186521040043,0.329033592212277,0.328958722456033,0.328734072327853,0.328460588064856,0.326245743397452,0.32647433343106,0.326578106838001,0.326820362096411,0.326838692759041,0.327251472213331,0.332564698256499,0.333120532956813,0.332952463513052,0.332322660603299,0.332103018155764,0.326656044414575,0.326919777415029,0.327049992230272,0.327104337755772,0.327021398749888,0.327099943854246,0.326100409814658,0.325518305870641,0.324491931066776,0.324452698076236,0.324297635432498,0.324715252424573,0.325264179440542,0.32619743621356,0.325848438056126,0.326372961834702,0.326334073811404,0.369429263768079,0.369735848957278,0.550609379013122,0.740024985131136,0.47060855233303,0.937730822234439,0.939284563490697,0.491067853821703,0.329851187357259,0.329884206693063,0.329784382067496,0.329979285427595,0.330410170364044,0.33013842354341,0.330040072906282,0.335252761457976,0.335669346521253,0.335229777292011,0.332489069212402,0.332398813220082,0.338762170610102,0.33858884562384,0.338900390720453,0.363566823543257,0.363407833788765,0.359631928051746,0.580221390763147,0.782450478202642,0.58196653673807,0.580843034503495,0.365995526747337,0.365714591432165,0.373354280661817,0.571662418280482,0.5714339997452,0.38371355452385,0.326295934811527,0.326895327169563,0.327054725918317,0.329365467675999,0.32957942593612,0.328943544541653,0.32847595958712,0.511528166048344,0.510732104977307,0.456920064703533,0.477844204219976,0.358988410554254,0.359662559033412,0.361133957953375,0.361477946156963,0.571684238750496,0.401172940716747,0.401682107165938,0.401843666327521,0.58643673341947,0.33551781965665,0.336096384459718,0.329691883501653,0.329887573039932,0.329529343105703,0.328817617280328,0.328409864996923,0.329635570138809,1.21277242806215,0.33003341726908,0.324515529516331,0.32455577500882,0.323911084161612,0.325157069431139,0.324770190013839,0.325269313260532
0.326276859254259,0.325486748965579,0.324682453628477,0.324259057807883,0.324026234927649,0.323922831394824,0.324076843637489,0.324007411142015,0.323473818334557,0.322494897033064,0.320779035841589,0.318190600999348,0.317198720438463,0.31665769199849,0.316818043074942,0.316856241862476,0.316755649926696,0.316761602265219,0.316934967365971,0.317715540742714,0.31852865302513,0.319988372788411,0.320897452389283,0.320763486873901,0.319943036479913,0.317719767617988,0.316546128261657,0.315920302509291,0.315313587221661,0.315346914949408,0.315888490127296,0.3164057807396,0.317023256472398,0.317325498939856,0.317726149763767,0.320106650816112,0.360828769040174,0.384276660176903,0.406522734115662,0.428870898905281,0.439882109594555,0.445950713588383,0.464773306498064,0.482164002688448,0.501224469118011,0.522087846525757,0.545077221013177,0.570421756511213,0.734826128799852,0.735574338822016,0.683176714483311,0.683379164042875,0.407856186722049,0.363101111936488,0.335674291325408,0.334202246237674,0.333054510963787,0.332163885267361,0.340301238949315,0.343247123555034,0.398269219547534,0.331743897510209,0.329598383508536,0.329311768496211,0.329655774433095,0.329716784596811,0.329444641702551,0.328589156628069,0.328356992920064,0.327967972584656,0.328032166361315,0.327952750568023,0.328885950547973,0.331398505827029,0.332636499657184,0.333031875544505,0.332834571929016,0.332220415194913,0.326542443700379,0.327019091994264,0.328623557233896,0.32845257132883,0.32835997559482,0.328008330862646,0.326689374696818,0.325469993843693,0.324537105204871,0.323979050083793,0.323992852913897,0.324411653202364,0.325422074128222,0.326404811633568,0.327190844450808,0.327216722746518,0.328000236921004,0.370232508943675,0.370969103631901,0.433684197144581,0.522357409677853,0.474170780485294,0.478134276680337,0.48299348816541,0.487723569267079,0.349191073183751,0.330172489736659,0.331678913023538,0.333214851287286,0.334741895456156,0.3358587821585,0.336280343957126,0.335844170220603,0.336232785378356,0.337005982123289,0.337507824075327,0.346339980577339,0.347868308618364,0.350148465364239,0.353175191806286,0.361183254638751,0.361178817584559,0.425050675546463,0.490803395061269,0.46360719625801,0.436969476013045,0.410772204576267,0.36590710563781,0.366166008989487,0.375361312766105,0.377266060356721,0.379247396762214,0.381488952053536,0.335924541313274,0.334069332935178,0.333773915293176,0.331692090005602,0.330308033858444,0.329602412389996,0.389650983871141,0.439364724279122,0.444733674270876,0.454415429209924,0.413088516478905,0.367106773568623,0.365928206015545,0.362385220201657,0.361465268817336,0.380260396896103,0.402034527743334,0.402291219670817,0.402421238749738,0.402546006408524,0.391331155636263,0.383696835572551,0.370736389185166,0.33390209335852,0.331168374456933,0.330401694846806,0.33166048110889,0.333811700537579,0.335128861926616,0.334484905321166,0.331675536461419,0.328915599290249,0.327022530623564,0.325299831294932,0.324796079943644,0.324413680394163
0.325537016291513,0.324976000928603,0.324430101152959,0.324065366594176,0.324187304696302,0.324140410505754,0.324488786701899,0.325067504472535,0.324550298174799,0.323964681383813,0.323739295487701,0.3167286758302,0.316741323162178,0.316293659761291,0.316301118616501,0.315504275785659,0.315524076234421,0.315406526504077,0.316114904956942,0.317222800664757,0.318110206906473,0.318761276430045,0.321570686934124,0.321051961352623,0.320341178206706,0.317901142791603,0.316759687905434,0.315896201182209,0.315456045118884,0.315247643623778,0.316848082530513,0.316680853532666,0.316758557742368,0.31669604879685,0.316168773111837,0.315419279559449,0.428582988099765,0.440375903422992,0.360910571053305,0.00421413626753659,0.560361736233284,0.377043963342219,0.377878479957747,0.563029212091044,0.607981623228405,0.607283987888801,0.822101521748034,0.407197264751835,0.734538003214498,0.736782633171762,0.404772493431871,0.684112885554202,0.685699468778117,0.378198913985032,0.335966548215554,0.33170421547484,0.331108383035932,0.331012225117635,0.344796924977094,0.35006710819573,0.551228708944511,0.335375088380785,0.32866871516173,0.329018911918198,0.33047474398427,0.331173591776582,0.330710835798037,0.330599293684473,0.330026434647952,0.329244177203708,0.329050934808612,0.328498255140362,0.328709935648571,0.331687139452932,0.332601898545364,0.333183454907136,0.33702817585205,0.473338916943827,0.32555244927874,0.325634728713523,0.331382959699694,0.330088638400652,0.329541218921254,0.330057236371437,0.32694453444698,0.325212481871778,0.324056523897788,0.323057603041609,0.323116527157069,0.323517402097508,0.325524806562938,0.327006996350206,0.329358310252627,0.327339139374034,0.330741749368102,0.649040125638223,0.372936128004079,0.373059245540126,0.594673728649106,0.468279700533964,0.46858806631025,0.348570398962826,0.491535459495481,0.365868988936476,0.32919204522297,0.492033060379256,0.338356603036502,0.33934914622069,0.34187457920673,0.342618377174046,0.342879000768693,0.335827475717451,0.338329550556281,0.33728296525625,0.508710362810126,0.507284139759351,0.551694831321029,0.848092641667019,0.848540812451693,0.360215929127591,0.575902885947659,0.576205401227321,0.362910741271875,0.362379423735391,0.36187173316342,0.361934539536761,0.366869192426132,0.383445757637346,0.342454699893991,0.349791728890232,0.990491480252129,0.338712458748218,0.33299132150322,0.334917134989462,0.333409583378212,0.330390083597569,0.32964576526168,0.432456306544532,0.432613641159027,0.43247272309354,0.464376438107233,0.36831538041967,0.368386384229412,0.367754104588365,0.361361792360161,0.360901906778383,0.359810206616086,0.402530305240847,0.402865352863831,0.402712145134135,0.402146000504709,0.500427869578956,0.623620717501505,0.606635013816425,0.337011235051082,0.391061817709875,0.642887681675337,0.746346421668546,0.335046221925246,0.336807145896334,0.33718293632439,0.337210363043709,0.337019867723273,0.337237704454721,0.324496612294035,0.324464830875461,0.324461992365501
0.323336125576601,0.323675793985449,0.323286205493957,0.323509931008375,0.325365661097197,0.326152174760756,0.32652657833359,0.326648837181705,0.326289880650498,0.325779339415831,0.325206723949364,0.316868043244272,0.316888838772894,0.316500386779162,0.316141218119156,0.315742131119164,0.315629880148161,0.315790469861744,0.316012683209232,0.316709502999693,0.317282422047787,0.318097716645095,0.319280508380115,0.319294248956048,0.318553209026737,0.317638600364442,0.31667572465134,0.315953129411134,0.315120281028584,0.314873818033271,0.315237964068463,0.315573930010357,0.315903786721729,0.315851766656558,0.313969859085384,0.310832208613607,0.307984924630472,0.305638069797439,0.304577806600849,0.304177487240533,0.352118937261141,0.381500523841794,0.385958919728195,0.5610804627171,0.567958607165034,0.583709733102108,0.612526114100733,0.406604321308451,0.405093409170472,0.404669189512914,0.404682240110919,0.405090270755674,0.404797659623028,0.40084392924877,0.36995339431542,0.36190421019707,0.351446054617429,0.350463708492055,0.34889611244221,0.34906577445198,0.348640177036938,0.33908642473278,0.33445301110104,0.329330391355249,0.330414970778487,0.331107355578491,0.331271145015466,0.331100223410615,0.330544987117661,0.329555952949171,0.329384806376162,0.329243325906579,0.329822344023175,0.331737067608967,0.334284550338576,0.336268590775373,0.338195164636471,0.339301033163542,0.333335816935628,0.32984199319788,0.330277456253634,0.330092391541848,0.330301737036058,0.331716090513965,0.332080539822748,0.332421869001979,0.333037028847059,0.333347519818937,0.333538711669935,0.333938779649235,0.33495112885911,0.336575370131427,0.338411878949198,0.339928118968783,0.340693911515217,0.367582643925725,0.375274275530075,0.434244829317216,0.53564029439262,0.50498572261721,0.503115785516441,0.50001409448804,0.496224725427197,0.452085267208985,0.424268600444047,0.445114449627998,0.376872773200239,0.344226357150467,0.343698078911341,0.343921554391623,0.3442739459662,0.345032449604849,0.345284043401091,0.345084052364822,0.351233311262536,0.352265488231061,0.353831895561251,0.356537567745121,0.361005265205928,0.362793951934245,0.57554326502238,0.575644103448963,0.362739258907679,0.362493752474286,0.362250247813536,0.362057435505455,0.404069134370822,0.427499124933848,0.451689129691743,0.476910777148538,0.503371734411426,0.341581295391202,0.333894459973726,0.335135198144624,0.338461573874988,0.339939359591447,0.385246879406224,0.432744474586954,0.432738892620612,0.43236149074771,0.450975164852656,0.368298516732541,0.368321252524658,0.36850785817386,0.369713646848406,0.37119904922689,0.3727693132272,0.385262769173199,0.402509912694674,0.403153927679498,0.403362111818674,0.438226186072628,0.466618392036081,0.498220042105918,0.46140363645235,0.433894420943683,0.406620860332553,0.379550695138141,0.337668866461307,0.337895306300372,0.338187767154226,0.338281537868862,0.338110331012085,0.337081024799243,0.333699283841387,0.33021436222431,0.327283102515477
0.320896244764995,0.323031992501888,0.321720494307296,0.32124699950082,0.327713255364103,0.328457924863029,0.328865202708006,0.328717514332271,0.328327732631655,0.328089962051134,0.325548509561409,0.317366285507301,0.317166120056781,0.316537079038624,0.316010099073784,0.31556823771331,0.315634032999173,0.315910443967879,0.315710482031743,0.316047671336047,0.316499298150819,0.316779090448792,0.318444943203343,0.318020049929412,0.317207979311854,0.31716282790831,0.316612265605271,0.31585080565419,0.314466764055982,0.313591868413946,0.313965533056878,0.314242036605248,0.315980806958426,0.316205498964747,0.306998823991239,0.306311179720469,0.30503700076924,0.304159611210088,0.303341191618064,0.302982495764945,0.302675163212391,0.395987488942546,0.392426342118263,0.558850952321704,0.556748105100043,0.465403227007448,0.761047847152802,0.401915116483441,0.403250540780607,0.403695621746664,0.403885763708228,0.405384416792983,0.404094300492992,0.789577879327959,0.381037352551181,0.374356790272585,0.352398797837288,0.351756362384158,0.347750095178526,0.348831739016765,0.347653483887773,0.347276064015566,0.561828814630626,0.328860047711013,0.331035879845943,0.331748626479641,0.331919702158269,0.332084851802091,0.331221460342648,0.329303778685608,0.329402279019879,0.32946666025658,0.329304749039032,0.330815030157302,0.339181168435002,0.340187741651,0.340205019958511,0.339808924363301,0.390554979587016,0.329597418564929,0.329962070295967,0.329955583989031,0.329595476989312,0.33496733974754,0.335693227126439,0.335569241197361,0.335035102736155,0.341011830812948,0.341812347809142,0.336127950535526,0.337004000299533,0.338612321225831,0.339068188550911,0.340282618884219,0.340795876852661,0.340368024980057,0.378017066038172,0.499947819242611,0.643854261023038,0.506821558060437,0.506516071178565,0.511867315897469,1.60280171971009,0.94302499438332,0.377923989628164,0.507216369023188,0.397091728468925,0.344096364351009,0.344392005283236,0.345014434206269,0.345210632667954,0.346092303294251,0.345639620757953,0.345158376449023,0.352557584728917,0.353202978607339,0.353385244821303,0.353200187000397,0.364407619059849,0.365552639612772,0.637078664090514,0.629803886506894,0.362940170867055,0.362723137872297,0.362770953446623,0.362257707462509,0.701967300148575,0.745562100722664,0.738522758773741,0.738325350433828,0.692111902146205,0.350003891384658,0.333737258664908,0.333532264460141,0.340624581213335,0.342040736025031,0.699266204542687,0.432832658792863,0.432944553015819,0.431527844966733,0.458815265665221,0.368349245338318,0.3681008159643,0.368430465978852,0.494161401366454,0.491450699919336,0.374096472485141,0.37474665108288,0.401202490772583,0.387230270784307,0.386356194171121,0.385274794385428,0.398645165314261,0.56753459932218,0.56718846546047,0.567114663201857,0.344138987846528,0.339224620560634,0.339267779971395,0.339137108286073,0.33927574090572,0.339424376663574,0.339871894255818,0.340743960442029,0.341940909999619,0.341674658385286,0.705254298583486
0.320818185063097,0.321348160010436,0.321445008579172,0.322281568824899,0.32512100637206,0.327865873663979,0.328721396071145,0.328838349762385,0.328534174826052,0.328004501031843,0.327052162768245,0.316790901287696,0.316436475670192,0.316206772685224,0.315838889315287,0.315634543851884,0.315381019478557,0.315152121685053,0.314627489609207,0.314730748748553,0.315227084255947,0.31589350751125,0.316565764135792,0.316365278216842,0.315874582684514,0.315819902822569,0.315376951913065,0.314729590724963,0.313641636082311,0.312921302208669,0.312719814677277,0.312603704243345,0.311578318915562,0.309166994476756,0.307444058375074,0.306314215139811,0.305147115903145,0.304331173835294,0.303569673964854,0.303452470672198,0.303754013355662,0.34347360662707,0.367752750592773,0.426087295837022,0.451674722222188,0.464722915941714,0.463701633374884,0.402101870007397,0.40297242117405,0.403784295953601,0.404469043070017,0.405235863254993,0.405189974684458,0.405545078497856,0.39415211474613,0.390841244978994,0.38978750252277,0.384982109440677,0.373306571570834,0.360107310450551,0.348235777799194,0.347909914235827,0.348242929129886,0.339438148829651,0.331883572177093,0.331898955769826,0.331779978856203,0.332332540892668,0.331547023732064,0.328905204248091,0.328134901156256,0.327811095810294,0.328078706568382,0.329895458120677,0.337007148578608,0.339165993998299,0.340176946786523,0.340763918983615,0.3417148978094,0.341029156065238,0.339671434929653,0.338478230064182,0.337408496663021,0.336065475476097,0.336034387227314,0.336180334880897,0.338059783424445,0.340162607368884,0.340971139454223,0.341145868694594,0.340478347310038,0.339772134128436,0.339913624098353,0.340292261401486,0.340552971912546,0.340411148048897,0.419802909129178,0.454407907185441,0.652736881463686,0.660934110406418,0.680384211878789,0.70418519511208,0.838327678638196,0.81169608793873,0.42894513003349,0.454470696367596,0.426668003292817,0.345286256967828,0.34591272016443,0.346479998648134,0.346747024071554,0.346992067429341,0.347191922899877,0.348093581444995,0.351333725415376,0.352520236514843,0.35311382508642,0.353631196676726,0.358866331335462,0.367082870853308,0.367932473283581,0.368539573696672,0.369093933141221,0.369575960614127,0.416186352805477,0.446305598627712,0.611518299093962,0.63289313240807,0.64052874350125,0.652299305759612,0.667602930825145,0.350847306867138,0.350608027098157,0.349177050258665,0.346773428215187,0.342995098693579,0.388490367894194,0.434710462850608,0.434610413490559,0.433025012660071,0.467071430835115,0.471906234904869,0.474451612597863,0.475267860192933,0.480871135420063,0.432067188943189,0.374460459972615,0.374736399115049,0.378116182531677,0.388216080285136,0.389350663243401,0.390736319933115,0.461156373769917,0.567290359419328,0.567174149420135,0.567133646002646,0.345708133595021,0.338574667603911,0.338909087348758,0.339210046637855,0.339513459104336,0.339834186612434,0.340558293900623,0.342430218801265,0.343482877573917,0.344382908684765,0.346278772794319
0.320384374426452,0.319943605595623,0.320696203676781,0.32119620582252,0.322705218862664,0.32906344005738,0.329421101573516,0.329281436978173,0.329014446055244,0.328093531649498,0.327186522811973,0.316453594447452,0.315801592959938,0.31601986931416,0.315428688745158,0.315699828671857,0.315372670486274,0.315061331136634,0.309647076562019,0.313268947961027,0.313933913304018,0.314864168768652,0.315683314022682,0.314889298548796,0.314210684715683,0.314758426935922,0.314467644603377,0.313904306516675,0.312624562175025,0.311499487369592,0.311575717617436,0.311059459292215,0.31052289423756,0.308083360603378,0.307509279671473,0.306174922582965,0.304998624343817,0.304148083239192,0.303163327113221,0.303287958918377,0.30514838921464,0.305255446404216,0.304704715103089,0.403641368027434,0.403577608306798,0.658485139219089,0.46233911776301,0.401302164063556,0.402639589581026,0.403851134206833,0.404947866479332,0.405682375618054,0.4051746070049,0.404749169345625,0.692427576443323,0.754029084111339,0.699515979282129,0.60643726777527,0.613687265824957,0.371796628714807,0.348848947260795,0.347653480787737,0.348370550198978,0.345008888874585,0.333047089087155,0.332591119091632,0.330636158124003,0.33383437924089,0.333455869279263,0.326498364300014,0.326175895330961,0.325768617649151,0.325160148495552,0.33096323331184,0.333326520266164,0.339355349713097,0.340748618471305,0.341136740012997,0.342965445844085,0.470385261005886,0.338967909321037,0.338176563069375,0.337525908424994,0.336163584256452,0.335985080330631,0.334865113350342,0.340454223084238,0.340893823087751,0.341037904253599,0.342798273693837,0.645975808091054,0.628990343904431,0.644743555151418,0.340031348301695,0.340499348020571,0.340188258418446,0.497699846584762,0.391847390912128,0.738132020684514,0.738497242731591,0.794831504851221,0.77656823744132,0.965021885037505,0.786410649206988,0.34925143615799,0.936218864856767,0.715445850791502,0.345881004583001,0.347561256131906,0.348071620670976,0.348431825947283,0.347655425531472,0.348004306879207,0.349458342647183,0.351175342076851,0.352869826046742,0.353435422256622,0.354476522118537,0.355169893469601,0.367944498844612,0.367980917041294,0.36836105981326,0.368982976911954,0.370169362521163,0.58248765795976,0.623340354761298,0.582107580107958,0.628034534444955,0.612321933249378,0.612357171931261,0.693536320051108,0.352070051704321,0.351870551239275,0.349297082673896,0.347642081901202,0.339850419234923,0.348184092049705,0.438149408772251,0.437500559932441,0.359427826248331,0.473546968517708,0.638150724045763,0.604897191680452,0.604540825768342,0.612198951751687,0.374582196036145,0.374605771254626,0.375020452879433,0.37535510934918,0.387461355242544,0.392671121213863,0.392477213076602,0.608659292789608,0.567176678044443,0.567045306057985,0.578071104475896,0.346881958325976,0.337995989717185,0.338940077178222,0.339279805813329,0.33973147156699,0.339879773181298,0.34023353586335,0.345283172857603,0.345272600411969,0.346290844256952,0.348627934172197
0.32014938377311,0.32002304110039,0.320018614542952,0.320303889926855,0.320649388806047,0.329106475603078,0.329114947664711,0.328983502890005,0.328614180698521,0.328051482891907,0.327507505871687,0.321577368484878,0.315369485383879,0.315065117351063,0.314758740485017,0.314606968509576,0.314208180032995,0.313597375433544,0.311901005546738,0.312081167726611,0.313169065680097,0.313948345878388,0.314221758036158,0.313966368993386,0.314182131330115,0.314582033198949,0.314076318915761,0.313092132378567,0.31202939073558,0.311396539365645,0.310826546478049,0.3102429160089,0.309654164569835,0.308723173660834,0.307893333606876,0.307196909671644,0.306225207687755,0.305545478567495,0.304884123294204,0.305420284187671,0.30581741024779,0.305725442926087,0.305410365748084,0.360994552608665,0.437106700738477,0.456287531999705,0.433357405013643,0.402497832723369,0.403281962180743,0.404198697133673,0.405033438563884,0.405562077864827,0.40555475493183,0.405355000550058,0.449365917118709,0.492744246817196,0.465678241335876,0.439285293644088,0.413391685692267,0.37302559803789,0.363566801026067,0.354681721358368,0.348720342673842,0.347242813103322,0.338225442218344,0.333356627025722,0.333551121792026,0.334485870789292,0.333825915810247,0.329518408135467,0.326091646806046,0.326441317317648,0.329775941864097,0.332564221451398,0.335702901756159,0.338548986583103,0.34079050903085,0.341807090000452,0.342981100882956,0.344042089182709,0.3441619104665,0.342912887172907,0.34193845097787,0.341133185225028,0.340834287798241,0.341251022229247,0.341053280103691,0.341447313139869,0.341497426205816,0.402691937446526,0.645319254864614,0.645128998595725,0.645091030261939,0.360441250775941,0.360313393584801,0.360125037076308,0.442066748019678,0.385835985547439,0.381242508593972,0.378072401027863,0.376189763025599,0.375629777929671,0.375841482280308,0.368876472446493,0.350802295630859,0.351325695196702,0.3513880004116,0.351108783418377,0.349606080781523,0.34993011105275,0.349819387719609,0.349128024602788,0.349070101582166,0.349893179867297,0.351944811140251,0.353219688457988,0.354099225396482,0.355986068646316,0.356810834414897,0.364567708369964,0.367011594813051,0.367499286600173,0.413264938848825,0.446724567785088,0.574721537071922,0.583848853220755,0.58353150788591,0.584071436109486,0.583987685877951,0.432596122360646,0.403110006342406,0.352494977665418,0.352848584768024,0.35240914937954,0.352900771523787,0.35319468609325,0.353427827320641,0.35903124658202,0.35969858857888,0.359960602614444,0.426495927582618,0.629565633536337,0.618610849348102,0.606147983619334,0.608764414139464,0.384910209737664,0.374940284991288,0.37511406391567,0.381110717267132,0.389974436433818,0.392304547438162,0.392565825987838,0.43803238370563,0.47973333895485,0.570229357121346,0.571410429007266,0.429126471664171,0.401011742090527,0.377507181521688,0.339153566376162,0.339744867857656,0.340917571112903,0.341718016735634,0.343859295102994,0.345164551353828,0.346838347522464,0.34824024392487
0.320079038330623,0.319671901779341,0.31917696732237,0.319152016552924,0.31922149345814,0.328873274884408,0.329063123975305,0.329069452318661,0.32877477685605,0.328021587031461,0.327175293964625,0.326495335123417,0.314860113870819,0.313984490544744,0.313625957053994,0.313679597892026,0.313342306631389,0.313124738739428,0.31191630206402,0.309557858648587,0.312904814614438,0.313515419313869,0.313303595461951,0.312559841863158,0.313987050540106,0.315278757740393,0.314225770399814,0.312267204681245,0.311143755445725,0.311042416921175,0.310301198558322,0.309123186536676,0.309370774078245,0.308829014400151,0.308403901900035,0.308070330009744,0.307429016126056,0.306590750602494,0.305640345741373,0.307458938689665,0.307095457866266,0.306341858071306,0.305894212896292,0.313629936128648,0.509525707791743,0.474835706815352,0.00431216124629119,0.402891770603955,0.403782587511596,0.404599717957472,0.40542549640046,0.406058152730749,0.406088069676546,0.405720797326234,0.405073566923317,0.689185147479429,0.00417775334301437,0.00403957560470939,0.385770458223274,0.374670195297695,0.374530322124835,0.506831979724515,0.349443857877812,0.354491704312809,0.404822492095662,0.334443352553958,0.334457944498702,0.337473445152164,0.336581387435928,0.33652468763778,0.324351425785909,0.324583845833681,0.338492197015138,0.33794066087964,0.338154886033246,0.338013032836203,0.342210841488913,0.342373759209838,0.343219376821425,0.34515463411403,0.345557406754756,0.833687726964515,0.345983714101442,0.345529231607868,0.344766540809754,0.341962642902504,0.341268167359814,0.342878343232378,0.342270521535148,0.644208722950689,0.644314215595367,0.644354832735488,0.644869173841638,0.359811003603043,0.359629932600808,0.359163427346283,0.539126240697066,0.358515988560805,0.358378405325074,0.357373028188277,0.356325095238016,0.355263229087564,0.353811926199442,0.352455509765077,0.351663465054369,0.351541326953295,0.351548210450825,0.352115976026914,0.471246008901035,0.352180607831366,0.351806693908121,0.34961440807804,0.349293020871934,0.348709589091464,0.353893082038193,0.353951076572474,0.353699332563927,0.35884345249077,0.35918883711116,0.359599221886206,0.366099785036415,0.367149129105823,0.54122416018681,0.540884736767968,0.564647196146289,0.58356358830559,0.374602642915717,0.37413171330241,0.583522646944787,0.368076061717037,0.357224653548147,0.352559092333335,0.354635618761112,0.354215696457835,0.353001428795338,0.354421602731915,0.354809297305118,0.357599216379239,0.35941509624792,0.360367368011289,0.359902377494877,0.643503038389474,0.641269612769292,0.38377279928791,0.741142936011136,0.400640725879509,0.375525886589624,0.375548776998218,0.584628884280466,0.395348678320272,0.394226477984021,0.393016412323322,0.389092511429196,0.404042612169263,0.57183759869873,0.5725262233202,0.625543660530705,0.409540528170891,0.653940910309852,0.338385071717132,0.339190010586481,0.342353849626303,0.341809258346275,0.343044460098814,0.344238058552799,0.365241752828404,0.365311984576507
0.319631764908725,0.319810764064245,0.319728686315461,0.319772471023293,0.319652040114257,0.327778160025137,0.327890714661222,0.328331119624116,0.328221019558522,0.327511597335614,0.326720120789945,0.326141347220827,0.3204824690119,0.313068685080819,0.313120425921243,0.313190318339037,0.313049398130406,0.312826864952447,0.312492579992835,0.312128930173845,0.312682121640805,0.312866269799829,0.312764568393782,0.31271398883686,0.312904637312865,0.313118287291713,0.312856517599746,0.312267144053794,0.311483506034046,0.311226434066407,0.310730177532657,0.308997217034574,0.309232637455302,0.309258312707255,0.308909309608681,0.308501560224814,0.307769022461053,0.307462677857962,0.307213204382452,0.307587423017982,0.307413846662465,0.307036357873144,0.306867072639049,0.314001984192617,0.494686158352228,0.486089351698289,0.447384157157692,0.403617927420411,0.40423225824003,0.404708127146971,0.405285503774434,0.405785641448894,0.405998469270991,0.405791004114095,0.405398309392168,0.405078864795368,0.397399633662826,0.391484723364503,0.384925547627408,0.384028540175525,0.428477600485646,0.459453398766113,0.438235945292875,0.417022386311892,0.404806937374931,0.371942350668397,0.338580809957926,0.338090010745412,0.337587541611734,0.337753863622591,0.338536728814754,0.339419452206283,0.339389502937341,0.339286274599903,0.33914762551235,0.33962011813586,0.341649089645882,0.342591924145537,0.344320608025712,0.345713501262065,0.347393339798562,0.413691438566518,0.345912410980956,0.345634635518811,0.344997076229701,0.343868011299353,0.344560097016205,0.345263684666201,0.346984832322871,0.39475990066804,0.42260359106009,0.450476140558716,0.418551585416479,0.360197067898399,0.360109259241812,0.359720891253944,0.359973768272142,0.359904355298439,0.359554342294142,0.358602380153292,0.356359120465528,0.35486818195322,0.354035347901751,0.353228614007759,0.352561853217008,0.352297332369555,0.352151397054261,0.352622546337138,0.35357159947603,0.353596522234241,0.354220629830387,0.354926653420646,0.356308220274223,0.356519924266561,0.356009927224927,0.356021281637401,0.357035032454903,0.358926911815211,0.35975139704607,0.360290844334989,0.362336474633736,0.37177691554002,0.539978425525998,0.539147525454679,0.558338126786445,0.43973139102611,0.374841821443179,0.374658535701122,0.435132602661118,0.409710427375543,0.358073300984041,0.358183814231859,0.357016642786274,0.355996127758409,0.354224766520458,0.355147966472048,0.35654037429139,0.359201261908736,0.360590851125334,0.361152901916421,0.42386596823808,0.484349220871089,0.452769593283795,0.392276188109371,0.40509813328374,0.403907199711677,0.396384095558767,0.396353600092444,0.396128969574595,0.395431145629402,0.394708748730303,0.39463061730339,0.398425406934975,0.40106257306566,0.46372217938666,0.58338344591357,0.589994732023052,0.593613862123446,0.594985690020067,0.37483095612358,0.344922991098929,0.344134747779336,0.343860306355885,0.344121611773783,0.344241866247366,0.365925063711624,0.366288137974846
0.319204134259952,0.319980607101154,0.320138325869175,0.320195264384926,0.320234410828211,0.326318148150793,0.326612743391735,0.328337991198641,0.328415405397815,0.327405993877519,0.325897555873153,0.325573130804749,0.324935544558986,0.312180974304138,0.312837344239844,0.31290388956803,0.312604321940265,0.31271191520987,0.31298250198632,0.31363095982213,0.312999847817247,0.312509664701997,0.312188454145007,0.312587475681816,0.311864653883522,0.311340606762625,0.311947620403142,0.312313944792472,0.311417080622607,0.311405800248861,0.312549431587186,0.30671160199104,0.309658186753038,0.30976038055617,0.309821259407229,0.30887250075705,0.30799068940863,0.307941708381484,0.308356828759096,0.30796540686389,0.308082737677362,0.30780793771935,0.307973951062435,0.313754504779334,0.656861139145069,0.555442041562123,0.57393905050931,0.403739969107347,0.404818000710136,0.404779078179787,0.405125148133209,0.405910170606557,0.406096592432787,0.40613812300925,0.405395596048821,0.404600725411861,0.403309659864673,0.904359121838021,0.385286797020214,0.383542128410993,0.506620240358625,0.582978885348412,0.728143507173565,0.786410661344836,0.40469062702962,0.403458778825054,0.338929525137769,0.338530089569292,0.337929016814288,0.337999538046093,0.338252886440422,0.340261302945068,0.340649750211602,0.340572279516279,0.339619954797804,0.338953119802037,0.342593888112374,0.341874389752395,0.346034430824576,0.346121867294475,0.350940297598754,0.836684095311493,0.345878033346837,0.34599012528702,0.345526460761812,0.344562558225436,0.346488698393446,0.346857384838954,0.348441570549155,0.355432675926346,0.355340751091781,0.645184866457358,0.359374998037858,0.360310348645121,0.360420628181531,0.359349899047164,0.359699757165325,0.361314663882798,0.361336263026633,0.361018025862918,0.355748872153074,0.353771269705196,0.354422629602579,0.353530117490349,0.353179812371918,0.352558096589833,0.352292567378555,0.352328047126224,0.354585367488786,0.353821234508599,0.357761990721205,0.358180252606386,0.357530633445807,0.357608579803527,0.357918502542646,0.357395063995902,0.359137652366117,0.360097872975088,0.360406302910498,0.359072998145694,0.358436690541713,0.375462406038377,0.86973885725263,0.534847297589581,0.583522238170156,0.375572531273541,0.375561330356737,0.375303412530773,0.459954160347431,0.608352841908379,0.359127539759272,0.359410506549222,0.359211777303001,0.358661729445741,0.352746994513054,0.355503001160109,0.356414428812475,0.361704653390796,0.362321311940584,0.36248906364305,0.633252009805038,0.632983354942403,0.385002641909838,0.38478686826433,0.423801847896135,0.406914002943185,0.39660631780693,0.396605970929387,0.396512066122376,0.395354155721148,0.39443293883644,0.392350159239724,0.465289538452255,0.393519349435609,0.388929515096508,0.619986410021858,0.383812170249776,0.594004432953086,0.595664746371922,0.392467026620334,0.345409315520724,0.345188646844751,0.345288286997559,0.345190302513677,0.344300667958517,0.400828878270709,0.401273335889629
0.31981479025872,0.320384084224492,0.320521184456366,0.320811918307003,0.321843287935704,0.324867916197422,0.32592147823693,0.326983804359592,0.326651687812275,0.326127455436107,0.325557145421391,0.324916743812081,0.32394909652396,0.32068679405092,0.316260740320668,0.313057840525402,0.312751860228261,0.312624463007649,0.312427024453591,0.312287649273116,0.311906205741452,0.311589635950866,0.311374112510076,0.311546154101625,0.31133648232009,0.311266030981883,0.311337223658106,0.311386700469654,0.311168550919588,0.311252523164187,0.311169389270342,0.309492087329189,0.309610340544793,0.309484368205615,0.309017519641448,0.308547743524888,0.307915028492906,0.307844130918574,0.308097990580605,0.308989958030886,0.309678466234269,0.311026805592664,0.311936604517014,0.315134640465121,0.456873439518611,0.518767603514257,0.481139157970506,0.453284205917487,0.410864923956847,0.405302220657321,0.405156437312482,0.405360787514872,0.405646239684882,0.405521039605725,0.405049075553295,0.404264056150489,0.403522971453883,0.486786221948418,0.449213743019248,0.384023344547833,0.385269214769894,0.389009449669931,0.401353967855075,0.401598889599245,0.402789491475998,0.403063381234722,0.375667860838648,0.338675715966257,0.33985527942549,0.340500161538645,0.341050865648491,0.341309129978416,0.341068797309135,0.340730993487857,0.340094220644827,0.340354572046155,0.34199045225159,0.343388087887829,0.34618631188078,0.347623841067315,0.350661862463555,0.352347820428535,0.352820369280788,0.352456252434545,0.35188208585206,0.351914223129873,0.352145846397923,0.3530107707868,0.354824118345372,0.355527016305729,0.355851672472695,0.356993315362832,0.359456819261911,0.361283117836482,0.362473736417595,0.363412005267235,0.363329001596957,0.362987642674386,0.361648967869423,0.36018104715729,0.357472950669152,0.355685971849706,0.353857502573197,0.353113506556705,0.352592915507752,0.352409831199516,0.35231823021915,0.352982980021397,0.35429649812598,0.356186238073689,0.357651610147288,0.358240351258914,0.358215239405884,0.358383484248698,0.358464100606862,0.358758165487727,0.359707686458468,0.362026318355469,0.363496224284724,0.365175533662565,0.371220459547632,0.378333670965912,0.438746193373572,0.543766578903658,0.557062530248308,0.546608032856563,0.535521471878241,0.523723389497548,0.510894715602203,0.49631469850108,0.420954665713898,0.359242084903281,0.359688214054133,0.359363656366468,0.358995910473366,0.358024802831694,0.35893529114093,0.361369071623159,0.36223242192174,0.366246571145239,0.376702423866204,0.37895809999512,0.380898064019643,0.395611376020632,0.408661738775767,0.408401269560723,0.402927563812224,0.395967827199564,0.39616898980254,0.395398079442377,0.394840810042622,0.399858207401011,0.404554894043238,0.398411488724127,0.397605750031849,0.395891292279086,0.390834098075085,0.395143546998073,0.400032834071195,0.396311582925975,0.378076079410902,0.346753952553476,0.347524845194775,0.348629544057785,0.351208677471288,0.355524664597314,0.360240941073808
0.320429638831115,0.321202028559963,0.320754373825372,0.320619462927331,0.3211900668374,0.325592232906745,0.325183163298445,0.563790799854414,0.324905799837058,0.325059051999318,0.324989521041109,0.324882784623225,0.324782714088091,0.325096051901432,0.324500464528744,0.311830234076198,0.312417619321601,0.312693043637502,0.31163712716755,0.311221784651877,0.310730173206308,0.310506148810465,0.310270511782432,0.310726447798716,0.310869485848418,0.310812224475682,0.311023854296614,0.310447193443902,0.310853432697028,0.310928075977797,0.311607458006622,0.310240656966035,0.31018477640181,0.30925574416545,0.308546775961811,0.308046138821537,0.307524545933518,0.307154727310139,0.307229288051166,0.310019103241622,0.310300242402114,0.546696599030306,0.397766737397965,0.324266685479028,0.417549961450491,0.574437332072071,0.401574614678398,0.705273797726742,0.423694282356022,0.406145371352444,0.404805169340566,0.405005270432449,0.405351214606484,0.405497321262683,0.404678194131278,0.403903593412,0.402816301434334,0.698802713002419,0.697483580485652,0.381487770893202,0.380817066276193,0.377679619827935,0.401275681482367,0.369358736774343,0.411521117675848,0.58872556142545,0.408488543368069,0.337206267981159,0.342486774785372,0.344373210988707,0.344624938439213,0.342369760320413,0.341642090911892,0.340820973725011,0.339766963053154,0.339762939152349,0.341811568199209,0.343006798464314,0.348040966674728,0.348383386121196,0.351396606758922,0.353951030417132,0.353831612525304,0.352797217015538,0.546401278192749,0.44615154006107,0.358516726236726,0.358129764071382,0.356229647351448,0.356363209105694,0.35544768479007,0.355442709094331,0.460000574426216,0.367191438101098,0.367853464878868,0.367809856425595,0.367297000522001,0.366989859667622,0.36190541049581,0.360429334832979,0.358340353344465,0.357434118933719,0.352511347732894,0.352164456326775,0.351872707508661,0.351602810265715,0.351698330185105,0.352490802597311,0.353492325002296,0.358234485454116,0.358958551842298,0.358668610680555,0.359176396356395,0.359051379568555,0.358974093689334,0.359328029776234,0.358989349803372,0.364729627743486,0.365632216753347,0.367045346226622,0.384336679575787,0.380734849365163,0.381619922720481,0.552637007673929,0.699877177698036,0.583280482447601,0.583060736584206,0.583129412952275,0.635100175527477,0.465949581816463,0.615333231402584,0.358844718415172,0.360973393657716,0.360276192798666,0.359215251161422,0.358430557260016,0.365420965291061,0.362475837699682,0.362386257202825,0.373777077207699,0.374278144904793,0.374633370954199,0.375670856336645,0.430021082476745,0.409222761667558,0.410064726032387,0.409278142865748,0.395563492738209,0.39753718034549,0.395220740312447,0.394752875676177,0.416290229318904,0.416064784174525,0.400226739441329,0.399980437213115,0.395250264465568,0.387511100608362,0.387333027442509,0.410402658042858,0.410488983330266,0.410245768587782,0.34223856395872,0.385549575837477,0.385779117610715,0.37184722052595,0.355545681331833,0.362098440419077
0.320801101458499,0.320940164797427,0.321055212092871,0.321114496866852,0.321490404524301,0.322572876211872,0.323407962611342,0.324527664929733,0.325147745615326,0.325445994411598,0.325646049851583,0.325739586783747,0.326005866982103,0.325999988376307,0.325811017665722,0.318336525305337,0.312473577394912,0.311790205836203,0.310996877867288,0.310572790824808,0.310351295034543,0.310144871025688,0.310020286837396,0.310500921035239,0.310838916271732,0.311216521972195,0.311226829038155,0.311316819357262,0.311282382167818,0.311234036432366,0.310361645416204,0.309248151480245,0.308925391243608,0.308445320280297,0.307931164646062,0.307661019791573,0.307332747777511,0.307332865838252,0.307922068608801,0.309415614513361,0.309915294786837,0.502659716674061,0.484170652573108,0.465751203552565,0.447393841348104,0.480537749883898,0.410207206754826,0.409571091256813,0.408003469037163,0.406914492202495,0.406325021023102,0.404963492200526,0.40490428734443,0.404735135490301,0.404328507126892,0.403859855865504,0.464176329009388,0.505704445915854,0.477946564854525,0.450230882632128,0.422518487740975,0.374889541707409,0.371887227200314,0.36964248430963,0.367885969018191,0.365529482144734,0.364143435257404,0.351283133263791,0.349420525045832,0.347017831304087,0.345711978906326,0.344258718503374,0.342364370880517,0.341627238027605,0.341052529321369,0.341047806361222,0.342006038338848,0.342845299053858,0.350505776366687,0.351392638496387,0.353154322303052,0.354888465922614,0.355449659166289,0.356618137346247,0.376315659557229,0.364617315389728,0.35897658262829,0.358914981038479,0.35830396239917,0.358556228272576,0.359650091827197,0.362938485190527,0.367645949052792,0.367541080124958,0.36779402061732,0.367969858650645,0.367602596566378,0.366893027554564,0.365328159675711,0.358401616178875,0.357491275809258,0.356388048648224,0.352148290996489,0.351230646830888,0.350513011628696,0.350161767167918,0.349828370630437,0.354272165575886,0.355306178211724,0.35768915571444,0.358904060637426,0.359658622018389,0.359609163335915,0.35963655157887,0.359809240171935,0.360350778716423,0.36251133414123,0.365316551516305,0.366303178702845,0.366780125308892,0.384656508645049,0.38425032965641,0.38377730481527,0.436181523746844,0.474608369289091,0.580066031112607,0.581968814188626,0.582625419374505,0.629783596223064,0.615538343074652,0.615566964595163,0.421358335342267,0.36053730478518,0.359772923020056,0.359842309687596,0.362375263895,0.364599775380272,0.364887709991068,0.365849661498655,0.372700411983718,0.373331465703798,0.37369049783113,0.397472071675971,0.420911878962728,0.407914150246664,0.408181672790448,0.407880548459752,0.400940276012218,0.399128406483595,0.397246341807033,0.396365925850675,0.416053459286365,0.416533051107649,0.401194770776762,0.400931409430899,0.388366734677224,0.386513572664909,0.386387734486339,0.374617158128101,0.369447015694076,0.366985793872897,0.365989700035068,0.386590448229402,0.386665112124542,0.369618917926148,0.367771849408991,0.366492582046242
0.321319989004474,0.320852832995081,0.321161899355212,0.321334265171301,0.320708134609868,0.320128926706707,0.320532841053216,0.309259564155903,0.308884710223174,0.325830966751524,0.326016464127768,0.326647958955058,0.327080126270239,0.326599494890623,0.326344216493145,0.508763289055862,0.313753878896323,0.310933448522472,0.309714855362949,0.309690984684912,0.309861790604624,0.309515780217722,0.309360811956461,0.310150225537571,0.311074399492291,0.31165008300018,0.31170897754053,0.31194859352865,0.312091997842608,0.312003212388254,0.309697315021343,0.307131761928636,0.308159704728147,0.307340386491313,0.307350388786168,0.307064519061324,0.307007084609214,0.306759656531664,0.307750578988274,0.309821262951438,0.310062945335109,0.646332139962874,0.651022928890222,0.548411547009001,0.332293256997374,0.655459986422543,0.410329050971295,0.40983009286334,0.406948417639673,0.407077179483778,0.408304806524613,0.40379977362585,0.404173890404416,0.404479616557758,0.403817023815842,0.403453710224009,0.801848411619297,0.897702485742737,0.389267805803168,0.737452026751999,0.533315496006473,0.370073105798204,0.369933320004142,0.369104812158014,0.368199705653476,0.363218654765628,0.362542389399759,0.35270889873042,0.349408272665382,0.348465574441049,0.347382353236298,0.346396257387352,0.342000186565814,0.341940099107515,0.342037881627363,0.341169489237342,0.342281789315265,0.343654823227468,0.353334865529602,0.354474456398969,0.355212937337356,0.357025965157882,0.356958710218121,0.358086411922672,0.396931725409434,0.356698424619387,0.359195079370903,0.359893572821591,0.359641808092626,0.359670479690125,0.359499241655419,0.366292149854429,0.367104780913414,0.36729487535544,0.36848815383044,0.368609217765314,0.36915673186942,0.36817110527541,0.367350480169863,0.357204064216307,0.356840126945724,0.356065008274901,0.350488786709015,0.349515916634818,0.348895671487086,0.348335999624312,0.347662813530196,0.428015503145375,0.435856941865489,0.557977269572286,0.504392695374306,0.361091103064295,0.359948830556535,0.359887719643236,0.360379131461143,0.360360434487102,0.368746492416995,0.367849891122159,0.367025927084266,0.366535269168601,0.386133531737672,0.386164296178565,0.385974736072067,0.393874822628824,0.393937621975083,0.578208858766967,0.565123601686651,0.448971487586987,0.645850713815616,0.616558641033946,0.616184873693344,0.622194763128631,0.360928520635888,0.358696536665738,0.358513910969204,0.365042556608083,0.36569342226608,0.366719875542505,0.368108061001044,0.370313157256503,0.37250687218574,0.373325191948821,0.426064642736792,0.425485502702638,0.406473016319035,0.406357001824458,0.405863600766981,0.402921485325264,0.40095773317821,0.398070613113919,0.396931679541303,0.414702566103148,0.478694712615113,0.402743265510932,0.40176527912859,0.384285548228939,0.383837015012373,0.383830785522944,0.369037711090035,0.368885719022084,0.363157155978094,0.349597250080779,0.403724210663588,0.41073810105466,0.349566625847217,0.47156201252263,0.472051228556716
0.321786544006907,0.320945864574915,0.321031829036375,0.320969325087979,0.320988741019178,0.320153384136949,0.319241143766059,0.308536294176067,0.30841051104183,0.319310504372677,0.327233132985478,0.327574035807558,0.32789530857871,0.327604822470301,0.327358066649529,0.327195334640418,0.323082738928193,0.321269886142211,0.318358491606798,0.3152650780578,0.31233783185494,0.310906935364342,0.310360685125652,0.310740674823705,0.311360338840333,0.312232566316754,0.312274783321423,0.312250191213328,0.311634490189649,0.310741679517233,0.308892163870818,0.30763413546767,0.307404099117992,0.307281875873825,0.307458433203067,0.307643060810135,0.307776719528644,0.30799324497959,0.308389302657993,0.308921031004967,0.308969255426146,0.374016966900171,0.484658843208388,0.494482078936616,0.510629091330493,0.523084810178247,0.410324559362094,0.40963230627884,0.408090615882205,0.407204866166879,0.406354157697473,0.404644117077327,0.404468058927087,0.404372810012631,0.40406464299899,0.403653536476189,0.459028197320364,0.497840754805337,0.388240645057141,0.386274527005713,0.377337669628716,0.369312481856059,0.369363221035308,0.368792936603828,0.367767225663549,0.364334332998668,0.363435130867498,0.357970436015592,0.34872724613433,0.347969858207147,0.346705880358633,0.345480498197141,0.34272500978724,0.342202616796416,0.342570735516338,0.344846302980285,0.348027141130122,0.351440601240139,0.35356997358368,0.354646385977003,0.355363667852136,0.356564463740628,0.357926430105673,0.359519736161497,0.36033797726019,0.360169529405148,0.360011720687508,0.360652044722035,0.360892374410233,0.36268238747292,0.36521565523606,0.365983136497095,0.366573893207227,0.367099522781809,0.367822808719863,0.368228507498165,0.368225794816399,0.367612898455626,0.36516685090789,0.357901040310747,0.356985317823925,0.355313295158113,0.352666802828871,0.351077467995371,0.349854250514366,0.34927562746691,0.348948635990919,0.385101356396932,0.405956905190301,0.482596111585779,0.449641439665628,0.361477020684436,0.36106135174854,0.36076853601995,0.360788847461822,0.363464090588949,0.368959144055905,0.369442801990427,0.372542870656083,0.373286536927439,0.385427030334835,0.385636722394865,0.385792461265171,0.393678048087007,0.460531390995738,0.575717007061572,0.572785350250613,0.571901512460535,0.582948380333801,0.584828698140799,0.492982423084712,0.460006107541625,0.366257370766969,0.365291750051075,0.36481076213085,0.364728742861123,0.36531936837829,0.366301793241831,0.368246476200079,0.370210344534025,0.371424819241187,0.403960648552654,0.426178734395229,0.425989582055911,0.412956432331161,0.404668479193152,0.403803890692459,0.402264880033067,0.39963220077494,0.398136209908108,0.397512403856177,0.403764734353645,0.403391480724894,0.402523795292156,0.402113085473598,0.393172483292693,0.390186482059801,0.389459671740633,0.386733284375112,0.383268546536778,0.376536733664356,0.367145032490596,0.381677442157118,0.412222310224482,0.431755538690391,0.471449612045915,0.471575864538386
0.321787684353749,0.320433374589295,0.320692509976534,0.320923729565438,0.321971565307348,0.320464127580846,0.316390447278888,0.308865863303083,0.308028854353646,0.307461887117559,0.327846553253726,0.328677878247144,0.328850750845676,0.328768652173612,0.327824441044252,0.327005574192643,0.325197045505354,0.321070936355647,0.320286398975367,0.319190800570115,0.313693322680036,0.311052454307998,0.310589689882461,0.310747621054936,0.311657782441713,0.313348536454948,0.313202339212272,0.312866315673715,0.311716753676061,0.310196440592888,0.307722000421187,0.306897220975252,0.306733681825599,0.306731506748772,0.307709247100371,0.308104897148058,0.308576398194919,0.308933831245134,0.30899757552809,0.308482725378133,0.307999149799958,0.308011724853241,0.471577464655885,0.458807287583643,0.542127221827448,0.543494133050082,0.356643031239513,0.399329789283831,0.641154170435229,0.622816508102644,0.405044271143975,0.404095597961281,0.404238894916264,0.404685416686156,0.404136523170232,0.403518169386089,0.402679676965016,0.798536342858061,0.381619316907151,0.383327332326118,0.375143550446632,0.36831654718372,0.368672905849174,0.369118964271262,0.368484127116056,0.363163428943457,0.362646337609308,0.362148191870901,0.348863201073791,0.348236546017298,0.346580781888912,0.798259640729955,0.342158201144221,0.341401373902838,0.341543100893757,0.353763445690867,0.353901975009658,0.353936199841495,0.35475503059977,0.35509340284412,0.355265743981866,0.35530960700963,0.358910484658676,0.361770732974792,0.36152666632253,0.362004057356379,0.566304332273152,0.361590321669109,0.360406793827656,0.366760318341866,0.367072830792609,0.366496099380043,0.366359370911356,0.366414230317957,0.367869958832634,0.367868024025493,0.368399659975563,0.367982416346667,0.36073381510872,0.359400405321562,0.357988094025008,0.35511173599445,0.353869495190638,0.352065628743217,0.350386023892667,0.349783628130088,0.34999526974953,0.355011660263227,0.35516250549811,0.959840684115244,0.416216090040177,0.362301847308731,0.36210900480707,0.36104106019654,0.360103254074412,0.545222972821718,0.378592287755683,0.373998039165808,0.374220841447923,0.374133501965396,0.385066218757474,0.385683690935682,0.386116620095924,0.393048828634908,0.866687550843126,0.866166954669216,0.571654764338562,0.571936634147966,0.437022055941705,0.58691359302491,0.44660011992663,0.422596481068242,0.36759112415166,0.467779874730033,0.545964868796071,0.363818810964125,0.364443823335049,0.36492924260947,0.44661621918867,0.370907865312076,0.37166983133259,0.433754322858443,0.435253182340724,0.433723492399817,0.435708208611639,0.403770076479511,0.402151755448442,0.402583235738294,0.39739485628299,0.397462272514291,0.397395367152348,0.40468152759875,0.404383598588313,0.479336284493047,0.477320231662094,0.488979667016914,0.405418931579438,0.471413899239389,0.459545319909338,0.474712907490739,0.387785368178129,0.353208808413372,0.353686083172415,0.413765160181244,0.509159190316819,0.471083177411285,0.471115697491871
0.321232298325312,0.320279610197229,0.320221231539982,0.320175645406165,0.320386359883207,0.319572191713559,0.318492125578278,0.319792848453886,0.322784034176545,0.324501059755017,0.327566456825665,0.328406913520275,0.329031636923242,0.328898384270654,0.328345010127213,0.327221971833229,0.325571960202919,0.323236459504313,0.320376249410823,0.319249021740286,0.31729793295225,0.310081933509973,0.310652137674147,0.312126782475639,0.31380886976344,0.314261218945456,0.313469101796636,0.312582675480233,0.31151102975712,0.3102032254472,0.308775133250087,0.307784536131737,0.307201952916574,0.306967302228249,0.307141996033135,0.307326583877637,0.307705366132019,0.308295539685066,0.308636018628053,0.308705602970436,0.308771540143866,0.309746397487929,0.48844276528405,0.501667008727559,0.539888984239923,0.541865658443495,0.465676809721682,0.437811189769489,0.475175046695078,0.447099358891563,0.404590987823304,0.404083943168599,0.404194989608985,0.404271534282595,0.40396603272383,0.403212334147058,0.402307303776709,0.40117653940223,0.388158851101928,0.386253648926544,0.375086901927259,0.374421542500399,0.372444929126946,0.371392331514936,0.370897140723846,0.362643268735481,0.363079838284703,0.363520817613708,0.366314498594915,0.39653918335942,0.424381677292725,0.452196980874004,0.401893546057108,0.356472054725453,0.35621220012264,0.355466587029219,0.355038568923479,0.354895509629138,0.354968427719769,0.354999100308576,0.355615047864963,0.356702684464726,0.359640772213027,0.36144465645013,0.362046939158794,0.362552360215864,0.363411594261703,0.365397445873831,0.366814202560921,0.367743590113465,0.367617990304693,0.367265542239707,0.367035651146697,0.367481090925725,0.368153752426044,0.368673199048459,0.369797013021721,0.369874596666966,0.363432338644891,0.36061514354324,0.358992010875287,0.356838433124479,0.355185857510999,0.354021253597981,0.352962906748774,0.352513341796168,0.352723623300626,0.354511162788611,0.355109790610649,0.396464801697726,0.403695865594767,0.396035071529581,0.386807359261147,0.369354626891662,0.370206053845125,0.37415997541978,0.375394148538003,0.375396626601142,0.374693895349944,0.375761514715635,0.420045561217795,0.446945844329999,0.474085030417072,0.501539456714681,0.640851999090604,0.640480978552623,0.602619094958216,0.505728940138061,0.438945891465444,0.44107753781336,0.443629382934366,0.440125819232892,0.427691620637862,0.44307173050491,0.487048362124728,0.458702977402247,0.431883357783574,0.431951770154004,0.432295455795873,0.433342111389665,0.434075496479354,0.434293329922281,0.434676162121031,0.434254261703865,0.439114017396933,0.441931038950514,0.447824967447526,0.454015890316683,0.460336475923323,0.465966507043452,0.469186393531914,0.470756120264864,0.473089059057818,0.47942297496179,0.48157503057517,0.48516473024528,0.479645759290215,0.471516116699628,0.471706053252292,0.473241691508213,0.464586571673888,0.456913791185199,0.463488741670968,0.472820898280427,0.493295867065506,0.482450769703649,0.477377263438438
0.318335737809259,0.319503314885777,0.319349992846195,0.319656009958915,0.319394385882658,0.318789200009541,0.317390126798678,0.317415618181045,0.32605072749664,0.325798180132826,0.326377440668067,0.328948556519936,0.329506341473036,0.329743305539062,0.32903257039379,0.328247122852871,0.326873753741351,0.325633752061968,0.319161191749668,0.32023430692842,0.320379146450343,0.308594835384296,0.308905658353603,0.318038691099191,0.316766151647674,0.316179170528383,0.31392366154058,0.312437968211817,0.311559307224804,0.310344781032823,0.309358128609786,0.308310790333832,0.307268377414414,0.306834137042092,0.306510020498548,0.306357260861105,0.306585414887477,0.307866984112666,0.30856311604601,0.308806041337652,0.308818565284466,0.312589145876968,0.545275101342355,0.536004244956567,0.536278770818295,0.542129446629215,0.542483460232074,0.382173922504945,0.664644082896034,0.00406156939949481,0.391097389730689,0.403477482356297,0.403831650837618,0.404345990621025,0.403810197626198,0.403150365943743,0.402045072197379,0.400034905559091,0.390541111576552,0.747627793939643,0.376059292550283,0.375400900396032,0.37585445906736,0.37426400608482,0.372624253380322,0.361960427277756,0.363106440730123,0.362341671783013,0.369037379276444,0.432220820128786,0.795925659606113,0.796034748689051,0.795998456407601,0.356576162464794,0.356478126616514,0.356694880277465,0.355861130830176,0.355550254475873,0.355199472245967,0.353909311714189,0.355461037678379,0.355374882532381,0.361622972906615,0.362170065936931,0.362618640098967,0.362511740771368,0.362488547863206,0.371951679778858,0.371739856565365,0.369715855490161,0.368598996298482,0.368513841420275,0.376700168179192,0.377281901721273,0.377043780326827,0.375818221153066,0.374464482049991,0.37329344927644,0.367612215766315,0.362014556556462,0.360272959738879,0.357740608424922,0.356173717165404,0.355600671208334,0.355144924835343,0.354432651321577,0.354003582315548,0.355156227854361,0.355624134063197,0.356042381290246,0.444854662388113,0.798556770531948,0.459842064225309,0.367761050590572,0.370278801457395,0.372408624574202,0.372695865187011,0.381393455483485,0.372960680785605,0.378257324081657,0.477719724461243,0.577641823317401,0.55165202117371,0.55065415141018,0.641362368874893,0.640373838630508,0.647720002009818,0.428538906243802,0.428362128911799,0.416295243666615,0.487054453476897,0.487017930300923,0.403837507997199,0.403983327482022,0.599633939281134,0.540274833087538,0.432032200844612,0.431833640587461,0.431621112953536,0.461161207572621,0.512381845434916,0.513124133161565,0.397904983976974,0.412827480409684,0.493484438204193,0.477283440645248,0.494828738287374,0.494991871997573,0.49191826475921,0.522807029731973,0.487387445495139,0.520158637070441,0.543150202503957,0.500418351298195,0.500133466947399,0.509164609164618,0.499703068016383,0.470884356762056,0.469880069541201,0.495349719880598,0.490851477751625,0.436306733543014,0.468617759982087,0.511314910411581,0.522199548535394,0.521056088843303,0.492477945605204
0.317270712538602,0.317876555561631,0.318398038837086,0.318332104581712,0.317971750974061,0.317437302872166,0.316843702921665,0.316708594603161,0.326682210578992,0.326883993748432,0.327343051955413,0.328491765836787,0.329201979424574,0.329229220277746,0.328762477400157,0.327762804811011,0.326499788235944,0.324729372522569,0.321925622616483,0.321208459936005,0.320996395828555,0.320948528142447,0.32013785149792,0.318507284673555,0.316734592621618,0.31520922922082,0.313257847786902,0.311810488686949,0.311033395806728,0.310223461711278,0.30956907953757,0.308413474905862,0.307411369185284,0.307030234991569,0.30679856894364,0.306497397620076,0.306746875170406,0.307595345440955,0.308555251424602,0.310301015745775,0.311070333707661,0.312309395518742,0.355641881261036,0.385496735365447,0.448275514974969,0.542028933498225,0.542039761900615,0.459736721216488,0.430458715809521,0.387616049530685,0.388841032220899,0.403029352282,0.403441045231499,0.403580145185876,0.403263762631613,0.402604634672036,0.402062645965647,0.401584116937372,0.393246415666741,0.391325281233369,0.377600191555383,0.377079531907194,0.376499320776911,0.37529486516869,0.373877897824708,0.373068851113236,0.371828582177118,0.370251015784522,0.368092356173832,0.36596537090326,0.363920478595445,0.361249126025803,0.359832544781903,0.358574516221763,0.358131334318591,0.3579429157695,0.357382332821964,0.357740003134606,0.357734771105749,0.35855662111186,0.358152680549032,0.359421158216402,0.361073782218386,0.361764925102141,0.362008587704402,0.362134986385342,0.366208378881164,0.371908941757129,0.372077354648384,0.373499980534862,0.37545539325304,0.37730710447842,0.377220143063504,0.377035800221858,0.376377253952766,0.375190228616343,0.373309816851897,0.371727719751663,0.368712618594566,0.365002056776109,0.361845946871715,0.359251565411068,0.358241876206391,0.356395589941315,0.355103882926353,0.354087456223632,0.353496289831855,0.353827025066465,0.354601493912252,0.41791022080965,0.451675658687151,0.460284721111052,0.460840577494859,0.373259453863892,0.373073977880696,0.373634321041059,0.373886720167736,0.381225709923447,0.422382290846203,0.457418762140493,0.509985094876413,0.558578498313697,0.55108065793209,0.551127515934621,0.552144448255199,0.520880113438124,0.478446767776529,0.430534396840168,0.43047886296956,0.416151315714185,0.415950927411315,0.410977338775834,0.407379058741238,0.414388390888466,0.427376960224639,0.428416727575627,0.43112547372753,0.431681507653765,0.431652265115794,0.475596325354337,0.512548529596201,0.512726072358819,0.447580103943525,0.464155250916547,0.465464736094124,0.468335916824192,0.48059258978459,0.503528338321417,0.511988434775389,0.522717082490783,0.522887427397275,0.528499897516756,0.531970439279398,0.527181507566388,0.5194689107649,0.510748392657292,0.504048019775458,0.498487053648154,0.485526562966348,0.4904721669727,0.488591109026344,0.485337201537348,0.496167819185004,0.51543486796372,0.521694177981248,0.521240241502946,0.493170967100078
0.316082184795549,0.316749484468135,0.317731461238092,0.317659542261288,0.31628917708582,0.316322579708828,0.315874920884767,0.316036215757549,0.326764870329205,0.327439670456329,0.327267297114296,0.32885926532304,0.329096332819521,0.329535936891433,0.32868381054077,0.327725558509761,0.326474554069211,0.324936816633651,0.322632881705636,0.321703583505017,0.32156751312294,0.320936490934713,0.320255035703055,0.318985605662257,0.316290668608067,0.314699648377436,0.311955150328456,0.310729643573815,0.310289698637908,0.310234268255095,0.309974503816333,0.308678112417716,0.306623857862092,0.307364030284621,0.30687782606941,0.306280502056157,0.306102369863548,0.307344816323726,0.307700977408795,0.312649612094604,0.312921428769905,0.31340683716346,0.313170284917183,0.312447363914649,0.406797621913858,0.650747693469054,0.541700663042154,0.542464552029261,0.386151669293776,0.386432283069528,0.387966624323136,0.401832095780899,0.402759876234465,0.402983769552836,0.4025691629956,0.401848618623532,0.401211598384851,0.813840404368125,0.777785520664846,0.38796490443768,0.379595119958326,0.378988595124489,0.378074575668903,0.376877256734451,0.374385390054234,0.37316338765214,0.371742774067198,0.756781248902303,0.366738858232899,0.365284068126952,0.36389226156226,0.358494829144955,0.359171071291391,0.359339368088752,0.359306571498354,0.359335357458787,0.357994254824481,0.360155224084788,0.359956166147244,0.360341871602799,0.362278695655113,0.360939304391941,0.361766784990255,0.361238397989078,0.361537320168959,0.361962927094959,0.868970962420604,0.374740186474067,0.588434002807244,0.378240501216505,0.378210162553868,0.378226785041463,0.377247280740804,0.376658684803299,0.376454999603533,0.374826183079043,0.372662911173535,0.371398607003689,0.369429145113254,0.368251378259362,0.363493976164736,0.359103299507014,0.361022899746986,0.356521710271019,0.354757612882665,0.353116046981565,0.352193935405593,0.351704961071982,0.354785415610619,0.713175525055885,0.735179052109011,0.459396048440103,0.462192863583318,0.372671596187731,0.374644750380354,0.375338638161638,0.375507589750745,0.381820581795774,0.557909281852992,0.564727943737111,0.56427088874434,0.564579260500218,0.495099032285582,0.659485166708923,0.553317154857643,0.432340881760605,0.432911430277061,0.432679474495676,0.432495562001497,0.416836673389649,0.416248863839188,0.409353195734387,0.402012401467616,0.425681119540948,0.42619564131315,0.426238419745787,0.432401169787105,0.432050035463335,0.431603445504872,0.512820958276782,0.512415019837317,0.512379858710352,0.425973546721115,0.490209990526654,0.46008636710483,0.467386024617905,0.467842079187641,0.529003119466377,0.527098766340588,0.527710781879238,0.522997251783761,0.544248913922213,0.544351044530002,0.542355335542934,0.540962574051044,0.54711765800446,0.54660292696352,0.511757812391344,0.480093270316421,0.490075375068551,0.499391082475797,0.483387600988579,0.501149243838179,0.560266372462804,0.537731139546013,0.538670936376391,0.494176253549267
0.315911463529646,0.31591618726458,0.315996350657952,0.315703321219761,0.315612890779721,0.31552646784539,0.315382694012708,0.321410359148797,0.327186157437258,0.327184624011127,0.327492503151048,0.32786499256538,0.327963165313184,0.327600833076473,0.326759544924893,0.325820077868171,0.325476409679426,0.324090538252417,0.322406684068452,0.321607787776477,0.321192856887921,0.320521830472115,0.319493792975197,0.31733009917004,0.314478954729013,0.313080134428342,0.311789925203234,0.310787452381042,0.310379471215621,0.309895798240575,0.309359562628776,0.308229285558747,0.307451933798128,0.307255310109635,0.307158192207549,0.306955401513854,0.307140152239741,0.307673930224965,0.308476258767596,0.310583204196497,0.31141275780274,0.311691582697415,0.311458788490853,0.311178094800212,0.447580508304666,0.474820840190429,0.50232188439171,0.437936505844907,0.385348199569997,0.385724721933256,0.386756023466873,0.393053374889557,0.403822526581294,0.403488721560394,0.402582846118728,0.401188945071057,0.4564487061305,0.484461408396875,0.517801450130486,0.389055282446937,0.379441993474794,0.378876872761439,0.378253432779099,0.377070333672368,0.375181017099044,0.373558815290401,0.372266310137491,0.371481013510109,0.366753615874481,0.365857164778336,0.364361362248862,0.36216500399852,0.360865331270295,0.360279107967032,0.359959533014432,0.35993277790723,0.359941821686414,0.360531712201066,0.360681295982354,0.361264519615349,0.362503113880946,0.362861672980742,0.363651926057563,0.365629653217374,0.366830812501987,0.370806125666081,0.378501538626002,0.378287318313975,0.378470257809939,0.378221343858406,0.378062045694378,0.377892820027361,0.377152685212979,0.377128228429232,0.376832387414596,0.375876585907287,0.374813036408516,0.373398214241968,0.371091067341565,0.369835006795827,0.367116575861894,0.364671145678076,0.36194061766086,0.359913372327597,0.352387023410959,0.352048727095858,0.352039167435395,0.399019897487746,0.428742236704078,0.490061531146051,0.461943797009115,0.434236940235498,0.410537112207913,0.373436879161538,0.374390984863237,0.375446860655764,0.37565685310827,0.382318430191066,0.39599376833366,0.408188301202194,0.416056053899014,0.420511577565786,0.423792607421927,0.428110760251448,0.437329570005699,0.433148211416474,0.433475188773092,0.433424184092573,0.433114553952734,0.425276371085397,0.421652864841203,0.41736224149808,0.413058025028782,0.423872768380158,0.428564423481425,0.43117566541145,0.436010365972075,0.443571643699153,0.450497470349994,0.462280364943952,0.459245797109621,0.457480380840782,0.456887160648756,0.485419206150081,0.478925815865061,0.471161081040227,0.490671494440081,0.512969238006858,0.531531689182958,0.534237553014953,0.536041005615455,0.544412053842433,0.544055649745447,0.543331407192864,0.541086090964282,0.540585546420913,0.539155297181445,0.529680684793838,0.510631516465767,0.511042357073401,0.512390727402775,0.514654758931209,0.537547530459635,0.550596133688326,0.547278723243129,0.544072426158103,0.502562941732543
0.315532757479222,0.315178752490196,0.314497825366252,0.313616867727825,0.314626276665874,0.315089089153981,0.314898246549183,0.327504238137139,0.327236986543425,0.327398880591922,0.327575168165129,0.327518228963325,0.32691349883749,0.326435764596008,0.324718722859355,0.32347089864153,0.399998924984422,0.323572591612972,0.321290568724104,0.321142196125209,0.321074082618719,0.320415733715511,0.320292632206342,0.311258611137625,0.311690907573487,0.311679013104828,0.311023611832162,0.310622154725013,0.310106580487941,0.310079427721282,0.308845132278069,0.307920635153924,0.307220930459985,0.30749671127796,0.307122138463864,0.307577571107656,0.307501435606801,0.307972745385289,0.307806367983139,0.309842583341261,0.310353147110705,0.3105864651976,0.309852853067119,0.309717627767466,0.650276928439021,0.327234590597579,0.558695023750227,0.400898206771142,0.384272124648995,0.384790413066397,0.386962666227124,0.386564943067182,0.778066964681211,0.778490693000903,0.778722878719111,0.398503185200059,0.81469741849461,0.398722629191956,0.814963906785773,0.389374332995656,0.380152056973031,0.379157714684905,0.378693265032128,0.378289247201499,0.3754943178817,0.373937507524321,0.372684619368611,0.371616764617177,0.367276490034682,0.366449887640886,0.365189925668834,0.364099776115245,0.361787247204111,0.36090803888845,0.360161279204759,0.360480288590046,0.361269487599514,0.361323693245135,0.360990891387832,0.361533697945025,0.363977003453937,0.364260883958286,0.364652074639072,0.366959674292008,0.368392735668559,0.379695265909642,0.379140879371603,0.397163253448066,0.378464472240454,0.377962355620205,0.377910473037544,0.378011089009107,0.37671024909786,0.377359443185417,0.378273566151613,0.376638479897482,0.377293980718011,0.37720133563821,0.376812834208217,0.371956633746852,0.371212054758792,0.368789819184495,0.361848975923898,0.361192688590136,0.349773282249987,0.350796363866308,0.351701355693114,0.716206162623977,0.716172116499625,0.774606251430015,0.371822942495275,0.37255615109259,0.372867104964131,0.373117177360898,0.3738880393761,0.376205061956371,0.376300487662128,0.383102686019028,0.383435575495303,0.38373793736186,0.384195781114381,0.39542530309024,0.396218369459615,0.395506861043543,0.44526226968013,0.432768956648008,0.433326314470195,0.433846335159981,0.433461034654176,0.428971283387126,0.428399990300694,0.427806438015108,0.407749562832734,0.422622430083885,0.4341304169223,0.433479920000875,0.606240434722332,0.458428663793357,0.457843229455892,0.464822725640022,0.45808126315997,0.456280453709917,0.455853226929379,0.55792805744888,0.485284320014833,0.465432279280341,0.5129572217746,0.493362009487241,0.538094851236225,0.538464413773818,0.53826684227584,0.544668565317133,0.59931211459963,0.624281922709162,0.526725409744366,0.528465187109135,0.537135402207427,0.536849644518397,0.51081577199007,0.603419497626605,0.603451827340581,0.51740001350749,0.610491613403568,0.609764134817203,0.607903906477178,0.567603332694169,0.509704633030806
0.313781960054885,0.313165511317869,0.312956111824597,0.313609719482927,0.31486003177984,0.315332771244588,0.315255763427871,0.327036004515067,0.326987165494556,0.326606315120176,0.326290748541267,0.325852044215694,0.325608164911995,0.324925362547494,0.324004175999993,0.322947254685864,0.32204913631265,0.321655911521311,0.320786688734172,0.320446304165544,0.320060828653636,0.319925118083457,0.32049447754698,0.311706638586817,0.311616368612791,0.311366020984852,0.310964068404394,0.310418981483796,0.310105192579986,0.309547578043636,0.309116564170751,0.308193169901751,0.307753901350944,0.307382982620955,0.307483563221989,0.307584709447312,0.307601813472725,0.307718222194939,0.308079098842445,0.308998147883534,0.30964737368823,0.310173076758625,0.310366161759975,0.310251675608098,0.410367957989147,0.375312176614971,0.397227390232474,0.394282038228318,0.391542274641921,0.388954123114606,0.386585521385957,0.386159943110589,0.452855850408386,0.510880766538589,0.466835804695759,0.404951680915325,0.400858502905296,0.398065699328046,0.39719817188305,0.392066160840802,0.388655371709811,0.385854721169737,0.383363390313524,0.380931698203706,0.375810561231186,0.374830486890987,0.372496450136453,0.370897969198926,0.368895216622899,0.367556606792299,0.366454951315329,0.364908604611493,0.363591798742442,0.362657383635465,0.362123938789937,0.362115833956404,0.362431672913776,0.362858215768664,0.363281927567074,0.363134096548537,0.363409627019913,0.363611936383827,0.363717980610182,0.369671364877297,0.371150433018874,0.380827611809069,0.381065644002096,0.381745681683749,0.381924362617136,0.381988855272275,0.380954320119903,0.380378012745498,0.38022092482603,0.379638404542467,0.379629214503605,0.378598445971256,0.378000230497781,0.377792504414339,0.377297001985791,0.374672803354246,0.372762644510599,0.372384348952924,0.372961152919273,0.40631458609667,0.429719868185848,0.453937336947032,0.479205896760402,0.505708961873703,0.447887385998345,0.420082178466661,0.371939740520989,0.372415766808512,0.372782132024735,0.373189091669649,0.373805994075225,0.375101404255936,0.376986317854811,0.380474608608888,0.382703844592256,0.383473957401214,0.385044035222953,0.391290193123964,0.392881610444373,0.394210715003928,0.401180061624103,0.409119908380268,0.417177171155961,0.426089896935602,0.426562140479555,0.42770147735636,0.427947699819074,0.427983998041696,0.431522371899496,0.434049601753856,0.450203684016582,0.465549131330185,0.476039364234454,0.47637814638755,0.476229996469929,0.476362334135968,0.477110643617519,0.478377120547399,0.479505294994387,0.480133903069472,0.480957329537764,0.480261799927545,0.493424896382258,0.508374129300435,0.527440209917221,0.551767258411897,0.565326693373509,0.580889907877753,0.592800272360591,0.58851254455131,0.573605756511725,0.560574355890778,0.536408507561824,0.536917896822419,0.537434889685525,0.602252030348216,0.603232694529066,0.604056743113163,0.610551332689348,0.610299893660432,0.586610478985096,0.577893296007012,0.551151292089077
0.312141030739689,0.310689444866599,0.310597451397198,0.312600142298976,0.316206219610574,0.31610633732466,0.315407614350397,0.326087412463257,0.326586455251915,0.32589817740797,0.324833247034156,0.324300849062836,0.324413226689929,0.323911648365954,0.323233238746592,0.322395772484345,0.321521256565749,0.320244788189544,0.319793858923316,0.319774101595127,0.318685344563977,0.318271692620463,0.660427625299621,0.312239440011238,0.311772922630998,0.311612370616986,0.310713348222667,0.31038228169028,0.309841159426145,0.309409847535627,0.309331082565006,0.308521409391126,0.307700134746639,0.307281430120132,0.307405729042325,0.30805089749983,0.307259766850076,0.307438920027737,0.307582645559095,0.308519136633362,0.308979135895353,0.310160948947883,0.31119782137922,0.31073089907115,0.540272976026634,0.325180642972417,0.400331520506492,0.340173625217996,0.480413391822805,0.790670759880916,0.384786360823934,0.382284141660403,0.390235664120479,0.755001255682236,0.410431681588334,0.410358067530991,0.397788814107038,0.396743999932847,0.395479650667026,0.394203928217839,0.392518867965933,0.387223974467399,0.385200623305185,0.384268956639556,0.375585954596708,0.376747947413,0.371437502154406,0.371174430036797,0.369371788824981,0.368580181721416,0.367834337944288,0.365700033033862,0.364752101584338,0.364167536636666,0.363339022082248,0.363595811595016,0.36328009441525,0.364458285213905,0.366107314625559,0.364122375771107,0.363058717527912,0.363299298305484,0.362958303925939,0.605804025325654,0.507315709801057,0.74367596757313,0.382054162522251,0.382640597518635,0.384578749502172,0.386342667226378,0.386975875380429,0.387216061071177,0.386684552063699,0.384887449797682,0.381848727112732,0.379657255029235,0.378240981880805,0.378927095874249,0.379905957878798,0.379037578394708,0.372633243156539,0.371894530462439,0.373581371816004,0.490815254935049,0.491180304054203,0.506956443112181,0.615738374548819,0.67687561690122,0.367286881617326,0.366326642150374,0.371975776415094,0.37267481889766,0.372643203601531,0.373106323277048,0.373018631395403,0.37350628041346,0.375504949270679,0.373282754332861,0.372024196863618,0.382565381931543,0.387433980075666,0.389191638937419,0.388464788898907,0.387739866263989,0.388568019959734,0.398785621501543,0.404049274035544,0.425213947391252,0.425786580719185,0.426994484135832,0.427093186649862,0.426971136587392,0.439790768885402,0.437332956200526,0.589431244705185,0.474848147654761,0.475067842433905,0.48863920966819,0.511849088878574,0.48304392981497,0.489025686603336,0.563860101290899,0.563651749547179,0.478952530513639,0.465558057333248,0.478253596744327,0.477623664370721,0.519640430606329,0.518140655503102,0.600472704367846,0.600729517816197,0.600580791288379,0.606359643004567,0.584115788251734,0.584097766916497,0.573869591058177,0.534985399589491,0.563728743370845,0.537994239619837,0.599615899072076,0.58837190808808,0.639569050410012,0.639589941323733,0.63852414027414,0.56030963648205,0.633047071914415,0.632865526555972
0.312080375112048,0.312409443740939,0.312263521557312,0.314778685164633,0.317111661025167,0.319185865209608,0.321571941298522,0.323316700872874,0.324084486401803,0.323518047942862,0.323143387201608,0.323167042360913,0.323734900139788,0.323369601072839,0.322752028677541,0.321708014952726,0.321099848820346,0.320600297891447,0.320171068600708,0.319704607688465,0.318857371683893,0.317855147337747,0.316475287788652,0.313160354839836,0.312201681620698,0.311366646481107,0.310701261696946,0.31001382673265,0.309395002796982,0.309011860312082,0.309415550256241,0.309229397620596,0.309370948900176,0.30912462056222,0.309016681609433,0.308378479113674,0.307937018786963,0.307845213564725,0.308187191657528,0.308844560798382,0.310209435984374,0.311112502533368,0.311547122963968,0.311487391060291,0.347436658193398,0.355081454161372,0.370259397829956,0.379156000193524,0.420660866416247,0.461939160156552,0.451752611025109,0.440559392486948,0.42668777170743,0.473569879736656,0.456120247881524,0.438271962555916,0.396233088896429,0.395855506842653,0.394989361231227,0.393993449346728,0.39261537570818,0.390601283406615,0.386203264773138,0.38546033829856,0.375555563950787,0.375372347142611,0.372762341460382,0.36986148928975,0.369084778818659,0.36859125091769,0.367964725286332,0.366779812738899,0.365965271876528,0.365066622507605,0.364736435830545,0.364546674351322,0.365247544964175,0.365657052281741,0.366599304415951,0.368515884786425,0.370803721987345,0.372928061064767,0.374323368653395,0.377913993906494,0.392268819083419,0.392350369664894,0.391869026217769,0.390648299375931,0.387892541330135,0.38693126414228,0.386792032781988,0.386914227105497,0.386360571123715,0.385248975733342,0.383694788751647,0.382463318214309,0.382048847498498,0.381391105136896,0.381147107137474,0.379917281827766,0.379658934593595,0.379488332491933,0.419406088391503,0.445737727755967,0.491114293532192,0.496941316298356,0.501602395079387,0.505845786518926,0.470229163514049,0.443568831629493,0.416913478409937,0.372006557876259,0.372186225060558,0.37241971967877,0.37273874903421,0.373289098290203,0.373701096924599,0.372358396783577,0.371812043360254,0.382063679146986,0.388158647537673,0.388888794984095,0.388460171942425,0.388154035710247,0.388302873143909,0.3981553163823,0.39942831581398,0.425012241075668,0.425328508262811,0.426046639253974,0.426305752778301,0.442172166519158,0.449615379247505,0.45771574241902,0.470788698602195,0.477473981027305,0.489285120486368,0.497695053900815,0.514428496354581,0.516755321660179,0.518448342256292,0.56307080717707,0.563001397756993,0.507652426418099,0.508496830666636,0.50889297340874,0.517840865197728,0.520179658094725,0.52539591153758,0.575498210053464,0.601206345354242,0.601414941057051,0.602236344933014,0.598382795084679,0.594562107352029,0.591424627830431,0.589445969780898,0.588716788169169,0.588666596985678,0.60941936145005,0.625728850219307,0.639345644109883,0.639242317682099,0.638597329035556,0.637560246126609,0.635667568956921,0.620578106568626
