0.994029, 0.990009, 0.990577, 0.992476, 0.993008, 0.987895, 0.997339, 0.999523, 1.00002, 0.987655, 0.97778, 0.977047, 0.974993, 0.993062, 0.980306, 1.00113, 1.00193, 0.999331, 1.0131, 0.997556, 0.994407, 0.979345, 0.983266, 0.991083, 1.00668, 0.963575, 0.962923, 0.973976, 0.973537, 0.973524, 0.973009, 0.972438, 0.970247, 0.981479, 0.980232, 0.981207, 0.984482, 0.99245, 0.974909, 0.974668, 0.976474, 0.969891, 0.969621, 0.967947, 0.965973, 0.962231, 0.959797, 0.955839, 0.9544, 0.942028, 0.939405, 0.934952, 0.932208, 0.924312, 0.923857, 0.91985, 0.919972, 0.921184, 0.922816, 0.923348, 0.923969, 0.9232, 0.926384, 0.926187, 0.925242, 0.911979, 0.913525, 0.91632, 0.914619, 0.913712, 0.912508, 0.911492, 0.913938, 0.913235, 0.909107, 0.909442, 0.908571, 0.906811, 1.16558, 0.91936, 0.921262, 0.919014, 0.904243, 0.904389, 0.904147, 0.90729, 0.922554, 0.92445, 0.921899, 0.922688, 0.923588, 0.92361, 0.924662, 0.926773, 0.926675, 0.914732, 0.919553, 0.918705, 0.917041, 0.913671, 0.914671, 0.915036, 0.918308, 1.05065, 0.923871, 0.9147, 0.87783, 0.895708, 0.89698, 0.897268, 0.896076, 0.897007, 0.896197, 0.892749, 0.892492, 0.882417, 0.881612, 0.884851, 0.863506, 0.887906, 0.900505, 0.892527, 0.904656, 0.894676, 0.897737, 0.877922, 0.901626, 0.897694, 0.905543, 0.924204, 0.927671, 0.927188, 0.926277, 0.926595, 0.928401, 0.928367, 0.926899, 0.963373, 0.924056, 0.925487, 0.932193, 0.932819, 0.918513, 0.916483, 0.941823, 0.900929, 0.915679, 0.926181, 0.940258, 0.945342, 0.954352, 0.962988, 0.962997, 0.964561, 0.964991, 0.968388, 0.96829, 0.967959, 0.976918, 0.974777, 0.975749, 1.36826, 0.974412, 0.970898, 0.960067, 0.960392, 0.961439, 0.966412, 0.967551, 0.967777, 0.966236, 0.960531, 0.956204, 0.956275, 0.956123, 0.957558, 0.959596, 0.962854, 0.964057, 0.964971, 0.965055, 0.966418, 0.971153, 0.96975, 0.96272, 0.961768, 0.959388, 0.95904, 0.956141, 0.95358, 0.954538, 0.952076, 0.950703, 0.954611, 0.952865, 0.952558, 0.956273, 0.958031, 0.96143, 0.966961, 0.963421, 0.964894, 0.965983, 0.972576, 0.980206, 0.982288, 0.986363, 0.98451, 0.985928, 0.990532, 0.991571, 0.990835, 0.992755, 1.11527, 1.15406, 1.06625, 1.03932, 1.03924, 1.04476, 1.05163, 1.0515, 1.04306, 1.04588, 1.18102, 1.17718, 1.09934, 1.10188, 1.11832, 1.12847, 1.14313, 1.14037, 1.1544, 1.15432, 1.14445, 1.15953, 1.15965, 1.15645, 1.16065, 1.15896, 1.15948
0.988675, 0.990875, 0.990849, 0.994348, 0.993678, 0.988729, 0.9937, 0.994729, 0.990468, 0.989883, 0.983842, 0.982669, 0.995516, 1.00115, 1.0018, 1.01215, 0.998002, 1.00808, 0.990621, 0.990387, 0.987906, 1.00771, 0.98939, 1.01941, 1.01493, 0.963407, 0.96283, 0.961894, 0.973455, 0.973143, 0.97328, 0.971226, 0.977462, 0.973364, 0.977194, 0.991808, 0.992278, 0.981399, 0.985868, 0.983423, 0.970528, 0.970076, 0.967831, 0.967245, 0.965774, 0.963608, 0.957653, 0.956987, 0.952398, 0.944362, 0.936188, 0.934846, 0.928663, 0.922473, 0.923135, 0.924228, 0.919278, 0.921667, 0.922312, 0.922149, 0.921968, 0.92772, 0.92928, 0.927376, 0.924449, 0.922804, 0.916597, 0.916329, 0.914686, 0.914726, 0.913768, 0.913751, 0.912172, 0.913436, 0.913848, 0.909705, 0.908661, 0.90937, 0.92112, 0.920685, 0.920327, 0.899882, 0.901991, 0.904501, 0.904492, 0.904319, 0.921123, 0.926877, 0.926044, 0.925223, 0.926006, 0.926858, 0.928482, 0.929722, 0.928893, 0.922571, 0.917067, 0.916833, 0.918036, 0.918736, 0.919146, 0.918926, 0.921201, 0.921213, 0.921439, 0.922288, 1.06359, 0.925374, 1.28782, 0.90405, 0.897379, 0.948777, 0.898266, 0.900034, 0.914115, 0.914211, 0.901115, 0.892938, 0.874806, 0.883588, 0.886133, 0.886129, 0.89898, 0.88904, 0.898945, 0.905244, 0.928647, 0.890513, 0.894625, 0.900873, 0.918342, 0.936408, 0.912912, 0.916558, 0.916174, 0.940014, 0.931192, 0.925803, 0.925131, 0.941241, 0.940808, 0.94078, 0.906317, 0.907689, 0.910355, 0.910712, 0.946922, 0.949742, 0.950958, 0.957528, 0.964322, 0.965064, 0.966502, 0.966583, 0.968003, 0.969946, 0.971363, 0.976728, 0.976976, 0.978721, 0.980797, 0.980749, 0.981297, 0.962473, 0.963013, 0.960073, 0.959767, 0.963736, 0.962744, 0.962437, 0.957371, 0.956334, 0.956907, 0.957458, 0.957723, 0.961672, 0.962547, 0.962438, 0.963708, 0.96432, 0.96598, 0.966903, 0.971133, 0.969827, 0.962115, 0.96287, 0.963042, 0.962389, 0.95965, 0.956326, 0.957518, 0.956504, 0.956337, 0.951984, 0.952798, 0.952752, 0.956113, 0.959551, 0.960074, 0.961041, 0.96254, 1.12647, 0.979048, 0.980269, 0.980132, 0.985326, 0.987055, 0.987014, 1.20911, 1.00038, 1.12651, 1.12719, 1.13901, 1.113, 1.03698, 1.03885, 1.04069, 1.03977, 1.0445, 1.04931, 1.04955, 1.04553, 1.12237, 1.17849, 1.17819, 1.21093, 1.31679, 1.3024, 1.18574, 1.20443, 1.14212, 1.14823, 1.15634, 1.15634, 1.14584, 1.21645, 1.19416, 1.16081, 1.16408, 1.15773
0.98512, 0.984182, 0.981317, 0.982934, 0.986843, 0.989124, 1.00415, 1.00203, 0.98531, 0.988861, 0.984207, 0.997444, 0.995429, 0.984017, 0.983579, 1.00444, 0.99784, 1.00938, 0.990783, 0.987816, 0.985406, 1.01704, 1.01032, 1.00979, 0.979696, 0.987491, 0.966466, 0.966453, 0.976424, 0.977093, 0.974792, 0.9766, 0.989549, 0.973586, 0.988234, 0.990474, 0.987573, 0.973334, 0.973227, 0.973043, 0.970076, 0.969271, 0.969106, 0.96726, 0.966772, 0.964822, 0.963449, 0.955978, 0.950091, 0.946121, 0.934188, 0.922433, 0.923511, 0.922472, 0.922898, 0.923484, 0.920688, 0.920784, 0.921618, 0.92156, 0.9223, 0.923883, 0.929489, 0.928576, 0.926353, 0.923725, 0.922732, 0.919783, 0.919407, 0.91816, 0.9152, 0.915001, 0.914795, 0.914802, 0.913217, 0.911231, 0.909955, 0.915069, 0.921651, 0.921457, 0.904284, 0.901385, 0.901397, 0.904277, 0.91378, 0.915792, 0.921768, 0.923272, 0.92357, 0.924905, 0.927893, 0.928396, 0.932137, 0.931948, 0.931776, 0.92386, 0.915127, 0.913693, 0.912652, 0.920237, 0.922215, 0.924523, 0.924848, 0.921938, 0.922747, 0.927339, 0.92793, 0.927137, 1.20593, 1.2051, 0.925985, 0.904457, 0.898269, 0.948625, 0.928671, 0.928958, 0.927484, 0.891071, 0.888501, 0.879237, 0.893565, 0.908499, 0.889353, 0.911187, 0.908165, 0.915769, 0.909209, 0.912048, 0.91932, 0.892296, 0.896594, 0.898263, 0.926439, 0.909145, 0.918736, 0.91568, 0.918516, 0.930188, 0.942821, 0.939283, 0.94041, 0.937197, 0.91721, 0.917792, 0.925753, 0.924885, 0.945891, 0.960936, 0.962964, 0.964092, 0.968451, 0.969006, 0.971071, 0.97142, 0.970254, 0.97471, 0.976341, 0.980136, 0.983184, 0.983419, 0.982746, 0.984169, 0.985064, 1.09627, 0.966433, 0.963259, 0.963108, 0.963677, 0.96452, 0.957868, 0.957385, 0.957799, 0.957522, 0.96168, 0.961108, 0.962725, 0.963956, 0.965734, 0.967237, 0.969501, 0.973415, 0.979373, 0.97642, 0.960655, 0.96286, 0.967415, 0.970129, 0.96854, 0.967807, 0.960984, 0.960625, 0.960971, 0.954256, 0.952814, 0.952905, 0.949855, 0.956817, 0.954564, 0.958031, 0.959518, 1.34506, 0.974415, 0.978258, 0.980082, 0.977016, 0.977261, 0.989863, 1.00228, 1.13069, 1.0087, 1.00378, 1.12915, 1.07718, 1.0769, 1.03866, 1.03954, 1.04244, 1.04388, 1.04794, 1.04777, 1.04659, 1.04805, 1.10529, 1.1483, 1.21698, 1.19552, 1.25286, 1.20612, 1.30617, 1.36535, 1.20151, 1.376, 1.15365, 1.15544, 1.14135, 1.14056, 1.14606, 1.19457, 1.13311, 1.14226
0.977336, 0.98072, 0.977155, 0.977657, 1.00119, 0.999228, 0.971727, 0.971526, 0.971619, 0.981116, 0.981817, 0.982509, 0.97964, 0.984528, 0.986362, 0.998795, 1.00301, 1.01245, 0.997074, 0.998432, 0.997137, 1.01213, 1.00746, 1.02048, 0.990823, 0.985839, 0.966576, 0.973473, 0.978444, 0.9766, 0.974804, 0.975295, 0.975369, 0.987706, 0.986648, 0.984052, 0.973039, 0.972128, 0.970849, 0.97074, 0.969629, 0.969547, 0.968563, 0.966802, 0.966025, 0.963677, 0.962315, 0.953654, 0.952657, 0.939469, 0.93539, 0.928351, 0.92496, 0.923812, 0.921818, 0.920581, 0.920366, 0.919649, 0.920251, 0.920331, 0.921546, 0.923459, 0.928204, 0.928682, 0.927248, 0.925018, 0.925157, 0.923863, 0.922697, 0.920505, 0.919509, 0.91843, 0.914751, 0.913894, 0.91248, 0.912727, 1.0355, 0.915534, 0.915569, 0.90575, 0.902735, 0.901281, 0.902475, 0.913325, 0.914465, 0.916672, 0.921568, 0.921237, 0.9214, 0.927523, 0.928275, 0.92943, 0.932513, 0.932791, 0.930716, 0.924225, 0.915125, 0.911528, 0.911211, 0.921495, 0.926159, 0.928259, 0.927199, 0.928229, 0.92608, 0.931077, 0.931746, 0.932061, 0.932372, 0.933178, 1.04127, 0.00445983, 1.17549, 0.933396, 1.07259, 1.2021, 1.1374, 0.985372, 0.886217, 0.886601, 0.917979, 0.921048, 0.964349, 0.933856, 0.918098, 0.954581, 0.930926, 0.963818, 0.923119, 0.912671, 0.89894, 0.925243, 0.930032, 0.914703, 0.907718, 0.913686, 0.914282, 0.945929, 0.945983, 1.00091, 0.939374, 0.939307, 0.952952, 0.955693, 0.956242, 0.95808, 0.960171, 0.964727, 0.964663, 0.967287, 0.968589, 0.971289, 0.972875, 0.974812, 0.976826, 0.978785, 0.980606, 0.9834, 0.983622, 0.985163, 0.987282, 0.986947, 0.986594, 0.979666, 0.973384, 0.964668, 0.964829, 0.961256, 0.959585, 0.95996, 0.959736, 0.960372, 0.959641, 0.960377, 0.959374, 0.960361, 0.965615, 0.96584, 0.966413, 0.969957, 0.97784, 0.979932, 0.980575, 0.963727, 0.963758, 0.974801, 0.973977, 0.974268, 0.970492, 0.963092, 0.96252, 0.961248, 0.955097, 0.956204, 0.952499, 0.954178, 0.952998, 0.953913, 0.958232, 0.967905, 0.976609, 0.980367, 0.980528, 0.980046, 0.980158, 1.0798, 1.00239, 1.12361, 1.01485, 1.01577, 1.0181, 1.01979, 1.02194, 1.07484, 1.0768, 1.28178, 1.06717, 1.07417, 1.07635, 1.07779, 1.05734, 1.17532, 1.17859, 1.18582, 1.25727, 1.22711, 1.30549, 1.15762, 1.26399, 1.17876, 1.18651, 1.18196, 1.18069, 1.17842, 1.15344, 1.14079, 1.14261, 1.13347, 1.13362, 1.1347
0.963632, 0.98437, 0.96563, 0.991118, 0.97426, 0.975345, 0.973212, 0.974025, 0.975311, 0.980728, 0.981095, 0.981239, 0.983583, 0.985261, 0.988939, 0.990814, 0.993148, 0.982773, 0.984875, 0.98432, 0.988058, 1.00463, 1.01649, 1.02636, 1.00878, 0.974043, 0.975059, 0.97807, 0.979199, 0.977902, 0.977552, 0.975196, 0.970358, 0.971389, 0.970455, 0.971267, 0.969783, 0.970092, 0.96899, 0.966142, 0.969266, 0.968782, 0.968612, 0.96833, 0.967092, 0.965907, 0.961513, 0.960013, 0.952348, 0.942885, 0.934493, 0.932335, 0.928396, 0.922119, 0.92164, 0.921444, 0.921243, 0.919739, 0.920399, 0.922834, 0.922504, 0.921146, 0.922682, 0.925564, 0.925172, 0.926261, 0.926585, 0.926384, 0.927411, 0.923019, 0.92222, 0.918224, 0.917812, 0.916075, 0.914944, 0.925913, 0.930022, 0.929656, 1.09091, 0.904101, 0.903363, 0.904444, 0.904026, 0.911087, 0.912972, 0.918359, 0.919655, 0.919616, 0.926601, 0.928162, 0.928957, 0.93033, 0.931232, 0.927369, 0.926553, 0.921512, 0.917534, 0.911485, 0.911166, 0.91034, 0.922445, 0.929354, 0.929491, 0.929944, 0.929853, 0.93237, 0.935852, 0.93679, 0.938151, 0.937378, 0.939636, 0.945194, 0.957177, 0.934179, 1.20452, 1.20435, 0.949926, 1.03034, 0.985625, 0.995409, 0.979613, 0.988091, 0.928585, 0.93248, 0.98647, 0.961246, 0.96242, 0.974714, 0.976841, 0.977259, 0.914818, 0.976785, 1.00436, 0.921585, 0.909685, 0.970249, 0.957429, 0.958047, 0.986015, 0.966664, 0.966531, 0.966886, 0.961489, 0.962717, 0.960008, 0.962437, 0.965763, 0.966511, 0.966938, 0.971396, 0.971441, 0.974916, 0.976594, 0.97905, 0.9799, 0.979852, 0.980855, 0.981887, 0.986855, 0.989528, 0.988794, 0.988899, 0.981283, 0.980854, 0.974108, 0.964576, 0.961559, 0.956792, 0.957069, 0.95933, 0.959969, 0.960304, 0.958542, 0.957091, 0.961472, 0.964082, 0.968536, 0.968265, 0.964514, 0.968228, 0.971371, 0.974089, 0.974642, 0.972511, 0.969816, 0.978421, 0.977784, 0.974508, 0.973825, 0.964864, 0.963319, 0.961925, 0.957595, 0.963074, 0.961725, 0.955385, 0.9539, 0.960657, 0.960328, 0.967739, 0.973896, 0.980133, 0.980757, 0.982189, 0.992999, 0.996854, 1.12529, 1.0203, 1.02128, 1.01862, 1.01639, 1.01775, 1.01834, 1.07545, 1.06355, 1.06997, 1.07065, 1.07535, 1.07594, 1.07084, 1.07087, 1.06809, 1.06956, 1.17831, 1.17838, 1.24974, 1.15414, 1.27137, 1.28598, 1.18781, 1.18773, 1.18885, 1.1852, 1.18247, 1.20123, 1.20147, 1.19664, 1.13201, 1.13275, 1.13671
0.962826, 0.962829, 0.959271, 0.95905, 0.954704, 0.956223, 0.955277, 0.973339, 0.976763, 0.985201, 0.977922, 0.985748, 0.98586, 0.988956, 0.990529, 1.00833, 1.0125, 0.987359, 0.988097, 0.984392, 1.02942, 1.00512, 1.02962, 1.02901, 0.981581, 0.981551, 0.984561, 0.983121, 0.982174, 0.979781, 0.974967, 0.975047, 0.973829, 0.978165, 0.987061, 0.965559, 0.964583, 0.967325, 0.963571, 0.965856, 0.966686, 0.96851, 0.969561, 0.96941, 0.967686, 0.96646, 0.963695, 0.954114, 0.951096, 0.943279, 0.936901, 0.933307, 0.923643, 0.922823, 0.921773, 0.92241, 0.919764, 0.920659, 0.921747, 0.924666, 0.922068, 0.92277, 0.924058, 0.924965, 0.925522, 0.924938, 0.925379, 0.927489, 0.927978, 0.926664, 0.924988, 0.918534, 0.91648, 0.917851, 0.935524, 0.934526, 0.933786, 0.928934, 0.9083, 0.903801, 0.904432, 0.905016, 0.909329, 0.910777, 0.915567, 0.917973, 0.916356, 0.916635, 0.915931, 0.927314, 0.928402, 0.927345, 0.92411, 0.926282, 0.92356, 0.922754, 0.920753, 0.914726, 0.913016, 0.912249, 0.922247, 0.929746, 0.93054, 0.931461, 0.932811, 0.936979, 0.938475, 0.938689, 0.941989, 0.942089, 0.944851, 0.946297, 0.948646, 0.949792, 0.951026, 0.951438, 0.961588, 0.966164, 1.07856, 0.986266, 0.971125, 0.968207, 1.32128, 1.32317, 1.30136, 1.21641, 1.00476, 1.00339, 0.984503, 0.98548, 0.984715, 0.981375, 0.997787, 0.995802, 0.976573, 0.977631, 0.97059, 0.970066, 0.971669, 0.970954, 0.968989, 0.969416, 0.970266, 0.959602, 0.966145, 0.965625, 0.966505, 0.968192, 0.972044, 0.973114, 0.977101, 0.980604, 0.981658, 0.982074, 0.980696, 0.981031, 0.981584, 0.982458, 0.987863, 0.990492, 0.990531, 0.983121, 0.982002, 0.980298, 0.973205, 0.960478, 0.957113, 0.956585, 0.957033, 0.959431, 0.958328, 0.955302, 0.956679, 0.961095, 0.964466, 0.965438, 0.972121, 0.972019, 0.974271, 0.970893, 0.972182, 0.976256, 0.977597, 0.978474, 0.977971, 0.978523, 0.975911, 0.975493, 0.971034, 0.968482, 0.969842, 0.965362, 0.964153, 0.962247, 0.962558, 0.958255, 0.960545, 0.963791, 0.964527, 0.965604, 0.975859, 0.980575, 0.98385, 0.989189, 0.99079, 1.11966, 1.11756, 1.0196, 1.02114, 1.02013, 1.02189, 1.02201, 1.15399, 1.24323, 1.2758, 1.0745, 1.07711, 1.07114, 1.07087, 1.07185, 1.08955, 1.07035, 1.07012, 1.12293, 1.20132, 1.2891, 1.20894, 1.1672, 1.17115, 1.18189, 1.18797, 1.18762, 1.18882, 1.19152, 1.20574, 1.17278, 1.18534, 1.1351, 1.13505, 1.1358
0.984217, 0.992422, 0.995205, 0.964867, 0.955579, 0.953819, 0.985415, 0.963609, 0.97779, 0.976927, 0.97938, 0.992077, 0.990866, 1.00774, 0.989989, 0.994752, 0.99779, 0.991112, 0.990797, 1.02402, 1.00188, 1.00131, 0.984605, 0.982151, 0.990034, 0.986182, 0.989221, 0.989818, 0.985763, 0.984103, 0.982845, 1.00152, 0.964963, 0.988234, 0.980692, 0.966371, 0.977317, 0.973948, 0.968979, 0.979616, 0.969193, 0.966774, 0.969489, 0.969499, 0.969933, 0.970171, 0.969591, 1.15035, 0.949232, 0.94916, 0.940599, 0.932344, 0.927738, 0.925502, 0.923496, 0.922795, 0.921315, 0.921389, 0.924108, 0.925125, 0.922114, 0.92855, 0.925613, 0.925648, 0.924991, 0.924699, 0.923308, 0.925506, 0.928343, 0.925113, 0.924495, 0.923178, 0.930493, 0.936855, 0.93486, 0.935066, 1.12015, 0.911244, 0.909118, 0.906569, 0.905028, 0.913521, 0.912844, 0.913757, 0.912999, 0.913075, 0.915578, 0.91362, 0.914033, 0.913621, 0.924883, 0.924668, 0.923951, 0.924872, 0.922996, 0.92241, 0.922564, 0.915578, 0.913662, 0.918092, 0.919409, 0.930624, 0.933921, 0.934843, 0.937228, 0.943588, 0.945661, 0.943934, 0.944334, 0.944442, 0.949053, 0.952962, 0.951803, 0.955781, 0.956059, 0.957424, 0.965695, 1.26484, 1.00114, 1.21249, 0.981158, 0.979947, 0.980614, 1.06978, 0.984779, 1.01595, 0.991499, 0.990221, 0.992432, 0.991155, 0.989041, 0.988857, 0.987933, 0.987283, 0.983645, 0.978954, 0.977785, 0.97587, 0.974768, 0.975316, 0.974579, 0.972044, 0.969943, 0.970888, 0.967918, 0.96868, 0.970343, 0.970028, 0.973265, 0.977729, 0.982692, 0.983782, 0.984161, 0.983819, 0.981877, 0.98139, 0.983166, 0.98554, 0.990372, 0.989241, 0.982207, 0.981084, 0.981966, 0.978186, 0.974276, 0.960864, 0.95968, 0.956903, 0.956105, 0.954, 0.949363, 1.03928, 0.956535, 0.960728, 0.966654, 0.969981, 0.975764, 0.975272, 0.973112, 0.973298, 0.975648, 0.983556, 0.986396, 0.984145, 0.978799, 0.978841, 0.977757, 0.974677, 0.97083, 0.970675, 0.971085, 0.967982, 1.02644, 0.958325, 0.958725, 0.957955, 1.05339, 0.964908, 0.964387, 0.97815, 0.980404, 0.980562, 0.993311, 0.995329, 1.14373, 1.12671, 1.11562, 1.0282, 1.02915, 1.05125, 1.15024, 1.15657, 1.06738, 1.16186, 1.07687, 1.07563, 1.07803, 1.07396, 1.07464, 1.0897, 1.09012, 1.07003, 1.07016, 1.12847, 1.20187, 1.27129, 1.1638, 1.16872, 1.16862, 1.17277, 1.17313, 1.18474, 1.18071, 1.18035, 1.17427, 1.16951, 1.16482, 1.13582, 1.134, 1.12912
0.967476, 0.948342, 0.950126, 0.956966, 0.954214, 0.952643, 0.954559, 0.962834, 0.970596, 0.976546, 0.980923, 0.981835, 0.990442, 0.990677, 0.990775, 0.992287, 0.988665, 0.989274, 0.986869, 0.979065, 0.982029, 0.982258, 0.999434, 0.991621, 0.984465, 0.985634, 0.987818, 0.986088, 0.997367, 0.994139, 0.991766, 0.997729, 0.979061, 0.980646, 0.939099, 0.959444, 0.955862, 0.967675, 0.972794, 0.967448, 0.965001, 0.96279, 0.969238, 0.972104, 0.972475, 0.972719, 0.972399, 0.971482, 0.949262, 0.949377, 0.939784, 0.930504, 0.929798, 0.926228, 0.925479, 0.924734, 0.92526, 0.923042, 0.921603, 0.922855, 0.930046, 0.929798, 0.929302, 0.923716, 0.9227, 0.921529, 0.92457, 0.9249, 0.925259, 0.926516, 0.926926, 0.927926, 0.936934, 0.938062, 0.935318, 0.914686, 0.914301, 0.913022, 0.909363, 0.908249, 0.914585, 0.915144, 0.913272, 0.914267, 0.914522, 0.913476, 0.912622, 0.912811, 0.914541, 0.914903, 1.0669, 0.925859, 0.927457, 0.926517, 0.925206, 0.92477, 0.925003, 0.917689, 0.917487, 0.918585, 1.13249, 0.930887, 0.936221, 1.13931, 0.943298, 0.946153, 0.950736, 1.28412, 0.946436, 0.945984, 0.952255, 0.954802, 0.954786, 0.954201, 0.954964, 1.10636, 1.27413, 1.08844, 0.981715, 0.987188, 0.989255, 1.29811, 1.07214, 1.03322, 1.27416, 0.994825, 0.995032, 0.998772, 0.999108, 0.99804, 0.995472, 0.987947, 0.988639, 0.988897, 0.988744, 0.983634, 0.978157, 0.978257, 0.975138, 0.978495, 0.977063, 0.973686, 0.973481, 0.973895, 0.971611, 0.974251, 0.973761, 0.974375, 0.979347, 0.982815, 0.985589, 0.988, 0.986966, 0.98576, 0.983036, 0.982179, 0.983635, 0.986018, 0.988384, 0.987904, 0.985198, 0.981447, 0.983775, 0.973776, 0.974207, 0.959541, 0.957063, 0.956212, 0.956318, 0.955871, 0.945924, 0.946583, 0.958295, 0.969547, 0.968967, 0.977105, 0.977271, 0.97388, 0.973891, 0.973701, 0.980392, 0.98476, 0.985713, 0.983381, 0.980043, 0.979609, 0.978957, 0.97617, 0.977493, 0.979372, 0.98193, 0.98311, 0.97011, 0.960442, 0.959517, 0.960763, 0.984174, 0.983643, 0.984965, 0.979976, 0.98388, 0.994205, 0.997577, 1.00402, 1.03087, 1.02723, 1.02919, 1.03132, 1.21571, 1.21743, 1.15663, 1.06257, 1.06341, 1.07928, 1.07929, 1.07865, 1.07783, 1.07725, 1.07776, 1.08904, 1.10238, 1.07251, 1.07337, 1.29758, 1.15024, 1.20346, 1.16339, 1.16319, 1.16677, 1.16783, 1.17133, 1.18096, 1.17762, 1.17833, 1.1753, 1.16117, 1.16417, 1.16656, 1.13755, 1.13288
0.939383, 0.949191, 0.951388, 0.94121, 0.942335, 0.976368, 0.957208, 0.960923, 0.966907, 0.976847, 0.976474, 0.976673, 0.991711, 0.99228, 0.990458, 0.990741, 0.991933, 0.989945, 0.985101, 0.983218, 0.982339, 1.00082, 1.00779, 1.00599, 0.994086, 1.00791, 0.995494, 0.998342, 0.998488, 1.01113, 0.992381, 0.994484, 0.955918, 0.941437, 0.944037, 0.972992, 0.971413, 0.969885, 0.974542, 0.983164, 0.983595, 0.96441, 0.971925, 0.971119, 0.970411, 0.971028, 0.971381, 0.971944, 0.953466, 0.945228, 0.939398, 0.936012, 0.935807, 0.928421, 0.928219, 0.926592, 0.927275, 0.926584, 0.925104, 0.929044, 0.932906, 0.931756, 0.929476, 0.922586, 0.922149, 0.923386, 0.924484, 0.924747, 0.925276, 0.925963, 0.929508, 0.938919, 0.941045, 0.926934, 0.922285, 0.92186, 0.914605, 0.914389, 0.914061, 0.915406, 0.916288, 0.918462, 0.919105, 0.915914, 0.914863, 1.24088, 0.927966, 0.926395, 0.924818, 0.924181, 0.92475, 0.926133, 0.92781, 0.926165, 0.926017, 0.925341, 0.925385, 0.919462, 0.921719, 0.923635, 0.924065, 0.938597, 0.942054, 0.970271, 0.959549, 0.953331, 0.954592, 0.959007, 0.958408, 0.949026, 0.968095, 0.968945, 1.1956, 1.10251, 1.1088, 1.23992, 1.22636, 1.09426, 1.00937, 1.11381, 1.08444, 1.00238, 1.00244, 1.00173, 1.0016, 1.00193, 1.00358, 1.00673, 1.00537, 1.00632, 1.00279, 0.996918, 0.99219, 0.99072, 0.990596, 0.98807, 0.982741, 0.983325, 0.983576, 0.978689, 0.975661, 0.975166, 0.974665, 0.975723, 0.973413, 0.974715, 0.9759, 0.976678, 0.981808, 0.983718, 0.990153, 0.990483, 0.990179, 0.983881, 0.981104, 0.983626, 0.982928, 0.983867, 0.987208, 0.98958, 0.988977, 0.98847, 0.97807, 0.977341, 0.976674, 0.973883, 0.959994, 0.95406, 1.0467, 0.940564, 0.942297, 0.967659, 0.966152, 0.970461, 0.975333, 0.976727, 0.975639, 0.977034, 0.976784, 0.981228, 0.98433, 0.986572, 0.984309, 0.983866, 0.977544, 0.978497, 0.978396, 0.97725, 0.978085, 0.980532, 0.984596, 0.98392, 0.969512, 0.968456, 0.97972, 0.977865, 0.983976, 0.985148, 0.986212, 0.983556, 0.984489, 0.993184, 0.997028, 0.997965, 1.02325, 1.02617, 1.02863, 1.16485, 1.04742, 1.04893, 1.06285, 1.06363, 1.06986, 1.07718, 1.08049, 1.09152, 1.09151, 1.08507, 1.13401, 1.10237, 1.32458, 1.11659, 1.07337, 1.21291, 1.21227, 1.1601, 1.16003, 1.16141, 1.16439, 1.16438, 1.18116, 1.18076, 1.18378, 1.18445, 1.16944, 1.1609, 1.16065, 1.16377, 1.16387, 1.13317
0.934181, 0.934365, 0.941619, 0.960468, 0.965362, 0.959624, 0.960341, 0.960283, 0.966775, 0.968516, 0.974657, 0.977436, 0.988079, 0.990642, 0.994454, 0.99484, 0.992326, 0.989071, 0.987288, 0.985024, 0.986112, 1.01142, 1.01423, 1.01505, 0.977107, 1.00177, 1.00462, 1.00498, 1.01238, 1.0122, 0.962883, 0.931535, 0.980589, 0.93547, 0.963397, 0.964732, 0.97654, 0.977088, 0.983649, 0.982764, 0.97755, 0.963882, 0.96691, 0.968448, 0.966754, 0.966398, 0.966374, 0.963187, 0.95649, 0.945631, 0.944983, 0.936716, 0.935231, 0.93082, 0.930327, 0.930815, 0.92852, 0.928865, 0.929043, 0.931918, 0.933753, 0.931103, 0.920066, 0.922803, 0.922893, 0.921299, 0.925026, 0.925447, 0.92653, 1.05748, 0.948326, 0.945929, 0.924792, 0.924142, 0.922693, 0.923216, 0.919863, 0.919197, 0.924802, 0.922648, 0.92728, 0.928383, 0.928698, 0.923289, 1.23457, 0.928444, 0.9293, 0.928188, 0.926142, 0.924474, 0.925671, 0.924551, 0.924645, 0.918036, 0.919268, 0.915741, 0.92062, 0.921371, 0.923184, 0.925254, 0.936556, 0.941898, 1.09549, 0.960518, 0.960805, 0.958113, 0.958132, 0.960092, 0.966542, 0.971776, 0.977196, 0.976837, 0.976476, 1.19144, 1.01627, 0.989204, 0.990567, 0.997535, 1.19097, 1.01487, 1.01456, 1.00897, 1.0094, 1.18179, 1.01099, 1.01319, 1.00989, 1.00977, 1.01082, 1.0104, 1.00177, 1.00121, 0.995947, 0.994388, 0.992728, 0.991482, 0.984063, 0.984614, 0.981176, 0.977853, 0.976537, 0.976815, 0.974913, 0.975241, 0.974501, 0.979121, 0.979695, 0.979977, 0.983922, 0.986067, 0.989418, 0.988491, 0.987005, 0.986969, 0.984218, 0.983727, 0.983547, 0.984762, 0.99306, 0.997995, 0.997009, 0.988092, 0.988148, 0.981456, 0.980539, 0.977254, 0.968583, 1.16549, 0.942416, 0.940785, 0.939195, 0.967391, 0.968651, 0.969783, 0.976486, 0.974584, 0.977044, 0.982129, 0.990205, 0.99041, 0.98549, 0.987991, 0.990547, 0.966424, 0.964993, 0.972103, 0.972839, 0.973303, 0.973775, 0.983836, 0.982486, 0.98222, 0.973033, 0.974698, 0.978836, 0.981603, 0.985511, 0.985695, 0.987453, 0.98246, 0.985895, 0.990702, 0.995932, 0.99758, 1.12619, 1.04476, 1.03311, 1.06091, 1.04935, 1.04999, 1.06454, 1.06813, 1.07616, 1.0788, 1.08979, 1.09343, 1.09224, 1.08738, 1.11924, 1.10954, 1.10723, 1.11709, 1.07694, 1.07787, 1.15028, 1.15651, 1.15639, 1.15999, 1.16058, 1.23239, 1.18225, 1.18112, 1.18274, 1.17687, 1.16739, 1.16762, 1.15777, 1.21407, 1.16833, 1.15145
0.970443, 0.971597, 0.938956, 0.948551, 0.956937, 0.956491, 0.959659, 0.960183, 0.966237, 0.970535, 0.976524, 0.97674, 0.974868, 0.993271, 0.996407, 0.9963, 0.991112, 0.989591, 0.988832, 0.983623, 0.984529, 1.0164, 1.01339, 0.991926, 0.970166, 0.971822, 1.01044, 1.01117, 0.966009, 0.964263, 0.934926, 0.94325, 0.94453, 0.954329, 0.95462, 0.954218, 0.95339, 0.987717, 0.986979, 0.971, 0.962915, 0.963702, 0.967209, 0.967289, 0.96649, 0.966179, 0.966283, 0.96097, 0.955626, 0.948837, 0.945786, 0.938838, 0.935823, 0.934774, 0.932769, 0.931551, 0.931504, 0.929919, 0.929543, 0.932178, 0.931785, 0.926108, 0.92472, 0.923696, 0.922115, 0.922623, 0.91984, 0.925776, 1.06248, 0.949048, 0.951003, 0.950676, 0.928153, 0.922411, 0.923182, 0.925883, 0.929172, 0.926627, 0.928072, 0.931777, 0.930171, 0.930078, 0.929472, 0.932049, 0.931868, 0.931429, 0.931839, 0.928566, 0.9286, 0.928284, 0.927349, 0.924928, 0.925016, 0.919594, 0.916942, 0.915619, 0.921843, 0.918824, 1.10912, 1.09155, 0.938957, 0.942259, 0.955053, 0.957274, 0.958344, 0.955842, 0.958877, 0.960619, 0.979316, 0.977184, 0.975875, 0.975388, 0.979895, 0.987322, 0.987893, 0.99373, 1.0011, 1.02219, 1.01381, 1.01421, 1.01468, 1.01298, 1.01297, 1.01914, 1.01793, 1.01533, 1.01516, 1.01347, 1.01275, 1.01119, 1.00559, 1.00318, 0.999922, 0.99534, 0.990631, 0.990964, 0.985474, 0.984402, 0.980555, 0.978832, 0.976671, 0.976578, 0.97375, 0.973034, 0.980112, 0.980602, 0.980385, 0.981307, 0.985326, 0.985749, 0.987176, 0.985232, 0.985539, 0.986337, 0.98651, 0.983942, 0.987266, 0.987647, 0.999708, 1.00132, 0.998394, 0.994081, 0.993746, 0.982918, 0.980693, 0.980578, 0.977401, 1.15984, 0.945161, 0.943858, 0.945724, 0.96787, 0.969918, 0.969875, 0.969856, 0.973033, 0.980306, 0.98226, 0.990744, 0.988362, 0.988984, 0.994616, 1.0014, 0.969698, 0.970048, 0.973342, 0.976442, 0.976875, 0.983444, 0.983964, 0.973457, 0.973081, 0.975506, 0.980031, 0.976889, 0.98115, 0.982579, 0.986279, 0.986872, 0.994711, 0.999757, 1.00042, 0.998838, 0.998247, 1.00018, 1.14727, 1.22654, 1.04645, 1.0507, 1.05762, 1.06804, 1.07198, 1.0738, 1.08091, 1.09091, 1.09385, 1.08872, 1.20439, 1.13964, 1.12817, 1.10549, 1.10631, 1.07735, 1.07788, 1.14985, 1.15004, 1.15898, 1.16011, 1.22606, 1.22593, 1.18214, 1.17908, 1.1736, 1.17393, 1.17768, 1.33951, 1.26191, 1.26719, 1.15704, 0.00422699
0.955865, 0.945185, 0.943196, 0.944469, 0.946889, 0.956937, 0.95957, 0.96777, 0.967996, 0.974583, 0.976231, 0.974515, 0.977, 0.988671, 0.994754, 0.991761, 0.99048, 0.9896, 0.990396, 0.993569, 0.98347, 0.983679, 0.987495, 0.984419, 0.961559, 0.966228, 0.991699, 0.94956, 0.95313, 0.949925, 0.955355, 0.954217, 0.957943, 0.960087, 0.95621, 0.963983, 0.980033, 0.94991, 0.967486, 0.96327, 0.963745, 0.964068, 0.960613, 0.966265, 0.966591, 0.965953, 0.964675, 0.962552, 0.956967, 0.956547, 0.945535, 0.941549, 0.933672, 0.93436, 0.933384, 0.932333, 0.931987, 0.931509, 0.931534, 0.930675, 0.928325, 0.92613, 0.925296, 0.924844, 0.922441, 0.922554, 0.923802, 0.928698, 0.952209, 0.951948, 0.952632, 0.932116, 0.929014, 0.927555, 0.924827, 0.93172, 0.931718, 0.930927, 0.935576, 0.935556, 0.934944, 0.939786, 0.942736, 0.940699, 0.937934, 0.932566, 0.93205, 0.932614, 0.929564, 0.928374, 0.928006, 0.928519, 0.927526, 0.922432, 0.91521, 0.915185, 0.915504, 0.917764, 1.07814, 0.957611, 0.943512, 0.953032, 0.956226, 0.955798, 0.956025, 0.956565, 0.95936, 0.95976, 0.979747, 0.977789, 0.978071, 0.977004, 0.978305, 0.988787, 0.994172, 1.26138, 1.00596, 1.01978, 1.01383, 1.01492, 1.0145, 1.01494, 1.02166, 1.0197, 1.01598, 1.01495, 1.01528, 1.01481, 1.00804, 1.00755, 1.00444, 1.00307, 0.999577, 0.995961, 0.990281, 0.990521, 0.984753, 0.984236, 0.980333, 0.978771, 0.97831, 0.973343, 0.972555, 0.980777, 0.982526, 0.981774, 0.980518, 0.980893, 0.983869, 0.983407, 0.984208, 0.985971, 0.986992, 0.984637, 0.982578, 0.984135, 0.987157, 1.30194, 1.00682, 1.0071, 0.994937, 0.992027, 0.982785, 0.982131, 0.980391, 0.98025, 0.97778, 0.973454, 1.12903, 1.20903, 1.17603, 0.970155, 0.974146, 0.976623, 0.976766, 0.977821, 0.981946, 0.987386, 0.989746, 0.991148, 0.994651, 1.00316, 1.12909, 1.12753, 0.977972, 0.983889, 0.979644, 0.979811, 0.984654, 0.984717, 0.970707, 0.97387, 0.974538, 0.978204, 0.983224, 0.981692, 0.981451, 0.988185, 0.994161, 0.997681, 1.00057, 1.00115, 1.00592, 1.00069, 1.00341, 1.00665, 1.06062, 1.04669, 1.04686, 1.05146, 1.09282, 1.06995, 1.07642, 1.07976, 1.09417, 1.09454, 1.08844, 1.16079, 1.13459, 1.13386, 1.35104, 1.1955, 1.09855, 1.07749, 1.14965, 1.15165, 1.22629, 1.23312, 1.17396, 1.1818, 1.18311, 1.18386, 1.18115, 1.18075, 1.20673, 1.20487, 1.27715, 1.32346, 1.17236, 1.17361
0.973203, 0.968022, 0.939478, 0.94638, 0.942284, 0.952206, 0.953995, 0.967819, 0.966738, 0.973937, 0.973014, 0.97215, 0.981059, 0.985036, 0.987875, 0.986952, 0.99102, 0.990434, 0.990265, 0.992823, 0.994909, 0.993142, 0.991171, 0.969895, 0.970127, 0.956939, 0.953924, 0.950444, 0.948585, 0.950331, 0.956602, 0.98567, 0.960671, 0.958258, 0.959282, 0.951778, 0.953715, 0.968107, 0.971931, 0.963352, 0.970392, 0.967885, 0.958256, 0.966431, 0.966245, 0.966206, 0.965146, 0.962986, 0.95963, 0.955126, 1.03875, 0.933035, 0.93193, 0.924121, 0.924033, 0.933917, 0.933275, 0.932359, 0.931732, 0.931325, 0.926998, 0.925767, 0.925084, 0.923736, 0.923874, 0.923941, 0.923338, 0.922747, 0.952947, 0.953008, 0.952842, 0.93208, 0.931697, 0.932075, 0.930849, 0.932773, 0.936343, 0.937583, 0.937105, 0.937573, 0.940344, 0.95018, 0.951506, 0.946723, 0.939001, 0.936723, 0.934516, 0.932231, 0.932069, 0.929307, 0.928048, 0.926171, 0.925893, 0.924009, 0.918305, 0.915472, 0.917946, 0.919694, 1.10467, 0.949618, 0.944266, 0.951164, 0.951778, 0.952316, 0.958812, 0.958837, 0.95902, 0.966083, 0.973546, 0.974659, 0.977463, 0.979684, 0.989708, 1.0823, 1.00887, 1.00871, 1.00941, 1.0113, 1.01243, 1.01588, 1.01659, 1.02083, 1.02179, 1.01537, 1.0145, 1.01524, 1.01136, 1.00985, 1.00498, 1.00391, 1.00283, 1.00139, 1.0004, 0.996481, 0.995375, 0.990991, 0.986896, 0.984941, 0.97384, 0.974648, 0.976918, 0.972566, 0.974298, 0.977889, 0.982063, 0.980849, 0.980461, 0.979915, 0.983725, 0.983335, 0.983624, 0.983658, 0.983369, 0.982724, 0.98284, 0.98546, 0.992398, 1.18943, 1.00555, 1.00678, 0.993857, 0.986194, 0.98202, 0.980482, 0.980276, 0.977147, 0.976598, 0.974974, 1.07966, 0.958609, 0.960856, 1.00425, 0.976118, 0.978237, 0.977597, 0.979787, 0.982661, 0.982388, 0.990957, 0.993372, 1.00358, 1.00443, 0.998575, 0.98148, 0.981681, 0.984895, 0.97755, 0.978996, 0.975487, 0.976563, 0.974239, 0.972877, 0.975398, 0.982794, 0.984403, 1.11551, 0.988487, 0.989755, 0.993569, 0.995089, 0.99646, 1.00583, 1.00904, 1.0171, 1.1365, 1.15745, 1.12967, 1.04126, 1.05132, 1.05223, 1.06711, 1.06684, 1.06427, 1.10571, 1.09407, 1.08731, 1.13773, 1.29092, 1.14189, 1.14043, 1.27045, 1.34822, 1.15456, 1.07456, 1.07525, 1.2389, 1.24088, 1.22697, 1.18475, 1.18061, 1.1812, 1.18121, 1.18203, 1.18566, 1.30704, 1.22371, 1.22971, 1.24164, 1.2409, 1.14279
0.977181, 0.983509, 0.95984, 0.935995, 0.935057, 0.968399, 0.952345, 0.970733, 0.985587, 0.974256, 0.973718, 0.979232, 0.982478, 0.979962, 0.984074, 0.985238, 0.988004, 0.988892, 0.989495, 0.995845, 0.998065, 1.00397, 0.984236, 0.994572, 0.983856, 0.960593, 0.95227, 0.955133, 0.982173, 0.968446, 0.9735, 0.959295, 0.989233, 0.968476, 0.971499, 0.96225, 0.961573, 0.976433, 0.973655, 0.968863, 0.970327, 0.973915, 0.958661, 0.966316, 0.96599, 0.965752, 0.964947, 0.963095, 0.957504, 0.955715, 0.94952, 0.940704, 0.939386, 0.922915, 0.934192, 0.934037, 0.933367, 0.93202, 0.931958, 0.931546, 0.928616, 0.928259, 0.925392, 0.924656, 0.922965, 0.923471, 0.91938, 0.917939, 0.919135, 1.0671, 0.939, 0.936709, 0.933657, 0.942843, 0.94239, 0.939834, 0.936891, 0.938498, 0.938193, 0.93985, 0.946949, 0.951307, 0.95032, 0.949135, 0.945909, 0.943446, 0.93642, 0.934442, 0.932307, 0.925966, 0.925915, 0.923495, 0.924721, 0.924909, 0.918681, 0.919429, 0.919007, 0.920658, 1.09062, 0.939061, 0.943279, 0.943448, 0.946135, 0.947311, 0.948815, 0.94915, 0.950755, 0.964823, 0.967762, 0.974455, 0.980567, 0.981691, 1.0221, 1.0064, 1.01007, 1.01061, 1.00822, 1.00904, 1.01307, 1.01788, 1.01854, 1.02028, 1.01384, 1.01322, 1.01281, 1.01314, 1.00919, 1.0941, 1.0026, 1.00287, 1.00157, 1.00113, 0.997319, 0.994793, 0.993871, 0.990432, 0.986954, 0.979409, 0.977181, 0.977103, 0.975062, 0.975712, 0.977306, 0.983613, 0.985991, 0.983628, 0.978609, 0.977293, 0.978655, 0.980124, 0.984674, 0.983093, 0.981212, 0.980884, 0.983487, 0.986054, 0.992638, 0.999029, 1.00187, 0.993671, 0.989839, 0.987231, 0.986852, 0.984671, 0.980625, 0.97646, 0.976831, 0.976565, 0.975795, 0.963903, 0.960724, 0.96257, 0.976611, 0.97499, 0.977563, 0.979372, 0.982159, 0.988674, 0.993491, 1.00114, 1.00331, 1.00413, 0.994796, 0.984867, 0.983517, 0.984156, 0.980183, 0.974405, 0.97459, 0.979097, 0.977041, 0.976526, 0.978102, 0.991248, 0.992513, 1.00112, 1.00345, 0.991598, 0.992274, 1.00436, 1.01005, 1.0148, 1.01725, 1.01825, 1.0274, 1.02865, 1.24014, 1.04924, 1.05351, 1.0612, 1.06675, 1.06677, 1.06502, 1.08861, 1.08853, 1.08622, 1.21731, 1.15498, 1.15526, 1.30325, 1.29703, 1.15895, 1.15977, 1.07336, 1.07416, 1.24622, 1.22868, 1.18891, 1.18364, 1.17921, 1.17766, 1.17796, 1.25368, 1.24098, 1.22389, 1.22384, 1.23025, 1.29642, 1.07137, 1.14554
0.981411, 0.980594, 0.98262, 0.973672, 0.970742, 0.949224, 0.970706, 0.97759, 0.977564, 0.976574, 0.986492, 0.987816, 0.984188, 0.977536, 0.978298, 0.984944, 0.987225, 0.98627, 0.985918, 0.998878, 0.995123, 0.9951, 1.00088, 0.987112, 0.981625, 0.991099, 0.978827, 0.980589, 0.977597, 0.953338, 0.955776, 0.958118, 0.959419, 0.965022, 0.968712, 0.97624, 0.962993, 0.960556, 0.951398, 0.952991, 0.963258, 0.963374, 0.96134, 0.962136, 0.963886, 0.965866, 0.963401, 0.962597, 0.957327, 0.95105, 0.948756, 0.942006, 0.941575, 0.936052, 0.936375, 0.935466, 0.935718, 0.932865, 0.931822, 0.932268, 0.932362, 0.930466, 0.92661, 0.925738, 0.925475, 0.919311, 0.918357, 0.918162, 0.922709, 0.9287, 0.930167, 0.935602, 0.940044, 0.94042, 0.945432, 0.939775, 0.940643, 0.94211, 0.942588, 0.948242, 0.947904, 0.950714, 0.949677, 0.947272, 0.945952, 0.942528, 0.942335, 0.93097, 0.927654, 0.926015, 0.922608, 0.922132, 0.921326, 0.920524, 0.919381, 0.921657, 0.922693, 0.983897, 1.15074, 0.942514, 0.943564, 0.942928, 0.945511, 0.942088, 0.940174, 0.941196, 0.946512, 0.963483, 0.969958, 0.970697, 0.976785, 1.24981, 1.00656, 1.01153, 1.01132, 1.0082, 1.00788, 1.01293, 1.01463, 1.01501, 1.01814, 1.00938, 1.01174, 1.01147, 1.01239, 1.01254, 1.00364, 1.00199, 1.00069, 1.00133, 0.998281, 0.996783, 0.992593, 0.991494, 0.991119, 0.990928, 0.980798, 0.978043, 0.976186, 0.975701, 0.976738, 0.977105, 0.979655, 0.981011, 0.986377, 0.977887, 0.978003, 0.977745, 0.979572, 0.980334, 0.981818, 0.979448, 0.980079, 0.981741, 0.985432, 0.988955, 0.996825, 1.00071, 1.00044, 0.991952, 0.987561, 0.987105, 0.98751, 0.987107, 0.981388, 0.979744, 0.980031, 0.983513, 0.982885, 0.981996, 0.969872, 0.966323, 0.972207, 0.973842, 0.974254, 0.979432, 0.988427, 0.993067, 0.995542, 1.01373, 1.01522, 1.0076, 0.997983, 0.987418, 0.983923, 0.983083, 0.980953, 0.979212, 0.976857, 0.979631, 1.00837, 1.01288, 0.989218, 0.992336, 0.993204, 1.0024, 1.00391, 1.00504, 1.00476, 1.00436, 1.00822, 1.01599, 1.01819, 1.026, 1.13377, 1.03839, 1.05156, 1.05018, 1.05596, 1.06543, 1.06904, 1.07107, 1.074, 1.0931, 1.09465, 1.30315, 1.15527, 1.15461, 1.1563, 1.27327, 1.36969, 1.16679, 1.16508, 1.10247, 1.10123, 1.10803, 1.18687, 1.18638, 1.18958, 1.18267, 1.18027, 1.17728, 1.18165, 1.29528, 1.22262, 1.22764, 1.3051, 1.17903, 1.1631, 1.04546
0.986, 0.986093, 0.980957, 0.981764, 0.973958, 0.977036, 0.988225, 0.988325, 0.978459, 0.98056, 0.987979, 0.978748, 0.977274, 0.975718, 0.981208, 0.98427, 0.984498, 0.984466, 0.98542, 0.988948, 0.988346, 0.990122, 0.989302, 0.996001, 0.975645, 0.977473, 0.978017, 0.976565, 0.973707, 0.964305, 0.975805, 0.950492, 0.933457, 0.941029, 0.941806, 0.952716, 0.943743, 0.964153, 0.966598, 0.963922, 0.952079, 0.954769, 0.961883, 0.962212, 0.963817, 0.965364, 0.962914, 0.961709, 0.959569, 0.952959, 0.951625, 0.95033, 0.945423, 0.944134, 0.934451, 0.935532, 0.93576, 0.932236, 0.931108, 0.92993, 0.932862, 0.931888, 0.928861, 0.9274, 0.922019, 0.919197, 0.918685, 0.918357, 0.926703, 0.926436, 0.931925, 0.941028, 0.941112, 0.941256, 0.946158, 0.942241, 0.943374, 0.947229, 0.956651, 0.952379, 0.948394, 0.949019, 0.945919, 0.94377, 0.941993, 0.939726, 0.937984, 0.927781, 0.926174, 0.925591, 0.925258, 0.923586, 0.925691, 0.918804, 0.921235, 0.922508, 0.923102, 0.931435, 0.942617, 0.94494, 0.944703, 0.942748, 0.942602, 0.947705, 0.943271, 0.9436, 1.11257, 0.966837, 0.966294, 0.967197, 1.06876, 1.112, 1.00033, 1.00279, 1.00507, 1.00768, 1.00988, 1.01441, 1.01474, 1.01639, 1.00795, 1.00861, 1.00838, 1.00983, 1.01095, 1.01125, 1.00881, 1.00139, 1.00107, 0.998155, 0.995213, 0.994317, 0.991256, 0.990029, 0.990748, 0.984701, 0.980723, 0.978821, 0.976766, 0.977219, 0.977004, 0.976706, 0.977036, 0.980264, 0.980174, 0.975335, 0.974532, 0.974474, 0.976776, 0.977728, 0.97844, 0.979327, 0.980038, 0.981993, 0.98412, 0.988802, 0.997847, 0.999317, 0.992619, 0.991946, 0.988969, 0.989764, 0.985357, 0.983629, 0.98326, 0.983832, 0.984565, 0.982697, 0.984216, 0.984295, 0.985083, 1.09912, 0.976378, 0.974151, 0.979229, 0.980264, 0.990712, 0.994629, 1.07899, 1.01417, 1.01499, 1.00549, 0.998047, 0.998092, 0.983303, 0.981901, 0.979413, 0.980366, 0.982241, 0.984247, 1.01501, 0.998347, 0.995661, 0.996981, 0.993901, 1.0027, 1.00352, 1.00611, 1.01121, 1.00623, 1.00705, 1.01001, 1.01936, 1.03971, 1.03904, 1.04785, 1.04929, 1.04996, 1.05056, 1.06039, 1.06622, 1.06802, 1.07489, 1.09042, 1.09071, 1.23281, 1.15905, 1.16472, 1.16531, 1.17691, 1.17633, 1.17601, 1.24658, 1.17211, 1.06743, 1.10371, 1.10937, 1.18473, 1.19114, 1.187, 1.17954, 1.17984, 1.18393, 1.10673, 1.17744, 1.35011, 1.05032, 1.3014, 1.02427, 1.00507
0.985941, 0.986962, 0.983513, 0.978805, 0.978073, 0.989665, 0.988071, 1.00164, 0.98193, 0.983193, 0.9862, 0.988225, 0.963539, 0.973857, 0.976872, 0.983959, 0.987076, 0.987642, 0.988001, 0.987918, 0.987363, 0.987127, 0.984091, 0.983492, 0.981402, 0.980345, 0.978629, 0.973803, 0.97206, 0.95433, 0.955816, 0.947905, 0.94063, 0.963283, 0.96514, 0.966874, 0.933094, 0.943493, 0.97386, 0.955827, 0.953071, 0.953025, 0.960729, 0.963409, 0.964209, 0.963511, 0.963238, 0.962854, 0.958171, 0.954897, 0.95262, 0.949526, 0.945989, 0.942893, 0.941001, 0.940355, 0.94001, 0.93897, 0.940422, 0.939674, 0.934072, 0.9343, 0.934425, 0.929008, 0.921477, 0.920726, 0.917548, 0.934138, 0.929102, 0.928103, 0.931384, 0.940945, 0.942176, 0.943583, 0.9438, 0.941872, 0.945995, 0.95265, 0.959489, 0.956454, 0.951946, 0.944757, 0.942288, 0.942016, 0.93603, 0.936321, 0.935258, 0.9352, 0.92935, 0.927787, 0.929996, 0.929367, 0.928511, 0.922184, 0.921885, 0.921807, 0.924501, 1.00108, 0.951669, 0.956443, 0.956116, 0.952495, 0.948748, 0.946346, 0.945875, 0.946839, 0.964288, 0.963814, 0.96394, 0.997577, 0.996687, 0.999071, 0.999482, 1.00422, 1.00442, 1.00525, 1.0112, 1.01101, 1.01489, 1.00618, 1.00623, 1.00714, 1.00358, 1.00267, 1.01096, 1.00812, 1.0068, 1.00071, 0.996021, 0.994445, 0.994426, 0.990032, 0.989643, 0.990699, 0.982758, 0.982071, 0.98037, 0.979058, 0.977461, 0.977572, 0.977934, 0.976572, 0.975575, 0.975344, 0.977018, 0.97321, 0.972931, 0.973324, 0.974586, 0.976546, 0.977666, 0.978784, 0.980559, 0.980874, 0.980843, 0.989917, 0.992635, 0.996086, 0.992344, 0.991876, 0.992173, 0.980504, 0.982829, 0.98232, 0.98292, 0.983847, 0.980147, 0.979299, 0.979157, 0.984447, 0.985207, 0.977651, 0.976405, 0.976966, 0.980935, 0.987186, 0.99085, 0.996585, 1.01436, 1.01478, 1.0137, 1.05957, 1.04986, 0.985033, 1.0231, 0.970157, 0.978055, 0.980426, 0.984582, 1.01583, 1.00222, 1.00498, 1.00628, 1.0033, 1.00264, 1.00209, 1.00403, 1.01282, 1.01167, 1.0125, 1.01083, 1.01189, 1.0131, 1.03827, 1.03958, 1.04607, 1.04863, 1.04982, 1.04967, 1.05757, 1.06057, 1.073, 1.08001, 1.07604, 1.07757, 1.16481, 1.16883, 1.17404, 1.17359, 1.1737, 1.1748, 1.17684, 1.2533, 1.25364, 1.06337, 1.07121, 1.07395, 1.12325, 1.19161, 1.18765, 1.18894, 1.18597, 1.184, 1.09562, 1.08386, 1.27638, 1.01894, 1.30474, 1.10255, 0.99861
0.98897, 0.990131, 0.981225, 0.979915, 0.962555, 0.985511, 0.986485, 0.985038, 0.965675, 0.983924, 0.989341, 0.988935, 0.981987, 0.976546, 0.976573, 0.986051, 0.987438, 0.988074, 0.987004, 0.987431, 0.985217, 0.984966, 0.984969, 0.983532, 0.983094, 0.982391, 0.980364, 0.974983, 0.971686, 0.972889, 0.942873, 0.9469, 0.951661, 0.952284, 0.950399, 0.939483, 0.942596, 0.95408, 0.971017, 0.956252, 0.951255, 0.957096, 0.961484, 0.962307, 0.962628, 0.963771, 0.962827, 0.961868, 0.956488, 0.954402, 0.952729, 0.952039, 0.946893, 0.945687, 0.942677, 0.941626, 0.941145, 0.940593, 0.940801, 0.941364, 0.939501, 0.934483, 0.934899, 0.93064, 0.925346, 0.926014, 0.937427, 0.936781, 0.93695, 0.933309, 1.0364, 0.945347, 0.945258, 0.944082, 0.944078, 0.943461, 0.955731, 0.95969, 0.960585, 0.955918, 0.952447, 0.948505, 0.940799, 0.9355, 0.935074, 0.934901, 0.935174, 0.933622, 0.932187, 0.931772, 0.930988, 0.931843, 0.929995, 0.925639, 0.918147, 0.919805, 0.92103, 1.00829, 0.954372, 0.959931, 0.959434, 0.956651, 0.958716, 0.943671, 0.940453, 0.940212, 0.963141, 0.965896, 0.966899, 0.996924, 0.994721, 0.997286, 1.00212, 1.00198, 1.00184, 1.0047, 1.01199, 1.01199, 1.00608, 1.00669, 1.00515, 1.06653, 0.997804, 1.0013, 1.0028, 1.00449, 1.00418, 0.9939, 0.994059, 0.994098, 0.989793, 0.987922, 0.984896, 0.980716, 0.981594, 0.981823, 0.980004, 0.977886, 0.978333, 0.976972, 0.976892, 0.976374, 0.97648, 0.973378, 0.973479, 0.972548, 0.97075, 0.97079, 0.973993, 0.97414, 0.978554, 0.979477, 0.977227, 0.979889, 0.981158, 0.988173, 0.993187, 0.993878, 0.994256, 0.993991, 0.978813, 0.979811, 0.982429, 0.983497, 0.983902, 0.976917, 0.977689, 0.979093, 0.980263, 0.983078, 0.98377, 0.980833, 0.977923, 0.984337, 0.987327, 0.987684, 0.98865, 1.00458, 1.01288, 1.01341, 1.00543, 1.00444, 1.19667, 0.98243, 0.979309, 0.973117, 1.07843, 1.01477, 1.14334, 1.00465, 1.00681, 1.00744, 1.00536, 1.00812, 1.00515, 1.00442, 1.00505, 1.02116, 1.0203, 1.01917, 1.0189, 1.01212, 1.01304, 1.01525, 1.09714, 1.14898, 1.04274, 1.04383, 1.04728, 1.05699, 1.06745, 1.07363, 1.0741, 1.07526, 1.25478, 1.16953, 1.18118, 1.18041, 1.17446, 1.17128, 1.17637, 1.37549, 1.37534, 1.24257, 1.06039, 1.06072, 1.06699, 1.07117, 1.16131, 1.18621, 1.13162, 1.09339, 1.09068, 1.04879, 1.0781, 1.08006, 1.30568, 1.1021, 1.10274, 0.993148
0.991364, 0.993278, 0.980982, 0.985441, 0.978597, 0.980487, 1.01845, 1.00732, 0.96965, 0.990473, 0.98592, 0.985168, 0.987376, 0.986225, 0.976303, 0.981219, 0.989627, 0.987859, 0.987672, 0.981744, 0.98531, 0.983925, 0.980643, 0.982394, 0.983267, 0.981033, 0.978122, 0.974648, 0.974366, 0.975574, 0.960537, 0.948558, 0.95639, 0.939389, 0.934646, 0.933906, 0.938663, 0.939092, 0.95139, 0.951374, 0.95455, 0.958241, 0.959991, 0.959824, 0.962492, 0.96192, 0.96203, 0.958863, 0.955986, 0.955764, 0.953057, 0.951202, 0.949126, 0.948747, 0.944463, 0.94262, 0.942142, 0.939924, 0.940239, 0.942372, 0.940468, 0.937016, 0.932162, 0.933585, 0.933286, 0.939235, 0.939693, 0.939191, 0.939716, 0.950074, 0.948878, 0.951721, 0.945992, 0.945269, 0.946358, 0.955174, 0.96029, 0.961247, 0.960154, 0.954303, 0.952484, 0.940435, 0.932331, 0.932531, 0.933584, 0.935211, 0.934151, 0.934161, 0.931704, 0.932162, 0.931702, 0.930061, 0.929593, 0.928158, 0.919756, 0.919839, 0.91994, 0.928924, 0.943857, 0.957387, 0.961265, 0.959847, 0.957506, 0.955966, 0.949886, 1.02229, 1.01573, 1.09816, 1.09528, 0.995206, 0.995938, 0.999501, 1.00088, 1.00132, 1.00189, 1.0071, 1.00391, 1.00194, 1.00237, 0.996401, 0.994157, 0.9929, 0.992122, 0.995287, 0.998159, 1.00494, 1.00467, 0.994225, 0.993001, 0.991711, 0.991491, 0.990118, 0.983092, 0.982265, 0.9802, 0.980364, 0.980021, 0.980167, 0.978921, 0.977107, 0.978331, 0.977211, 0.975168, 0.973586, 0.973428, 0.971642, 0.966991, 0.968816, 0.973476, 0.974301, 0.976621, 0.976727, 0.977422, 0.980677, 0.983295, 0.986016, 0.993518, 0.994276, 0.992828, 0.985209, 0.98223, 0.980274, 0.984482, 0.983856, 0.982463, 0.978939, 0.98048, 0.980793, 0.980994, 0.983023, 0.981751, 0.981964, 0.984352, 0.988853, 0.994493, 0.996576, 1.00297, 1.00601, 1.00703, 1.00252, 1.00335, 1.14284, 1.03057, 0.982682, 0.98236, 0.990757, 0.993859, 0.9945, 1.04038, 1.01997, 1.01138, 1.00917, 1.00806, 1.01581, 1.01438, 1.05104, 1.02439, 1.01976, 1.03214, 1.03076, 1.26413, 1.02819, 1.02328, 1.01534, 1.01656, 1.11208, 1.03738, 1.03975, 1.04948, 1.05616, 1.05821, 1.07428, 1.08539, 1.08726, 1.17499, 1.18073, 1.18049, 1.17839, 1.17694, 1.18095, 1.26614, 1.26833, 1.26504, 1.07011, 1.06058, 1.05957, 1.061, 1.0602, 1.05834, 1.13358, 1.10478, 1.15647, 1.12223, 1.04362, 1.08395, 1.00431, 1.05823, 0.984382, 0.971866, 0.988625
0.992302, 0.992166, 0.985023, 0.983644, 0.982841, 0.979371, 0.978281, 0.966311, 0.963014, 1.01282, 0.980744, 0.989359, 0.990952, 0.988005, 0.979205, 0.980392, 0.983603, 0.983599, 0.983948, 0.980418, 0.98072, 0.977655, 0.976883, 0.982763, 0.984027, 0.977963, 0.976677, 0.974589, 0.974376, 0.974826, 1.00381, 0.953647, 0.954612, 0.940458, 0.929552, 0.936823, 0.935003, 0.945592, 0.928677, 0.958695, 0.958117, 0.95898, 0.959571, 0.95937, 0.961449, 0.966258, 0.960923, 0.957877, 0.956726, 0.954714, 0.952504, 0.950578, 0.950986, 0.949726, 0.947742, 0.944866, 0.943505, 0.941647, 0.941643, 0.943416, 0.942481, 0.935356, 0.933678, 0.935234, 0.945233, 0.942637, 0.943737, 0.944769, 0.947616, 0.950811, 0.952837, 0.953331, 0.94839, 0.948945, 0.952817, 0.962568, 0.962858, 0.962878, 0.960275, 0.95968, 0.946249, 0.938511, 0.92943, 0.933046, 0.933884, 0.934907, 0.935082, 0.933662, 0.931127, 0.931768, 0.930331, 0.931787, 0.931048, 0.925355, 0.921085, 0.92049, 0.923293, 1.09922, 0.950486, 0.955538, 0.963299, 0.953194, 0.950623, 0.952459, 0.952519, 1.00834, 1.0128, 1.01071, 1.00046, 1.00194, 0.998703, 0.999404, 1.00357, 1.00416, 1.00437, 1.00264, 1.00078, 0.997904, 0.994955, 0.991467, 0.990419, 0.98923, 0.990476, 0.991699, 0.99518, 1.00417, 1.00412, 0.992995, 0.993857, 0.991075, 0.991225, 0.98331, 0.9834, 0.982888, 0.983419, 0.978358, 0.979916, 0.978823, 0.979446, 0.981171, 0.980136, 0.975985, 0.974891, 0.973338, 0.973017, 0.9687, 0.966756, 0.967018, 0.972817, 0.973646, 0.975483, 0.975878, 0.981189, 0.982147, 0.983661, 0.98415, 0.99129, 0.994642, 0.984904, 0.983372, 0.978496, 0.978592, 0.983842, 0.984744, 0.983594, 0.982427, 0.984348, 0.981328, 0.978864, 0.97699, 0.977874, 0.980753, 0.982947, 0.995425, 1.00039, 1.00205, 1.00808, 1.00784, 1.00231, 1.00192, 0.995306, 0.995836, 0.990553, 0.99085, 0.996042, 0.998466, 1.00105, 1.03674, 1.01452, 1.02178, 1.01714, 1.01796, 1.02624, 1.02688, 1.12847, 1.02623, 1.02627, 1.02743, 1.03109, 1.03281, 1.03668, 1.03902, 1.09159, 1.01925, 1.01849, 1.01916, 1.02515, 1.02881, 1.21271, 1.04461, 1.07116, 1.08552, 1.06637, 1.08493, 1.17816, 1.18092, 1.18121, 1.17891, 1.1817, 1.18778, 1.2669, 1.25869, 1.25153, 1.25099, 1.07138, 1.08607, 1.05488, 1.05696, 1.15004, 1.19408, 1.03962, 1.04053, 1.06754, 1.34258, 1.00199, 0.99305, 0.987865, 0.987329, 0.973676, 0.976283
0.993075, 0.993083, 0.9886, 0.988181, 0.985129, 0.977103, 0.990157, 0.96341, 0.963699, 0.961156, 0.97766, 0.987717, 0.98905, 0.988399, 0.987343, 0.9805, 0.980142, 0.979694, 0.977899, 0.976795, 0.976372, 0.975178, 0.974503, 0.975614, 0.976706, 0.977366, 0.973572, 0.972602, 0.975011, 0.964376, 0.963154, 0.95462, 0.946446, 0.943465, 0.93747, 0.930973, 0.929527, 0.944667, 0.970146, 0.957925, 0.957442, 0.958139, 0.95873, 0.960117, 0.965689, 0.961989, 0.960145, 0.960798, 0.95927, 0.955099, 0.953236, 0.951823, 0.950952, 0.949871, 0.948515, 0.946566, 0.94388, 0.94269, 0.941685, 0.942292, 0.933863, 0.934368, 0.934074, 0.944941, 0.95107, 0.953148, 0.954482, 1.13566, 0.956456, 0.956626, 0.955748, 0.952062, 0.952892, 0.953632, 0.964824, 0.966257, 0.960561, 0.960643, 0.954746, 0.94753, 0.943254, 0.933764, 0.931857, 0.935377, 0.937432, 0.938693, 0.935534, 0.932041, 0.932594, 0.934873, 0.932352, 0.934559, 0.931768, 0.931045, 0.929488, 0.925263, 0.924147, 0.950375, 0.95245, 0.953056, 0.949809, 0.948924, 0.952664, 0.953477, 1.17465, 0.999273, 1.0951, 1.00608, 1.0012, 1.00096, 0.999648, 1.00828, 1.00528, 1.00467, 1.00062, 1.00153, 0.996464, 0.993664, 0.987756, 0.988513, 0.988691, 0.987737, 0.987459, 0.988557, 0.990374, 1.00098, 0.998629, 0.995994, 0.995622, 0.990995, 0.988812, 0.986633, 0.983265, 0.986578, 0.983675, 0.983171, 0.979682, 0.980261, 0.982422, 0.983628, 0.976006, 0.976448, 0.974164, 0.97373, 0.973138, 0.970001, 0.967959, 0.968038, 0.971903, 0.973282, 0.976147, 0.978319, 0.981007, 0.983397, 0.982179, 0.982117, 0.984557, 0.987046, 0.98369, 0.975445, 0.97677, 0.980273, 0.982032, 0.982773, 0.983898, 0.986214, 0.987056, 0.986399, 0.978363, 0.977846, 0.97705, 0.980344, 0.988764, 0.997593, 1.00124, 1.0072, 1.00859, 1.00882, 1.0012, 1.00055, 0.996105, 0.994282, 0.99367, 0.997873, 0.997652, 1.00064, 1.00165, 1.162, 1.02196, 1.02715, 1.02543, 1.03024, 1.03484, 1.03554, 1.03403, 1.03671, 1.03916, 1.02883, 1.03306, 1.03349, 1.03785, 1.04294, 1.04366, 1.04254, 1.02214, 1.025, 1.02636, 1.0274, 1.03084, 1.25543, 1.05465, 1.0873, 1.08383, 1.08468, 1.17654, 1.17864, 1.17949, 1.18205, 1.2777, 1.27424, 1.26431, 1.25326, 1.2496, 1.07187, 1.04337, 1.08023, 1.11406, 1.20353, 1.20076, 1.04777, 1.04054, 1.07187, 1.04171, 1.13425, 1.01867, 0.986739, 0.987007, 0.984414, 0.980144, 0.980851
0.994275, 0.98742, 0.988797, 0.988436, 0.989059, 0.977364, 0.994246, 0.995253, 0.96388, 0.973301, 0.971037, 0.981414, 0.989916, 0.989104, 0.984768, 0.975988, 0.973389, 0.971309, 0.969072, 0.972142, 0.976599, 0.976612, 0.974828, 0.9757, 0.975134, 0.975849, 0.974438, 0.973341, 0.984174, 0.96696, 0.984802, 0.956439, 0.939769, 0.945911, 0.933193, 0.921885, 0.923236, 0.96399, 0.959481, 0.959407, 0.959223, 0.959187, 0.959696, 0.96043, 0.962045, 0.961128, 0.960165, 0.960636, 0.954613, 0.95342, 0.952728, 0.94991, 0.950381, 0.950593, 0.948308, 0.948426, 0.945174, 0.943644, 0.943976, 0.942728, 0.932035, 0.933102, 0.936401, 0.956344, 0.958301, 0.957621, 0.960431, 0.962156, 0.965689, 0.960807, 0.954488, 0.954695, 0.954693, 0.960506, 0.964981, 0.961169, 0.960029, 0.959583, 0.95018, 0.945989, 0.941977, 0.930012, 0.929765, 0.940669, 0.939947, 0.939808, 0.934128, 0.93435, 0.934111, 0.933626, 0.937015, 0.939107, 0.936173, 0.934148, 0.934261, 1.08137, 1.04114, 0.978504, 0.969544, 0.956719, 0.950777, 0.950692, 1.17379, 1.00758, 1.00563, 0.994319, 1.00421, 1.00618, 1.00302, 1.00092, 1.00456, 1.00696, 1.00736, 1.00132, 1.00048, 1.11387, 0.986183, 0.987245, 0.987679, 0.987532, 1.06293, 0.985096, 0.985164, 0.985048, 0.997547, 0.997757, 0.999221, 0.997372, 0.997644, 0.99152, 0.98979, 0.987474, 0.987622, 0.986995, 0.985021, 0.98339, 0.981392, 0.981484, 0.982293, 0.978271, 0.97739, 0.975516, 0.975654, 0.974406, 0.973241, 0.97254, 0.969049, 0.970186, 0.97242, 0.973131, 0.979261, 0.979985, 0.977975, 0.978892, 0.981127, 0.980686, 0.982939, 0.98793, 0.984891, 0.986077, 0.987626, 0.980873, 0.980457, 0.981223, 0.983967, 0.988255, 0.987876, 0.986848, 0.981069, 0.980081, 0.98088, 0.98409, 0.988919, 0.997799, 0.999505, 1.00306, 1.00348, 1.00325, 1.00265, 0.997955, 0.998471, 0.993526, 0.995055, 1.00174, 1.00742, 1.01139, 1.04016, 1.02029, 1.03158, 1.02985, 1.02895, 1.03087, 1.04118, 1.03898, 1.03934, 1.04216, 1.0424, 1.03201, 1.03184, 1.03663, 1.04024, 1.04424, 1.04622, 1.04248, 1.04351, 1.02543, 1.02595, 1.02956, 1.02913, 1.02932, 1.0305, 1.05698, 1.08367, 1.17706, 1.17709, 1.1769, 1.28033, 1.27998, 1.20633, 1.21627, 1.25132, 1.26772, 1.06662, 1.06741, 1.08498, 1.06067, 1.28934, 1.04976, 1.02316, 1.02294, 1.02037, 1.02535, 1.20551, 1.14126, 0.988794, 0.986579, 0.983891, 0.983558, 0.977654, 0.982077
0.988717, 0.987693, 0.991723, 0.997339, 0.996393, 0.995609, 0.980991, 0.978448, 0.966498, 0.969786, 0.977083, 0.986895, 0.988753, 0.993494, 0.986446, 0.973415, 0.970354, 0.970868, 0.970621, 0.96994, 0.966246, 0.970785, 0.976213, 0.971439, 0.969376, 0.972372, 0.973811, 0.971958, 0.977931, 0.980266, 0.981402, 0.953266, 0.94014, 0.928735, 0.926462, 0.918565, 0.955841, 0.952539, 0.95559, 0.958593, 0.958404, 0.958712, 0.954095, 0.955291, 0.95825, 0.959757, 0.959155, 0.954983, 0.955735, 0.954147, 0.953945, 0.952442, 0.950228, 0.947978, 0.947165, 0.947879, 0.94677, 0.946185, 0.945511, 0.943707, 0.93482, 1.00863, 0.967279, 0.96417, 0.965448, 0.966608, 0.970804, 0.965282, 0.965431, 0.954355, 0.953297, 0.953692, 0.956353, 0.964235, 0.963446, 0.962942, 0.963264, 0.951913, 0.944629, 0.943171, 0.943082, 0.934683, 0.936341, 0.941097, 0.942156, 0.936156, 0.936499, 0.933895, 0.934934, 0.92893, 0.936851, 0.9373, 0.949759, 0.950491, 0.946113, 0.944197, 0.981144, 0.970255, 0.969619, 0.966381, 0.965417, 0.99819, 0.997805, 0.980641, 1.00964, 1.00603, 1.00758, 1.00545, 1.00173, 1.00568, 1.00519, 1.0018, 1.00153, 1.00467, 0.988517, 0.986729, 0.986723, 0.983624, 0.982477, 0.98149, 0.979134, 0.982478, 0.984481, 0.98615, 0.998138, 1.00015, 1.0013, 1.00111, 0.994941, 0.990295, 0.989525, 0.988563, 0.988365, 0.984826, 0.984433, 0.986816, 0.984316, 0.979003, 0.979517, 0.97597, 0.976596, 0.975792, 0.975405, 0.975955, 0.97412, 0.970686, 0.969095, 0.971334, 0.97161, 0.976018, 0.97928, 0.980331, 0.978386, 0.978243, 0.980107, 0.980616, 0.984576, 0.996642, 0.995603, 0.993509, 0.988002, 0.980514, 0.981646, 0.982071, 0.987503, 0.989846, 0.989436, 0.983556, 0.983746, 0.98173, 0.981384, 0.98553, 0.989513, 0.997721, 1.00718, 1.00577, 1.0026, 1.00002, 0.990986, 0.990196, 0.999034, 1.00002, 1.00208, 1.00901, 1.01178, 1.01424, 1.01499, 1.02746, 1.03092, 1.03077, 1.02871, 1.04074, 1.04046, 1.0405, 1.04236, 1.04324, 1.04206, 1.03822, 1.03576, 1.03674, 1.04063, 1.04422, 1.04741, 1.04506, 1.04612, 1.02819, 1.02858, 1.03163, 1.03225, 1.02998, 1.0333, 1.03405, 1.03602, 1.05065, 1.17778, 1.18259, 1.18626, 1.19597, 1.25074, 1.21163, 1.2194, 1.10246, 1.12928, 1.1246, 1.10703, 1.10548, 1.1888, 1.18802, 1.05573, 1.01569, 1.05626, 1.0595, 0.996146, 0.990739, 0.98564, 0.984022, 0.983569, 0.981481, 0.976678, 0.978285
0.993338, 0.994095, 0.997865, 0.993999, 0.995851, 0.999454, 0.986812, 0.988702, 0.974447, 0.950158, 0.955309, 0.954733, 0.98053, 0.990932, 0.978085, 0.979417, 0.981069, 0.976689, 0.97644, 0.964685, 0.966284, 0.968769, 0.966754, 0.974234, 0.976368, 0.970504, 0.970527, 0.973277, 0.967698, 0.957052, 0.97374, 0.952603, 0.961753, 0.953206, 0.928389, 0.960459, 0.961791, 0.953086, 0.954149, 0.955148, 0.957383, 0.958329, 0.9537, 0.954086, 0.954976, 0.957561, 0.95412, 0.954255, 0.954661, 0.95421, 0.952903, 0.952593, 0.947799, 0.946991, 0.94756, 0.948667, 0.950794, 0.95041, 0.948364, 0.949613, 1.08084, 0.953383, 0.96677, 0.966186, 0.966587, 0.970551, 0.969909, 0.97011, 0.969712, 0.95774, 0.955518, 0.955806, 0.958118, 0.960324, 0.959831, 0.961, 0.96268, 0.950759, 0.943656, 0.944071, 0.938664, 0.938882, 0.943949, 0.940188, 0.939574, 0.931989, 0.931679, 0.92962, 0.930734, 0.928998, 0.930264, 0.939669, 0.949618, 0.950198, 0.949882, 0.946065, 0.956507, 0.961281, 0.962962, 0.96546, 1.00456, 1.00538, 1.12086, 0.985682, 1.01707, 1.00469, 1.00716, 1.01087, 1.00875, 1.00873, 1.00286, 1.00292, 0.996927, 0.987109, 0.98662, 0.986742, 0.9798, 0.980155, 0.979884, 0.977207, 0.97693, 0.981566, 0.983466, 0.997029, 0.998995, 0.999018, 1.00003, 1.00021, 0.999716, 0.994507, 0.993896, 0.989352, 0.988182, 0.988422, 0.987913, 0.98652, 0.983223, 0.976415, 0.976857, 0.977105, 0.973942, 0.974243, 0.974819, 0.976466, 0.974537, 0.972164, 0.969741, 0.970352, 0.973288, 0.975749, 0.977268, 0.981505, 0.98124, 0.980092, 0.980333, 0.983952, 0.987509, 0.996421, 0.997879, 0.996183, 0.994432, 0.991636, 0.98819, 0.986143, 0.987065, 0.987576, 0.987911, 0.983768, 0.98225, 0.982476, 0.984093, 0.987519, 0.989568, 1.00075, 1.00746, 1.00798, 1.00777, 1.00086, 0.992923, 0.992846, 0.999525, 1.00466, 1.00909, 1.01557, 1.01506, 1.01714, 1.03242, 1.02859, 1.02926, 1.03033, 1.03803, 1.04076, 1.04144, 1.04416, 1.04374, 1.04418, 1.04396, 1.04101, 1.22761, 1.03885, 1.04294, 1.04007, 1.05042, 1.18113, 1.08779, 1.02637, 1.02725, 1.02978, 1.03466, 1.0426, 1.14241, 1.03449, 1.03506, 1.03653, 1.10178, 1.18615, 1.19025, 1.1881, 1.23715, 1.16848, 1.06635, 1.0779, 1.14241, 1.17042, 1.13544, 1.12828, 1.18255, 1.18428, 1.02367, 1.20891, 0.995744, 0.986036, 0.986138, 0.989722, 0.990484, 0.982763, 0.978028, 0.977778, 0.977543, 0.975774
0.997283, 0.997572, 0.998158, 1.00068, 0.99732, 0.998055, 0.986893, 0.986359, 1.0193, 0.959655, 0.959417, 0.970288, 0.983442, 0.979787, 0.978986, 0.976704, 0.977864, 0.97571, 0.97505, 0.967308, 0.967001, 0.973211, 0.975803, 0.976771, 0.963212, 0.963087, 0.962738, 0.962956, 0.964266, 0.958935, 0.954388, 0.956678, 0.957953, 0.957756, 0.956679, 0.96318, 0.960649, 0.954011, 0.953765, 0.958455, 0.958764, 0.954994, 0.955047, 0.953853, 0.954309, 0.953906, 0.954762, 0.95396, 0.954669, 0.952304, 0.949454, 0.948189, 0.946849, 0.947401, 0.9495, 0.953166, 0.952211, 0.952307, 0.95188, 0.950964, 0.950522, 0.9521, 0.960379, 0.965931, 0.966592, 0.973772, 0.977725, 0.971161, 0.964548, 0.962812, 0.959664, 0.95943, 0.959042, 0.957964, 0.959335, 0.959346, 0.949832, 0.946666, 0.943165, 0.939308, 0.939148, 0.949354, 0.948787, 0.945678, 0.940438, 0.931067, 0.930219, 0.930109, 0.930721, 0.931383, 0.932196, 0.940774, 0.950099, 0.951723, 0.954802, 0.956263, 0.958888, 0.958508, 0.961282, 0.984805, 0.987275, 0.989194, 0.999062, 1.00366, 1.00361, 1.00427, 1.00755, 1.01118, 1.00945, 1.00851, 1.00457, 0.998177, 0.991375, 0.985943, 0.982215, 0.982027, 0.979976, 0.979808, 0.978851, 0.976485, 0.976901, 0.982719, 0.989882, 0.990152, 1.00054, 1.00068, 1.00109, 0.999936, 0.999732, 0.999942, 0.991181, 0.991072, 0.9914, 0.991605, 0.991668, 0.984019, 0.981306, 0.979112, 0.977114, 0.976796, 0.974615, 0.970613, 0.971481, 0.972168, 0.972222, 0.971891, 0.969726, 0.972532, 0.973467, 0.973197, 0.975049, 0.981539, 0.979393, 0.978848, 0.98075, 0.988065, 0.994093, 0.999029, 1.00154, 1.00108, 0.999375, 1.00092, 0.990122, 0.987705, 0.98632, 0.985764, 0.984157, 0.982714, 0.980614, 0.983451, 0.983684, 0.990263, 1.00076, 1.0013, 1.00421, 1.00833, 1.00786, 1.0009, 0.995383, 0.995573, 1.0003, 1.00839, 1.0105, 1.01676, 1.01862, 1.02916, 1.0303, 1.03095, 1.02922, 1.03093, 1.04018, 1.04478, 1.04683, 1.04277, 1.0442, 1.04551, 1.04016, 1.04079, 1.24234, 1.30679, 1.04072, 1.03998, 1.18476, 1.11795, 1.28836, 1.12368, 1.02958, 1.03, 1.03934, 1.03934, 1.04065, 1.03879, 1.03645, 1.03687, 1.02919, 1.11622, 1.10482, 1.06792, 1.0747, 1.071, 1.04241, 1.17322, 0.984937, 0.983543, 0.982681, 0.982448, 0.979528, 0.979091, 0.983536, 0.986829, 0.986388, 0.987785, 0.985161, 0.984833, 0.982642, 0.980362, 0.980827, 0.978779, 0.978645, 0.978438
1.00468, 1.00285, 1.15513, 1.01212, 0.995438, 0.996381, 0.983825, 0.983503, 0.983834, 1.20967, 0.969075, 0.971731, 0.971143, 0.980819, 0.974735, 0.974919, 0.974711, 0.975993, 0.975912, 0.974482, 0.971019, 0.973984, 0.973307, 0.970835, 0.986148, 0.970122, 0.963256, 0.959845, 0.960153, 0.956249, 0.956926, 0.955871, 0.9598, 0.966642, 0.963567, 0.963158, 0.960858, 0.960345, 0.956633, 1.13387, 0.953561, 0.95383, 0.954217, 0.953165, 0.952574, 0.952262, 0.952488, 0.954066, 0.953292, 0.949814, 0.949471, 0.94783, 0.948224, 0.948723, 0.953551, 0.959294, 0.957071, 0.956994, 0.951839, 0.951364, 0.954502, 0.952886, 0.953844, 0.960378, 0.970309, 0.971444, 0.978637, 0.97805, 0.971774, 0.964145, 0.963257, 0.96052, 0.957221, 0.955839, 0.955246, 0.954104, 0.945796, 0.946874, 0.946711, 0.945592, 0.948881, 0.950966, 0.95138, 0.951857, 0.946645, 0.942507, 0.935995, 0.932701, 0.932739, 0.933079, 0.932472, 0.944172, 0.9525, 0.953046, 0.955953, 0.956654, 0.960125, 0.959387, 1.08007, 0.985399, 0.987316, 0.991316, 1.00089, 1.00437, 1.00839, 1.0086, 1.00959, 1.01113, 1.01165, 1.01191, 1.0055, 0.990728, 0.984639, 0.984689, 0.980279, 0.980356, 0.97774, 0.97764, 0.976515, 0.977133, 0.982473, 0.98399, 0.989759, 0.992835, 0.994914, 1.00226, 1.00412, 1.00285, 0.999291, 0.99379, 0.994488, 0.992606, 0.997417, 0.997713, 0.996168, 0.983608, 0.983667, 0.983291, 0.980806, 0.972738, 0.971591, 0.969218, 0.969737, 0.970079, 0.969921, 0.968442, 0.968924, 0.971652, 0.971908, 0.973023, 0.977014, 0.976258, 0.977888, 0.977218, 0.981464, 0.98368, 0.988147, 0.994227, 0.999798, 1.00398, 0.999624, 1.00065, 0.988435, 0.986615, 0.98676, 0.985704, 0.985729, 0.981491, 0.981051, 0.980801, 0.975755, 0.994285, 0.994158, 1.00388, 1.00591, 1.00654, 1.008, 1.00706, 1.0021, 1.00408, 1.00494, 1.00734, 1.01629, 1.0212, 1.02173, 1.02783, 1.029, 1.02991, 1.03584, 1.03961, 1.04392, 1.04491, 1.04924, 1.05297, 1.05321, 1.05264, 1.05367, 1.0561, 1.06679, 1.06627, 1.03971, 1.03587, 1.03676, 1.14638, 1.21916, 1.16387, 0.00379035, 1.0282, 1.02754, 1.03657, 1.03746, 1.0328, 1.01507, 1.01605, 1.02451, 1.02513, 1.02646, 1.08512, 1.08699, 1.07064, 1.07118, 1.17211, 0.983338, 0.984267, 0.983745, 0.983972, 0.975174, 0.977103, 0.982266, 0.985007, 0.985517, 0.984897, 0.980945, 0.978579, 0.974068, 0.977249, 0.978185, 0.978, 0.977232, 0.976737
1.00267, 1.00566, 1.00923, 1.01249, 1.01323, 0.986048, 0.985366, 0.982365, 0.985239, 0.970026, 0.969398, 0.963227, 0.963268, 0.975417, 0.976791, 0.97491, 0.973756, 0.972026, 0.973532, 0.973455, 0.97257, 0.975023, 0.974727, 0.994475, 0.968352, 0.965592, 0.993982, 0.966186, 0.963132, 0.959483, 0.960093, 0.957468, 0.95949, 0.964552, 0.96526, 0.961892, 0.960584, 0.956411, 0.952172, 0.951705, 0.949913, 0.953371, 0.953209, 0.951711, 0.950515, 0.952069, 0.952445, 0.951404, 0.950411, 0.949446, 0.947045, 0.946704, 0.949338, 0.956293, 0.957035, 0.959239, 0.960119, 0.957553, 0.953152, 0.952981, 0.955847, 0.953661, 0.956642, 0.963837, 0.97061, 0.974032, 0.982783, 0.982063, 0.975514, 0.969692, 0.967454, 0.964132, 0.960864, 0.95781, 0.956096, 0.952919, 0.943573, 0.945768, 0.946372, 0.946091, 0.951802, 0.951184, 0.952209, 0.952718, 0.952359, 0.943378, 0.941022, 0.935972, 0.93211, 0.932155, 0.942197, 0.94461, 0.952333, 0.952375, 0.954656, 0.955357, 0.99646, 1.01979, 0.988469, 0.989695, 0.994375, 1.00059, 1.00283, 1.00401, 1.0101, 1.01212, 1.01013, 1.00837, 1.00878, 1.00914, 1.0888, 0.988681, 0.981261, 0.98056, 0.978218, 0.977698, 0.97636, 0.97665, 0.976781, 0.977275, 0.98393, 0.983485, 0.993754, 0.995467, 1.00177, 1.00226, 1.00864, 1.00911, 1.00094, 0.994763, 1.00179, 0.999702, 1.00136, 1.00351, 1.00454, 0.991655, 0.98932, 0.985884, 0.985581, 0.977846, 0.967839, 0.968431, 0.961728, 0.967086, 0.968945, 0.967763, 0.967288, 0.969481, 0.970607, 0.971055, 0.973558, 0.975814, 0.9772, 0.981723, 0.981378, 0.980144, 0.984388, 0.992322, 0.996198, 0.998702, 0.997448, 0.996548, 0.987528, 0.984227, 0.986135, 0.987319, 0.987758, 0.982908, 0.981819, 0.979458, 0.979214, 0.981327, 0.998811, 1.00198, 1.00189, 1.00801, 1.00822, 1.00528, 1.00362, 1.00516, 1.00574, 1.01201, 1.01487, 1.02177, 1.02264, 1.02915, 1.03075, 1.03483, 1.03813, 1.03632, 1.05073, 1.05148, 1.05379, 1.05563, 1.06511, 1.26793, 1.0551, 1.05468, 1.06568, 1.07249, 1.07667, 1.03646, 1.03694, 1.22979, 1.20625, 1.05001, 1.04975, 1.02228, 1.02219, 1.08131, 1.02932, 1.02959, 1.01891, 1.01671, 1.02003, 1.02617, 1.02769, 1.07727, 1.00149, 1.00158, 0.99868, 0.99631, 0.986545, 0.985093, 0.986274, 0.983686, 0.980344, 0.980154, 0.982138, 0.984697, 0.985585, 0.982371, 0.980569, 0.971481, 0.971662, 0.975352, 0.976629, 0.977136, 0.975884, 0.97682
1.0008, 1.0044, 1.00789, 1.00696, 1.00453, 0.985527, 0.984665, 0.979863, 0.980416, 0.988532, 0.961912, 0.961574, 0.956964, 0.954256, 1.18314, 0.975106, 0.97522, 0.975917, 0.974795, 0.973791, 0.973315, 0.977828, 0.978546, 0.967901, 0.986021, 0.96036, 0.990956, 0.946774, 0.966234, 0.961094, 0.95934, 0.958432, 0.958429, 0.958648, 0.957573, 0.958246, 0.959193, 0.947745, 0.950829, 0.950309, 0.951833, 0.952632, 0.952282, 0.95052, 0.949388, 0.951869, 0.952244, 0.949123, 0.949106, 0.948812, 0.947893, 0.949168, 0.949605, 0.96019, 0.965974, 0.961921, 0.962786, 0.953009, 0.951829, 0.954716, 0.956704, 0.956394, 0.964795, 0.96719, 0.971505, 0.980392, 0.981793, 0.979682, 0.973003, 0.966838, 0.966348, 0.961575, 0.959754, 0.95456, 0.952554, 0.951835, 0.952301, 0.950069, 0.950536, 0.952542, 0.951247, 0.949625, 0.952372, 0.952857, 0.949844, 0.942757, 0.941798, 0.940298, 0.937793, 0.941968, 0.943601, 0.947357, 0.949718, 0.950532, 0.951872, 0.954172, 0.978531, 0.985162, 0.988471, 0.990365, 0.9993, 1.00219, 1.00525, 1.0076, 1.0112, 1.01242, 1.01016, 1.0054, 1.00824, 0.992245, 0.987706, 0.979809, 0.979498, 0.977634, 0.976475, 0.975275, 0.976339, 0.978815, 0.979388, 0.978459, 0.984722, 0.985403, 0.987177, 1.00179, 1.00304, 1.00521, 1.00672, 1.00804, 1.00949, 1.00387, 1.00465, 1.00809, 1.0087, 1.01128, 1.00571, 0.994686, 0.99388, 0.981701, 0.97867, 0.97339, 0.9669, 0.95992, 0.960914, 0.9629, 0.949968, 1.14355, 0.962836, 0.968359, 0.970224, 0.970319, 0.975102, 0.977169, 0.981766, 0.982341, 0.978522, 0.980075, 0.983414, 0.997116, 0.99709, 0.995443, 0.994827, 0.995421, 0.994184, 0.987995, 0.988909, 0.989555, 0.994395, 0.99368, 0.982568, 0.98099, 0.98107, 0.982323, 0.995765, 0.998494, 1.00092, 1.0044, 1.00515, 1.00258, 1.00367, 1.00458, 1.0146, 1.01402, 1.01555, 1.02284, 1.02595, 1.03005, 1.03506, 1.03681, 1.04112, 1.03707, 1.0387, 1.05122, 1.05342, 1.1701, 1.07831, 1.25593, 1.08068, 1.08058, 1.05246, 1.08824, 1.07725, 1.12281, 1.02892, 1.05035, 1.05086, 1.05234, 1.05024, 1.20831, 1.01101, 1.07626, 1.02603, 1.02655, 1.02627, 1.02336, 1.02558, 1.02771, 1.03238, 1.05568, 1.00225, 1.00334, 0.997352, 0.998918, 0.998448, 0.998143, 0.983347, 0.974799, 0.977942, 0.980317, 0.983806, 0.986785, 0.986985, 0.978077, 0.96857, 0.968478, 0.971038, 0.9741, 0.976717, 0.979074, 0.980887, 0.982206
1.00289, 1.00449, 1.00647, 1.00667, 1.00356, 0.985926, 0.987265, 0.987608, 0.976134, 0.969705, 0.968428, 0.960512, 0.952256, 0.94897, 0.950403, 0.975933, 0.975671, 0.974378, 0.974111, 0.972106, 0.974299, 0.976039, 0.976968, 0.980123, 0.959448, 0.952207, 0.949263, 0.963575, 0.963007, 0.961037, 0.960224, 0.959782, 0.961253, 0.96145, 0.963233, 0.958249, 0.953504, 0.951295, 0.952273, 0.952864, 0.954196, 0.952924, 0.95252, 0.950803, 0.95064, 0.95089, 0.949677, 0.94855, 0.949271, 0.949145, 0.949976, 0.950594, 0.955435, 0.968209, 0.968708, 0.968903, 0.958175, 0.954917, 0.954599, 0.957592, 0.961863, 0.962779, 0.963112, 0.967741, 0.970371, 0.97466, 0.976455, 0.976693, 0.973599, 0.96626, 0.958316, 0.956139, 0.955136, 0.955155, 0.953991, 0.954524, 0.952746, 0.949726, 0.948872, 0.949019, 0.94939, 0.949489, 0.950317, 0.949809, 0.949269, 0.947613, 0.944545, 0.945877, 0.947783, 1.07287, 0.953247, 0.957171, 0.95361, 0.951279, 0.95237, 1.05025, 0.987006, 0.98965, 0.991616, 1.00004, 1.00249, 1.00442, 1.00803, 1.0091, 1.01199, 1.01172, 1.00552, 1.00418, 0.991747, 0.987575, 0.984423, 0.97755, 0.977389, 0.974814, 0.974519, 0.976575, 0.97706, 0.97884, 0.978765, 0.977729, 0.984231, 0.987603, 0.9877, 0.990932, 0.996929, 0.998271, 1.00598, 1.01194, 1.01187, 1.01007, 1.00797, 1.00902, 1.00711, 1.01155, 1.00816, 0.99123, 0.990963, 0.980422, 0.979935, 0.970313, 0.96969, 0.966593, 0.959467, 0.949776, 0.953914, 0.957642, 0.96072, 0.964843, 0.966719, 0.968128, 0.975563, 0.981332, 0.982923, 0.977241, 0.977306, 0.979345, 0.991457, 0.994537, 0.994245, 0.994699, 0.995916, 0.995844, 0.990762, 0.989729, 0.990821, 0.990423, 0.990745, 0.994997, 0.995334, 0.976847, 0.977743, 0.989721, 0.991324, 1.00148, 1.00137, 1.00139, 1.0032, 1.00092, 1.0045, 1.00477, 1.01114, 1.02818, 1.01976, 1.02254, 1.0255, 1.0276, 1.03205, 1.03973, 1.11472, 1.03787, 1.0361, 1.03778, 1.08137, 1.17808, 1.08107, 1.08234, 1.08339, 1.08236, 1.13397, 1.03916, 1.06758, 1.11512, 1.021, 1.09173, 1.05104, 1.05163, 1.13239, 1.13584, 1.00648, 1.13992, 1.13118, 1.02575, 1.0266, 1.02676, 1.02478, 1.02596, 1.17883, 1.00735, 1.00755, 1.00571, 0.994668, 0.994978, 0.989259, 0.981695, 0.972396, 0.971015, 0.970235, 0.981871, 0.983557, 0.984561, 0.981377, 0.979721, 0.97011, 0.969931, 0.971699, 0.977028, 0.978543, 0.981082, 0.981636, 0.982771
1.0037, 1.00599, 1.00741, 1.00672, 1.00017, 1.00119, 1.00749, 0.975339, 0.973855, 0.97396, 0.974493, 0.994944, 0.952701, 0.948868, 0.945996, 0.969954, 0.971763, 0.973898, 0.971455, 0.972394, 0.977617, 0.973001, 0.971931, 0.976921, 0.975, 0.981893, 0.957483, 0.964058, 0.963743, 0.963487, 0.961793, 0.960204, 0.960014, 0.96293, 0.96628, 0.965376, 0.953755, 0.953436, 0.95311, 0.951204, 0.954726, 0.95342, 0.952342, 0.953239, 0.952287, 0.949124, 0.948853, 0.94683, 0.94776, 0.94898, 0.949154, 0.951574, 0.957575, 0.966845, 0.965667, 0.961736, 0.959899, 0.957781, 0.957228, 0.963291, 0.965917, 0.965102, 0.966886, 0.966984, 0.966061, 0.967979, 0.972865, 0.970561, 0.963232, 0.961768, 0.952255, 0.954335, 0.957358, 0.955193, 0.956146, 0.957935, 0.958778, 0.947335, 0.950208, 0.949117, 0.948892, 0.947986, 0.948951, 0.948784, 0.949106, 0.94993, 0.95389, 0.954699, 0.957081, 1.00913, 0.960204, 0.95858, 0.95941, 0.950873, 1.04572, 1.03707, 0.991181, 0.991529, 1.00157, 1.0051, 1.00665, 1.00801, 1.00864, 1.0076, 1.00819, 1.00485, 1.00476, 0.996981, 0.985748, 0.98273, 0.978776, 0.976947, 0.976776, 0.976714, 0.976906, 0.979666, 0.978575, 0.978255, 0.982499, 0.983628, 0.987415, 0.989145, 0.988618, 0.98962, 0.993915, 1.00087, 1.00222, 1.01181, 1.01175, 1.01139, 1.0084, 0.999241, 0.9989, 1.00286, 0.999601, 0.990889, 0.984312, 0.982082, 0.971835, 0.971713, 0.966901, 0.966448, 0.961984, 0.961385, 0.959081, 0.959408, 0.96056, 0.966347, 0.970236, 0.972547, 0.978861, 0.980648, 0.980062, 0.978449, 0.977989, 0.987101, 0.987682, 0.989239, 0.989448, 0.993403, 0.997478, 0.990344, 0.99032, 0.990337, 0.990773, 0.991025, 0.986928, 0.987677, 0.98425, 0.983326, 0.984234, 0.987451, 0.993648, 1.00452, 1.00112, 1.00208, 1.00101, 1.00763, 1.00823, 1.00889, 1.01867, 1.0219, 1.02488, 1.02349, 1.02229, 1.27065, 1.12264, 1.04639, 1.04759, 1.05153, 1.03702, 1.03898, 1.09347, 1.07711, 1.08268, 1.08402, 1.0871, 1.08623, 1.12166, 1.12776, 1.11539, 1.01706, 1.03924, 1.04297, 1.09554, 1.21616, 0.00472121, 0.995033, 0.995633, 0.996797, 1.30157, 1.11936, 1.02686, 1.02808, 1.01727, 1.01055, 1.01142, 1.00585, 1.00843, 0.994337, 0.994416, 0.987743, 0.989875, 0.988469, 0.976553, 0.969423, 0.97007, 0.972986, 0.977355, 0.973476, 0.973513, 0.976573, 0.972301, 0.972241, 0.975558, 0.979574, 0.979389, 0.980889, 0.982362, 0.980529
1.00359, 1.00564, 1.00383, 1.00399, 1.00177, 0.993908, 1.00323, 0.97382, 0.974534, 0.974219, 0.974538, 0.998497, 0.998084, 0.944835, 0.944825, 0.948372, 0.948941, 0.986093, 0.971276, 0.994707, 0.976971, 0.971238, 0.969667, 0.978534, 0.962953, 0.963361, 0.960491, 0.967017, 0.963955, 0.963151, 0.962874, 0.962358, 0.961282, 0.962792, 0.963441, 0.963584, 0.953337, 0.953841, 0.952453, 0.954072, 0.953617, 0.950566, 0.952433, 0.949869, 0.953134, 0.949277, 0.948888, 0.947114, 0.947237, 0.949102, 0.949082, 0.950942, 0.951509, 0.962822, 0.962899, 0.959141, 0.959418, 0.959794, 0.961227, 0.966296, 0.971036, 0.971802, 0.966929, 0.963968, 0.962725, 0.962611, 0.963902, 0.964828, 0.965095, 0.959619, 0.957184, 0.956845, 0.956711, 0.95526, 0.957419, 0.958236, 0.958657, 0.959369, 0.95525, 0.952466, 0.952504, 0.949951, 0.951202, 0.949443, 0.952452, 0.953484, 0.957064, 0.965381, 0.970769, 0.969651, 0.969527, 0.972305, 0.97317, 0.974292, 1.0297, 0.990756, 1.11199, 0.998787, 1.00273, 1.00696, 1.00865, 1.0089, 1.00772, 1.00813, 1.00803, 1.00142, 0.998908, 0.991984, 0.980435, 0.977519, 0.976549, 0.976727, 0.977304, 0.978446, 0.980675, 0.980254, 0.981416, 0.980601, 0.981821, 0.990307, 0.990267, 0.989407, 0.989542, 0.992283, 0.995283, 0.995906, 0.998167, 1.00781, 1.00783, 1.00327, 1.00082, 0.994355, 0.995787, 0.997905, 1.00194, 0.988255, 0.985821, 0.982476, 0.978218, 0.971627, 0.968406, 0.966877, 0.963917, 0.96294, 0.960062, 0.959421, 0.960858, 0.977042, 0.974417, 0.977159, 0.976428, 0.977197, 0.975549, 0.9779, 0.98417, 0.987325, 0.987227, 0.99084, 0.991016, 0.991113, 0.991475, 0.992257, 0.991755, 0.990347, 0.983449, 0.980616, 0.979652, 0.979007, 0.982143, 0.987122, 0.994144, 0.995073, 0.998013, 1.00658, 1.00689, 1.00394, 1.00804, 1.08005, 1.02325, 1.02273, 1.01854, 1.02164, 1.0227, 1.02592, 1.02712, 1.12199, 1.0803, 1.05397, 1.05643, 1.24462, 1.06901, 1.09299, 1.03771, 1.08004, 1.08141, 1.082, 1.08749, 1.02013, 1.12385, 1.12383, 0.999228, 1.00518, 1.00436, 1.0031, 1.01535, 1.01353, 0.996419, 0.994179, 0.99441, 0.996565, 0.998027, 0.99909, 1.03686, 1.01562, 1.01572, 1.01002, 1.01091, 1.00538, 1.00255, 0.991985, 0.986133, 0.985294, 0.990842, 0.981504, 0.975315, 0.973508, 0.970851, 0.972128, 0.971901, 0.973284, 0.973342, 0.974922, 0.973982, 0.97659, 0.977218, 0.978109, 0.980654, 0.983564, 0.983837, 0.983697
0.991996, 0.994179, 1.00367, 1.00267, 1.00161, 0.998479, 0.987643, 0.984546, 0.981988, 0.975353, 0.974234, 0.973964, 0.984839, 0.984619, 0.947983, 0.948257, 0.94919, 0.948183, 0.991837, 1.09532, 0.972754, 0.973825, 0.967338, 0.969563, 0.969683, 0.966805, 0.966838, 0.966572, 0.966561, 0.962099, 0.961937, 0.966504, 0.970002, 0.965429, 0.966695, 0.967384, 0.96987, 0.953651, 0.954425, 0.952453, 0.951925, 0.950391, 0.947815, 0.94745, 0.94846, 0.949139, 0.950324, 0.950682, 0.952086, 0.949591, 0.948928, 0.947943, 0.949527, 0.946069, 0.957619, 0.958783, 0.959742, 0.960633, 0.966281, 0.966887, 0.970423, 0.97238, 0.966806, 0.964122, 0.96287, 0.962642, 0.964563, 0.962791, 0.959058, 0.959215, 0.955907, 0.954244, 0.955008, 0.956859, 0.956769, 0.957452, 0.959362, 0.961647, 0.963558, 0.953615, 0.953637, 0.955254, 0.955535, 0.959296, 0.954146, 0.956176, 0.956447, 0.971763, 0.972775, 0.975412, 0.980479, 0.976881, 0.976339, 0.975233, 1.11698, 0.996965, 0.998879, 1.00294, 1.00451, 1.00976, 1.01013, 1.00994, 1.00892, 0.995816, 0.996253, 1.00118, 0.993455, 0.988745, 0.978861, 0.978011, 0.978187, 0.977767, 0.97957, 0.981709, 0.979965, 0.982667, 0.982857, 0.984168, 0.98486, 0.990854, 0.990437, 0.989075, 0.990684, 0.988747, 0.990221, 0.99592, 0.997349, 1.00119, 0.997543, 0.997274, 0.997714, 0.994428, 0.996633, 0.995075, 0.993035, 0.990864, 0.98492, 0.983829, 0.979583, 0.973927, 0.970046, 0.966642, 0.966304, 0.963059, 0.957727, 0.96193, 0.963006, 0.97489, 0.974993, 0.972154, 0.97313, 0.974313, 0.979283, 0.985131, 0.985989, 0.987391, 0.98937, 0.990596, 0.987169, 0.987512, 0.989885, 0.990991, 0.9921, 0.975824, 0.975237, 0.977218, 0.977353, 0.977061, 0.991585, 0.995076, 0.997214, 0.998948, 1.00816, 1.00766, 1.00817, 1.00137, 1.06806, 1.02288, 1.02296, 1.02185, 1.02194, 1.02142, 1.0267, 1.11698, 1.11565, 1.0533, 1.05785, 1.06106, 1.06086, 1.07025, 1.07381, 1.31634, 1.03563, 1.03539, 1.08038, 1.07908, 1.10866, 1.00696, 1.00478, 0.996121, 0.995949, 0.998124, 1.00297, 1.003, 1.01026, 1.0102, 0.99812, 0.997932, 0.995567, 0.996359, 0.996466, 1.00071, 1.00414, 1.00566, 1.01143, 1.00996, 1.00596, 1.00519, 1.00542, 1.00307, 0.988499, 0.985566, 0.985007, 0.984217, 0.980314, 0.972962, 0.973218, 0.975971, 0.976658, 0.97449, 0.970342, 0.970611, 0.970187, 0.97312, 0.974592, 0.978434, 0.984154, 0.989969, 0.988355, 0.98629
0.991503, 0.992018, 1.00281, 1.00381, 1.00418, 0.999324, 1.01174, 0.98301, 0.981884, 1.13866, 1.13961, 0.98635, 0.986239, 0.993734, 0.957116, 0.953859, 0.946791, 0.946913, 0.968009, 0.967218, 0.977943, 0.980626, 0.978475, 0.972864, 0.971445, 0.968823, 0.972981, 0.966436, 0.969929, 0.966203, 0.966885, 0.969552, 0.969769, 0.970266, 0.963777, 0.966367, 0.966355, 0.960715, 0.955989, 0.953886, 0.949408, 0.946676, 0.946653, 0.943383, 0.947617, 0.951092, 0.95309, 0.952851, 0.951228, 0.948394, 0.948082, 0.947293, 0.946012, 0.94573, 0.949422, 0.953863, 0.956166, 0.961071, 0.965867, 0.96958, 0.973139, 0.972175, 0.967342, 0.966875, 0.965015, 0.968639, 0.964825, 0.958845, 0.955814, 0.954586, 0.953016, 0.954138, 0.956895, 0.957235, 0.955783, 0.956266, 0.957796, 0.963068, 0.969526, 0.966172, 0.954173, 0.952885, 0.963546, 0.963182, 0.946642, 0.949466, 0.953222, 0.970676, 0.972757, 0.977936, 0.981229, 0.982609, 0.980399, 1.16255, 0.996104, 0.999972, 1.00191, 1.00447, 1.00741, 1.00989, 1.00931, 1.00606, 1.06028, 0.989458, 0.989432, 0.998379, 0.991446, 0.988399, 0.985938, 0.97864, 0.979361, 0.980095, 0.980835, 0.983585, 0.982283, 0.980883, 0.983892, 0.987267, 0.994054, 0.996657, 0.992352, 0.991058, 0.99023, 0.990344, 0.990658, 0.988632, 0.994128, 0.994115, 0.993565, 0.994964, 0.994999, 0.993209, 0.994924, 0.992972, 0.98533, 0.986711, 0.986958, 0.986997, 0.983998, 0.973045, 0.969587, 0.966697, 0.963545, 0.960842, 0.96343, 0.964614, 0.970702, 0.973242, 0.973199, 0.97294, 0.973562, 0.980665, 0.98161, 0.987265, 0.987373, 0.987716, 0.990762, 0.987599, 0.987735, 0.988478, 0.990521, 0.980717, 0.980393, 0.973663, 0.973012, 0.975731, 0.98028, 1.00944, 0.994331, 0.996959, 1.00324, 1.00371, 1.00672, 1.01062, 1.01088, 1.01155, 1.01947, 1.02544, 1.02503, 1.02543, 1.01941, 1.02495, 1.02751, 1.05052, 1.05298, 1.05926, 1.05868, 1.06876, 1.07418, 1.07116, 1.07623, 1.22936, 1.09061, 1.1778, 1.02662, 1.11835, 1.10111, 0.998882, 0.992368, 0.991294, 0.997391, 0.997269, 1.00129, 1.00489, 1.00888, 1.01159, 1.0055, 0.997779, 1.00112, 0.999303, 1.00268, 1.00287, 1.00248, 1.00422, 1.00947, 1.00944, 1.00964, 1.00651, 1.00363, 0.998044, 0.985057, 0.984889, 0.980454, 0.97701, 0.976334, 0.971973, 0.974612, 0.975552, 0.980026, 0.977519, 0.975105, 0.970542, 0.969745, 0.971269, 0.974407, 0.981299, 0.986751, 0.989435, 0.990152, 0.991516
0.993002, 0.991833, 0.998561, 1.00424, 1.00386, 0.998091, 0.991073, 0.983744, 0.983926, 1.07533, 1.1364, 1.27826, 0.999436, 0.961473, 0.959337, 0.958279, 0.951833, 0.949339, 0.949897, 0.955132, 0.961702, 0.977915, 0.977273, 0.976561, 0.97416, 0.973932, 0.971717, 0.969439, 0.964392, 0.96617, 0.966182, 0.964558, 0.967961, 0.956178, 0.955913, 0.956918, 0.959082, 0.95739, 0.956946, 0.950263, 0.948166, 0.947949, 0.946805, 0.94735, 0.952056, 0.953672, 0.95299, 0.954143, 0.950768, 0.949418, 0.949095, 0.949207, 0.948968, 0.942955, 0.953037, 0.954869, 0.958565, 0.965841, 0.966598, 0.968009, 0.97135, 0.969273, 0.969826, 0.968576, 0.968307, 0.968684, 0.954857, 0.954937, 0.951551, 0.95236, 0.952462, 0.954673, 0.955966, 0.954544, 0.954425, 0.956485, 0.961105, 0.967102, 0.970358, 0.966946, 0.957455, 0.95816, 0.963565, 0.964511, 0.945545, 0.946466, 0.952327, 1.00143, 0.976925, 0.980032, 0.984463, 0.989006, 0.997427, 0.99618, 0.996376, 0.996166, 1.00138, 1.00706, 1.00772, 1.00862, 0.998329, 1.08806, 0.994114, 0.984775, 0.981096, 0.977916, 0.984372, 0.986223, 0.980796, 0.98045, 0.981043, 0.980902, 0.980268, 0.987532, 0.984893, 0.982076, 0.983884, 0.985833, 0.998407, 1.00163, 0.99399, 0.990222, 0.990994, 0.987827, 0.987763, 0.98735, 0.992754, 0.993749, 0.991629, 0.995482, 0.995154, 0.99415, 0.98914, 0.987403, 0.984473, 0.986308, 0.989236, 0.990282, 0.978752, 0.970646, 0.969293, 0.965799, 0.964546, 0.964307, 0.969154, 0.974107, 0.972774, 0.973182, 0.972936, 0.973861, 0.981034, 0.980506, 0.982385, 0.981983, 0.982746, 0.983893, 0.983067, 0.987186, 0.989773, 0.989387, 0.989811, 0.988217, 0.971627, 0.971533, 0.973041, 0.980546, 0.984718, 0.995475, 0.99802, 1.00537, 1.00525, 1.01187, 1.01172, 1.01059, 1.0098, 1.01798, 1.01677, 1.02171, 1.02638, 1.02895, 1.04035, 1.02534, 1.10816, 1.108, 1.05145, 1.0598, 1.06775, 1.07214, 1.08028, 1.08234, 1.07873, 1.07187, 1.09088, 0.00471641, 1.15402, 1.02327, 1.01132, 0.992547, 0.99426, 0.99276, 0.994529, 1.00913, 1.00672, 1.00637, 1.01122, 1.01209, 1.00257, 1.00317, 1.00177, 1.00075, 1.00447, 1.0038, 1.00094, 1.01116, 1.0094, 1.01172, 1.00714, 1.00794, 1.00809, 1.00208, 0.996729, 0.979766, 0.977453, 0.974875, 0.976361, 0.976481, 0.975356, 0.976268, 0.976438, 0.977045, 0.971874, 0.97009, 0.971006, 0.973878, 0.984455, 0.983786, 0.987108, 0.987392, 0.990328, 0.997086
0.995797, 0.992015, 0.995364, 1.00079, 0.996424, 0.993858, 0.991581, 0.983889, 0.98037, 0.955772, 0.954852, 0.954014, 0.965171, 0.963954, 0.962494, 0.957803, 0.952919, 0.950725, 0.949419, 0.952738, 0.959828, 0.977676, 0.978954, 0.977664, 0.975747, 0.974748, 0.974914, 0.969397, 0.970045, 0.970053, 0.963445, 0.961235, 0.957835, 0.959056, 0.955909, 0.955375, 0.955872, 0.956206, 0.952505, 0.951074, 0.951784, 0.950992, 0.948071, 0.948892, 0.953307, 0.954582, 0.95456, 0.95286, 0.950924, 0.950997, 0.953586, 0.953556, 0.94896, 0.948614, 0.946982, 0.957317, 0.963228, 0.967005, 0.971242, 0.973147, 0.970079, 0.969617, 0.967565, 0.96766, 0.96736, 0.95763, 0.952105, 0.951542, 0.952206, 0.95437, 0.956287, 0.954771, 0.951229, 0.952817, 0.952042, 0.956767, 0.959784, 0.966578, 0.964979, 0.960647, 0.960473, 0.965023, 0.971698, 0.971772, 0.949966, 0.952107, 0.955436, 0.966756, 0.980025, 0.981893, 0.985818, 0.985882, 0.994918, 0.999087, 0.996222, 0.996039, 0.996564, 0.996642, 1.0022, 0.997295, 0.993445, 0.987587, 0.990066, 0.981271, 0.97836, 0.977529, 0.977858, 0.977973, 0.977585, 0.979485, 0.980605, 0.98046, 0.980417, 0.988328, 0.983631, 0.981369, 0.982001, 0.987159, 0.9991, 0.998905, 0.994231, 0.987652, 0.987031, 0.987613, 0.988584, 0.9878, 0.990664, 0.991017, 0.990986, 0.993081, 0.99516, 0.988961, 0.989353, 0.987381, 0.988248, 0.99101, 0.991024, 0.985913, 0.974687, 0.974557, 0.967461, 0.965499, 0.965334, 0.96852, 0.976741, 0.976612, 0.978659, 0.984432, 0.988416, 0.982001, 0.981803, 0.981566, 0.982198, 0.983231, 0.976159, 0.979447, 0.983635, 0.986874, 0.991021, 0.984013, 0.986728, 0.990194, 0.977264, 0.974375, 0.977997, 1.00519, 0.995919, 1.10674, 1.0064, 1.01058, 1.08091, 1.01809, 1.01617, 1.01394, 1.01564, 1.01905, 1.01815, 1.02162, 1.03282, 1.03816, 1.0388, 1.03886, 1.03414, 1.05275, 1.05702, 1.06133, 1.06273, 1.08784, 1.16006, 1.08934, 1.08853, 1.08768, 1.07116, 1.06089, 1.08037, 0.996379, 0.996592, 0.991778, 0.993771, 0.995579, 1.00549, 1.00886, 1.00938, 1.00932, 1.00895, 1.00537, 1.00442, 1.00268, 1.00024, 1.00092, 1.00252, 1.00299, 1.00235, 1.00175, 1.00499, 1.00403, 1.00802, 1.00883, 1.00844, 1.01199, 1.12638, 0.980393, 0.979034, 0.984612, 0.983451, 0.983898, 0.972093, 0.972603, 0.971451, 0.973096, 0.972382, 0.971373, 0.972484, 0.975274, 0.983763, 0.985029, 0.984522, 0.986437, 0.988654, 0.994189
0.99593, 0.994522, 0.995424, 0.994501, 0.994113, 0.992315, 0.990945, 0.98425, 0.97988, 0.953656, 0.954044, 0.95395, 0.959832, 0.963451, 0.960047, 0.955423, 0.946405, 0.9453, 0.947543, 0.943944, 0.992015, 0.959313, 0.979361, 0.978496, 0.979483, 0.977885, 0.976205, 0.975676, 0.969979, 0.968003, 0.969299, 0.966723, 0.95926, 0.959762, 0.959179, 0.957393, 0.958165, 0.957892, 0.957178, 0.95299, 0.952515, 0.949763, 0.953293, 0.953535, 0.955694, 0.956093, 0.95571, 0.958005, 0.958754, 0.955402, 0.955056, 0.953324, 0.953336, 0.952402, 0.947765, 0.962645, 0.969259, 0.970804, 0.973264, 0.972116, 0.973951, 0.962327, 0.960418, 0.960687, 0.958881, 0.953631, 0.951714, 0.953356, 0.953951, 0.955949, 0.95592, 0.954391, 0.952482, 0.951496, 0.952108, 0.952285, 0.957498, 0.958645, 0.961486, 0.961328, 0.963517, 0.971902, 0.97249, 0.973407, 0.954359, 0.953816, 0.955913, 1.03204, 0.984366, 0.986322, 0.9866, 0.9925, 0.99444, 0.998079, 0.998446, 0.996197, 0.994279, 0.996739, 0.996227, 0.994191, 0.986003, 0.98696, 0.983546, 0.980669, 0.975705, 0.976431, 0.976018, 0.973596, 0.973347, 0.975445, 0.982072, 0.978941, 0.979864, 0.977116, 0.97589, 0.981599, 0.982025, 0.985587, 0.999286, 0.985795, 0.985365, 0.986089, 0.986785, 0.989322, 0.989598, 0.988836, 0.988116, 0.988979, 0.991989, 0.991434, 0.988423, 0.987882, 0.98938, 0.989829, 0.990606, 0.991055, 0.998432, 1.20148, 0.970426, 0.9665, 0.966206, 0.968304, 0.970852, 0.973725, 0.976197, 0.975801, 0.979248, 0.988167, 0.988256, 0.982593, 0.984308, 0.984852, 0.98586, 0.975045, 0.97628, 0.977069, 0.983035, 0.988093, 0.984421, 0.975118, 0.9769, 1.01246, 1.01199, 1.00621, 1.17315, 0.998139, 1.00503, 1.11534, 1.11078, 1.12264, 1.02518, 1.02432, 1.0191, 1.0192, 1.01817, 1.01788, 1.01813, 1.06784, 1.03668, 1.04052, 1.04081, 1.03711, 1.0355, 1.05345, 1.05998, 1.24095, 1.236, 1.30705, 1.25291, 1.09617, 1.08597, 1.08733, 1.09249, 1.03375, 1.09242, 0.998097, 0.994398, 0.995133, 0.995977, 0.997807, 1.00663, 1.00801, 1.00136, 1.00645, 1.01102, 1.0118, 1.00231, 1.00129, 0.999125, 0.999632, 0.999244, 1.00101, 1.00007, 1.00071, 1.0016, 1.0052, 1.00712, 1.0064, 1.00821, 1.00769, 0.994042, 0.984289, 0.98406, 0.985916, 0.986855, 0.969979, 0.969056, 0.972104, 0.971911, 0.971564, 0.97363, 0.97224, 0.971629, 0.972453, 0.977174, 0.984156, 0.984315, 0.986623, 0.987194, 0.989055
0.997594, 0.991275, 0.993497, 0.992294, 0.992289, 0.990734, 0.986269, 0.985151, 0.984648, 0.974076, 0.952884, 0.953146, 0.952905, 0.960824, 0.960611, 0.955779, 0.955358, 0.948341, 0.946914, 0.949589, 0.951007, 0.960059, 0.966774, 0.981321, 0.977827, 0.976471, 0.976423, 0.976915, 0.972935, 0.972193, 0.970371, 0.966488, 0.963161, 0.961505, 0.96067, 0.962426, 0.96266, 0.962046, 0.960932, 0.96155, 0.953625, 0.952415, 0.95367, 0.956287, 0.956446, 0.956251, 0.957841, 0.961702, 0.960668, 0.959064, 0.956028, 0.953629, 0.954977, 0.956586, 0.959775, 0.961976, 0.962115, 0.971757, 0.973441, 0.96969, 0.963549, 0.962582, 0.960149, 0.95923, 0.957515, 0.956952, 0.954739, 0.955723, 0.957963, 0.958421, 0.955828, 0.956407, 0.954096, 0.953515, 0.952068, 0.949602, 0.94985, 0.959421, 0.95999, 0.959086, 0.963022, 0.967664, 0.970448, 0.965152, 0.964994, 0.96172, 0.963205, 1.04707, 0.983835, 0.985109, 0.988073, 0.993043, 0.997379, 0.997389, 0.99485, 0.995178, 0.994842, 0.994549, 0.989716, 0.989144, 0.985362, 0.983921, 0.981148, 0.97953, 0.97745, 0.977428, 0.973161, 0.970584, 0.970854, 0.971541, 0.972749, 0.978474, 0.977752, 0.972845, 0.972209, 0.976727, 0.985319, 0.987154, 0.9867, 0.984472, 0.98413, 0.98519, 0.990431, 0.991348, 0.990698, 0.9903, 0.990759, 0.993984, 0.990661, 0.990241, 0.986262, 0.987619, 0.990312, 0.992147, 0.988003, 0.985343, 1.08867, 0.969613, 0.968742, 0.96507, 0.964462, 0.97254, 0.974537, 0.973961, 0.974993, 0.976791, 0.980284, 0.985103, 0.986762, 0.989642, 0.988642, 0.990128, 0.990928, 0.986362, 0.976414, 0.977133, 0.978787, 0.980259, 0.980918, 0.971854, 0.972626, 1.00162, 1.00531, 1.00648, 1.1139, 1.02535, 1.01538, 1.01434, 1.01638, 1.06027, 1.0308, 1.03259, 1.02951, 1.02043, 1.01899, 1.01947, 1.0183, 1.02733, 1.03899, 1.03975, 1.04214, 1.04431, 1.03657, 1.03712, 1.10885, 1.11212, 1.33876, 1.11246, 1.11351, 1.09995, 1.09993, 1.10244, 1.08514, 1.06613, 1.08888, 0.99198, 0.991779, 0.992204, 0.992378, 0.99909, 0.997838, 0.993964, 0.994264, 1.00431, 1.01145, 1.01177, 1.00256, 1.00088, 0.996424, 0.996019, 0.998941, 0.995752, 0.997349, 0.998812, 1.00134, 1.00498, 1.00554, 1.00446, 1.00226, 0.989305, 0.986119, 0.986264, 0.980661, 0.980015, 0.980004, 0.967744, 0.968527, 0.970485, 0.970233, 0.971484, 0.970952, 0.965384, 0.968333, 0.971177, 0.977104, 0.981132, 0.984568, 0.987228, 0.981197, 0.985911
0.989779, 0.989648, 0.993823, 0.993121, 0.987872, 0.989564, 0.987537, 0.984297, 0.982065, 0.975334, 1.21515, 0.961074, 0.958656, 0.959409, 0.968762, 0.963524, 1.16395, 0.928236, 0.928574, 0.942267, 0.961367, 0.962494, 0.969343, 0.985297, 0.983488, 0.976922, 0.977481, 0.976813, 0.974389, 0.971617, 0.969944, 0.966685, 0.966485, 0.968326, 0.968003, 0.963849, 0.963123, 0.957461, 0.957127, 0.959505, 0.958105, 0.9543, 0.952766, 0.956798, 0.953422, 0.953829, 0.957529, 0.962575, 0.962296, 0.957415, 0.958301, 0.957127, 0.956119, 0.969815, 0.968881, 0.968033, 0.968173, 0.972064, 0.97283, 0.970553, 0.968427, 0.966165, 0.96556, 0.966137, 0.960415, 0.962867, 0.962203, 0.962779, 0.959222, 0.960254, 0.957021, 0.95932, 0.959396, 1.08454, 0.95901, 0.952249, 0.953339, 0.95529, 0.957993, 0.958776, 0.962318, 0.964531, 0.966737, 0.961964, 0.967109, 0.969678, 0.970858, 1.06726, 1.03371, 0.998546, 1.00125, 0.990946, 0.994806, 0.993705, 0.993791, 0.991587, 0.991513, 0.990276, 0.988198, 0.984761, 0.983394, 0.982503, 0.979679, 0.980019, 0.978767, 0.974073, 0.969855, 0.968009, 0.966174, 0.969595, 0.96957, 0.969943, 0.970368, 0.971052, 0.971876, 0.990316, 0.9869, 0.984614, 0.984167, 0.985376, 0.985474, 0.988112, 0.990225, 0.98573, 0.987307, 0.991844, 0.992837, 0.990778, 0.991189, 0.991486, 0.987017, 0.988199, 0.991318, 0.993453, 0.994, 1.19681, 0.968146, 0.969443, 0.970981, 0.969503, 0.971016, 0.969337, 0.975042, 0.976661, 0.977369, 0.979734, 0.982887, 0.983732, 0.989083, 0.991651, 0.993517, 0.992427, 0.989708, 0.988674, 1.01223, 0.976716, 0.976813, 0.977902, 0.978771, 0.973764, 1.17768, 0.995643, 1.00928, 1.00976, 1.00976, 1.01333, 1.01892, 1.0233, 1.02782, 1.02979, 1.03778, 1.03792, 1.0353, 1.0257, 1.01923, 1.02886, 1.07472, 1.02902, 1.03064, 1.03408, 1.0455, 1.04433, 1.03742, 1.03716, 1.11903, 1.11578, 1.11261, 1.1147, 1.11786, 1.29118, 1.08156, 1.10913, 1.17576, 0.974273, 0.969543, 1.14946, 0.990662, 0.991265, 0.988854, 0.988597, 0.984204, 0.994809, 1.00091, 1.00634, 1.01057, 1.01188, 1.00707, 0.999842, 0.99939, 0.998151, 0.995097, 0.992667, 0.994408, 0.994927, 0.994498, 0.999925, 1.00373, 1.00078, 1.00069, 0.998957, 0.980995, 0.978755, 0.978025, 0.978971, 0.97827, 0.974002, 0.969174, 0.969673, 0.969881, 0.96683, 0.96904, 0.963452, 0.97038, 0.976636, 0.9794, 0.984164, 0.984505, 0.984077, 0.984322, 0.987355
0.990579, 0.988624, 0.982048, 0.981068, 0.98176, 0.987324, 0.987712, 0.987356, 0.975733, 0.975925, 0.977915, 0.965274, 0.959562, 0.956958, 0.967911, 0.968555, 0.94243, 0.931079, 0.931232, 0.952794, 0.952647, 0.964331, 0.98309, 0.983459, 0.977186, 0.975782, 0.975679, 0.976509, 0.974467, 0.968312, 0.968637, 0.967692, 0.96941, 0.968618, 0.965583, 0.969316, 0.967067, 0.963804, 0.960246, 0.961119, 0.959556, 0.958357, 0.958893, 0.959583, 0.952146, 0.951924, 0.95706, 0.963849, 0.959062, 0.960088, 0.958754, 0.959466, 0.969088, 0.969652, 0.970549, 0.972016, 0.97042, 0.971781, 0.972282, 0.973527, 0.967777, 0.971266, 0.972019, 0.96857, 0.968544, 0.971684, 0.972706, 0.974345, 0.972708, 0.969558, 0.971237, 0.968537, 0.971086, 1.08728, 0.959481, 0.954105, 0.953653, 0.95418, 0.956984, 0.961176, 0.959559, 0.957974, 0.960862, 0.964287, 0.964135, 0.973366, 0.980649, 0.997814, 1.00497, 1.00167, 1.00144, 1.05089, 1.0937, 0.985028, 0.985352, 0.988238, 0.986756, 0.986016, 0.983968, 0.983536, 0.984209, 0.982214, 0.983468, 0.9843, 0.977433, 0.973194, 0.97043, 0.966515, 0.967813, 0.96852, 0.964848, 0.96946, 0.971575, 0.971005, 1.23414, 0.989963, 0.986361, 0.984738, 0.985074, 0.986248, 0.985373, 0.984384, 0.986643, 0.990209, 0.987882, 0.986705, 0.986635, 0.987481, 0.98864, 0.988349, 0.987189, 0.993024, 0.993451, 0.994381, 0.995826, 1.00115, 0.974509, 0.975458, 0.974267, 0.974746, 0.973777, 0.970736, 0.970935, 0.976598, 0.980303, 0.980886, 0.982373, 1.22409, 0.99542, 0.996251, 0.994367, 0.993576, 0.994796, 1.01584, 1.00307, 1.16397, 0.975391, 0.981328, 0.985782, 1.17052, 1.11275, 1.12091, 1.01152, 1.01402, 1.0164, 1.03952, 1.02339, 1.02863, 1.03565, 1.03555, 1.06385, 1.05017, 1.04202, 1.03193, 1.03077, 1.0285, 1.04116, 1.03546, 1.03626, 1.03556, 1.0339, 1.0438, 1.0353, 1.03599, 1.0359, 1.11915, 1.11812, 1.1174, 1.21193, 0.0041568, 0.978644, 0.980586, 0.973488, 0.971408, 0.962545, 0.961596, 0.987152, 0.987035, 0.987919, 0.986297, 0.986477, 0.989203, 1.00073, 1.00446, 1.00487, 1.00718, 1.00805, 1.00366, 0.998971, 0.99535, 0.989139, 0.988888, 0.98924, 0.99016, 0.990849, 0.999492, 1.00433, 1.00292, 0.993782, 0.982836, 0.981311, 0.982167, 0.98157, 0.980554, 0.982584, 0.972867, 0.96817, 0.969889, 0.961049, 0.963246, 0.962117, 0.963425, 0.973175, 0.978578, 0.981856, 0.983377, 0.982957, 0.98511, 0.985501, 0.994726
0.988291, 0.987064, 0.985222, 0.984349, 0.985913, 0.983124, 0.984846, 0.983482, 0.975879, 0.979179, 1.15158, 0.960507, 0.959409, 0.955643, 0.95394, 0.936746, 0.940706, 0.939755, 0.931577, 0.98929, 0.973989, 0.974006, 0.983882, 0.983584, 0.982785, 0.982479, 0.974819, 0.975168, 0.972203, 0.968892, 0.971133, 0.973437, 0.970426, 0.970337, 0.968668, 0.968804, 0.969769, 0.966258, 0.961159, 0.959909, 0.959661, 0.963102, 0.960091, 0.961319, 0.956446, 1.02273, 0.970426, 0.972445, 0.959031, 0.960293, 0.96385, 0.968075, 0.969518, 0.970746, 0.971148, 0.969653, 0.969575, 0.97092, 0.972194, 0.980128, 0.978499, 0.973629, 0.975566, 0.976291, 0.973532, 0.97495, 0.973721, 0.975359, 0.97973, 0.980114, 0.975388, 0.977984, 0.984505, 0.987819, 1.01405, 0.952826, 0.950065, 0.960057, 0.960257, 0.959969, 0.955938, 0.95613, 0.961502, 0.966064, 0.968401, 0.97784, 1.05614, 0.994819, 1.00397, 1.00329, 1.00163, 1.03618, 0.974932, 0.974264, 0.986847, 0.985708, 0.98252, 0.982264, 0.982144, 0.982676, 0.983443, 0.984137, 0.981425, 0.975772, 0.976215, 0.96978, 0.969192, 0.969035, 0.969526, 0.964212, 0.965021, 0.964973, 0.975777, 0.98771, 0.987624, 0.988074, 0.985824, 0.98632, 0.987153, 0.984363, 0.986932, 0.981469, 0.985243, 0.985995, 0.980423, 0.982681, 0.98463, 0.986462, 0.983592, 0.981752, 0.987609, 0.99265, 0.995143, 0.995756, 0.997862, 0.993633, 0.985233, 0.982519, 0.979527, 0.980103, 0.974172, 0.974838, 0.976151, 0.977521, 0.978581, 0.980334, 0.987422, 0.994224, 0.996062, 0.996179, 0.994852, 1.19271, 1.00889, 1.00869, 1.01326, 1.00894, 1.00288, 1.20931, 1.42759, 1.00174, 1.00319, 1.08479, 1.0152, 1.02034, 1.02328, 1.0263, 1.03114, 1.03322, 1.03672, 1.03733, 1.05245, 1.051, 1.04633, 1.03906, 1.04309, 1.06479, 1.04241, 1.03254, 1.0357, 1.03402, 1.03545, 1.14676, 1.13201, 1.03347, 1.03299, 1.1182, 1.11852, 1.13011, 1.13099, 0.974336, 0.97452, 0.980479, 0.971936, 0.965491, 0.962856, 0.961904, 0.962942, 0.98686, 0.986243, 0.986564, 0.987273, 0.989402, 1.00104, 1.00087, 1.00482, 1.00577, 1.00598, 1.00484, 0.994967, 0.993426, 0.985604, 0.989371, 0.988236, 0.983631, 0.991608, 0.99393, 0.994147, 0.986439, 0.984121, 0.983969, 0.985558, 0.982804, 0.983071, 0.980442, 0.983615, 0.98343, 0.966415, 0.962007, 0.960824, 0.961241, 0.963025, 0.963423, 0.970733, 1.1315, 0.981925, 0.983425, 0.984007, 0.985886, 0.994954, 1.00184
0.986859, 0.984868, 0.987099, 0.98698, 0.988569, 0.992031, 0.990547, 0.987706, 0.984993, 0.981163, 0.977726, 0.970345, 1.22675, 0.949419, 0.949587, 0.936513, 0.945738, 0.941338, 0.941574, 0.969535, 0.977939, 0.977526, 0.980142, 0.980685, 0.985801, 0.985585, 0.980761, 0.976669, 0.972866, 0.974113, 0.975003, 0.973694, 0.97615, 0.975935, 0.97182, 0.973221, 0.969658, 0.966618, 0.962364, 0.962644, 0.961594, 0.961168, 0.964118, 0.964844, 0.968977, 0.969991, 0.980349, 0.981689, 1.06331, 0.962975, 0.968908, 0.967666, 0.970349, 0.97198, 0.968075, 0.96813, 0.970004, 0.971032, 0.977008, 0.981511, 0.983016, 0.984065, 0.9857, 0.982184, 0.980829, 0.976876, 0.975627, 0.976, 0.981252, 0.982576, 0.990569, 0.987039, 0.986589, 0.987086, 1.01936, 0.959754, 0.958024, 0.962593, 0.961776, 0.961405, 0.957927, 0.96294, 0.964557, 0.974278, 0.975385, 0.98156, 0.994403, 0.997514, 1.00466, 0.998505, 0.99613, 1.18789, 0.973652, 0.973155, 0.981507, 0.981485, 0.980096, 0.980071, 0.982208, 0.982935, 0.98253, 0.982172, 0.976679, 0.976559, 0.975913, 0.971483, 0.97105, 0.969295, 0.967251, 0.962019, 0.963331, 0.967185, 0.976319, 0.988921, 0.988426, 0.986065, 0.987122, 0.988369, 0.984047, 0.986099, 0.985791, 0.985467, 0.985092, 0.984819, 0.983184, 0.982956, 0.983529, 0.98371, 0.982643, 0.983109, 0.983219, 0.997949, 0.997401, 0.991372, 0.991263, 0.989133, 0.989242, 0.983483, 0.982369, 0.975859, 0.976631, 0.976694, 0.978061, 0.979083, 0.982216, 0.984187, 0.988153, 0.993192, 0.994754, 0.997558, 0.998522, 1.01854, 1.02357, 1.0237, 1.01842, 1.01404, 1.00891, 1.00861, 1.01627, 1.12176, 1.12859, 1.01916, 1.0287, 1.02936, 1.02723, 1.02827, 1.03232, 1.03819, 1.04027, 1.21813, 1.05739, 1.056, 1.0497, 1.04453, 1.04655, 1.04633, 1.04566, 1.03469, 1.03584, 1.03337, 1.0365, 1.06784, 1.06718, 1.07924, 1.02813, 1.13153, 1.13051, 1.17805, 1.07056, 0.974941, 0.978831, 0.970181, 0.969924, 0.965023, 0.964747, 0.966097, 0.983652, 0.982964, 0.980323, 0.980743, 0.988552, 0.988881, 0.991666, 0.999448, 1.00271, 1.00585, 1.00798, 1.00826, 0.992688, 0.986675, 0.984477, 0.987862, 0.988886, 0.984006, 0.992299, 0.993443, 0.990492, 0.984003, 0.987187, 0.987711, 0.985704, 0.98441, 0.983923, 0.981101, 0.979541, 0.98064, 0.970482, 0.960186, 0.961892, 0.963992, 0.963222, 0.963793, 0.967622, 0.972801, 0.973271, 0.979705, 0.982292, 0.988395, 0.99725, 0.998628
