0.804172433179938,0.803753315157433,0.802734283102716,0.804082035175084,0,0.807198300942411,0.807422652354458,0.796892928389065,0.792562863956563,0,0.792670519762344,0.794585313865158,0.792089507131146,0.792301531542531,0,0.792619568159608,0.792181548736088,0.785983532803287,0.785838895995521,0,0.784904509345349,0.786027088205626,0.789441667388971,0.791147724280577,0,0.792093616131367,0.781840016980801,0.7809237099316,0.780193951492416,0,0.780158614090519,0.779960560279884,0.778652254609635,0.777955368172216,0,0.779070550832095,0.777893733168906,0.777109735926809,0.777495160147505,0,0.778432012197809,0.782646202824089,0.784487856722977,0.786598239236293,0,0.78605585120717,0.798516805276259,0.800855648201843,0.795941283937967,0,0.797301363010996,0.814185244917574,0.813707779091937,0.811592465778355,0,0.809729445078321,0.810102542298354,0.811658209781885,0.796506682368326,0,0.79090529326756,0.786377996824468,0.786619606037441,0.785526611978753,0,0.787498932084656,0.791845432518041,0.793733107219399,0.793166065188952,0,0.793912259629019,0.841293141173129,0.840109749109587,0.761830007706366,0,0.758756475541333,0.748837349008727,0.746533843485041,0.742700968079235,0,0.741222549799851,0.740441839757931,0.740736044173729,0.746904475304942,0,0.748858715809875,0.746297165072332,0.741411563810001,0.73686865316607,0,0.729068127147221,0.729152772551766,0.729320419760768,0.73100757525136,0,0.733470509983607,0.735282579080906,0.728863498936234,0.726969249834522,0,0.727500954463072,0.729626129377183,0.728520808317833,0.726981576835184,0,0.726253461996088,0.7259650101806,0.724876946922176,0.724049394277741,0,0.723021322422539,0.723248961034762,0.722981054220377,0.72322677243357,0,0.721973527366278,0.722255404781413,0.720905187308913,0.720824650904589,0,0.718108601758751,0.719632219040561,0.720437583083805,0.71424285435118,0,0.714564178168434,0.714801678381186,0.71589385063983,0.717447874523273,0,0.717523480127333,0.719664269242282,0.721095023119106,0.719481829632486,0,0.718522788980991,0.720319243877451,0.718581136784124,0.718747140393037,0,0.722964618219494,0.718610721585712,0.721339919532256,0.715883989039301,0,0.710940039973836,0.706573816339392,0.701071865043965,0.70143920966369,0,0.697769050666621,0.696526488999902,0.696874932218612,0.697968748077344,0,0.693119306016954,0.689998109449362,0.689719519234403,0.687494906514952,0,0.686962380086359,0.686435606258073,0.69220053356762,0.694589506295896,0,0.69555019054748,0.697699197662871,0.706086488913225,0.704923641850786,0,0.708532165844545,0.705174290864245,0.707609284394991,0.709533940098336,0,0.70786979500898,0.708622563849399,0.706591074140319,0.70715893797081,0,0.710252193336902,0.7182417333659,0.724343598693538,0.725848314574334,0,0.727025954037567,0.723779022063223,0.722847100813184,0.712291901046424,0,0.707033202564059,0.707101411967721,0.706695442745923,0.706356861127743,0,0.704461790225987,0.703923511197084,0.703312091964254,0.703967888399467,0,0.702736010133322,0.707449855186431,0.709705696307558
0.80201602986415,0.802291332878932,0.803159975525574,0.803832207961669,0,0.799905647350833,0.799899894750524,0.793467665805146,0.791711479110848,0,0.791678607109083,0.792376315346547,0.790643139053484,0.791594783504582,0,0.788189244121722,0.786763421045163,0.785326092767986,0.785999968804169,0,0.786802867447281,0.787870385704601,0.78770684749582,0.791875017319629,0,0.780825915726349,0.779186424638317,0.780092048286944,0.780132316489107,0,0.780279418697005,0.778857704620666,0.77942803385129,0.780176693691489,0,0.779718129266867,0.777547755350329,0.777011119921514,0.778210126185895,0,0.781524445763857,0.787892574305793,0.78808323191603,0.788388119732401,0,0.79675240058152,0.796732677380461,0.796256855154912,0.799804565945405,0,0.800631296789797,0.814002805307778,0.814042251709896,0.812616428633337,0,0.811138010353953,0.807079961736057,0.796008671541585,0.789981590017962,0,0.786857106250193,0.785695080987798,0.785663030786078,0.785115711956689,0,0.791269350687108,0.790960353870517,0.792257976140192,0.780626218315627,0,0.843536655293595,0.768256484051435,0.845525411400381,0.759853578600242,0,0.752796781621328,0.749903223665959,0.749099503222804,0.742221036853465,0,0.74115844939641,0.748219355375544,0.748669701799725,0.747550410139625,0,0.74704746851262,0.738287080042232,0.734833876256812,0.734432837835279,0,0.730042781999555,0.729713240181861,0.731589409682601,0.732390664725625,0,0.732029894506253,0.726969249834522,0.725653547963876,0.725910771377688,0,0.722282524182869,0.722983519620509,0.721559340144038,0.727505885263337,0,0.728623533323349,0.727504241663249,0.724755320515646,0.722962974619406,0,0.7213128001308,0.720727678499382,0.720592903292145,0.71958208923787,0,0.717981222751911,0.717832476943924,0.720253499873921,0.72010393226589,0,0.7202214496722,0.719424303629397,0.71516491400069,0.712801417073782,0,0.713784289926558,0.714068632741825,0.715747570231976,0.717866170745734,0,0.718111888958928,0.720257608874142,0.72144428813786,0.720474564085791,0,0.719953542857815,0.719898482254858,0.71745116172345,0.715634161825886,0,0.718365825172563,0.717734682738673,0.711694452414344,0.711599123609225,0,0.705242500267907,0.703728744586626,0.703216763159136,0.696270087386135,0,0.696196947182207,0.693155465218895,0.695804948561159,0.697535659454089,0,0.698054215281933,0.69778466486746,0.692000014356854,0.692539115185801,0,0.698911352727957,0.696474715597122,0.697459232049986,0.698971344131178,0,0.699497296159419,0.703358934566769,0.703541374176566,0.704973771653478,0,0.709457512694232,0.708620098449267,0.707623254995742,0.708483679641942,0,0.707094837567368,0.706832683353292,0.707870616809024,0.711424901999871,0,0.718129968559898,0.804572649801427,0.724001729875182,0.725063495532193,0,0.725549179358272,0.709854442115545,0.71104440857944,0.711628708410814,0,0.706983894561411,0.706735710948085,0.707550936591858,0.709399986691143,0,0.708809112459416,0.705350156073688,0.704032810602953,0.704234973413808,0,0.706112786514637,0.712296010046645,0.712468588055911
0.801793322052192,0.803001368117057,0.803302146933208,0.800646910990635,0,0.796571604571812,0.792185657736309,0.791630942706524,0.791234835085255,0,0.79414154184133,0.793839119425091,0.786777391645913,0.786309787420805,0,0.78645606782866,0.784999016350423,0.784607017729375,0.785501957977429,0,0.786762599245119,0.78865273934661,0.788705334549434,0.779111640834302,0,0.778889754822387,0.776974960719573,0.777680886957477,0.77864732380937,0,0.778902903623093,0.779608829860998,0.779889885476089,0.779701693265984,0,0.780711685520216,0.780888372529703,0.781501435362621,0.781956712587067,0,0.784358834116049,0.789472073990604,0.792737907365962,0.794097986438991,0,0.795319181304563,0.796889641188889,0.7971189234012,0.799607333934815,0,0.811459334171207,0.811983642599359,0.814296187923531,0.905212748605285,0,0.902188524442899,0.79402402443502,0.791019523473694,0.787375662078037,0,0.786193091814539,0.78714720166577,0.787508793685185,0.791255380086358,0,0.791207715683799,0.791625190106215,0.778899616422917,0.775389708434453,0,0.767691085621076,0.764813963666589,0.761082169666211,0.760880006855356,0,0.745638081436943,0.743405250717051,0.749724893056384,0.753035103634125,0,0.749544097046676,0.748133888170955,0.74732030612727,0.74670888689444,0,0.744621514782358,0.734377777232322,0.733200959569133,0.732176174914108,0,0.732360258123992,0.730208785608469,0.731043734453301,0.725736549768333,0,0.723673009857531,0.724731488314366,0.724423313297819,0.719045453809055,0,0.720670974296337,0.71891889660226,0.720402245681908,0.726648747817313,0,0.725283737944019,0.725182656538591,0.723300734437542,0.722283345982913,0,0.720359512079613,0.72037676988054,0.718606612585492,0.718214613964443,0,0.71647732867116,0.717176680508712,0.718165305961796,0.720265826874583,0,0.721594677545935,0.712409418452734,0.712048648233363,0.712080698435083,0,0.713981521937148,0.716255442659246,0.717260504113213,0.724709299713175,0,0.723765051462473,0.723086244626025,0.727622580869603,0.726449872206634,0,0.720286371875686,0.720698915497837,0.710835671368232,0.71224341484382,0,0.708629960049797,0.703130474154502,0.710746095163422,0.709852798515457,0,0.701517280667882,0.696178045781192,0.69508012092224,0.6949248007139,0,0.692309011173445,0.693033017012321,0.69439309608535,0.695259273331859,0,0.696739335211331,0.698079691083301,0.69833444909698,0.700859018832537,0,0.701051320042862,0.703313735564343,0.703541374176566,0.698707546317014,0,0.70041360320862,0.702305386910199,0.703487135373653,0.705116764861156,0,0.706657639943893,0.709183853279538,0.70807113601979,0.706962527760264,0,0.707380823982724,0.709389303290569,0.710860325369556,0.714763053779112,0,0.722113233373779,0.724678071311498,0.730346848015882,0.870795762757269,0,0.709343282488098,0.710751847763731,0.710113309129445,0.710317115540388,0,0.706582034339833,0.706051151511328,0.706955131559867,0.708912659264976,0,0.70752135179027,0.705453702879248,0.704815164244961,0.703176494956973,0,0.70654340973776,0.711944279627758,0.701827099284518
0.804199552581394,0.80004042255807,0.799563778532476,0.796170566150278,0,0.793319741797204,0.791778044914422,0.79107458407665,0.791579991103788,0,0.792799542369272,0.786811907247766,0.786428948427203,0.785189673960661,0,0.785619475383739,0.784939846747246,0.784512510724301,0.786020513805273,0,0.78684642284962,0.788316623128562,0.779681148264881,0.778776346416298,0,0.777167261929898,0.775901689861944,0.777068645924603,0.778439408398206,0,0.779451044252526,0.779091917633242,0.780703467519774,0.78341705126548,0,0.782186816599423,0.781970683187817,0.783348020061773,0.783070251646859,0,0.784314456913666,0.790779557860809,0.793297553196012,0.790299626635039,0,0.792933495776464,0.796394917562325,0.796874848788095,0.808508250212749,0,0.810358943912121,0.812422483822923,0.798404218670214,0.796551059570709,0,0.788766969552743,0.787549883687392,0.788174451720928,0.78813911431903,0,0.788392228732621,0.789269089379704,0.78826238432565,0.780845638927408,0,0.840717881142241,0.774689534796857,0.773517647933933,0.77384965515176,0,0.765542078505686,0.763271444983764,0.755510365367034,0.754481471711788,0,0.748243187576824,0.743261435709329,0.754606385318495,0.75502961234122,0,0.74676476929744,0.745775322044312,0.746228133868626,0.738187642236892,0,0.733040708560528,0.731935387501179,0.733295466574208,0.732555846534494,0,0.732532836133258,0.73000580099757,0.721491130740376,0.722108302573514,0,0.722711503805903,0.71788342854666,0.716979448498121,0.717676334935541,0,0.717734682738673,0.718437321776402,0.717673047735364,0.72084683950578,0,0.723440440445043,0.72298762862073,0.722375387587856,0.719846708852078,0,0.719593594438487,0.717674691335452,0.716372960065556,0.716404188467233,0,0.71695725989693,0.719927245256403,0.720278153875245,0.717711672337438,0,0.712679790667252,0.71070582696126,0.713331478102244,0.717584293330598,0,0.719562366036811,0.723582611852677,0.72379217086393,0.727482053062057,0,0.729003204943735,0.726890357030286,0.72818551389983,0.717578540730289,0,0.711024685378381,0.710900593571718,0.704852967046991,0.702339080712009,0,0.699954216983954,0.699703567970495,0.698696041116396,0.695863296364292,0,0.688296161557976,0.691728820342292,0.688321637359344,0.687564759518703,0,0.687215494499949,0.689424493018561,0.691517617730951,0.692386260377593,0,0.693792360253093,0.696273374586311,0.705285233870202,0.704172516610455,0,0.70509375445992,0.708712140054209,0.70965227930469,0.709039216471771,0,0.702433587717083,0.705184974264818,0.706885278556116,0.709939909320134,0,0.711877713824184,0.714696487975538,0.709422997092379,0.708776240457651,0,0.708929917065903,0.709513395097232,0.712607472263369,0.719954364657859,0,0.72305748162448,0.732341356722977,0.731618172684146,0.732134263111857,0,0.7111200141835,0.711234244389633,0.710923603972953,0.70911071307561,0,0.708372736635985,0.709168239078699,0.708660366651429,0.708990730269168,0,0.70673078014782,0.707319188979415,0.706431644931758,0.707185235572222,0,0.705413434677086,0.701606035072648,0.70166027387556
0.801333935827525,0.800625544189488,0.798136311855829,0.793051013182774,0,0.794184275443625,0.794134967440977,0.791928434322498,0.783612639675982,0,0.782704550627222,0.783690710680174,0.785381975170986,0.785801093193491,0,0.785923541400066,0.786193091814539,0.784717960735332,0.785873411597374,0,0.780991097535219,0.779591572060071,0.778480498400412,0.776959346518734,0,0.776957702918646,0.780573623112802,0.777861682967185,0.778861813620887,0,0.779647454463072,0.781155457544044,0.781934523985876,0.78274399702934,0,0.782707837827399,0.783772890684587,0.784233098709298,0.784427865319756,0,0.798036052250445,0.794923073683294,0.789139244972732,0.789584660596649,0,0.78824266112459,0.790002956819109,0.796118792747498,0.848796175576004,0,0.929176437892012,0.798433803471802,0.794794872876411,0.78837004013143,0,0.78596216600214,0.78729266027358,0.788508102538843,0.789040628967437,0,0.79035961803826,0.789585482396693,0.778460775199353,0.842870997257852,0,0.771924177648371,0.773067301509751,0.770006918145425,0.764952026074003,0,0.759756606195035,0.755090425544485,0.755795529982346,0.75756486547735,0,0.756390513214293,0.75418726729599,0.752236313991234,0.748987738416802,0,0.746558497486365,0.744042145751249,0.737609916805872,0.737012468173792,0,0.730826779241652,0.73149161547735,0.732705414142525,0.732953597755851,0,0.732313415521477,0.72100215971412,0.720620022693601,0.720333214478201,0,0.716289958261099,0.715358858811104,0.71548952501812,0.716641688679985,0,0.717212839710653,0.71553143682037,0.715719629030475,0.715207647602985,0,0.716791256288016,0.716248868258893,0.719887798854285,0.718620583186242,0,0.717885893946793,0.716884119693003,0.716511022472969,0.716099300650862,0,0.718959164804422,0.72028719367573,0.720264183274495,0.712710197268884,0,0.711799642819992,0.717544025128436,0.716626074479147,0.717549777728745,0,0.724603287507482,0.727095807041318,0.729560385373653,0.727410556458218,0,0.729004848543824,0.722884903615214,0.723891608669269,0.71620449105651,0,0.715859335037977,0.702832160738484,0.701663561075737,0.700693015223623,0,0.695675104154187,0.698174198088376,0.693256546624323,0.684003078127459,0,0.685918694030318,0.685565320011344,0.685473278406401,0.686220294646512,0,0.686831713879342,0.687938678538781,0.694705380102118,0.694946989315091,0,0.692482410982756,0.701940507690607,0.706291938924257,0.706713522346894,0,0.708308636232543,0.708822261260122,0.708869925662681,0.706446437332552,0,0.7067266711476,0.706596826740628,0.708812399659593,0.712155482239099,0,0.712021528831906,0.714610198970905,0.71493398818829,0.713906738133132,0,0.71196646822895,0.715976030644243,0.721959556765528,0.725144031936517,0,0.727569163866735,0.734682665048693,0.733651305993315,0.720648785695146,0,0.712664998266457,0.711238353389854,0.708956214667315,0.712964133482519,0,0.713366815504141,0.712392160651807,0.708148385223938,0.707914994011406,0,0.708067848819614,0.707544362191505,0.714461453162918,0.713915777933618,0,0.706569707339171,0.70301049134806,0.70255439232357
0.802168884672357,0.800208891567116,0.79965006753711,0.794102917239256,0,0.793203867990982,0.781954247186935,0.781650181170608,0.781306668752163,0,0.780696071319377,0.781795639778418,0.785249665363882,0.786133100411318,0,0.791017058073561,0.784999838150467,0.781678944172153,0.77961129526113,0,0.778381882395117,0.777062893324294,0.775909907862385,0.775950997864591,0,0.779953164079487,0.780205456693034,0.779350784647142,0.77970087146594,0,0.78249499161597,0.782624836022942,0.781635388769814,0.784299664512872,0,0.784768090538024,0.785916966999713,0.787261431871904,0.795206594698518,0,0.795192624097768,0.788937082161877,0.78575918139124,0.785432104973678,0,0.78422159350868,0.785566880180915,0.784675227133038,0.787632885491849,0,0.788702047349257,0.837307410959116,0.789426053188133,0.788941191162098,0,0.786520990032146,0.786257192217981,0.786712469442427,0.78745784208245,0,0.777016872521823,0.774915529808992,0.773645848740816,0.769156355099754,0,0.769532739519964,0.766788749172625,0.763838487014211,0.759792765396977,0,0.758311059917417,0.758536233129508,0.760104227613701,0.758799209143628,0,0.757645401881675,0.749832548862164,0.748662305599328,0.745226359614836,0,0.744772725990478,0.735439542889334,0.735130546072742,0.734358875831307,0,0.731407791872849,0.729371371363504,0.729004848543824,0.723588364452986,0,0.722204453178677,0.718694545190213,0.718154622561222,0.714686626375008,0,0.714737577977744,0.714509939365521,0.714173823147474,0.713841815929646,0,0.71382866712894,0.713665950720203,0.714288875153651,0.714726072777127,0,0.715180528201528,0.714002888738295,0.714935631788379,0.717418289721685,0,0.716640866879941,0.71601136804614,0.716512666073057,0.71908818741135,0,0.718298437568944,0.717124907105932,0.713260803298449,0.713749774324704,0,0.715801809034888,0.716209421856775,0.717341040517537,0.727236334848864,0,0.731912377099943,0.728999917743559,0.728580799721054,0.727368644655968,0,0.722537282196548,0.720993941713679,0.720446622884291,0.708605306048473,0,0.707696395199669,0.706483418334538,0.697267752639704,0.685204549791972,0,0.679767520700031,0.680515358740187,0.679898186907048,0.682775308861534,0,0.682891182667756,0.682465490244899,0.684565189357642,0.687819517532382,0,0.687668306324263,0.687452172912658,0.692094521361928,0.696946428822451,0,0.69916282354146,0.709283291084877,0.709466552494717,0.708398212437353,0,0.709275073084436,0.710995100576792,0.711664045812711,0.707815556206067,0,0.708855133261887,0.70838177643647,0.708155781424336,0.708972650668197,0,0.7092241214817,0.713775250126072,0.714220665749989,0.712430785253881,0,0.712112748636804,0.719267339820969,0.724080622679418,0.724173486084404,0,0.735091921470668,0.734463244436911,0.721851900959747,0.717760158540041,0,0.717534163527907,0.711853881622905,0.712287792046203,0.712491598457147,0,0.712296010046645,0.713229574896772,0.714453235162476,0.71369717912188,0,0.714661972373685,0.715425424614678,0.710217677735049,0.710814304567085,0,0.701947903891004,0.702330862711567,0.703756685788127
0.803075330121029,0.802504179090361,0.799885924149774,0.79153068310114,0,0.786292529619878,0.782790017831812,0.782624836022942,0.781657577371005,0,0.781351045954546,0.783082578647521,0.784703990134582,0.784322674914107,0,0.788832713556273,0.780704289319818,0.780521849710022,0.777773750362464,0,0.777266699735238,0.776845116312601,0.775661724249059,0.780331192099785,0,0.780774964123613,0.78109300074069,0.781342827954105,0.783588807474702,0,0.783263374657228,0.783473755468525,0.782965883041254,0.785710695188637,0,0.785880807797771,0.792513555953916,0.79503566028934,0.794802269076808,0,0.79226948134081,0.787014070058622,0.783961904694736,0.783519776270996,0,0.782964239441166,0.783086687647741,0.780266269896299,0.781438978559268,0,0.9083027167712,0.77746228814574,0.783420338465656,0.786620427837485,0,0.786614675237176,0.785840539595609,0.769967471743306,0.770610119377813,0,0.771602032031074,0.769781744933334,0.768043637840006,0.767810246627474,0,0.76086274905443,0.762988745768585,0.762874515562451,0.7630635295726,0,0.761042723264093,0.761020534662902,0.759271744169001,0.754755952926526,0,0.750941157121691,0.74867463259999,0.746165677065272,0.74227774105651,0,0.73388141000567,0.734985087464932,0.735575139896615,0.729550523773124,0,0.727759821476972,0.728328507107508,0.720286371875686,0.720709598898411,0,0.719196665017174,0.715600468024077,0.712710197268884,0.713199990095184,0,0.713467075109525,0.71373498192391,0.712199037641438,0.715003841192041,0,0.709752538910073,0.709347391488319,0.711220273788883,0.713431737707627,0,0.713715258722851,0.71344817370851,0.713871400731235,0.714523909966271,0,0.715761540832726,0.716488012071734,0.71822201016484,0.718159553361487,0,0.715893028839786,0.714600337370375,0.715063832595262,0.71616668825448,0,0.716144499653289,0.720778630102118,0.721359642733315,0.727310296852835,0,0.729546414772903,0.728930064739808,0.729469165568755,0.832056108677148,0,0.711849772622684,0.832187596684208,0.712333812848674,0.709131258076714,0,0.707138392969707,0.70541425647713,0.689245340608942,0.683929116123488,0,0.678911205054052,0.677868340798055,0.678746845045226,0.679680409895354,0,0.680810384956028,0.681601778398522,0.683286468488981,0.687568868518924,0,0.691183145112992,0.691681977739777,0.69336748963028,0.697852052471078,0,0.700877920233552,0.708504224643045,0.709107425875434,0.706944448159293,0,0.706687224745482,0.710455177947801,0.709836362514574,0.71058830955495,0,0.710423949546125,0.705736402094427,0.706049507911239,0.705951713705988,0,0.70785007180792,0.710714866761745,0.714785242380304,0.714066167341693,0,0.715689222428843,0.718471015578211,0.813432476077154,0.732646244539348,0,0.734528988440442,0.728215098701418,0.724452898099407,0.721006268714341,0,0.719597703438708,0.718698654190434,0.713497481711157,0.714076028942223,0,0.713413658106657,0.713366815504141,0.714088355942884,0.714468027563271,0,0.720223093272288,0.712716771669237,0.709703230907426,0.707631472996183,0,0.703382766768049,0.704018840002203,0.709530652898159
0.804700850608311,0.882383143379452,0.792397682147694,0.785849579396094,0,0.784928341546628,0.78296095224099,0.783145857250918,0.78319598705361,0,0.785222545962426,0.785636733184666,0.784044906499193,0.782677431225766,0,0.782639628423736,0.78021860549374,0.778951389825697,0.777920030770318,0,0.77717958893056,0.778569252805178,0.779726347267308,0.779900568876663,0,0.780525958710243,0.782068477393068,0.783872328489926,0.783709612081189,0,0.783673452879247,0.78323789885586,0.783792613885646,0.785950660801522,0,0.800083156160364,0.799611442935036,0.794582848465026,0.794035529635638,0,0.788367574731298,0.785355677569574,0.779638414662587,0.779942480678913,0,0.782219688601188,0.775189189223686,0.775865530660002,0.775819509857531,0,0.774392864980927,0.773557916136095,0.778462418799442,0.783535390471834,0,0.786659874239603,0.786074752608185,0.769200732302137,0.766912019179244,0,0.766315392347208,0.768032132639389,0.766815868574082,0.763455528193649,0,0.761894929909852,0.762961626367128,0.764643851057455,0.764601939255205,0,0.761867810508396,0.755997692793201,0.754292457701638,0.75183116656948,0,0.749032937419229,0.746187865666464,0.738282971042011,0.736158617927944,0,0.733863330404699,0.732310950121344,0.727443428459983,0.728283308105081,0,0.728696673527276,0.716769889486869,0.716642510480029,0.718427460175872,0,0.718655920588139,0.709904571918237,0.709909502718501,0.711533379605695,0,0.712328060248365,0.712568847661295,0.709071266673492,0.707988134215334,0,0.707799120205185,0.708776240457651,0.709067979473316,0.712455439255205,0,0.712482558656661,0.711811969820654,0.711868674023699,0.71113398478425,0,0.714739221577833,0.716034378447376,0.716679491482015,0.716038487447596,0,0.715419672014369,0.715635805425974,0.718295972168812,0.718797270195729,0,0.717727286538276,0.717832476943924,0.721408950735963,0.726947061233331,0,0.715393374412957,0.714941384388688,0.709067157673272,0.707785971404479,0,0.706959240560088,0.707896092610392,0.710530783551861,0.710267807537741,0,0.709045790872124,0.704605605233709,0.688643782976641,0.682675871056195,0,0.677147622159356,0.677055580554414,0.67787327159832,0.683636555307779,0,0.683313587890437,0.683410560295644,0.684546287956627,0.688286299957446,0,0.69550827874523,0.695439247541523,0.697679474461812,0.697856161471299,0,0.700882029233772,0.702222385105743,0.703157593555959,0.703257853161342,0,0.701834495484915,0.706448902732685,0.712139868038261,0.709168239078699,0,0.708908550264755,0.704610536033974,0.70267190972988,0.700918188435714,0,0.701545221869382,0.704356599820339,0.714117940744473,0.714677586574523,0,0.72420060548586,0.729431362766725,0.730263024411381,0.731408613672893,0,0.726366048602133,0.722114876973867,0.723106789627128,0.720678370496734,0,0.720745758100353,0.718757001993567,0.719946968457462,0.717452805323538,0,0.718122572359501,0.721033388115797,0.724300865091244,0.734455848236514,0,0.729328637761209,0.722355664386797,0.723546452650736,0.705280303069937,0,0.708931560665991,0.707554223792035,0.722083648572191
0.799092887107192,0.79336083179941,0.790087602223654,0.787738897697541,0,0.78700585205818,0.787953387509058,0.787247461271153,0.784288159312254,0,0.784747545536921,0.785889847598256,0.778534737203325,0.778209304385851,0,0.779857013474324,0.779005628628609,0.779108353634125,0.778062202177952,0,0.780211209293343,0.778365446394235,0.779149443636331,0.778239710987483,0,0.779868518674942,0.784731931336082,0.783719473681718,0.783581411274305,0,0.784299664512872,0.786710825842339,0.788025705912941,0.799648423937022,0,0.799525153930402,0.79707701159895,0.797988387847886,0.797046604997317,0,0.785657278185769,0.779953985879531,0.779355715447407,0.779688544465278,0,0.774573660990635,0.773102638911649,0.773358218725372,0.770112108551073,0,0.771840354043871,0.77224057066536,0.774670633395842,0.783543608472275,0,0.776288757682727,0.76916950390046,0.76588148192391,0.763769455810505,0,0.76423048563526,0.761300768477949,0.760897264656283,0.762076547719604,0,0.762878624562672,0.762893416963466,0.763742336409049,0.765616040509657,0,0.755117544945942,0.754544750315185,0.751366849544549,0.75189691057301,0,0.742662343477161,0.739647980915305,0.737063419776528,0.733309437174958,0,0.732200007115387,0.723579324652501,0.721906961562703,0.717526767327509,0,0.717608125531878,0.717387061320008,0.716756740686163,0.707868151408891,0,0.707152363570457,0.708084284820497,0.709335064487657,0.711636926411255,0,0.711728146216153,0.711523518005166,0.706629698742393,0.706164559917417,0,0.706734889148041,0.70660915374129,0.706363435528096,0.710303966739682,0,0.710925247573042,0.709454225494055,0.711461061201812,0.713169583493551,0,0.715028495193365,0.714588010369713,0.71476058837898,0.715436108015252,0,0.71857045338355,0.718535937781697,0.720120368266773,0.718120106959369,0,0.717477459324862,0.716178193455098,0.71391413433353,0.714076028942223,0,0.711568717007593,0.710649122758215,0.705729827694074,0.706072518312475,0,0.70565340028997,0.707094837567368,0.711963181028773,0.714654576173288,0,0.713270664898979,0.683876520920664,0.68350342370063,0.68216306782866,0,0.682227168232102,0.676928201547575,0.679072277862701,0.686253988448321,0,0.682836122064799,0.683694903110912,0.686619689467958,0.687849924134015,0,0.695838642362968,0.696412258793769,0.698808627722441,0.698110919484978,0,0.700666717622211,0.701394832461307,0.700360186205752,0.699436482956154,0,0.698487303905188,0.707384932982945,0.708726932455003,0.70918631867967,0,0.708590513647678,0.7040262362026,0.701858327686194,0.700335532204428,0,0.700331423204207,0.703125543354238,0.712664998266457,0.718638662787213,0,0.723180751631099,0.728266872104198,0.729145376351369,0.722920241017111,0,0.721621796947391,0.720561674890468,0.720487712886497,0.72128896792952,0,0.719052850009452,0.72041868168279,0.721671926750083,0.721305403930403,0,0.720205013671318,0.726553419012194,0.733259307372266,0.734224100624071,0,0.732767870945879,0.721170628723166,0.722443596991518,0.708117978622306,0,0.710912098772336,0.712413527452955,0.722327723185296
0.794838428278749,0.793258928593938,0.789430983988397,0.789002004365363,0,0.787202262268726,0.788150619519648,0.788169520920663,0.786608922636867,0,0.779890707276133,0.777534606549623,0.777925783370627,0.77799810177451,0,0.779674573864528,0.77905164943108,0.781081495540072,0.781799748778639,0,0.779490490654644,0.779316269045289,0.779567739858792,0.780763458922996,0,0.784869171943452,0.784942312147379,0.786195557214671,0.784642355131272,0,0.788524538539726,0.788598500543697,0.799467627927314,0.799818536546156,0,0.797700757832442,0.799595006934153,0.797613647027764,0.794919786483118,0,0.779992610481605,0.779543907657512,0.779281753443436,0.780331192099785,0,0.772683520889144,0.770764617786109,0.765016126477445,0.766561932360446,0,0.767935982034226,0.770649565779931,0.772055665655432,0.772432871875686,0,0.844687175355372,0.765697398714026,0.763330614586941,0.763008468969644,0,0.762174341924855,0.759971917806596,0.761373908681876,0.761848909107381,0,0.761302412078037,0.759494451980959,0.76050033523497,0.737436516996561,0,0.754819231529924,0.750596822903202,0.743226098307432,0.740841234579377,0,0.739425273103347,0.73659581555142,0.733892915206288,0.73008962460207,0,0.727000478236199,0.721424564936801,0.717983688152044,0.717616343532319,0,0.717405962721023,0.717615521732275,0.714439264561726,0.707755564802846,0,0.706540944337627,0.706540944337627,0.708680911652532,0.70935150048854,0,0.711816900620919,0.70858887004759,0.704184021811072,0.704865294047653,0,0.705304135271217,0.706455477133038,0.706970745760705,0.707335624980297,0,0.709356431288804,0.709413957291893,0.714264221152327,0.717180789508932,0,0.71334462690295,0.714409679760138,0.715359680611148,0.717193938309638,0,0.71794506354997,0.722843813613008,0.723104324226996,0.713535284513187,0,0.713543502513629,0.70947312689507,0.710956475974718,0.711857168823081,0,0.710104269328959,0.706749681548835,0.703212654158915,0.703384410368137,0,0.70602567570996,0.706363435528096,0.719057780809717,0.720109684866199,0,0.714975899990541,0.686411774056794,0.685991834234245,0.682776952461623,0,0.680725739551483,0.682175394829322,0.687900053936707,0.686270424449204,0,0.687142354296022,0.692013984957604,0.690198628660128,0.69131216771992,0,0.691969607755221,0.694973286916503,0.697689336062341,0.70071027302455,0,0.700806423629713,0.699753697773187,0.698757676119705,0.701051320042862,0,0.700565636216784,0.706873773355498,0.70785993340845,0.707109629968163,0,0.708040729418158,0.707409586984269,0.699609882765465,0.699037088134708,0,0.700862306032713,0.701165550248996,0.712374902850881,0.718005876753235,0,0.722699998605286,0.723811072264944,0.722500301194563,0.721243768927093,0,0.719385679027323,0.720044762662713,0.71798697535222,0.720909296309134,0,0.723262931635512,0.720575645491219,0.722058994570867,0.725519594556683,0,0.733460648383077,0.736547329348816,0.734804291455224,0.731926347700693,0,0.732564064534935,0.731391355871967,0.718586889384433,0.709029354871242,0,0.710231648335799,0.723400994042925,0.72480791571847
0.796394095762281,0.795528740315816,0.79234919594509,0.789850923810946,0,0.788926398761304,0.788638768745859,0.783340623861376,0.778705671612503,0,0.777980843973584,0.776829502111762,0.778173145183909,0.778731147413871,0,0.780277775096917,0.786081327008538,0.783543608472275,0.782693867226649,0,0.782498278816147,0.780669773717965,0.780468432707154,0.785579207181577,0,0.785103384956027,0.785358964769751,0.786581803235411,0.790869134065619,0,0.797705688632707,0.796864987187565,0.796914295190213,0.796692409178299,0,0.797642410029309,0.798967973500485,0.798231640660947,0.79095295767012,0,0.778231492987042,0.778684304811356,0.768997747691237,0.767401812005544,0,0.765385936497301,0.765509206503921,0.765596317308598,0.766264440744473,0,0.766925989779994,0.769043768493708,0.767822573628136,0.765764786317644,0,0.765984206929426,0.767469199609162,0.768440567261319,0.760418977030601,0,0.763258296183058,0.761924514711441,0.761134764869035,0.758047262103252,0,0.757084112451536,0.757729225486175,0.756711837031547,0.747507676537331,0,0.747180600119768,0.741017921588864,0.73876865486809,0.737246681186368,0,0.737369951192987,0.737027260574586,0.735049187868374,0.730190706007498,0,0.723559601451442,0.721630014947833,0.717599907531437,0.717401853720802,0,0.717696879936644,0.712249167444129,0.709416422692026,0.706979785561191,0,0.707564907192609,0.707001152362338,0.707904310610833,0.708976759668418,0,0.712166165639672,0.706425892331449,0.705669836290853,0.703482204573388,0,0.704251409414691,0.705994447308283,0.706394663929773,0.707477796387931,0,0.708756517256592,0.711808682620478,0.718203108763826,0.719044632009011,0,0.716189698655716,0.719029017808173,0.717819328143218,0.71742732952217,0,0.720370195480187,0.721459902338699,0.70983554071453,0.710165082532225,0,0.709215903481259,0.709278360284612,0.710254658737035,0.708795141858666,0,0.707797476605096,0.708920877265417,0.704154437009484,0.706281255523683,0,0.706843366753866,0.71650526987266,0.718318982570047,0.719213922818101,0,0.714913443187187,0.686835001079519,0.683817351317487,0.682040619622085,0,0.680461941737318,0.682845161865285,0.692319694574019,0.705910623703782,0,0.702039945495947,0.700766977227595,0.689979208048347,0.690842919894724,0,0.691917012552397,0.698347597897686,0.702317713910861,0.7034246785703,0,0.700704520424241,0.700513862814004,0.699749588772966,0.699990376185895,0,0.702818190137734,0.708872391062814,0.708928273465814,0.704323727818574,0,0.707793367604876,0.70785993340845,0.698601534111321,0.698920392528443,0,0.700818750630375,0.706864733555013,0.713489263710716,0.718759467393699,0,0.721766433755158,0.723761764262297,0.723314705038292,0.719294459222426,0,0.71981712405049,0.720660290895764,0.718417598575342,0.720698093697793,0,0.722045845770161,0.724378936095436,0.725773530770318,0.727481231262013,0,0.734400787633558,0.736568696149963,0.732280543519712,0.730313976014117,0,0.730507920824531,0.716243115658584,0.717000815299269,0.716563617675793,0,0.715077803196013,0.71621846165726,0.717750296939512
0.795301101703593,0.79377912802187,0.792783106368389,0.791277568687549,0,0.785971205802625,0.782920684038828,0.780097800887253,0.779217653039994,0,0.778168214383644,0.779042609630595,0.780406797703845,0.785837252395432,0,0.785130504357484,0.785653990985592,0.785395123971692,0.782519645617294,0,0.782648668224222,0.781307490552207,0.783749058483307,0.783961904694736,0,0.788446467535534,0.788328950129224,0.788382367132092,0.79982346734642,0,0.797330947812585,0.794321516050994,0.7965173657689,0.798121519455035,0,0.797910316843694,0.798008111048945,0.792342621544737,0.783066142646638,0,0.772319463469596,0.76959766172345,0.764483600048851,0.76307750017335,0,0.76216530212437,0.763683988605916,0.763656869204459,0.765528107904935,0,0.767832435228666,0.764382518643423,0.761824255106057,0.76225487832918,0,0.762923001765054,0.767098567789261,0.76159168569357,0.761315560878743,0,0.761493069688274,0.760913700657165,0.758316812517726,0.755510365367034,0,0.755496394766284,0.893452789973835,0.742941755492164,0.741023674189173,0,0.740618526767419,0.740163249542973,0.73930446849686,0.733181236368074,0,0.730573664828061,0.726965962634346,0.727957053487562,0.729013066544265,0,0.725642042763258,0.720278975675289,0.717687840136158,0.715926722641595,0,0.713398865705862,0.712240127643644,0.711023041778293,0.707759673803067,0,0.706867198955145,0.707271524576855,0.707632294796227,0.708583117447281,0,0.708936491466256,0.706209758919844,0.706110321114505,0.704193061611558,0,0.704700112238784,0.705694490292177,0.706786662550821,0.707661057797771,0,0.710907167972071,0.722579193998799,0.723363191240895,0.719587841838179,0,0.718484164378917,0.718276248967753,0.717478281124906,0.717384595919876,0,0.71849484777949,0.712491598457147,0.709301370685848,0.70897511606833,0,0.710222608535314,0.711322998794399,0.71055050675292,0.709269320484127,0,0.706291938924257,0.704260449215176,0.70435084722003,0.706941982759161,0,0.707412874184445,0.716639223279853,0.717613056332143,0.715043287594159,0,0.707089906767103,0.690789502891855,0.692257237770665,0.683011987274243,0,0.684582447158568,0.861871014278055,0.705343581673335,0.706116073714814,0,0.697574284056163,0.6916786905396,0.688974968394424,0.689911820444728,0,0.692961520408482,0.693886045458124,0.701934755090298,0.703072948151413,0,0.700390592807385,0.699846561178173,0.700141587394014,0.704424809224001,0,0.70420949761244,0.708929917065903,0.706890209356381,0.705558071484852,0,0.705360839474261,0.704226755413367,0.703552879377183,0.702133630700977,0,0.704774896042799,0.712235196843379,0.712729098669899,0.720859166506442,0,0.722923528217288,0.724064186678535,0.725890226376584,0.719052850009452,0,0.720160636468935,0.720066951263904,0.720397314881643,0.723239099434232,0,0.724068295678756,0.727933221286283,0.727735989275692,0.729465056568534,0,0.732744860544643,0.735322847283068,0.726509041809812,0.726733393221858,0,0.710034416325209,0.708329181233646,0.71553143682037,0.71175937461783,0,0.713911668933397,0.716002328245655,0.715434464415163
0.796080989945468,0.794481767059598,0.79148877129889,0.791501920099596,0,0.784832190941466,0.783531281471614,0.780032056883723,0.778570074605222,0,0.77800796337504,0.783926567292838,0.784208444707974,0.784648107731581,0,0.788621510944933,0.786401829025747,0.784963678948526,0.78293301103949,0,0.782116963595672,0.783647977077879,0.785035175552365,0.788959270763069,0,0.791897205920821,0.788038854713647,0.800214644167425,0.799581036333403,0,0.795128523694326,0.794843359079014,0.794370824053641,0.795949501938408,0,0.792512734153871,0.792070605730131,0.778498578001383,0.770056226148072,0,0.770072662148955,0.761799601104734,0.761011494862416,0.760385283228792,0,0.759404053976105,0.760406650029939,0.763277197584073,0.765132000283666,0,0.765238834289403,0.759330913772178,0.759807557797771,0.760405006429851,0,0.761390344682759,0.760103405813657,0.762737274955082,0.762722482554288,0,0.760864392654518,0.755423254562357,0.754436272709361,0.754350805504772,0,0.755598297971756,0.740585654765654,0.740870819380965,0.740080247738516,0,0.740177220143723,0.739814806324263,0.732808960948085,0.729108395349384,0,0.727323445653541,0.726187717992558,0.725827769573231,0.726428505405487,0,0.724948443526015,0.72039074048129,0.717632779533202,0.714279835353166,0,0.712759505271532,0.713480223910231,0.711843198222331,0.710096873128562,0,0.707062787365647,0.706235234721212,0.706107033914328,0.706971567560749,0,0.707166334171207,0.70628865172408,0.705469317080086,0.703628484981243,0,0.70377723078923,0.707457251386828,0.708177148225483,0.712434894254102,0,0.717471706724553,0.722867645814287,0.723306487037851,0.7207671249015,0,0.717643462933775,0.717952459750367,0.720679192296778,0.718638662787213,0,0.714597050170199,0.709425462492511,0.70821248562738,0.708304527232323,0,0.712055222633716,0.710390255744315,0.70939341229079,0.703962957599202,0,0.702329219111479,0.702794357936455,0.703977749999997,0.712219582642541,0,0.712750465471046,0.715759075432593,0.713012619685123,0.703393450168623,0,0.703154306355782,0.700863949632802,0.697431290848485,0.696087647776339,0,0.693504730237649,0.698105166884669,0.698534968307747,0.697510183652722,0,0.695365285537552,0.693544176639767,0.690948110300372,0.692245732570048,0,0.699120089939165,0.701147470648025,0.704598209033312,0.705809542298354,0,0.699808758376143,0.705834196299678,0.710029485524944,0.708513264443531,0,0.717145452107035,0.71849073877927,0.719573871237428,0.703086096952119,0,0.706342068726948,0.702362091113244,0.701188560650231,0.704602318033533,0,0.705988694707974,0.710802799366467,0.723626167255016,0.726181143592205,0,0.724884343122574,0.725435770952182,0.724490700901437,0.71629817626154,0,0.716663877281177,0.718588532984521,0.720711242498499,0.721998181367602,0,0.725213063140224,0.730798016240107,0.734672803448164,0.730721588836004,0,0.730733915836666,0.714207516949283,0.723656573856649,0.712169452839849,0,0.709203576480597,0.712197394041349,0.70950106809657,0.709916898918899,0,0.713379964304847,0.714333252356034,0.714855095384054
0.796796777783903,0.796655428176313,0.78972025760393,0.784137769904179,0,0.783505805670246,0.782926436639137,0.780667308317833,0.78046350190689,0,0.78249088261575,0.783176263852551,0.783231324455507,0.785501957977429,0,0.786582625035455,0.785866837197021,0.784793566339392,0.784252821910357,0,0.784076956700913,0.788658491946919,0.785815063794241,0.790417144041349,0,0.791248805686005,0.799164383711031,0.799224375114252,0.791625190106215,0,0.791717231711157,0.793588470411633,0.792483149352283,0.791983494925454,0,0.791796124515393,0.878126219150877,0.878364541163673,0.764458124247483,0,0.764135156830141,0.760450205432278,0.760129703415069,0.756650202028237,0,0.756905781841961,0.763305138785573,0.763182690578998,0.764430183045982,0,0.758826328545084,0.758738395940363,0.760359807427424,0.762722482554288,0,0.762975596967879,0.760465819633116,0.762799731758436,0.752270007793043,0,0.751877187371951,0.750933760921294,0.751340551943136,0.752048943581173,0,0.747365505129697,0.741630984421782,0.741856157633873,0.73955922651054,0,0.7366475889542,0.735114931871904,0.731520378478895,0.727417130858571,0,0.731267264065304,0.723708347259429,0.724927898524912,0.725776817970495,0,0.721323483531374,0.717889181146969,0.714500899565036,0.713656910919718,0,0.713545146113717,0.713759635925234,0.712606650463324,0.710418196945816,0,0.708228921628263,0.705393711476026,0.704476582626781,0.706231947521035,0,0.707240296175179,0.705327967472496,0.704772430642667,0.705415078277174,0,0.704332767619059,0.708990730269168,0.709139476077155,0.714702240575847,0,0.717052588702048,0.71859428558483,0.717094500504299,0.717956568750588,0,0.716332691863394,0.71599739744539,0.719536890235443,0.704559584431238,0,0.705274550469628,0.705703530092662,0.709314519486554,0.710020445724459,0,0.710117418129665,0.709727884908749,0.704031988802909,0.702133630700977,0,0.699784926174864,0.701640550674501,0.709137832477067,0.70959064430138,0,0.708629960049797,0.708779527657828,0.698442926702805,0.698681248715602,0,0.699920523182144,0.698294180894818,0.697488816851574,0.696755771212213,0,0.697704128463135,0.6976531768604,0.697710702863488,0.694226270676392,0,0.69310862261638,0.693342835628956,0.696159144380178,0.697019569026378,0,0.703279219962489,0.706042111710842,0.70894142226652,0.709171526278876,0,0.707679959198786,0.710311362940079,0.716384465266174,0.717474172124685,0,0.719955186457903,0.722926815417464,0.721235550926652,0.70480694624452,0,0.705115943061112,0.706294404324389,0.70311814715384,0.704800371844167,0,0.854729571894597,0.723797923464238,0.723898183069622,0.726366048602133,0,0.723755189861944,0.723238277634188,0.719550039036149,0.717201334510035,0,0.716589915277205,0.717805357542468,0.720454840884732,0.719172832815895,0,0.730456969221795,0.730998535450874,0.730687895034195,0.729827470387994,0,0.731349444069716,0.714775380779774,0.714518979166007,0.710491337149743,0,0.709344104288142,0.711986191430009,0.707993065015598,0.711860456023258,0,0.715362967811324,0.710800333966334,0.712617333863898
0.794528609662114,0.791615328505685,0.785623584383959,0.782700441627002,0,0.783441705266804,0.785629336984268,0.781842482380934,0.784892182344687,0,0.784467311721873,0.784312813313578,0.784681801533391,0.784796853539568,0,0.786317183621202,0.79025196223248,0.791754212713143,0.786022979205405,0,0.786820125248208,0.789778605407063,0.792499585353165,0.801581297640807,0,0.79959829413433,0.79890140769691,0.79062834665269,0.791072118676518,0,0.791344134491124,0.791653131307715,0.791316193289623,0.79207224933022,0,0.77464433579443,0.770458908169694,0.765571663307274,0.765267597290947,0,0.762534290344183,0.758781951342701,0.755742934779522,0.75516110034828,0,0.75834146651905,0.762055180918457,0.763439092192766,0.762627153749169,0,0.75736763346676,0.759246268367633,0.762906565764172,0.762142291723134,0,0.763462102594001,0.759722912393226,0.755526801367916,0.749106899423201,0,0.749843232262738,0.748122382970337,0.746043228858697,0.744813815992684,0,0.741770690429284,0.742933537491723,0.740401571555769,0.735565278296085,0,0.734927561461843,0.732560777334759,0.73141600987329,0.730524356825413,0,0.730806234240549,0.728861855336146,0.720848483105869,0.719173654615939,0,0.721007090514385,0.717095322304343,0.71404973134081,0.713248476297787,0,0.714986583391115,0.714715389376553,0.714085890542752,0.710188914733504,0,0.709946483720487,0.710199598134078,0.705901583903297,0.706829396153115,0,0.707457251386828,0.707735019801743,0.705157854863362,0.708522304244016,0,0.710394364744536,0.712472697056132,0.709538049098556,0.711880179224317,0,0.710694321760642,0.711982904229832,0.713638831318747,0.717077242703372,0,0.717447874523273,0.71492987918807,0.712282861245939,0.706727492947644,0,0.704825025845491,0.705567933085381,0.706593539540451,0.70881979585999,0,0.710180696733063,0.708168108424997,0.702783674535881,0.694813035907899,0,0.692743743396788,0.704955692052507,0.708301240032146,0.709339995287922,0,0.699420046955271,0.699163645341504,0.697199543236042,0.692791407799347,0,0.694358580483497,0.69589863376619,0.696879863018876,0.696573331602417,0,0.697372121245308,0.696766454612787,0.696201056182428,0.696623461405109,0,0.694388165285085,0.695080942722284,0.697355685244426,0.698518532306865,0,0.704726409840196,0.706400416530081,0.707945400613039,0.708996482869477,0,0.707095659367412,0.715957951043272,0.718111067158883,0.718557304582844,0,0.722437022591165,0.72866955412582,0.792826661770728,0.724198961885772,0,0.706287829924036,0.720342254278687,0.857383986037125,0.85091641968985,0,0.729366440563239,0.72856600732026,0.725646151763479,0.726699699420049,0,0.721854366359879,0.719016690807511,0.716347484264188,0.71463320937214,0,0.715331739409648,0.717114223705358,0.710243975336461,0.710990169776528,0,0.716123954652186,0.729352469962489,0.731426693273864,0.732049617707312,0,0.726311809799221,0.712478449656441,0.711732255216374,0.70918631867967,0,0.709902928318148,0.712113570436849,0.711926200026788,0.711544884806313,0,0.711943457827714,0.708811577859548,0.709678576906102
0.790214981230494,0.790093354823963,0.785998325204081,0.784473064322182,0,0.7846875541337,0.791316193289623,0.791121426679166,0.783926567292838,0,0.787476743483465,0.788343742530018,0.788540974540608,0.789621641598635,0,0.790583969450307,0.791320302289844,0.79001692741986,0.790991582272193,0,0.793295909595924,0.80047268938128,0.801890294457398,0.801993841262958,0,0.801162179618302,0.788380723532004,0.789611779998105,0.792308927742928,0,0.791369610292492,0.791544653701891,0.791662992908245,0.774120027366277,0,0.771476296624323,0.766508515357578,0.76575410291707,0.764008599623346,0,0.761833294906543,0.757252581460582,0.757818801690985,0.757554182076776,0,0.755625417373212,0.757269017461464,0.763205700980234,0.755699379377183,0,0.752985795631477,0.760803579451252,0.765013661077312,0.764581394254102,0,0.76138459208245,0.7493098840341,0.747632590144038,0.747928438159923,0,0.748631898997696,0.742848070287134,0.743618918728524,0.741332671005764,0,0.740653864169316,0.739866579727043,0.736284353334696,0.735108357471551,0,0.734327647429631,0.732223017516623,0.731430802274085,0.730823492041475,0,0.730175913606704,0.724364143694642,0.722793683810316,0.717843982144542,0,0.718296793968856,0.716859465691679,0.71677399848709,0.719031483208305,0,0.716875079892517,0.716975339497901,0.71325505069814,0.712154660439055,0,0.712434894254102,0.710168369732401,0.707760495603111,0.707133462169442,0,0.709747608109809,0.710147002931254,0.709921829719163,0.714514048365742,0,0.714753192178583,0.714002888738295,0.712185067040688,0.710557081153273,0,0.710805264766599,0.71023575733602,0.712321485848013,0.714734290777568,0,0.717408428121155,0.705435623278277,0.706383980529199,0.706178530518167,0,0.704946652252022,0.703354003766505,0.705619706488161,0.708449985840133,0,0.710494624349919,0.709620229102969,0.700558240016387,0.688808142985467,0,0.690569260480029,0.692021381158001,0.70658943054023,0.687442311312128,0,0.68784499333375,0.68621782924638,0.691531588331702,0.691670472539159,0,0.692622116990257,0.695606894750525,0.696356376390768,0.695295432533801,0,0.697489638651618,0.698096127084184,0.705130735461906,0.706177708718123,0,0.69812324648564,0.710520100151287,0.706356039327699,0.704206210412264,0,0.704331945819015,0.706014170509342,0.711716641015535,0.712434072454058,0,0.711916338426258,0.716926853295297,0.719204061217572,0.723645890456075,0,0.728700782527497,0.73276622734579,0.734212595423453,0.7295258697718,0,0.727694899273486,0.73203318170643,0.731997844304532,0.730221112609131,0,0.730419988219809,0.729240705156488,0.728159216298417,0.728681881126482,0,0.720011890660948,0.716536498274337,0.715614438624827,0.710958119574807,0,0.82309848819617,0.823739492230588,0.709014562470448,0.713279704699464,0,0.715726203430828,0.716582519076808,0.730824313841519,0.731634608685028,0,0.726267432596838,0.710284243538623,0.70942135349229,0.708929095265859,0,0.710345878541932,0.711866208623566,0.710716510361834,0.708603662448384,0,0.70850915544331,0.708130305622968,0.709457512694232
0.787761908098776,0.788164590120398,0.787407712279758,0.783653729678188,0,0.786772460845648,0.790860094265133,0.79153068310114,0.788277998526488,0,0.790761478259838,0.787447158681876,0.786896552652311,0.787059269061048,0,0.790223199230935,0.79152657410092,0.791056504475679,0.792278521141295,0,0.801749766649853,0.800937006406212,0.801015899210448,0.801244359622715,0,0.789094045970305,0.787839979102968,0.78918855297538,0.790940630669458,0,0.790932412669016,0.788827782756008,0.771393294819866,0.769782566733378,0,0.770896927593213,0.766659726565698,0.765129534883534,0.76158182409304,0,0.759616900187534,0.758532124129287,0.759735239393888,0.752664471814224,0,0.751232074337312,0.748534926592489,0.747143619117783,0.748072253167645,0,0.750919790320544,0.753290683447848,0.761896573509941,0.764379231443247,0,0.74674668969647,0.747143619117783,0.745698072840164,0.746018574857373,0,0.740736044173729,0.741490456614237,0.741060655191159,0.741076269391997,0,0.740106545339928,0.735294906081567,0.735119862672168,0.734441877635764,0,0.733265881772619,0.730382185417779,0.730638587031547,0.712010023631289,0,0.725813798972481,0.723026253222804,0.721975170966366,0.718530185181388,0,0.717462666924068,0.72042854328332,0.720854235706177,0.721606182746553,0,0.717868636145866,0.713719367723072,0.712753752671223,0.712053579033627,0,0.711078924181293,0.707762139203199,0.707177017571781,0.707798298405141,0,0.709448472893746,0.711364088796605,0.714769628179465,0.714993157791468,0,0.714758122978847,0.71652910207394,0.716043418247861,0.710271916537961,0,0.712555698860589,0.712005914631068,0.71170760121505,0.71145859580168,0,0.703358112766725,0.704184021811072,0.705579438285999,0.703374548767608,0,0.70246481611876,0.70310417655309,0.703158415356003,0.704593278233047,0,0.710050852326091,0.704164298610013,0.700806423629713,0.685041011583191,0,0.684456711751817,0.683681754310206,0.688102216747562,0.687536818317203,0,0.686157837843159,0.686750355674974,0.6878589639345,0.690624321082986,0,0.694220518076083,0.694787560106531,0.696176402181104,0.705177578064421,0,0.706803098551703,0.704310579017868,0.709083593674154,0.710615428956406,0,0.708141810823585,0.709150981277773,0.706858980954704,0.701482765066029,0,0.701767107881296,0.708228099828219,0.71680604868881,0.717184898509153,0,0.709153446677905,0.718366646972607,0.717990262552397,0.723978719473946,0,0.730129892804233,0.731715145089353,0.738108749432656,0.775203159824436,0,0.737299276389192,0.736907277768144,0.733447499582371,0.733413805780562,0,0.731134132458155,0.728081145294226,0.72620004499322,0.723482352247294,0,0.720993119913635,0.715777155033564,0.70745560778674,0.702207592704948,0,0.700721778225168,0.699359233752006,0.703275932762313,0.71035738374255,0,0.713290388100038,0.718597572785006,0.719019978007687,0.712166165639672,0,0.711106865382794,0.711624599410593,0.712180136240423,0.706941982759161,0,0.709827322714089,0.710457643347934,0.708619276649223,0.706370009928449,0,0.707771179003684,0.707227969174517,0.707395616383519
0.783565797073467,0.784949708347776,0.785917788799757,0.786442097227909,0,0.788875447158568,0.789801615808298,0.790614376051939,0.791977742325145,0,0.791034315874488,0.788480161337343,0.785809311193932,0.785517572178267,0,0.786069000007876,0.790361261638348,0.791266063486932,0.799913865351274,0,0.799840725147347,0.800963304007624,0.792161003734985,0.787609053290569,0,0.786873542251076,0.789220603177101,0.78898145936426,0.790513294646512,0,0.776418602089699,0.773968816158158,0.767338533402146,0.766659726565698,0,0.769245931304563,0.76581573792038,0.764010243223434,0.763125986375954,0,0.762494843942065,0.762636193549655,0.754889084533674,0.751396434346137,0,0.740230637146591,0.742560440271689,0.743291842310962,0.748157720372235,0,0.750231121883566,0.75132329414221,0.748097728969013,0.745917493451946,0,0.745949543653667,0.745705469040561,0.74454015657799,0.743060094698518,0,0.741010525388467,0.7402643309484,0.739970126532603,0.736438029942947,0,0.735149447473757,0.73509027787058,0.735131367872786,0.73429970622813,0,0.732637204738863,0.731342869669363,0.728378636910199,0.723749437261635,0,0.723513580648971,0.721939011764424,0.720942990110943,0.719114485012762,0,0.718687148989816,0.720643033094837,0.720352115879216,0.723365656641028,0,0.715405701413619,0.714297914954137,0.714943027988776,0.711946745027891,0,0.708306992632455,0.708403965037662,0.708737615855577,0.70855106724556,0,0.714363658957667,0.713675812320733,0.714532949766757,0.713975769336839,0,0.717114223705358,0.71729995051533,0.716287492860967,0.714877283985246,0,0.713309289501052,0.715020277192924,0.705801324297913,0.705228529667157,0,0.703321953564784,0.703267714761871,0.703640811981905,0.703129652354458,0,0.703275110962269,0.701005299240391,0.700546734815769,0.700500714013298,0,0.701251839253629,0.702145957701639,0.692767575598068,0.686824317678945,0,0.681995420619658,0.684080327331607,0.68745463831279,0.686605718867208,0,0.685698451618492,0.681290316181798,0.682386597440662,0.683836252718501,0,0.690033446851259,0.694432542487468,0.698380469899451,0.704404264222898,0,0.705519446882778,0.704538217630091,0.707541074991329,0.708470530841236,0,0.707753099402714,0.707458894986916,0.706181817718344,0.70647191313392,0,0.707415339584578,0.720306095076745,0.720286371875686,0.720237063873039,0,0.712062618834113,0.717923696748823,0.718115176159104,0.730591744429032,0,0.731290274466539,0.735036860867712,0.736682926356097,0.743212127706682,0,0.739516492908245,0.738273931241526,0.737061776176439,0.736092873924414,0,0.730328768414911,0.729391916364607,0.726229629794809,0.72436578729473,0,0.723723139660223,0.704037741403218,0.704576842232165,0.700863127832758,0,0.700665074022123,0.700356899005576,0.704326193218706,0.705143884262612,0,0.710323689940741,0.71642555526838,0.714160674346768,0.709478057695335,0,0.708254397429631,0.710433811146654,0.714897828986349,0.714737577977744,0,0.71044695994736,0.707996352215775,0.708800894458975,0.710622003356759,0,0.708526413244237,0.711680481813594,0.710397651944712
0.78335130726195,0.784336645514857,0.785427995973457,0.785758359591196,0,0.792759274167109,0.793283582595262,0.797319442611967,0.792672985162476,0,0.788658491946919,0.788351960530459,0.787037080459857,0.785996681603993,0,0.785839717795565,0.790302092035171,0.795658584722788,0.80023354556844,0,0.793608193612692,0.793066627383613,0.791387689893462,0.79064231725344,0,0.790044046821316,0.789063639368673,0.779136294835625,0.778261899588675,0,0.773997579159703,0.771709687836854,0.766896404978406,0.766546318159608,0,0.766805185173508,0.765797658319409,0.764327458040467,0.764010243223434,0,0.761728104500895,0.755788955581993,0.754834023930718,0.746486179082481,0,0.742010656042169,0.741736174827431,0.744218832760737,0.74801143996438,0,0.747443576133889,0.746564250086673,0.743099541100636,0.743097897500548,0,0.741472377013266,0.742868615288237,0.738309268643423,0.738526223855073,0,0.73910723648627,0.739449105304627,0.738227910439055,0.735963851317486,0,0.735965494917575,0.737177649982661,0.736669777555391,0.736848108164966,0,0.734123019218643,0.731219599662744,0.731934565701134,0.722824912211993,0,0.723073917625363,0.720742470900176,0.720976683912752,0.722827377612125,0,0.72132266173133,0.720525515688527,0.720958604311781,0.723407568443278,0,0.720477029485923,0.715297223807794,0.715231479804264,0.713238614697258,0,0.712528579459132,0.710209459734607,0.712915647279916,0.711867030423611,0,0.712534332059441,0.713739912724175,0.714429402961197,0.716848782291105,0,0.71567278642796,0.716821662889649,0.715713054630122,0.715501852018782,0,0.716940002096003,0.713637187718659,0.70379120138998,0.704011443801806,0,0.702015291494623,0.702299634309891,0.70268998933085,0.702559323123834,0,0.702707247131777,0.701200065850849,0.700454693210827,0.69863111891291,0,0.698058324282154,0.692482410982756,0.692465153181829,0.68390364032212,0,0.684458355351905,0.685891574628862,0.684396720348596,0.685853771826832,0,0.68373434951303,0.680562201342702,0.679918731908151,0.680565488542878,0,0.690080289453774,0.692396943778167,0.698001620079109,0.709286578285053,0,0.710154399131651,0.70309020595234,0.706140727716138,0.70845738204053,0,0.708578186647017,0.708884718063476,0.71213575903804,0.710558724753361,0,0.711123301383676,0.724392906696186,0.726112934188543,0.72273287060705,0,0.721736027153525,0.794888558081441,0.795476145112992,0.731835949695839,0,0.73165679728622,0.742378822461937,0.746520694684335,0.748127313770602,0,0.73898971907996,0.737072459577013,0.735515148493393,0.735881671313074,0,0.733561729788505,0.730288500212749,0.72693884323289,0.724042819877388,0,0.714523909966271,0.714627456771831,0.709595575101645,0.702142670501462,0,0.70236537831342,0.699459493357389,0.702689167530806,0.70946901789485,0,0.710048386925959,0.700773551627948,0.70654340973776,0.706190035718785,0,0.704419878423737,0.712143155238437,0.714555138367948,0.715515000819488,0,0.714911799587099,0.714904403386702,0.709510107897056,0.710741164363157,0,0.712420101853308,0.835351526854095,0.72982664858795
0.78317215485233,0.784127086503605,0.78443279612002,0.788000230111573,0,0.797131250401862,0.797733629834207,0.794568877864276,0.789949539816241,0,0.788952696362716,0.789495906191883,0.789721079403974,0.788134183518766,0,0.788672462547669,0.791694221309921,0.785972027602669,0.793971429232196,0,0.789869825211961,0.79122990428499,0.791755034513187,0.792957327977744,0,0.791713944510981,0.786885047451694,0.778014537775393,0.777223966132943,0,0.771563407429,0.771554367628515,0.772279195267434,0.767302374200204,0,0.76637538375043,0.765814916120336,0.765673566512746,0.760388570428969,0,0.751529565953285,0.749696951854883,0.748934321413934,0.746540417885394,0,0.74136965200775,0.741522506815958,0.748769961405109,0.748798724406653,0,0.73864127586125,0.740394175355372,0.740207626745355,0.73643063374255,0,0.737572114003842,0.737517875200929,0.737581975604371,0.737478428798811,0,0.737766058814256,0.737130807380146,0.73616765772843,0.737459527397797,0,0.739425273103347,0.737589371804768,0.736922891968982,0.73467609064834,0,0.730426562620162,0.730506277224443,0.728281664504992,0.726768730623755,0,0.71754073792826,0.720672617896425,0.721365395333624,0.721634945748098,0,0.721813276357673,0.726201688593308,0.721356355533139,0.722824090411949,0,0.718713446591228,0.717684552935982,0.717462666924068,0.716013011646229,0,0.714993979591512,0.712258207244615,0.711964824628862,0.711464348401989,0,0.711948388627979,0.714098217543414,0.71648719027169,0.716368029265291,0,0.714790994980612,0.716017942446493,0.718521145380903,0.71869783239039,0,0.712212186442144,0.711278621592016,0.710001544323444,0.704782292243197,0,0.700139121993882,0.700257461200236,0.701125282046834,0.701835317284959,0,0.702138561501242,0.701168015649128,0.703427965770476,0.70119431325054,0,0.702658760929174,0.69445884008888,0.690174796458849,0.690694174086737,0,0.683605326906102,0.686964845486491,0.686153728842938,0.683836252718501,0,0.686225225446777,0.683275785088407,0.679911335707754,0.681465359591197,0,0.687023193289624,0.688112078348092,0.690774710491061,0.699418403355183,0,0.699749588772966,0.701704651077943,0.703671218583537,0.709212616281082,0,0.709565168500012,0.709931691319693,0.711493111403533,0.709822391913824,0,0.732048795907268,0.724957483326501,0.72645891200712,0.731296027066848,0,0.726774483224064,0.731719254089573,0.731863069097295,0.733227257170545,0,0.733171374767545,0.742085439846184,0.746114725462536,0.746984189909222,0,0.737809614216594,0.733610215991108,0.733610215991108,0.733228078970589,0,0.734085216416613,0.729003204943735,0.729305627359974,0.715690044228887,0,0.71368320852113,0.715473910817282,0.710546397752699,0.704080475005513,0,0.704250587614647,0.705563824085161,0.705269619669363,0.711795533819772,0,0.699616457165818,0.700638776420711,0.70465162603618,0.706139084116049,0,0.705009930855419,0.714481998164021,0.713387360505245,0.712697870268223,0,0.713670059720424,0.715063832595262,0.715232301604308,0.715570061422444,0,0.757476111072584,0.736362424338888,0.736433099142683
0.783900269691426,0.783960261094648,0.789679167601724,0.792921168775802,0,0.798370524868405,0.799799635145141,0.79723644080751,0.789855854611211,0,0.790751616659308,0.790274150833671,0.790880639266236,0.797522427222866,0,0.790584791250351,0.791203606683578,0.786130635011186,0.785945730001257,0,0.786819303448163,0.791349887091433,0.794586957465247,0.794434924457083,0,0.791233191485167,0.777760601561758,0.777693213958139,0.773061548909443,0,0.773637630740375,0.770773657586595,0.770075127549087,0.767576033614899,0,0.769310031708005,0.768396190058937,0.760885759455665,0.75197251617707,0,0.749850628463135,0.748808586007183,0.748655731198975,0.744858193195067,0,0.741433752411192,0.742456071666085,0.743794783937967,0.737360911392501,0,0.73662375675292,0.736770037160774,0.73738063459356,0.7350105632663,0,0.735621160699086,0.73718340258297,0.737413506595325,0.735688548302704,0,0.735980287318369,0.736728947158568,0.736320512536637,0.737501439200047,0,0.737913161022154,0.738887815874488,0.737686344209975,0.732496676931317,0,0.727350565054997,0.731317393867995,0.731456278075453,0.730402730418883,0,0.731661728086484,0.726882139029845,0.7257061431667,0.723661504656913,0,0.725031445330472,0.723997620874961,0.72248386519368,0.723176642630879,0,0.718226940965105,0.717640175733599,0.717549777728745,0.715045752994292,0,0.713790042526867,0.712258207244615,0.711179183786677,0.710866899769909,0,0.717489786325524,0.716229145057834,0.715604577024298,0.715182993601661,0,0.712344496249248,0.71537200761181,0.71862222678633,0.718588532984521,0,0.809869151085822,0.707572303393006,0.705111834060891,0.699186655742739,0,0.698233367691553,0.698835747123898,0.70025828300028,0.700487565212592,0,0.701351277058968,0.699249934346137,0.703651495382478,0.704988564054272,0,0.6985415427081,0.697923549074917,0.692807022000186,0.692228474769121,0,0.689768005437006,0.686890061682475,0.687543392717556,0.68669776047215,0,0.685095250386103,0.683117177679891,0.687482579514291,0.684093476132313,0,0.685001565181073,0.687656801123645,0.690539675678441,0.697660573060797,0,0.697753436465783,0.699042840735017,0.703362221766946,0.712234375043335,0,0.711278621592016,0.71113398478425,0.718183385562766,0.908713616793263,0,0.729208654954767,0.899501238298606,0.732109609110533,0.732783485146717,0,0.796941414591669,0.73160913288366,0.735026177467138,0.735184784875655,0,0.736208747730636,0.739007798680931,0.738100531432215,0.734988374665108,0,0.733910994807259,0.732344643923153,0.729114969749737,0.731974012103253,0,0.730719945235915,0.730959089048756,0.716091904450465,0.716317077662555,0,0.71036724534308,0.714312707354931,0.716017942446493,0.707383289382857,0,0.70946901789485,0.705386315275629,0.706774335550159,0.711351761795943,0,0.707783506004346,0.70710716456803,0.70831603243294,0.706544231537804,0,0.710154399131651,0.714528018966492,0.713644583919056,0.711821009621139,0,0.712492420257191,0.713431737707627,0.715330095809559,0.715429533614899,0,0.733804982601566,0.736465149344403,0.736208747730636
0.783350485461906,0.784126264703561,0.790759012859706,0.794850755279411,0,0.796761440382005,0.797386830215585,0.792459317151003,0.791322767689976,0,0.792165112735206,0.791921859922145,0.79758899302644,0.797594745626749,0,0.797626795828471,0.785540582579503,0.786531673432719,0.786520168232101,0,0.785671248786519,0.792334403544296,0.796419571563649,0.79428289144892,0,0.792938426576729,0.781581149966901,0.775328073431143,0.776779372309071,0,0.772257006666243,0.770357826764266,0.770185248755,0.769374953911491,0,0.769466173716389,0.761054228464711,0.753244662645377,0.752137697985939,0,0.749562176647647,0.749217020629114,0.749242496430482,0.750852402716925,0,0.744831895593655,0.743340328513565,0.742941755492164,0.736594171951331,0,0.735429681288804,0.734821549256151,0.734245467425218,0.734405718433823,0,0.734994949065461,0.733893737006332,0.734979334864623,0.735081238070095,0,0.735069732869477,0.736439673543036,0.736511991946919,0.736137251126797,0,0.736761819160333,0.738423498849557,0.736602389951773,0.73343928158193,0,0.732899358952939,0.731166182659876,0.734556929641942,0.732335604122668,0,0.731409435472938,0.731975655703341,0.730851433242976,0.73469992284962,0,0.734540493641059,0.723573572052192,0.725992129582056,0.72309528442651,0,0.718487451579093,0.717228453911491,0.716234897658143,0.714051374940899,0,0.712435716054146,0.712546659060103,0.711371484997002,0.718203108763826,0,0.717179967708888,0.713811409328014,0.715834681036653,0.715347353610486,0,0.707837744807259,0.70783610120717,0.706714344146938,0.705224420666936,0,0.703352360166416,0.702228137706052,0.700914079435493,0.698731378518293,0,0.697242276838336,0.695624152551451,0.698189812289214,0.700472772811797,0,0.703901322595893,0.70512744826173,0.711788137619374,0.71161802501024,0,0.698203782889964,0.698138860686478,0.692128215163737,0.691788811745513,0,0.69021095566079,0.68789676673653,0.690687599686384,0.688049621544738,0,0.687947718339266,0.687010866288962,0.685937595431333,0.687037163890374,0,0.686881843682034,0.689214112207265,0.69009343825448,0.697825754869666,0,0.698851361324736,0.706537657137451,0.706817890952498,0.713610068317203,0,0.718812884396567,0.73851964945472,0.826180238361644,0.730920464446682,0,0.732426002127522,0.739103949286093,0.739347202099155,0.813900080302262,0,0.742055033244552,0.740660438569669,0.740354728953254,0.733351348977208,0,0.733925787208053,0.734696635649443,0.735141229473316,0.734386817032808,0,0.734199446622747,0.727139362443657,0.725944465179497,0.723720674260091,0,0.722257870181545,0.722270197182207,0.714742508778009,0.715353106210795,0,0.715221618203735,0.710675420359627,0.716026160446935,0.728395894711126,0,0.727980885688842,0.727223186048157,0.714268330152548,0.715239697804706,0,0.712757861671444,0.706101281314019,0.707373427782327,0.712181779840511,0,0.713091512489359,0.714571574368831,0.713902629132912,0.713089868889271,0,0.712192463241085,0.713978234736971,0.716591558877294,0.727130322643171,0,0.73275225674504,0.735601437498027,0.723805319664635
0.783832060287764,0.784501005523683,0.791507672699905,0.792464247951268,0,0.796694052778387,0.796628308774857,0.794368358653509,0.793779949821914,0,0.793160312588643,0.802000415663311,0.797407375216689,0.789536174394045,0,0.78437691371702,0.783272414457714,0.786020513805273,0.785581672581709,0,0.785652347385504,0.794931291683736,0.794964163685501,0.792927743176155,0,0.792677094162697,0.783248582256434,0.774871152606609,0.775215486825098,0,0.771179626808393,0.771454929823175,0.772149350860462,0.764843548468178,0,0.758498430327478,0.752297948994544,0.753498598859012,0.750779262512998,0,0.749251536230967,0.747704908547921,0.749200584628231,0.748671345399814,0,0.743324714312727,0.738970817678945,0.738123541833451,0.735732925505087,0,0.735469949490966,0.73315247336653,0.732800742947644,0.732509003931979,0,0.734124662818731,0.734533097440662,0.734616099245119,0.735164239874551,0,0.735061514869036,0.73514205127336,0.734736082051561,0.735047544268285,0,0.7381095712327,0.739986562533485,0.73357076958899,0.735049187868374,0,0.737646076007813,0.738052045229612,0.737616491206225,0.736163548728209,0,0.734852777657827,0.732649531739524,0.73222055211649,0.733582274789608,0,0.732418605927125,0.731747195291074,0.728353161108831,0.726282224997633,0,0.719659338442018,0.720146665868185,0.714809896381627,0.713662663520027,0,0.713399687505906,0.7124981728575,0.720013534261036,0.71788342854666,0,0.715665390227563,0.713104661290065,0.714093286743149,0.708968541667977,0,0.707166334171207,0.707370140582151,0.705695312092221,0.703535621576257,0,0.703861054393731,0.699831768777379,0.69921459694424,0.694650319499161,0,0.691932626753235,0.693802221853623,0.698984492931884,0.704481513427046,0,0.706310018525227,0.709763222310647,0.709352322288584,0.704517672628988,0,0.698756854319661,0.695139290525417,0.69208301616131,0.690030159651083,0,0.690505160076588,0.690996596502975,0.694955207315532,0.691921121552618,0,0.68930861921234,0.687936213138648,0.689122892402367,0.687094689893463,0,0.692119175363252,0.698408411100952,0.697190503435556,0.698715764317455,0,0.700236916199133,0.704613823234151,0.706540944337627,0.792393573147473,0,0.735329421683421,0.731879505098178,0.737525271401327,0.73761156040596,0,0.742959013293091,0.743014895696091,0.751288778540356,0.751246044938062,0,0.745986524655653,0.740211735745576,0.74083383837898,0.730751173637592,0,0.732327386122227,0.732814713548394,0.733221504570236,0.732543519533832,0,0.729419035766063,0.721705620551892,0.716308859662114,0.723153632229643,0,0.721471407539316,0.719345410825161,0.713974125736751,0.717006567899577,0,0.71619462945598,0.717977113751691,0.721484556340022,0.727416309058527,0,0.731431624074129,0.731700352688558,0.73181622649478,0.730857185843285,0,0.714966860190056,0.714432690161373,0.717853021945028,0.716410762867586,0,0.713244367297567,0.713082472688874,0.713583770715791,0.714999732191821,0,0.717355832918331,0.722062281771043,0.72309528442651,0.726188539792602,0,0.727228116848422,0.735686904702616,0.723876816268475
0.785059829553689,0.785838895995521,0.792347552345002,0.792885831373905,0,0.790732715258294,0.792906376375008,0.793926230229769,0.793975538232417,0,0.802220658075137,0.802991506516528,0.786741232443971,0.784735218536259,0,0.783108054448888,0.781421720758341,0.785494561777032,0.786728083643265,0,0.795041412889649,0.793883496627474,0.791096772677842,0.791234835085255,0,0.793686264616884,0.78244321821319,0.773545589135433,0.771721193037472,0,0.771651340033721,0.772314532669332,0.839304385066343,0.755448730363724,0,0.754110839891887,0.751662697560434,0.751243579537929,0.747252918523651,0,0.74407419595297,0.746011178656976,0.745615892835751,0.744456332973489,0,0.740147635342134,0.737900834021492,0.734976047664446,0.734157534820496,0,0.734496116438677,0.733129462965294,0.735433790289025,0.734487076638191,0,0.733814844202096,0.733236296971031,0.734404896633779,0.734320251229233,0,0.733148364366309,0.733821418602449,0.733695683195697,0.735610477298512,0,0.738451440051057,0.738996293480313,0.736577735950449,0.740510049161594,0,0.741371295607838,0.739653733515614,0.738033965628641,0.737978905025684,0,0.737421724595767,0.729631881977492,0.731335473468966,0.732380803125095,0,0.732965102956469,0.727800089679134,0.727413843658395,0.724541652504173,0,0.720829581704854,0.718030530754559,0.715992466645125,0.715519109819709,0,0.720607695692939,0.719620713839944,0.718012451153588,0.716424733468336,0,0.713321616501714,0.7119804388297,0.709744320909632,0.708926629865726,0,0.706826108952939,0.70654340973776,0.70530084807104,0.703895569995584,0,0.703554522977272,0.700984754239288,0.691630204336997,0.692336130574901,0,0.6927700409982,0.695388295938787,0.698456075503511,0.703298943163548,0,0.706009239709077,0.706914863357705,0.700860662432625,0.697980253277962,0,0.697598938057487,0.693927957260374,0.69172635494216,0.689554337425533,0,0.702058025096917,0.717388704920096,0.717706741537173,0.701332375657954,0,0.687222890700347,0.690488724075705,0.688482710167992,0.689288896011281,0,0.693813727054241,0.699074069136694,0.702294703509626,0.701592064471897,0,0.70606347851199,0.707190988172531,0.728820765333939,0.728598057521981,0,0.735534049894408,0.735026177467138,0.783919171092441,0.743778347937085,0,0.746936525506663,0.753894706480281,0.750689686308188,0.749061700420774,0,0.746983368109178,0.740915196583348,0.726284690397765,0.72825536690358,0,0.73102154585211,0.732134263111857,0.731745551690985,0.729017175544486,0,0.729343430162004,0.720002029060418,0.809322654056478,0.706291938924257,0,0.713720189523116,0.715803452634976,0.714587188569669,0.715115605998042,0,0.716578410076588,0.727286464651555,0.725657656964096,0.729211120354899,0,0.730809521440725,0.731457099875497,0.731293561666716,0.726521368810473,0,0.719184338016513,0.716710719883692,0.714122049744694,0.714792638580701,0,0.712983856683578,0.712678968867207,0.71159994540927,0.712137402638128,0,0.719038879408702,0.719291172022249,0.725701212366435,0.726416178404825,0,0.729674615579787,0.73688262376682,0.737644432407725
0.784134482704002,0.784228989709077,0.788794910754243,0.788554945141358,0,0.788756286152169,0.792047595328896,0.794416023056068,0.80329064173259,0,0.805994363877766,0.784351437915652,0.782460476014117,0.783025874444476,0,0.783185303653036,0.782659351624795,0.785202822761367,0.794177701043272,0,0.794237692446493,0.790219090230715,0.788245948324767,0.789431805788442,0,0.791978564125189,0.783808228086484,0.776676647303555,0.770233734957603,0,0.768710939475837,0.760701676245781,0.754317933503006,0.752747473618681,0,0.752558459608532,0.749090463422318,0.749569572848044,0.744012560949661,0,0.743266366509594,0.742893269289561,0.742458537066218,0.744005164749264,0,0.7391450392883,0.73866510806253,0.73471389345037,0.734429550635102,0,0.734455848236514,0.734888115059725,0.736160261528032,0.732741573344467,0,0.732564886334979,0.73286566515113,0.731617350884102,0.731738155490588,0,0.73159516228291,0.732806495547953,0.734628426245781,0.746358800075642,0,0.746367018076083,0.741129686394865,0.741100923393321,0.742664808877293,0,0.742985310894503,0.738375012646953,0.738107927632612,0.737991232026346,0,0.737001784773218,0.734526523040309,0.734528166640397,0.732926478354395,0,0.733951263009421,0.729441224367255,0.723078848425628,0.722022835368925,0,0.719472789832001,0.718858083398994,0.720866562706839,0.725932959978879,0,0.723165959230305,0.719522097834648,0.716738661085192,0.715893028839786,0,0.710303966739682,0.709438611293217,0.707876369409333,0.706277146523463,0,0.705622171888294,0.70372956638667,0.703517541975286,0.702605343926306,0,0.699921344982188,0.696595520203609,0.690828949293973,0.691359832122479,0,0.694107931470038,0.696215026783178,0.700392236407473,0.698532502907615,0,0.698612217511895,0.698756854319661,0.698469224304217,0.696210917782958,0,0.697169136634409,0.694505682691395,0.692149581964885,0.700504823013518,0,0.715410632213884,0.717204621710212,0.717382952319787,0.701216501851732,0,0.693247506823838,0.698349241497775,0.700742323226271,0.700573854217225,0,0.696861783417906,0.699548247762155,0.703570958978154,0.70401226560185,0,1.02775135318498,0.729299052959621,0.729250566757017,0.730190706007498,0,0.73694836777035,0.738245990040026,0.811382084967059,0.750379867691553,0,0.754948254136852,0.753473944857689,0.751333155742739,0.747622728543508,0,0.737737295812711,0.724063364878491,0.726323314999839,0.729077988747751,0,0.72657642941343,0.732535301533391,0.727064578639641,0.724697794512557,0,0.720802462303398,0.716267769659908,0.704340163819457,0.705825978299237,0,0.708892114263873,0.715597180823901,0.715121358598351,0.728532313518451,0,0.728198662700535,0.728212633301286,0.728001430689945,0.729138801951016,0,0.731743086290853,0.732509003931979,0.724074870079109,0.72509883293409,0,0.725909127777599,0.723576037452324,0.711574469607902,0.711005783977366,0,0.711077280581205,0.709793628912279,0.710933465573483,0.712607472263369,0,0.716059854248744,0.721515784741699,0.724922145924603,0.726481922408355,0,0.739989849733662,0.736981239772115,0.72835891370914
0.785796162393226,0.78565563458568,0.785663852586122,0.78667713204053,0,0.789401399186809,0.801199982420332,0.801174506618964,0.802774551304879,0,0.791224151684681,0.785921075999933,0.781366660155384,0.78581095479402,0,0.785467442375576,0.797080298799126,0.79523289229993,0.793841584825224,0,0.791574238503479,0.789482757391177,0.786917097653414,0.789752307805651,0,0.789072679169158,0.78202903099095,0.777334087338856,0.768572877068424,0,0.766333471948179,0.755650893174579,0.752022645979761,0.750279608086169,0,0.749890896665297,0.748728871402903,0.743033797097106,0.742961478693223,0,0.744361825968414,0.743216236706902,0.742920388691017,0.743901617943704,0,0.740994911187628,0.738126007233583,0.736631152953317,0.735551307695335,0,0.73913106868755,0.737619778406401,0.737274622387868,0.733298753774384,0,0.733684999795124,0.732708701342701,0.732001953304753,0.731461208875718,0,0.731430802274085,0.7339750952107,0.745965979654549,0.746904475304942,0,0.745592060634472,0.740456632158726,0.740751658374567,0.743171859504519,0,0.743495648721905,0.742455249866041,0.73618162832918,0.734476393237617,0,0.734590623443751,0.733868261204964,0.734362163031484,0.734374490032146,0,0.735110001071639,0.726945417633243,0.721648094548804,0.721948873364954,0,0.722460854792445,0.7243279844927,0.726675045418725,0.726546022811797,0,0.723322101238689,0.720568249290821,0.717880141346484,0.715408166813751,0,0.706849119354174,0.707475330987799,0.706785018950733,0.706854871954483,0,0.70625084892205,0.702965292345633,0.701850109685753,0.699433195755977,0,0.696531419800167,0.690572547680206,0.690651440484442,0.692345170375387,0,0.6946659337,0.695855078363851,0.699277875547638,0.694979861316856,0,0.696131203178677,0.695480337543729,0.694765371505339,0.697603047057708,0,0.697578393056384,0.6971354428326,0.711764305418095,0.714542811367286,0,0.714983296190938,0.715888919839565,0.716782216487531,0.715496921218517,0,0.700294442202222,0.69914885294071,0.702054737896741,0.700706985824373,0,0.701012695440788,0.703248813360856,0.706314949325492,0.709505998896835,0,0.728162503498594,0.731088111655684,0.732344643923153,0.737477606998767,0,0.740103258139751,0.745387432423484,0.755387095360415,0.75628039200838,0,0.75517096194881,0.751849246170451,0.749405212839219,0.748300713579913,0,0.737835911818006,0.72551302015633,0.729625307577139,0.726338929200677,0,0.727562589466382,0.726258392796353,0.725083218733252,0.723303199837674,0,0.716134638052759,0.716043418247861,0.703865985193995,0.704812698844829,0,0.707942935212907,0.716254620859202,0.726281403197589,0.727120461042642,0,0.728510124917259,0.727444250260027,0.725694637966082,0.725390571949755,0,0.721243768927093,0.721486199940111,0.721274175528726,0.724895848323191,0,0.723477421447029,0.707557510992212,0.709743499109588,0.709629268903454,0,0.709940731120178,0.710575160754244,0.711217808388751,0.714084246942664,0,0.717956568750588,0.715468980017017,0.722607135200299,0.724406877296936,0,0.740774668775803,0.746009535056888,0.746084318860904
0.783062855446461,0.782419386011911,0.78206683379298,0.784749189137009,0,0.792356592145487,0.799703484539978,0.799657463737507,0.787729036097011,0,0.78504421535285,0.785503601577517,0.78555208778012,0.798401753270082,0,0.794682286270365,0.794462043858539,0.794020737234843,0.791805164315879,0,0.791110743278592,0.7883322373294,0.783193521653478,0.783606065275629,0,0.78153102016421,0.778146025782453,0.770742429184918,0.761343502080243,0,0.760708250646134,0.753801021275251,0.748749416404006,0.748582590995048,0,0.746496040683011,0.746935703706619,0.74239525846282,0.742087083446272,0,0.7427058988795,0.742309791258231,0.742520993869571,0.743640285529672,0,0.740569218764771,0.743211305906638,0.869341176679165,0.743665761331039,0,0.74372164373404,0.740246251347429,0.74081986777823,0.733446677782327,0,0.731647757485734,0.729344251962048,0.729106751749295,0.731420940673555,0,0.731513804078542,0.741410742009956,0.746217450468052,0.746253609669994,0,0.741374582808015,0.732982360757396,0.731953467102149,0.734754983452576,0,0.736415841341756,0.736151221727547,0.730157012205689,0.729419035766063,0,0.732356970923815,0.733929074408229,0.733268347172752,0.732960993956248,0,0.71503342599363,0.714612664371037,0.71381469652819,0.71784151674441,0,0.729416570365931,0.728610384522643,0.727849397681782,0.725639577363126,0,0.722865180414155,0.719481007832442,0.715833037436565,0.706690511945658,0,0.705840770700031,0.707094015767324,0.708583117447281,0.7089931956693,0,0.702664513529483,0.70166027387556,0.700577963217446,0.698092839884007,0,0.693605811643077,0.689711301233962,0.690316967866483,0.694540198293249,0,0.694168744673303,0.694256677278025,0.692585135988272,0.693709358448637,0,0.691294088118949,0.693178475620131,0.694651141299206,0.695767145759129,0,0.696849456417244,0.707643799996845,0.711004962177322,0.71453952416711,0,0.714723607376994,0.715473089017237,0.715265173606073,0.704090336606042,0,0.703575067978375,0.703963779399247,0.705840770700031,0.70536248307435,0,0.706876238755631,0.708084284820497,0.724776687316793,0.726512329009988,0,0.727743385476089,0.732233700917196,0.736993566772777,0.794330555851479,0,0.746994873309796,0.747979389762659,0.756236014805998,0.755944275790333,0,0.752356296797677,0.751578052155889,0.747987607763101,0.735489672692025,0,0.727971024088312,0.727342347054556,0.728308783906448,0.72431812289217,0,0.725702034166479,0.723211158232732,0.722236503380398,0.72322266343335,0,0.712713484469061,0.713564047514732,0.714233814550695,0.713557473114379,0,0.713566512914864,0.726349612601251,0.726454803006899,0.726830365627065,0,0.727797624279002,0.726052942785321,0.72092244510984,0.719432521629839,0,0.716104231451126,0.71706080670249,0.71203221223248,0.846297903441859,0,0.717295019715066,0.707066896365868,0.708342330034352,0.709905393718281,0,0.709361362089069,0.70964241770416,0.7114347636004,0.712276286845586,0,0.712750465471046,0.714458165962741,0.925930327717713,0.81528974417688,0,0.743511262922744,0.745062821406054,0.745919958852078
0.783032448844829,0.780723190720834,0.781039583737822,0.785283359165691,0,0.800280388170955,0.800459540580574,0.787244995871021,0.786205418815201,0,0.78483301274151,0.785386905971251,0.794508064661011,0.794388903654612,0,0.793583539611368,0.792409187348312,0.792372206346326,0.791911176521571,0,0.789874756012226,0.782970813841519,0.783924101892706,0.781466919760768,0,0.780419946504551,0.777791829963434,0.881068263308849,0.758841120945878,0,0.748704217401579,0.750009235871651,0.747558628140066,0.746690807293469,0,0.745509880630059,0.745795045245371,0.743835052140129,0.741123111994512,0,0.740655507769404,0.74110667599363,0.741108319593718,0.740352263553122,0,0.739812340924131,0.745454820027103,0.746234708268979,0.746568359086894,0,0.746424544079172,0.751267411739209,0.741443614011722,0.733473797183783,0,0.731594340482866,0.730185775207233,0.72959161377533,0.731066744854537,0,0.736176697528915,0.742064073045037,0.743151314503416,0.737385565393825,0,0.730459434621927,0.729674615579787,0.728812547333498,0.727569163866735,0,0.731990448104135,0.731176044260406,0.727959518887695,0.727911854485135,0,0.729739537783273,0.716797008888325,0.715333383009736,0.795472036112771,0,0.704950761252242,0.70965227930469,0.707696395199669,0.707321654379547,0,0.727482874862101,0.727462329860998,0.729350826362401,0.727665314471897,0,0.714754013978627,0.709448472893746,0.707295356778135,0.70647191313392,0,0.710465861348375,0.710595705755347,0.708972650668197,0.704362352420648,0,0.70198488489299,0.697600581657575,0.695866583564469,0.694197507674848,0,0.692274495571592,0.691451051927377,0.692341061375166,0.693231892622999,0,0.690377781069748,0.691423932525921,0.690472288074823,0.688531196370596,0,0.689300401211898,0.68726726790273,0.686961558286314,0.690500229276323,0,0.704758460041917,0.707950331413304,0.712379833651146,0.713458857109084,0,0.712522826858824,0.707406299784092,0.702357160312979,0.703180603957194,0,0.705356730474041,0.704973771653478,0.706107855714372,0.712500638257632,0,0.993548035348437,0.725005969529104,0.724191565685375,0.725314966345696,0,1.14121728527752,0.735171636074949,0.743064203698739,0.744762864389948,0,0.751969228976893,0.754244793299079,0.75478060692785,0.749793102460046,0,0.749608197450118,1.0026617978378,0.7339471540092,0.734090969016922,0,0.72939438176474,0.726187717992558,0.726201688593308,0.726634777216563,0,0.723419073643896,0.825744684338257,0.704562871631415,0.713859073730573,0,0.712683077867428,0.712497351057456,0.7155133572194,0.712016598031642,0,0.723221019833262,0.724441392898789,0.726500002009326,0.725636290162949,0,0.72612443938916,0.720873137107192,0.720528802888703,0.717109292905093,0,0.713261625098493,0.712388051651587,0.712168631039805,0.843783195306833,0,0.888867145727609,0.706791593351086,0.705230995067289,0.706426714131493,0,0.708023471617231,0.708980046868594,0.710124814330063,0.710017158524282,0,0.703769012788789,0.705777492096634,0.712336278248807,0.818274521937147,0,0.743622205928701,0.744595217180946,0.746376879676613
0.780026304283414,0.780016442682885,0.781411859157811,0.789712039603489,0,0.791274281487373,0.797217539406495,0.790118008825287,0.784941490347335,0,0.784408963918741,0.790101572824405,0.793342752198439,0.792286739141737,0,0.792271124940898,0.794420953856333,0.794194137044154,0.788689720348595,0,0.785632624184445,0.783610996075894,0.782545943218706,0.779743605068235,0,0.779292436844009,0.760150248416172,0.754838954730983,0.752717067017048,0,0.749414252639704,0.749439728441072,0.749111830223465,0.743340328513565,0,0.744328132166605,0.744895174197053,0.740487860560402,0.737486646799253,0,0.739466363105553,0.740532237762785,0.740346510952813,0.740919305583569,0,0.740145991742046,0.746734362695808,0.748225929775897,0.750794876713836,0,0.74958683064897,0.750037998873196,0.741819176631887,0.733196850568913,0,0.730833353642005,0.731198232861597,0.734740191051782,0.73653418054811,0,0.737093004578116,0.73941787690295,0.738173671636142,0.728981838142588,0,0.728839666734954,0.728169077898947,0.728847062935351,0.72601678358338,0,0.724430709498216,0.705504654481984,0.721555231143817,0.721699046151539,0,0.718068333556589,0.699934493782895,0.703636702981684,0.700463733011312,0,0.701125282046834,0.7058941877029,0.707316723579282,0.709155912078037,0,0.726845979827903,0.727212502647584,0.725106229134488,0.711118370583411,0,0.710265342137608,0.706375762528758,0.70708333236675,0.708687486052885,0,0.709870056316383,0.710233291935887,0.709232339482141,0.703801062990509,0,0.700462911211268,0.698839856124118,0.694897681312444,0.69309054301541,0,0.692201355367665,0.691940844753677,0.692074798160869,0.693291062226176,0,0.689185349205721,0.689476266421341,0.689568308026284,0.684414799949567,0,0.682899400668197,0.685268650195414,0.686150441642762,0.8009107088048,0,0.70381503359126,0.706384802329243,0.708709674654077,0.707684889999051,0,0.70627468112333,0.706922259558102,0.703730388186715,0.705088823659656,0,0.706706947946541,0.707223038374252,0.710105912929048,0.726864059428874,0,0.727832961680899,0.727915963485356,0.731615707284013,0.735280935480817,0,0.738344606045321,0.744876272796038,0.749022254018656,0.750139902078668,0,0.754035234287827,0.754392717307022,0.749296735233394,0.748388646184634,0,1.11543741789327,0.732457230529199,0.733306971774826,0.731223708662965,0,0.727486162062278,0.727099094241494,0.725386462949535,0.725886117376364,0,0.712462013655558,0.70623276932108,0.702583977125158,0.70314197935512,0,0.711730611616286,0.71420505154915,0.721741779753834,0.722749306607933,0,0.725559862758845,0.725999525782453,0.725457959553374,0.724687111111983,0,0.725701212366435,0.720440048483938,0.720359512079613,0.711230135389412,0,0.710556259353229,0.708574077646796,0.708403965037662,0.846454045450243,0,0.689226439207927,0.691658145538497,0.704915423850345,0.705477535080527,0,0.707358635381533,0.707381645782768,0.698723160517852,0.700093922991455,0,0.701456467464617,0.703788735989848,0.710416553345727,0.717269543913698,0,0.793099499385378,0.744366756768679,0.744451402173224
0.779917004877545,0.789404686386985,0.788735741151066,0.786253905017804,0,0.785352390369398,0.785480591176281,0.785918610599801,0.787667401093702,0,0.788061043314839,0.789214850576792,0.792220995138207,0.794060183636962,0,0.794510530061143,0.791976098725057,0.789554253995016,0.787903257706366,0,0.787424148280641,0.783070251646859,0.783302821059346,0.779406667050143,0,0.83259027870583,0.75805876730387,0.751861573171112,0.751718579963434,0,0.750802272914234,0.74992130326693,0.747277572524975,0.746596300288394,0,0.74612540886311,0.746244569869508,0.744224585361045,0.740211735745576,0,0.740007107534589,0.741037644789923,0.743433191918552,0.743572897926053,0,0.743158710703813,0.746419613278907,0.75170378756264,0.751324115942254,0,0.749087176222142,0.744992968402304,0.740930810784187,0.735890711113559,0,0.730877730844388,0.730600784229517,0.735738678105396,0.735692657302925,0,0.737730721412358,0.738459658051498,0.729088672148325,0.725533565157433,0,0.726892000630374,0.727307831452703,0.729009779344088,0.729364796963151,0,0.723596582453427,0.718623048586374,0.713010976085035,0.709902928318148,0,0.702268405908214,0.700704520424241,0.700974892638759,0.699174328742078,0,0.699313212949535,0.70122800705235,0.708611880448826,0.709013740670404,0,0.713427628707407,0.70930383608598,0.707995530415731,0.707724336401169,0,0.708158246824468,0.707395616383519,0.707160581570898,0.708661188451473,0,0.708719536254606,0.709019493270712,0.704257983815044,0.702632463327762,0,0.698544829908277,0.698125711885772,0.695314333934816,0.693727438049607,0,0.693886045458124,0.691130549910168,0.690309571666086,0.690798542692341,0,0.69452047509219,0.694347897082923,0.688043047144385,0.683464799098556,0,0.683938155923973,0.685264541195193,0.70051304101396,0.798580905679701,0,0.704215250212749,0.706430823131714,0.707375071382415,0.707762139203199,0,0.706139905916093,0.706110321114505,0.706186748518609,0.705277015869761,0,0.707263306576414,0.70735206098118,0.716833168090267,0.728098403095152,0,0.728992521543162,0.731790750693412,0.734670338048031,0.740199408744914,0,0.738633057860809,0.747633411944082,0.75046697849623,0.751431771748034,0,0.751631469158757,0.752001279178614,0.751204133135811,1.11203516571059,0,0.737072459577013,0.733287248573766,0.732460517729375,0.73010934780313,0,0.7270563606392,0.725935425379011,0.722257048381501,0.714757301178803,0,0.711949210428023,0.707011835762911,0.706303444124874,0.706084023513093,0,0.708620098449267,0.716441169469218,0.724047750677653,0.722132134774794,0,0.72609649818766,0.724615614508144,0.719979840459227,0.719282132221764,0,0.721224867526078,0.721227332926211,0.710486406349478,0.711452021401327,0,0.712044539233142,0.709803490512809,0.683341529091937,0.683867481120178,0,0.684897196575469,0.689488593422003,0.697389379046235,0.704357421620383,0,0.706223729520594,0.707061143765559,0.699335401550726,0.700456336810915,0,0.702470568719069,0.703955561398805,0.715638270826107,0.718538403181829,0,0.726437545205973,0.726725175221417,0.736503773946477
0.791090198277489,0.789206632576351,0.787295125673713,0.784652216731802,0,0.783171333052286,0.783583054874394,0.786156110812553,0.787527695086201,0,0.786231716416613,0.788263206125694,0.792806938569669,0.795140850694988,0,0.793951706031137,0.793529300808456,0.788966666963466,0.788614114744536,0,0.788444002135401,0.778858526420711,0.773861160352378,0.765610287909348,0,0.76072550844706,0.752388346999398,0.751605993357389,0.751174548334223,0,0.751096477330031,0.751576408555801,0.751113735130957,0.747470695535345,0,0.746301274072553,0.745662735438267,0.745765460443782,0.739541968709613,0,0.740387600955019,0.741985180240801,0.743535916924068,0.743655077930466,0,0.744541800178078,0.749461095242219,0.75095101872222,0.749795567860179,0,0.741842187033123,0.741568527618429,0.738393914047968,0.737762771614079,0,0.738168740835878,0.736345166537961,0.735179032275346,0.735312985682538,0,0.740201874145046,0.732215621316226,0.726758047223182,0.725971584580953,0,0.724409342697068,0.726610945015283,0.728698317127364,0.724979671927692,0,0.718168593161972,0.717945885350014,0.710264520337564,0.709240557482583,0,0.704009800201718,0.701971736092284,0.699521128360699,0.698166801887979,0,0.700207331397545,0.703099245752825,0.70718687917231,0.708486145042074,0,0.706841723153777,0.708057987219085,0.706510537735994,0.706422605131273,0,0.706214689720109,0.702542887122952,0.70411581240741,0.707416161384622,0,0.708022649817187,0.709118109276008,0.701248552053453,0.700490852412768,0,0.6968765758187,0.697735356864812,0.696623461405109,0.699277875547638,0,0.697628522859076,0.688307666758594,0.688004422542311,0.690957150100857,0,0.693716754649034,0.68916726960475,0.688980720994733,0.683717913512147,0,0.68669776047215,0.701300325456233,0.700697946023888,0.711855525222993,0,0.710565299153714,0.707222216574208,0.706504785135686,0.707200027973017,0,0.708437658839471,0.708752408256371,0.707532035190844,0.707637225596492,0,0.707242761575311,0.815163186970085,0.73002388059854,0.729380411163989,0,0.732814713548394,0.733268347172752,0.740902047782642,1.11566752190563,0,0.749783240859517,0.751591200956595,0.751498337551609,0.750806381914454,0,0.7501423674788,0.750141545678756,0.875849833028647,0.733884697205846,0,0.73297332095691,0.732472844730037,0.731394643072143,0.730701865634945,0,0.729110860749516,0.726300304598603,0.713209029895669,0.714315994555107,0,0.712356001449866,0.706502319735553,0.708021828017143,0.714521444566139,0,0.715570883222489,0.715651419626813,0.723396063242661,0.724086375279727,0,0.726232916994985,0.722252117581237,0.717390348520184,0.713977412936927,0,0.711705135814918,0.709905393718281,0.713066858488035,0.709469839694894,0,0.710539001552302,0.699003394332899,0.684517524955082,0.682570680650547,0,0.684206062738358,0.847448423503636,0.699812867376364,0.704079653205468,0,0.705789819097295,0.701168837449173,0.69865906011441,0.700380731206855,0,0.701213214651555,0.705198944865569,0.716773176687045,0.720088318065052,0,0.723513580648971,0.724637803109336,0.734963720663784
