0.809535110619332,0.40235633256978,0.652507756852486,0.799699690513249,0.799012455887406,0.796110874774868,0.804714678655376,0.817321555952735,0.811194627302354,0.800899821484595,0.797288483200606,0.797042565021664,0.801842678777234,0.812360203303058,0.814558870937099,0.83631094442816,0.859203824095294,0.901748533896349,0.925493991272738,0.977680512946949,1.01552935331093,1.01799501540173,1.03386548900338,1.04419715512958,1.05959902434888,1.0862660325099,1.12394019110462,1.1436640434537,1.15827319162264,1.16471289509188,1.17611310406258,1.18706555289695,1.18267950075533,1.15187855037015,1.14629478836264,1.17257780128881,1.18392668187569,1.17964449457305,1.17976709354235,1.17859671206608,1.16982544378539,1.17205459441556,1.16948396258971,1.17795729117533,1.20271216126832,1.2087578667634,1.20926418885096,1.21638172311032,1.22713881880273,1.20390250843661,1.18974102420647,1.19185837395755,1.18223009420652,1.17913662550459,1.17914960801984,1.18715173862213,1.19917221851284,1.19107245851899,1.19880292456042,1.1900216048653,1.19898734300257,1.18279415148849,1.15446034149767,1.1349820427176,1.13646289312266,1.14603627747003,1.15223038497217,1.15114480364629,1.16232902676691,1.17154592048164,1.14782410796988,1.12909690601913,1.15649854585195,1.17132276043187,1.14866510428171,0.995335420654181,1.0770902411395,1.12577938754723,1.12763507311835,1.1334884466624,1.17501437070195,1.17550233062745,1.17657677922443,1.17565293496911,1.17536300011956,1.17035654343457,1.16269310745539,1.14695370121881,1.11216955498743,1.0849441222065,1.06348880167523,1.05007292713689,1.03587250334111,1.01836127209636,1.00992141169479,1.00917235648049,0.997519735404382,0.979688699681349,0.970375953887115,0.947419435519373,0.924160475512977,0.923699439759506,0.922130676082035,0.912466271161638,0.906403605709631,0.908667082024922,0.912241402520584,0.916123734636889,0.923954835829858,0.935393186465995,0.949199398265578,0.954305212383616,0.959086490151675,0.961128908140831,0.962387802309751,0.965840952188729,0.968736691781218,0.972279955502607,0.973335345699233,0.973428773566422,0.972828990238508,0.973201902127661,0.973315766196359,0.972676071468055,0.971582108753955,0.971693229369287,0.970108453567801,0.967161332565138,0.965139288186426,0.963567034487674,0.961558097505334,0.964513825811942,0.964864207608234,0.964756658328706,0.964064168949503,0.962862208063504,0.962109411245776,0.962471400808188,0.962335132578536,0.960285709113855,0.954659575725957,0.943957178298319,0.940879969495537,0.940905253728561,0.941570672839471,0.940858403992968,0.93754761390082,0.936379084908644,0.937019014455962,0.93761487298544,0.93883785220752,0.937966333712639,0.934877352143739,0.933540951645386,0.931664613243513,0.931413920913346,0.935129389605342,0.943580742790609,0.947362395813932,0.946665694199132,0.942712719167283,0.942423472095247,0.943282282700565,0.945569661837304,0.947917135485705,0.949368499454621,0.949354476587783,0.948097598489116,0.948690139899935
1.04810432532153,0.813178189332617,0.480671903633239,0.732548814238189,0.807600435911253,0.807236572975649,0.813219944971874,0.818575883078966,0.814436324004544,0.807840064501112,0.80530914620469,0.79939072666766,0.792133103709765,0.7910088113682,0.79140513805173,0.810297300832332,0.844961450350294,0.86923123209274,0.899860978865503,0.943833588947751,0.982783412822423,0.981546161124198,0.996534138267098,1.00198186061271,1.010977984858,1.0410057859805,1.09858653491087,1.13423267318227,1.17193064684938,1.18246034950525,1.17579155506753,1.173008311267,1.17869670532593,1.17117320868803,1.15512108814962,1.14987792975344,1.17420736902105,1.16829219620348,1.1396793697114,1.14551425657807,1.17650180321299,1.17652654228075,1.17506682147382,1.1933910811352,1.19977230728243,1.20922697894936,1.21099137046716,1.21492012165618,1.218351288813,1.20986719853002,1.20055959564542,1.20616030439264,1.19618557321713,1.18998977204533,1.1874367107807,1.18709190959139,1.18262287809428,1.17891782614774,1.17438471468972,1.17690383327761,1.18993158331647,1.1483921347705,1.12808160371421,1.12568263586412,1.13620869965196,1.13523121415916,1.16732630652117,1.16196435394732,1.15972311309513,1.16315613124056,1.18491460704718,1.13575417609416,1.13350867671718,1.14319679119691,1.16171390924575,1.12873448454593,1.12033815356779,1.12399573602888,1.12579487859172,1.13688296705425,1.19527227555007,1.18264171591922,1.17368409767839,1.17360473429519,1.17183532423647,1.15888469403965,1.13079271896442,1.11658321475521,1.09058481724654,1.05325388734989,1.03952950241727,1.0252679659743,1.00309071389386,0.99746113478019,0.994909361831148,0.982306584581007,0.972280354187597,0.965120163184725,0.948167090922396,0.926099890186314,0.917036880360029,0.916800201879417,0.912733868297792,0.912244266397015,0.917927686787045,0.918991494262549,0.920864346315538,0.929470073322082,0.950100231081328,0.955545741280073,0.955565871158581,0.956567770485703,0.958367566926747,0.961483546773365,0.964793460922312,0.967413902608695,0.96947564051634,0.971551072475301,0.972864010825284,0.97340175966975,0.973660252143965,0.973639909882173,0.973568350385156,0.972725047637578,0.970971308072766,0.969923383798474,0.967262202097323,0.964668925744325,0.96358226269225,0.963686216999664,0.963432138467667,0.963689463888462,0.963871411350078,0.964877508760182,0.964334428016138,0.961663290448028,0.959864346422202,0.960499820281133,0.960520108680602,0.958829665323851,0.953770513743172,0.943922021679535,0.941452767376784,0.941924553905049,0.941352922240134,0.939616245485838,0.936837386809391,0.936019732682097,0.935945627301041,0.936395952079581,0.936886856235378,0.936451834486596,0.935056657059528,0.933302842381401,0.929981223536894,0.930787473575377,0.937652258898536,0.943848140182439,0.946937469549067,0.946872673149515,0.943147516503967,0.943212866088885,0.946137861887704,0.950098355283081,0.952131106026695,0.950624898868136,0.951983543647366,0.959505999935362,0.953472054913039
0.936944980482312,0.893119420924,0.787751865798776,0.842081013020218,0.856913187595089,0.849129921580947,0.836838809466679,0.843017970347374,0.825874216210677,0.813420391236426,0.814788489316183,0.806797231284441,0.794358057445509,0.788638336162327,0.796691946602667,0.805785504726248,0.820804921808105,0.847681975504186,0.882637048111807,0.907894420099644,0.941768917181473,0.944222575937169,0.943510126315914,0.949925156076587,0.98098167611182,1.01982629879262,1.0740767508855,1.10042742402506,1.13061233037904,1.14271533651249,1.15806637053939,1.17124437877104,1.17363210472427,1.17663436780434,1.17767772876204,1.17293063248433,1.16408121643558,1.13479374337876,1.12191331872477,1.13775996207814,1.18623202853781,1.17809196570492,1.1849697569147,1.20465104993425,1.19614446628333,1.20252389255804,1.21070361380847,1.21730735993269,1.2198329716317,1.21880012977662,1.21618407808852,1.22187457227518,1.22541223069489,1.21538979281519,1.22009266708107,1.21653631162504,1.18515437633986,1.17840258876401,1.16708069910044,1.16488074551096,1.16230533604653,1.12501904004438,1.11500617401578,1.11520600038091,1.11694441252302,1.11784068104792,1.14270335815683,1.15796568472728,1.15941805706579,1.15248812846511,1.15814675937934,1.13943007572525,1.14945560646497,1.15528976027537,1.15959247002885,1.15414611895251,1.11389211502105,1.10923495484947,1.11918563205575,1.11795598730387,1.1629939645996,1.16432665420729,1.15927153383187,1.16314792924198,1.15596263038154,1.12594861618926,1.10840623347717,1.09101085749868,1.05280702627568,1.02200715559388,1.01031856446443,1.00634262051056,0.983284830429228,0.983034584946545,0.988640648833101,0.975339491035793,0.956698173211077,0.946083790410832,0.933911731620505,0.919273345204043,0.907555593704327,0.913651105739148,0.907530361315458,0.905977044736488,0.910860988882883,0.924720630498964,0.941664125836117,0.95330410427427,0.959225569377375,0.956609250937317,0.96249797135382,0.985339727805393,0.966398283677694,0.962922437569125,0.966051837124185,0.96780358934475,0.969338245189981,0.971128042723056,0.972361719256052,0.973078282659967,0.973954977775629,0.973577547202898,0.973309102234494,0.97143173920099,0.970213384485538,0.967689933045508,0.964816902015417,0.963399536280594,0.963014358577512,0.962921976341848,0.963206172238398,0.963352513584382,0.963841287149208,0.965449274036791,0.965146967541278,0.961766147677079,0.959631547839146,0.958936455910851,0.957312959836605,0.956151408079814,0.952591525763662,0.945052553835597,0.943103800380788,0.942979213764103,0.942111754855457,0.940278421602178,0.937890524519576,0.935885340313188,0.936049810236438,0.93614283353148,0.936405622431357,0.935681845244481,0.934372643609698,0.931246956348975,0.93049656890049,0.932407181051812,0.938824189275607,0.943934206903963,0.947727528111781,0.948220082400412,0.944665407696232,0.94645806799682,0.95350109611619,0.956644395603907,0.957274459223077,0.956752573726774,0.96456274800563,0.998620997598583,0.971571293631395
0.892403232540467,0.888828616107457,0.881350634831341,0.877863901652456,0.874467439801435,0.86576600816663,0.874097436700821,0.915409925251411,0.856008099046772,0.820064392647054,0.809313414087259,0.799739147829119,0.801683481510412,0.801830915932982,0.801118630303561,0.796534387958278,0.817959529863691,0.836198753295828,0.860338847362042,0.879954702779749,0.900076057432665,0.90640166330052,0.91608605937868,0.922641459779552,0.931833939727109,0.9766833458206,1.04310108138452,1.08188574464624,1.1067391110938,1.1187378093781,1.14270604417989,1.16646530250984,1.15616976814144,1.16492799973803,1.18659680976133,1.18833687822868,1.15763723807057,1.12762749787852,1.12940965768759,1.14525867385279,1.16760406205397,1.1866042830155,1.22272021820249,1.2380660798344,1.21661171721532,1.18944485249295,1.20601706289302,1.21632687912655,1.22147701396093,1.20544884158034,1.19290211263096,1.20329932722068,1.21186903142384,1.18431235047495,1.1876667702629,1.18849059962838,1.18059786474551,1.18016876133106,1.16666515392508,1.16319291192228,1.15804420073884,1.11896035161293,1.10776395813254,1.10720282324535,1.10781902396615,1.1112722252017,1.13165682207028,1.1463947129818,1.15291128078887,1.15822108456887,1.17252552936153,1.16713853508619,1.16540770329566,1.17092399418757,1.14385805127517,1.16190847714071,1.11322068989105,1.12113615241204,1.10016544616475,1.1048102770731,1.13027400918497,1.13860118875219,1.13612064307195,1.12265228223461,1.10989418035493,1.08456707061993,1.06416620284188,1.03942940300791,1.01738712836105,0.996302760396542,0.996073651469671,0.988548162178521,0.968776042425071,0.972172310288964,0.963189277024589,0.950805085754649,0.94044489941781,0.936738047486145,0.929808858758188,0.910968601848813,0.91430841684574,0.919953086092125,0.908001800435564,0.908647814166615,0.918861419154421,0.941257141058159,0.954616100033126,0.953884898582177,0.954369717164549,0.955748766377448,0.985061654555888,1.07293791083594,0.989042774431775,0.965002986687598,0.967427137190543,0.969319823845619,0.970507977197774,0.971870004259081,0.973226505914717,0.973863981320315,0.973613453378039,0.971841785963215,0.970433984245773,0.96781431696279,0.966103438878174,0.965562386290949,0.963641290939532,0.96324820558132,0.962983023413887,0.961530860420676,0.961737166741152,0.963018762002271,0.963949576459667,0.964774572712676,0.964840540159522,0.962668909571852,0.958784973901264,0.957290670122389,0.956095945871254,0.954076659913529,0.948481846234799,0.944907574461885,0.943852893867372,0.943146904833221,0.943492766437228,0.942545991432603,0.941015907226592,0.937481331378007,0.936200245391908,0.935375214475612,0.935260872875558,0.935266088205875,0.934691378306565,0.93193597271872,0.932617225099005,0.935160159314306,0.940462829822731,0.944644306034993,0.948344323463003,0.950124289586619,0.952090691792245,0.955439184995878,0.95814824387048,0.958394987024062,0.961489073635911,0.964731296027447,0.968548728070874,0.978028006301664,0.974590529351685
0.892721037535493,0.889951244959347,0.88695141468728,0.883675594289994,0.880572059558444,0.871941353602097,0.873125388388408,0.878966787806235,0.858472037595626,0.824441409005452,0.80557508907277,0.794844149945029,0.801340691259441,0.799646644725814,0.804033997258691,0.790236713151894,0.798854967051464,0.822269260202729,0.843773801669649,0.868331478041529,0.876481822956994,0.881560337425353,0.892179544472665,0.896776104772263,0.899833784568428,0.930243427076741,0.970486356430743,1.03695679501446,1.07942943601626,1.10132484331542,1.13277202687975,1.13606247305307,1.1328241493599,1.13283062674358,1.14020919000027,1.14617173920479,1.15595815544757,1.13841684269591,1.15367003272637,1.15718792862625,1.17221620836887,1.18355764560105,1.19667550026357,1.22060166436093,1.19458239132884,1.1758355444171,1.19490196387581,1.20453094599463,1.21873808060071,1.18099684140379,1.18982408177139,1.19101876674655,1.17693411344593,1.17771196025089,1.17587400151316,1.17818151242753,1.17685567052626,1.17292035788834,1.16450005512558,1.16374778266895,1.15651292189817,1.12073954080599,1.10879211085592,1.10934550039568,1.10501343539571,1.10003008673105,1.10994990721399,1.1338669811333,1.14337137787778,1.156753064457,1.16043754509389,1.13414512414563,1.13832094589833,1.17850597694416,1.14782634683149,1.14512279055466,1.11308368334066,1.08872936295243,1.08056127501163,1.10927206307944,1.07087154777256,1.00134506471518,1.0941468466446,1.08596172008632,1.07080140372006,1.05287579147219,1.01806685696034,1.00728858041317,0.993252182029244,0.982825419808363,0.979646971487826,0.984282580933368,0.963192600151817,0.953727929623768,0.939195587880608,0.932432647338561,0.926685726566538,0.927721259526509,0.923897454525618,0.915292056202469,0.916988918945184,0.915929619187954,0.913702453064102,0.929549308393429,0.952700317773613,0.953958028729547,0.963486044185252,0.956478557409424,0.955707086407693,0.960014807902266,0.969579788651413,0.992824826322479,0.972578953471536,0.967636608507986,0.968766386124301,0.970289521747216,0.971617920617539,0.972871302868327,0.9736501381204,0.974042877052036,0.973293050608255,0.971056652974458,0.968768822994024,0.966338400233582,0.965035823222374,0.96468883260689,0.963393540260981,0.961987684661286,0.961823336536745,0.961367541916314,0.961548766086635,0.963312115186056,0.965184075105177,0.965320673976072,0.965206584279072,0.96389835515187,0.959464265919381,0.956521518778883,0.954371549859866,0.951424224771434,0.945577792132971,0.943048240118238,0.942371186305993,0.942265140864338,0.942453268571497,0.941944227281956,0.941188770461531,0.939420736770297,0.936573973706748,0.935026267299222,0.935055892710358,0.936284141440792,0.936262180164936,0.935022933739123,0.935193687340711,0.937852323321603,0.942279957956419,0.946548663485942,0.949405136318632,0.952672304628653,0.957446486622039,0.959602369178437,0.934691003459104,0.858994474358355,0.948619767775745,0.969928709401676,0.971749940776625,0.976504104299639,0.981411041805861
0.895699043153803,0.892169535985658,0.889885352325355,0.88762624782243,0.883155050550641,0.876112378117435,0.877264911511381,0.871227774219988,0.871725228320463,0.855220842173567,0.813959848557034,0.801553332691603,0.798423123023145,0.800805610623598,0.794016119435092,0.786551183454444,0.787939213364315,0.805336625280244,0.808080205917988,0.823904467903893,0.826292941650406,0.837401497134021,0.860487561678627,0.880331250939107,0.883886983961838,0.910097346462319,0.927334377591033,0.972969076844694,1.04564810244544,1.07885803425859,1.10235842021421,1.10378799942604,1.11435490637828,1.12001665020229,1.12214786570297,1.12227640193646,1.14267098539902,1.14447216829917,1.15162892046264,1.15056526831256,1.15950793307154,1.18173396045671,1.17867307278595,1.18452602016219,1.18340748587463,1.17102934977489,1.16935573882688,1.16151411274978,1.16167499940153,1.14170141062261,1.15369525463166,1.17350947785538,1.14535654816683,1.16590369901987,1.1928828783466,1.18857350385445,1.17234901664628,1.16799600639163,1.16372957603239,1.17506216984962,1.18343954399137,1.13758124150523,1.11884380730032,1.12691192837289,1.10546501622192,1.092409265504,1.10067358829567,1.11050309557849,1.11944649933121,1.14053751175543,1.15297851928468,1.1265514689859,1.12284314171496,1.1350435735085,1.13394093391611,1.12523047672506,1.11574700572982,1.10358300636327,1.08274961360652,1.08413042056009,0.962514940469259,0.616204737464042,0.986316389699815,1.06389580041277,1.04319632766024,1.01659569698281,0.993425210478644,0.990431558771328,0.975165603917047,0.961780942864406,0.957236075832101,0.959054310532269,0.946693123295254,0.935991855899708,0.928607659455629,0.921735441591888,0.914892664487375,0.91983535364478,0.921615848345986,0.917291562999088,0.919607542057333,0.929488820688235,0.937152402594934,0.956887743731052,0.956321549809373,0.954744733882761,0.958709109568603,0.959937062790958,0.961215810604244,0.963312782100299,0.965619433467294,0.967044749650327,0.967940765524815,0.970084235700458,0.9716031059529,0.97232115928352,0.972925935006053,0.97417604415254,0.974290204388084,0.973473749952354,0.972147168303245,0.969677959478488,0.967261190981326,0.966201094723668,0.965971306396169,0.965570519599095,0.963971421131958,0.961587245722599,0.960320588909034,0.958985253377305,0.96110953329909,0.96384375887588,0.96504573283918,0.964276139190301,0.964934050672817,0.962796606602914,0.958442030948047,0.953833494840564,0.949912337340963,0.946787867354379,0.941434518915346,0.93981219282216,0.940230754757728,0.93993334403417,0.939518878282984,0.939430929580368,0.93961833222714,0.940020767718816,0.938903238766638,0.938676797101106,0.938971130427397,0.938825484410901,0.938765050288086,0.937614771883017,0.938482370429236,0.943154931021233,0.945838805791227,0.950112821514312,0.952515962308944,0.958091672582828,0.961337795192211,0.960914251183004,0.858306292549256,0.553606743384606,0.905999541331613,0.982776940286483,0.978240202457753,0.981958673188622,0.986355066708088
0.895560032542411,0.894241655987453,0.891744032713837,0.890195408431845,0.888513963481381,0.886441188509645,0.886009138555864,0.883871516447315,0.857045648455511,0.771473290541751,0.799490538294036,0.808619453257266,0.812152773293963,0.807590227460449,0.790113095223672,0.796360911279046,0.787268555278419,0.785615064569531,0.790786012034483,0.805530502714631,0.810000443564201,0.823780184796961,0.848284769425593,0.854460821111691,0.869625019669314,0.894516417785582,0.908231982683437,0.930735884028402,0.994184343616131,1.03773946958652,1.06416347798008,1.07707055946583,1.08818626205674,1.0951425598009,1.10327044006562,1.09687673232995,1.10715639187659,1.11610504797071,1.13980039020794,1.1335671418458,1.13618174302326,1.15067748380693,1.15920722395606,1.16595862938601,1.17276452948238,1.17631723282292,1.1691163115827,1.16522271533791,1.13853129250004,1.13425031862277,1.15727203718387,1.16109467525852,1.13622195079826,1.16157352492946,1.16928357491565,1.15032099301859,1.15002528730581,1.15249884907927,1.15413987888887,1.16557191732024,1.16884140690037,1.13661682046845,1.13003620257019,1.11197961967141,1.09229553469321,1.08596302324057,1.08268930614718,1.09128526496397,1.09872134362438,1.10538135829387,1.12894335375667,1.13385931026405,1.13215096404503,1.13037417185113,1.12964538063203,1.12781934969632,1.15352606655188,1.13484738509627,1.11894011421623,1.10042240173334,1.06191779015898,0.953108237400392,1.03218420403609,1.0465110942008,1.01485220784855,0.995452653259904,0.975306037951507,0.966040711235736,0.951206705612749,0.944615139924808,0.9411993593232,0.938299330266182,0.933350709075082,0.931118896681246,0.924690231975165,0.907993132276724,0.903951854180165,0.910895652442979,0.925074651768294,0.922874941640063,0.927265899615433,0.943423903280833,0.95030657010822,0.955174845369198,0.955815218638479,0.960644007239772,0.962972478728153,0.965750903423121,0.967061607712715,0.967424743118398,0.967703739092753,0.968607956812885,0.970011274185663,0.972256572166681,0.97492487228348,0.976089616917286,0.975952536769349,0.976671758716111,0.975439098033114,0.972579319150987,0.970108288204359,0.9668193564471,0.965221504690421,0.965079812883455,0.965574121276741,0.96466447413788,0.960649633920862,0.959031568313276,0.933268438513498,0.855586160443077,0.93629318934938,0.963425568668878,0.96311282102256,0.961963237143618,0.961793210590782,0.959654910712822,0.955835056092184,0.951311744447791,0.948369877659969,0.9442749886921,0.939733831639597,0.938960464432247,0.939533506837048,0.939363368766664,0.93914052927386,0.939253305616655,0.939655298170953,0.939913991520858,0.940074643747384,0.940424325346187,0.940666473883836,0.939208905715611,0.938906060610397,0.939480827646344,0.941721100649426,0.944869178107724,0.94880528905329,0.951616703847003,0.953963959844014,0.959169788812608,0.962226490033861,0.963415429535126,0.941313170356604,0.873040948486682,0.963509787382391,0.983834885590418,0.984584714667418,0.988332104691039,0.990280723161658
0.896106720375893,0.895389159478311,0.89295332309335,0.892757158261821,0.894537289760668,0.893673717254045,0.89083959330673,0.88829924248346,0.790146367690147,0.490955367532101,0.759088650725375,0.827648293857803,0.817661816206332,0.805838871552617,0.79462025466886,0.804342857732986,0.795999486654661,0.791371973007915,0.792388980161679,0.793401671455765,0.809889768468932,0.828024252714467,0.838214469101616,0.840751232517475,0.863083692062305,0.876187478993331,0.883114383693527,0.916442733200881,0.947934385990544,0.99394696168967,1.03079008509443,1.0426473438006,1.05035809179333,1.06427546935686,1.07930812181908,1.07793701118183,1.1049134262251,1.11607952797951,1.12013213478705,1.12558883402827,1.13486354045999,1.157164307134,1.15152908507686,1.15406449488015,1.1682919575414,1.1781665377057,1.14476351269688,1.13875543874867,1.1302819095078,1.13037930391579,1.1344723952355,1.13557985821783,1.1383417744413,1.13847352761284,1.13481278801719,1.1241759837578,1.13168840929259,1.14522792331709,1.14983913392049,1.15834316186963,1.16360324193959,1.1449132072753,1.13212848397127,1.11715123428924,1.0856604882241,1.07854443098418,1.07762459965345,1.09215920803282,1.08995884494733,1.10132147268933,1.12162686780789,1.12252433479985,1.11069840762983,1.11145183944672,1.12828581981693,1.1233643727904,1.14794501548181,1.13878646893386,1.12180218104143,1.09632626181222,1.08396288245544,1.05534627334657,1.04207744375375,1.03402010448877,0.992650446184795,0.971965435088605,0.953772936160041,0.939418118113592,0.931458600708497,0.93075403128463,0.924287769274675,0.918229871716761,0.918208297868737,0.91042993124933,0.903300062486722,0.89324429277352,0.887053672580973,0.902571491957215,0.931052372959228,0.93884298463302,0.938780404588908,0.949923040350669,0.957744922715137,0.959129650055754,0.961963922249263,0.964791022956473,0.967079021131286,0.969292083363152,0.97042578102051,0.97054016591165,0.970823174880252,0.970923491161953,0.972430752999712,0.974892397730712,0.976678389692921,0.978160508515424,0.978293415852489,0.978230396385268,0.974765157584964,0.971596124336018,0.969272161067657,0.966453091194619,0.965438249369096,0.962891942838512,0.96272179148472,0.962132384219507,0.959540118477104,0.958069800204459,0.855765167044615,0.541471051931546,0.861691682714081,0.964790615130047,0.962489356042039,0.960009844686827,0.959109297573235,0.95640065473106,0.950881030072098,0.950171147098749,0.948267584432009,0.944101356106959,0.93987612093163,0.93990702666262,0.940790236440421,0.940614223656497,0.940584586737093,0.941055041295859,0.941072162185466,0.940330070961228,0.940129401247108,0.940146848072956,0.939866563712832,0.939460228402846,0.939539740594927,0.940582951574657,0.942310403500897,0.944429702703148,0.948588539250823,0.950031232189581,0.953075269690939,0.957434181078817,0.961330764102802,0.964843152039534,0.972422429315892,0.978203803789988,0.982004876960058,0.985959500518037,0.993479680953593,0.991808765615249,0.992195672903832
0.898550626317234,0.897768604958703,0.894992008006743,0.894187238250618,0.894906828277161,0.895732863272522,0.895421888050328,0.894344118035407,0.866155629857837,0.785992645998589,0.853853147844998,0.869293557502766,0.839842602860831,0.816518034496219,0.806142395815675,0.80613855027612,0.806176325334255,0.808180553070034,0.80967897375456,0.806917767521903,0.815407677586455,0.829277547428261,0.832049970514609,0.831341050700629,0.848778663827631,0.864207659689478,0.877714299739884,0.898686288046244,0.923511613124243,0.952395657638988,0.966274150890904,0.970803837532637,0.98388992907676,1.01081264490757,1.03275647280011,1.05577693465635,1.07696995884959,1.10526886938868,1.09427442687744,1.1122535183734,1.11792308620842,1.11583023452883,1.12034305456557,1.12125579803027,1.09980901900433,1.03512130047779,1.11775546405942,1.13953894388778,1.12787840083122,1.12922775661765,1.13278810246864,1.14131772602448,1.13995456800528,1.10611089432998,1.10937420129292,1.10931699133666,1.11978138840991,1.13844040782576,1.13933083889989,1.14198776723222,1.14157395131825,1.12074403293201,1.11213848100085,1.1073647591088,1.09558290814497,1.08818918864553,1.06991420097753,1.06647211397325,1.06313737256913,1.08112889614972,1.09930188571477,1.13026828890962,1.12344285255107,1.10566313017967,1.11720812019054,1.12408290384393,1.12912152614188,1.11560733639587,1.07605919298493,1.04994300235352,1.04178777838257,1.02730369000043,1.00621776589947,0.994933523050767,0.980110715282788,0.967503271127559,0.947378757775654,0.929726152530266,0.920187339492166,0.917665449624451,0.911089891715412,0.897625454405453,0.891826663128026,0.882738340297829,0.88415697730806,0.89505464337211,0.890411738643359,0.891521868061211,0.914526556472366,0.944047530574747,0.954121029826394,0.958822990988149,0.961594450397447,0.963208605873574,0.964683444208481,0.967123096171891,0.969259296801174,0.970863079037544,0.971907819397656,0.972939122746779,0.973622028250873,0.973854671175828,0.975126917570794,0.976495818499681,0.97799157615228,0.980259559078716,0.980642438018095,0.978064154814608,0.974405382194768,0.968070834054497,0.966018582664321,0.966601785559147,0.966828475006541,0.964390225295731,0.964307742979528,0.963941119077572,0.962736116813399,0.964994296106438,0.941034391206484,0.864430542043573,0.944734307039744,0.970145221471564,0.96747992210073,0.959444491680116,0.955706107511996,0.950681657146605,0.948740483078239,0.948857503426533,0.945762038772989,0.944034844321944,0.941573686621291,0.941771032514747,0.942884359170779,0.942400980053651,0.942938102172635,0.943611275623513,0.9421167308356,0.940453168166158,0.940500684629811,0.940554046201337,0.940576105636043,0.94128011860212,0.941945037784907,0.942172737015986,0.941157982610287,0.939805224038571,0.916185793031415,0.818452288576506,0.824823361385358,0.932876248465175,0.960924128675225,0.964942113900498,0.975074518092378,0.981049762243603,0.983740683369574,0.991701563293894,1.00907088928793,0.997327503569527,0.995755119585373
0.901514514815762,0.900952340391716,0.899143460001986,0.8944229550032,0.893224327813746,0.893509790859392,0.894924331954976,0.894518455353173,0.890531158139036,0.883251962066164,0.880998635749218,0.878432509266068,0.868350377480282,0.833125804402434,0.818771357046465,0.817749801582148,0.822115643143961,0.828724123283475,0.822938626587964,0.822734948683088,0.824272881905668,0.826232284962745,0.828465179895522,0.831507132659573,0.842369609397253,0.856772129461456,0.869710810297708,0.882643289011988,0.898653853295338,0.921760421459601,0.932288383827218,0.936633916315799,0.934960800212618,0.953229194175952,0.977114797074503,1.01821499462713,1.04463513014413,1.06708614430797,1.07824574592179,1.08267719245403,1.08725965831528,1.08923104470125,1.09737870349171,1.09254003311054,0.972226017104735,0.622322281187032,0.988210423627518,1.11052374663011,1.11965492847871,1.12459619628483,1.1297409604418,1.15191067383836,1.15406867318444,1.0918030690844,1.07942642470127,1.09479190754438,1.10586989602636,1.12945237847368,1.1221120590159,1.12803793003903,1.13051113332903,1.11149679037183,1.1020896627438,1.09576047096917,1.09082967331042,1.06833002611802,1.06011462389883,1.05775965327246,1.05161462360219,1.06461465969652,1.0854028495409,1.14516429333861,1.20723644323365,1.14933292116027,1.1183169927206,1.12092641875876,1.11645292874994,1.08043877957132,1.03504724076964,1.01999994116159,1.01067966781806,0.990492116558913,0.976365240182333,0.970718427878649,0.959452035049529,0.957261399611756,0.940467887185957,0.913111917339221,0.900053612953947,0.898560444689921,0.897323015514685,0.882496014068257,0.875371204068088,0.877278510485868,0.883575753153122,0.88868171843127,0.894205687003174,0.895815760783468,0.906612646933223,0.948951855552356,0.960366852489043,0.960681016134762,0.961938971384367,0.963647678820808,0.965497652261408,0.967687221178215,0.969451269905922,0.971316167604679,0.973482206860646,0.97447049825075,0.974851505198647,0.974946383225241,0.97576730324803,0.977028723405164,0.978981348154988,0.980725048765972,0.979946470621814,0.974978687942109,0.971657369458586,0.969107108282267,0.967200861264809,0.967367516975766,0.967020058853006,0.966065479147173,0.966323047933088,0.967578801219804,0.968928192245644,0.969778385237732,0.969820047950983,0.969933931773712,0.971505863783208,0.970275850807119,0.966745954217377,0.958855726968264,0.953633141818673,0.949137708517529,0.949021143134328,0.948834811197309,0.946640864662332,0.94543795896002,0.944150393628137,0.944279823274024,0.944360541994368,0.942679820295709,0.944881655268994,0.947465932774963,0.946900923996177,0.943306645202347,0.942365777040948,0.942178534601841,0.941959613815189,0.941984698326382,0.941332740027247,0.940409668455328,0.938138065691915,0.935707724083072,0.809055620500999,0.297865009142678,0.303088449286085,0.831431420759482,0.964169388741728,0.968228396485974,0.975060367788586,0.983948620706691,0.987411766949705,0.990425817777764,0.997523689435346,0.997240854539692,0.999336090471805
0.901366380823404,0.900968442007532,0.898544975083998,0.892027898953957,0.890130682733964,0.888910974073941,0.888485558666341,0.888228063566084,0.888383545598726,0.885297870869277,0.882234326283317,0.880494706576279,0.871194892072169,0.857958067447585,0.846528924844987,0.846332700102831,0.850876220958478,0.842717135343207,0.835101193707189,0.831798597688826,0.83195066373977,0.826778270616119,0.82959066556837,0.833336715975128,0.842020976600762,0.852884090833988,0.861990360275388,0.866965759753383,0.875687004384264,0.897567187470547,0.923488067212891,0.922102636329873,0.919205209989614,0.926887457393939,0.94250982535757,0.979970393213732,1.01440598844804,1.04777152105921,1.07904949805864,1.0706841939635,1.07311922293736,1.07700318681637,1.070351466814,1.06983721757491,1.05996287652241,0.965776360257329,1.05731969459823,1.09885220962859,1.1055093538393,1.10435306185656,1.10777660293276,1.15173011375271,1.16379986417211,1.09740734195397,1.07195120686,1.09035262068609,1.08838105311201,1.08879422753592,1.092577852762,1.11099372719423,1.1065216050987,1.100391362079,1.09683765816956,1.08968460301701,1.08518765813108,1.0584956984305,1.04473083109221,1.04225135644743,1.033700220899,1.03808686951214,1.06541374928136,1.11468384179802,1.25318275130615,1.22743038464965,1.12414135804838,1.09554722800966,1.08437300705373,1.03055037650034,0.991770217390653,0.9852951700457,0.981176445438057,0.971261590535386,0.95333059736411,0.956611498259263,0.947389801579018,0.929413483411808,0.9109905246913,0.900936276384085,0.896917210519651,0.894075107126308,0.88263672295574,0.874599564129938,0.870693025285809,0.87516362020763,0.889245878418246,0.899622628963074,0.908745951724718,0.908963276934848,0.909631067443496,0.948198745902567,0.957043959920399,0.957471820465174,0.961207451534407,0.964044760273317,0.965840303591283,0.967419330658211,0.968821796764243,0.971093930407479,0.973180471995319,0.973981541851767,0.974311611519501,0.973905631896082,0.974520238889301,0.976814735269333,0.97881913192913,0.978487384577059,0.974545656623746,0.971691920826775,0.970623591925874,0.96927602101475,0.967526553086862,0.966873489839814,0.966652590991186,0.966839707605539,0.968005286873277,0.97086111038648,0.971844971290699,0.971527554888975,0.971345970437138,0.972003128490508,0.946714419661824,0.865308742770892,0.94016085618107,0.961038608316538,0.954870414778042,0.949487461617624,0.949547312025124,0.949135977905706,0.947996743739952,0.94765696295472,0.947933250173871,0.947116774037746,0.946087832132382,0.944145037705104,0.946681232649662,0.948523108182767,0.948335905525252,0.945260984120668,0.944894306956306,0.944381446045682,0.944181827445518,0.942772940799795,0.936492905766776,0.934745827332246,0.935080983043612,0.934706239155411,0.810013089408871,0.298253050262456,0.304219811447652,0.83411814860451,0.968097456995052,0.973304586053945,0.978326624163281,0.987109848828845,0.990261777857006,0.991158783723475,0.993991949631677,0.996974596718806,0.97384768960082
0.902244023634785,0.901346733317073,0.895692381302222,0.890766015927686,0.888579621460806,0.888243825516559,0.889593314580823,0.889997883478522,0.895218031915903,0.881122528289869,0.793944621248369,0.862171832322963,0.883246330965747,0.877640639739916,0.859992458873419,0.859684466698605,0.873752964472173,0.865321148704189,0.857442749209287,0.855349549708953,0.861691734489853,0.857360089455359,0.854060450976466,0.848023010668146,0.843430098992001,0.847172022115057,0.852968836235339,0.857465152857384,0.862217851534106,0.874092097007469,0.893003127688261,0.893918017855237,0.894940435684868,0.908312071360599,0.934307378843521,0.958835263354167,0.971634752684458,1.00931546753709,1.05534077327758,1.04607132657351,1.04756991403158,1.04607328461668,1.03776194367018,1.02858023088409,1.04572261048351,1.06442032588144,1.07087761163354,1.08400147261142,1.08453822879014,1.08005687688529,1.08371272175229,1.11493468629296,1.15308192506699,1.11945532820312,1.05690696784573,1.06007162913319,1.06497738277091,1.07024868856686,1.08218762728643,1.09470962155734,1.08406853810408,1.08719054100991,1.08430744413157,1.08082184059645,1.08452671378787,1.07439014739489,1.0339231315526,1.02712106926163,1.02764583884378,1.02210350499049,1.03510250783433,1.05988482228229,1.09771788119262,1.09635419518182,1.07573801833666,1.04510848378691,1.03015522951516,0.993860079337375,0.976715476766197,0.970059848645031,0.95608949162973,0.96109065655101,0.946426076679326,0.940936983771836,0.93004530080722,0.90924288353027,0.892998317958065,0.88983837767388,0.891242333746909,0.889272721752511,0.881910435074754,0.874808362909178,0.874951942767791,0.877930251254591,0.895679310353611,0.913372153008539,0.915039598734298,0.914712564266184,0.922888946135912,0.947170217192507,0.953522383769999,0.955656573408327,0.959696403785346,0.963428670624605,0.965583041777159,0.967521374892836,0.968586336742628,0.970954897565948,0.972495838611341,0.972633411865899,0.972757975375781,0.973603818871579,0.974931775520652,0.977038697953448,0.977800453685765,0.975812966451385,0.973813831533723,0.972571424339729,0.970974317917953,0.968942721436734,0.967086746469129,0.966801079132121,0.966958109669486,0.968171416830172,0.970223915050494,0.972399954522568,0.972480530661008,0.972729230069532,0.973037854408991,0.971897915214873,0.865009539359678,0.542739542700486,0.858097217702366,0.95792167196571,0.954548704765064,0.951951810292175,0.951530941816721,0.951578025957697,0.950175797811542,0.950019835961529,0.949941912230123,0.949000118934088,0.947610656220879,0.94479392544803,0.944634014487689,0.946731083366858,0.947249696531045,0.945248726454025,0.944992221151343,0.945419992712203,0.94519683598705,0.91895527209181,0.836328280755558,0.908883653827493,0.9344148969739,0.936767953004524,0.920150828761102,0.836557224188151,0.834049935512812,0.940686293864119,0.971436637487212,0.976318054944244,0.98096218301153,0.987545861317822,0.989394987096687,0.990649607008211,0.992711656155263,0.99444666896381,0.891865373673944
0.904793310973727,0.909480156708601,0.917812512812757,0.895327926752176,0.88903896474836,0.893175676107374,0.901511064501511,0.903711077076589,0.918215815943811,0.872097593714174,0.539869279159652,0.807907394020723,0.891999140559067,0.888049489487567,0.876938807169119,0.871906840560595,0.874516654238207,0.885083264384504,0.885693868323964,0.874390838668447,0.874337368204528,0.882818964230007,0.866203477988779,0.854286560046527,0.850839297920429,0.850106393888225,0.849006133271032,0.85523174820677,0.861335696527147,0.867972506135977,0.872056423870484,0.87940084953197,0.885239900838536,0.900184606250933,0.926007205765639,0.95365849297421,0.954738737003419,0.984451706883284,1.02511852817049,0.993486135000611,0.988446929470248,0.979420985099684,0.981191843441663,0.984892310136795,1.00805307720321,1.02188533469773,1.02458745900125,1.07340544255065,1.07256502469757,1.077002130502,1.08442906813302,1.08715362194067,1.09110522282987,1.06097700276472,1.0256374364281,1.02147911159493,1.03248201944116,1.0445936463856,1.04836566696178,1.05490622179348,1.08242589548515,1.08817491001429,1.07154845997053,1.06670508239397,1.06786578693964,1.06827234048703,1.02440702426909,1.00875955712492,1.01643162926852,1.01693291122748,1.0313386380063,1.04513219379375,1.05378733732357,1.03201996874062,1.02832180988553,1.01903144534139,1.00234409607439,0.966636882101909,0.958922563382236,0.955009595987779,0.952551451463889,0.951796180194835,0.938249073935888,0.917938188202038,0.909194405124122,0.899893646180767,0.882131281801394,0.878287151293934,0.882843822782702,0.882290372366896,0.887900087319057,0.885558654017429,0.885845221375877,0.886116997132973,0.901566043669005,0.918387165669348,0.92674305521357,0.924163377928068,0.939542336184288,0.948486405151849,0.951591330293355,0.955507336820048,0.958727041664476,0.96285942982511,0.966175811094584,0.968763421597921,0.969513072619084,0.970058491262034,0.970718140769895,0.971662350211978,0.972278372362659,0.973798389844232,0.975898740790796,0.977286981783603,0.977558060322952,0.975217305473772,0.974316960927963,0.972740317368855,0.970799481138768,0.966544529040202,0.965694601194498,0.966667872545685,0.967729122201398,0.969851067006262,0.971123013925593,0.972281170698156,0.972949036618215,0.973858534644252,0.985476012991925,0.993253381059608,0.847891972533628,0.830281508199088,0.930811300000674,0.955677602788921,0.954732702767078,0.95474307797853,0.955615795671615,0.956272156054678,0.954602123404456,0.954857266662884,0.952236331898899,0.9496050794149,0.946896010482689,0.944425849769914,0.944290649915363,0.94408442616199,0.943470025868046,0.943555481467095,0.945322609648527,0.947442073495757,0.946750678853847,0.844334890813548,0.529538882896291,0.834624587638204,0.935472548140623,0.938889316460851,0.959967308682484,1.02399545691513,0.977064489441418,0.966936627493289,0.97314102920496,0.978173112748787,0.98099649860635,0.983493393792407,0.98638378650163,0.988854389107456,0.99057806171941,0.9925126388048,0.947703490132789
0.910801290630409,0.928919634488351,0.991057907284757,0.914970159012924,0.893904545459174,0.9032300362476,0.907342049087792,0.90780828567456,0.911321274263105,0.917227220094926,0.894294734194761,0.930115643806762,0.909213782633224,0.898947211596147,0.895467661743092,0.875668179422622,0.785366408499653,0.861255832414339,0.890065750478393,0.878763864417051,0.885665397789466,0.907126771393767,0.873618115529722,0.862383955886961,0.864523932622304,0.864878364607597,0.849791046530817,0.844400098832038,0.845749110888139,0.854341795010092,0.859974539087108,0.862819321592289,0.872473150101902,0.887737312525685,0.901168408212299,0.920845906782829,0.93286905309368,0.952313604566808,0.966008969083994,0.957673541200792,0.954863814177042,0.953348359473108,0.952179297930438,0.955867255339429,0.970640550020384,0.981919768322035,0.978175497522777,1.00410160063733,1.0397028305844,1.05532797897074,1.05942742727451,1.04753444978125,1.05078458980119,1.03004075022694,1.01738214738163,0.984367208144409,0.913722146960811,1.01873811065736,1.04797894833348,1.05030737114537,1.06700678712086,1.07137766275009,1.06080412151818,1.06319375758848,1.05995846480438,1.03979302543267,1.00950043586297,0.999090061307141,0.995729066476537,1.00068056336941,1.00792410410826,1.0313301369865,1.03541240667077,1.01753229175888,1.00153656654249,0.983751740246738,0.951312912407767,0.929329793133855,0.932210842074209,0.923748170865717,0.935773105086879,0.931364824832433,0.92338015640915,0.907321534609506,0.896641472164007,0.898432886325315,0.884407776115268,0.876719908323166,0.880146921706368,0.884030897139474,0.897787492412038,0.899334792986012,0.896829715135054,0.897760952187864,0.921031089054289,0.925030530491018,0.929984840992911,0.934017364886471,0.945811529905511,0.949457115314576,0.951467969076314,0.955911285781912,0.959709249435438,0.962960159294612,0.966761540149987,0.968953767037627,0.969435608208026,0.969536456674926,0.969891039155672,0.971398433574714,0.972851663926698,0.974782607868403,0.97680935203118,0.977461712961862,0.976261970727141,0.97363985941897,0.972343668180548,0.96934799705725,0.96730793383129,0.965053327547042,0.965609780732615,0.966409262574533,0.9674604295356,0.968869026238332,0.970364340578046,0.971740360616453,0.974347480039139,0.976518899296103,1.02128991552521,1.05653909965993,0.587694053515222,0.851254577372735,0.954181559110494,0.956241677194953,0.956325028783327,0.956617270528285,0.958043369308805,0.958844790304885,0.958546705866941,0.958129050075347,0.95586931232095,0.950689633774694,0.947965828083279,0.945492240047163,0.946634143673137,0.944895876253064,0.942868848886927,0.94448669356805,0.948420061312458,0.952512821508943,0.955706944019453,0.930998421668602,0.849366494544451,0.923898278289125,0.943307602840125,0.917221915848414,0.846429443514615,0.946598959062371,0.9667181847966,0.968488088191323,0.974336530654761,0.97885083161706,0.980899893654985,0.981808708645527,0.982530794979731,0.982982548390668,0.957082833613346,0.882263403461191,0.867726802886232
0.90064127068524,0.913796597602573,0.927301889729572,0.907459395349067,0.904871472857929,0.908614940472206,0.910131126131535,0.910341271927934,0.910967619565756,0.9172647434249,0.932266693514958,0.923745632774657,0.910803563220128,0.906970738423093,0.915370563584498,0.852112616473856,0.51403909188273,0.793481413443265,0.893748633755515,0.898080575179026,0.914832393225434,0.913903665785991,0.874648960386073,0.861196804112449,0.863293934103334,0.861440142530764,0.850487158153694,0.844538219047733,0.849201765375364,0.868841956262689,0.866810097384329,0.864617144915955,0.864884116617882,0.881324908725966,0.899694454985635,0.913308924059541,0.925288968412948,0.933385105874143,0.930814098025011,0.929355223935413,0.921774703420061,0.926667454886265,0.934005352216734,0.94024412196077,0.941891636294166,0.949470431343038,0.953279449318445,0.960181324620204,0.976122047518951,1.00085884996044,1.01303251245558,1.02246142590928,1.01715984143242,1.00326458442824,0.993327428433076,0.892416972009048,0.576488241292619,0.955299181127163,1.02790159359297,1.03139004237188,1.03631006617111,1.04492598347187,1.05143763538412,1.04350924925695,1.01696110528379,0.995292557120539,0.986678665289854,0.990781437025134,0.990042862772707,0.997090666533927,0.995933892127622,1.02215872667465,0.997795410807939,0.981719792617166,0.960788358464046,0.943049211658695,0.923990157521328,0.913804427575584,0.901847742123682,0.899720673790421,0.91490863653919,0.914742288140846,0.912926344837843,0.907004256223666,0.899306087122089,0.896858496830726,0.889108558627155,0.884589271323618,0.88398293879421,0.88904490273198,0.908347880151615,0.905793850394749,0.914018422092177,0.920693641546965,0.934697657201354,0.942052381276317,0.91467975370701,0.846471020222558,0.950158178401035,0.958671550663371,0.955009713768151,0.956512734815232,0.959570531258165,0.96340842278598,0.966141124655785,0.967352116656053,0.967813451173278,0.968545504738241,0.969899561345087,0.972279984431443,0.973592542902388,0.975248465619166,0.97601498602191,0.975226949942454,0.971704393721151,0.96859124321464,0.966925685881288,0.965937200838801,0.965386010062683,0.964499382514214,0.965730606756856,0.965558403246441,0.965366304066124,0.967413736382734,0.970383384747003,0.9721930891498,0.97460321074154,0.949871689029508,0.879446153326421,0.959928316462237,0.863969066071652,0.930384053041698,0.957159934613069,0.957974659540928,0.957065876493515,0.956913058489246,0.958184039448489,0.959109209460806,0.959109583718786,0.958807125979332,0.956570883801046,0.950768444585557,0.94855067864883,0.9472728855915,0.947717778676553,0.947435511608193,0.946836674683386,0.948298309481378,0.950788311616968,0.953680667362351,0.960216944953705,0.961391021333956,0.959199641448861,0.959703692745898,0.950792477749607,0.848580125485813,0.52149104480227,0.762063990183185,0.979597109973965,1.01066096990863,0.984851899830357,0.980408562198338,0.982004761974198,0.98283799364041,0.982043283030584,0.953090551329405,0.765701559630682,0.504560353505206,0.762720841188939
0.819811801798755,0.910821571069925,0.91074175740229,0.908852404717462,0.909696384944289,0.910803576941266,0.91304441548019,0.914643184785336,0.916829450829914,0.917533975237662,0.917357612805429,0.915269452628453,0.912380127916366,0.911172376246763,0.913666901475345,0.900350745552582,0.815735447393667,0.882945410685516,0.905980849477657,0.911744459673006,0.924658381179184,0.898928333147883,0.877594580996633,0.871793568604591,0.863419500921041,0.856033291753524,0.859030320406144,0.860200769599423,0.865412969220401,0.874155329180476,0.866527595459312,0.863439993780731,0.866763126104768,0.875195315613281,0.8850216592235,0.906743629945075,0.915440652782323,0.916236597457514,0.910929952693746,0.916444601257666,0.914210257973977,0.907708939946485,0.908012659042948,0.916461387517819,0.909769241635924,0.922240676803809,0.93067726061665,0.93724625059574,0.939367920263442,0.971677864869328,0.985777619031063,1.0035063561996,0.999995906373988,0.974767029879208,0.962227225312813,0.940799938731092,0.868455712943853,0.97700918415721,0.992609137052796,0.9964090285662,1.02071036698682,1.04988162431929,1.05473852480543,1.04360553385443,1.00223276929264,0.982510564736141,0.974900872155549,0.98313018927876,0.986428285681213,0.984949567292714,0.997883558051393,1.01134904130627,0.980276764636094,0.959892146399415,0.939529222832156,0.927341386362993,0.915697685854373,0.901372731961779,0.894345137411401,0.892587377830636,0.896688222737483,0.899136210378276,0.900742299706248,0.90432807953738,0.898327373762984,0.897238761964543,0.886881294129953,0.900703713278095,0.899412903233549,0.900083796626896,0.907009644608573,0.912149864328597,0.924980423794916,0.938092428041188,0.961192791299348,0.968090515726706,0.860440276557258,0.56539513713242,0.96403890177348,0.984282470229709,0.958885260110298,0.95738597070226,0.958710149540642,0.962956944558523,0.96652794569474,0.96772748677376,0.967913419698796,0.969377124279967,0.971125304615963,0.9732978685601,0.974296052718788,0.974929887854711,0.97425108054996,0.971606082068892,0.96929440901956,0.96767522562898,0.965636156081655,0.96510231370191,0.96573271734572,0.965675941238825,0.965426325935839,0.965269014852014,0.965421316269103,0.96798597674946,0.970813364563748,0.973002877897636,0.972613357448624,0.867563696161295,0.542042178701087,0.85315624139829,0.953431026608698,0.957121742655349,0.959047397784666,0.958642473152525,0.954948366592676,0.9544979142966,0.956546700537602,0.958016300728216,0.957375360545871,0.957661622519748,0.956478304426451,0.952083858555782,0.949067701184561,0.948750721933009,0.949956467427058,0.951490836503316,0.951699971617927,0.951823061191725,0.95290756788834,0.954968469627189,0.960696796321231,0.962703903058683,0.963105619499526,0.9632744117138,0.959540285831868,0.916126633247129,0.702622212898028,0.540340826522579,1.03898016070686,1.14595823929289,1.01548046932288,0.983920313561339,0.983937690050212,0.983655946782603,0.980464463928414,0.846439735422205,0.392168204328534,0.518077439741185,0.40420410086459
0.898101252805031,0.914298031186553,0.911961280169016,0.911240213858385,0.912045544020889,0.912868442518697,0.915089460378323,0.917210181010765,0.919386117065005,0.919369435939529,0.918409799299948,0.916566117915306,0.915058577431875,0.914981543900339,0.917995105602696,0.921289186400285,0.919830699994476,0.914934336080261,0.916093791547196,0.932037106503667,0.941336656790336,0.925344719936505,0.884838183532239,0.873826563579182,0.861796007212465,0.858580555152319,0.864827645228931,0.874126740844871,0.884755624789062,0.88421984794377,0.876551160821917,0.871979663805268,0.882421488211269,0.877091249666802,0.877737095029248,0.900330323651644,0.908296372251944,0.907924718842749,0.906661564231102,0.910699270679346,0.912024780392206,0.904386263971241,0.899023597633759,0.890072017072631,0.894745944117896,0.910101173401872,0.917677751249038,0.920306039816504,0.921697575681683,0.93656417780369,0.946052778573749,0.956190104450501,0.955075268017639,0.94963067773691,0.954943021946234,0.95290330221084,0.947380221362206,0.953849754317785,0.956307128201202,0.964900773188469,1.00412407984415,1.01981999822127,1.00400188455489,0.99580506235768,0.97639650685586,0.966766240360246,0.968099660795909,0.974038273763058,0.971603400576198,0.969341280193897,0.975036719772681,0.970503761566932,0.959859278241066,0.942833294619754,0.917102489216395,0.907427345462078,0.904161820871184,0.896184107170683,0.89660547588043,0.896972620375514,0.896437428661838,0.901498412366066,0.899296846422898,0.903205335973505,0.905190941207691,0.900461547050163,0.887969055857294,0.899497189747653,0.900959197470821,0.903024450597042,0.912230277354824,0.93041795187423,0.937826055888834,0.945307051518067,0.966674816728498,0.969447001897638,0.945039074557067,0.879909792198614,0.965931996553378,0.965871130676633,0.959839579161306,0.959398869544205,0.958840820810253,0.960362912438801,0.967647398003049,0.970016197900095,0.970294071791037,0.970975060591768,0.972312339550837,0.974402791570809,0.973799208294688,0.972513086373378,0.970050236334455,0.968024994841492,0.967084189547165,0.966406054498478,0.964397149170912,0.963557397906035,0.964160878932281,0.96461432161602,0.964764654508911,0.965216494177279,0.965860805579117,0.967898929691917,0.970563171157991,0.972481297928186,0.971471682416573,0.942098785165771,0.853262539025696,0.929883452675298,0.957282554061129,0.959899180243632,0.960702229484051,0.959441698288752,0.954176885777838,0.953352686045348,0.95440476778235,0.955698228242365,0.956132441401245,0.955720675268071,0.95305683818309,0.951842826875122,0.951642449730902,0.95238133811087,0.953493442943007,0.956324866718846,0.957034373161886,0.955374665674933,0.953678012340437,0.955018364048395,0.958407875388738,0.96222802558924,0.963353495649458,0.963636831154585,0.961903733054489,0.862540474533732,0.54156857008561,0.780523162740259,0.996243110318647,1.02598315629014,0.993591769473806,0.985662466037741,0.986236301583329,0.98498643290184,0.979155007409172,0.846432190121522,0.34008824914621,0.301993180296786,0.352686827870326
0.934642281044876,0.918298581300902,0.912307991215209,0.911958989550556,0.913395059520011,0.914674135974985,0.916628186870339,0.919310889310599,0.920615428159756,0.919935393177336,0.919420445630243,0.918480889784827,0.917529430231495,0.916861632884137,0.918693142553387,0.923597203594671,0.924666549965148,0.922204296332647,0.91866771598529,0.923999457310842,0.941555503426187,0.939549092742953,0.895270678525483,0.876206827296766,0.874478308174861,0.879707993824536,0.878486457341535,0.889929501217804,0.894135147552026,0.895571637774989,0.888664805514918,0.885548264338005,0.887571370180459,0.879774987905259,0.883680743103936,0.896980704862838,0.900161659211745,0.895319710951592,0.897618832625676,0.901424469132717,0.895301834707572,0.888151513594977,0.885002168861035,0.879310722266555,0.882862029219617,0.885174082833221,0.892420128601863,0.903361144356857,0.909662383203763,0.918446931397485,0.926673733550226,0.937494570586296,0.934425820905171,0.934802040606328,0.93487170797592,0.935476000411829,0.926177013024263,0.936652056036724,0.945549190600634,0.947666937597915,0.963835270803111,0.981035956974256,0.973086749830053,0.972542335342208,0.96868295769929,0.955624826852789,0.945429003353677,0.938930978401865,0.945744052971135,0.957643884626764,0.957479982668884,0.937448461573206,0.931249689666181,0.929118298560686,0.911052068301717,0.899901657384165,0.891526727111057,0.890374766575117,0.897400723610355,0.902538782474373,0.901745376472631,0.908196441862263,0.903436635276392,0.910530350575873,0.917957516013029,0.908128886502379,0.902641417071814,0.903742264057793,0.905640065271596,0.914730517808717,0.9336457160408,0.947693128937621,0.953449074264272,0.957183112517337,0.966779304276827,0.969494645316728,0.98347001560494,1.02741035174589,0.980257755078766,0.961626872392416,0.961943417700023,0.962491988867069,0.962727611908122,0.965531212355701,0.969682500966894,0.971832004150151,0.972876992696183,0.973209784040694,0.97305213644363,0.972828802733601,0.969159658777349,0.967601077688298,0.966537545837266,0.96658941519965,0.966930672355696,0.966433567619837,0.96383430431083,0.96311089673541,0.963412993725219,0.963573386622651,0.963804585764453,0.965966664392203,0.967135846684243,0.968022192373923,0.968983441006301,0.969716228834375,0.968370779150199,0.964561858219445,0.95601227263383,0.956915803642095,0.959839463365252,0.960923652497307,0.958521550522978,0.956382143650766,0.953809506429179,0.953824379608037,0.953469090156276,0.952769587475552,0.953621671981134,0.95435450152129,0.953081085907708,0.952381143832321,0.95324707079388,0.955126500259871,0.956494918282229,0.958894796323213,0.960259614173878,0.958923869216556,0.958012039193449,0.957763973444659,0.95880019384198,0.96205140990798,0.963637043248976,0.970187073029974,0.989105600501434,0.961805175089232,0.91508092781473,0.963923509563967,0.982777352252199,0.987140407006709,0.987941574647128,0.987977023549514,0.988207971772482,0.987309774084948,0.982606292250539,0.959630985018123,0.856962265801785,0.789926767697612,0.871295384865716
0.963868116580783,0.924593764763862,0.91209856865055,0.912288579212508,0.913684151791715,0.916194702907882,0.918839617834273,0.921179582800208,0.922137034195037,0.921729447634611,0.922259739702653,0.92127877641384,0.920659777253934,0.921404791726366,0.923797116847938,0.925616450647541,0.925956027448955,0.924726812102016,0.92081948494544,0.918619176456906,0.925695383580025,0.938655203661781,0.921910770098479,0.887932607966554,0.887035978521822,0.892871932811786,0.894826989674192,0.901738636685382,0.903484011417303,0.899243734573014,0.894588858715785,0.895130373315234,0.893827100418377,0.895492912458152,0.894819592661733,0.890626255808974,0.897285379312452,0.901962542920885,0.89642867192113,0.893490620943776,0.877847802029185,0.876689455259251,0.883179542732509,0.872931311918206,0.87548969882159,0.873685999480624,0.883602556020365,0.897258451704923,0.905322278395504,0.915337201559815,0.919612433556173,0.933869647067169,0.926420730298289,0.924842017942338,0.924627203574113,0.923058806051558,0.919818691061632,0.920380543991496,0.933840425267352,0.941499418189761,0.948724353814242,0.956145430375711,0.9605533328979,0.963721171057701,0.960244277876731,0.940264693445943,0.935657735808735,0.931672444405294,0.940906378554499,0.940621049128561,0.935391906779286,0.926483955679462,0.921594060806672,0.932505942560095,0.913579032636013,0.906618908146712,0.903114477573123,0.893544054625006,0.895447122230773,0.903724834937274,0.909848251423982,0.918110798270616,0.915833308365363,0.922192580801511,0.926248036381583,0.928623883041518,0.930824247683062,0.931485325157082,0.934258550704012,0.94895411777639,0.954043749647773,0.958091121477029,0.964459849029206,0.966932267238145,0.969476334583201,0.970901967016889,0.974347876575978,0.985198614927305,0.972270772112078,0.967111928914985,0.965498427420765,0.964632016673378,0.964610535460396,0.967231420562445,0.970624850047866,0.973578754350637,0.974827892398349,0.974373300128324,0.973302935470639,0.971667983537774,0.967801173270553,0.966246567006645,0.966224991562956,0.966274124700399,0.96577341518396,0.964675346697262,0.962897449702914,0.96283113834434,0.963263978101888,0.963278316952712,0.963808741315914,0.966959787646481,0.968795649180876,0.968736485617467,0.967995352976663,0.967530017709536,0.967127714779568,0.964319362810418,0.959735330015856,0.960986153625594,0.962040628743672,0.961435082924351,0.957510945218691,0.955318914074824,0.954124714986354,0.953759996063271,0.953624860286092,0.952369758104771,0.952017451873853,0.95475167683734,0.954344562068507,0.953332552358389,0.954141653037641,0.956327037679752,0.959671012801059,0.96359289507579,0.965480484719357,0.96628254699072,0.965729350019177,0.963788191720201,0.961765642797884,0.962585181729403,0.967579938297332,1.00019703353928,1.06786006985553,1.00537722802571,0.992462582590385,0.986563238775676,0.98535535971216,0.9884039315813,0.990528610027243,0.99100864965999,0.991848758825818,0.964409784473902,0.851090058046406,0.867979185457869,0.901461793661172,0.48605181072267,0.896760363058793
0.925574316290331,0.914220558280945,0.911516885397645,0.916022623029877,0.926094975286115,0.921527214580418,0.923388250981812,0.924053282833776,0.924772135428177,0.925090090046499,0.925106291538203,0.92523888568079,0.925940043842402,0.926807199551631,0.928537742441156,0.928621696699526,0.927811506976553,0.925638570205729,0.922945976824509,0.919352394087238,0.918233313397813,0.91833558745481,0.904419025617627,0.874228716367247,0.815083336691933,0.882720917120286,0.891650870951594,0.785946432357881,0.781840099403869,0.875784636776737,0.888218615571289,0.893252464835086,0.904230069501588,0.904880825549672,0.902292256738253,0.896457240322063,0.895096569477267,0.902427584503056,0.89967448403758,0.888721604350569,0.884377569478303,0.876448234885483,0.881059819354894,0.878519028556075,0.872046475045058,0.86996941354304,0.873564723232868,0.886523613444534,0.893037252386754,0.904153786368359,0.911116175514229,0.922826737699851,0.909084782124195,0.899695534173978,0.903638221067192,0.910198101985829,0.913281155778356,0.912198175400113,0.916909863388882,0.931224510502273,0.939512944746629,0.945346289973755,0.955362802940858,0.954597955418511,0.94020483698784,0.934284345765671,0.937213977945676,0.933943109548351,0.937597696481329,0.933352788778457,0.932787495735718,0.929015994066161,0.921499184915752,0.928046720270416,0.917932234608073,0.90888029907501,0.9120876597962,0.908684789569569,0.91089568269474,0.916318135462773,0.927015778942095,0.928386857151986,0.927486121598369,0.932212382421672,0.938130645704437,0.947936014249548,0.946112409051282,0.947061901241467,0.958640040766174,0.965081944478908,0.967064824323321,0.968385599279683,0.970428776347621,0.970954844143143,0.971768207599071,0.973026543318004,0.973502015401538,0.973551389615143,0.973234958898152,0.973268819728591,0.971837983258584,0.967181678872809,0.966046745054925,0.967310421910993,0.970607435271058,0.974443070353042,0.975278009806067,0.973792851035519,0.972167373442604,0.970592940010164,0.967318638445666,0.966300910586786,0.965819577782147,0.964870877804864,0.961963836518489,0.961557050300933,0.961548281321131,0.962763200055351,0.964456957173529,0.96551560975648,0.966752264930645,0.968211371220277,0.969432994073278,0.969882903574447,0.969642405757468,0.968974216570618,0.968619237870623,0.963219590676343,0.961313198547224,0.962196249298931,0.96067915946588,0.960098915625043,0.958697348707934,0.95704251351171,0.955972280761379,0.955233366893247,0.954941299357043,0.954151436977155,0.955953663344664,0.956460658153228,0.953770306901194,0.953725861740927,0.955923210628264,0.958747583924202,0.962734625794495,0.968315611819939,0.971141554190604,0.971430873543627,0.969269061444135,0.967958781055023,0.9668808374971,0.966089410669257,0.979284360934195,1.02142383653746,1.01444556679086,0.989293361527944,0.984404681343461,0.987292956661695,0.991704949155787,0.993630462145955,0.995240676928861,0.995281903323401,0.994938879232173,0.860116436693505,0.346481486668186,0.469826209873583,0.835441232964412,0.482925259635167,0.909924441232902
0.911718117379645,0.910584357871537,0.911047578157132,0.924697135661715,0.962897974080194,0.937106788566203,0.928745505719556,0.927397122625336,0.928014685731208,0.928314935411865,0.928121595403499,0.928708034381965,0.930004270942709,0.930919170393158,0.931059749927021,0.930628161380316,0.928751298578945,0.925450508916749,0.923467389122675,0.921798135331281,0.920436020364135,0.918782973642453,0.914671745756672,0.816635569936121,0.517282653194781,0.828993867923216,0.873886272585689,0.429242224050152,0.413673441320921,0.78725520422526,0.79339223928283,0.871644387140523,0.901595956895155,0.902500633535858,0.902512425503387,0.90288786650239,0.899801807640597,0.893553043780321,0.898231774789254,0.895942911887455,0.898732048795462,0.887586128363321,0.886701529286141,0.885707981532851,0.874557664048665,0.874641754246004,0.88389962832881,0.889639258251949,0.895682948535223,0.899899068820526,0.907459063047628,0.905887215416303,0.899806537166527,0.897678786029771,0.905426874954987,0.907298510247428,0.904834791372521,0.9077994131851,0.91311157075727,0.926403218106281,0.929677169419685,0.932140388119887,0.956697547516505,0.945994592148149,0.935875682682613,0.934204326931304,0.934138555666697,0.933938080047556,0.948388206122872,0.935445370178326,0.932737834673053,0.933772325575359,0.930847181258805,0.933162999451086,0.925222331744966,0.922227453471993,0.914616766337784,0.910371305667216,0.910299234984659,0.920560192255811,0.933224615466308,0.935047202345112,0.943982549394213,0.948342373393905,0.951304560297046,0.957996536121007,0.963166495301681,0.964707223632135,0.96821508690391,0.96893997714916,0.970655429886756,0.972484052553793,0.973097752975339,0.97417998471923,0.975319683197688,0.976780809900793,0.977929971709838,0.977852711312522,0.977878712350777,0.977515224727126,0.975381133079693,0.968779371446014,0.966338355814668,0.966745739771826,0.968775604320801,0.971851019327823,0.973058182516174,0.972920013295745,0.972195037868908,0.970393576389078,0.967480667665001,0.965772116799343,0.963303786630513,0.961799484406083,0.960589257753959,0.961130255164747,0.962056559566788,0.963993852285478,0.965942305215939,0.967372956257599,0.968743288326389,0.968687736816204,0.969393103711501,0.970821820680825,0.97356637807874,0.973156945331204,0.971580783870476,0.965931837833608,0.963875316774454,0.96238851088879,0.961116227712592,0.960432273078718,0.959959158529647,0.959097449220361,0.958493939228621,0.957662217053172,0.955882895292269,0.95577365544984,0.957999429306796,0.957893504289416,0.954284079630771,0.954296406982141,0.956718210837163,0.961434486525691,0.965317704966743,0.968502894893508,0.971564288376315,0.971034047104453,0.968496267550798,0.969700785077453,0.970672150130636,0.973101953294755,0.982520309220765,0.994336789338495,0.990157234175441,0.987895668789686,0.987280448540206,0.987470059023917,0.993294739366456,0.995543563616322,0.9967221504742,1.00089964616753,1.0152046898166,0.855253506619463,0.324789889440621,0.768004157569964,1.03228537337321,0.939338658655662,1.01937647707488
0.910636052570918,0.910713962574822,0.911001215797785,0.917692988742908,0.935091088939313,0.93241203353027,0.931336769056299,0.930882859760596,0.93076452236587,0.930687378411318,0.930601208902264,0.931425944439178,0.933266449723165,0.934419173391224,0.934375086494839,0.932594602874411,0.926999042423059,0.924765444457916,0.923517040711158,0.922923929657012,0.923818661693223,0.923860543952955,0.92326027430094,0.899356171119384,0.82407411802336,0.903176137484862,0.915086638075109,0.804133091287636,0.796278959150449,0.770779119075284,0.384132250171453,0.655325899377706,0.755351294051473,0.779972330500963,0.878291646616926,0.911535857181049,0.909157781522797,0.903361819959129,0.909257545756308,0.912416746717545,0.914001971749753,0.906558264092159,0.90547702439723,0.898329334952928,0.886661132899908,0.884295481302097,0.888614013023369,0.899706435795236,0.896609559133917,0.896524315422126,0.903291914852431,0.899553909666906,0.896787079242525,0.899858129126686,0.911861366355944,0.914514387941646,0.905058230651795,0.908348659563184,0.913606305686225,0.927923567782865,0.929858742123298,0.925322087743053,0.93663581703691,0.931016357066224,0.931880111797029,0.934572949330219,0.933621412486048,0.934080655200608,0.939155855647965,0.935985199867363,0.935750465086241,0.943580408865337,0.94177365411142,0.940069266563102,0.92314765832124,0.926486340683351,0.923498756796026,0.917688722173078,0.916226402180429,0.924319957594067,0.93454649260335,0.939700102678955,0.954157360624878,0.960507589359242,0.962159856146044,0.967142249861727,0.969465176535764,0.970160310106162,0.97193070097707,0.972199429520663,0.973120879540915,0.974123632086983,0.975242553800631,0.977709532192728,0.979642014135421,0.981183237627932,0.982801473656468,0.982798838432113,0.983669670201765,0.983006691961307,0.979179820386014,0.970403552423417,0.966265044031954,0.9659809481462,0.966592465443877,0.968415095047317,0.970996499259196,0.971813557714439,0.97153015439125,0.967959412009234,0.964160450866971,0.962560135046013,0.961935475926443,0.961874723349184,0.962148251685166,0.962990452017552,0.964001716260828,0.965836275408932,0.96724599045887,0.96862716679815,0.969579184984083,0.969759857337598,0.970307433130465,0.97132901234104,0.974684295777162,0.975108698172448,0.973278289357784,0.968016605248875,0.965628833524658,0.964766001005136,0.963946791922038,0.962915459562713,0.961449139095872,0.959926514329678,0.959771942512841,0.959289345662069,0.958365103232191,0.956997530732145,0.957962616863295,0.958190866076127,0.956513215946697,0.957367303487073,0.959597589576765,0.962229350419159,0.965453167880911,0.967425418014141,0.968077567543522,0.941021302518633,0.863810205690682,0.947009800518168,0.976359955375936,0.981816092305724,0.985637766279929,0.987774129593527,0.989770388045663,0.988234678038088,0.960716404934819,0.882854212958201,0.969016688409322,1.00046151588862,1.01285248535374,1.02619887014638,1.09073382275637,0.949256891195741,0.371477332701,0.47287057778981,0.950834285080576,1.04477259006817,1.04525299542845
0.910267605689809,0.911116710794584,0.913532199071444,0.919919614299436,0.925337379454479,0.929479549870425,0.931365578372276,0.93145444951252,0.931590215199795,0.932086328084866,0.933037383896382,0.933920816919933,0.935398149912441,0.93618532183049,0.935783715419008,0.933376779236133,0.928031985044813,0.923051752002232,0.921097542260726,0.920788535646281,0.92423762173192,0.926119705892115,0.926416695576938,0.926957203859014,0.926597847828565,0.927773358599437,0.927438107765622,0.926308491591995,0.924449336151072,0.799855542863361,0.318775539959965,0.305359612839571,0.320521372651063,0.292468130103352,0.65868235183482,0.800611610030387,0.889481540068623,0.912615251728926,0.917274089205285,0.91419152827167,0.919193723742786,0.922896811671802,0.925084891066333,0.905067140739349,0.895343944795794,0.887652427967264,0.890901173806604,0.910226776428882,0.902759402963702,0.900757443040948,0.897582153442941,0.900241587338783,0.907092874259053,0.910809088542008,0.916678724407367,0.93032471363478,0.921029557571097,0.918353634937962,0.918734588830704,0.920917916810986,0.924125998527013,0.931984681487528,0.924598892276844,0.922628452989533,0.924784103191641,0.93152356221044,0.92666862227389,0.928910779906168,0.934351868151213,0.939877385436267,0.939806901103995,0.947192636646846,0.947482610415388,0.942073745215609,0.920280701397428,0.91828076589226,0.923132014916346,0.922612655547888,0.925492620647364,0.947323075671623,0.952301507944609,0.955579147645389,0.964036798552594,0.966403953073323,0.966970582692729,0.970550352341413,0.97209082017859,0.972988791008715,0.973837537328773,0.97397955115603,0.975390075474916,0.976891018397672,0.978853078724037,0.98124084411754,0.982914891246151,0.984529718524485,0.986566944889519,0.986686987360272,0.986890638847116,0.98658840601876,0.988418689547296,0.99593696387312,0.974455310190731,0.966427415249732,0.966070776380105,0.968353200955009,0.969289084286268,0.968984035996828,0.967362768894525,0.964494116513972,0.962882022646324,0.962284923451582,0.962490904297678,0.963316682437285,0.964545544961635,0.965703426294766,0.966431101522946,0.967156423615951,0.967582075620272,0.968559835016385,0.970317133261735,0.971157069853412,0.972983497384008,0.974069955231148,0.976619247802857,0.975880155858427,0.972927164097432,0.968243117042822,0.967846951901899,0.968679054852256,0.968334107245548,0.967236335355824,0.964119789072397,0.96194595928242,0.962266373410565,0.962381338328358,0.960950285570015,0.958243545860407,0.957595409995525,0.957139772246461,0.956915598056705,0.958067577727596,0.960605937827938,0.962093049930624,0.964018393169153,0.964135875046523,0.937613978211226,0.755667773882043,0.520383356317786,0.874059950841643,0.981730229771987,0.984556883333692,0.98559427204124,0.987399245778389,0.961297872446394,0.852444872730241,0.75122884410141,0.546927564995782,0.897357032449797,1.01669448667277,1.06926924924253,1.07591196715712,1.11578152098523,1.07172282683658,0.907341068722366,0.900009665941144,1.01532283663697,1.04246700181631,1.04388500985928
0.931066607492841,0.918094633406913,0.918292393895727,0.921982996614861,0.925980098245441,0.928256919957099,0.92860933574809,0.929328838228673,0.931444162440064,0.933301913378017,0.93473425808027,0.935763491381833,0.937220764372335,0.937906127353174,0.936985722667802,0.934378669100983,0.929506162403537,0.922404278084685,0.919189608533418,0.919207449922725,0.923575872422439,0.927462992492853,0.929176135508835,0.930876685692973,0.930924123516046,0.930358372153559,0.929271335639715,0.930173633410874,0.932079741087282,0.907357641837683,0.815524916420188,0.849802032378668,0.784439083868757,0.194903315709409,0.13753456960153,0.26320310440471,0.69825216973338,0.939251781237383,0.95814890173005,0.939942295724306,0.843450625412482,0.911434031908818,0.836123542328916,0.889303124434178,0.897621943839397,0.891748713588532,0.899135287377401,0.924777067044134,0.911478142993469,0.918148450981291,0.911070820440313,0.91184506920185,0.914856726510774,0.920098101646738,0.925161484712827,0.920737205981989,0.826981010980201,0.90028347254105,0.920452231541759,0.909170730504415,0.911561253538987,0.929151313564462,0.923226251202184,0.920616902689336,0.919137360273586,0.929789226237666,0.924489955439983,0.926182869022249,0.93786688050145,0.94672509832231,0.948797387783629,0.952825659148745,0.947498273455657,0.940248266901706,0.929362851246048,0.927159065490662,0.904257263330926,0.829308154169769,0.915500212085187,0.969331117945279,0.967168363728539,0.966065831526993,0.968594024368294,0.969888534285074,0.97134372491101,0.973182747341655,0.97445426371592,0.975665520639888,0.976516932448887,0.976760347995474,0.978918150331426,0.979296625811266,0.981543454248633,0.984347085001054,0.986719431227697,0.987688014582122,0.988351481350794,0.98896995647491,0.989274235565296,0.989540138148469,1.00971332641524,1.0710282132911,0.995623285436176,0.969234916520695,0.968088768990088,0.968646478981167,0.968777570149432,0.967788750238234,0.964196500654937,0.963023804411063,0.963004614986303,0.963006069153024,0.963394163321489,0.964948947524433,0.965706091779406,0.966318394366756,0.967408311146939,0.96894994910008,0.969857699495319,0.971413161978985,0.973001281145911,0.974668713042307,0.977776037852642,0.98103027233417,0.981360604446402,0.975879885171791,0.969420799161952,0.968079131394321,0.970656054438406,0.973725460148896,0.97405060320696,0.97265328386749,0.970579095148853,0.966011935468892,0.96491166453043,0.965292085906874,0.963904553569067,0.959793418262515,0.957936058111909,0.95685328135096,0.955919834000599,0.956654497410055,0.959786669940424,0.960246296759089,0.961941655999718,0.961756488139566,0.859002943518699,0.519235107376446,0.765334074908307,0.953973395055547,0.983665845402106,0.983739800865813,0.98291700423004,0.964150728756096,0.744874690269849,0.314032313162508,0.425777736263556,0.846782559383394,0.998923660922487,1.0268216865832,1.05219551957428,1.09401618233574,1.084529377034,0.937013205429417,0.903257554563318,0.983206760716184,0.900868829428879,0.874889427108948,0.911298533938835
0.99973458716562,0.939370535262905,0.920971057746612,0.922910284574273,0.92624208660878,0.927557057775672,0.927314145939225,0.928812929854052,0.932504784456992,0.934038126865822,0.935083655232831,0.936382620367933,0.937866289838805,0.937981802148595,0.936893157892866,0.932838890351783,0.927176446252004,0.921386058362372,0.91794154001192,0.917814175000563,0.920151813828084,0.927576215546151,0.931385123436645,0.933075966860331,0.933285187618007,0.933021320705529,0.932897700784307,0.93287490855466,0.935647170622362,0.937008537330848,0.938979196867852,0.951531543709844,0.838492585994476,0.299484992551951,0.14049837008737,0.0881998041731502,0.395500156979146,0.944748502832137,0.973016307115277,0.816283607989718,0.459446780501388,0.858553432650408,0.580810762399349,0.862259465412956,0.922486156456211,0.914291934761696,0.928028066350089,0.937451876226345,0.938667048919504,0.957474044439134,0.948502891978927,0.926317485312867,0.93478877644382,0.937178576300696,0.93821099839939,0.842820417870984,0.530994013557505,0.834416845621579,0.926242994658324,0.911092083869601,0.911508952303749,0.930580336330082,0.936562599187024,0.923955844651164,0.919225069151584,0.930161670894477,0.926344474067559,0.930917256624145,0.953395483204641,0.957780257507471,0.960496912408399,0.977641109397735,0.929989384313123,0.818915016522726,0.826344703223662,0.927805875342733,0.850481612720023,0.535153932144272,0.854161000655665,0.966337718329112,0.970701355544136,0.970215987357461,0.970918736488901,0.972027070271215,0.97367950911761,0.974889892811653,0.976388792575556,0.977828346101357,0.979004295197642,0.980468330400155,0.981571550574871,0.979207866612739,0.983402664131781,0.985866366808323,0.987946844538761,0.989567726611007,0.990958649658276,0.992460925154483,0.992180352841633,0.990938621451768,0.993514001433327,1.00479758867304,0.983008785232393,0.970900343323111,0.969205432002576,0.968532792095546,0.966179518671861,0.965220501421077,0.964170335814202,0.963825909333594,0.964256053333928,0.964439255598855,0.964365807611261,0.965080827456279,0.964506477823421,0.965337945823849,0.966972461637742,0.970096057486985,0.971607322962145,0.974576285568561,0.987186054261077,0.99536167274676,0.984936418893676,0.983520153878127,0.983012747170934,0.978322926119739,0.970199023186712,0.969846657275712,0.974779290923782,0.978058232686121,0.978003051285362,0.97657376861146,0.973567553001252,0.968604345451299,0.96681096340051,0.966255985198757,0.965019871693564,0.960665159435798,0.959059307969832,0.957493999857976,0.957012256445539,0.95743678332628,0.958492826218223,0.95995565092521,0.962773161126916,0.964575900370584,0.942177622706751,0.871447569058414,0.953605187930763,0.982491076793245,0.983932310080014,0.957160566122108,0.856250253623891,0.754644612498996,0.267153880705289,0.199976064759552,0.819339239859697,1.01994902218597,1.03170018148081,1.07205040812629,1.07655612713929,1.04794080464876,0.902867440121386,0.362707049971949,0.4451057319531,0.815118844428562,0.472540892092717,0.362964597911431,0.503576696428598
0.934802467516598,0.923200474274211,0.921664757814357,0.924044162429389,0.925207344476091,0.925721331537142,0.926796322735096,0.930177643435887,0.933340372684598,0.933857972866134,0.934520407267248,0.936208958679697,0.936373869888737,0.935293092784608,0.933961965055216,0.929519013460279,0.92546040271563,0.920502949627853,0.917704252650288,0.917781841305684,0.919243217710479,0.927434448859045,0.931427547399041,0.934027796730894,0.934931480629454,0.935070549535279,0.934954725024718,0.935005283272985,0.937676787611312,0.940187920789329,0.941730208929192,0.942146157939337,0.916823970560927,0.810909449016494,0.683579853236123,0.373538532460815,0.717729033510782,0.939958973241875,0.851477948487008,0.428238809668584,0.367494931117118,0.925708331552328,0.840834737744239,0.934162122711867,0.892188283659591,0.957705785344108,0.98140954022958,0.977382711879,0.977137915718289,0.975520140075019,0.923939463948335,0.840939854840681,0.949366248002946,0.983132178964515,0.980148056698298,0.954159897588055,0.907414999418493,0.958307722256716,0.966681259142036,0.937235749628394,0.930481624776925,0.947210365158954,0.967319668860496,0.944508331369563,0.92942905652072,0.932569122250977,0.918710613722784,0.855938944561166,0.96362939435254,0.982898437035195,0.972313874782279,0.973890655112659,0.861644957911405,0.435275056284564,0.43697540232444,0.85853474108043,0.938020442583838,0.860636430980822,0.93988404202866,0.967960220000697,0.971743189423432,0.972279757362876,0.972005594268916,0.973409286266406,0.976300909209389,0.977323396749083,0.97905196742526,0.981480923244696,0.982606304804125,0.983207900431996,0.98352900981008,0.983524761544464,0.985775831339344,0.987172339213248,0.989420244792952,0.991553117528904,0.993301407938882,0.993942179604406,0.992766644427001,0.989169762818868,0.986243469714756,0.982872331861735,0.977496664567248,0.970282783863024,0.967661552990237,0.966210164671052,0.964003531328409,0.964016304711897,0.965236979556636,0.965121026300148,0.965646161711217,0.965346814356851,0.963871370580083,0.963692858835025,0.964565105877158,0.966535182909593,0.968729663899746,0.971792187061253,0.972909848826853,0.982388784584386,1.02904850998335,1.05371243095147,0.997959279476229,0.982858893936377,0.98095615287098,0.97858455066797,0.972068492915829,0.972611017445287,0.98032527525916,0.982082722026954,0.98057764511311,0.978613527026926,0.974149663631999,0.971154487504216,0.968028651852602,0.966843137701702,0.96589101259612,0.962121796946717,0.961032027564951,0.959895288468691,0.959882468784895,0.959626462598808,0.959873112193389,0.961506662744856,0.964081528533827,0.968174737956185,0.974069164914298,0.97951007391154,0.983452036561934,0.984721792718394,0.984012147241047,0.876347633134452,0.419340529423517,0.210462357179461,0.183194465265379,0.359209691449007,1.00140814145677,1.05122503383133,1.02494224984781,1.03478331373415,1.03537796245076,1.02307768120124,0.888502295332457,0.428074007023198,0.694557076920703,0.977954143258623,0.923433131043116,0.898382109728311,0.936518784815927
0.916234329945539,0.918469809972937,0.922811559786686,0.924093055026279,0.923596876714503,0.923029979148263,0.924336354302095,0.929859013191691,0.933016486906483,0.933557522415642,0.933922986881162,0.934190428538778,0.933003523531966,0.932162392186921,0.931374483232355,0.928943798310097,0.926986865900327,0.92287581736105,0.919232822349504,0.918765730169705,0.919694279468204,0.924975738633305,0.92899209391387,0.933502278380547,0.935414277007985,0.935994894202816,0.936338253455476,0.937508853284946,0.940795983904819,0.942279867694158,0.943006287616728,0.944037705232867,0.945491324365263,0.945076286982879,0.919624812044295,0.843694351569385,0.922637368737766,0.949458594705113,0.92492644907424,0.82501698412323,0.830035109098471,0.865726265402164,0.573482479112048,0.696315064504371,0.509670286650093,0.776130903401617,0.959356767423988,1.01087587569424,0.979817041186679,0.878229575620042,0.833070396083735,0.448782186845683,0.899830072697437,1.07994393936584,1.05310494336482,1.04657295846105,1.16380775494915,1.03158908783887,0.988827846709988,0.982258515997597,0.98359254364392,0.987721063151642,0.999572493094078,1.00123986111198,0.979794665227906,0.971003338257302,0.867204377560832,0.557120917362365,0.914548570929707,0.986731569023687,0.974777426623641,0.973991140525726,0.946771851999272,0.840154451422805,0.839365528073371,0.94310467545662,0.966845714563751,0.966162404062788,0.968018006958056,0.969987186756999,0.9728030020964,0.973619046317213,0.974846889835464,0.976624283691865,0.978800982855649,0.981130805002288,0.984436529134549,0.986205547474122,0.985991398575047,0.98475728234079,0.984517755522794,0.985225923404929,0.986580051496934,0.987831752438331,0.990968943756463,0.993147138479053,0.994666858421167,0.994791332876682,0.991555865019473,0.987826172536483,0.986224965077338,0.980614846412567,0.976441150638036,0.970972195331347,0.965499011511996,0.96359073285475,0.961794273318506,0.962248612025373,0.964198068100725,0.964585660340435,0.965293963860195,0.964646463019463,0.963425491678733,0.96410315509916,0.96643199164555,0.968512395007295,0.970877687746945,0.973541884520178,0.974751760492473,0.977044091301732,0.987095724871797,0.99504698876696,0.981980745587209,0.97931769288685,0.980345533775744,0.979919166630007,0.976007750372559,0.976922981085113,0.98243860654817,0.982739829663787,0.980256805343584,0.979483104232625,0.977150248202395,0.973359539920441,0.970318535220044,0.970086350828636,0.968997506085452,0.966601720899948,0.965771608438549,0.965407881917897,0.964384824086269,0.962074692378067,0.962012758938174,0.963286729282326,0.96558815175594,0.969939080738282,0.975304363519139,0.979590801963662,0.984505929362379,0.986717691750641,0.987542907867113,0.960230149714084,0.72153304341244,0.291266979293894,0.733678166877201,0.945963801110131,1.03759056606083,1.03164949279276,1.02362116966287,1.01964816351022,0.99239414500804,0.912154730632824,0.995127795703979,0.842567956179722,0.462915531506713,0.924472702748824,1.07075632215914,1.07645092925081,1.07836478624779
0.915487260783886,0.917177163804933,0.921994124841409,0.922658952794871,0.921930572281975,0.921813108812868,0.921874474834731,0.92383484034659,0.932633466262734,0.944794447349393,0.933924921934016,0.93031182775295,0.929906163013789,0.930117214070555,0.929487593066438,0.928951126531102,0.927421027589793,0.925220556473878,0.921654967315683,0.920282327373586,0.919898627743145,0.923362343089173,0.930530113162888,0.935171898991096,0.936844696394014,0.937416658429241,0.938305867414722,0.940625205409399,0.94410462202224,0.94543979716851,0.946125621306511,0.946740966836242,0.948112782353842,0.949024261404017,0.950258548988331,0.951185995331748,0.953789422670282,0.955074355811162,0.955806222127608,0.956645249096774,0.960671257934441,0.960568500625525,0.777065040660154,0.40307634426106,0.647431283027589,0.581325047541532,0.936335259950925,1.08156799967642,0.887614444494916,0.584853655675834,0.871471478447515,0.376328696503655,0.863476840596321,1.09461364585808,0.93702416566858,1.02227247201446,1.16753403254992,1.03541411744511,0.992890978542813,0.990589161532316,0.990828052857982,0.990866949953967,1.00427584983515,1.04180818216067,1.00834626787712,0.986281513683552,0.955527269794737,0.873768805280801,0.961776143167857,0.980637707126914,0.978412251256825,0.97876794708867,0.976505822072624,0.973584164216298,0.972980828129531,0.973184545517697,0.969699131452142,0.970611975825533,0.971495657696997,0.972680603928145,0.973908760939188,0.974919615387793,0.977650306096629,0.979780490100449,0.982517463605941,0.985216239739355,0.987769916579208,0.988342797286823,0.987714712425213,0.986547223736122,0.986440692578468,0.98622518507977,0.987264286488394,0.988793579696931,0.992106056721092,0.994352369618705,0.994914289196372,0.993277823842451,0.9892087132022,0.987439912768906,0.985965358942184,0.981309566270616,0.976852882617358,0.968593720076109,0.964201304930647,0.961757143139546,0.960968813095426,0.961768952294102,0.962365520672938,0.960415868568097,0.962651435056408,0.970561627798033,0.964846881368994,0.965478221106,0.968159325701769,0.970336614204027,0.972455304124281,0.975727038716468,0.977074268859608,0.977539019813458,0.976914651744557,0.977175696678795,0.977929105315637,0.980550892395344,0.983079436245738,0.984759833330939,0.982334208155895,0.982100630825365,0.983255807863747,0.982250408321645,0.980779827934779,0.981003548767005,0.976822347082091,0.97452895107728,0.97382317001266,0.97259278208075,0.971179184969071,0.976665158624249,0.968990783455305,0.965657980092096,0.963488044356472,0.936543017248495,0.832386200308517,0.835741111015627,0.942096260197953,0.970792476677441,0.977770867058889,0.981520489770888,0.990124269451903,1.00835709568232,0.996296101359173,0.963262731531278,0.752593332719431,0.453739349992789,0.95181868778528,1.08967719207003,1.04050914403968,1.02691121168433,0.997779775923662,0.882865430672136,0.743647524549035,0.420881489338588,0.814142651089288,0.789751777482743,0.349120351758519,0.900366677115179,1.0767059861664,1.08166095915465,1.08060734656468
0.916628111397652,0.918369936017443,0.919459019291457,0.919363172718695,0.919929724558763,0.919817896712945,0.919681031362582,0.920479697110396,0.937555743076098,0.987577670534037,0.945102958654806,0.930783043074674,0.930530858682879,0.930847131150441,0.929899210996393,0.929516222420994,0.928759707504669,0.927580553221047,0.923046813295203,0.921942028211493,0.926231668256579,0.943826136244816,0.951411567277568,0.941488063181094,0.939531777278942,0.943509064449849,0.95476937154025,0.948194454170127,0.948574217045946,0.950640999240866,0.951139938773934,0.950779797534336,0.950534001818343,0.950488783634668,0.952218805630762,0.957442607123498,0.95878880932707,0.958106239143962,0.958707148410745,0.960564917530427,0.953491233560543,0.846790889350659,0.474606646762571,0.357528316636485,0.881342752211235,1.10974055545531,1.1280326151479,0.980728001515744,0.604508968393767,0.812854758219657,0.905922755853564,0.372554201875994,0.508408750742604,0.908287731244702,0.589633321787826,0.899963250928844,1.03145850843257,1.00618443829524,0.968954846063328,0.885950246867263,0.965897942874335,0.992812186034646,0.996536790974856,1.00551636462392,0.995669408727954,0.988639090443676,0.984782564213817,0.981093315140605,0.981059951104458,0.980798857355306,0.980773582222559,0.980948093203761,0.979860934188344,0.978348669440058,0.977074706364681,0.976648600606493,0.975636435397092,0.974118679596035,0.974340498991947,0.975375235323078,0.976158488335203,0.977435339302362,0.980095465923317,0.983309174119598,0.985998732072992,0.988971070976685,0.990128189084695,0.990268049239785,0.989589885870758,0.987831429489311,0.98741173222789,0.987326778715551,0.988408572668148,0.990598633511451,0.99395390091071,0.9945217048167,0.992863915898279,0.989751755005986,0.98731426554479,0.986766400689923,0.985004159138647,0.982393512658141,0.977562942321164,0.967951537640472,0.963682149101155,0.962231235481398,0.961989161081095,0.961437792261599,0.960121873889376,0.958194474496184,0.965479019487126,0.99701277286478,0.971848019801063,0.966653593348133,0.970218230414227,0.973479563026247,0.976276421595696,0.97938577556604,0.979181264576798,0.978631849067853,0.977974120821856,0.978578467482303,0.980858051687318,0.985583461248642,0.988650863628006,0.989043472053552,0.984905168159253,0.98337176633593,0.983675169015101,0.983233671350829,0.980924429477675,0.979967271469397,0.977163347248161,0.976599618121554,0.976855477395321,0.949360398863058,0.880147764063735,0.998752807239384,0.980139694713936,0.964617997188713,0.961723339705169,0.830593405497256,0.331864971286053,0.41706496929062,0.865009170178943,0.97272845719013,0.982118293224091,0.985273860892401,1.00747214552187,1.0723252847238,0.987414432536798,0.779596537886016,0.524583274499083,0.859878036114413,1.06570607315353,1.05562011802548,1.03567937293837,1.03082713018357,0.918470747101825,0.449047805383246,0.214414372207831,0.190456526576731,0.227334381618722,0.315618795708925,0.367900785135855,0.930920273596931,1.07920952772419,1.08233053665449,1.07991130537354
0.919068750553203,0.919861856554098,0.920073503140807,0.920224475420859,0.920777772135093,0.921222703618763,0.921160268216938,0.922201257850058,0.926594952935624,0.940410771527672,0.934246735904243,0.932201646290126,0.933072124848991,0.932713474265261,0.931743641637548,0.931060466460051,0.930702019016713,0.930012742933317,0.92481034664679,0.923707021141619,0.939868578800803,1.0096421641023,1.03909101374606,0.964229698683,0.957004821276696,0.947151112570942,0.911264581532449,0.962371969689275,0.958200865722317,0.955026205458215,0.964397865533742,0.989774823450652,0.960961283160836,0.925524127662963,0.857796819430318,0.966876389614827,0.993506842880046,0.967914668702846,0.967701929540705,0.988754052884404,0.889199581201991,0.596186673087762,0.915305651949152,0.921856741562655,0.963261797085969,0.955049965283743,1.06601917217221,1.16906074983491,0.954115437271312,0.912118130067999,0.975500710593789,0.899061562829912,1.07013412193191,1.29399307078176,0.973537474996964,0.986698577293535,1.00641794751428,0.975442246370482,0.783357455868208,0.53378704938679,0.885917551017583,0.992778497547694,0.994721356728325,0.994764304017469,0.992947629187832,0.991646205589806,0.988648781867116,0.985347123104029,0.984298961270374,0.983485209007573,0.982716808328364,0.982806016046952,0.981412197886965,0.980152386697511,0.979803251099266,0.979611577103987,0.978684919305638,0.977208384906515,0.977601299911725,0.97867838804176,0.978956446141068,0.980842044110846,0.984209036316221,0.987453418819154,0.990592265199952,0.994013753203497,0.993598154425911,0.992595656109527,0.990925629003163,0.988521647782392,0.988079908040186,0.987899716156408,0.988835610846302,0.990712485574582,0.993472353565397,0.993845945814032,0.992910001484479,0.99062140647806,0.987240824762016,0.986510085873256,0.98309156594382,0.981201155183221,0.980588901951093,0.954058858261515,0.862939104075125,0.936819065102259,0.961885903843743,0.961253361757498,0.959691705430488,0.957334253317079,0.962134682616306,0.988444100986682,0.971795109310642,0.969523284881782,0.973285122636534,0.976228613729231,0.980279017586738,0.981327927568369,0.979589976107721,0.978749757686256,0.978850496228095,0.979967163493774,0.983080483993352,0.987105161849768,0.990026597175889,0.990107354232232,0.986267220019437,0.98424725109334,0.984073468799159,0.984187148619585,0.981525396784274,0.980778260723315,0.980974934090423,0.981141587925639,0.981402085244192,0.877267379793027,0.576043629297777,0.971384620340512,0.993636619024556,0.967831439194342,0.974052284197288,0.838512022725189,0.416610044340759,0.746282414033513,0.956810209324454,0.982832825167474,0.986198648722832,0.988939093301012,0.998004803085441,1.01580936951205,0.867999792857643,0.426927800471746,0.776657868794895,1.01280400131256,1.04528149207541,1.03787098233858,1.03703343293281,1.00894921459502,0.909887540671312,0.820735964263045,0.433012893405925,0.657173427161641,0.424407431293407,0.783824555677401,0.931035152317666,1.05292642976094,1.08206410906444,1.08258525940812,1.07846593699815
0.921466711098818,0.920949943111449,0.921865270354598,0.92584879660431,0.92868461070707,0.931208310146974,0.929939751972867,0.929429555100956,0.928991981475808,0.929840051392554,0.931686229139754,0.932636530907403,0.93340643641466,0.932597690097375,0.932229771824233,0.931513400725497,0.931101546475003,0.929934485794522,0.926201083913517,0.92601625709704,0.932371825936223,0.97224812444773,1.05022660749676,0.992212973292338,1.01108368242782,0.91989155579006,0.588841308397503,0.950974068011307,0.980553439768715,0.95935812300405,0.994549701389054,1.10084195980995,0.964319701296217,0.747380053881621,0.54089893118809,0.992691575945814,1.10061351891855,1.01251840059096,1.01701995292561,1.11484816771338,1.09095105085179,1.00917202738321,1.13337660951448,1.03997510818398,0.892553336926815,0.451060199281424,0.865424343666715,1.08514563339599,0.542790273554496,0.476498930113337,0.899061868380191,1.01294532992608,1.06730639264022,1.09427412371555,1.03440431963796,1.04570553787885,1.01686004065732,0.898824593160164,0.538392087466385,0.786424963800009,0.972366282051285,0.996615330164103,0.996033766245152,0.99609493004169,0.995342297616924,0.994381768677365,0.991501805537277,0.988048235763527,0.987645536844285,0.987342121053778,0.985674096050765,0.983980658384716,0.982055673164538,0.981402830968924,0.981229192527276,0.980570370866314,0.980090373144985,0.978680232379219,0.979662046158685,0.980799403266368,0.981638431836371,0.984168070936136,0.987376568475225,0.989613986759277,0.99356383524275,0.995566038430873,0.995475945534879,0.994016479536498,0.990449486731738,0.98847949176066,0.988522598159662,0.988817054459117,0.989227041266512,0.990034461883418,0.992197610734965,0.993556624980591,0.994286364245978,0.993163557837861,0.988801673712197,0.98719577382995,0.984166490943414,0.983259034736395,0.991797082380692,0.916473180372354,0.559840347411547,0.870350800326116,0.981814222556078,0.964118858685115,0.956346458947183,0.950712103849281,0.970828214689904,1.04045261250714,0.988820432519088,0.973400145958197,0.978271865803943,0.980329344071505,0.981673564668752,0.981347052397565,0.980747460394975,0.984151341762805,0.996768347923021,0.986468135132856,0.985754891432611,0.988112706525968,0.988508066642272,0.989154880341464,0.985074477235867,0.983136879535095,0.982844481301892,0.983687044673448,0.982531281066574,0.9818298244446,0.982956545840189,0.984571432583859,0.986921229835739,0.96202031757057,0.884752866744286,0.974274041154278,0.978086269447958,0.97892511181437,1.01356267776181,0.963006402511413,0.877749010603605,0.961044805170093,0.989078762418122,0.988798460290247,0.988124655310952,0.990008392363323,0.995468410637651,0.998055824854459,0.837423010641495,0.318486594612397,0.744085760866588,0.998254030984087,1.03234155147335,1.04083835839313,1.05761044374313,0.9332258230838,0.571767982144108,0.84893530583454,0.929158532371436,1.01107054882733,0.966332770796386,1.05189458710839,1.08103881414157,1.08471454319215,1.08638848583354,1.0858344500237,1.0529216006657
