1.51320190242565,1.53937434903271,1.54333610054082,1.55385635304036,1.53769126000392,1.59673977311021,1.58983683810712,1.59077168416027,1.592633020271,1.56627987502177,1.52315701641548,1.60311060826867,1.65128000000009,1.70541604206807,1.96640000121419,1.88170698673109,1.84812154950023,1.83855699743203,1.71995450771034,1.81056207269392,1.98968000001423,1.95931506373836,1.989312515032,1.98883415956588,2.00114602104935,1.99347264315027,1.99248096857878,1.66818837029168,1.58442000284325,1.52651139853079,1.51247672333956,1.53724789745824,1.55106873860808,1.58247362561838,1.64675757054715,1.46624063377221,1.36999831915496,1.36233005942747,1.34793754653137,1.35388901387918,1.35375015269345,1.49271836393747,1.57106761418379,1.53765766133477,1.52339233429612,1.49768659199535,1.41705655749617,1.41917629688438,1.4207073821955,1.49210741698936,1.53247069174041,1.5182269458845,1.45381123691309,1.44891203342558,1.40278208410278,1.43994368657342,1.43791969060005,1.51052335443272,1.71830308158568,1.71873656317786,1.71714857659346,1.53307593765332,1.4248343758095,1.41119503574613,1.41176079530929,1.42003529907279,1.47829186202805,1.56929491307149,1.71228651997034,1.73451355397464,1.80083645974524,1.45987881629658,1.46345394871507,1.46609142685972,1.46670138135304,1.50510961191604,1.50344079981182,1.54939032384431,1.53196189175297,1.54495406340293,1.50194409942007,1.52191650519646,1.52473482709669,1.56892933148495,1.59260695302927,1.79664833915925,2.00205761252343,1.8973379122673,1.70685335438587,1.69636304452456,1.67221272739499,1.66574393482448,1.63488025563998,1.75662788133233,1.80488013805079,1.86385820945074,2.0131312579014,1.66784296168313,1.60646118602846,1.58471068373653,1.56960072816483,1.60069651163359,1.64522833600208,1.69025677106172,1.80646531557128,1.80045907353971,1.76639736721055,1.66226769143626,1.74795000001423,1.49429915855355,1.45916999900254,1.49953062239283,1.50434019731826,1.65613343637401,1.64969852641629,1.80858101154204,1.81111101908058,1.55984464839766,1.54521771428591,1.49024505896953,1.47148715048922,1.49412357228401,1.61361714772376,1.61793005572491,1.86251000001423,1.56555770237351,1.48682000209665,1.44859196965872,1.44902721485994,1.44623765967031,1.47083669911689,1.54647138791439,1.6893599992972,1.56284445376448,1.53044371713532,1.51066633366612,1.45280506664233,1.47540743945064,1.4650627470728,1.58041915838992,1.61160000164497,1.56137711981036,1.49721058941779,1.47345256724533,1.44988448410773,1.47911616667514,1.57776198471227,1.59321899690001,1.6081547355175,1.67814983526674,1.71744991831177,1.66857677085661,1.62752814051851,1.54142086456765,1.48544531213886,1.52475344494019,1.63334484359114,1.64005804694313,1.75652428285274,1.78124131274284,1.88849000001423,1.59219301833591,1.55650311810051,1.55938574371016,1.55334172003374,1.65217372545154,1.67106999850227,1.77418806358372,1.79919965070666,1.55592295000194,1.49805642639452,1.51944785643924,1.54776469976541,1.5621137134616,1.58612250397281,1.68458670037968
1.623697789679,1.58001651467758,1.58067872470404,1.57856594473685,1.70771000052438,1.64397479682546,1.65573365015437,1.62759365164363,1.58894402212318,1.56537463244636,1.51085044002675,1.57478533212145,1.59536000116914,1.67410537191264,1.86973757927978,1.86832294641218,1.86538974620146,1.83387726985868,1.72237298245519,1.77669305561298,1.78690327841891,1.84697491924356,1.98672197162157,1.98750663922138,2.02228317469919,1.99239232959687,1.98967514932105,1.66744247386041,1.55307000003603,1.5193869864425,1.50557292815954,1.52551722030297,1.55027147328073,1.56012643786069,1.4158176339612,1.42438335061961,1.34762996104421,1.35577076160551,1.34650390475896,1.36231304990927,1.3920224995934,1.4883137578891,1.48442628790187,1.53905653008733,1.80361000001423,1.49218855181326,1.42608305996864,1.42520899817836,1.46510711965318,1.49665986489309,1.62089000000711,1.54961968796768,1.49180021578862,1.48436951459829,1.4779222297655,1.47324059566045,1.48156141101885,1.51496327372307,1.72259173793799,1.72038784022973,1.73114933813095,1.52726767743618,1.41510594599996,1.41310860035968,1.40919778527088,1.42121185658041,1.57879414027101,1.58279334307908,1.71081311511383,1.60737736383722,1.45389239009738,1.45695438661044,1.44013412113484,1.46675478005932,1.48861461561123,1.51614323831721,1.62344000132364,1.56296417659536,1.55950092475648,1.55157277892872,1.54902989380478,1.55040794869538,1.56821713314241,1.57370828914394,1.60851688577767,1.79578249739024,1.94895999775831,1.89607855963144,1.85778679595051,1.72874554094764,1.66163965366349,1.66315553073285,1.63344694199533,1.74680456541217,1.751822161703,1.86307547570907,1.97883999915826,1.67924216486591,1.56663158914863,1.57003297605708,1.55686804718045,1.59907557599448,1.6770473195084,1.68972291228508,1.79300731099853,1.7906154607589,1.78899176107844,1.6268256773717,1.51481412661176,1.50539969303479,1.48310919523881,1.50823519491355,1.52717908600828,1.65609378952888,1.77831709334871,1.79870512270879,1.80611184242808,1.55732579596363,1.54893081560291,1.4905381497854,1.48930906157891,1.49212051511264,1.58845898756308,1.62170634090696,1.64927,1.56757184685223,1.45321337661183,1.4507709588781,1.43662063849591,1.44084326004027,1.51136000124883,1.54342703558263,1.59180362942177,1.56655971968066,1.57062367102062,1.51156695549776,1.48375164976367,1.50717250065309,1.61496029965875,1.62095330542653,1.68967130481011,1.56511418285605,1.5059392339883,1.47641845232069,1.47932146081283,1.48069204887537,1.62474038816101,1.61546732691779,1.64756435611199,1.67288947320239,1.73090948324525,1.66760821721789,1.6656545350928,1.54558724343644,1.49837729820348,1.52712838201512,1.65846906166557,1.64526413003419,1.90106000028988,1.79397269838459,1.62780000090614,1.60024769648017,1.584503209107,1.57234736703658,1.55446897493539,1.65346466530425,1.70341036577932,1.77365538944974,1.90061000001423,1.56280001013373,1.49546926369504,1.52107611501851,1.54272606868485,1.55966287049189,1.57727924560951,1.68605117109056
1.64167820049345,1.57913288712584,1.54795357940907,1.57721771759066,1.59153042307732,1.63526292816102,1.78652000001423,1.66819531608008,1.66693362352207,1.56349181217793,1.50155254125103,1.5471555533029,1.54999579048297,1.64785683773455,1.87235752525558,1.86779583454923,1.84884126298603,1.82769262584781,1.72472250791854,1.76466392284284,1.77274542568112,1.82473079270359,2.09468000001423,1.72571915546243,0.00396959007018839,1.71218323759634,1.97215424101152,1.66663257885533,1.49263157863822,1.49884157226914,1.47635959166407,1.47676116763689,1.47795915382693,1.56566176115276,1.65124000001423,1.43029653954212,1.42960754718592,1.35806391105554,1.33240856835817,1.36402949315265,1.41313000160064,1.50059317038197,1.76901000001423,1.54152899121913,1.48626828136807,1.48480921906794,1.41453310515402,1.42494425742259,1.46471378558217,1.50195531665666,1.74172000001423,1.62279223849685,1.60581764670489,1.49357326386545,1.45043576477405,1.47001658273977,1.46313878735255,1.51916169351197,1.69279818474343,1.70306533598129,1.7055650673596,1.5262541672616,1.41754943729526,1.41145199206274,1.40236222189724,1.42146263972559,1.56056277846654,1.59288024084332,1.83362000001423,1.57781158161238,1.46221922366702,1.46144151314694,1.47687689959555,1.47392354409994,1.52444174096658,1.52597627541264,1.55278866045151,1.56581036838394,1.5856763761413,1.55726995413426,1.53557652444062,1.55046461800559,1.56711667738659,1.5789401361454,1.66816155620883,1.79540523485793,1.98679000176345,1.90968658024245,1.91711902756149,1.75150821764251,1.70799260192211,1.6849232728919,1.65460279867816,1.74078173313499,1.74329377262758,1.86087439112477,1.85645757231391,1.68868538480308,1.57856715379791,1.57452611114001,1.57404909396121,1.59773594177168,1.68693976866685,1.68856676900621,1.76197160375261,1.76281231068455,1.72673575173694,1.59789493611021,1.53022804847108,1.53279604963916,1.55484747946276,1.54443682088232,1.68597004385862,1.65498005304401,1.65285186919272,1.71613727575918,1.71707715644151,1.55539527694862,1.47439053786128,1.47286331983635,1.47208502036877,1.47044016867959,1.46900773433905,1.6246648639356,1.88556000001423,1.56954270553983,1.46382400528676,1.45170891922259,1.39859782877628,1.42460115070982,1.39890728528801,1.54196764041142,1.54324169893143,1.54328909624042,1.53270641636168,1.51445213284446,1.47271834934353,1.51634259921134,1.63463881871334,1.63370932933647,1.70646869521123,1.56961716840837,1.46879252420963,1.46719356531411,1.46251608977393,1.48367838595039,1.49482453923243,1.61007992572211,1.63852564528363,1.66772667996765,1.747780600674,1.65851245360611,1.5549276794249,1.54970740465797,1.49272699778624,1.52837743012536,1.53069621202503,1.6344188135557,1.84241595718357,1.83686245672967,1.90614000001423,1.60487523148909,1.59965748983663,1.59760088810492,1.59343171830683,1.65465572134961,1.7107916090189,1.7738945912554,1.82313000000711,1.570494185599,1.49711197689561,1.52169102783594,1.53785353183088,1.55585277111647,1.63668000125258,1.68795179036415
1.64749403644407,1.57808265446796,1.57727522738894,1.57710336410529,1.60312929348471,1.62845408459165,1.70320138455982,1.66957133713073,1.66964705419287,1.5608015477269,1.54040643999876,1.54393772708315,1.54644308583618,1.62830835472152,1.86793498054166,1.86761118371086,1.84198314466348,1.82282216428046,1.75481682172383,1.76111885036163,1.76459960434535,1.81147529100824,1.82478701332706,1.72254672815404,1.71648139320814,1.71107863795466,1.70695483055739,1.6658018264055,1.50312824935276,1.50437085320354,1.47642753354657,1.47555001854598,1.5262161594558,1.56990321426428,1.57122761988375,1.43476017969897,1.4013809439851,1.36041162448721,1.35927481666068,1.36610002601517,1.45799991345793,1.51246581426005,1.54728794143676,1.54451826946603,1.53261437295782,1.4782781279784,1.42604782468607,1.42507782033192,1.4972519905345,1.50839894872492,1.64929473767675,1.63484805598761,1.62279501020593,1.50135023833715,1.46231536943341,1.471443859507,1.51572318286632,1.52690550187063,1.70024847889128,1.70148981964674,1.70262250203296,1.52340997677081,1.41388975734772,1.40945174880157,1.40568348389235,1.42103390452587,1.56626641464295,1.60629588797563,1.63835351437332,1.56283162407705,1.46174273594451,1.46045253876706,1.46508961341298,1.46964177772363,1.51244092732335,1.52638640336168,1.54483299839866,1.57038427508604,1.57561744479138,1.56538935951598,1.55057649357624,1.54968081651377,1.55912448602691,1.58490654114216,1.67833900517415,1.7958269723631,1.89989141881615,1.8999179848817,1.90042151442776,1.77354472503481,1.74527753852268,1.72822725616234,1.71960664345976,1.73882024986968,1.74041821231617,1.86188245875498,1.8603216142551,1.69772787226361,1.59668913078928,1.58891673838646,1.58318723005536,1.59622666671049,1.64792172379634,1.67768800545979,1.76205292268482,1.76270482240667,1.74240590761326,1.57350431767831,1.53285101184546,1.5345591781815,1.53700014379494,1.53833481430776,1.59503963426403,1.64416220514625,1.68709267772311,1.71566808112946,1.71606100157672,1.55217153953236,1.47299866672016,1.47135318095412,1.47019459319242,1.4689845402423,1.46815154674803,1.6267464823085,1.62778632974169,1.57126270531572,1.46782076971758,1.45455621137157,1.45484811162977,1.45259852402958,1.44582829240867,1.54101437527612,1.54210200735315,1.54282998206196,1.53488728569272,1.5186468611095,1.5204038428286,1.52139598065099,1.6224636380015,1.63171746610434,1.64243532723046,1.57963556375165,1.47571020990136,1.46445114615333,1.46245664515462,1.48676824394266,1.50495013800022,1.60309320304766,1.61605398647049,1.66498094437882,1.68666615000438,1.65320612035545,1.56955296986577,1.55402410644284,1.52412845795612,1.53768787899982,1.53862676575948,1.6264874781311,1.83060053869677,1.83231576979395,1.87096193239431,1.61260418818029,1.60663704624737,1.61037230961784,1.61258064292435,1.6555574979555,1.68305812775425,1.77309497631659,1.77557846513489,1.57794940202887,1.52253430764051,1.52223153998916,1.53369800293979,1.55151517892702,1.59873255086515,1.69086479675571
1.65523375676976,1.57741492588825,1.57623917473308,1.57693688232613,1.6205024466872,1.62350594127208,1.8044012117147,1.67100266193829,1.6725353573321,1.55639640352148,1.53531163141967,1.54172580349307,1.54509222241413,1.61219446983091,1.86707983718722,1.86644590631165,1.83170722099194,1.82148174822348,1.74657733206893,1.74409286244131,1.73545110005567,1.79104930325944,2.22500000001423,2.04082239750093,2.04687094927959,2.01313605541781,1.99394218103773,1.66545992145776,1.52131912724102,1.50880413478992,1.46021699276547,1.47168157942704,1.57444662598467,1.57243532086212,1.60882000182854,1.44019870106312,1.39126086543762,1.36527689101043,1.34509467074649,1.37069173573316,1.53699864182858,1.53910420208705,1.54950371217075,1.59396982681549,1.76013000001423,1.47061847486952,1.4121975216762,1.42413942769909,1.53716256026891,1.516406122721,1.67280690296386,1.64950068541103,1.74912001412093,1.50703606164195,1.45015947412413,1.47476421734314,1.55536112362688,1.53757432930179,1.75834865626529,1.74543357609532,1.74919017683722,1.51787231716071,1.40277124271667,1.40633544222124,1.37911431383415,1.42034218523326,1.57222310625698,1.62002893093445,1.72944000001423,1.5444505115193,1.44412927667821,1.4589305946912,1.45620642672191,1.46914542210565,1.50169335195264,1.52632256408797,1.53763627498226,1.58943069042904,1.80597000000711,1.60722899873229,1.55192342256305,1.5485352885194,1.54555970084342,1.59052960262019,1.68819614859926,1.7967607073567,1.89958835300254,1.89971988545122,1.90063712355843,1.78577417247588,1.76838999984479,1.73692627739265,1.70914733324889,1.73642842046567,1.73518390226895,1.86273487619224,1.89052000000711,1.70615762287098,1.60911724095607,1.60093035495416,1.56039194351179,1.59469752139994,1.59564319201661,1.67059896504331,1.76091094708588,1.76228633108045,1.79637000234743,1.55217823997037,1.50003127410251,1.48732376164676,1.46958644607365,1.52471382489794,1.55207429878143,1.63429077205191,1.77097604040365,1.75293779953013,1.74590789268106,1.54864042623011,1.41727337671963,1.4697299571833,1.46654632108153,1.46721332886667,1.46536839253494,1.62735140908306,1.8306139643156,1.57268201333035,1.47998313410262,1.45838011696415,1.46058055315225,1.45595430104123,1.43709087309959,1.56294583792031,1.66051000000711,1.60440690782754,1.58598000203671,1.52082394291124,1.52468146414311,1.52179850069209,1.60799412244926,1.62939981404289,1.66090889390269,1.59026845418467,1.48871709240671,1.46447494352073,1.43942401283909,1.48950172012696,1.52595836972603,1.58680696037252,1.59077408714936,1.66226435246764,1.78972532220883,1.64766529857255,1.60012859586756,1.55877039658129,1.51474460636811,1.54182501319597,1.54998199905864,1.61875731917943,1.83194363300644,1.83159645807635,1.89663000001423,1.62036926233287,1.59030962560154,1.61260163494866,1.62051207021323,1.65600531868268,1.65607418146369,1.76785467498121,1.77412045231614,1.58274323436343,1.52340587749249,1.52238292664873,1.51178129583758,1.54754311361052,1.54425649217417,1.69845872610651
1.70462376738257,1.56590469175853,1.47521441188726,1.47956168677959,1.48636203992397,1.61514180995624,1.81435878830664,1.64607299655848,1.55821084325572,1.55149829618049,1.4994570581734,1.51085169053006,1.52347282931904,1.59629522585019,1.87526200535083,1.86436454798989,1.85708962473992,1.81909138091285,1.79607547014243,1.74309316093078,1.73835824966888,1.76738114384832,2.04047288433056,2.03865793541411,2.11353000079989,2.01743638141895,1.99580893450455,1.79810832416245,1.90626000001423,1.51269086169677,1.490162970232,1.46945810987174,1.4523959367339,1.50599701360139,1.55364000054938,1.44711541703016,1.38111027214477,1.37114432682384,1.34791468262443,1.37741032794014,1.38760290905556,1.54062105640868,1.70704864790708,1.62538067210459,1.59706039935275,1.46364093594998,1.40269698218187,1.4237874033505,1.45791130956922,1.50925847539025,1.60334999999196,1.63655727454344,1.75112237198495,1.51158803880304,1.47805393108617,1.48547629033307,1.49459394017641,1.52029106224369,1.63672999999274,1.73998311171353,1.7820800014877,1.50981042166263,1.43715532605473,1.41894629313115,1.38790652740875,1.41968783157572,1.66591000130615,1.63915904931857,1.64861610308024,1.52515619131466,1.48441881991449,1.47290885166004,1.44596800493083,1.4684661543506,1.4685405774666,1.52724677119935,1.57256760048915,1.60645158963556,1.98612378814162,1.63342200458282,1.54709028135353,1.5474259117933,1.54639178838799,1.59393275844699,1.59605480980666,1.79751429423374,1.87159282505267,1.88851576325484,1.87538847290442,1.81124919377724,1.80723003811492,1.74192210536649,1.70252358106742,1.7345067769157,1.86412798514941,1.86269063742238,1.98640888673228,1.71686498764157,1.62262961574225,1.61033724335814,1.56160704514932,1.59213962897354,1.63816666803869,1.66373978155796,1.70477812560162,1.72715306208869,1.76848999924885,1.53244950161301,1.51811071155111,1.47646751550791,1.45328065566441,1.51810987034589,1.5368457010098,1.62418716088784,1.78667395956253,1.75936232390726,1.71091892711758,1.54616169625139,1.42983141710599,1.47057972275982,1.4938752782611,1.49466566910593,1.49767714910488,1.62859561152916,1.80570603630594,1.57360886894459,1.5404000009013,1.45988970082654,1.44935110688592,1.47004838012586,1.50808604176244,1.57064425920666,1.77007000000711,1.63407947374617,1.51633005516376,1.52272588425943,1.5206604816233,1.52276959065737,1.55586714482293,1.62730865807068,1.71323000078724,1.60360735939175,1.45673667526055,1.46542666104443,1.46515993310819,1.49145299414629,1.4939514429904,1.58402000036659,1.58320172281501,1.65887397512325,1.78031467780539,1.64128534189639,1.57507045506174,1.56332980054413,1.53078656780413,1.54530830145482,1.55448255467482,1.60901996668502,1.87614000116692,1.73336230924699,1.62738657917436,1.62537853823694,1.65054221548367,1.63558673073257,1.69706980361874,1.71251726210328,1.71808580934423,1.76263817551153,1.82673000039918,1.58561113282582,1.50211366397844,1.52031783340237,1.53000730486069,1.55950094052397,1.73409160352597,1.71885783570966
1.70713178925304,1.55249931543394,1.44142703218684,1.47463809232401,1.51936662676382,1.60956859877771,1.61751258009375,1.64138984262483,1.5520230148596,1.54869632368678,1.44766637972487,1.50223932390389,1.50282039077367,1.58171095912996,1.8685717397746,1.86169658734006,1.86109428740084,1.81430904222634,1.80822706752867,1.74309196607245,1.72254811334825,1.74720222116901,2.04258024091768,2.03864515196387,2.07366960605074,2.02321990119637,2.01723875884176,1.79784017814947,1.52975999999275,1.51850490479675,1.45888642851182,1.46822164916246,1.48061575373749,1.46718454534536,1.45786080984384,1.46006253091302,1.46057104080074,1.41382462330333,1.36368726042054,1.41408719532314,1.51404000038748,1.54125977079815,1.68570135230337,1.6443452681158,1.60153959930348,1.45758341375116,1.42227735155618,1.42463401486831,1.4955742854421,1.5040972225936,1.50432728409763,1.6261615235404,1.74548559087071,1.52238959062286,1.54053234613121,1.49804843613574,1.50662919000506,1.5109447944056,1.72716797688341,1.72615091503433,1.72595197688281,1.50037019006174,1.43796205043198,1.4300608756707,1.38895018997355,1.41917530989765,1.4592400014251,1.49998401269778,1.47650223893598,1.50591898789654,1.49192342021186,1.47864070636454,1.46892266664508,1.47362394008564,1.48239039047734,1.5294906932646,1.56444142093111,1.62408785360916,2.00203621187972,1.6592878719695,1.64792286417766,1.57575959426463,1.54444653491686,1.59933764014216,1.87969000001423,1.81554592155217,1.89956740998924,1.89862661649586,1.89735986476905,1.81439137031228,1.75431413986216,1.74586024732596,1.69036636505584,1.73242354829771,1.79582999904771,1.81458183189729,1.99338111328906,1.74754566411122,1.70312999999896,1.61654290805321,1.562496121408,1.58921151457204,1.63971333390705,1.65563820224488,1.68917269577446,1.68791403437962,1.4822766139145,1.48409341342061,1.45705276793237,1.45667281980797,1.45108677133655,1.50936460671145,1.59103000040923,1.61568619508722,1.81993404851908,1.76411969549353,1.54475219553191,1.54366460782187,1.45139357039309,1.47160802503334,1.4904306923613,1.49341488591138,1.58134000022561,1.6303038839828,1.76584768021186,1.57357261559502,1.49949999969909,1.46201284301939,1.44362053767478,1.48599423989662,1.50893870613108,1.57806102696553,1.84521000000711,1.66683604991237,1.58703000062991,1.55576699477227,1.52138558502889,1.52157427698257,1.49205999831387,1.62546089147405,1.64784999931126,1.61569472301994,1.50145227482769,1.48373177250515,1.44291256111147,1.49898076019926,1.62444448706634,1.60386128022998,1.65273656855274,1.65573844037093,1.96551079370187,1.6347796329393,1.57737493309378,1.5672538086803,1.53985588455385,1.55027446662,1.58282356311775,1.59914510820452,1.578458770915,1.70133977447329,1.66962000085051,1.62378165164672,1.57670833280569,1.62652346286107,1.76499000160945,1.72826241740849,1.76094034990169,1.75848011361647,1.59723987587242,1.59002382685302,1.51385750144098,1.51892935099913,1.52925992113558,1.5648242631376,1.58980040144137,1.71359910606746
1.68629936537763,1.53221120646086,1.46316839317118,1.46989401727911,1.48499714853823,1.60248820396141,1.80415000001423,1.65346930452761,1.54496595039799,1.54520900325368,1.43169361888493,1.50165360059585,1.50162412293918,1.57200902783192,1.80782064220674,1.82890372122797,1.85228623009972,1.79625903885323,1.77293930607942,1.74395324785865,1.73462760969638,1.72774544433466,1.69953294803169,1.80707862218556,2.03367584742143,2.04043429870898,2.05941357536459,1.79756244407402,1.67214000138293,1.52482208015384,1.4388271700626,1.43822479437702,1.43105519377727,1.44366802520467,1.44658629477975,1.45965430712886,1.50913000317552,1.4313121094485,1.38062403664535,1.43070869865272,1.4625981526105,1.5408072846139,1.77958000001423,1.70503785005259,1.70767000175369,1.45231398431417,1.389108140922,1.4264408586627,1.47485193364334,1.50373447695829,1.61373435881939,1.61893126971466,1.73629202305897,1.52053297357319,1.49416900609993,1.49160151783405,1.48279566383193,1.48936898719982,1.49083115234128,1.49018543832657,1.48906505684123,1.48910060834536,1.46001227753394,1.43759001433111,1.40199659377784,1.41886484252929,1.418875243443,1.51513881824565,1.53009650033368,1.53101554810033,1.53192207499147,1.50517221247919,1.49059576548661,1.49193680089283,1.49354850295763,1.53247733277106,1.53584705915467,1.64099487630378,1.79017000000711,1.67719428335469,1.6473613440368,1.58381826689055,1.54588113459731,1.60154971990548,1.60444207920413,1.81414118809671,1.9178991393679,1.9147357846334,1.97673000005877,1.81697786561424,1.80271389366403,1.75006360776235,1.71932805606078,1.72902263352276,1.72419345438913,1.80397455027446,1.88619000071028,1.87863465629821,1.99007000001423,1.62351237095708,1.61199495715211,1.58617876872101,1.58046510479428,1.64646376614058,1.69100228577636,1.68853924727053,1.48224976913451,1.48593673635612,1.45544927086159,1.45650601141416,1.44913903610257,1.49323665683763,1.4998445938782,1.60896654001931,1.83575595225851,1.76651528981893,1.52634047527482,1.53824657830761,1.4480736256698,1.47272696369728,1.47402721141689,1.49200922274022,1.52922914134811,1.63129058198218,1.78363231920216,1.57281723441316,1.45535326105071,1.46451794565346,1.46768807001439,1.49750407234503,1.50889435655598,1.59174606334665,1.91700000001423,1.87148008830463,1.86868988192732,1.57161992787046,1.52128329561655,1.54169059897355,1.56964206799126,1.62407508581128,1.70009000188217,1.66251887665979,1.68635523874935,1.52040924488565,1.47586999911166,1.50315408592814,1.50552205867636,1.58933590759265,1.59992317952161,1.64651234797571,1.95152920631947,1.62787997458633,1.57531148496854,1.57082068575552,1.56037666380732,1.55990757406105,1.55844396558361,1.61072681345073,1.91409000001423,1.78551433263674,1.92442000001423,1.62327351303424,1.57326166548186,1.61827681979499,1.64361533754679,1.69750666807362,1.7412317699753,1.75467438461425,1.82354000117867,1.61987946103117,1.51714813848186,1.51854982369572,1.50972150084834,1.5677337889622,1.61694319210876,1.69985593167143
1.68352577474268,1.51349649494986,1.4649045853309,1.46647307011143,1.50169774203322,1.59231652415945,1.6648626547298,1.66211280365575,1.54716927873977,1.54162010579878,1.51455228984441,1.5013072552593,1.50140085628932,1.56258355624676,1.79423968213105,1.79732585035375,1.80369596873643,1.78854541939147,1.76793221686019,1.74556467413944,1.74082491260985,1.72201917656277,1.71937899099019,1.78016278196179,2.03558501291911,2.0388729563807,2.0436438404914,1.79754190047573,1.63963392577166,1.53190505387165,1.43824657237139,1.43789768419902,1.43646956426955,1.44171181953343,1.44297865622593,1.4594672427665,1.47081251710667,1.44776113280716,1.44547129817123,1.44493979794842,1.46660518456468,1.5394335421228,1.70492349246141,1.70272883455551,1.53079340947928,1.44820427503125,1.43069454301317,1.42903632375431,1.46067707013532,1.50349721345956,1.5985397164569,1.58473400853621,1.56738956198768,1.51995787894319,1.50096482793612,1.48839009571571,1.48546124710713,1.48864802890504,1.48989374950166,1.49041304996972,1.49061181852809,1.49086981415581,1.4619134449283,1.45513300715113,1.44417869649384,1.44479584837119,1.4533388310025,1.52014081061213,1.53018666179617,1.5299068507616,1.52753956484011,1.52477596066582,1.52267136930302,1.52749221459534,1.54823457541767,1.5601700110352,1.57196018143745,1.65609819733086,1.72088225074982,1.69981487059354,1.64457093648555,1.58685093560684,1.58327374761553,1.61015803278765,1.61250837973817,1.81196066025141,1.91430258429906,1.9133658944547,1.95190450028149,1.81937908006009,1.78674055804003,1.75580470805643,1.74933855678378,1.74598098332462,1.74576879515115,1.7897254014748,1.81289179536445,1.87593173426193,1.87948175917942,1.632085168149,1.59923172416483,1.58350851937962,1.58185447268655,1.63564528846305,1.69026720345218,1.68882171030626,1.49358111196276,1.4911827558939,1.46876267025493,1.45793726182942,1.45472415046027,1.48624115448653,1.53726494893134,1.60178201599412,1.76742310664466,1.7668287765771,1.57780298195351,1.54410508304406,1.47214430241442,1.47256460480776,1.47251584206907,1.49116853562461,1.53154317946342,1.63111599564449,1.63913021672621,1.574779923997,1.49053776690528,1.48216561679946,1.48145401994925,1.50924522726512,1.55681125148353,1.6058742206645,1.87779352930269,1.87342484279616,1.87089238453583,1.57845732697989,1.53415533635317,1.55093373140376,1.57075575878004,1.62367974389345,1.62607732522377,1.6315239887321,1.63594363306047,1.52473584697516,1.52353326070478,1.51517335260856,1.51371753192108,1.5762251240358,1.5801319372717,1.64503174842489,1.67294618545594,1.62357751825796,1.5876695916965,1.57379739625536,1.56027939491449,1.55899682072814,1.55732835514561,1.62006403879125,1.73859941211476,1.73731589215177,1.73566069342512,1.62371709068863,1.60822025944635,1.61251408241196,1.62325691785574,1.68061783654516,1.74550314433861,1.74988112719366,1.76982026659225,1.64472578921035,1.60789583940923,1.57952105812899,1.57128277930386,1.57323341630629,1.59954937356377,1.6990214780614
1.7157350258105,1.48942075489703,1.42763038437513,1.46291596527178,1.52588726413062,1.58779538247545,1.70980953191794,1.66486257206552,1.55004970208848,1.53681194195503,1.53148774399753,1.46881332968571,1.43468675490854,1.55541254665115,1.78917424984749,1.79372983309581,1.81321080211089,1.78340803416755,1.76292550835888,1.7476706246136,1.74961345303788,1.71961441259412,1.71655745589672,1.75990558591959,2.0334665192019,2.04120241464579,2.04777426442583,1.79779016294557,1.60744999854609,1.53851798606689,1.42769790280402,1.41479385078102,1.40242988276463,1.40083369573263,1.39882220061991,1.46045013167726,1.48867982506246,1.44994061665839,1.44365261521409,1.44414925298987,1.47123054374542,1.53781022117355,1.74151303321834,1.69621264772881,1.47425000039125,1.44247985754491,1.43281526176235,1.4306522958092,1.45148012034102,1.50301845712192,1.68191000001423,1.5707832509489,1.51545497669909,1.5172125333766,1.51465114166194,1.48659289400826,1.48365263317891,1.48711719717618,1.70538000001423,1.58061092663114,1.56188994392625,1.52873266187748,1.46457202610045,1.45863576003729,1.44323775165503,1.4453282721827,1.46831959588965,1.53774019366423,1.67965117327474,1.56221878894273,1.52302626005331,1.52408088165382,1.5214925181587,1.53172722859027,1.57524371004569,1.58233160502456,1.5929287267677,1.67875264549055,1.94994922307006,1.7132339145445,1.6421342055344,1.59118005619668,1.58228390168318,1.61428919051288,1.62478732284585,1.80682797192686,1.91335980415346,1.91308130695767,1.96286387856703,1.82316430752336,1.77451920434575,1.76664516215987,1.77786098974041,1.74558154416499,1.74480677225204,1.77403858313036,1.78737422913524,1.86746289890581,1.8826249564196,1.6417451544082,1.58379524131514,1.58308636510734,1.58226524543442,1.62381067343652,1.6924376141899,1.68989902029784,1.49532985082646,1.49307986656623,1.48154310633593,1.46066412041809,1.4365702426247,1.47666074019953,1.57212000091861,1.59381983482238,1.84113000001423,1.7659450663543,1.81139000001423,1.54881468261528,1.471832528867,1.47275571864063,1.47087178462945,1.49099948994293,1.5341331412908,1.63958854892917,1.85532000001423,1.5796660614407,1.50922563657606,1.48334694227311,1.48092992012867,1.5242895598629,1.58991999991417,1.62713840965863,1.88216403274155,1.87267059341147,1.87622299885012,1.58174689770705,1.51003999814584,1.56020897841226,1.57239315428164,1.62370792685313,1.62383628151054,1.62664745666451,1.6443147599612,1.53926774044863,1.53713720614631,1.517182882073,1.48261647133253,1.55756264541379,1.5410266078146,1.64134860609412,1.90321000001423,1.62140674251942,1.61622789533952,1.57720123242131,1.54365078454251,1.55699298568521,1.55379647636943,1.62942769839449,1.74090776941999,1.73872678131105,1.7353047344698,1.62471627574939,1.60079878476765,1.60106683052312,1.60186459364759,1.66461662065755,1.74647735447331,1.74861123064901,1.87162694495353,1.67053160278318,1.63496999969485,1.58150505154096,1.55670276250031,1.5805797291912,1.58868707774162,1.69165257105911
1.50812000000001,1.46626438487731,1.40946961645898,1.46190874455696,1.57303172558357,1.58330922450854,1.72720369528972,1.73165625155576,1.73382470465357,1.51296462391915,1.41712838346568,1.44857069982639,1.45595011165356,1.54937316199406,1.75628097181522,1.79241834045662,1.77923614590189,1.77725859396358,1.76574100201512,1.73263964890385,1.70883537148926,1.71185415630807,1.714429748041,1.74136852680938,2.0726500007155,2.05155692724842,1.57742999998629,1.79804834842124,1.96606000000711,1.54330082738709,1.40096393288173,1.39730911526072,1.35047415080997,1.39280566883895,1.46356198323496,1.46194494350249,1.49880530777217,1.45239460775941,1.43044837243702,1.44475265094121,1.44701323935155,1.53667336723333,1.73244094631477,1.68834002639162,1.67713086853451,1.43627498554887,1.37111181673651,1.42304670276522,1.50017802880651,1.50188273006018,1.55415872894613,1.55827346634646,1.78181000147012,1.49655608280724,1.44361204227064,1.44935393600711,1.45514028699139,1.48669247954506,1.53074999957824,1.59981527559327,1.79541000001423,1.55911117431701,1.47915333580616,1.46479060213585,1.41846583458392,1.44560325905354,1.44589064795348,1.54980082376463,1.64873319917129,1.58183494743126,1.53066743184267,1.52762676172867,1.50021136695909,1.53713357589943,1.57293069699424,1.61248984198841,1.6359400008558,1.70939710491801,1.95668865884946,1.74116074880626,1.60604838925211,1.59664565655915,1.59645499924052,1.62754426231061,1.78530146928833,1.79903243033388,1.95901000198988,1.91352703294038,1.91425912144963,1.82920190623195,1.81405999892975,1.74726598000821,1.72091441796773,1.72033107457669,1.71512966051381,1.75746737882464,1.77806577038566,1.8567900054409,1.84199527079755,1.65159688769053,1.58581917892636,1.583176528434,1.56052468300952,1.61330268983544,1.67599547718047,1.69220801074385,1.89330983484264,1.52265118922632,1.43537438688534,1.46538371985426,1.47100975231986,1.46957959089695,1.45792446002403,1.58567531080781,1.73075952625777,1.68290267794657,1.5720899996288,1.55221737946693,1.48478031243533,1.47538355990645,1.46361107786964,1.49213827959163,1.74334000001423,1.6609102238852,1.71690000000711,1.58441531270369,1.48572378048965,1.48466656663291,1.46090761337155,1.53315509460412,1.64054999980378,1.64969487657461,1.87583748044055,1.8693113002823,1.86483968850327,1.58734102940229,1.58617248553059,1.58538422499246,1.66171000164029,1.6220808127998,1.60374839028448,1.62347541809368,1.69595000115056,1.54016971308714,1.52016847190224,1.52044627737504,1.54273225277456,1.56461423670108,1.57219814943277,1.63071252386831,1.63356132989552,1.6058491816631,1.58888106514801,1.579373542625,1.57857038397423,1.59148807833499,1.60238585074781,1.63725611735384,1.88120000001423,1.77347447972745,1.7280882866413,1.62616369275118,1.57341527860942,1.57640034276366,1.57946586774866,1.64931069466929,1.71248999884765,1.73919878752633,1.89027305506781,1.69794912214296,1.66127507250846,1.58491189077012,1.58810885822957,1.58697961415041,1.6784636667574,1.68333118014165
1.43253426227178,1.42072947174405,1.38813319845488,1.45392806147625,1.53132999878256,1.54642550179999,1.73434417044609,1.73384828534072,1.73152837112282,1.50042006186543,1.40575725683762,1.4361340842979,1.43362834229069,1.54318540366984,1.77283385875018,1.80623465235911,1.82933956274088,1.77354382080208,1.76823891771711,1.71730703429997,1.67468494958692,1.70537189320638,1.74156275718683,1.70314589700198,1.58014999998618,2.04602017916757,2.05246000110388,2.04706850352762,2.04825077448078,1.54873821383671,1.44957000254014,1.39503355367768,1.38669280412226,1.38634777691282,1.38587658518553,1.45012396042625,1.57821000001423,1.45635500641655,1.46662375003631,1.45472843231073,1.4114499971486,1.53640120588551,1.71142686799944,1.6824014198807,1.42659115234638,1.42635557188241,1.37396517107385,1.39227615965837,1.37785189940774,1.47701793959055,1.53468999931575,1.5442776738378,1.75148999966804,1.48188973271298,1.43355667267778,1.42997667689913,1.42023890738738,1.48727551924555,1.58380500032041,1.62096999786395,1.65359000018706,1.59234800234301,1.47880014830374,1.4714616463118,1.41595241822921,1.45656403300324,1.46625472533167,1.5730791846104,1.65132594177603,1.59665210647694,1.58837555488576,1.54637606273201,1.50364472953664,1.54442079312813,1.65502168636538,1.66915118192643,2.04173000055283,1.96815030170475,1.9644177244387,1.78475820921871,1.7493499998475,1.64956320464912,1.63360368652541,1.63405523414902,1.74542752760569,1.74765866585346,1.75003556742474,1.8340957205022,2.03282000355769,1.83733930597415,1.84797944884519,1.73524610061715,1.72756744505994,1.71934241557102,1.71968353435508,1.74010124066194,1.85205210215412,1.87234401782693,1.91069000034749,1.65880674333661,1.62806578618258,1.58096235617529,1.56988037936138,1.59102035549304,1.59567557511574,1.69407624144308,1.9047501651787,1.54334224560673,1.48369455009995,1.47620151532814,1.46863751374693,1.46846137072856,1.46659930560515,1.57863455601028,1.74147047375646,1.66225660240395,1.62446999908835,1.55393917386821,1.48009329100402,1.47755822640695,1.45127686193966,1.49516092342608,1.49976052270597,1.58827199165907,1.59259548568528,1.58735237993915,1.51967547183077,1.53780245954061,1.55676701922997,1.54738429806001,1.53898529707028,1.66781449478517,1.85173903011279,1.86443220318745,1.87426409022109,1.59954868231016,1.61535081733171,1.58361228021206,1.5457156625102,1.6184782442748,1.61548580042422,1.62241328574604,1.57472092121549,1.54003199386901,1.51006024599744,1.5236394903148,1.63762259538721,1.62143221120082,1.62435851435232,1.62818944806241,1.58320267727275,1.59923888117766,1.57613477995699,1.58199464605434,1.60885677559975,1.60846468168908,1.63948517453112,1.64688967548361,1.74779999958248,1.79767625918312,1.85523000000711,1.62776082053907,1.57389286500497,1.56811080592874,1.52973425763241,1.62546393557309,1.62706470601427,1.73756847198221,1.84072000000711,1.72693186963714,1.63480492933934,1.58146207145906,1.5848111145598,1.58494481278726,1.64970922866105,1.67423852600686
1.50055108687855,1.4149393817918,1.36958679898436,1.43497868613596,1.44362159605588,1.53409895931593,1.76204741903968,1.73763409069267,1.74001054640042,1.48625890940828,1.40406435572729,1.43941683767472,1.4976554858,1.53712839808511,1.57804999999367,1.81222473336203,1.83165300265094,1.7664003093913,1.75122741314053,1.70381283981298,1.6510344568168,1.63852691190271,1.58830145065667,1.68911786115792,2.05520000001423,2.03284483246133,2.01792561915465,2.0180410644899,1.97498917608654,1.55364130575074,1.39496122401475,1.39432475480221,1.31894999847458,1.37344162681326,1.37398693031046,1.43893381264081,1.44224878445358,1.45244409879308,1.44513575890196,1.46612175087814,1.5085671201139,1.53695171362925,1.70635915250301,1.68250371909087,1.47383468515151,1.42556041000564,1.4039316091249,1.40430084743005,1.43420961558198,1.46197993886023,1.51573999808969,1.53526621006118,1.73183999889029,1.46608546251759,1.42334981509686,1.42609159742335,1.4254443892613,1.48828105618888,1.58318500009166,1.64726891418377,1.81029066072872,1.79901995498993,1.8190500012031,1.5053554132721,1.46481999757862,1.47426726184075,1.61207612678965,1.61237802124344,1.6651196881594,1.62682585580985,1.61946934812817,1.56001742391639,1.53020999865371,1.55284281802904,1.56051737544928,1.67856507666347,1.99704999946851,1.97125030181367,1.97279757520811,1.93656583884562,1.93945592442245,1.66587285298532,1.59265999813362,1.63397567727432,1.72451897854312,1.73132845929538,1.73834030736481,1.82488360548888,2.02424999646365,1.83069935957217,1.78653799180454,1.72015916980298,1.63385147607319,1.65383329645047,1.66416704852768,1.72993071400346,1.92701000145457,1.8897418123808,1.98938000001423,1.66643737920606,1.60338764945892,1.57907233891595,1.56769933333132,1.58728560907733,1.62134879548096,1.69610870481753,1.84867000000711,1.56503249322091,1.51026669392223,1.50942225535434,1.50880243284515,1.50600534523369,1.55694268990393,1.57430270831404,1.5870051730649,1.66115816552675,1.66866776935062,1.55551728745396,1.5229658921332,1.49609756021796,1.47146597819293,1.53354813555076,1.58326092620761,1.58681654919244,1.61807989327555,1.5957155574731,1.65494000091077,1.54680732479314,1.54393099138112,1.55231056459911,1.6756051591305,1.68352179054638,1.84166229482601,1.84888647090081,1.85807180893171,1.59974867911092,1.5744310064394,1.57978340130884,1.56644121630359,1.62442106552797,1.66787730374501,1.63079954432969,1.56048602345513,1.54079299639032,1.51864902696592,1.5259512924594,1.52793169320469,1.61841376414758,1.66718230156667,1.63230279327731,1.62266217459863,1.60940670728838,1.59839190647503,1.58428317864827,1.56438953069707,1.60693763869726,1.62748273717805,1.65707695629716,1.85753000211833,1.82053977444855,1.93640000001423,1.62891533255522,1.55739747994369,1.55778422428601,1.54508848405383,1.62392447335381,1.70291023085117,1.73723090866275,1.78263471524153,1.77346642570052,1.81553000113395,1.57576437504764,1.54093999730367,1.58311402057316,1.59116378103361,1.66599920276259
1.50842641531185,1.41178536809495,1.40992691974086,1.43162284941116,1.47458907300674,1.50942358258358,1.50913411946559,1.50927834292971,1.4917947248485,1.47018994076654,1.44353729220155,1.44246284317873,1.46419927737144,1.5305002057466,1.63333659093479,1.81939307054415,1.82568188084783,1.76582682719543,1.71847300510855,1.69139243382742,1.63832660339108,1.6359087695264,1.61357853822746,1.67487987145489,2.01914216578652,2.02039697249801,2.01750471624897,2.01973170595527,2.02041030266387,1.56914130682427,1.45527515311469,1.41541349300484,1.38534944061444,1.37279913697572,1.37336454803736,1.43735255547661,1.43956136090989,1.46140066278917,1.46993770196845,1.47644632739492,1.50451625436608,1.5380285031119,1.68242242438354,1.68271922849661,1.43619401895689,1.42392890927512,1.40305201815375,1.40394698802918,1.40356897335774,1.40565096840765,1.41038700269586,1.41528990966033,1.41808252004326,1.42047858982199,1.42308805237687,1.42504400356186,1.42541394008282,1.48926211084581,1.62614350798752,1.67654645296078,1.77523329545343,1.78879877054781,1.79911822802401,1.51929872386815,1.47432766026305,1.47608678118339,1.5856492761171,1.61178761740443,1.63394549715554,1.63240467131854,1.60465763311699,1.56666579113837,1.55449624741177,1.55945414323009,1.56495897179794,1.690942700414,1.9314193944173,1.93460696763951,1.93634942071033,1.93634382691843,1.93677291798706,1.67395877123897,1.64190602270558,1.64178135192604,1.69611740625963,1.72442300525968,1.74559355708537,1.80754801917034,1.8432302158568,1.82515490466126,1.79409298915399,1.69401904279543,1.64323796160098,1.65082249857292,1.65363803804088,1.71833037369332,1.77602113968371,1.80631010438614,1.83165348352264,1.67365383430407,1.60798420675619,1.57772130921939,1.58006734038305,1.5847162576284,1.62923939967528,1.69872140833606,1.71169814711861,1.58774907652606,1.52985915922423,1.51047625788488,1.50608131437055,1.50456841799662,1.55291380450781,1.57447003318409,1.59708350506208,1.64813397680357,1.64815522661306,1.55915506962009,1.52699111044072,1.52966301763776,1.53608025635688,1.53745906155149,1.56668402448435,1.57144324938367,1.58745843333998,1.58027139262777,1.56576022288756,1.54800942314746,1.54977585263667,1.56380483438987,1.66508952567226,1.70504724306,1.73390927233639,1.68022264468475,1.64552732441567,1.59922828388387,1.58960605869555,1.58531444309942,1.58397192965995,1.63015877516764,1.64646930632161,1.63693090943063,1.60980362141418,1.54442044630933,1.52599760700547,1.52728434315871,1.56668006001097,1.61572263971874,1.65376201211378,1.63566221325639,1.62598898036562,1.61718266817861,1.59596328348035,1.58617983857149,1.57740586255609,1.60398519679192,1.60575524860475,1.66724870300096,1.79112272760193,1.80524115328304,1.8268241348836,1.62916004448321,1.55823887634589,1.55848822590218,1.57071009205917,1.62245979444267,1.67921393310827,1.73623315817157,1.75378508228999,1.75764532719527,1.76591050648776,1.57248711860041,1.574056586947,1.58129156078026,1.59166546327102,1.65851119756646
1.51660808682503,1.40852954768324,1.36227884271415,1.42291552360608,1.50689897926344,1.50880950856673,1.50811153893198,1.50905617988795,1.48619612716021,1.45996408289711,1.44394707247402,1.44361502393506,1.45293120881596,1.52593296864332,1.84998550340909,1.84881763511808,1.84936532640545,1.76536912058455,1.67366087836383,1.67222216500442,1.61996706856894,1.6196806369761,1.57014999946953,1.6614375754017,2.02175748841989,2.01780688577962,2.03948345612537,2.02646497257015,2.03349957730722,1.96270352420148,1.95265454682548,1.42516478361557,1.39163450905292,1.37260311546951,1.32181999805868,1.42974360987659,1.42415288361119,1.46574321880931,1.50343450767548,1.50242561031619,1.50056188528269,1.53927101974093,1.73418711341202,1.68333081240188,1.41923365508609,1.42142983207601,1.40087938346715,1.40377812287678,1.36358851685152,1.40432483702456,1.3908523695333,1.41707200485027,1.41823112946896,1.42024578489175,1.40380807848589,1.40515855571683,1.40545583257019,1.48994998352148,1.75064441206564,1.72739658390278,1.74806415705253,1.77523340215887,1.81069023559526,1.53890112962403,1.44455999809315,1.48101511145593,1.55153153695551,1.60941590881074,1.6328880587362,1.63389915409542,1.59026401649654,1.57891716800051,1.54733324911042,1.56376662924306,1.57249660140317,1.70258372636697,1.91779850086219,1.93829295754745,1.94102640175077,1.93827507795506,1.96068895625775,1.68315563145322,1.64182642962681,1.64132169965292,1.65751927387176,1.71570139493318,1.75245882314661,1.7879806975377,1.96951000001423,1.81935986732444,1.80461035889547,1.66303353378465,1.6203913270021,1.62911147860342,1.6394393274195,1.70640882589711,1.75225180953387,1.78230953197177,1.94044000001423,1.67929799861305,1.61340658239752,1.57395957914573,1.55783732301282,1.58281737234215,1.64516353789578,1.70116527424375,1.83286999937665,1.61180025022481,1.55804572151157,1.51179498293195,1.48271028581499,1.50160601348279,1.54913785508702,1.57347209371993,1.60703976729091,1.64816224347586,1.64802270871043,1.56379882387151,1.48468999684085,1.53126712077944,1.59266142988362,1.54714253641548,1.54718209710064,1.56248875695501,1.82795000001423,1.55151648744506,1.49667949345843,1.53063124875482,1.552955292086,1.57876716109875,1.65581951844496,1.72066430080157,1.87374666653,1.64308768048672,1.59376979060095,1.59605681775747,1.59413624395379,1.58349291794037,1.58235964342019,1.63584897006783,1.70044969808066,1.71607862009387,1.90971737901896,1.55043898490895,1.52546159046835,1.52923479565802,1.5952211511971,1.61327717188607,1.66196507692308,1.66709660390591,1.95296999981265,1.65612771058834,1.59244733535621,1.5893359417101,1.56227728210647,1.59986165760096,1.59681089106282,1.67479773477139,1.76615674766655,1.78714795939965,1.87856975567656,1.62831906796215,1.5578675835733,1.55897517821932,1.57653656111509,1.62131770973792,1.65472178260586,1.73424334148575,1.74044580324606,1.7511426975615,1.77655911874572,1.57154157683997,1.56563764509148,1.57814087264469,1.5917601335484,1.65511713016211
1.46496999902857,1.40099385321009,1.39725038887613,1.40531310572422,1.40976129713806,1.51026933497254,1.69627000001423,1.50970720272049,1.40841475154621,1.40824594505637,1.40956985290119,1.4083136615656,1.41185028666339,1.52267426164745,1.84634555473476,1.84813746024685,1.84664660984096,1.76358995743778,1.67680475552219,1.67351019795159,1.64616462610868,1.61922417897947,1.52023461707697,1.64700068752999,2.01329104277905,2.00975451805326,2.0077919085911,2.01589060153402,2.02232390416919,1.96463081393443,1.43754653478754,1.43066129340271,1.33441012796286,1.37056333472863,1.39051923731135,1.43305196782391,1.46935843465136,1.47114465498648,1.47228922272757,1.50206635013145,1.53397000327624,1.54036981529738,1.7168128866022,1.68375158179732,1.74189000001423,1.4207006100548,1.37656512250166,1.40598636197353,1.41096401786406,1.43112558408536,1.65600000025349,1.49256181302189,1.42430961680115,1.4223145711232,1.38843772406719,1.40585733295315,1.46077000243947,1.49022788265307,1.60271999999303,1.7118747033517,1.76716834976055,1.71352404631564,1.58320304919133,1.55637000308725,1.47914000055814,1.48491678341259,1.58652122812457,1.6048438512491,1.59857929242977,1.65960295077259,1.70903000108598,1.6701903835743,1.63813999772638,1.67202619247654,1.71392080479342,1.7214482318847,1.948976735239,1.9388833704936,1.93847217786356,1.93885087770412,1.82047999889934,1.69147248356524,1.67780767132527,1.64241509866149,1.6466467452477,1.70685461518792,1.7508558733023,1.77698546079873,1.83350000095692,1.81288360042882,1.59262858788723,1.6034983584028,1.57477562612321,1.61758741816189,1.63789879756844,1.6943086289985,1.73515739250384,1.74555152447012,1.75493762979192,1.68478907514736,1.65119211570361,1.57164403510252,1.54941602946871,1.58090459207049,1.66878999952619,1.70266532768812,1.87297000149048,1.63736797831739,1.54498509945363,1.51427422233508,1.47216690530772,1.49857030362563,1.49399486115234,1.57083793310645,1.68888597630054,1.6566534458183,1.7333899992301,1.56884788091277,1.53174764038491,1.53203083520432,1.53231727821658,1.545961457387,1.69478859662826,1.55466890837688,1.51506836391079,1.51453560968511,1.51337159645395,1.51093711167381,1.50811970794772,1.59492829588507,1.76778708400904,1.73448700003546,1.87237333292788,1.60898125488484,1.53534476731648,1.53581882562804,1.53663262995125,1.56055188469159,1.65251402528714,1.64069980741883,1.68878030090216,1.74299601653943,1.91454814667735,1.55737349719428,1.52965130305374,1.53407114042124,1.58241545718652,1.6102995965699,1.63862437354493,1.67605425584351,1.98959999910188,1.68176573840538,1.61276884976855,1.60087565959514,1.57384561992574,1.59842286969508,1.59707423218517,1.68170571962181,1.70892841828946,1.7775808898651,1.89592024461864,1.62633478630608,1.54298191607054,1.54166776765459,1.54048623050628,1.62035288822541,1.6521039174811,1.73141081283428,1.89136207194472,1.74516711253694,1.69287575994613,1.57219002685927,1.51506833293004,1.57402315478356,1.62055561659578,1.65344437843745
1.40869424200538,1.39742552271244,1.37435507675251,1.40204063217692,1.46313000015438,1.51108847838654,1.63049000000711,1.51044457897522,1.40471740480468,1.40616871005417,1.394674961921,1.40354555376622,1.49964896692685,1.52105739463751,1.86252615110427,1.85153933275949,1.85507660652174,1.76040903076624,1.69301096802885,1.69121927682764,1.63607532897066,1.61966261058383,1.54416538279952,1.63093143507948,1.60435266745798,1.99559047890067,2.00438297816318,2.00321474002068,2.00130277343238,1.96439523428095,1.96495000001423,1.45525868455357,1.34160659849226,1.36457916486209,1.35599964867441,1.43425195693969,1.50491537057162,1.47624905003899,1.48489319479488,1.49956447846389,1.49393916285116,1.54112342933839,1.78422000001423,1.59384193438067,1.41741816588067,1.41969425233516,1.37336505799027,1.40802478370441,1.44858415231921,1.45318928196882,1.59595063662722,1.58849610418238,1.66727735313025,1.42062582888898,1.39825998842052,1.40646765432231,1.40658101859967,1.49003094628779,1.69189939109359,1.70254260311138,1.80987000098048,1.71165196823935,1.61317459308997,1.57888063252703,1.58296510763613,1.49306275937224,1.49846099463632,1.60489513828581,1.7722643995086,1.75516344576474,1.8229800000097,1.70175013866941,1.6805282040562,1.70041963157092,1.72033732541474,1.72691871441358,1.92404772796214,1.933716066017,1.95891851300965,1.93998354333309,1.85553000086425,1.70403764654823,1.71476432674855,1.63927935775354,1.62972045421327,1.69731831197127,1.71382453137145,1.76624724600072,1.79466712567856,1.797113147802,1.68761000000001,1.61200145202455,1.5856207203484,1.58486701020543,1.58859493197867,1.68044527425431,1.70635813225305,1.73906665727436,1.87172776396191,1.68861027188848,1.67235701271581,1.57127520142857,1.54621664390063,1.57872888770547,1.70325566700843,1.70321962655316,1.83639999916132,1.66390237168304,1.63519999948272,1.51871216401034,1.48075002615686,1.51529551321073,1.5629254733511,1.56709668566788,1.46828999998667,1.64170650134194,1.77338000079124,1.5739801149267,1.50866050573259,1.53237741651225,1.54651903449818,1.54460436609517,1.67307140410921,1.54760530338672,1.48512284808592,1.47448221472226,1.46789688890929,1.50080685646324,1.50934025284722,1.60987619137216,1.70306480081931,1.72078998510816,1.92315000057057,1.57713894431703,1.5208790732387,1.50915114060706,1.48993387394665,1.54519211774818,1.56265000134503,1.62844908222147,1.85219000001423,1.77481325889351,1.92480447433214,1.56353373770574,1.54901337736329,1.54297210481761,1.54095643033138,1.60596088763306,1.60030971594844,1.68963430383011,2.01743007710774,1.71019704532116,1.67577999977312,1.63268765513563,1.56290173874539,1.60639256447289,1.62301229324482,1.6866210084381,1.72386199803774,1.76126494316708,1.75380771712073,1.62316309612232,1.51264025335527,1.5227122774029,1.49914535618382,1.6187285335966,1.62633267227946,1.72768659726865,1.8559379280695,1.73512080596124,1.69339559404615,1.57378284476758,1.5129016660767,1.56971328843639,1.62148895418184,1.64960183340622
1.3983924761394,1.39117286465616,1.35900231418519,1.40064778136212,1.51235951310795,1.51115842354124,1.56170000044431,1.51088283512426,1.42654278369721,1.41423567658496,1.39200872271307,1.39976395061108,1.48275103337705,1.51854370667459,1.71763275417247,1.72773534071203,1.75088050695472,1.75606148755302,1.69983187173857,1.69563954132841,1.62243293982569,1.62102394959341,1.60956835042802,1.6662657733136,1.97841149192615,1.97692595654192,1.92736726762901,1.98309206619673,2.01697488182383,1.935239454291,1.69940810826953,1.47697694569402,1.43577623929313,1.41257034051274,1.38337999801309,1.43420028853481,1.43358675787196,1.46939860836689,1.45995776551665,1.50106473874022,1.49677469120148,1.54150356241098,1.60356000152088,1.59046907294577,1.41854377087211,1.41978679480526,1.39453791921208,1.41049788388213,1.41045566429811,1.45553763013252,1.54537142171215,1.58253293041532,1.69309264689109,1.42010128591763,1.40611820415608,1.40636561903084,1.39186553227723,1.48932225837142,1.5442799989766,1.6808571089923,1.72460000000711,1.70923569096016,1.59238011485913,1.57676814419873,1.48540069415504,1.49051001335061,1.48917648341615,1.60352175706418,1.7364283619494,1.73443363340931,1.72691311283566,1.71545738008185,1.69822137741944,1.70330256026044,1.71327371488438,1.73013220878043,1.88624780839805,1.92692533529776,1.96845445734619,1.94047801995489,1.92674500859996,1.696088657192,1.63124303867777,1.63644019540655,1.62805987487252,1.68659988131192,1.70626754196817,1.75600347132892,1.79905377057989,1.79845935933363,1.8097110720808,1.61323105092166,1.54324999787702,1.57918707604452,1.65497128590804,1.66211705732051,1.69368986864132,1.73275388923252,1.85526223605943,1.69318936591337,1.64412827727039,1.57265709177952,1.57445984588056,1.57661800422389,1.67106916667703,1.68130667736102,1.69367788688159,1.69375053401545,1.69349315083834,1.52774995304391,1.53189890726775,1.53110534341961,1.53869621451596,1.56697807159076,1.62273373770654,1.62873245216591,1.62771173772318,1.57789398406997,1.53697189519195,1.53287100516536,1.53679701693712,1.54023488712954,1.64432999929099,1.53895800177268,1.48605031986327,1.46713566422756,1.43379052459742,1.49050124734945,1.63486183331333,1.62229965262273,1.64137000165601,1.60582764003395,1.5339180189308,1.53722473939334,1.49768589563931,1.49669448944028,1.4727918060848,1.52184423656363,1.51951070084943,1.62270546066565,1.66494000139072,1.63142518787783,1.57276105920762,1.5696593774933,1.55136613320585,1.55203293936225,1.64919320838628,1.65439070487365,1.65351979060965,1.7041465812909,2.0044199240133,1.74548484068569,1.73118481706485,1.65217351133379,1.60993598503693,1.6252398924215,1.69514562230331,1.68674842626225,1.69654887187064,1.76637267424985,1.88442000001423,1.61891196847772,1.52523215538354,1.52863135671765,1.54234270815027,1.61567127385804,1.6648659287324,1.7230317331139,1.98970000001423,1.72991488999129,1.70989350884069,1.57592453401657,1.55679925001538,1.56577747045674,1.59583939367451,1.63822870983962
1.38852603902769,1.3833601005422,1.37578346895672,1.40045126406132,1.49774463496222,1.50938211572937,1.50940501014399,1.51037753721714,1.42879452655066,1.41886965564476,1.39802144372534,1.39789160011116,1.4562919744128,1.5161897931163,1.67879316704101,1.70760281969115,1.75379693073043,1.75575197676214,1.71828274850054,1.70696354948837,1.6764425058215,1.6728355761303,1.66716175370511,1.70249463564196,1.97850645090529,1.97743651366857,1.96893625443881,1.9659092202933,1.96193164417253,1.93036640816646,1.69235098899014,1.49950757371545,1.44161090693279,1.43059764046329,1.41518161801478,1.44246700491429,1.44386675054539,1.47515896963104,1.48017072215053,1.50516790474687,1.50560623138226,1.54185055752052,1.58758922902224,1.58398224984605,1.42769107533163,1.42632383028903,1.40259865228772,1.41370470074589,1.41714190080842,1.46489559641081,1.5480406871165,1.57677179501043,1.62041307102234,1.41988214448895,1.42016374916572,1.41999150293545,1.44752875739468,1.48817126287882,1.5829957750442,1.66989757283883,1.69828268772813,1.69868386240937,1.6038524940446,1.57539091043364,1.53914020560594,1.49254551629949,1.48932056707493,1.60165408309266,1.69256584838704,1.73334684152129,1.73294538303677,1.73247532234568,1.73247488904765,1.73299754634862,1.72981475375584,1.73617193985274,1.8901007408808,1.91663014944809,1.9487835767219,1.94006020825323,1.88522905767223,1.69196998824656,1.65842527522817,1.65954503265436,1.66075995186309,1.67552208015072,1.68253775056269,1.74675922819087,1.79972407825575,1.80090344188985,1.80495574640474,1.61376877476058,1.57180294085255,1.57334235342709,1.6255522060644,1.64388780947585,1.70206662371942,1.72746487706592,1.7680775640083,1.69868728380909,1.66151572180245,1.57313840931776,1.57359165534364,1.5753281965106,1.6318605991287,1.6631445564972,1.69383796746969,1.69384428320925,1.69373412259654,1.52902994381706,1.53049524942831,1.53043953312434,1.5363682915335,1.56658622253559,1.61129830796115,1.62906269119518,1.62886189761131,1.58260546807027,1.54454113785465,1.52675967669672,1.52257045496997,1.52175451277592,1.51632853059365,1.51047328460703,1.4706159481451,1.46095083236041,1.44792921933558,1.48472176243477,1.53152300139993,1.56473213266183,1.59552107089238,1.59343349346608,1.55612607867148,1.5392728694483,1.504371153833,1.49562314861201,1.48969558315141,1.52356719754173,1.52249481515338,1.61281203095993,1.61101362327714,1.61033702576914,1.57608910610189,1.57393699584125,1.55235065970868,1.55337147018977,1.60776855420579,1.65940863752585,1.66157650718551,1.71887246057842,1.78516964268724,1.76426632680037,1.72352730092533,1.66682496418027,1.62779295245208,1.63751036291383,1.67161159613066,1.67889111278743,1.7184306926305,1.77269928738802,1.79225828573222,1.61404483458844,1.56004587006047,1.54850559959468,1.54643323872656,1.61103980504794,1.69088044734975,1.71759774263989,1.72783315404245,1.72562227979337,1.70839656288209,1.57773651604038,1.56301512780811,1.56363641676561,1.58315059198694,1.63929099866026
1.3368099970544,1.36888198461361,1.3661269664793,1.40041367751679,1.48222213558048,1.50760952556375,1.50759718269834,1.5095159649422,1.43034729209913,1.42330150646378,1.39935504047164,1.39692127611651,1.38946740028191,1.51482262541319,1.65562999891284,1.68622718080755,1.75597918148825,1.75620931553097,1.73390862652096,1.71621570082723,1.6836285078674,1.6759188842125,1.6609034312505,1.73599093525328,1.98191233519247,1.9782726055868,2.02883000001423,1.96308476247907,1.94562120437876,1.92265602809133,1.68517299203883,1.52257652597725,1.46291672856214,1.44779976532153,1.38496267639801,1.44458437229781,1.45156910483116,1.47727224867556,1.50797398198021,1.50718784641123,1.51360701094181,1.54288137682755,1.71173000001423,1.5749134399267,1.43237922187438,1.42870337823414,1.37392366820891,1.41683845272784,1.4256607840176,1.46913633157387,1.55030682227438,1.5706986467789,1.70086999965395,1.42094349069954,1.42207415961438,1.42100143539272,1.46904666768261,1.48676881581753,1.61377333385698,1.65314819655624,1.69670797643376,1.69863970047791,1.6128770789562,1.57314558760507,1.56948673554058,1.49841631702621,1.45060999956323,1.59981438529674,1.67275999891409,1.75584423990449,1.83237000047065,1.75036935239255,1.74092681802683,1.73799355292457,1.7270170004301,1.7469244112985,1.89317584162427,1.90525320438774,1.99623000043748,1.938939277129,1.85106803385163,1.68960024678117,1.6559133095991,1.65803305123721,1.66014398138412,1.66411819987648,1.66911637097031,1.74160352395836,1.89529097539591,1.89688407283625,1.9253000540654,1.61567999973719,1.57188126723252,1.5707554214741,1.60960367070129,1.63012390830945,1.71036654744036,1.72015856952304,1.89287735027891,1.70466933784937,1.67460984088471,1.57337153862189,1.54160999922494,1.56752278193149,1.5853431159221,1.64953763364864,1.7767787845623,1.7382254529799,1.74034276053539,1.51626619737197,1.49440270251992,1.49267982172545,1.4721390763884,1.56615123637802,1.60128458841637,1.63105043465234,1.74318000001423,1.58769107076623,1.55100937492221,1.52501275299106,1.49212668580105,1.5145533959717,1.50424292652466,1.50651409867488,1.44130068997656,1.45116873336745,1.43596421872347,1.4717216649153,1.47375486266437,1.5516731056235,1.5959361259868,1.58941509090562,1.58365526747678,1.54060450915479,1.51839739169742,1.49570367858995,1.48276237206595,1.52572812543579,1.52393567236305,1.61324813161982,1.60916129975279,1.60951580255976,1.58168710060544,1.57710735983175,1.54663797039189,1.5562837768978,1.57746019349776,1.66367836193283,1.66863538664513,1.73335187762836,2.00224000065477,1.78517735455182,1.71587109640182,1.68710266880259,1.62186169763449,1.64417738022914,1.65136342740414,1.67273380081239,1.73850418083562,1.77856774732754,1.88649047022548,1.60983033294435,1.58477855188229,1.54973914327443,1.53479792155966,1.60516184407757,1.71071928733149,1.71318670775375,1.74311805152931,1.72089570268199,1.70664587942932,1.57144874270546,1.54692695439854,1.56082098856601,1.57631290277161,1.63994126445085
1.37467604708401,1.37305614367783,1.39643993776556,1.4004191020066,1.43516999853447,1.52069051504547,1.64207262162845,1.63883192576615,1.68600848627961,1.45789936124636,1.39141656576859,1.39334214023269,1.39136150257251,1.51419904715187,1.56905122745731,1.6679759972867,1.77923702376834,1.75885417099001,1.74597083964954,1.73672213099882,1.72583617747772,1.76031140442009,1.98591375009623,1.96647419841937,1.96734176918143,1.9651211070279,1.93606152290743,1.93180105669969,1.90038232853981,1.91286596767021,1.91795568457783,1.5451637841496,1.50775922915135,1.4849636248631,1.46334785541492,1.46374682588437,1.46374034032899,1.47928200545349,1.48282026133163,1.48447842559704,1.45429225383284,1.54477888635919,1.54624928781373,1.5631032969846,1.44953743708311,1.4346573086,1.4090467414962,1.41954837331462,1.42121301781879,1.47409381184954,1.54159341517845,1.56501287417135,1.74218173989001,1.42255318473703,1.42286512678655,1.42268460537638,1.45033856036256,1.48528039963944,1.61722666652974,1.63939420915671,1.69946832361201,1.69939554638716,1.61156327811787,1.55375007178663,1.47196999757185,1.50573333686073,1.51945667614699,1.59806524067466,1.59657333945074,1.75683410990692,1.76115162382571,1.75811130894569,1.75732561145211,1.74344949920141,1.77562460486426,1.76015021115533,1.82336999803348,1.89142199335495,1.94017028673942,1.93626024085034,1.93280061351094,1.68609220846605,1.59569949147568,1.619154267316,1.58891999743945,1.65537442901578,1.72785455581627,1.73745335939339,1.90306863377403,1.90001929337388,1.90775973506421,1.62027436762769,1.51722999892965,1.569250452286,1.58701169947173,1.6182492697677,1.69510238775672,1.71224807235493,1.91180264974243,1.71199581694006,1.72319641923155,1.57253966066035,1.51254999959934,1.55690752418955,1.58394316056078,1.63535025523665,1.77329421338609,1.73591931734632,1.72471819657281,1.51113401785376,1.47848106158122,1.49143987477883,1.56079170041357,1.56589607911062,1.67999000282802,1.63671860868976,1.63590574142009,1.59347669135049,1.51622151476084,1.52211560989418,1.51998293737182,1.575863769548,1.68040999999237,1.55391195963705,1.48247629158263,1.47861515924708,1.47332671755175,1.47136306469877,1.48750632527586,1.53597480335956,1.54433565163133,1.56134942018508,1.54618218517172,1.54271525727997,1.49796670914085,1.4962982155465,1.51266067897192,1.52928080455837,1.57014999997081,1.61675830688858,1.62759662926573,1.62081359017306,1.5955405095805,1.58868682749164,1.53377274384448,1.56009498397351,1.56240739825968,1.66639713158919,1.68306917985399,1.74669060173172,1.94787206555811,1.94732102135646,1.98256000001423,1.70171494413121,1.63944533311929,1.64526687180096,1.66898569501223,1.66882043282606,1.77057000535819,1.78211779464154,1.89434952981451,1.60579732900227,1.56227824056841,1.55218642083461,1.52592197105308,1.59862279529409,1.60807185995462,1.70709980132977,1.89715000001423,1.71715429777781,1.6664887980962,1.56359171569011,1.51539073651143,1.55899545264762,1.64339238396437,1.64071226752716
1.38309595856652,1.37358759531097,1.3653934892893,1.40105935295134,1.48472000098451,1.52481376486089,1.63204361689143,1.63618987929271,1.69568151408882,1.47367006737013,1.40328506947781,1.42231098606517,1.44493946341083,1.51395994494377,1.58341489085193,1.65464292412238,1.75761893834688,1.77345522926646,1.79066211308717,1.77086701084876,1.75756060993495,1.78978975672317,1.96212457675281,1.96458224218176,1.96613048744808,1.96414723635059,2.05864000001423,1.92985658625659,1.91934854401528,1.8815480159626,1.86308393421244,1.56855799951317,1.51784284372213,1.49569920845951,1.47543484687731,1.48506030211196,1.49455110560739,1.49183887691975,1.48963193526834,1.48696154394077,1.46223005463162,1.54552290055166,1.67072848126504,1.6694154819731,1.73344000011001,1.4696003027043,1.42560016594187,1.41937796093946,1.41030629208253,1.48082270445053,1.53331889263196,1.55967433770562,1.72435754791002,1.42529666395871,1.429711423865,1.42552454048316,1.4633065703963,1.48368031123344,1.48246790892091,1.63185246734763,1.77647680171789,1.70390581476191,1.76263000051785,1.54781370708963,1.51195062112718,1.51076973581331,1.56519871456654,1.61571268479158,1.63397000103419,1.77121262870749,1.81096000087774,1.76908046545482,1.72939800780648,1.71625228868379,1.7088096418489,1.7435121867745,1.86710013092058,1.8815380563473,1.95329838205388,1.87967270184068,1.80126999934322,1.68314122052415,1.64243294766669,1.64003184757195,1.65032984513774,1.65072556724809,1.65059791315556,1.70894379249438,1.71308028177703,1.82906979537272,1.87888804978743,1.62786754616109,1.63826040329347,1.56929110901812,1.52282434617151,1.58112348376205,1.58162114980006,1.70490134016924,1.85884000000711,1.70160409806019,1.59264999999373,1.56284680407755,1.48576583778976,1.5375177727721,1.5429482387998,1.62078723423674,1.77374578764809,1.73343899228105,1.73080964516351,1.50848855241178,1.48929562879053,1.4908301759762,1.54113956374554,1.56638226524563,1.62971971030725,1.63847522814574,1.63900417779005,1.59948170914202,1.53068375387287,1.55970323588658,1.61989085698002,1.62373039970422,1.71697000002186,1.58894887379496,1.53322000047079,1.49012987018174,1.45712096413341,1.46975019415544,1.46838748043816,1.51756498320353,1.4963279756921,1.60964404736805,1.86515276907921,1.56030244848444,1.48087534702803,1.49410087013126,1.51296027726518,1.53201304049387,1.60711460808423,1.61902628183443,1.95162242026481,1.94393106015102,1.98008000088834,1.59358338302703,1.55949209783137,1.56254313190767,1.60297566333531,1.66710005744116,1.73881999859769,1.76659760426716,1.97468347709778,1.94538450555577,1.7832199999918,1.70946491890327,1.68038687630821,1.64763892932183,1.62196999656094,1.66670901177912,1.78353492847524,1.7841895035578,1.84041833363409,1.60301235865278,1.53985715488422,1.55603062317983,1.56094319614169,1.59297005967361,1.67632000066364,1.70182157459027,1.73852,1.71227708879056,1.70522101914056,1.54989837561024,1.52685926190827,1.55321804528196,1.63659470643756,1.63884720498953
1.37036924163493,1.37251380389555,1.37293251125367,1.40200039770717,1.39793097612365,1.52778883954357,1.60653660163657,1.6268520700308,1.76801000001423,1.48325486328663,1.46959431861839,1.43336125560015,1.43320377072401,1.51404848749153,1.58591618267787,1.64384634739022,1.80948435437132,1.79818712819528,1.78641491741432,1.77681129315107,1.76411967781602,1.80847058154196,1.98262095850452,1.95700036404148,1.94284916783391,1.9292380577994,1.88975043955432,1.88239718569594,1.845910347175,1.83878657614542,1.76870999869226,1.59135485052207,1.52304955193132,1.50442343333453,1.48620546720958,1.52015947624125,1.57633077499978,1.53292571279105,1.52993217825894,1.52739788219227,1.52446455349904,1.54687173036134,1.6348162862741,1.66762947630295,1.66402873523974,1.48900923084261,1.43319805596383,1.45348885466628,1.47433918616422,1.48710404964747,1.547496375127,1.55579236138258,1.71559071258159,1.42420288559964,1.42598604288525,1.425037615237,1.45156944639029,1.48303465523257,1.61092641721655,1.62994590843443,1.76451319830344,1.64908683663103,1.61226999999512,1.5405851173568,1.5073872278498,1.511994830009,1.58455513732706,1.62869671268088,1.89913454926041,1.9327781120537,2.01675000001423,1.77484507525496,1.70339932404394,1.70088504496693,1.69391694579077,1.71853083813541,1.73314394184115,1.80151662647543,1.86177123764708,1.86244766213164,1.86269008683806,1.68146917726006,1.67974943284543,1.63803629998158,1.62185946456524,1.64071497964218,1.64476386605954,1.69520304194562,1.74676975204857,1.82188941770291,1.87248194937834,1.62667584454128,1.56116853310806,1.5596406434038,1.54865712729106,1.5797483501868,1.69029649306207,1.69862377709888,1.80742000000711,1.69904540604671,1.69244300775192,1.54652294548412,1.4729809855443,1.52607498234578,1.56239993775899,1.60634678368118,1.77130121630151,1.61372273224141,1.53381197862591,1.5072037833289,1.46973221624371,1.49077618096471,1.53665994767542,1.56830051287276,1.64300084007876,1.64022335147983,1.67916000296712,1.60582916918374,1.61417554221982,1.57201542104084,1.56513510492773,1.62718690593257,1.86638000001423,1.77780070565997,1.86282000001423,1.50104927139687,1.49085539817373,1.48897634955903,1.50277533575004,1.52395871284996,1.69863722644837,1.71091864629744,1.85046723094213,1.56583064729805,1.48899017791581,1.49117989829693,1.46093416014401,1.53346578530027,1.62389450405838,1.61993132991933,1.93156597470347,1.94334546037485,1.9423918830935,1.59907374755309,1.56565944585327,1.56533185784643,1.56847774143474,1.66614523478945,1.76472999879349,1.79284021313612,1.9492373012472,1.94618590537265,1.98872000001423,1.71815693716347,1.74482897900364,1.65281221652996,1.65345692024927,1.6652677046962,1.74473220790951,1.78785747062344,1.83809166737934,1.60175959103339,1.58563111806503,1.56221527649788,1.55959176019464,1.58751872135597,1.61619838903332,1.69646512662494,1.86477000001423,1.64921329425912,1.53920056075836,1.52036098812731,1.47886040545656,1.54547831810134,1.61318338207306,1.63905071618952
1.3952130273016,1.39607141699998,1.39656089033626,1.40789034319613,1.4105097597796,1.53737530127834,1.59534941684499,1.62189458647243,1.66051005958817,1.49126374059536,1.48120727499568,1.43404084812293,1.43344430147753,1.51465261460551,1.57972355943938,1.63844131497554,1.80557124581632,1.811297791165,1.81447869029903,1.81978963680198,1.82452458750482,1.82801991277199,1.9326227513721,1.92682751278465,1.92527766258941,1.92006306761058,1.89287270834547,1.87771591156204,1.83811487154409,1.83526203892535,1.80488440909244,1.61445950354658,1.56833082755974,1.55636457422702,1.5366225308607,1.5372892176583,1.53724708858663,1.53484018630298,1.53137538567523,1.54130559887685,1.54305341619794,1.54862924601135,1.6459492927576,1.66829550914817,1.66709113713721,1.49618871140388,1.48057030692448,1.47427923319851,1.47470399308191,1.49212767639524,1.53578558877867,1.55612886856544,1.60542484464554,1.42233664996065,1.42388580584219,1.42426625430578,1.46378368170541,1.48190423730193,1.56750181182874,1.62584854318575,1.62749207055316,1.60349926434767,1.5753687600129,1.53118046121478,1.51441073303863,1.51489838784887,1.54947780049506,1.64226220553105,1.93277868290064,1.94551409470126,1.95923384186162,1.78358610264337,1.70667013226713,1.69794227487875,1.69578309432521,1.71169140720738,1.71839352154074,1.77109585795333,1.84205420363187,1.85655637051692,1.85940035222913,1.65933903296703,1.65599037919668,1.6353513166747,1.63168683468374,1.63763453064334,1.64059548281449,1.68015627438297,1.76637066693066,1.81031682016078,1.81067748177919,1.62606811799928,1.5878411707296,1.55946787433519,1.5563849634944,1.57774541065676,1.63415446478042,1.69321579842893,1.71481360577107,1.67471152783638,1.66498764634063,1.52733612853475,1.49923769893666,1.51197306968212,1.56523778162143,1.59202333348016,1.61206123228998,1.58019830329609,1.5134159047422,1.50297581436735,1.48785916257885,1.49118570745804,1.54746789099994,1.57200930603981,1.63311005572807,1.6166492887204,1.60375496674334,1.59806568500451,1.58910527806105,1.57880686035743,1.57926508210453,1.63049507549416,1.74926403144271,1.76417397638962,1.7778016038814,1.51357366092496,1.48864217270526,1.48871993247102,1.50309699618236,1.53045935315132,1.68231831245241,1.72137546795492,1.73015026858953,1.5717092653271,1.50044641749217,1.49360283422831,1.48454567236305,1.53607178218964,1.59163881556115,1.61620366544187,1.93554215546883,1.94036861796477,1.94189560411007,1.60439198171905,1.57559158419239,1.57400317217878,1.57088238640332,1.664871965227,1.78663947544274,1.82199163591208,1.94705375755616,1.94671429337797,1.94619513975157,1.70611577335523,1.70162539076513,1.655234561309,1.65698671883506,1.6640395270946,1.77941155937912,1.79275876766782,1.80922870167312,1.5999166023238,1.57213130251633,1.56475844003977,1.56669079165151,1.58348449927096,1.63961654628172,1.69058764163306,1.72009007426731,1.6294972367117,1.51907302951569,1.50870452707382,1.49516733470901,1.54081858936262,1.60206502578244,1.63933409338026
1.3935432036634,1.39546826790916,1.39617200207916,1.41018247105046,1.41339519175534,1.54692047498427,1.57638365023844,1.61660287752997,1.72992000025952,1.50893691265396,1.50676845253027,1.4355994548511,1.40201937096066,1.51571892949406,1.57352420709855,1.63702634066085,1.79522845508688,1.8229344232678,1.85075008586152,1.82223696708365,1.83170396752609,1.83507888870807,1.94362586993076,1.92197451524184,1.89994607485568,1.9010602403117,1.89556660032604,1.86955558309313,1.82392011045257,1.83029701553982,1.88288000137714,1.63827150770401,1.58676379256918,1.5661658251562,1.53607283522201,1.5377038891007,1.53924029434694,1.53764322035843,1.51202718535427,1.54526895495018,1.55291195329188,1.550457184075,1.78088000130989,1.77719934777501,1.77241091502974,1.50406804836574,1.49332639644795,1.47350762624039,1.44297192274584,1.49363473319335,1.52776288076582,1.55587596102767,1.72820000001423,1.42036820487844,1.4085945062734,1.42401178464915,1.48083559718848,1.48032866817239,1.5291799989481,1.62222379974909,1.64739590275786,1.57221440984243,1.51613221234706,1.51521447443174,1.51414329213176,1.5188027024877,1.52159254692315,1.66489075826237,2.02950000058131,1.96682930181657,1.9633808901306,1.79360375807237,1.70812436625216,1.69364500975243,1.68855555339924,1.6855122265851,1.68234020636919,1.74728971545451,1.82559713322373,1.85419582981108,1.89616609426053,1.64835911296737,1.59849880476454,1.61624314195353,1.62913544157532,1.62527139091086,1.62092027158373,1.67042990118928,1.84528000114373,1.81071698290364,1.81154079333594,1.62518857755401,1.62408535197311,1.56082736300805,1.5271434060345,1.57603236565257,1.58464149433837,1.68980880184539,1.77493186891712,1.6601437051228,1.63968421436899,1.50848895431173,1.46830999818934,1.49754385362111,1.56821550083811,1.57624138994707,1.65825688880377,1.55439312515172,1.48855319579844,1.48048640235449,1.47312131690062,1.49186248221323,1.55609991133608,1.57738430341535,1.64812029661703,1.61136211345612,1.58336670390433,1.56881120806041,1.54087858685224,1.57736281179581,1.58105301740202,1.63309336517346,1.72208458150196,1.74148181853515,1.96584000001423,1.5283236381025,1.46081754924814,1.48750814273416,1.50268796674214,1.53124970315976,1.65345795604706,1.7295804677536,1.89315000006157,1.57854397058747,1.51423878768425,1.49529722966144,1.47489102024412,1.54185446651858,1.56469645951494,1.61270349910024,1.94830202215356,1.93992762496411,1.9414768041451,1.61003413351794,1.57816396506017,1.57560051370558,1.53025999798278,1.66701486374605,1.93516721198501,1.94052043418333,1.99054000000711,1.97984180761283,1.93799735967874,1.6985880432213,1.67886704238978,1.65709275671465,1.65904792995644,1.6620395725651,1.80298473937339,1.79754880946204,1.82094693400235,1.59809528956685,1.56254575042795,1.56472558330947,1.56765963796012,1.57895032328,1.66553974640422,1.68467247317038,1.80383333333961,1.6188016756692,1.50540673852988,1.49956866962885,1.47867825595248,1.53414045303883,1.58703258391174,1.63968312576449
1.6072684976735,1.39780683482802,1.38009729701866,1.41732486662451,1.43264763593581,1.55763707461469,1.59208147983201,1.61150027082207,1.60397355841495,1.51042153260901,1.44345622409776,1.43868080304533,1.43642411194999,1.51661325153772,1.51864914964148,1.63331753334322,2.17080000128874,1.86720895321971,1.8948154343477,1.80422545746663,1.77318899319478,1.84881974709278,2.00008904690627,1.91971429369231,1.90145908157916,1.90211781141669,1.87444820084099,1.85820820860547,1.83849245334161,1.8254287453278,1.81006315492608,1.66279735439416,1.58730715984223,1.58481005474403,1.58254838639493,1.62915857545252,1.86128603426003,1.57633721258275,1.55554332942277,1.5466137075167,1.55076281708377,1.55006164603041,1.70095999790021,1.77749548110354,1.87664000001423,1.51802781627037,1.53367429628091,1.47242275489048,1.46102435015846,1.49597119009839,1.57021011416915,1.55485345778365,1.42922723937207,1.42079293752997,1.36440932716105,1.40701065324739,1.41207478744399,1.47809197850318,1.60828250149025,1.61679448100997,1.71533000001067,1.54071694622822,1.49293024748433,1.48547289947858,1.47580110761078,1.52035522204427,1.70088936089994,1.70968015935825,1.97635112939978,1.97037892831561,2.01063000138594,1.80403841976495,1.69780579899219,1.68096794286206,1.63771999820232,1.66950377523421,1.71444183045156,1.728253267537,1.80509628151476,1.85149767416844,1.92111390641993,1.63494082371339,1.56953489566624,1.55269874098461,1.53972167316409,1.57224821886368,1.5824252290517,1.66035320337969,1.71373999863646,1.79397726535658,1.81690635255591,1.6111723597066,1.58732904229952,1.56278042185106,1.53465655941568,1.57548739040125,1.59110639379207,1.69000940002764,1.75954813126963,1.57236492203966,1.50173000047125,1.47259893782481,1.41982182313656,1.48620084076025,1.52006848069585,1.55653952620585,1.64497069656417,1.53508734984813,1.43784611294026,1.44695124209911,1.46061638163011,1.49238126370785,1.5798178458064,1.58398427184756,1.62335045547721,1.60980484114556,1.56830194489662,1.56061053672963,1.54675858312546,1.57639771751917,1.61242999988157,1.6360553502,1.69129836439679,1.7277853062287,1.76370000077931,1.54252979999371,1.47740431730384,1.48119489041545,1.47402854122621,1.53117137090239,1.77527000182488,1.73965553404682,1.83547000097739,1.58509282435988,1.4973753618877,1.49670968114215,1.49698812481292,1.54923099169418,1.56210158515359,1.61013050965903,1.93546393057162,1.93594873165751,1.93439506355568,1.62661242453098,1.62651938095786,1.58696111170278,1.58349999084812,1.67359079067857,1.96005093920636,1.94870961907266,2.05309666667734,1.98342988916748,1.99001814066991,1.69204545025188,1.64584103695375,1.64203726662043,1.62990610381551,1.65754417988982,1.78097141095977,1.7898128193932,1.81995353622297,1.59673601849048,1.59559058799211,1.56372526690114,1.53035347017503,1.57838716346856,1.65612360037222,1.67896043737101,1.80372666667462,1.60885085624301,1.49173170462939,1.49551532779046,1.48033595880321,1.52349335935537,1.60248920695146,1.63999559323775
1.59054150234784,1.40258790462772,1.38156449561473,1.41555415118408,1.46841000077109,1.56857025477512,1.63329577496455,1.62948331887018,1.63535100340269,1.51272721112719,1.47574982379215,1.46367098996586,1.41508046660388,1.5167455717089,1.51152525547801,1.6277367203231,2.12672999733507,1.85020214828108,1.77487570248652,1.79165875900367,1.77238900853706,1.8579432411186,1.9754421753586,1.90886671381708,1.90448556605348,1.90322461404059,1.96407000073395,1.84774918038581,1.8159281134027,1.81197343759462,1.80788817144583,1.68819480830653,1.74831000081822,1.63598274356638,1.68223558117954,1.69603720212859,1.83780396579639,1.58812928719543,1.6176321866862,1.54330972886582,1.51668393014397,1.54944812000594,1.59127233045085,1.77717398194044,1.80711584649602,1.50663443566922,1.49252731648575,1.47100994117494,1.44073315650574,1.5005024914436,1.50564088324225,1.55295897895503,1.72727000001423,1.41472728860586,1.36698271804734,1.39292627710802,1.39483562028242,1.47610214007646,1.52103809139212,1.55840503481174,1.71401000001067,1.5087423384363,1.45527580330244,1.46210888562675,1.46024565669524,1.52364520084686,1.68618052964823,1.71612949838066,1.94863794903672,1.94986385944987,1.90604999693953,1.81100288039375,1.73691000052714,1.66373442916856,1.59316018462886,1.61160982369845,1.6136843264577,1.7002901958714,1.84328211757744,1.84765900867454,1.83247697823718,1.62041467970536,1.53076179662198,1.51908639276237,1.51185693682078,1.56399240331555,1.58454494977291,1.64969709733779,1.76289069565682,1.77395936031002,1.7888943180121,1.60441070666672,1.58229200827961,1.56495341059571,1.56719642557344,1.57610616482961,1.61011453487087,1.68932535902422,1.86636000001423,1.54086745854268,1.41851261569765,1.41579573641653,1.41337510098155,1.47245014108976,1.51466151886475,1.53866610891956,1.63313241585069,1.52143488837238,1.44284173127393,1.43435427776053,1.41581575515551,1.49228337264518,1.52003111701129,1.59055914364951,1.60456900317623,1.60541924928184,1.53995147312263,1.53573896716555,1.50558480666733,1.57509105914346,1.6433698136914,1.64306119884085,1.7000444617635,1.71545527538339,1.68328804771306,1.5548317275128,1.48995632163839,1.49683455048336,1.52392620275866,1.53128420336666,1.64064000009951,1.71665895302482,1.81178499925178,1.59163537929694,1.55508294412704,1.52080221204718,1.52265492654856,1.55668834179451,1.55912426591976,1.60844312773034,1.9186820252063,1.90722057895506,1.90130615954129,1.62611958754653,1.5723728745111,1.58959236121242,1.60422927077239,1.68196764799987,1.69629999999511,1.9516037671947,2.053923333344,1.97756929932616,0.0042123700699115,1.68769274637996,1.68716967912677,1.63821953059136,1.62365358820427,1.64312155009523,1.65441387709584,1.69393414105736,1.73577000081116,1.57733448080596,1.56293599429595,1.56287304064558,1.561674246214,1.57781045506377,1.65303049439285,1.6729723447714,1.85138999898405,1.59580133424956,1.49893787874679,1.49858093107876,1.48106794050307,1.51007719771724,1.56754999933882,1.63989278264059
1.44249725912576,1.41276943814892,1.41454968225346,1.41340992734587,1.61064582751804,1.59876304272986,1.84389000001423,1.6257273855382,1.61225219721556,1.51694736450445,1.4820364713907,1.47066993658085,1.44813497303419,1.52115261063127,1.52901397872454,1.62014347792731,2.16890000140465,1.83119436398581,1.81684361402829,1.81607886021345,1.84479035406416,1.86640602826633,1.97686877776358,1.89996320995882,1.87978004345966,1.8803295413673,1.87918569223812,1.83828029306834,1.81778448394382,1.7417110093454,1.64920830772406,1.63330688344387,1.56627738044093,1.56880292874284,1.56696673298123,1.70441914310341,1.79632999997204,1.57313837456348,1.57012718941102,1.5408253091732,1.53425376324688,1.54970027606194,1.57132079532567,1.77798618215909,1.81313415351821,1.498161829491,1.43548999771566,1.46995487080454,1.51010541719757,1.51553332687966,1.54879522138601,1.54986972855214,1.40420127798269,1.40599829218089,1.39100887466232,1.39362755235863,1.39719091080388,1.47471195797856,1.52767461273003,1.50600227745178,1.47193101899389,1.45938886230201,1.42031360241988,1.46389882254803,1.54458819672858,1.52888429754292,1.57954737936412,1.71944555732411,1.97399257116221,1.95095050686683,1.9544068978603,1.83539949748488,1.83019129304212,1.64532902365628,1.58979537971606,1.60776192210964,1.62183819184362,1.67553172798802,1.88055809038203,1.86456505235988,1.87633505266845,1.60816696671734,1.5157435865268,1.51091576577025,1.49752053794835,1.55489765916084,1.55828223540613,1.63840802531429,1.73208563234066,1.76228868975775,1.80901510339171,1.59634918618999,1.56384296689099,1.56284263574345,1.54323296463265,1.57683700904237,1.61035462445869,1.6868601821035,1.80708000000711,1.514221273865,1.41893887642142,1.40831887959726,1.3637016711259,1.45869120409662,1.47161903006299,1.51112483470918,1.55071000103115,1.51183167236966,1.4222263403194,1.42909720703791,1.43041795276187,1.49138679857124,1.51472309527958,1.59621992003793,1.67301000008496,1.60586707266221,1.53014781418934,1.53133547379766,1.50453819200938,1.5730306171742,1.57355788169554,1.64244631210041,1.70606272632791,1.72331324378216,1.88324000001423,1.56557836637098,1.48616924381158,1.50477690794965,1.51427792803738,1.53238198833813,1.59232999835671,1.70867671598796,1.81608499974483,1.59867685028702,1.57815611992113,1.522799673838,1.52342504652468,1.56283537333732,1.56440649371889,1.60743150208324,1.60703947098662,1.6210310149201,1.62444061288727,1.6248095005841,1.57365967791198,1.59101368724681,1.59263445949888,1.69211984383269,1.97179000001423,1.94832045071521,1.75262999540967,1.97421120098824,2.03293000001423,1.68774120730914,1.66732604403236,1.63451768145148,1.58253494347521,1.62549518257519,1.69936277894359,1.63823516474461,1.56275831931479,1.55938799430158,1.49880413540952,1.55068084261239,1.57548802516407,1.57675139961914,1.668421721915,1.66889146074435,1.88654000103729,1.58133312274612,1.54051209964614,1.50048065494251,1.47264714497827,1.48623202209875,1.47429092523592,1.63917243569729
1.43220595034181,1.412557323246,1.412897966248,1.41013178894021,1.58239252691298,1.59112654722246,1.60192768634709,1.62357461732646,1.61899624051104,1.52186073509419,1.49570287775383,1.49718566234365,1.4987781601601,1.5231601930196,1.53139589708763,1.61217117292335,1.81186643589495,1.81317712503688,1.81572991422146,1.81583432222144,1.86308847961245,1.8751339240095,1.91722257025269,1.89248576583064,1.87746970558536,1.8743894926932,1.87143857204042,1.82944153791515,1.80816671138832,1.71147590197807,1.63443080294599,1.62358106121029,1.56922791260652,1.57074964360251,1.65261819755028,1.71233514550212,1.71727217256384,1.56356463339791,1.55838162593435,1.53877315444654,1.53677632855728,1.55079261606645,1.58512384667196,1.78009182195746,1.78105427094057,1.49391882019157,1.4696841409697,1.4695691016419,1.52008652308862,1.52441493885553,1.54479925384314,1.54686390243844,1.41446755982481,1.40792757463187,1.39097557607975,1.3919728323702,1.40607063804908,1.4743033560541,1.50968782633539,1.50539981385443,1.4589127988357,1.45131562481879,1.44191136788468,1.46549246685095,1.51136688824571,1.52109099049112,1.58903866801874,1.72283716609867,1.96522713897661,1.94904498900288,1.94394922105623,1.83998201323074,1.80697064541575,1.62574082831778,1.59704748022681,1.60248622423594,1.60855193459336,1.65382052639209,1.75588491786755,1.77617230883083,1.80133353606687,1.60152290929354,1.51079049765266,1.50867060875182,1.50318739198837,1.54025312494512,1.58448286198513,1.62699948441473,1.68894283141494,1.7596016903157,1.7631774806442,1.58244960495829,1.56304583283062,1.56183145361175,1.55896824731079,1.57712038693759,1.63713382322731,1.68234929430626,1.6883712044371,1.4912716543144,1.41589238680858,1.40325855500981,1.38324535570856,1.43959372804688,1.46653556018747,1.50050509803006,1.50192185886306,1.50387875570165,1.42689456443218,1.42820134012656,1.43215870935722,1.48984660606804,1.52814638304886,1.60001486724805,1.6037660023589,1.60521663089008,1.53596473208483,1.53125892999529,1.52474830198263,1.57014959338027,1.58853765610825,1.64299808867004,1.73222593537663,1.73593280145205,1.75958828227116,1.57597796767215,1.51265731991887,1.51660091778304,1.51676095828283,1.53499119316557,1.62185493113888,1.69982737339869,1.70288323293234,1.60658598995043,1.57824921152607,1.526371302856,1.52786577912615,1.56737424175482,1.56879397288595,1.60954434980148,1.6122757240778,1.61857689431454,1.62192327265808,1.62290537385725,1.62130712866558,1.63104181679439,1.63495843572716,1.70277453759869,1.92617913711753,1.9409006610006,1.95299827622308,1.96921597710961,1.97114856926437,1.68687305549624,1.66434341148379,1.63130989770583,1.58990923479937,1.5943623840775,1.60072586145615,1.58414324165318,1.56081510990583,1.55646554684789,1.52620061363159,1.54189423877987,1.55651424651149,1.56102807552341,1.65725112787401,1.66182125117034,1.71373012618068,1.566907510369,1.51540329930058,1.50110035217463,1.48836426531417,1.49091982774435,1.56534488683279,1.63795303677841
1.4328492030822,1.40802291165028,1.40598292125926,1.40707731317982,1.57607737037789,1.5738275418972,1.57181471849431,1.66589274684807,1.84891000001423,1.52755727652707,1.49428603376723,1.49639458626666,1.49966793060721,1.52401928426628,1.53437354969476,1.6087273139453,1.81034751227119,1.81163244474432,1.81751457747748,1.81629279631848,1.90105309025947,1.88504694138546,1.94217785146839,1.88196495319344,1.86640876288348,1.86805058203163,1.86891932541983,1.82116516665842,1.79651761345813,1.69134409605839,1.62911291927506,1.61507817163017,1.55315999828624,1.57242947301723,1.78933000001423,1.71644194101248,1.75941741391301,1.55802315181603,1.48825838564243,1.49914607868408,1.50759947186625,1.55252640314172,1.60665039630384,1.78105498684608,1.81698397739246,1.49254506535148,1.47032431636859,1.46969098150671,1.59794000065948,1.53364044519185,1.54220599543555,1.5449722337201,1.42544521123378,1.41029749262181,1.36864714550272,1.39246621911141,1.42465892463691,1.47520090469693,1.52102635261564,1.50355848449445,1.44731929244471,1.4441691428415,1.42902853077518,1.46739459729231,1.48897472826151,1.51626489225378,1.59959835722259,1.72677255145788,2.00465000001423,1.93848332566798,1.90504884035478,1.84328522673869,1.77093670056644,1.60909369885748,1.53921459475463,1.57656493853992,1.59560884042257,1.63047220118126,1.73299744582847,1.75312519429959,1.87346000136243,1.60117128430371,1.49954068175352,1.49775399477982,1.45115999770806,1.52587434627351,1.60788117936695,1.61896974332411,1.64511999926839,1.75464069808505,1.76484273459702,1.56928732823602,1.4868555913775,1.54490174430809,1.55523697158759,1.57713328529224,1.66882131912243,1.67609956689203,1.76959000001423,1.47074678132968,1.41393350671002,1.40091757852282,1.36530179115939,1.42357076622005,1.46141928084014,1.49961932528797,1.50140925607172,1.50537939672945,1.4088535703379,1.41515871743154,1.43376483931559,1.48789477725545,1.53835428669529,1.60154099810479,1.60261974094144,1.60522650611834,1.54833046417315,1.53004048356129,1.51823092272837,1.5670690328189,1.60467814684616,1.64460564497218,1.75246373926797,1.74954538570918,1.89056000001423,1.5867886542773,1.50780432807282,1.5190050278389,1.51924037607425,1.53891499761144,1.65334000098373,1.69171743193216,1.84416258892047,1.61536508765963,1.57915615797109,1.52913639008612,1.53001517041349,1.57067953728872,1.57424190509584,1.65430510453546,1.94373153371486,1.94253492876103,1.93847615334759,1.68974050078412,1.62076130623525,1.63504806750792,1.64155106788874,1.73118466598487,1.9128642283464,1.933468615892,1.97792729710864,1.99007045935841,1.99299160985511,1.68554241732979,1.6609098423682,1.62949581079696,1.56868132801341,1.58644969283354,1.61210296282958,1.57708847789108,1.55918660362325,1.55204643730463,1.51573829385908,1.51100687484549,1.50546614791703,1.55425438818584,1.64725379445842,1.65680383755124,1.83105000001423,1.55370230921441,1.50222298442418,1.50183988474733,1.47887735232032,1.49886235143908,1.63491438432353,1.63647819024892
1.40198344554071,1.40346479184738,1.3851268704935,1.40566672180308,1.48495999902654,1.55949710915644,1.75448000104376,1.69923211259618,1.78154944884568,1.53278331293918,1.49707155794041,1.48740241155494,1.43987564398104,1.52686417868217,1.59966705547615,1.60595211021454,1.58730187696765,1.80851252572494,1.79503996755904,1.81320903386158,1.83313788235906,1.85606808737672,1.87484099907058,1.8722202474147,1.8699489289599,1.86928955964537,1.87002530632242,1.81289142234661,1.78627554720401,1.67543282298031,1.59980445570061,1.59978834406409,1.55227999758238,1.57603610290235,1.64805999963341,1.67990382993327,1.77404258768911,1.54777103186743,1.48795172588354,1.49330588980677,1.55896031794828,1.55484748523942,1.81142000151397,1.78432709312205,1.81726392147148,1.4869927965614,1.42851685186247,1.43250450520962,1.43446217935234,1.51831621044171,1.5412903336234,1.55567573208738,1.71299000001423,1.4124601830371,1.36698724368919,1.39374226478561,1.47262854488874,1.47663508174194,1.54040455851993,1.49914089187008,1.43572974027305,1.44119869720691,1.44020788474555,1.47026164170937,1.47191329587848,1.51398764201229,1.59180442839131,1.73016263688227,1.90370328183601,1.92576497683965,2.03580000001423,1.84475110633551,1.84460868449001,1.58588882041981,1.55747010631606,1.534658018904,1.52008791336701,1.60538410391582,1.64535086416204,1.72458004554566,1.84077999985639,1.60004966891141,1.4989763724747,1.49802804394076,1.51122130379979,1.51250451236598,1.55737000037833,1.61467754936987,1.73649244711188,1.7475719376209,1.75152697150975,1.55351872380423,1.51175370104557,1.52862599220237,1.5764307714367,1.5769430743026,1.59283268173131,1.60804465135037,1.4866299999929,1.4519260501153,1.40012478461553,1.3987387400429,1.36448996037504,1.39885165635073,1.40712021054426,1.49769089557498,1.66183000000711,1.51010080861912,1.38288036128486,1.40734827657083,1.40211263967801,1.48615939592075,1.56090029267771,1.60754006965468,1.83460000001423,1.60556049738592,1.52913293512462,1.52933049802542,1.51794062055984,1.56366638217178,1.6109667572794,1.646963914202,1.73961402629239,1.74540528368034,0.004290850069822,1.59792110222394,1.61280209818624,1.53539936225972,1.52760711035091,1.54380976922238,1.5788160865645,1.68682550433467,1.85593741060922,1.62465624338311,1.53098658417646,1.53088964219496,1.53243991902369,1.58741308249628,1.60020511779982,1.6841162001553,1.98952000141768,1.94409544635686,1.94502562955119,1.72478715015458,1.66912999924174,1.71239259370357,1.73892000029429,1.77379674556985,1.87656509632672,1.92660976458254,2.05754000155626,2.00967680001903,1.95367467907853,1.68436107925229,1.68318860370279,1.62806698686477,1.55446455410847,1.56671065760285,1.54392746257452,1.5600825806153,1.57557954989265,1.54610680596241,1.51451516600112,1.50216089452305,1.48034318867532,1.53764589481313,1.64878297741777,1.65212165870965,1.6781439343733,1.54698810811963,1.54442946959902,1.51148493545154,1.48156148193599,1.50552294744206,1.54482760413394,1.59370972698886
1.44679497241503,1.40597492182427,1.40512704870298,1.40602493619762,1.52987539187642,1.53525251816493,1.53129638605345,1.6829025143327,1.77583493734702,1.53830580367183,1.4987694701586,1.48039699345512,1.44220104590969,1.53171881729687,1.62522203896474,1.6467818503388,1.86843000109891,1.81813216334663,1.58984999998592,1.66632496830799,1.65882914568664,1.72810938550729,1.86842007671257,1.85744845941548,1.83983352958097,1.84287523081057,1.84643849569121,1.80433623164341,1.70792999999406,1.6581126388257,1.61998180302073,1.60065413544158,1.60243744019557,1.57985058387297,1.53525999851178,1.60199679291745,1.53277606219988,1.52781989208826,1.43726248740251,1.48860262120855,1.55296189058828,1.55416780559948,1.74583601547648,1.76703207735616,1.79031210050474,1.47580783795224,1.42887833505859,1.43161225385798,1.49654013875678,1.49856679171624,1.63166000026376,1.57001314437331,1.58585322407644,1.41367728182081,1.3844323234914,1.39490780405371,1.42110385293147,1.47711367133159,1.48117153342363,1.48359957186793,1.45019844769742,1.44977591588989,1.44787932641109,1.47224794224703,1.47475362888629,1.50663037983639,1.49178862725945,1.73195793402145,1.90230947434422,1.90366717470967,1.53368999962874,1.60212987998347,1.55306386651897,1.55887900056607,1.51653639476482,1.51845801070768,1.52058224003716,1.58134132084506,1.66051913583749,1.71711195404488,1.82068999953434,1.59776289787945,1.46104320851073,1.46618474706865,1.46149603205243,1.48675781744227,1.48890139572386,1.59964330112889,1.5982151330707,1.64738927783914,1.71162999996735,1.53166486603408,1.51326037291595,1.49987252208136,1.47910674888914,1.52711521417436,1.63464256315647,1.61955310900519,1.79340000001423,1.43157603115046,1.39492367047896,1.39436382112198,1.36738142753256,1.39519475499645,1.49264991739825,1.49675171600751,1.71638907545568,1.51359954762137,1.42039579690862,1.41197636213383,1.40627244173191,1.48348640965665,1.47810145031265,1.60771580378985,1.6084748534743,1.60315124640231,1.59774673120041,1.55016478756235,1.54851146330244,1.55980658733545,1.61411256737865,1.65007565365291,1.78266403424078,1.781783637495,1.82218065185712,1.64008902864968,1.64301754464792,1.54666683896587,1.54351817057134,1.54942999506953,1.55302169440796,1.68537341650247,1.90612000049876,1.63396418081696,1.56106470245148,1.56060044616315,1.56062899557028,1.60284192040245,1.70959474433684,1.72095540867306,1.93629999902526,1.90235054497249,1.74866844113241,1.7748637401431,1.79303829966878,1.78075069504874,1.84310060388074,1.8373315479658,1.9129831859492,1.9234299450389,2.0266098649853,2.01831539711392,2.08836000001423,1.66232544517563,1.64731218347412,1.62462990914627,1.6063301722563,1.57443920752013,1.5403205200687,1.55037883574532,1.52700801901658,1.53972245949994,1.51531410692873,1.49030631622184,1.47582266717274,1.51782601142492,1.50666930007819,1.52884965792427,1.52079804569299,1.53236621256352,1.53148600142165,1.51926689333407,1.48796582011284,1.51147861571966,1.52119716828758,1.57016677181083
