0.917693,1.00722,1.00979,1.05739,1.01706,0.899833,0.00318862,0.00302564,0.974285,0.88775,0.891951,0.894945,0.957797,0.959582,0.95789,0.935914,0.828308,0.827096,0.825727,0.819095,0.81848,0.808965,0.808608,0.81175,1.00094,1.10533,1.01977,0.898678,1.03807,0.902006,0.960898,0.867488,0.867996,0.878452,1.02599,1.04918,1.04607,1.04709,0.984806,1.01343,0.931151,0.933566,0.93621,0.941382,0.940263,0.944619,0.948372,0.948177,1.07121,0.00338882,1.10438,1.08405,1.07527,1.07515,1.10863,1.1321,1.14305,0.0033595,1.08202,1.16738,1.17116,1.19169,1.15992,1.18148,1.20149,1.13622,1.19755,1.19185,1.21268,1.20528,1.22555,1.24408,1.23231,1.27524,1.40198,1.40549,1.22796,1.22463,1.22344,1.23071,1.25385,1.2449,1.22311,1.25207,1.24666,1.2632,1.24974,1.39803,1.44349,1.45042,1.445,0.00318956,0.00319524,0.00319125,0.00333967,0.00319887,0.00342489,0.00300538,0.00341415,0.00335334,2.66332,0.00328471,0.00340588,0.00319248,0.00322341,0.00318465,0.00315319,0.00331036,0.00318829,0.00311191,0.00306195,0.00327264,0.00342924,0.00339329,0.00324153,0.00333858,0.00351968,0.00319764,0.00319284,0.00331933,2.58516,2.5855,2.5851,0.00314174,2.53221,2.53211,0.00344581,0.00303873,0.00336761,0.00322489,0.00347821,0.00341882,0.0033741,0.00337956,2.31829,2.31788,2.29538,2.15495,2.1589,2.15954,2.11087,0.00309751,2.09143,2.13042,2.06974,1.9965,1.99523,1.9906,1.97672,1.98236,1.91849,1.90033,0.00326886,0.00338711,1.8166,1.81666,1.78945,1.73584,1.71927,1.71607,1.69086,1.70301,1.6447,1.65209,1.64351,1.622,1.60334,1.60408,1.55978,1.56953,1.54728,1.52972,1.51768,1.52001,1.50735,1.48623,1.48981,1.48655,1.47506,1.44883,1.45104,1.43505,1.46088,1.43086,1.41587,1.41043,1.41011,1.409,1.39176,1.39194,1.4133,1.37698,1.37606,1.37664,1.38067,1.44164,1.44655,1.49407,1.3566,1.35823,1.36031,1.35941,1.34857,1.34725,1.3568,1.35678,1.36064,1.35815,1.35524,1.35323,1.3541,1.35387,1.35562,1.36075,1.36079,1.3712,1.37408,1.38264,1.38567,0.00309311,1.3963,1.39986,1.3959,0.00303472,1.37755,1.36635,1.39534,1.35437,1.38173,1.35426,1.35469,1.35024,1.3515,1.35516,1.35244,1.35491,1.35676,1.36267,1.36696,1.36703,1.37351,1.37352,1.37571,1.37474,1.37381,1.37465,1.37458,1.38314,1.38413,1.64455,1.52823,1.52995,0.00343085,1.53652,1.56752,1.54109,1.45298,1.45698,1.45677,1.45577,1.45446,1.45435,1.46324,1.4625,1.52643,1.42686,1.42657,1.43027,1.61088,1.48181,1.6174,1.47688,1.47875,0.00316268,1.52667,1.52416,1.60558,0.00321082,1.53805,1.54617,1.42179,1.41747,1.48752,1.41168,1.41161,1.39284,1.39103,1.39251,1.39304,1.39354,1.39452,1.3969,1.51243,1.41832,1.41539,1.4157,1.40974,0.00325945,1.40028,1.40065
0.00320423,0.00329036,0.909495,0.891498,0.89134,0.883006,0.882462,0.887507,0.987673,0.887997,0.960435,0.87071,0.867101,0.928262,0.9766,0.975322,0.83522,0.835694,0.909079,0.84538,0.81166,0.81444,0.816582,0.996028,0.999968,0.9134,0.835339,0.844108,0.844206,1.04206,0.970596,0.979064,0.878992,0.88165,1.09633,1.01902,1.03982,0.911275,1.03035,1.06931,0.929392,0.93022,0.931979,0.933196,0.935796,0.942346,0.94263,0.946511,1.11359,1.07498,0.96059,0.960066,0.960311,1.11064,1.11411,1.07063,1.1375,1.12923,1.19195,1.14059,0.0032153,1.13939,0.0032095,1.1065,1.17847,1.22698,1.2287,1.18899,1.21641,1.13268,1.13258,1.24562,1.23951,1.16397,1.32998,1.25435,1.24892,1.17289,1.16997,1.26656,1.27453,1.2523,1.25226,1.24228,1.24054,1.26551,1.2618,1.26909,1.32561,1.30939,1.31668,1.28151,1.25897,1.40504,1.38317,1.3838,0.00300359,0.00330128,0.00332545,0.00362755,0.00339329,0.00331949,0.00316229,0.00354221,0.0033281,0.00314049,0.00311869,0.00326053,0.00310466,0.00300911,0.00351646,0.00320148,0.00315562,0.00335284,0.00343926,2.64209,0.00319298,0.00315278,0.00323559,2.59078,2.56009,0.00336447,0.00318112,0.0035085,0.00325723,0.0032515,0.00318624,0.00346343,0.00332915,0.00307489,0.00333907,0.00329509,0.00336553,0.00320962,0.00300978,2.15786,2.15697,2.15359,2.14369,2.11534,2.08877,2.09728,2.09823,2.02891,2.02577,2.01737,1.96577,1.96652,1.97587,1.97617,1.91664,0.0033557,0.00355588,1.73716,1.74351,1.69355,1.72193,1.71749,1.68244,1.68185,1.63175,1.62596,1.62325,1.60951,1.5905,1.56772,1.5542,1.57063,1.5353,1.5256,1.52415,1.50688,1.51708,1.47779,1.47622,1.48536,1.46786,1.46683,1.44142,1.46281,1.44065,1.43463,1.40635,1.42989,1.39959,1.3975,1.40229,1.48251,1.54151,1.52886,1.3849,1.38416,1.37457,1.3733,1.38348,1.37891,1.36283,1.35405,1.35335,1.34611,1.34774,1.3462,1.34637,1.34682,1.35512,1.35109,1.34673,1.34632,1.34099,1.34216,1.34601,1.34634,1.3594,1.35878,1.3602,1.36791,0.00314012,1.52388,0.00325399,1.45103,1.41708,1.42976,1.40463,1.50239,1.38249,1.3788,1.37915,1.37736,1.53323,1.3737,1.37504,1.37324,0.00319087,1.36889,0.00319379,0.00340823,0.00328005,0.00315677,0.00342443,1.39721,1.39555,0.00331672,1.56418,1.38193,1.37554,1.37433,1.53677,1.61797,1.61735,1.53061,0.00312449,1.51248,0.00309456,1.53835,1.64737,1.57635,1.5617,1.53459,0.00339029,1.59855,1.59944,1.55466,1.56883,1.46849,1.57226,0.00301766,1.51252,1.59717,1.44958,1.60076,1.60375,1.54913,1.6071,1.62753,0.00321911,0.00340769,1.53871,0.00319707,1.49671,1.49904,1.54216,1.41898,1.41658,1.42575,0.0031293,1.39134,1.39198,1.3916,1.39221,1.39498,1.39864,1.39914,1.46726,1.41218,1.41113,1.41573,1.41528,1.41017,1.40895,1.40912
0.914739,0.910207,0.927655,1.08442,1.07748,0.00311203,0.883828,0.882624,0.878525,0.878666,0.877739,0.881313,0.88121,0.00305294,0.918856,0.840726,0.839715,0.839265,0.938832,0.977189,0.984085,0.982419,0.993482,1.00093,1.00074,1.0157,0.850501,0.852032,0.942247,0.94707,1.11628,1.05679,0.975194,0.974929,1.11564,1.1158,0.909302,0.915875,0.916948,0.921274,0.932741,0.93011,0.929167,0.930464,0.93208,0.931837,0.932043,1.1193,0.949965,1.05232,0.95785,0.957034,0.95877,1.13616,1.08735,1.08769,1.19591,1.19054,1.09417,1.20704,1.06888,1.19665,1.20186,0.00308137,1.18926,1.11344,1.1889,1.11892,1.24739,1.20202,1.13562,1.13452,1.1343,1.27153,1.25738,1.28775,1.25015,1.14749,1.25007,1.16292,1.16843,1.28065,1.18608,1.25014,1.24369,1.24622,1.23334,1.24039,1.20311,1.19485,1.16244,1.16689,1.18394,1.17451,1.20658,1.1963,1.2155,1.25982,0.0033758,0.00333265,0.00347097,0.00337305,0.00320241,0.00323592,0.00319408,0.00298807,0.00330351,0.00334006,0.00341325,0.00316599,0.00349598,0.00326439,0.00368811,0.00299635,0.00320961,0.00299902,0.00325528,0.00315769,0.00339206,0.00322322,0.00318992,0.00343484,0.00341966,0.00315086,0.00308705,0.00316642,0.00335782,0.00306694,0.00349037,0.00320838,0.0036289,0.00315014,0.00326332,0.00321496,0.00358016,0.00307985,1.98381,1.9833,2.08878,0.00327204,0.0033903,0.00285888,1.9962,2.00017,1.84991,1.85003,1.70542,1.70713,1.6864,1.68521,1.66514,1.71657,1.6852,1.66435,1.66855,1.63713,1.64774,1.61241,1.62119,1.61811,1.59926,1.58347,1.57196,1.57878,1.54136,1.54286,1.51874,1.53052,1.5247,1.49647,1.53422,1.48087,1.46781,1.46406,1.45536,1.45158,1.44596,1.43739,1.42837,1.44034,1.43796,1.44105,1.41784,1.46096,1.39815,1.40439,1.40422,1.40349,1.40188,1.38155,1.37998,1.38576,1.39525,1.39363,1.67945,1.44662,1.34334,1.47534,1.33401,1.34153,1.34045,1.33448,1.32981,1.33017,1.33323,1.33516,1.34653,1.34699,1.3457,1.34561,1.34842,1.35418,1.35572,1.36269,1.37023,1.37453,1.37497,0.00293869,1.48512,0.00304195,1.44008,0.00319161,0.00329826,0.00307729,1.55151,0.00343071,1.51622,1.53468,1.52605,1.43428,0.00333964,0.00308674,1.39993,0.00311309,0.0034729,0.00312738,1.39871,1.39713,1.53619,1.3942,1.39347,1.62818,0.00345572,1.39569,1.39479,1.38649,1.56568,1.57261,0.00326325,0.00306686,0.00325877,0.00314774,1.52119,0.00327396,1.6034,1.6267,1.55869,0.00329471,1.64557,0.00326426,1.4906,1.565,1.68278,1.67675,1.57203,0.00322809,1.56864,1.64039,1.45666,0.00321506,0.00325623,0.00335425,1.61362,1.47665,1.47521,1.47441,1.47325,1.46318,1.46255,0.00317634,1.53828,1.55148,1.54851,1.50998,1.49248,1.40857,1.40859,1.56954,1.4075,1.40542,1.39892,1.40849,1.40795,1.40827,1.40756,1.41155,1.41249,1.41027,1.40968,1.41535
0.925894,0.925832,1.15391,0.911013,0.908495,0.00317511,0.0030585,0.878672,0.878673,0.878112,0.881054,0.883175,0.883222,0.881287,1.04239,0.843105,0.843508,0.844387,0.841293,0.835642,0.835482,1.00808,1.01455,1.01651,1.01094,1.01216,0.956555,0.939868,0.94004,0.980984,0.997847,1.0696,0.905345,0.905774,0.909286,0.91294,0.917411,0.917042,0.920112,0.922307,0.922093,0.916302,0.918324,0.91736,0.999023,0.937396,0.938151,0.938297,0.00315911,1.14371,0.959952,1.13388,0.00302489,1.1677,0.991195,1.18009,0.00331345,1.21264,0.00339492,1.20649,1.10038,1.09705,0.00336927,1.21395,1.21769,1.17963,1.16815,1.20862,1.17876,1.24485,1.11992,1.12091,1.12094,1.12601,1.12934,1.13062,1.24761,1.2409,1.15308,1.15375,1.1611,1.16028,1.17497,1.17577,1.17187,1.20436,1.23005,1.23091,1.20656,1.17373,1.14226,1.11494,1.1105,1.10283,1.12302,1.16343,1.16359,1.18087,1.22654,1.2362,0.00363375,0.00325476,0.00310623,0.00324368,0.00309687,0.00329911,0.00296521,0.00330008,0.00311442,0.00333278,0.00313942,0.00339917,0.00313848,0.00338918,0.00329414,0.00327779,0.00314055,0.0032582,0.00318701,0.00324283,0.0031476,0.00331459,2.31227,2.18152,2.16308,2.16268,2.15616,0.0030513,2.09398,2.09362,2.05769,2.00176,1.98328,1.98339,1.99829,1.97002,0.00336827,1.96975,1.88677,1.8834,1.87041,1.81973,1.8173,1.7651,1.73907,1.66503,1.66628,1.67937,1.60993,1.62436,1.63441,1.58767,1.61256,1.61194,1.58933,1.55227,1.57943,1.59169,1.58142,1.57102,1.57525,1.56176,1.55167,1.54877,1.52499,1.53063,1.50697,1.49139,1.4794,1.49002,1.47821,1.4722,1.45931,1.45195,1.42167,1.43687,1.42943,1.40741,1.42677,1.39486,1.38789,1.41081,1.44498,1.44543,1.43722,1.43849,1.43031,1.34648,1.34582,1.46526,1.3749,1.43726,1.34105,1.33981,1.33012,1.3306,1.31927,1.31296,1.31226,1.50596,1.31417,1.31859,1.32569,1.33012,1.33206,1.33285,1.35163,1.33928,1.33798,1.34146,1.34619,1.3541,1.40482,1.3713,1.37775,1.38705,0.00322798,0.00321968,0.00325933,0.0034811,0.00305377,0.00355311,0.00327406,0.00298199,0.00336824,0.00335251,0.00337257,0.0034492,0.00312508,1.50048,1.66362,1.63788,0.00310732,1.65397,0.00321834,0.00305225,0.0033052,1.40441,1.40289,0.00313316,1.7346,0.00344872,1.62675,1.40235,0.00301911,0.00331884,1.65879,1.52098,0.00333464,1.46813,1.52418,1.52128,1.47592,1.54203,1.60403,1.58246,1.59244,1.59297,0.00322216,1.56653,1.61466,1.62719,1.56167,1.62434,0.00309418,1.61259,0.00312846,1.69268,1.65396,1.65144,0.00335784,1.48519,1.48508,0.00349855,1.47441,1.47415,1.47024,1.4677,1.46373,1.45899,1.45775,0.00324268,1.49686,1.50052,1.53428,1.52769,1.52122,0.00338136,0.00308502,1.48196,1.41288,1.41639,1.4154,1.41149,1.40809,1.40433,1.40949,1.41109,1.41186,1.41289
1.16987,0.916404,0.915512,0.910088,0.896507,0.984979,0.879223,0.877924,0.879654,0.880036,0.879985,0.881244,0.882287,1.08247,1.08235,1.04442,0.849633,0.84469,0.844139,0.84251,0.843838,0.843875,0.84461,0.844822,1.01529,1.02897,1.0237,1.02308,1.02299,0.919045,0.928101,1.00721,0.907643,1.02228,1.01989,0.918796,0.919999,0.921527,0.916758,0.916156,0.916444,0.918078,0.915026,0.914609,0.9216,0.921754,1.24125,1.23251,1.24974,1.18065,1.13019,1.22694,1.09933,0.00320955,0.98509,1.17545,1.12493,1.20076,1.19813,1.19681,1.19428,1.11372,1.20761,1.21873,1.1993,1.18416,1.18537,1.19157,1.1981,1.25574,1.10882,1.11131,1.25722,1.2641,1.22991,1.13314,1.13369,1.14438,1.15011,1.15109,1.15697,1.1667,1.16743,1.31101,1.14227,1.14243,1.14194,1.20097,0.00325266,1.15728,1.13473,1.086,1.09,1.07441,1.07493,1.10279,1.10197,1.11014,1.15999,1.21953,1.25048,1.44673,1.44733,1.48696,1.52251,1.51312,0.00320459,0.00346701,0.00341844,0.00305566,0.00322506,0.00329394,0.00341506,0.00314213,2.42662,0.00340843,0.00364617,0.00300791,0.00329945,0.00294112,0.00347408,0.00335561,2.09095,2.0703,2.08202,0.00317633,0.00354085,0.00323643,1.78289,1.71386,1.71387,1.68906,1.68239,1.68497,1.70822,1.70261,1.68706,1.69887,1.6834,1.81298,1.81084,0.00328261,1.65939,1.62038,1.61604,1.61432,1.61725,1.57966,1.57115,1.54449,1.56575,1.47647,1.50024,1.48884,1.45857,1.50329,1.51534,1.50652,1.51585,1.50997,1.50973,1.53402,1.53065,1.53086,1.52173,1.48274,1.49418,1.47655,1.46242,1.46707,1.44719,1.44327,1.44345,1.42938,1.41149,1.42874,1.41568,1.39816,1.39174,1.37778,1.37119,1.3539,1.40885,1.40817,1.42666,1.35931,1.35034,1.3498,1.34623,1.34603,1.34417,1.3467,1.36508,1.32664,1.32581,1.3217,1.31359,1.31598,1.31211,1.30342,1.29852,1.297,1.31247,1.31216,1.32187,1.32777,1.32786,1.33756,1.33714,1.33753,1.34962,0.00320942,0.00313035,1.3827,1.38358,0.00334444,0.0032996,0.00345937,0.00326997,0.00335222,0.00326495,1.47109,0.00334732,0.00298649,1.54361,0.00341109,0.00317803,0.00316071,0.0034749,0.00318328,0.00332254,0.00332702,0.00327564,0.00352261,1.617,0.00324946,1.70655,0.00326266,1.42199,0.00318722,1.55925,0.00326813,1.50239,0.00340074,0.00312197,0.00322155,0.00334906,0.0033814,0.00321181,1.52225,1.48413,1.48194,1.51946,1.56068,1.55979,0.00302957,1.50566,1.50338,1.50524,1.65706,1.6568,0.00337205,1.51932,1.51945,1.51746,1.51826,1.61072,1.60376,1.50282,1.49363,1.49235,1.48909,1.48433,1.48568,1.47526,1.47417,1.47456,1.46788,1.46723,1.46719,1.48763,1.47143,1.47097,0.0036237,1.45993,1.45713,1.45528,1.48298,0.00327883,1.44285,1.50463,1.42055,1.42116,1.46385,1.40905,1.40523,1.40382,0.00342062,0.00332022,1.43401
1.17524,1.21885,1.1611,1.00031,1.14955,0.907542,1.13655,1.12757,1.11973,1.11888,1.12554,0.884458,0.883884,1.16399,0.00327816,0.00361149,1.04385,0.848792,0.847975,0.854979,0.853479,0.848842,0.848659,0.995718,1.02892,1.02814,1.02266,1.022,0.910645,0.911627,0.910969,0.910711,0.921555,0.921354,0.921327,0.92279,0.923168,0.00314265,0.00302939,0.897954,0.898699,0.9012,1.13697,0.922596,0.925198,0.922501,0.921548,1.16424,1.07997,1.14591,0.935543,1.11291,1.20814,1.16695,1.20438,1.18442,1.19792,1.19856,1.19578,1.1266,1.12623,1.20009,1.21386,1.1474,1.1771,1.20528,1.23185,1.19996,1.20489,1.20894,1.20158,1.26077,1.26396,1.10865,1.1065,1.25766,1.12077,1.26111,1.27059,1.23447,1.20115,1.20268,1.2678,1.2398,1.14887,1.31278,1.12748,1.12581,1.12648,1.13985,1.19173,1.13603,1.1015,1.0736,1.07204,1.07119,1.10163,1.10892,1.12588,1.12717,1.18269,1.26201,1.37755,1.4191,1.41057,1.41471,1.40984,1.4431,1.46573,1.94927,1.94117,1.93112,1.91606,1.93969,1.93047,0.00309479,0.00308926,0.00336607,1.78467,1.78432,1.75086,1.75249,1.69405,1.65123,1.65082,1.61279,1.61095,1.6004,1.60324,1.56908,1.49319,1.52417,1.56162,1.54474,1.50288,1.54422,1.53545,1.55783,1.55119,1.61643,1.62931,1.58949,1.58339,1.55829,1.54365,1.52932,1.54421,1.53462,1.53775,1.45821,1.4444,1.45091,1.41999,1.43281,1.42392,1.41671,1.40675,1.41155,1.3935,1.40346,1.39183,1.38659,1.4402,1.44461,1.4523,1.43678,1.44454,1.4571,1.41578,1.43017,1.41986,1.42345,1.40285,1.39445,1.40489,1.39953,1.39852,1.39694,1.3538,1.35416,1.3584,1.39062,1.35079,1.35315,1.34804,1.34933,1.3352,1.50229,1.33046,1.33402,1.3362,1.33323,1.33251,1.31458,1.31619,1.31732,1.31843,1.31518,1.31394,1.30529,1.3047,1.30178,1.30528,1.30697,1.31058,1.31756,1.33122,1.33139,1.33989,1.34109,0.00323297,0.00351592,0.00302624,0.0033522,0.00327531,0.00296944,0.00306489,0.00307729,0.0030503,0.00361619,0.00310522,1.56782,0.00306802,0.00322036,0.00328697,0.00335221,0.00322045,0.00343806,1.68192,0.00338419,0.00297535,0.00332163,0.0033661,1.67185,0.00309112,0.0033762,0.00304319,0.00305615,0.00354189,0.00333266,0.00333019,0.00298206,1.66919,0.00335579,0.00305661,1.527,1.60049,0.0032843,0.00320305,1.65446,1.4918,1.62433,0.0030144,1.53707,1.52447,1.51156,1.51287,1.51241,1.51119,1.51307,0.00337402,1.61269,0.00316354,1.52076,1.51835,1.51968,0.00319865,0.00337399,1.49837,1.49755,1.4978,1.49311,0.00326213,1.58072,1.47918,1.47757,1.47079,1.47202,0.00317527,0.00310246,0.00328539,1.47212,1.47084,1.47197,0.00321521,0.00341436,0.00319872,0.00318359,0.00322707,1.4333,1.42886,1.42644,1.42474,1.41797,1.41611,1.41749,1.4181,1.41862,1.41706,0.00338601
0.00348747,0.928952,0.925503,0.925128,0.908229,0.909565,0.908869,1.01318,0.896554,0.895977,0.897059,0.895315,0.893929,0.89397,0.00325648,0.00299866,0.860575,0.859805,0.860135,0.858234,0.857191,0.857481,1.05007,0.00317377,1.03717,1.03606,0.996758,0.911857,0.911873,0.91249,0.914466,0.912565,0.924446,0.923752,0.919595,0.918035,0.950326,0.953757,0.89482,0.893892,0.893992,0.895172,1.12337,0.00330999,0.921237,0.922002,0.919704,0.912512,0.911393,0.992289,1.13565,0.93248,0.93235,1.22749,1.12145,0.00325052,1.17518,1.11804,1.12696,0.00301952,1.19529,1.21568,1.21228,1.21084,1.19757,1.21133,1.20989,1.07602,1.22196,1.19735,1.24463,1.24984,1.25782,1.2606,1.11332,1.11309,1.11397,1.12106,1.29519,1.22086,1.13223,1.29163,1.11372,1.12512,1.12589,1.14714,1.14326,1.12841,1.12752,1.12891,1.12481,1.132,1.12713,1.1273,1.10294,1.10044,1.10429,1.09575,1.0947,1.10765,1.13974,1.19724,1.2546,1.31404,1.34321,1.32424,1.34353,1.37866,1.36997,1.37968,1.38561,1.40121,1.40356,1.40992,1.44762,1.48586,1.51012,1.42762,1.45813,1.43528,1.41743,1.39694,1.39167,1.38725,1.39591,1.39288,1.38892,1.41544,1.38229,1.38232,1.41066,1.40446,1.38966,1.41345,1.40503,1.43753,1.45183,1.43061,1.45254,1.42232,1.43096,1.41351,1.43556,1.42705,1.43995,1.52893,1.53344,1.47765,1.46254,1.42355,1.41778,1.41534,1.4061,1.39704,1.4015,1.39924,1.3881,1.37933,1.39259,1.37812,1.38827,1.36081,1.33786,1.35425,1.35399,1.35013,1.41372,1.41065,1.37744,1.36161,1.40486,1.403,1.39666,1.38347,1.38372,1.39103,1.35118,1.3515,1.4375,1.34729,1.34153,1.34261,1.32432,1.32042,1.32001,1.32696,1.55586,1.41349,1.31864,1.31639,1.31941,1.31886,1.31883,1.31072,1.31072,1.31386,1.3149,1.30963,1.30676,1.30619,1.30742,1.39645,1.53392,1.32827,1.33299,1.33319,1.3443,0.00312527,1.34557,1.34745,0.00344177,1.44128,0.00326939,1.3969,0.00323159,1.50525,0.00315276,0.00310015,0.00312406,0.00310925,0.00301873,0.00328662,0.00315,0.00323604,0.00299494,0.00319207,1.66477,0.00307383,0.00353605,0.00328888,0.00326921,0.00308564,0.00330297,0.00315026,0.00343062,0.00306549,0.00334162,0.00322183,0.003091,0.00310283,0.00359013,1.5799,1.55444,1.58919,1.58846,0.0032519,1.62964,1.6733,1.61005,0.00305025,1.49938,1.49837,1.61424,1.51496,1.51974,0.00334294,1.51229,0.0033869,1.4914,1.53331,0.00340206,1.49609,1.49849,1.49951,1.5065,1.59977,1.51336,1.51224,1.57253,0.00341302,0.00323658,1.49908,1.49347,1.49416,0.00335617,0.00323066,1.64453,0.00319585,0.00321751,0.00309752,0.00290674,0.0031202,1.48494,1.48506,0.0033256,0.00306961,1.56166,1.56471,1.57891,1.42426,1.4221,1.42327,1.42307,1.41783,1.41596,1.41513,1.41723,1.4159,1.41996,1.41898
1.15982,1.15733,1.14407,1.13392,0.911422,0.910756,0.909671,1.12321,0.893487,0.895869,0.895746,0.891313,0.890622,0.890565,0.00291871,1.05411,0.858455,0.85769,0.857247,0.850999,0.847746,1.03397,1.03278,1.01146,0.966857,0.978122,0.905776,0.906269,0.906454,0.909235,0.907101,0.908589,1.06388,0.920289,0.00341372,0.957515,0.00305037,0.947239,0.889634,0.887332,0.00303551,1.07753,0.00306383,0.00328254,0.902389,0.902507,0.903384,0.904117,0.908401,0.909066,0.919807,0.920614,1.19392,1.19513,0.00316855,0.00331354,0.00332551,1.11872,1.1197,0.00358108,0.0032532,1.19869,1.21867,1.13063,1.13005,0.00343206,0.00341222,1.0687,1.07159,1.07253,1.08007,1.07967,1.25032,1.20868,0.00309268,1.29571,1.10833,1.11135,1.11308,1.12585,1.12595,1.12099,1.11976,1.11831,1.26144,1.16045,1.1682,1.14775,1.2056,1.21219,1.15796,1.20252,1.15393,1.29567,1.11934,1.11911,1.10268,1.12273,1.12476,1.12871,1.13691,1.13822,1.2036,1.22742,1.24363,1.21892,1.24306,1.26343,1.28787,1.29762,1.31663,1.30347,1.30344,1.33725,1.3236,1.37472,1.35671,1.35435,1.33227,1.31611,1.31859,1.3095,1.35498,1.35964,1.33313,1.3309,1.34291,1.34374,1.31601,1.33634,1.33053,1.32361,1.33727,1.31524,1.32936,1.33113,1.34253,1.34073,1.38082,1.35221,1.3889,1.38883,1.40602,1.35579,1.34105,1.34053,1.34778,1.34731,1.35435,1.41911,1.3993,1.41003,1.39016,1.38466,1.37736,1.38742,1.3719,1.35747,1.35705,1.35513,1.32864,1.33009,1.32349,1.31349,1.30683,1.31988,1.3231,1.34012,1.34662,1.33843,1.357,1.33153,1.33679,1.36602,1.36553,1.36331,1.344,1.38033,1.37844,1.37083,1.34076,1.31873,1.31722,1.32127,1.32021,1.30893,1.30597,1.30629,1.31555,1.32218,1.31976,1.31478,1.3068,1.30724,1.30648,1.30598,1.30619,1.3071,1.30567,1.43213,1.32806,1.32996,1.32963,1.32992,1.339,1.4745,1.35716,1.3886,0.00330343,1.39844,1.37419,1.44046,0.00324023,0.00330429,0.00312517,0.00299974,0.00314029,0.00326093,0.00343709,0.00330941,0.00329076,0.00320982,0.0032575,0.00312929,0.00310497,1.54394,1.67922,0.00322241,0.00319985,0.00316528,1.64161,0.00346538,1.57182,1.57176,1.57123,1.57189,1.5995,1.59909,0.00322443,1.57428,0.00333117,1.62696,0.00322268,0.0032031,0.00334447,0.003178,0.00319016,0.0035485,0.00326267,0.00340615,0.00309119,1.66939,0.0030708,0.00348696,0.00304005,1.52293,1.59546,1.4952,1.49154,1.48844,1.48689,1.48601,0.00320352,1.4985,1.49703,1.58186,1.51022,1.51322,1.51549,1.51491,0.00323979,1.49232,1.4928,1.49341,1.49326,0.00353957,1.50516,1.50286,1.50216,1.50061,1.50281,1.50527,0.00317799,0.00316492,1.70353,1.53966,1.54419,1.54416,1.57816,1.57173,1.42112,1.42048,1.42283,0.00318832,1.55358,1.47495,1.51739,1.42932,1.42852,1.43291
0.905917,0.905012,1.16069,0.895869,0.894143,0.905635,0.909211,0.909351,0.908681,0.895282,0.886721,0.886431,0.885531,1.06275,0.00348877,1.04601,0.857146,0.856936,0.855683,0.846623,0.845189,0.843725,1.17379,0.00297943,1.16435,0.00311753,0.960528,0.991509,0.897914,0.901629,0.901386,1.02002,0.907541,0.00318975,0.00344814,0.886859,0.885353,0.88162,0.878533,0.876412,0.876173,0.874804,0.874009,0.882603,0.890691,0.890826,0.897976,0.907783,0.908193,0.91732,0.917449,0.918522,0.916969,0.922604,1.17768,1.16023,1.16062,0.00319461,0.00336332,0.00315196,0.00321425,0.00311554,0.994947,0.00304837,1.22614,1.1529,0.00327176,1.1739,1.18838,1.21636,0.00328391,0.00353894,1.20229,1.20834,1.23357,0.00313007,1.12102,1.2187,1.1022,1.102,1.10944,1.09726,1.08733,1.08718,1.08654,1.24423,1.16426,1.16374,1.17385,1.07446,1.0713,1.06976,1.07665,1.07635,1.07771,1.24914,1.2989,1.16719,1.1693,1.14177,1.10543,1.13026,1.13696,1.15449,1.1683,1.19097,1.21619,1.21729,1.19923,1.22288,1.22097,1.22274,1.23716,1.28105,1.30609,1.29764,1.2449,1.24336,1.25059,1.25328,1.2739,1.2648,1.24041,1.24689,1.26723,1.29932,1.29894,1.2854,1.27752,1.28061,1.26997,1.25573,1.25781,1.26859,1.25618,1.25667,1.26021,1.26095,1.26179,1.26816,1.28447,1.30009,1.28791,1.30642,1.30712,1.32962,1.33069,1.31033,1.30996,1.31168,1.3443,1.34007,1.35062,1.34132,1.34729,1.34356,1.35769,1.34302,1.32294,1.3424,1.33319,1.33672,1.33466,1.31784,1.3026,1.28974,1.29824,1.35026,1.31525,1.33612,1.34442,1.34348,1.35683,1.35801,1.35748,1.36004,1.33493,0.00331522,1.50957,1.50969,1.51716,1.47558,1.3299,1.37504,1.31021,1.30823,1.30751,1.29982,1.45489,1.31415,1.31766,1.31794,1.30342,1.30262,1.30193,1.30357,1.3082,1.57083,1.32276,0.00317731,1.33507,1.3398,1.33475,0.00330952,0.00331666,1.35495,0.00359772,0.0030167,0.00322468,0.00322001,0.00337002,0.00306941,0.0033728,0.00273899,0.00333079,0.00302247,0.00333572,0.0030563,0.00329955,0.00326445,0.00336959,0.00331357,1.54207,1.54074,1.54313,1.54254,1.54114,1.54064,1.6537,0.00316084,1.65643,0.00310103,1.57113,1.57015,1.7062,0.00320802,1.57844,1.57891,1.57793,1.57792,1.57403,1.57253,1.57182,1.5705,1.56549,1.56481,0.00346944,0.00312604,0.00335433,0.00324156,0.00356961,0.00305276,1.70712,0.00316777,0.00314812,0.00330485,0.00321387,0.00303155,1.5317,0.0033624,1.63081,1.63165,1.66877,0.00318136,1.51186,1.51041,1.50875,1.51239,1.51319,1.51311,1.61972,0.0032772,0.0032479,0.00334358,1.50535,1.50221,0.00342141,0.0030802,0.00320114,0.0033148,0.00329046,0.00319516,1.49924,1.49689,0.00310753,0.00309346,0.00339386,1.471,0.00314931,0.00310116,0.00324675,0.00332081,0.0033623,1.55099,1.43235,1.43193,1.59817,1.59031,0.0031419,0.0031141
0.906301,0.901429,0.898465,0.893659,0.893864,0.907728,0.911494,0.910941,0.00329061,0.00347143,0.877825,0.869731,0.866736,0.861876,0.849795,0.850272,0.852312,0.852351,0.852124,0.844996,0.842777,0.842085,0.00317987,0.849277,0.00328621,0.956125,0.956142,0.00327921,0.00311981,0.00336195,0.00334606,1.04372,0.921999,0.885254,0.888204,0.886142,0.884654,0.882285,0.879726,0.875138,0.874607,0.872048,0.87112,0.867803,0.00329041,0.942536,0.937559,0.943188,0.949763,0.915266,0.917385,0.902773,0.916761,0.918365,1.01851,0.00326508,0.00293087,1.01259,0.00311643,1.00061,1.03924,1.03903,1.00848,0.96135,0.00302641,1.0543,1.04461,0.00324289,1.02899,1.05557,1.05866,1.05748,0.0029041,1.21383,1.21898,1.22767,1.28918,1.05451,1.05934,1.06143,1.06148,1.06276,1.0626,1.06278,1.0629,1.06541,1.06587,1.06646,1.1513,1.20269,1.07042,1.07036,1.07169,1.13013,1.12649,1.28057,1.10543,1.11507,1.11296,1.11187,1.1086,1.12111,1.1372,1.13968,1.16755,1.17349,1.16015,1.16446,1.19202,1.19253,1.20257,1.17839,1.20953,1.22079,1.2334,1.23694,1.22992,1.24357,1.21324,1.21398,1.21084,1.22187,1.18703,1.18469,1.1675,1.17547,1.19615,1.20456,1.20552,1.23104,1.23288,1.25727,1.2712,1.27698,1.23924,1.23714,1.24653,1.23745,1.24071,1.24119,1.24678,1.2574,1.25073,1.26709,1.25019,1.29606,1.27945,1.2964,1.29218,1.2846,1.29733,1.32129,1.33295,1.31728,1.30603,1.33025,1.3243,1.32566,1.33091,1.32268,1.31562,1.3163,1.32381,1.33268,1.30601,1.29109,1.29133,1.39703,1.38573,1.31372,1.40323,1.39071,1.3762,1.37537,1.37433,1.44133,1.35938,1.33695,1.33604,1.34054,1.34157,1.34333,1.34185,1.33444,1.32943,1.30966,1.30697,1.30383,1.30198,1.30035,1.30499,1.30717,1.30773,1.30177,1.30253,1.32311,1.32092,1.32671,1.33456,1.33266,1.34172,1.34133,1.35044,1.35978,0.00327818,0.00325397,0.00334793,0.00305299,0.00329773,0.00318057,0.00308696,0.00365005,0.00330402,0.00325414,0.00317554,0.00331902,0.00306385,0.00329912,0.00312203,1.57507,0.00320214,1.54598,1.54404,1.5436,1.54248,1.54056,1.5381,1.53776,0.00331257,1.6586,0.00311164,0.00348745,0.00311129,0.00345145,0.00323109,1.57647,1.57805,1.57817,1.57729,1.5764,1.56883,1.56982,1.56918,1.56765,1.56729,1.56399,1.56316,1.56224,1.55573,1.55445,1.55381,1.59599,0.00336252,1.60352,1.63532,1.60551,0.00336772,1.67321,0.00310277,0.0033854,0.00320737,1.51121,1.50916,1.51005,1.50902,1.50876,1.50817,1.65096,0.00302973,0.00335278,0.00316044,1.63368,0.00314547,0.00310547,0.00305621,0.00339518,0.00333323,0.00332254,0.00303002,1.51561,1.51594,0.00328244,0.00317061,0.00333165,0.0031441,1.69914,1.47991,1.47209,1.47348,1.54333,1.57232,0.00336836,0.00333932,1.59625,0.00307474,1.57759,1.45596,1.45531,0.00318606,0.00308764
0.93696,0.0032335,0.91181,0.911017,0.911919,0.00316884,0.991326,0.988169,1.07485,0.976892,0.98108,0.86391,0.863553,0.863276,0.862273,0.858756,0.854042,0.852981,0.852536,0.855166,0.856155,0.856221,0.853695,0.847421,0.846053,0.830946,0.831169,0.927035,0.831632,0.00316503,0.871806,0.872794,0.87236,0.881776,0.882459,0.88214,0.880958,0.879917,0.878436,0.871009,0.869721,0.877052,0.867132,0.865484,0.863167,0.870989,0.950502,1.20979,1.1925,0.932466,0.90301,0.908776,0.909628,0.982027,0.91419,0.922169,0.921701,0.926744,0.927217,0.926345,0.92912,0.922663,1.02178,0.970345,0.936055,1.03392,0.0034283,1.26319,1.00561,1.11227,1.10522,1.24363,1.05383,1.08791,0.00317096,1.04223,1.04532,1.04622,1.10503,1.22332,1.14481,1.11616,1.18901,1.22181,1.0964,1.09563,1.0928,1.09264,1.09058,1.08986,1.15126,1.16533,1.17454,0.0031738,1.19881,0.00324037,1.12489,1.12065,1.12407,1.12274,1.12362,1.27024,0.00318838,1.16123,1.18208,1.18441,1.18945,1.19671,1.17061,1.19306,1.20997,1.20618,1.20714,1.1992,1.19189,1.20827,1.24885,1.22992,1.28509,1.28485,1.14507,1.14466,1.14428,1.14961,1.17388,1.17509,1.16055,1.19722,1.2031,1.21404,1.24787,1.25348,1.25538,1.27222,1.25579,1.25104,1.25099,1.26961,1.2752,1.27958,1.28215,1.27458,1.29254,1.28867,1.30499,1.29103,1.29284,1.29523,1.32622,1.31688,1.32992,1.39813,1.30967,1.30681,1.30618,1.29513,1.29773,1.29699,1.29784,1.29811,1.37257,1.37286,1.45143,1.49402,1.391,1.37996,1.3795,1.39064,1.41878,1.41754,1.50617,1.38083,1.38035,1.37317,1.37518,1.36562,1.36767,1.34271,1.33964,1.33915,1.33469,1.34554,1.37871,1.47312,1.31346,1.31093,1.30483,1.30116,1.30044,1.30008,1.30337,1.31102,1.31404,1.31692,1.46536,1.32982,1.33144,1.33177,1.3379,1.34024,1.33991,1.35173,1.3641,1.36494,0.00330772,0.00322738,1.41326,0.00321,0.00332899,0.00332997,0.00335652,0.00329647,0.00340953,0.0032846,0.0030611,0.00316194,0.00317288,0.00310853,0.00325342,0.00314027,0.00349247,0.00334802,0.00338336,1.5407,1.53911,0.00329862,1.53849,1.53752,1.53687,0.00284835,0.00319078,0.00343328,0.00326912,0.00331615,1.60564,0.00337031,1.5758,1.57374,1.57298,1.57155,1.57064,1.56885,1.56743,1.56728,1.56585,1.56417,1.56374,1.56096,1.56075,1.55953,1.55788,1.55687,1.56071,1.54732,0.00326386,0.00307078,1.52376,1.52278,1.52259,1.51751,1.51465,1.51202,1.50923,1.5092,1.50913,1.50908,1.50921,0.00346745,1.70706,1.59327,0.00321648,0.00309918,0.00326877,1.55073,1.60176,0.00318424,0.00330256,0.00337316,1.51733,1.51584,1.51528,0.00324547,0.0031417,1.48796,1.48574,1.48248,1.48182,1.47961,0.00325678,0.00308127,1.50625,0.00319476,0.00324932,0.00327249,1.50163,1.50877,0.00308991,0.00312807,0.00328198,0.0030226
0.922746,0.921456,0.00331015,0.00323802,0.00325596,0.906613,0.00298025,0.0033652,1.04741,1.04906,0.849934,0.8509,0.85284,0.852213,0.859151,0.856918,0.859206,0.854372,0.8513,0.857312,0.858911,0.860876,0.860561,0.859306,0.00305146,0.83055,0.830945,0.818214,0.811586,0.815654,0.815873,0.883233,0.00318236,0.00324404,0.00302389,0.870218,0.870113,0.867773,0.859692,0.864632,0.86352,0.864295,0.873293,0.8805,0.887357,0.881202,0.881099,0.881991,0.886477,0.886937,0.888759,0.0031646,0.907941,0.920334,0.918182,0.917674,0.918352,0.918267,0.933259,0.932743,0.924846,0.921296,0.917971,0.917793,1.20521,0.00319176,0.0033233,0.00347472,0.00303537,0.00321322,1.26703,0.00331844,1.04642,1.05119,1.05279,1.0593,1.06375,1.06405,1.15392,1.25063,1.2856,1.16303,1.17497,1.09166,1.09155,1.20873,1.13588,1.10143,1.17416,1.16636,1.13739,1.13634,1.13596,1.15344,1.14963,1.16838,1.21602,1.13029,1.13197,1.23244,1.28853,1.20497,1.25784,1.32468,1.36317,1.17665,1.1775,1.26109,1.26135,1.25641,1.21527,1.21474,1.21458,0.00325534,0.00307036,1.22341,1.19833,1.20731,1.23019,1.1651,1.16311,1.18071,1.18116,1.15471,1.16144,1.16942,1.20063,1.247,1.24664,1.23705,1.26376,1.29906,1.288,1.3105,1.30358,1.30257,1.30536,1.2888,1.28879,1.29576,1.29562,1.30843,1.28791,1.29408,1.29459,1.29588,1.30569,1.30944,1.31623,1.32959,1.39982,1.39887,1.36476,1.36369,1.37066,1.41631,1.41437,1.31105,1.30853,1.30949,1.37475,1.37476,0.00328209,1.33702,1.35005,1.36355,1.36064,1.35938,1.5538,1.39474,1.39344,1.38697,1.378,1.36303,1.36014,1.35658,1.35305,1.34242,1.33849,1.33413,1.32841,1.32589,1.32241,1.32245,1.31307,1.31075,1.30487,1.30281,1.3059,1.30957,1.31152,1.31202,1.32601,1.32612,1.33065,1.33197,1.33316,1.33428,1.34186,1.34612,1.3479,0.00309064,0.00317182,0.00355669,0.00332131,0.00339772,0.00282232,0.00327357,0.00329349,0.00346149,0.00313515,0.00312634,0.00337472,0.00314047,0.00305466,1.57278,0.0031184,1.55781,0.0031956,1.54054,1.53897,1.53974,1.54767,1.61963,1.53342,1.63444,1.53654,1.53565,1.53272,1.53672,1.53142,0.00320229,0.00319335,0.00337978,0.00317556,0.0035943,0.00311329,0.00332852,0.00323883,1.58166,0.00319861,0.00339125,0.00318288,1.61866,0.00316039,1.55736,0.00311871,0.00344977,1.55597,1.55568,1.56172,1.55088,0.00331579,0.00352173,0.00310149,0.003324,0.00316777,0.00309206,1.51957,1.51719,1.51698,0.00318294,1.50911,1.54688,0.00303776,1.66559,1.50234,1.62763,1.50785,1.64808,0.00312444,1.5384,0.00312375,1.54894,0.00306489,0.00320496,0.00315831,1.51576,1.51432,1.51191,1.51224,0.00343232,0.00321747,0.00356257,0.00321476,1.4812,1.48101,0.00325225,0.00314482,0.00320742,0.00306,0.00323365,0.00323237,0.00337035,0.00350021,0.00335957,0.00315546,0.00317945,0.00330881,0.00332123
0.915929,0.911204,0.911326,0.903241,0.900696,0.97369,0.97383,0.974414,0.858066,0.855905,0.855026,0.85526,0.853822,0.84687,0.849771,0.849631,0.849809,0.856096,0.918012,0.00304261,1.32734,0.862279,0.861636,0.00324327,0.00339283,0.0029433,0.828617,0.812198,0.813604,0.811489,0.808494,0.806841,0.805779,0.00320605,0.00311789,0.855298,0.855449,0.862617,0.86145,0.868063,0.868054,0.866071,0.880358,0.878579,0.87799,0.872814,0.871938,0.871243,0.871996,0.873268,0.881866,0.880654,0.888781,0.914373,0.915494,0.916012,0.919784,0.919041,0.00336487,0.00315315,0.00334007,0.920342,0.920194,0.920049,0.924332,1.0477,0.00307933,0.00320464,0.00330601,0.00319716,0.00339734,1.03871,1.03926,1.17087,0.00328232,0.00321067,1.06487,1.20219,1.20156,1.21905,1.08496,1.08168,1.08249,1.24297,1.08368,1.08353,1.20636,1.15299,1.14505,1.21698,1.19701,1.183,1.19136,1.21268,1.22257,1.25696,1.26311,1.23747,1.26203,0.00321837,1.22209,1.22241,1.22551,1.22572,1.22393,1.28051,1.25906,1.26132,1.28171,1.25419,1.2528,1.24925,1.23388,1.2324,1.24079,1.2434,1.24191,1.22698,1.22784,1.22859,1.2297,1.22948,1.22635,1.24675,1.24716,1.28807,1.25986,1.24594,1.29266,1.27278,1.26746,1.26549,1.26538,1.26793,1.26836,1.26956,1.52135,1.5202,1.28143,1.28378,1.29099,1.29043,1.28471,1.28405,1.30707,1.3088,1.30526,1.31418,1.31465,1.3221,1.32057,1.3637,1.3617,1.36734,1.36683,1.36622,1.36599,1.38672,1.41627,1.41988,1.58908,1.31974,1.32554,1.33408,1.34141,1.35227,1.35193,1.54276,1.47979,1.33617,1.33618,1.33829,1.3384,1.33769,1.33712,1.33337,1.33259,1.33228,1.33321,1.33568,1.33349,1.32863,1.3215,1.32054,1.32243,1.32429,1.31864,1.32032,1.32138,1.31943,1.31503,1.31431,1.3216,1.32226,1.32316,1.32946,1.33673,1.3371,1.34325,1.34386,1.34668,0.00325559,0.00338321,0.00299454,0.00331234,0.00301541,0.00317937,0.0033345,0.00328577,0.00338343,0.00338686,0.00313498,0.0032498,0.00313385,0.00316222,0.00319743,1.56936,0.00333411,0.00332929,1.64519,1.53778,1.53766,1.53602,1.53438,1.53137,1.52705,1.52684,1.53065,1.52794,1.52704,1.61756,0.00315528,1.60422,0.00308052,0.00340259,1.60022,0.00326061,0.00297913,0.00336717,1.60563,1.60623,0.00321027,0.00311992,0.00307094,1.54702,1.6217,1.61799,1.56081,1.56194,0.00335993,1.61334,0.00324876,1.5529,0.00284558,0.00346184,1.52993,1.52611,1.52279,1.52245,1.52274,0.00325221,0.00319352,1.50517,0.00311284,1.49383,1.49526,1.49471,1.49485,1.59964,1.59296,0.00328075,1.58962,0.003012,0.00342231,0.00348366,1.59991,1.51538,1.51394,1.515,1.51151,1.51551,1.50503,1.50313,0.00313805,1.49224,1.4895,1.48365,1.48364,1.51274,1.50964,1.50865,1.50704,0.00313468,0.00330434,0.00307317,0.00309759,0.00343069,0.00318601,0.00331462,0.00307943
1.05769,1.05753,0.00317284,0.00332556,1.02335,0.882267,0.881216,0.876451,0.00314088,0.933346,0.855821,0.856376,0.938523,0.854964,0.855727,0.963447,0.970515,0.00335463,0.882678,0.886122,0.886914,0.886417,0.00338139,0.00338911,0.00341667,0.826439,0.826431,0.827751,0.824397,0.820062,0.817868,0.808046,1.17782,0.892905,0.00311725,0.853302,0.855731,0.855639,0.856839,0.862356,0.875677,0.875856,0.876184,0.874193,0.873814,0.867459,0.868822,0.868501,0.86842,0.867908,0.870741,0.876212,0.882011,0.00321778,0.00313419,0.894409,0.897214,0.897557,0.897617,0.895037,0.00331933,0.0032948,0.901914,0.967161,0.00334644,0.00321818,1.0359,0.00337198,1.04969,1.04795,0.999361,1.19221,1.06061,0.0030423,0.00324239,1.20803,1.1047,1.19138,1.20184,1.24307,1.14311,1.21732,0.00314358,1.16142,1.23679,1.1977,1.18572,1.23267,1.2272,1.23625,1.30663,1.26126,1.20185,1.25553,1.22618,1.21855,1.24078,1.24159,1.38902,1.21156,1.21305,1.21586,1.21902,1.22098,1.28161,1.27696,1.25391,1.25682,1.25699,1.25133,1.24329,1.24043,1.23488,1.2345,1.5455,1.22056,1.21864,1.21442,1.21872,1.21894,1.21502,1.21416,1.2131,1.21753,1.39506,1.23798,1.28221,1.28124,0.00331703,1.25358,1.24738,1.24778,1.41227,1.26581,1.26714,1.26927,1.27348,1.56869,1.28273,1.28178,1.28395,1.28669,1.28231,1.28086,1.28073,1.42235,1.29546,1.29877,1.29882,1.39651,1.36172,1.35903,1.35856,1.35981,1.36016,1.35975,1.36172,1.36235,1.34285,1.34187,1.3422,1.41884,1.3263,1.32939,1.40244,1.3391,1.4636,1.7423,1.34655,1.3446,1.34758,1.35274,1.33696,1.32791,1.3284,1.33324,1.33261,1.33586,1.33725,1.3381,1.34157,1.34096,1.32738,1.3265,1.3228,1.3223,1.31422,1.3136,1.31449,1.3162,1.42793,1.30148,1.30128,1.29998,1.31956,0.00319472,0.00325432,1.34221,1.34669,1.35035,1.35374,1.46139,0.00313666,0.0031745,0.00328167,0.00337487,0.00312964,0.00318706,0.00322561,0.00364164,1.54091,0.00340765,0.00309062,0.00354428,0.00327189,0.00326109,0.00319331,1.66592,0.00310175,1.619,0.00318724,0.00308952,0.00329221,1.61738,1.52703,1.5288,1.52817,1.52618,1.65841,1.63354,1.51586,0.00304501,0.00317744,0.00322317,1.63104,1.57946,0.00317465,1.6208,1.62277,1.60792,1.61971,1.59621,0.00330095,0.00343261,1.89303,1.61354,1.60153,0.00318099,1.60959,1.60382,1.52438,1.52383,0.00315282,1.53938,1.52702,1.52575,1.52608,1.52471,0.00338998,1.5304,0.00329287,1.50824,1.502,1.49662,1.49518,1.49562,1.4953,1.49525,1.49439,1.49309,0.00335349,1.51519,1.51384,1.51418,1.52626,1.52493,1.51769,1.51725,1.59736,1.513,1.51953,0.0034699,0.00306143,0.00317386,1.49292,1.49198,1.49507,1.49589,0.00318859,0.00308776,1.50524,1.50564,0.00325162,0.00324575,0.00318578,0.00313137,0.00331857,0.00316864,1.57457,1.573
0.940156,0.00316473,0.00355704,0.00315827,0.951898,0.00323208,0.00364617,0.00303485,0.939317,0.918675,0.875763,0.874561,0.872939,0.870175,0.873009,0.883033,0.883126,0.939944,0.889206,0.889519,0.889828,0.888972,0.895815,0.00314098,0.00317804,0.837183,0.838333,0.833062,0.00326823,0.00298392,0.00337725,0.00299109,0.857262,0.00327519,0.850573,0.851376,0.853154,0.854504,0.861003,0.861767,0.862588,0.863193,0.869716,0.868993,0.86418,0.860458,0.866977,0.867542,0.877075,0.876476,0.87456,0.881395,0.882661,0.881626,0.889928,0.887656,0.889373,0.890561,0.891229,0.890436,0.889683,0.889231,1.00627,0.00313402,1.01247,0.00309915,1.03644,0.00318009,1.04261,0.00306973,1.07398,1.10523,1.01809,1.01832,1.01838,1.01825,1.02428,1.02486,1.11549,1.20466,1.17776,1.05308,1.05385,1.0551,1.05621,1.21702,1.20258,1.2306,1.29153,1.24066,1.24366,1.24724,1.24816,1.28974,1.18445,1.28817,1.24634,1.26123,1.2418,1.21341,1.21258,1.21593,1.30891,1.28847,1.23671,1.23972,1.32299,1.25952,1.23856,1.23596,1.23278,1.23261,1.23091,1.58344,1.21822,1.21674,1.21526,1.21382,1.21497,1.21984,1.22072,1.21348,1.21322,1.2142,1.21775,1.2241,1.29296,1.23769,1.24352,1.2436,1.24363,1.43799,1.25012,1.25456,0.00313564,0.00319517,1.5793,1.28009,1.28039,1.67995,1.27582,1.27814,1.28389,1.60031,1.62372,0.00333975,0.00336013,0.00310631,0.00316927,0.00322244,1.3536,1.35353,1.35801,1.36015,1.36113,1.36,1.36072,1.36071,1.35551,1.35057,1.34586,1.34786,1.34814,1.34344,1.33981,1.33871,1.33769,1.33503,1.33478,1.336,1.3368,1.32661,1.32323,1.32444,1.32625,1.32583,1.33054,1.33398,1.33487,1.33624,1.33576,1.33743,1.33846,1.33647,1.33725,1.3229,1.32328,1.54378,1.31443,1.31461,1.37751,1.30567,1.30546,1.30373,1.31288,0.00327415,0.00331604,0.00329451,0.00335043,0.00313591,1.36381,0.00336406,0.00327219,0.00335283,0.00331584,0.00323071,0.00326321,0.00299859,0.00342854,0.00317103,0.00322092,0.00330152,0.00332468,0.00313095,1.53799,0.00309509,1.61937,0.0030618,1.64474,1.52537,1.52807,1.52687,1.52667,1.52513,1.5242,1.52579,1.52259,1.52162,1.52144,0.00327339,1.51087,1.51027,1.50545,1.50509,1.6331,1.51031,1.63153,0.00334712,0.0034219,1.52474,1.52719,0.00315895,1.52767,1.52726,1.52745,1.52904,1.53222,0.00313741,1.52696,1.52525,1.52559,1.52287,1.52404,1.52539,1.52328,1.52387,1.60248,0.00324804,1.50764,1.50797,1.51017,1.50949,0.00332298,1.49752,1.49488,1.49415,1.49402,1.49274,1.49333,1.49816,1.49772,0.00313374,0.00341646,0.00321306,1.52823,1.52871,1.52395,1.52599,1.52669,1.51904,1.5162,1.51601,0.00326246,0.003147,1.49524,1.49461,1.49152,1.49019,0.00318139,0.00312972,0.00343587,0.00312727,1.50978,0.00320101,0.00331111,0.00326278,0.00313583,0.00300998,1.5512,0.00309586
0.00329101,0.00329694,0.931988,0.932058,0.934013,0.00331322,0.00307562,0.00333761,0.0031315,0.961285,0.892818,0.892793,0.889709,0.890059,0.890356,0.894563,0.893204,0.892065,0.889741,0.880427,0.880705,0.882215,0.881352,0.873545,0.861464,0.862328,0.860103,0.858545,0.85377,0.855585,0.854772,0.854775,0.860079,0.858862,0.851751,0.851631,0.850872,0.856071,0.857301,0.860546,0.855772,0.847963,0.848499,0.899231,0.857894,0.857208,0.85597,0.00344527,0.854634,0.871282,0.00295637,0.884135,0.883552,0.881628,0.882389,0.885819,0.891713,0.890519,0.887184,0.886818,0.894882,0.893786,0.922812,0.922993,0.00319278,0.00338999,0.00301159,0.00331697,0.00290534,0.00326031,0.00338856,1.01089,1.07493,1.00902,1.20124,1.11545,0.0031903,1.10546,1.11655,1.0539,1.13916,1.20249,1.27546,1.34747,1.34629,1.27176,1.34345,1.21221,1.21292,1.25259,1.24484,1.30453,1.25617,1.33856,1.30016,1.28524,1.25292,1.25324,1.26021,1.21199,1.25769,1.44181,1.272,1.2394,1.23988,1.2402,0.00309699,1.22401,1.22326,1.22812,1.22533,1.22469,1.22517,1.22362,1.22277,1.21688,1.21613,1.21835,1.21894,1.22024,1.2209,1.22086,1.22301,1.22186,1.22372,1.22529,1.22581,1.23194,1.23774,1.23644,1.2341,1.23597,1.46239,1.39148,1.47595,1.34162,1.56606,1.27656,1.27763,1.27447,1.49312,1.44546,0.00317931,1.64163,1.41006,1.40341,0.00294486,1.49918,1.74043,1.36064,1.35998,1.35963,1.35666,1.35882,1.35738,1.35724,1.3581,1.359,1.35602,1.357,1.35638,1.35327,1.35233,1.34823,1.34447,1.34279,1.33678,1.3373,1.33621,1.33612,1.33538,1.32254,1.32109,1.312,1.3117,1.3119,1.37491,1.32765,0.003007,1.34042,1.34297,1.34167,1.33794,1.33731,1.32776,1.32277,1.32586,0.00342341,0.00311997,1.32934,0.00326905,1.32021,1.32018,0.00324234,0.00326658,0.00320964,0.00322497,0.00325904,0.00311359,0.00334124,0.0033543,0.00329208,0.00322579,0.00312711,0.00328734,0.00319992,0.00302183,0.00335664,0.00314124,0.0031626,0.0032001,1.47845,1.47775,1.47988,0.00315977,0.00330064,0.00329561,1.53579,1.63279,1.65386,0.00334714,1.52669,0.00312265,1.52483,1.52437,1.52415,1.52251,1.57143,1.51454,1.51259,1.51209,1.5091,1.50734,1.50503,1.50374,1.50294,1.50768,1.50807,0.00292045,1.60997,1.52207,1.52116,1.52444,1.52594,1.52543,1.52613,1.52589,1.52535,1.52358,1.52173,1.52057,1.51999,1.51792,1.51614,1.5159,1.51692,0.00318489,1.50613,1.50501,1.51019,1.50983,1.50777,0.0034756,1.4917,1.49052,1.49025,1.48848,1.48569,1.49302,1.49408,1.4955,1.59579,0.003068,1.52626,1.52436,1.52504,1.52394,1.51373,1.51495,1.51316,1.50942,1.51582,0.00321318,0.00336858,0.00320289,0.00329032,1.48525,1.4813,1.47966,1.48133,0.00314883,0.0031511,0.00293726,0.00313662,0.00335029,0.00327196,0.00315194,0.00329665,0.00317621,0.00329559
0.00315944,0.928329,0.932439,0.932019,0.931533,0.938777,0.938394,0.935336,0.00340705,0.00326305,1.00428,0.892797,0.888736,0.888557,0.887551,0.890212,0.891308,0.888844,0.886963,0.880693,0.876901,0.87613,0.873983,0.871343,0.862392,0.860781,0.859567,0.859702,0.857072,0.858452,0.85404,0.853144,0.853867,0.00322026,0.845976,0.845555,0.845583,0.84305,0.843727,0.849605,0.848635,0.84599,0.843495,0.841024,0.841236,0.84124,0.845651,0.843041,0.840865,0.840854,0.00309905,0.00306268,0.876989,0.877314,0.877012,0.00324156,0.897578,0.896056,0.893471,0.891979,0.0031407,0.922313,0.922417,0.920345,0.919941,0.922378,0.922887,0.00316694,1.04072,0.00323624,0.00328951,1.21233,1.00749,0.00334051,0.996729,0.997302,0.998147,1.00522,1.03905,1.25773,1.25741,1.24693,1.25416,1.03703,1.11977,1.35377,1.35095,1.20293,1.20233,1.25059,1.25528,1.26133,1.29324,1.31299,1.35503,1.23025,1.29238,1.30217,1.25609,1.2476,1.23929,1.25482,1.26109,1.26315,1.23235,1.22796,1.22778,1.22097,1.22208,1.22556,1.22392,1.22311,1.22054,1.22185,1.22082,1.21688,1.21646,1.21581,1.20962,1.20998,1.21151,1.21157,1.21395,1.21437,1.21592,1.22214,1.2259,1.23245,1.23221,1.23335,1.23398,1.23473,1.23616,1.52352,1.38241,1.47768,1.26546,1.26962,1.43924,1.44259,0.00321019,0.00308518,0.00316038,1.38845,1.39043,1.52926,1.37755,1.7275,1.37054,1.36799,1.36608,1.36218,1.36227,1.35874,1.35775,1.36047,1.35933,1.36088,1.36059,1.35942,1.35599,1.35239,1.35278,1.35298,1.3498,1.34387,1.34394,1.3414,1.34418,0.00308027,1.33217,1.32794,1.32585,0.00324769,0.00328089,0.00325153,1.40635,1.40987,0.00319623,1.3356,1.33664,1.33721,1.33688,1.3332,1.3306,1.33083,0.00311735,0.00323585,1.41293,0.00319075,1.36944,1.42683,1.32668,0.00353127,0.00332034,0.00313253,0.00314022,0.00310378,0.00339313,0.00318223,1.44744,0.00300997,0.00312972,1.50577,0.003232,0.00329143,0.00313868,0.00330334,0.0033899,0.00310045,0.00311748,1.48481,1.48464,1.47786,1.47706,0.00322161,1.5777,0.00310622,1.60296,1.58223,1.68644,1.59272,1.64688,0.00315291,1.54539,0.00334406,1.51399,1.51413,1.51375,1.51274,1.50996,1.50885,1.50888,1.50891,1.50314,1.50011,1.50042,0.00306351,1.50876,0.00321023,1.51689,1.51467,1.51748,1.52626,1.5246,1.52634,1.52611,1.52597,1.52341,1.51972,1.51844,1.51626,1.51397,1.51258,1.51213,1.5114,1.51182,1.50522,1.50737,1.50666,1.50711,1.50794,0.00321571,0.00308253,1.48814,1.48858,1.48855,1.49206,0.00348107,1.49598,1.49526,0.0031238,0.00308701,1.51953,1.51848,1.51422,1.51426,1.51485,1.51029,1.50931,1.50771,1.50752,1.5079,1.50709,1.50316,1.50254,0.00348087,1.47992,1.47891,1.4828,0.00338693,1.49343,1.49268,0.00324377,0.00312474,0.003453,1.51332,0.00314422,0.00330331,0.00307252
0.937777,0.936937,0.93626,0.933433,0.935137,0.935715,1.06743,0.920482,0.919174,0.912446,0.912027,0.00340235,0.895157,0.893674,0.887167,0.884512,0.881792,0.881325,0.876359,0.876374,0.879082,0.878443,0.873436,0.869021,0.866028,0.864733,0.865196,0.85741,0.856556,0.85187,0.843089,0.841802,0.00340117,0.842265,0.835416,0.835275,0.84157,0.843753,0.845929,0.845225,0.857303,0.856594,0.842397,0.839391,0.838536,0.839356,0.838978,0.845079,0.843832,0.842744,0.842487,0.00340772,0.00314516,0.0032617,0.00319459,0.84678,0.00324848,0.963572,0.891667,0.00326548,0.896081,0.896527,0.924645,0.928247,0.928999,0.929214,0.923335,0.922784,0.00292245,1.03199,0.00332345,0.00322285,0.0031915,1.23353,0.00326915,1.22618,0.00321878,1.0284,1.04229,1.13221,1.15375,1.15359,1.17932,1.35339,1.35522,1.26409,1.35537,1.34623,1.28122,1.28111,1.23935,1.1224,1.21307,1.36487,1.36563,1.26563,0.00312404,1.29089,1.31202,1.25065,1.27383,1.28957,1.27615,1.26771,1.25557,1.23794,0.00300849,1.22014,1.22109,1.22444,1.22465,1.2203,1.22043,1.21425,1.21353,1.21175,1.21248,1.2116,1.2082,1.20651,1.21138,1.21105,1.21082,1.54703,1.22102,1.22208,1.231,1.23005,1.22563,1.22747,1.22991,1.23476,1.23655,1.53734,1.42806,1.3473,1.35361,1.36772,1.40446,0.00329958,1.39152,1.38347,1.3825,1.38049,1.37874,1.3767,1.3763,1.37721,1.37576,1.37382,1.37331,1.36663,1.36708,1.36778,1.35983,1.35675,1.36025,1.36044,1.64859,1.34488,1.34413,1.34438,1.34343,1.35119,1.35299,1.353,1.35022,1.34804,1.3471,1.34627,1.345,1.34349,0.0029971,1.33685,0.00330879,0.00304267,0.00333178,1.34686,1.34737,1.34285,1.34409,1.34034,1.34075,1.34306,0.00311993,1.3422,0.00316946,1.34927,0.00287783,0.00305976,0.00311428,0.00347124,0.00332588,0.00356659,0.00319862,0.00318011,0.00316796,0.00305721,0.00305668,0.00329439,1.47481,0.00298587,0.00322789,0.00329191,0.00299386,1.47403,0.00301336,0.003249,0.00313076,0.00334658,0.00302177,1.48301,1.48131,1.47743,1.4763,1.47525,1.47595,1.5327,0.00324605,1.57989,1.56635,1.63009,0.00327804,1.54804,0.00336799,0.00318514,0.003229,0.00328611,0.00311937,0.00335982,0.00326115,1.50276,1.50239,0.00331401,1.50258,1.50026,1.49977,1.50234,1.50637,1.50621,1.51124,1.51554,1.52068,1.52072,1.52415,1.52507,1.52528,1.52479,0.0030791,1.51688,1.51396,1.5136,1.51255,1.51212,1.50997,1.51143,1.51045,1.50989,1.5091,1.51193,1.50806,1.50679,1.50323,0.00304744,0.00312264,0.00323637,0.00303125,1.50326,0.00318478,1.61891,0.00329266,1.51602,1.51664,1.51707,1.51642,1.51884,0.00316528,1.52126,1.52018,1.51947,1.52125,1.50579,1.50151,1.50032,1.5006,1.49994,1.50009,1.49563,0.0032478,1.48477,1.48703,1.49046,1.50613,1.50365,1.50301,1.50769,0.00319867,0.00301174,0.00321086,0.00305821
0.928451,0.928738,0.0031843,0.925502,0.923959,0.923147,0.917734,0.914602,0.912523,0.912564,0.908995,0.898068,0.897631,0.890758,0.890158,0.889902,0.887284,0.00318674,0.873979,0.873205,0.870782,0.870747,0.86874,0.867812,0.869835,0.867957,0.860641,0.852728,0.852853,0.831601,0.832942,0.82822,0.827694,0.836155,0.837283,0.842334,0.842048,0.00289894,0.858806,0.858075,0.85738,0.83835,0.837974,0.829717,0.82406,0.827545,0.00305586,0.842385,0.841838,0.829249,0.00324645,0.00329353,0.831841,0.830938,0.830936,0.830302,0.829437,0.83275,0.981229,0.00313238,0.972559,0.00301141,0.00333529,0.00314948,0.925928,1.23353,1.24964,0.910449,0.00328033,0.00313445,0.00328015,0.00294034,0.991858,0.968189,0.968225,0.967729,0.967369,0.974656,0.981753,1.26172,1.25839,1.19177,1.24101,1.07533,1.26859,0.00305551,0.00319155,0.00330368,1.12309,1.11631,1.13103,1.19294,1.19452,0.00310255,1.21669,0.00314048,1.26778,1.21118,1.27115,1.30584,1.2957,0.00336488,1.2538,1.23327,1.25054,1.21331,1.21296,1.21046,1.44433,1.23498,0.00307177,1.21834,1.21777,1.2176,1.21417,0.00317204,1.21934,0.00335041,1.21886,1.21683,1.2185,1.21841,1.21912,1.22138,1.22337,1.23219,1.2299,1.22988,1.23326,0.00323633,1.44665,0.00314725,1.47283,1.44852,0.00314698,0.00331181,0.00326782,0.00315156,0.00314162,1.38794,1.38888,1.38836,1.38825,1.38849,1.38803,1.51085,1.52864,1.37256,1.37146,1.37053,1.37072,1.37118,1.37075,1.3701,1.36923,1.36867,1.35751,1.3573,1.35392,1.3532,1.34999,1.34357,1.34525,1.34659,1.43016,1.41809,1.35972,1.35362,1.35539,1.35532,1.34978,1.35074,0.00301361,0.00306888,0.00335735,0.00287456,1.35112,1.35038,0.00330888,0.00321114,1.35383,0.00303343,0.00315508,0.00311105,0.00313433,1.42751,0.00320363,0.00304049,0.00300869,0.00307718,0.00329545,0.00318247,0.00302297,0.00312143,0.00332738,0.00317175,0.00310406,0.00335319,0.00337705,0.00320157,0.00349173,0.00321197,1.43151,1.43059,1.42926,1.42973,1.56925,1.56161,0.00332163,0.00308748,0.0030717,0.00299366,0.00344085,0.00318562,1.55798,0.00310537,1.50636,1.50684,1.50292,0.00315029,0.00322797,1.4863,1.48505,1.48366,1.59862,0.00327465,1.60063,0.00302855,0.00322187,1.54092,0.0030291,0.00324022,0.00324987,1.4995,1.49927,1.49946,1.50273,1.50289,1.50563,1.6133,1.51111,1.50914,1.5196,1.51942,1.52078,1.52366,1.52645,0.00324921,0.00334262,0.00326426,1.57481,1.5074,1.50912,1.51902,1.51638,1.51565,1.51425,1.52628,1.51528,1.51422,1.51294,1.51316,1.51278,1.51216,1.51158,1.51282,1.50956,1.5075,1.51335,1.50785,1.51426,1.51905,1.52257,1.52264,1.52052,1.52801,1.53072,1.5299,1.54917,1.51663,1.51548,1.51232,1.50935,0.00332859,1.50388,1.50227,1.49921,1.49831,1.49803,1.49625,1.49863,1.49299,1.50175,1.50155,1.50506,1.50406,1.50277,0.00330114,1.51527,0.00309249
0.929918,0.917551,0.916549,0.91426,0.938567,0.900853,0.911256,0.905755,0.00297361,0.918862,0.918121,0.00323291,0.899904,0.898505,0.00319175,0.00310379,0.00325498,0.86705,0.861171,0.866902,0.865743,0.866113,0.865943,0.871654,0.859692,0.854693,0.855098,0.848062,0.837699,0.834792,0.835389,0.833031,0.831818,0.83013,0.844931,0.843395,0.846311,0.845429,0.846338,0.848892,0.848996,0.843935,0.831103,0.826555,0.821804,0.818023,0.816192,0.817216,0.818177,0.819151,0.825014,0.824531,0.823097,0.829898,0.83169,0.831517,1.00891,1.00805,0.00321615,0.00329536,0.00301335,0.00312791,0.00311044,0.00307598,0.00322905,0.00307878,0.00345276,0.932174,0.00324349,0.00330564,0.00314848,0.00333743,0.00328953,0.939171,0.00347068,0.957452,0.0031376,0.975621,1.21191,1.2362,1.24995,1.23618,1.06014,1.10291,1.26096,1.14385,1.05779,1.05955,1.05965,1.06389,1.06362,1.06399,1.30387,1.08533,1.08528,1.19114,1.28334,1.27752,1.15462,1.15561,1.27799,1.26428,1.26834,1.2569,0.00315128,1.20925,1.21081,1.21112,1.21207,1.21194,1.2131,1.21307,1.21636,1.21769,1.21978,1.22485,1.22514,1.22398,1.22167,1.21855,1.21841,1.21852,1.22075,1.22655,1.23036,1.23022,1.23802,1.23862,1.55048,0.00352673,0.00320541,1.69242,1.68654,1.67446,0.00336587,0.00328671,0.00337955,1.66665,1.39103,1.39237,1.39107,1.39242,1.39378,1.39344,1.39806,1.3933,1.53748,0.00321775,0.00326965,1.72812,1.50432,1.38128,1.38133,1.38443,1.37675,0.00316748,1.5639,1.51665,1.52736,1.3561,1.35877,1.36007,1.36031,1.3622,1.36145,1.36133,0.0030845,1.36261,1.36222,1.35777,1.35775,1.40506,0.00313944,0.00318721,0.00294687,0.00322969,0.00335165,0.00322466,1.37846,0.00319409,0.00324152,1.37153,1.37052,0.0033799,0.00343079,0.00315746,0.00314275,0.00322168,1.39177,0.00320169,0.00312079,0.00309442,1.41243,0.00335314,0.00318672,0.00333932,0.00320409,0.00334902,0.0032603,0.00343386,1.43802,0.00341191,0.00319078,1.43161,1.43314,1.42594,1.4299,0.00344047,0.00322535,0.00336378,0.00317188,0.00316237,1.54729,1.55171,1.55254,0.00325753,0.00324847,0.00309568,0.00317308,0.00286118,1.4781,1.48519,1.48383,1.48388,1.48284,0.003305,0.00315417,1.5536,0.00315697,1.65183,0.00317791,0.00320405,1.49345,1.49285,1.4952,1.57406,1.49703,1.49536,1.49484,1.62315,1.62255,1.50859,0.00317289,0.0033777,0.0032367,0.00340402,1.48947,1.48864,1.48966,1.49344,0.00321638,1.56591,0.00323413,1.52125,1.52136,1.52024,1.519,1.51768,1.5159,1.51501,1.51569,1.51274,1.5151,1.51428,1.51422,1.51408,1.51151,1.51156,1.51338,1.51478,1.51647,1.5172,1.52267,1.52142,1.52682,1.52944,1.53151,1.53143,1.52948,1.52661,0.00315123,1.51269,0.00304996,1.49435,1.49339,1.50083,1.50185,1.50212,1.4988,1.49913,1.49701,1.49635,1.49829,1.49683,1.49352,1.49081,1.48937,1.48993,0.00311787,0.00334261
0.00355723,0.00306284,1.08807,0.00299645,0.899824,0.899322,0.899305,0.901665,0.923464,0.00322255,0.00342599,1.03726,1.03554,1.0356,1.03224,1.03101,1.03235,1.03196,0.856693,0.85743,0.00333413,0.0029757,0.859176,0.00323052,0.00342119,0.00311043,0.83193,0.830845,0.830044,0.829398,0.832364,0.838573,0.835103,0.835783,0.836863,0.834626,0.836361,0.833646,0.824802,0.836477,0.835722,0.835308,0.820774,0.822433,0.822506,0.823123,0.823482,0.823212,0.82317,0.819154,0.825077,0.814965,0.811701,0.810661,0.810243,0.00309264,0.00318158,0.00309287,0.00304701,0.00319264,0.00332941,0.0032385,0.957371,0.00318428,0.00333366,0.00310189,0.00328669,0.963577,0.003247,0.903916,0.00327018,0.00314147,0.00327593,0.00331598,0.00318586,0.00312567,1.24797,1.03206,1.2591,1.24082,1.05926,0.00293843,1.05059,0.00299696,1.05616,1.05669,1.06029,1.06106,1.13373,1.06888,1.06882,1.2277,1.22324,0.003148,1.19974,0.00300989,1.26849,1.18564,1.30566,0.00352032,1.24993,1.2854,1.25624,1.25443,1.25455,1.2046,1.20471,1.20529,1.20805,1.20901,1.20928,1.21661,1.21715,1.21982,1.22386,1.22427,1.22522,1.21218,1.21161,1.21523,1.2158,1.22131,1.28438,0.00298078,0.00337695,0.0031863,1.25238,1.25329,1.437,0.00324197,0.00332674,0.00305543,1.50652,0.00295579,0.00340023,0.00307215,1.41481,1.39832,1.39849,1.39914,0.0030857,0.00307301,1.39837,1.39856,1.40377,0.0030159,1.40258,1.40394,1.40286,1.40047,0.00307381,1.38079,1.38157,1.38091,1.38126,1.37903,1.37424,1.37389,1.45099,1.36592,1.36377,1.36079,0.00332455,1.36784,1.36705,1.36563,1.36486,1.37125,1.37106,0.00318478,1.37225,1.37786,1.37853,1.38024,1.38214,1.38345,1.3839,1.38472,1.38412,1.384,1.37936,1.37795,1.37831,0.00333327,0.00322305,0.0029863,0.00355816,0.00320844,0.00349971,0.00300398,0.00321103,0.00327316,0.00344437,1.46127,1.46046,1.45889,1.45697,1.45706,1.45547,1.45326,0.00332702,1.44069,1.44016,1.43691,1.43442,1.42705,1.42661,1.42785,0.00320965,1.50067,0.0036186,1.43474,1.43385,1.43054,1.42833,1.43634,1.43663,0.00311685,1.46905,1.46806,1.4851,0.0031982,1.49241,1.49251,0.00339103,0.00313351,1.58523,1.58507,1.46522,1.46318,1.46412,0.00306284,0.00335886,1.48987,1.4899,0.00307962,1.49183,0.00318487,1.48771,1.48788,1.57297,1.49293,1.49308,1.48778,1.48637,1.47514,1.47483,1.48216,1.48721,1.48888,0.00325926,0.00316649,0.00332986,1.52216,1.52129,1.51687,1.51426,1.51433,1.51256,1.51913,1.5179,1.51679,1.517,1.51817,1.51812,1.5176,1.5198,1.52092,1.52133,1.51708,1.51411,0.00303251,1.52355,1.52364,1.5229,1.52819,1.52946,1.52666,1.52545,1.52746,0.00324742,0.00321369,1.49434,1.49184,1.49146,1.49391,1.49832,1.49929,1.50022,1.49871,1.49813,1.4948,1.49402,1.4971,1.49541,1.49608,1.49227,0.00312053,0.00345214,1.51504
0.941707,0.939275,0.00318385,1.00149,0.961703,0.905301,0.00298638,0.892658,0.892494,0.887031,0.882057,0.881277,0.881038,0.874871,0.871547,0.00326207,1.00955,0.839336,0.838774,0.839429,0.840228,0.840147,0.836456,0.838287,0.836016,0.835322,0.832398,0.830881,0.828926,0.827956,0.834613,0.833099,0.832128,0.831127,0.823818,0.824775,0.826604,0.828483,0.829831,0.825487,0.823381,0.823324,0.826497,0.827871,0.827815,0.826173,0.00326657,0.00333163,0.00295251,0.00346796,0.00303268,0.808631,0.807648,0.807202,0.00309927,0.797836,0.796911,0.0034105,0.00284911,0.00317718,0.00325729,0.00327667,0.00352197,0.844003,0.00313795,0.867461,0.87374,0.870299,0.869936,0.89961,0.89934,0.900697,0.0031696,0.00314535,0.00323686,0.946997,0.00322601,0.00314503,1.0363,1.06725,1.06486,1.17474,0.00304026,1.158,1.146,1.1192,1.06066,1.06076,1.06648,1.06774,1.23282,1.23809,1.22903,1.31316,1.19654,1.18163,0.00334308,1.18676,1.25711,1.23908,1.2854,1.25166,1.27394,1.19171,1.19411,1.19612,1.19927,1.20458,1.20588,1.20667,1.21572,1.21596,1.21652,1.21943,1.22372,1.22429,1.21201,1.21238,1.21324,1.21485,0.00321107,0.00313005,0.00314147,0.00313872,0.003241,0.0033996,0.00319222,0.00300887,1.34677,0.00353066,0.00325966,0.00341119,0.00314227,1.44757,0.00317212,0.00338107,0.00316175,1.40956,0.00310477,1.40716,1.40836,1.40445,1.40637,1.40829,0.003102,1.41367,1.41265,1.40077,1.40335,1.40367,1.40368,1.56442,0.00318217,1.38385,1.38474,1.38209,0.0031347,1.3679,1.36698,1.36704,1.37128,1.37387,1.37264,1.37126,1.3709,1.36764,1.36424,1.41339,0.00320841,0.00334248,0.0031605,0.00333009,0.00304463,0.00312309,0.00333784,1.38853,1.3869,1.3869,0.00313172,1.37538,1.37481,1.38251,1.38285,0.00304294,0.00322375,0.0032115,0.00316795,0.00321809,0.00321963,0.00338995,1.45659,1.45396,1.45338,1.45564,1.45818,0.00313422,1.45388,1.44704,1.44772,0.00317052,0.00301663,1.44184,1.43982,1.43985,1.43985,1.4406,0.00300752,1.42703,1.42351,1.42283,1.42217,1.42202,1.42135,1.42761,1.43654,1.43646,0.00333786,0.00341631,0.00309857,1.46678,1.4661,1.46841,1.46917,1.4915,0.00331618,1.46101,1.45377,1.45235,1.45405,1.45561,0.00304073,0.00331033,0.00302464,0.00339682,1.4784,1.48487,1.47646,1.47812,1.4783,1.48777,1.48858,1.48736,1.49072,1.49017,0.00294541,1.59554,1.47562,1.47485,0.00311581,1.4906,1.50171,1.49874,1.51909,1.51874,1.51008,1.51028,1.51314,1.51942,1.52052,1.52108,1.5197,1.52621,1.52503,1.5222,1.52112,1.51995,1.52135,1.52164,1.51945,1.51862,1.51462,1.51881,1.52118,1.51953,1.5257,1.52565,1.52517,1.52282,1.52258,0.00341519,0.00314941,1.50223,1.49778,1.49732,1.50135,1.4946,1.49261,1.4953,1.49296,1.49261,1.49853,1.49892,1.49898,1.50432,1.50301,1.50226,1.50923,0.00321761,1.51644,1.5176
0.94389,0.943235,0.942741,0.0030748,0.00332456,0.00315585,0.95236,0.00309187,0.893759,0.89326,0.895419,0.925896,0.00310801,0.00307037,0.0031506,0.00294672,0.00343928,0.843825,0.843231,0.840213,0.837349,0.835961,0.83275,0.830807,0.830074,0.835419,0.843162,0.842015,0.826896,0.827559,0.8273,0.838178,0.83869,0.837067,0.835809,0.836298,0.836464,0.841808,0.850353,0.851475,0.0032648,0.00306133,0.824018,0.822723,0.84329,0.843172,0.844361,0.849474,0.847767,0.846048,0.922371,0.00306924,0.806065,0.801103,0.79569,0.796249,0.791938,0.791122,0.790023,0.00302999,0.944319,0.00297192,0.00322081,0.00321816,0.8422,0.841913,0.00313934,0.00314974,0.00327804,0.00303388,0.00316612,0.906215,0.00322299,0.00310704,1.04045,1.04398,1.02143,1.05827,1.17737,1.24533,0.00312248,1.16123,1.06717,1.07429,1.1155,1.08795,1.12877,1.11616,1.06966,1.29994,1.31996,1.07881,1.37018,1.13013,1.2194,1.24394,1.18819,1.27375,1.2729,1.25449,1.2534,0.0029999,1.26848,0.0032858,1.19656,1.20179,1.2029,1.20457,1.20832,1.20908,1.2089,1.21475,1.21817,0.00338774,1.22552,1.22546,1.21832,1.21877,0.00330915,0.00328496,1.29828,0.00311617,0.00337357,0.0031285,0.00321233,0.00321357,0.00323648,0.00317063,0.00320899,0.00313643,0.00307063,0.0031585,1.44049,0.00316693,1.44669,0.00333243,1.42007,1.40759,1.41016,1.41192,1.40979,1.41112,0.00321411,0.0029325,1.57921,0.00304367,0.00335925,0.00309834,1.40099,1.40225,1.40881,1.40324,1.40256,1.38283,1.38258,1.38294,1.37853,0.00293927,1.40853,0.00317202,0.00328529,0.00311504,0.00356871,0.00324826,0.00320763,0.00335498,0.00307184,0.00325949,0.00344764,1.38947,1.38825,1.39439,1.39427,1.4001,1.40137,1.40016,0.00324973,0.00329586,0.00321525,1.42928,0.00336805,1.4837,0.00311812,0.00305087,1.45554,0.00314876,1.42992,0.00308599,0.00299542,1.45403,1.45366,1.45398,0.00295255,0.00316278,0.00312269,0.00306822,0.00330202,0.00309697,0.0033415,0.00303494,1.43,0.00302571,1.43462,1.44744,1.43995,0.00304687,0.00346884,1.41598,1.41493,1.41403,1.41763,1.42229,1.42123,1.42112,0.00311929,0.00326962,0.0031775,1.46029,0.00337697,1.46278,1.4622,1.46316,1.46291,1.46326,1.46187,1.46277,1.46306,1.46173,1.45841,1.45694,0.00319534,0.00323357,0.00328804,1.46751,1.47086,1.65987,1.64664,0.00335691,0.00313276,0.00306098,0.00343189,1.48981,1.49426,1.49534,0.00317726,1.50719,0.00324617,0.00326495,0.00318488,1.54871,0.00315871,1.51428,1.51368,1.51192,1.51065,1.50887,1.50641,0.00318682,1.51035,1.52007,1.51967,1.51739,1.52273,1.52236,1.52014,1.52132,1.52208,1.51939,1.51598,1.515,1.51086,1.5118,1.52117,1.52103,1.52285,1.52817,1.52729,1.52312,1.52385,1.55769,1.5075,1.49761,1.4964,1.49888,1.4949,1.49236,1.49135,1.49296,1.49696,1.49823,1.50235,1.50567,1.51301,1.51088,1.50928,1.50815,1.5076,0.00301686,0.00322481,0.00312819
0.934442,0.933366,0.932918,0.926323,0.925056,0.00337396,0.910092,0.906108,0.00319184,0.892909,0.89463,0.895402,0.893538,0.00336838,0.873328,0.871395,0.869569,1.08143,0.00307859,0.00324087,0.839772,0.837494,0.83319,0.836648,0.835444,0.830661,0.830665,0.830126,0.828122,0.830924,0.83182,0.837179,0.836965,0.833399,0.831748,0.8316,0.842841,0.844484,0.849721,0.849432,0.00309476,0.899631,0.81812,0.817999,0.00303151,0.847317,0.84892,0.847227,0.845955,0.00321311,0.812217,0.810303,0.810807,0.792869,0.792978,0.789733,0.789268,0.783495,0.782373,0.779698,0.77933,0.81272,0.812703,0.00330861,0.839155,0.0033809,0.00310868,0.00345034,0.00309997,0.00312613,0.0031154,0.00350337,0.00326467,0.00327914,0.00304884,0.964162,0.965,0.96577,1.27466,1.05277,1.16524,1.06345,0.00316824,1.15774,1.15816,1.29132,1.29512,1.07257,1.07286,1.07595,1.07481,1.08593,1.17196,1.16668,0.00321951,1.2364,1.28559,1.29771,1.22933,1.22726,0.00329114,1.27283,1.25512,0.00322767,1.2002,1.20224,1.20268,1.20666,1.20825,1.20799,1.20675,1.20659,0.00293454,1.23413,1.22562,1.22682,1.22965,1.22936,1.23097,0.0031107,0.00310577,0.00357518,0.00326187,0.00327048,0.00333003,0.00355485,0.00334902,0.00353695,1.3144,1.39622,0.00306136,1.40911,0.00317005,0.00336245,0.00312373,0.00329872,0.00310798,1.41332,1.41121,0.00317969,1.41562,1.41631,1.41947,1.41929,0.00324467,0.0030033,0.00305541,0.0031309,0.00312076,0.00345498,1.40919,1.4086,0.00315369,0.00325894,0.00310215,1.50309,0.00320573,1.48824,0.00307727,0.00328797,0.00318225,0.00329153,0.00326631,0.00296065,0.00313249,0.00316754,0.00322154,0.00306463,0.00315606,0.00326049,1.38844,1.39414,1.39493,1.40068,0.00310239,1.40687,1.4071,0.00326636,0.00297518,0.00329217,0.00312751,0.00326524,0.00299157,1.43724,1.43705,1.43607,1.43452,1.43257,0.00325876,1.47349,0.00315801,1.45403,1.43782,1.46629,0.00314317,0.00335512,1.43093,1.43,1.42864,1.42802,1.42551,1.42865,0.00315642,1.42603,1.42561,1.42634,1.4217,1.41959,1.41892,1.41811,1.41579,1.41537,1.42319,1.42286,1.42783,0.0034412,0.00304827,0.00331434,0.00343812,1.4622,1.46192,0.00302569,1.46046,1.46019,1.45937,1.45766,1.45846,1.45749,1.45577,1.45643,1.45347,1.45473,0.00320404,1.46515,1.46415,1.46,1.45927,1.45724,0.00311841,0.00328912,0.00312407,0.00319827,0.00323099,0.00333507,0.00324423,1.50506,1.50958,1.50913,1.50751,1.51274,1.51226,1.51174,1.51485,1.51529,1.51194,1.51024,1.50935,1.51994,1.51876,1.51811,1.51649,1.51555,1.51493,1.51628,1.51989,1.51912,1.51942,1.52104,1.51639,1.51666,1.51555,1.51607,1.51405,1.51913,1.51883,1.52281,1.52187,1.51913,1.5188,1.51651,0.00314625,0.00320575,1.48891,1.48743,1.48652,1.49481,1.4934,1.49239,0.00320858,1.49902,1.50976,1.51164,1.51644,1.51583,0.00305194,1.52193,0.003003,1.49876,1.49641,1.49915
0.941406,0.00327279,0.0032923,0.928609,0.927962,0.92997,0.00326072,0.00332096,0.0032222,0.889463,0.889132,0.890195,0.880492,0.874227,0.874927,0.877416,0.875761,0.00307063,0.00329505,0.00315779,0.838464,0.836086,0.83571,0.828955,0.822051,0.820691,0.807667,0.81626,0.81618,0.816622,0.822421,0.831722,0.828829,0.826308,0.825018,0.826115,0.824771,0.0030458,0.850534,0.00308798,0.00327185,0.816197,0.815595,0.00315072,0.991286,0.842649,0.839638,0.838062,0.00314127,0.807507,0.807577,0.80946,0.789001,0.788684,0.789251,0.784944,0.779981,0.778007,0.777185,0.778852,0.00309885,0.00303582,0.00334689,0.00328803,0.00339852,0.0031231,0.00313717,0.0032305,0.00349397,0.00310821,0.00322893,0.00314046,0.00327625,0.00324839,0.00309109,0.00308391,0.00335491,0.00305025,1.099,0.00321948,1.06205,0.00312826,1.12574,1.13797,1.2851,1.07274,1.07255,1.07195,1.07223,1.07304,1.07799,1.07699,1.19496,1.12233,1.27869,1.13632,1.23997,1.23362,0.0033595,0.003084,0.00309519,0.00317032,0.00349871,1.28542,1.27711,1.20157,1.20435,1.20835,1.20598,1.20498,1.20557,1.20617,1.206,0.00319854,0.0032884,1.22944,1.23006,1.23594,1.22637,1.22811,1.23713,0.0030866,0.00324384,0.00312189,1.48159,0.00315842,0.00326699,0.00320425,0.00337508,0.00303155,0.00316148,0.00342268,1.43829,1.41233,0.00308736,0.00312008,1.42906,0.00297898,0.00329085,0.00316141,0.00326978,1.42362,1.42283,1.42666,1.42678,1.43093,1.43192,1.42507,1.4252,1.42941,0.0031246,1.41351,1.41189,1.41191,1.41478,1.41471,1.41548,0.00297001,0.00341153,0.00314746,0.00335766,0.00298473,0.00341965,1.40862,1.40901,0.0029172,0.00320607,1.43044,1.42968,0.00297775,0.00329776,1.39964,1.40184,1.41316,1.41203,1.40838,1.40863,0.00312934,0.00337746,1.43264,1.43035,0.00318833,0.00336246,0.00315463,0.00351954,1.42981,0.00321545,0.00323961,1.62386,1.42153,0.00329365,0.0031902,0.00330112,0.00293838,0.00345566,0.00313748,0.00360487,0.00315101,1.41622,1.41634,1.41699,0.00320822,1.41615,0.00307499,0.00345369,1.41892,1.41702,1.41734,1.41638,0.00303309,1.41152,1.41097,1.41605,0.00319799,0.00323982,0.00314257,1.44031,1.44134,1.44117,1.44323,1.44604,0.00322351,0.00324549,0.00301612,0.00334659,0.00300892,0.00338211,1.45443,1.45669,1.44665,1.44477,1.44657,1.45253,1.45523,1.45596,1.45724,1.45724,1.46388,1.46388,1.45835,1.45877,1.46043,0.00314991,0.00317209,1.48549,0.00331009,1.50038,1.49881,1.57648,1.50619,1.50533,1.50601,1.5092,1.50896,1.509,1.51585,1.51561,1.51831,1.51619,1.51667,1.51561,1.51412,1.51476,1.51463,1.51769,1.51914,1.51928,1.51909,1.51787,1.51678,1.51587,1.51404,1.51402,1.51841,1.51803,1.51601,1.51453,1.51305,1.51448,1.51539,1.51686,0.00311268,1.48774,1.48571,1.49214,1.4873,1.48619,1.48645,1.48605,0.0031595,1.50833,1.50887,0.00350509,1.52832,1.52988,0.00320603,0.00313988,1.49543,1.49623,1.49621
0.938496,0.938223,0.931508,0.930279,0.928205,0.924835,0.924466,0.914765,0.908452,0.905904,0.00308907,0.882653,0.88104,0.871551,0.872679,0.873448,0.853941,0.851139,0.8463,0.836343,0.835157,0.836291,0.839191,0.838645,0.00309771,0.824848,0.82338,0.815366,0.813166,0.812383,0.815314,0.824775,0.819781,0.0033241,0.827557,0.823781,0.824143,0.0032139,0.87135,0.00311476,0.816185,0.81799,0.8187,0.825555,0.826691,0.824738,0.00308761,0.00335337,0.00314308,0.810923,0.809546,0.0033032,0.915221,0.00341844,0.826679,0.00328725,0.776121,0.775146,0.775194,0.776787,0.00312066,0.783232,0.00325984,0.00312543,0.92007,0.772706,0.772977,0.0032853,0.876829,0.00328519,0.00314701,0.00323301,0.00337308,0.00324956,0.00320938,1.20877,1.05952,0.0032396,1.07876,1.09915,1.10923,1.29879,1.29967,1.0987,1.11962,1.1138,1.06483,1.30571,1.06448,1.17008,1.1676,1.07336,1.07505,1.07696,1.11511,1.261,1.09945,1.10006,1.10156,1.19898,0.00305741,1.22261,1.22272,1.23724,1.2612,1.2644,0.00302483,1.19912,1.20314,1.20833,1.20783,1.20764,1.20942,1.21669,1.21702,0.00312765,1.2296,1.23196,1.23337,1.23471,1.23962,1.24259,1.24633,1.40882,0.00324114,0.00311113,0.00341566,1.3265,0.00320746,0.00322639,0.00326674,1.45132,0.0034164,0.0031652,0.00308874,0.00329758,0.00319063,0.00316557,0.00301369,0.00351894,1.43837,1.44116,0.00301499,1.48864,1.47851,1.43011,1.42965,1.42564,1.42939,1.42927,1.42605,1.42625,0.0030304,1.41371,1.41927,1.41743,1.4201,1.41739,1.41791,1.42043,1.42299,1.42253,0.00319932,1.41231,1.412,0.00319188,1.42964,1.42875,1.42851,1.43034,0.00303699,0.00323505,1.39897,0.00323099,1.40722,1.40549,1.40381,1.404,0.00309665,0.00322625,0.00310646,0.00311239,1.41692,1.41336,1.42731,0.00316835,0.00315465,1.41903,0.00301636,0.00317724,0.00313947,0.00334475,0.00304382,1.45192,0.00322105,1.4377,1.41486,1.40574,1.40665,1.40776,1.40828,1.40836,0.00306407,1.40683,0.00325645,1.40768,1.40836,1.40625,1.40496,1.40026,1.39962,0.00313243,1.41233,1.44581,0.00330826,1.4238,1.42322,0.00299122,0.00338431,1.43886,1.43808,1.43768,1.43959,1.44076,1.44249,1.44117,1.44181,1.44616,1.44577,1.44515,1.44501,1.44676,1.44985,1.45,1.45314,1.45155,1.45763,1.46031,1.45941,1.46044,1.46128,1.46561,0.00307269,0.00325,0.00320192,1.47811,1.47504,0.00321414,0.00299565,0.00306576,0.00325825,1.50524,0.00335506,1.5136,1.51213,1.5098,1.51199,1.51013,1.50953,1.51264,1.51072,1.51211,1.51599,1.51638,0.00309687,0.00345741,0.00313653,0.00334653,0.00338551,0.00326002,0.00318391,0.0032325,0.00308116,1.5172,1.51644,1.51617,1.51671,1.51299,1.51311,1.51375,1.5166,1.51611,0.00335043,1.49545,1.49408,1.49192,1.48833,1.48808,0.00303464,0.00322682,0.00327664,0.00322106,0.00325386,1.52659,1.52685,1.52971,1.52243,1.5208,0.00314225,0.00320364
0.932628,0.933331,0.928949,0.928329,0.928337,0.925399,0.00323597,0.915559,0.0035017,0.00309438,0.00337832,0.886589,0.88494,0.876858,0.874201,0.873673,0.869325,0.869412,0.00341793,0.00298062,0.842847,0.84289,0.844282,0.838362,0.830076,0.00318463,0.822109,0.814127,0.814074,0.812503,0.813049,0.814441,0.811794,0.81193,0.810912,0.807942,0.800045,0.793471,0.792872,0.796032,0.795407,0.00322722,0.823293,0.820552,0.00328285,0.00321327,0.00311906,0.00300005,0.894923,0.778015,0.777821,0.0030517,0.0033442,0.746953,0.748261,0.748321,0.00302789,0.00317259,0.775162,0.774109,0.773396,0.00293642,0.884472,0.00307339,0.0034797,0.77347,0.773557,0.00308306,0.00299697,0.00326997,0.00311235,0.00335567,0.00318836,0.00281837,0.956354,0.956619,1.18172,0.00330939,0.0032664,1.0711,1.1417,1.14415,1.14429,1.04613,1.12517,1.13309,1.06099,1.05906,1.05931,1.05898,1.05715,1.05636,1.05586,1.21679,1.11156,1.11446,1.10612,0.00302838,1.15266,1.34724,1.19529,0.0030531,0.00326052,0.00290468,1.22325,1.3473,1.2409,1.21538,0.00314766,1.20641,1.31846,1.21339,0.00302136,1.22375,1.22339,1.22347,0.00320647,1.2358,1.241,1.24046,1.24081,1.24582,1.25001,1.2534,1.25423,0.00325458,1.32293,0.00310342,0.00334254,0.00331022,0.00342701,0.00311541,1.44484,0.00327262,0.00326208,0.00316048,0.00313916,0.00302489,0.00339781,0.00319656,0.00297647,0.00313308,1.44358,1.44612,1.44592,1.44414,1.44361,1.43019,1.43036,1.43123,1.43293,1.43322,0.00335048,0.00322368,1.41909,1.41414,1.41743,1.41809,1.41625,1.41571,1.41942,1.42152,1.41884,1.41313,1.41194,1.41894,0.00329416,0.00315948,0.00307078,0.00328086,0.00342223,0.00308031,1.39501,1.39476,1.39593,1.39669,1.39861,1.39692,1.39574,1.3948,0.0035007,0.00346571,1.40802,0.00318735,0.00315341,1.39267,1.43147,0.0031313,0.00314056,1.39823,1.39796,0.00293672,0.00327457,1.3982,1.39837,1.39015,1.44418,0.00291652,1.44057,0.00293291,0.003099,0.00322034,1.39935,0.00316131,0.00320861,0.00319416,1.41162,0.00310119,0.00302944,1.3927,1.43915,1.43025,0.00331793,0.00307538,1.44641,0.00314901,1.4206,1.42205,1.42337,0.00306717,0.00304629,1.43441,1.43812,1.43794,1.43962,1.43864,1.4439,1.44297,1.44296,1.44523,1.44396,1.44329,1.44355,1.44317,1.45047,1.44997,1.45037,1.44494,1.46085,1.46261,1.46123,1.47076,1.47092,1.47774,1.47723,1.47257,1.4736,0.00336383,0.00316077,0.00289843,1.63487,0.00310861,0.00324039,0.00316882,1.49542,0.00309597,0.00319568,0.00323878,0.00312277,0.00316402,1.60989,0.00309885,0.00300867,0.00315197,0.0031307,0.00319765,1.48293,1.48288,0.00326368,0.00314113,1.59504,0.00326033,0.00335067,0.00320848,1.51974,0.00328226,1.51572,1.51525,1.51501,1.51606,1.5179,1.51716,1.51038,1.4983,1.49616,1.49264,1.49095,1.48791,1.48999,0.00318747,0.00316201,0.00309188,1.52677,1.53056,1.53263,1.53159,1.53151,1.53146,1.52674,1.52614
0.93508,0.929099,0.928874,0.922692,0.923617,0.92348,0.91566,0.915286,0.913008,0.899494,0.894837,0.887021,0.886476,0.877847,0.876766,0.875935,0.876692,0.870773,0.871665,0.987871,0.00324814,0.00353831,0.0031687,0.00336818,0.0031942,0.00333134,0.817368,0.816443,0.812574,0.805697,0.806114,0.801163,0.798608,0.796424,0.797919,0.798222,0.798773,0.800064,0.800017,0.800975,0.799545,0.797604,0.803657,0.811643,0.811359,0.81089,0.00330799,0.785508,0.781826,0.778424,0.777784,0.865802,0.749582,0.74851,0.747612,0.746273,0.0030908,0.876435,0.00320576,0.73448,0.00308122,0.742182,0.742536,0.919477,0.921279,0.00333301,0.00324903,0.00336685,0.00322648,0.00331111,0.00315519,0.00320072,0.0031277,0.00307653,0.00317532,0.00329351,0.0030944,1.14664,1.14299,1.02543,1.02618,1.13058,1.14346,1.13284,1.12591,1.05118,1.04949,1.04998,1.0495,1.04732,1.05677,1.05952,1.05965,1.05901,1.06037,1.06077,1.06075,1.12477,1.13673,1.11441,0.00323832,1.18172,1.18809,0.00318991,0.00309434,0.00342847,0.00319678,1.22672,1.23622,0.00342012,0.003147,0.00312843,0.0031135,1.22619,1.22454,1.22531,1.22747,0.00304536,0.00303786,0.00319997,1.25397,1.25374,1.25091,1.25118,1.25119,1.25797,1.25779,1.25711,0.00306708,0.00316096,0.00308164,0.00330175,0.00301455,0.00333208,0.003085,0.00323647,0.00305545,0.00308839,0.00313555,0.00309721,0.00319611,1.5038,0.00313719,1.47223,0.00316342,1.46859,0.00314063,1.45039,1.42826,1.42888,1.42864,1.42893,1.42846,1.42683,1.4257,1.42506,1.42347,1.42357,1.41623,1.4154,1.41609,1.41672,1.41236,1.41151,1.40852,1.40865,1.40846,1.40879,1.40858,1.40574,1.41925,1.39282,0.00316609,1.38974,1.38986,1.3923,1.39452,1.39531,1.39439,1.39486,1.3947,1.40293,0.0032653,0.00323256,0.00327339,1.38489,1.38501,0.0030315,0.00312987,0.00306443,1.39446,1.39559,1.3969,1.40567,1.38789,0.00305812,1.37422,1.37306,0.00311925,1.36815,1.41995,1.37066,1.37119,0.00309677,0.00290196,0.0031104,0.00312204,0.00318692,0.00325373,1.44859,1.40534,1.45012,0.00299199,1.39443,0.00307713,1.44153,1.40907,1.40867,0.00314067,1.42098,1.4212,0.00320208,1.42834,0.00330474,1.42395,1.42446,0.00313158,1.44313,0.00309836,0.00321571,1.43651,1.4344,0.00326823,1.44033,1.43976,1.44604,1.44388,1.44551,0.00302051,1.45189,1.45407,1.45455,0.00313174,0.00315556,0.00307988,1.46844,0.00326293,1.46075,1.46388,1.4637,1.46744,1.47115,1.47772,0.00331322,0.00306188,0.00304354,0.00335416,0.00310223,1.47506,1.47311,1.47211,1.47043,1.60073,1.47576,1.47469,1.47783,1.47869,1.47813,1.4774,1.47687,1.4776,1.47773,0.0033286,0.00332277,0.00311503,0.00329562,1.50008,0.0031067,0.00302639,0.00349458,0.003184,1.51212,0.00296959,1.49629,1.4959,1.49518,1.4906,1.49899,1.49897,0.0034075,1.51741,1.5168,1.51944,1.52796,1.52752,1.52847,1.5252,1.52583,1.52548,1.52519
0.938807,0.934792,0.93318,0.925758,0.924651,0.923094,0.921717,0.919007,0.905298,0.906093,0.901407,0.891237,0.890721,0.875416,0.874919,0.873048,0.870748,0.869735,0.873795,0.86771,0.866712,0.866604,0.00322683,0.00329655,0.839807,0.00329551,0.815467,0.814987,0.814093,0.796159,0.803642,0.792661,0.793969,0.794111,0.00311873,0.804427,0.8041,0.794877,0.003283,0.00287289,0.0035202,0.816146,0.943287,0.821451,0.818435,0.00309414,0.942749,0.912113,0.783779,0.784058,0.759119,0.759228,0.752874,0.752176,0.751696,0.00328849,0.722718,0.723863,0.723164,0.73612,0.736817,0.00309548,0.741408,0.00301664,0.00321565,0.00321621,0.0031184,0.00366775,0.0031292,0.00321811,0.00318167,0.00308452,1.11809,0.00312078,0.00341219,0.00328504,1.1369,1.12899,1.13697,1.08409,1.12897,1.13675,1.15723,1.1161,1.03675,1.10243,1.03868,1.03878,1.04317,1.04417,1.042,1.03776,1.12946,1.02197,1.02159,0.00326835,1.04941,1.04821,1.04856,0.00309869,0.00296309,0.00337967,0.00325781,0.00310222,0.00307682,1.31009,0.00312531,1.19334,1.22653,1.22599,0.00329027,0.00333736,1.213,1.2148,1.21344,0.00317306,1.37794,0.00314664,1.24104,0.00330097,0.00315798,0.00309346,1.24618,0.00312549,1.31719,1.26017,1.25383,1.2494,1.24935,1.31691,0.00322517,0.00322936,1.32908,0.00329349,0.00332242,0.00308146,0.00303617,0.00300148,0.00307566,1.46918,0.00338995,0.00302515,0.00314006,0.00326724,0.00303114,0.00321602,1.4216,1.42243,1.42708,1.44361,1.42587,1.42582,1.42624,1.42699,1.4236,1.42226,1.4228,1.41469,1.4152,1.41525,1.4149,1.41655,1.40632,1.40492,1.40491,1.40516,1.40472,1.40463,0.0031463,0.00312008,1.38864,1.38746,1.38389,1.38272,1.38962,0.00310011,0.00331018,1.38891,0.00302575,1.39351,0.0032367,0.00300537,0.00304137,1.37143,0.00331835,1.37496,0.00346413,1.38075,1.38057,0.00299288,0.00323799,0.00320673,0.00334632,0.00324521,0.00294589,1.37265,1.36912,1.3682,1.36797,1.36748,1.36783,1.3671,1.36656,1.36722,1.36563,1.36631,1.36476,1.36088,1.35771,1.36108,1.36192,0.00309556,0.00327962,0.00320137,1.38851,0.00325648,0.00322533,0.0029867,0.00331338,0.00300464,0.00304709,0.00302842,0.00312671,0.00291321,0.0032192,0.00319853,0.0031626,0.00315175,0.00321846,0.00318527,0.00311126,0.00320817,0.00305585,0.00308409,0.00313625,0.00313671,0.00324789,0.00300077,0.0033652,1.48914,1.48931,0.0032935,1.4635,0.00329074,0.00312437,1.45434,1.45358,1.45301,1.45678,1.45623,1.46403,1.46301,1.46385,0.00322925,1.466,0.00315144,0.00338881,1.45762,1.4596,1.46211,1.46204,1.46577,1.46966,1.47328,1.47479,1.47556,1.47224,1.47867,1.47234,1.47091,1.47285,1.47271,1.47273,1.47288,1.48136,1.48131,0.00324845,0.00305632,1.48495,0.00337855,0.00326512,1.51105,1.50989,1.51027,0.00305094,1.4948,1.49326,1.63659,0.00330216,1.51211,1.51002,1.5136,1.52049,1.53033,1.52935,1.53102,1.533,1.53241,0.00340869,0.00317999
0.94061,0.00301457,0.935583,0.935557,0.925591,0.925743,0.916553,0.915456,0.913998,0.901756,0.892984,0.893616,0.893547,0.886811,0.885939,0.885509,0.866848,0.865423,0.86632,0.865258,0.866001,0.868974,0.866315,0.00322465,0.835097,0.834838,0.834336,0.00338851,0.00321296,0.890452,0.936841,0.77617,0.776323,0.775639,0.00303054,0.781494,0.781853,0.784741,0.783606,0.00333219,0.816293,0.819889,0.815515,0.814685,0.812608,0.819338,0.78847,0.00323432,0.00312663,0.757088,0.757095,0.763046,0.76113,0.754916,1.02234,1.01919,0.724698,0.722926,0.735834,0.739196,0.739886,0.755998,0.756194,0.876078,0.00300437,1.00461,0.00323841,0.00309055,0.00303287,0.00318153,0.990346,0.00299764,0.00310392,0.00309614,0.0030731,1.02919,0.970995,1.02987,1.03961,1.11518,1.10211,1.10242,1.14321,0.00313707,1.02671,1.02852,1.12974,1.16185,1.12604,1.03709,1.16471,1.02449,1.02252,1.02213,1.02227,1.02163,1.1381,1.14012,0.00310507,0.0032543,0.00321791,1.23307,1.22714,1.15895,0.00305668,0.00336557,0.00298702,1.20987,0.00315252,1.38866,0.00304964,1.25459,0.00319923,1.223,0.00305384,1.22435,0.00312483,0.0032891,1.22504,0.00314865,0.0029724,0.00308239,0.00304596,0.00328408,0.00304063,0.00335914,0.00306917,1.25021,1.25049,1.25083,1.24504,1.24383,1.24857,1.38216,1.38163,1.35104,0.00317031,0.00334399,0.00284738,0.00324497,0.00315577,1.53305,0.00316,0.00332967,0.00292385,0.00327998,0.00323429,0.00314183,1.46675,1.45781,0.00300552,0.0030709,1.41379,1.41199,1.41236,1.46188,1.4123,1.41264,0.00303199,0.00322407,0.00313415,1.40293,1.40206,1.40049,1.3979,1.39793,1.3965,1.39658,1.39675,0.00329472,0.00322745,1.38001,1.37958,1.42986,1.36367,1.35628,1.4197,1.42647,1.36523,1.36697,1.40845,1.37593,1.37456,1.41692,1.36294,1.36024,1.35724,1.35978,0.00317162,0.00333212,1.35785,1.43047,1.35264,1.35049,1.35328,0.00322595,0.00318348,1.40287,0.00308137,0.00328873,1.36025,1.3617,1.36519,1.36535,1.36828,1.36851,1.37081,1.36492,1.36314,1.36241,0.00303844,1.4613,1.36964,1.37088,1.38103,0.00332819,0.00327885,0.00354991,0.00311282,0.00326502,1.39603,0.00323114,0.00319059,0.00314436,0.00301079,0.00333062,1.39097,1.39213,1.39391,0.00332606,0.00303472,0.00320064,0.00300595,0.00322039,0.00319836,0.00302212,1.40779,1.40694,1.40739,1.40743,0.00309928,0.00324044,0.00306708,1.41701,0.0031588,0.0034769,0.00313515,0.00325415,1.46489,0.00327366,0.003233,0.00321927,0.0030944,1.45854,1.45722,1.45463,1.45588,1.45499,1.45381,1.45632,1.45658,1.46761,1.46586,1.47078,1.46776,1.46855,1.47002,1.47093,1.47047,1.46625,0.00294969,1.47172,0.00336966,0.0032547,0.00312719,0.00337822,0.00312284,1.48124,1.47981,1.47762,1.48918,1.49019,1.50394,1.5061,1.50747,1.50786,0.00309316,1.51589,1.5157,1.5159,1.51525,1.51629,0.0031724,1.5261,1.52787,1.53506,1.53417,1.53244,1.53674,1.56685
0.963502,0.958089,0.956052,0.955703,0.924941,0.923029,0.91783,0.917477,0.907565,0.905635,0.894913,0.892175,0.88418,0.884622,0.877702,0.880387,0.878368,0.869542,0.869089,0.864733,0.863427,0.862949,0.862121,0.904909,0.830713,0.830781,0.831248,0.0030818,0.0032351,0.00327045,0.00313356,0.773963,0.77295,0.760231,0.760026,0.759864,0.854884,0.946722,0.003358,0.00304329,0.00314809,0.847157,0.847027,0.815924,0.852775,0.00309971,0.83566,0.00310073,0.757209,0.755566,0.755322,0.755376,0.763852,0.768499,0.772757,0.750693,0.749665,0.745333,0.742273,0.742822,0.748699,0.00307354,0.00337692,0.00307245,0.00329287,0.00318814,0.00319929,0.00307099,0.00331506,0.00329699,0.00341822,0.00313708,0.00347896,0.0031676,0.977784,0.971132,1.06345,1.06032,1.05853,0.00298188,1.00901,1.08513,1.00454,1.00438,1.08889,0.00309369,1.08888,1.0145,1.01224,1.12604,1.01817,1.01852,0.00327087,1.02213,1.02266,1.02017,1.38912,1.03042,1.03108,0.00300272,1.11355,1.12447,1.12346,0.00312224,0.00299994,1.19543,1.18816,0.00284762,1.16819,0.00329514,1.18834,0.00305796,0.0032587,0.00319258,0.00311334,0.00304271,0.00339927,0.00317336,1.22865,1.2106,1.21057,1.21444,1.21437,0.00316582,0.00333309,1.22799,0.0031341,0.00324574,0.0030943,0.00318643,0.00308544,1.24141,1.25125,0.00320157,1.28817,0.00313934,0.00331269,0.00326488,0.00336374,0.00285999,1.36513,1.41021,0.0032162,0.00303338,0.00329119,0.00317673,0.00323668,0.0030725,1.46884,1.40591,0.00311484,0.00314617,1.40713,1.42798,1.44011,1.43727,1.45729,1.45147,1.44423,1.41982,1.44109,1.39474,1.39632,1.39493,1.3948,1.3948,1.39451,1.39536,1.40557,1.38518,1.38233,1.38094,1.37393,1.37371,1.36417,1.36295,1.3641,1.3635,1.36445,1.3636,1.36489,1.36687,1.36771,1.3671,1.35562,1.35502,1.35802,1.35853,1.35621,1.35673,1.35339,1.35335,1.34403,1.34194,1.34231,1.43623,1.3432,1.33879,1.33793,1.33602,1.33562,1.34386,1.36017,1.35828,1.3684,0.00318248,0.00324833,0.00322454,0.00319185,1.3928,1.39371,1.39626,1.37809,1.37984,1.37818,1.37559,1.37704,0.00311771,0.00311957,0.00307777,0.00332186,1.3621,1.36088,0.00326389,0.00327245,0.00312049,0.0030529,1.38587,1.38484,1.38537,1.37293,1.37264,1.3727,1.37187,1.38101,1.38078,1.38208,1.54308,0.00325293,0.00314939,1.40586,0.00317614,0.00307203,0.0032205,1.40643,1.40347,1.40281,1.40487,0.0031553,0.00335902,0.00318542,0.00328864,0.00325122,0.00313762,1.45708,0.0030192,0.00339096,1.44357,0.00319966,1.44832,1.45256,1.4533,0.00323144,1.46495,1.46397,1.46474,1.46177,1.46118,1.47117,0.00299065,1.45212,1.46254,1.46298,1.47595,0.00317675,0.00302473,0.00331078,0.00300529,0.00354792,1.48921,1.48798,1.48607,1.48925,0.00319777,1.51517,1.51596,1.51576,1.51902,1.51664,1.51824,1.51743,1.52041,1.52306,1.53038,1.53212,1.53312,1.53291,1.53128,1.55537,0.00304226
0.00314859,0.945974,0.944995,0.946212,0.00328613,0.923842,0.923428,0.92303,0.91728,0.914595,1.02367,0.895824,0.887526,0.882428,0.00315233,0.867593,0.86947,0.870333,0.869886,0.864769,0.86406,0.861052,0.928747,0.913176,0.834027,0.833586,0.827874,0.827915,0.00328247,0.791541,0.792247,0.791852,0.791372,0.762998,0.76445,0.763664,0.763012,0.76979,0.780198,0.79364,0.0031832,0.781039,0.780591,0.00331872,0.00313626,0.00306266,0.00324414,0.76924,0.75795,0.757031,0.767233,0.766845,0.758977,0.76106,0.762279,0.757054,0.756948,0.756097,0.755255,0.749444,0.745782,0.00323895,0.00326781,0.00316618,0.00320633,0.00361557,0.00309685,0.00324287,0.00336516,0.0032139,0.00309587,0.956878,0.00318141,0.963956,0.979438,0.963331,0.96167,0.960221,0.968128,0.971673,0.976805,0.97679,0.976589,1.11335,1.10606,1.04076,1.00445,1.00918,1.13566,1.00192,1.06496,0.00324128,1.10169,0.00324315,1.01151,1.12157,0.00313851,0.00321264,0.00315209,0.00315228,0.00296341,1.0426,1.19314,0.00343981,0.00315406,0.00335875,0.00308057,0.00338997,1.16766,1.18366,0.003144,1.19147,1.18884,0.00344307,0.00309352,0.00328823,0.00323296,0.00332065,0.00317233,0.00310732,0.00328867,0.00325601,0.00313491,0.0031275,0.00311217,1.26828,0.00297168,1.22186,1.24071,1.24144,0.00329996,0.0033177,0.00302523,1.23742,1.31711,0.00309377,0.00303254,0.00315349,0.00293112,0.00298141,0.00318928,1.35649,1.36327,0.00332937,0.00303298,0.00323435,1.37519,1.44325,0.00324384,0.00326025,1.40951,1.43642,1.45729,1.46481,1.41541,1.45827,1.38622,1.38742,1.38765,1.38638,1.38809,1.38758,1.38816,0.00320412,1.38765,1.4284,0.00300854,1.4173,0.00320991,1.3821,1.37967,1.37958,0.00308059,0.00313078,1.36195,1.36106,1.36125,1.36444,1.36444,1.36348,1.36174,1.37086,1.36929,1.36431,1.3635,1.36266,1.35799,1.35769,1.35562,1.35676,1.35652,1.35535,1.34618,1.34362,1.33471,1.33295,1.33747,1.33773,1.33988,1.34121,0.00323749,0.00328693,0.0031151,1.36384,1.36906,1.46565,0.0031579,0.00314147,0.00328028,1.39869,1.39482,1.39464,1.39195,1.39136,1.37886,1.37968,1.37657,1.3719,0.00308109,0.00317391,1.34943,1.34663,1.34865,1.348,0.00342925,1.36646,1.36906,1.37092,0.00291357,1.36876,1.37097,1.37195,1.37565,1.37455,1.37464,1.37502,1.37569,1.37421,1.38512,1.38864,1.39027,1.39148,1.39512,1.39542,0.00311738,1.4,1.4016,1.40308,0.00323248,1.40748,1.48853,0.00329848,0.00347554,1.50155,0.00317745,0.0031333,0.00308047,1.42338,0.00315543,0.00336425,1.44385,1.44688,1.45344,1.45466,1.46144,1.46027,1.45932,1.45722,0.0030159,1.45052,1.4487,1.44903,1.45037,1.45027,1.44937,1.45059,0.00332491,0.00338709,1.49909,1.49786,1.49254,1.49113,1.48933,1.49932,0.00316357,0.00329769,1.51906,1.51866,1.51764,1.51896,1.51824,1.52289,1.52493,1.52676,1.53102,1.53249,1.5322,1.53094,1.5487,1.54919
0.00325047,1.18442,0.00334746,0.00306616,0.973649,0.00325204,0.924764,0.924723,0.913888,0.920156,0.0033971,0.970124,0.886913,0.964775,0.874673,0.87379,0.00317234,0.00317886,0.00338069,0.00290604,0.866809,0.00305904,0.00325504,0.003166,0.937534,0.835149,0.830919,0.828377,0.827314,0.0033716,0.791428,0.788057,0.00333174,0.00332486,0.754553,0.753925,0.752679,0.770679,0.00320832,0.845696,0.0033331,0.780427,0.773219,0.769764,0.766578,0.763691,0.763017,0.77288,0.762011,0.76204,0.762368,0.762771,0.754183,0.753294,0.763921,0.762294,0.761352,0.760772,0.762223,0.762816,0.757776,0.760032,0.758977,0.00281342,0.00321797,0.00315735,0.901273,0.90235,0.870525,0.00305788,0.0033626,0.00310158,0.00325731,0.00322472,0.00338299,0.00306712,0.98435,0.00286531,0.97126,0.97658,0.977044,0.977204,0.979676,0.979955,0.979498,0.00312708,1.13696,1.0061,1.00465,0.998379,0.994038,0.997884,0.998932,1.00182,1.00503,1.00565,1.06086,1.18052,1.13203,0.00291494,1.04087,1.04568,1.04478,0.00319368,0.00333581,1.10238,0.00325682,0.00313324,1.18091,0.00294606,0.00329424,0.00326513,1.18974,1.14006,1.14065,1.17719,0.00321063,0.00315314,1.17086,1.17833,1.22639,0.0031303,1.22019,0.00306954,0.00346912,0.00306127,1.24672,0.0028806,0.00301987,0.00333213,0.0031002,1.21899,0.00309564,0.00284673,0.00344907,1.25001,0.00327276,1.26122,0.00348613,0.0032915,0.00320231,0.00307921,0.00330428,0.00316082,0.00318047,0.00298125,1.37922,0.00325595,1.45913,0.00323881,1.44752,0.00329793,1.41077,0.00319744,1.46125,0.00307292,1.38087,1.38099,1.3813,1.38108,1.38202,1.38204,1.37894,0.0033819,1.37156,1.36752,1.36464,1.36377,0.0031776,0.0031481,1.41235,0.00310215,1.36071,1.35904,1.35772,1.35865,1.35839,1.35993,1.35928,1.36055,1.35921,1.36005,1.35937,1.35679,1.36006,1.35936,1.35947,1.35909,1.35535,1.3567,1.3566,1.35537,1.35307,1.34555,1.34564,0.00306673,1.33415,0.0031336,1.34587,1.34701,0.00335547,0.0031637,0.00335855,1.376,0.00339723,0.00296296,0.00335631,1.40786,1.40718,1.40807,1.40693,0.00328865,1.38971,1.3909,1.3887,1.37686,0.0033389,0.0032521,1.34337,1.34358,1.34284,1.34276,1.34298,1.34996,1.34981,0.00306948,1.3655,1.37102,1.36542,1.36549,1.36685,1.37137,1.37456,1.37386,1.37508,1.37907,1.37868,1.38192,1.38451,1.3878,1.38954,1.3894,1.39007,1.39159,1.39215,1.39844,1.39781,1.39421,1.39363,1.39398,1.39725,1.39887,1.39835,1.39732,1.39613,1.39629,0.00320564,0.00299302,0.00338942,0.00291767,0.00313358,1.45419,1.45141,1.45684,1.45343,1.45415,1.45421,1.45405,1.4538,1.45349,1.45142,1.44906,1.44762,1.44858,1.46076,0.00308137,0.00319048,0.00310469,0.00316205,0.00298754,1.50181,1.49301,1.49485,1.49489,0.00322985,1.51804,1.51904,1.51825,1.515,1.52367,0.00341402,1.52709,1.52667,1.53114,1.53222,1.53658,1.53495,1.55512,1.55664,0.00300505
0.00296527,0.00313342,0.00306827,0.961882,0.962,0.00314677,0.00316647,0.968679,0.00300707,0.920309,0.00312181,0.00330435,0.980618,0.978632,0.993342,0.969184,0.884018,0.00330501,0.00322898,0.00312697,0.969526,0.982425,0.00319909,0.00328973,0.00300134,0.00312329,0.826744,0.821405,0.820868,0.00324661,0.00307968,0.00316924,0.00337622,0.00337726,0.00315365,0.754373,0.753999,0.755446,0.75606,0.753913,0.775072,0.775539,0.774085,0.761786,0.762481,0.763639,0.763921,0.76302,0.762164,0.81677,0.748729,0.745573,0.739067,0.73875,0.908048,0.919042,0.7492,0.749273,0.76153,0.765477,0.763716,0.0034561,0.00322018,0.00348672,0.00308848,0.0032455,0.859729,0.864265,0.86411,0.866,0.864128,1.04972,0.00329527,0.00361104,0.00338029,0.00330305,0.00307994,0.970514,0.972481,0.973864,0.976832,0.977526,0.977098,0.97282,1.08308,0.965844,1.10377,1.10679,0.997759,0.998145,0.995116,0.994953,0.994972,0.00309706,0.988093,0.988118,0.988584,0.00348183,0.00307701,1.14316,0.00297965,1.11626,1.10633,1.12013,1.1703,1.08418,1.09071,1.09311,1.09424,1.17879,1.09783,1.10344,1.17727,1.17774,0.00296078,0.00321677,0.00322578,0.00325404,1.18413,1.15398,1.15487,0.00323318,1.17724,0.00313209,1.1839,1.18439,1.19191,1.19261,1.19309,1.20604,1.2129,1.21493,0.00295366,0.00338683,0.0031271,1.23186,0.00322836,0.00336044,0.0031773,0.00336266,0.00307659,0.00322087,0.00292546,0.00321507,0.0031876,0.00322025,0.00304404,0.00322984,0.002843,0.00317037,1.44133,1.41663,0.00317496,1.36218,1.43038,1.4347,1.37533,1.37552,1.37528,1.37482,1.37407,1.37251,1.36924,1.37123,1.37122,1.37035,1.36813,1.35562,1.35535,1.35822,1.41283,1.35499,1.35419,1.35465,1.35312,1.35168,1.35169,1.35222,1.35313,1.35495,1.35536,1.35617,1.35564,1.35455,1.3542,1.35466,1.35942,1.3595,1.35767,1.35817,1.35734,1.35518,1.35672,1.35039,1.35091,1.34751,1.34532,1.34656,1.3477,1.34681,0.00295194,1.38509,1.38433,1.38206,1.38238,0.00339743,0.00300903,0.00335706,1.40684,0.00341985,0.00309879,0.00307317,0.00309391,1.54365,0.00311633,0.00332202,1.34459,1.34333,1.34093,1.33976,1.34236,1.34525,1.34586,1.35164,1.35771,1.3591,1.36971,1.36955,1.36831,1.37158,1.37412,1.37471,1.37585,1.37525,1.37863,1.38119,1.38164,1.38885,1.39438,1.39349,1.3919,1.39283,1.3935,1.39433,1.39631,1.3957,1.40222,1.54358,0.00335617,0.00338865,0.00311122,0.00333525,1.39527,1.39591,1.39564,1.39639,0.00329645,0.0031978,0.00329356,0.00308384,1.45129,1.4493,1.4516,1.4537,1.454,1.45336,1.4532,1.4521,1.4506,1.4507,1.45027,1.44759,1.44764,0.00323624,0.00311358,0.00334362,1.472,0.00326626,0.00324093,0.00305735,0.00325613,0.00305867,0.00315843,0.00339885,1.51594,1.51206,1.51993,1.52306,1.52119,1.53199,1.53103,1.5347,1.53514,1.53425,1.54005,1.54205,1.54475,0.00327086,0.003106,1.54766
1.02085,0.00321821,0.960675,0.960886,0.961623,0.961502,0.977227,0.978784,0.932017,0.931489,0.00326228,0.0030797,0.00344968,1.07465,0.00321119,0.00295411,0.00316989,0.900442,0.899521,0.899759,0.899245,0.887123,0.883486,0.00302719,0.00332475,0.00315643,0.00316545,0.00307732,0.00342732,0.00318114,0.00327978,0.00319793,0.753212,0.744955,0.746063,0.745058,0.737549,0.73869,0.749082,0.752299,0.750354,0.758568,0.759085,0.766289,0.766675,0.00318173,0.00317857,0.00306873,0.823644,0.817356,0.0033693,0.739835,0.741483,0.739883,0.739851,0.743872,0.748765,0.748827,0.74786,0.754116,0.752734,0.00323676,0.00307354,0.920494,0.00349576,0.0032538,0.888595,0.00303387,0.870455,0.872699,0.87356,0.00318342,1.12941,0.00316626,0.00335288,0.00327575,0.0029346,1.03528,1.02526,0.975115,0.976473,0.975817,0.977851,0.978462,0.971143,0.965071,0.96785,0.97638,0.976826,0.976452,0.978948,0.97672,0.976435,0.973341,0.993741,0.993069,1.00573,1.0055,1.01146,0.00329138,1.09845,0.003336,0.00322443,0.00301423,0.00334327,1.08016,1.08289,1.09074,1.09099,1.09724,1.09773,1.09733,1.18507,1.17418,1.12471,0.00310038,0.00334205,0.00298292,1.14214,1.14869,0.00328754,0.00292484,0.00312114,0.00315067,1.16795,1.16995,0.00300999,0.00309238,0.00326017,0.00291243,0.00319002,1.21781,1.21922,1.22066,1.22277,1.22507,1.22552,1.25187,0.0033529,0.0030461,0.00316939,0.00325737,0.00316916,0.00308068,0.00312173,0.00311399,0.00336548,0.00319291,0.00319123,0.00319811,0.00323655,1.43955,0.00312296,1.35711,1.35705,0.00310754,1.42593,1.37496,1.37369,1.37275,1.3714,1.36853,1.36691,1.36533,1.36479,1.36243,1.3549,1.3535,1.35357,1.3516,1.34954,1.34899,1.34834,1.34777,1.34856,1.34877,1.34952,1.34986,1.3506,1.35243,1.35127,1.35372,1.35402,1.35487,1.35791,1.35804,1.35673,1.35795,1.35608,0.00319298,0.00299628,0.00330211,1.34696,1.34795,1.34201,1.3433,1.34252,1.34202,1.34463,1.348,1.43303,0.0031861,1.37787,1.37331,1.37209,1.37334,1.37343,0.00287005,1.36459,1.3603,1.36039,1.36537,0.00321799,0.00314248,1.34134,1.34373,1.34115,1.34801,1.34836,1.34341,1.34676,1.35429,1.3567,1.35694,1.35862,1.36945,1.37271,1.3718,1.37255,1.37325,1.37276,1.37813,1.38927,1.38776,1.38533,1.38667,1.39486,1.39338,1.39872,0.00306137,1.40275,0.00298497,1.40019,0.00327673,1.41609,0.00324337,0.003148,0.00318833,1.41968,1.41946,1.4198,1.4153,1.41607,1.76119,0.00327561,0.00329109,0.00333141,0.00310552,0.0032578,0.00322341,0.00318473,0.00335025,0.0032714,0.00311732,1.495,1.45324,1.45171,1.44983,1.44973,1.45024,1.46542,0.00308694,0.00311901,1.46288,0.00323597,0.00323382,0.00318377,0.00295257,0.00314537,0.00334492,1.51358,1.51371,1.51324,1.51802,1.51639,1.51441,1.51928,1.51839,1.52587,1.52833,1.53899,1.5389,1.53827,1.53842,1.5394,1.54476,0.00313976,1.55011,1.56134,0.00313366
0.00304613,0.00348267,0.973935,0.973111,0.973098,0.00347302,0.00309339,0.973173,0.966207,0.93683,0.937521,0.936812,0.0029769,0.916646,0.916996,0.917686,0.0029038,0.902168,0.901476,0.900235,0.899178,0.00327664,0.00310461,0.00332333,0.00314346,0.00330281,0.00322778,0.00329846,0.00303476,0.00321452,0.728849,0.729614,0.729883,0.719346,0.717881,0.738025,0.737539,0.738831,0.744956,0.00329539,0.759418,0.759382,0.768837,0.769468,0.00315799,0.791963,0.793935,0.791907,0.878228,0.00326626,0.00314706,0.918037,0.875876,0.746223,0.742459,0.74267,0.744207,0.743411,0.748993,0.849028,0.00310559,0.00329298,0.00301469,0.00319818,0.00311506,0.00327547,0.0031882,0.866194,0.870131,0.873684,0.0031754,0.00322291,0.00307819,0.00325385,0.00332327,0.00301782,0.93673,1.02944,0.947215,1.0718,0.00323251,1.06109,0.0031233,0.97122,0.978927,0.973227,0.973416,0.973858,0.00309098,0.987349,0.982276,0.981236,0.00291843,0.00337151,0.988097,0.988887,0.991676,1.12326,1.01201,1.12313,0.00318353,0.00332085,0.00302187,1.05097,0.00302229,1.1437,0.00321065,1.08123,0.0031904,1.08357,1.08378,1.16429,0.0030649,1.18441,1.1969,1.12765,1.12742,1.13067,1.1354,1.13614,0.00300833,0.00362284,0.00297578,1.18707,0.00318428,1.15693,0.00314525,0.00319215,0.00325577,1.19294,0.00298854,0.00318181,1.21368,1.21425,1.21511,1.53878,0.0030602,0.00321499,1.22959,0.00294984,0.00322291,0.00305902,0.00329431,0.00302172,0.00301945,0.00320979,0.00319956,0.00316405,0.00324597,0.00308103,1.35091,1.43982,0.0031061,0.00326282,1.43069,0.00324151,1.40372,1.40032,1.4124,1.42535,1.36766,1.3687,1.36573,1.364,1.36224,1.35557,1.35366,1.35151,1.35121,1.35231,1.35285,1.35239,1.35276,1.35399,1.35359,1.35334,1.35379,1.35241,1.35254,1.35216,1.3504,1.35637,1.35468,1.35952,1.36034,1.36256,1.36266,1.3607,1.35181,1.35016,1.33716,1.33658,0.00301501,1.35145,1.34989,1.34308,1.34753,1.34613,1.34589,1.34574,1.35114,0.00320251,0.003083,1.37456,1.37396,1.374,1.37191,1.37404,1.36274,1.36146,1.3606,1.36001,1.36002,1.35983,1.3609,0.00335304,0.00312783,0.00323534,0.00303749,0.00335122,0.00303184,0.0031448,1.36375,1.36674,1.37114,1.375,1.376,1.37505,1.37361,1.37322,0.00313668,1.39004,1.39449,1.39729,0.00322265,0.00315906,0.00287846,1.40969,1.41014,1.41204,0.00309742,0.00326677,0.00306789,0.00323532,0.00315886,0.00318191,0.00312476,0.00329362,0.00305143,0.00340856,1.43042,0.00330371,0.00319725,1.46326,0.00320585,0.00317951,0.00319333,0.00323788,0.0031073,1.46826,1.46627,1.4676,0.00284194,1.48928,0.00306314,0.00314379,0.00309771,0.00331861,0.00306696,0.00317316,0.00309626,0.00323788,0.00323679,0.00342765,0.00290193,0.00318843,0.00316442,0.00316587,0.00315139,0.00326276,1.52226,1.52365,1.5232,1.52017,0.00302477,1.52106,1.51974,1.52127,1.52805,1.52648,0.0031059,1.54132,1.54375,1.54661,1.54539,0.00329083,1.55536,1.55425,0.00304387,1.568
