1.24456259599101,1.24318664368426,1.24267251113915,1.24188844463659,1.24179976401404,1.24271711948144,1.24407488060314,1.24399425352797,1.24427031321616,1.24452331411514,1.24481409962257,1.24515510524199,1.2450173383648,1.24470066556557,1.24361980509873,1.24325733975606,1.24212563396372,1.24217875369958,1.24148014102095,1.24243056921611,1.24257215224627,1.24375615149075,1.24444233838986,1.24611517238542,1.24812216144757,1.24844437875669,1.25039359430544,1.2490329373391,1.24973822826719,1.24629447039296,1.24619371475908,1.24582252840779,1.24528760890293,1.24479337549523,1.24452950017478,1.2443518092294,1.24388205011754,1.24278811131709,1.24097512075889,1.23858779967097,1.23588260541528,1.23311111184067,1.23044183470093,1.22792985629645,1.22556202407922,1.2233673003939,1.2215606583502,1.22023266245618,1.22035212295748,1.22182327729083,1.22359689580151,1.22546789775833,1.22774169959231,1.22873307710426,1.23044844882688,1.23201870388649,1.2342610902431,1.23619026048873,1.2386237829019,1.2418404124847,1.24496643893625,1.24591385438333,1.2462064110906,1.24673356703564,1.24864450242942,1.26400793890344,1.28431106843962,1.30037549462718,1.31914147136888,1.30965299464954,1.29931238752003,1.29076659367265,1.27505270757313,1.28029565558405,1.28549179322001,1.29053895552551,1.2949789950871,1.29884759711517,1.30198080018698,1.29896241248799,1.29784888773178,1.29843101951574,1.30002038374963,1.30058226509929,1.30943638457848,1.31018985202469,1.35232864408027,1.36245175290355,1.38719180948172,1.38175531826446,1.37734819185914,1.37423336170506,1.3719264918279,1.3701112114649,1.36850177263794,1.3675679965351,1.36470740919386,1.3635869136765,1.3624650644141,1.36180988098899,1.36224893233149,1.36293979546937,1.36431624496592,1.36436149105254,1.36492524439319,1.36418228494831,1.36413358462748,1.36402660630968,1.38200313347355,1.38137253827923,1.38461475683176,1.39110381402916,1.40048806031117,1.40051602068435,1.40110844491953,1.40210521183261,1.4018596503782,1.40166837081044,1.40300817225837,1.40621165528158,1.40621058589004,1.40690778424182,1.40815129534678,1.40850652964981,1.40845129800449,1.39508818845949,1.39305506521414,1.39000412632036,1.38429749623593,1.38236479153981,1.38247191785537,1.38107654019477,1.38073368006236,1.37989115535679,1.37885743895385,1.37762340851143,1.3751103498858,1.37272044878237,1.36956389592708,1.36785031310659,1.36705357170445,1.36630266410051,1.36838995984133,1.36763845532049,1.36920609203244,1.36952989043026,1.37168386516573,1.37108185821717,1.37166123568712,1.37259713300704,1.37264545815758,1.41141697239598,1.45755974368091,1.47842054909264,1.49425185051626,1.53440229984067,1.53479826481223,1.53584841899334,1.53864008138239,1.54111465007335,1.54328325294604,1.54460550311003,1.54760875143322,1.54750076310913,1.56419150743258,1.56868854130146,1.56982322826997,1.55979301453958,1.55606873404578,1.55148313280307,1.54860583562525,1.54621469062254,1.54567939557658,1.54399660226754
1.24604214444147,1.24500219849602,1.24341856316269,1.24309773798647,1.24194909898541,1.24295722553458,1.24252107367402,1.24345373293831,1.24278857121294,1.24386058130711,1.24428136606742,1.24413163459527,1.24396299629992,1.24377913240477,1.24441710815761,1.24223525049347,1.24156092967606,1.24070349462267,1.24154743359066,1.2407696889764,1.24163851685232,1.24180876967216,1.24273616206425,1.24407754534969,1.2446537745877,1.24710470402764,1.24707364057336,1.24827920510322,1.24653262973459,1.24484882006134,1.24140280374186,1.23906603993876,1.23719868789702,1.2351379628401,1.23289289475191,1.23278499050098,1.22254178378611,1.2245778317571,1.221729088726,1.22342683903197,1.22152736776928,1.2217155565049,1.2189616747042,1.22011058488702,1.2179254337183,1.21933776727542,1.21729794591877,1.2197498565065,1.21711651948041,1.22294025580517,1.22293228352763,1.22684535378447,1.22844538683544,1.22998347334138,1.23068660924188,1.23187318602422,1.23171859719469,1.2324488430482,1.23261431711953,1.2400799652538,1.24282482516801,1.24490248441559,1.24221419931394,1.24411923741968,1.24288991963772,1.24277319278772,1.24270563078049,1.28042975921694,1.34343006339266,1.28104529057673,1.24639072480944,1.2482717213294,1.25218464981254,1.25329488569482,1.2544191296501,1.25642870304979,1.25757173360999,1.28345784784317,1.30570830304268,1.29560992903938,1.29273794858515,1.29620424398454,1.29791325178625,1.29896432844739,1.35547680081188,1.31027293516754,1.30514044254443,1.34976684780039,1.41262948033544,1.41273399644176,1.41319263990366,1.39673197257887,1.39448489273409,1.37621948064603,1.37337983728533,1.36933543272786,1.36510221131757,1.36492336638644,1.36186982431389,1.36138932748947,1.36093617942974,1.36293214661253,1.36399453520951,1.3649857801005,1.36469948168944,1.36458994375853,1.36392145264809,1.363161602525,1.38117525952672,1.38029145621729,1.41371748308606,1.40198417415676,1.41429992205987,1.41752729545131,1.54428000033159,1.50150149305101,1.54692000025766,1.48156845456833,1.5484100001561,1.40845607825994,1.40641553198986,1.40826399079357,1.40726309785933,1.40786746458909,1.40683626642305,1.40057574053211,1.39937901380833,1.39229388319014,1.3829049656207,1.38383152558383,1.38206059051166,1.38038667183122,1.38049921486972,1.37806060277544,1.37744057028095,1.37564175348381,1.37569217746574,1.37274811142774,1.3714416953022,1.37005517073711,1.36829393331329,1.3695997786336,1.36715139616042,1.37284201946638,1.37475582440381,1.37579879240748,1.37223080774404,1.37573109098463,1.37300307478294,1.37449648736071,1.37402143163652,1.40589971194577,1.5357000003135,1.50018193630957,1.53447717085596,1.5344471938357,1.53594562514171,1.5359155933829,1.55937657896312,1.54135680571343,1.57145012604817,1.54888739450823,1.55014105843271,1.54875950184527,1.55962932271651,1.5686889919355,1.56988933254813,1.56900453964923,1.56703859926515,1.55298073637982,1.55687802892682,1.54657815221837,1.54794865975189,1.54712637820412
1.24729042984578,1.24552947331026,1.24416272334135,1.24335103422003,1.24301446219837,1.24290940747851,1.24314392238551,1.2430773909903,1.24314076010716,1.24329656122599,1.24339187826495,1.24348883626709,1.24323916794597,1.24326288278654,1.24258810144109,1.24180379370069,1.24020592160874,1.24033411597232,1.23956688140808,1.24036178341545,1.24009295097447,1.24105737219519,1.24122625438702,1.24231494925129,1.24340078095245,1.24385660738448,1.24553187443636,1.24400522651276,1.2445890893825,1.24110358033231,1.23970179959927,1.23697882727363,1.23629078937847,1.23417645701759,1.23366323735653,1.23189130405974,1.23041952322274,1.22793212377841,1.22683419057604,1.22571519139118,1.22478878088301,1.22356606218762,1.22326146808611,1.22228304688371,1.22234588118949,1.22150448938539,1.22214515194157,1.2229392745998,1.22518676527982,1.22581342157418,1.22766160611538,1.22776867378578,1.22955889068006,1.22919163591582,1.230423122746,1.23038871947393,1.2315629601954,1.23137081976332,1.2323010523158,1.2341599441926,1.24552831339087,1.24548888267259,1.24406433390055,1.24326906072701,1.24288536104168,1.24253064322117,1.242019608164,1.24079607041227,1.24067130845045,1.24103531595121,1.24401964930941,1.24568652056395,1.24898999958318,1.25187429534417,1.2546325601956,1.25657019270538,1.25737953326095,1.26661253660265,1.27312522070471,1.28696107940164,1.29053967086837,1.29276044820606,1.29634631681455,1.29649034726245,1.33988844445342,1.31139644023981,1.31076491135442,1.33555516699131,1.37183276483758,1.4122919702593,1.41209990070133,1.40402630545108,1.4006623330762,1.37836111368088,1.37503585477092,1.37296711137598,1.37178136009636,1.3693626598766,1.35977606961313,1.35963401099402,1.36047977417912,1.36193782414285,1.36439938541651,1.36439299376151,1.36492883639928,1.36344482300638,1.36222732979848,1.36138104250564,1.36950547918466,1.37425846911889,1.38406384422511,1.3911634846269,1.39437279106411,1.41867210241858,1.49969830480007,1.48098638417245,1.46609675909804,1.45009962336288,1.43516164676119,1.41031804099989,1.41008863482482,1.4097819168864,1.40856616375524,1.40687639465964,1.40508905116676,1.40176110674674,1.39947552663756,1.39523447003745,1.39065434332384,1.38635591861595,1.38479646328919,1.37729107336801,1.37652654816513,1.37635130235118,1.37478998368036,1.37466736062939,1.37290228299464,1.37253357651573,1.37126072396651,1.3704969604388,1.370520522318,1.36970733718355,1.37137671924259,1.37365389053604,1.37653761442498,1.37722325393514,1.3795354927222,1.37896025745226,1.38213259272254,1.38345910725474,1.38512451336646,1.39976619249617,1.44409801619131,1.47168437970708,1.47735565553767,1.49186461677855,1.50550011807812,1.5222826466859,1.52667373876892,1.53435756313759,1.55074631764455,1.54971976491227,1.54957635758004,1.54891443446987,1.5632499504652,1.5671725598075,1.56864786868646,1.56931815597521,1.56860137611477,1.54882802616648,1.54651098941709,1.54654306399526,1.54752722046486,1.54789095723456
1.24992996486435,1.24583982426918,1.24393556203572,1.24352251874156,1.24307806162002,1.24313457848814,1.24306744367603,1.24310392078475,1.24277492118949,1.24295208786169,1.24253437678264,1.24286840950886,1.24302500384885,1.24255150659833,1.2425664303903,1.240622957789,1.23985780304487,1.23872616453168,1.23935624061017,1.23880444232516,1.24024293580702,1.2395819663047,1.24005758079815,1.24074177949545,1.24076101023729,1.24226219005415,1.24099628280412,1.24253135153162,1.23943798040296,1.23949740972545,1.23380146310981,1.23584923761633,1.23244901702096,1.23414905370294,1.23237827020509,1.23279690226306,1.23193728566428,1.23142125796209,1.23309853629999,1.22893186313908,1.22530276372202,1.22654479104593,1.22444141626878,1.22591770362471,1.22356869955729,1.22491462018866,1.22294917930386,1.22639067544992,1.23079822529982,1.22979448844482,1.22962389902466,1.23001474793782,1.22887231021725,1.22965481188111,1.22703936273648,1.23015195947438,1.22895867935287,1.23069802935845,1.22931680893453,1.23120416629546,1.28512006240426,1.2515030659145,1.259806192388,1.23456868829922,1.22967288335113,1.23105157743921,1.23257877207197,1.23402560450149,1.2343314341082,1.23910899540463,1.24151514321538,1.24218281802379,1.24036975333895,1.240836304624,1.24131350828528,1.24137414114818,1.24309225676775,1.25980772275844,1.26803743346628,1.28291988813451,1.28719764501885,1.28841886738042,1.28540957864481,1.29328630847424,1.6934600000768,1.31415240299015,1.29440998820131,1.31997384284778,1.29512999971947,1.41186746879241,1.46328902145322,1.46317360330682,1.46377661570528,1.44834779300122,1.47186004214465,1.39032283426386,1.38919213929633,1.37124821493418,1.35779472973244,1.35786220995261,1.35800126916329,1.36099373942441,1.36529252064985,1.36453161159701,1.36486265569605,1.36294729408902,1.35942607982609,1.3597271630343,1.35813708611267,1.35871712262297,1.35827281933026,1.36092837098255,1.35800312840751,1.41834618369458,1.5586900001396,1.45425081997994,1.39584313914626,1.40300076757819,1.39141826187643,1.41111003622215,1.4115282041109,1.41147818021078,1.50273000016407,1.40577949371067,1.40235613192763,1.40268111422195,1.39942864821226,1.39834298166458,1.51966000014521,1.45088308025121,1.51232000019489,1.37446416576459,1.37437960771554,1.37311000071804,1.37487187477366,1.37192951580801,1.37249578492213,1.3710338846866,1.37131182794416,1.37101534666295,1.36921357632217,1.3711687139887,1.36944703238472,1.37713946441489,1.38354530978562,1.3827290761973,1.3776147939833,1.384201370609,1.38408701715797,1.386270699307,1.38613714597989,1.39157048082447,1.39268532388822,1.46163211623737,1.46597975140034,1.46539990762344,1.46503792547553,1.51879542205671,1.51956378436271,1.52805683698983,1.55134512797531,1.52869615129288,1.50602892581953,1.53541820669066,1.58509086750905,1.5738961546532,1.61699007423458,1.58997523132666,1.6757000000778,1.54676820675153,1.54411627002372,1.5388392274164,0.00429019004456947,1.53724013665525
1.24537170944574,1.2452492858019,1.2443937488858,1.24438009360145,1.24395319467459,1.2434664638933,1.24297055800011,1.2432026516957,1.24354047529226,1.24312003261826,1.24267296070792,1.24285116165359,1.24276913189017,1.24255713859657,1.24158439811479,1.24054511178043,1.23863648705323,1.23859115310527,1.23767796394536,1.23861760861502,1.23854704554127,1.23925277484309,1.23923770156754,1.23966533500934,1.24004330340186,1.23943733524563,1.23983553296448,1.23821544905666,1.23873925465691,1.23543008694459,1.23518219407502,1.2327553836352,1.23351362387816,1.23137224340655,1.23179954583197,1.23034839512794,1.23098781118981,1.23001659337521,1.23096853008631,1.22866406148788,1.22851288224771,1.22723250743782,1.22872970497166,1.22704516086886,1.22785299723476,1.22510243210974,1.22555585767866,1.22546948077931,1.22865981995306,1.22800132115202,1.22986145099764,1.22829238547783,1.22918135571316,1.22832822756714,1.22977481582364,1.22874300086227,1.22975789787646,1.22872332686635,1.22930133888724,1.22882536954157,1.22837139216466,1.22726596385736,1.22729661932237,1.2266487683883,1.2283715541632,1.22931407696987,1.23129775111154,1.23278708861104,1.23532624214925,1.23676199712274,1.2387498126963,1.23884491291111,1.23928097521571,1.23909145008417,1.24001717486266,1.23999973345265,1.24104231518481,1.25300284503247,1.25889049311363,1.27840287839512,1.28713376999258,1.28707270655584,1.28751670147766,1.28932043377339,1.31669583454811,1.31827051685827,1.35981774612234,1.37572295736759,1.38976106495541,1.41053391843135,1.46280037505105,1.46281844306827,1.46304574182513,1.42918583051401,1.4155239916764,1.38993797360937,1.38938184239917,1.37573647805232,1.36812802452318,1.35531323327407,1.35624210254931,1.35798141077694,1.36041861742036,1.36175152243917,1.36355092393,1.36265153743362,1.36090543108844,1.35979690483591,1.35947372136685,1.35970437349983,1.36224532521115,1.36629423708848,1.39966738837574,1.41772812893797,1.41656609836419,1.41466917997543,1.41164329214771,1.4092118345917,1.40951299065272,1.41002617757914,1.40870232384883,1.40749329712687,1.40684517220537,1.40623330382457,1.40536185940773,1.40392782746193,1.40077336547064,1.39851636677245,1.39789692029886,1.37934586298292,1.37606849426916,1.37327028246343,1.37266822900295,1.37144543178447,1.36988315459205,1.37092052137233,1.3698837678026,1.37101287338472,1.37092934665807,1.37157224445054,1.37264235864259,1.37329893376731,1.37683214689746,1.37951791806175,1.3833174375447,1.38161447977716,1.38452688364316,1.38364705714719,1.38745110895009,1.38680559723681,1.38870394076768,1.39021832479996,1.39119014195695,1.45894214911256,1.46534362495312,1.46533218107577,1.46618549599784,1.50467400583977,1.50546523102575,1.50640422663499,1.50762757622249,1.50851813705059,1.50850352042327,1.51885435655993,1.5220921257073,1.52380450135276,1.52544143733525,1.52592593709258,1.52597878836214,1.52589569046075,1.52538711388618,1.52511431447058,1.52552067150756,1.52553381871962
1.24359974941194,1.2436952192858,1.24612537123547,1.24463339465372,1.24578546170985,1.24354799828444,1.24212861290156,1.24333143154933,1.24481966231579,1.2433820541656,1.2422643984615,1.24280028976183,1.24333198916691,1.24248587887723,1.24227509024574,1.23980806128557,1.2382219541374,1.23723718155209,1.2373416627518,1.23737326556955,1.2386946029187,1.23829936598912,1.23904675596596,1.23880271449401,1.23853416071671,1.23816436886793,1.2350249970501,1.23676875831063,1.23326118972977,1.23469115324827,1.230012445422,1.232617678251,1.22952395737663,1.23093704314309,1.22708004644919,1.22951246558987,1.2270750595974,1.22972408391149,1.2286096399206,1.22951978329274,1.22711257929809,1.22952959843171,1.22909350993712,1.22972998828778,1.23183478464975,1.22543165206941,1.22181828129504,1.22571459300323,1.2245441776934,1.22807021676806,1.22710957303985,1.22829003040962,1.22539636648034,1.22883057065369,1.22862505347163,1.22934811779211,1.2264860958792,1.22841144809223,1.22577194875653,1.22812644007728,1.22696167939666,1.22619299982499,1.22139146159281,1.22510155404458,1.22550101124242,1.22806336464339,1.22753228262962,1.23189814973709,1.23463291235239,1.23538220515678,1.23497166133521,1.23697197808654,1.23559164035299,1.23822257781148,1.23649124812117,1.23958963979615,1.23946194534862,1.24441562881767,1.24578674445193,1.27352886716458,1.30161537944938,1.28702203273526,1.28715992227224,1.28725654861867,1.28548077642939,1.32382279997336,1.6660800000768,1.39663492116029,1.40610433543196,1.40813365806759,1.6196500000768,1.51302454937898,1.6257700000768,1.40957233068425,1.34120998310251,1.36658981300146,1.49188000007016,1.38888158275054,1.40364780236685,1.35203586013425,1.35160081974141,1.3520740758637,1.35055325905458,1.35807573231341,1.42326002510097,1.38421870161301,1.40693010147146,1.35892847096746,1.35983939691448,1.35884077534605,1.38000692807135,1.37366068804955,1.5727200000768,1.41736455326543,1.41675753472824,1.41534773233103,1.42696987021765,1.41461316351007,1.5550500000768,1.38384414363392,1.35055656250652,1.35084907225028,1.3531148818583,1.40738173856471,1.4062978147095,1.40793320002302,1.41213669585746,1.3970100991332,1.39421955422763,1.37774274975275,1.37323635019504,1.37204755693568,1.3644586729655,1.36652593398879,1.36823462199385,1.36776928120905,1.37006144858659,1.36958881059662,1.37117402246787,1.37242251447082,1.37308541726396,1.37502674392037,1.38639296691884,1.38427002863443,1.37905026164337,1.38484025886927,1.38012846153818,1.38681911586185,1.38587461818165,1.38886142678035,1.38833597117578,1.3901087191832,1.39037217559634,1.45544527193392,1.46490815397313,1.46474001361647,1.46823496064422,1.50495031962976,1.50582977199378,1.50503783931096,1.48265295883528,1.5088018915603,1.51068593214754,1.51603282465344,1.52189795552854,1.52350226944667,1.52587596134163,1.52587989131497,0.00453178004407719,1.52692606774203,1.52609699140193,1.52608482676635,1.52665949607343,1.52642358549226
1.24154744561262,1.24353053257208,1.24375132248973,1.24445154002983,1.24417157387056,1.24348079869728,1.24275677903739,1.2429794375112,1.24355267882062,1.24309892707838,1.24291080505194,1.24301493727262,1.24318497132239,1.24280035468676,1.24199621394098,1.24012525458069,1.23784077133741,1.23736621157669,1.23666462516271,1.23714516268207,1.2374959530155,1.23748875047499,1.23769878885918,1.23745193797629,1.23765151465511,1.23620923121836,1.23572171792151,1.23380722904666,1.23372526218269,1.23119668516861,1.23125692331837,1.22931586076138,1.23008649189943,1.22841331576226,1.22894957135707,1.22799261872537,1.22874379237831,1.2283497480093,1.22935637121577,1.22822426445194,1.22876740182229,1.22766775903614,1.228799222591,1.22667886238028,1.2255564666352,1.22409123835131,1.22405284163004,1.22371650834137,1.22572505624992,1.22559531464001,1.22744733275528,1.22602991287801,1.22693602880608,1.22600453635923,1.22781767732247,1.2264300722093,1.22759848265603,1.22633939093807,1.22721506054059,1.22633094827672,1.22679087505031,1.22508258191866,1.22423786722647,1.22450426921443,1.22574317236181,1.22652909824082,1.22807077392578,1.22951684536194,1.2315098010392,1.23257753863395,1.23398173264441,1.23515019580843,1.23687306387815,1.23717526716159,1.23862828226718,1.23918407562697,1.24113046810762,1.24278557890441,1.2439882357378,1.26875223622477,1.28932768155609,1.28802500790119,1.28744092745666,1.2858891970493,1.28502097142381,1.32950519507182,1.44778863468858,1.39025910610029,1.38333928489485,1.37641761921501,1.37039925233645,1.36826536575779,1.36636926272396,1.3652330803565,1.35634893185027,1.35416435074463,1.34932634343598,1.346072326416,1.34649396868742,1.34850243802172,1.34892421978394,1.34946510184453,1.3501860990724,1.35328232189432,1.35285856157967,1.35323724910753,1.35382924028219,1.35560559942008,1.35773842324044,1.356085083702,1.35053672931816,1.34529863546436,1.34163290497709,1.3392048274481,1.33723354606163,1.33554453588871,1.33466685890041,1.3352387777069,1.33756100568435,1.34157399812875,1.34685667577435,1.34887148123509,1.38735721961302,1.40820019549773,1.4085223893464,1.4089792348316,1.39069531839415,1.38533604889318,1.38073385729972,1.37634338681541,1.37175224190305,1.37024306826909,1.36638349753833,1.36578653121067,1.36582313830107,1.36756761937359,1.36760971124253,1.36926122353445,1.37086629930876,1.37296054188925,1.37648945080527,1.37818126718059,1.38316137691203,1.38337322048796,1.38582888040507,1.38444332441968,1.38671492348286,1.38603272596161,1.38797029503696,1.38781328842304,1.38835473465579,1.40652349472399,1.41957355386652,1.44802488415859,1.45186004184928,1.45784470884051,1.48635543745972,1.50507050084436,1.50647636108259,1.50396084433602,1.50144965205724,1.50742188176413,1.5088485668778,1.51239146668847,1.51621264641168,1.52243553208681,1.52588576072783,1.52597365201302,1.52714819269023,1.52912031947328,1.52684931066916,1.52662021031304,1.52686627375432,1.52655106478845
1.24246789315882,1.24212139696596,1.24449125196929,1.24361771815433,1.24430193030403,1.24321821749963,1.24208006262937,1.24279787953018,1.24246587607839,1.24301361934154,1.2428742683862,1.24311965765838,1.24397677389969,1.24291758960149,1.24392611122623,1.23980241282082,1.23727720680446,1.23664858437909,1.23600126055008,1.23680204398856,1.23621005580598,1.2368658055217,1.2360971027023,1.23658415679332,1.2362012825553,1.23568325937501,1.23305756407184,1.23323327701076,1.22933121393239,1.23058807522225,1.22622284452368,1.22887467710899,1.22554968692241,1.22838722305648,1.2264924126044,1.2283876813708,1.22706315897101,1.2287163751765,1.22782486749348,1.22862835633612,1.2267646963916,1.22776421384826,1.22513038865913,1.22572513418089,1.22081364936378,1.22357073985923,1.22017718803854,1.22392163248965,1.22215851033127,1.22581234633412,1.22439406202661,1.22630513579145,1.22279471647437,1.22573473856554,1.22232115177285,1.22613626834948,1.22375033950807,1.22662794120773,1.2241624180979,1.22663805316773,1.22410240684774,1.22566273041998,1.22249614528645,1.22500327953167,1.22283860350414,1.2262480747795,1.22566059868548,1.22804040864043,1.22732296717636,1.23054744217219,1.23122393935798,1.23438800650286,1.23604131015812,1.23755031921954,1.23680441213715,1.24003945867722,1.24043663327962,1.24276320764477,1.24323170102693,1.26451907862067,1.29112055984828,1.28881635216339,1.27585534374038,1.28386099326439,1.28336362645141,1.33441815271829,1.6944500000768,1.37784629843161,1.29870999982034,1.34718491473468,1.3474001990921,1.3605135347933,1.36438627562426,1.36327287189869,1.35810010054584,1.35705662262813,1.3383526498997,1.34023886888244,1.33843777468656,1.34678012125017,1.3452143366447,1.34632352525812,1.34466371752949,1.35148626241713,1.35094767381473,1.35211143943273,1.35038118145955,1.35179392178721,1.34792030716642,1.34626471145492,1.34049177313599,1.34151633210434,1.3330436403681,1.334749629159,1.33233639613692,1.3320926894973,1.33285766666884,1.3326155982264,1.33306134907973,1.33270084554535,1.33270159694804,1.33901470342056,1.53467000011058,1.46117228878907,1.53784000008912,1.40820141406639,1.35706468034633,1.35614743623999,1.35645810490526,1.3558903063011,1.35675430434146,1.35655955915915,1.35832302999357,1.36233280121832,1.36660929923018,1.36562095538403,1.3674939320019,1.36710608214414,1.40513778516936,1.37971483146239,1.37959137709036,1.38045411327095,1.38066280346749,1.38498708174579,1.3850908507543,1.38776244023871,1.38558967421584,1.38815392966551,1.38544545921329,1.38868040138985,1.38715288933652,1.41918690777589,1.43321227781235,1.43225681489437,1.43298690809137,1.45273820350394,1.50446951938263,1.50443289216668,1.5111406628834,1.50268011146245,1.49551073549613,1.50616267379894,1.50596405259376,1.50795246763464,1.50959152931844,1.52066784258718,1.8454600000768,1.53289023082127,1.54856081361822,1.53580248452161,1.52559757396312,1.52758888308573,1.52652731892848,1.52719496339987
1.24126202690849,1.24316478783847,1.24316646756468,1.24380752041202,1.24352112231499,1.24308698574671,1.24285694066305,1.24242496833714,1.24278225929536,1.24245314301088,1.24279649020792,1.24227344673674,1.24206875779168,1.24142822162983,1.24076439110266,1.23867810877819,1.23688070115695,1.23612225047705,1.23654299403182,1.23583270213823,1.23703400204623,1.23482921428194,1.2349387767977,1.23421929491097,1.23509490632213,1.2338006454092,1.23367001639454,1.2312723675886,1.23073524724004,1.2286659080132,1.22890521903511,1.22737991763665,1.22818465397015,1.22720891616447,1.22817966898653,1.22749729156704,1.22829213898678,1.22780937718094,1.22848914291184,1.22772720539869,1.22792605741586,1.22661494465922,1.22627668126207,1.22479917482052,1.22450828488687,1.22350569943088,1.22405244014144,1.22358430374472,1.22490933927915,1.22446256446344,1.22604768812699,1.22423790561536,1.22503285840574,1.22339750788572,1.22471192545984,1.22390504641639,1.22572828832439,1.22499036149586,1.22649792350943,1.22579194410336,1.22695506446691,1.22594981056532,1.22660980099862,1.22597599738505,1.22679027101301,1.22666267664538,1.22752624398578,1.22771967481205,1.22847694519471,1.22980128296106,1.23145839840423,1.23303547816903,1.23524589674691,1.2362729403112,1.23859702535942,1.23929999879083,1.24155918437912,1.2424214941339,1.24356909406128,1.26075313009432,1.28869959761994,1.28606415066902,1.28147716945698,1.28228971095949,1.31385634627252,1.33820916104824,1.33969519835301,1.34809692333366,1.34796159826747,1.34655732059605,1.34617746260178,1.35734792632704,1.36441519973902,1.36328487214253,1.36073213876657,1.35834626628395,1.35498492473891,1.35134604247706,1.34797646222655,1.34564079288341,1.34447389714888,1.34518236203254,1.3465532826028,1.34950341080978,1.3510460222245,1.35271878767432,1.35218332724902,1.35196678128702,1.34877741924867,1.34593842273947,1.34287657617234,1.34159129893849,1.33811058822835,1.33784599018218,1.33073587042239,1.33073205172045,1.33121222457044,1.33151955985185,1.33230764765765,1.33210242008896,1.33221547549305,1.33814247179306,1.37332472345503,1.40711695154315,1.40873410525284,1.40606533734918,1.35606844894271,1.35468765516178,1.35519169349293,1.35438125915942,1.35549503322042,1.35598284385082,1.35816522720491,1.36074575781697,1.36231404912851,1.36410227486275,1.36481125042628,1.36572974104804,1.37708834273071,1.37941599661894,1.38000148436183,1.3808949250894,1.38280225926473,1.38483118255441,1.38785025626419,1.38784758483788,1.38925825650707,1.38970106191782,1.39196758695777,1.39214186768211,1.39418492401826,1.43048988493083,1.43190133486613,1.43117109940435,1.43176546379561,1.44664303425002,1.46935525144107,1.48422134079161,1.5020395736637,1.50258947862584,1.50463819158823,1.50676498261121,1.5058567329479,1.50544330631373,1.50736502623899,1.51905970948245,1.52437205221613,1.52805231556638,1.54677722995292,1.54167397308629,1.53668826567903,1.53098650505563,1.52897127006985,1.52788240895629
1.24434943443741,1.24264203952176,1.24515340591347,1.24343796882179,1.24362279456968,1.24321812755957,1.24223762503384,1.24270198236165,1.24162391600209,1.24244913585059,1.24225439908077,1.2415368427167,1.24034920002134,1.23980718629492,1.23918414199318,1.23721564590895,1.23489197848581,1.235667289121,1.23479889526223,1.2360852916485,1.23644501592947,1.23431651150226,1.22976807281819,1.23288120503251,1.23373194195126,1.23311437045767,1.23223483762622,1.23107860454588,1.22764124258685,1.22884925489856,1.22679039768557,1.22789254650992,1.22682147035242,1.22761369928995,1.22720245101825,1.22773518864997,1.22757809397529,1.22782209424503,1.22780065666895,1.22784363661787,1.22766645416869,1.22676345358172,1.22488180662582,1.22541773922386,1.22460608474148,1.22498434175175,1.22405738033532,1.22501957803494,1.223664896316,1.22554692412574,1.22381260365351,1.22499986015697,1.22131480095134,1.22392698306351,1.22084251484288,1.22453913247196,1.22265074647172,1.22597407246207,1.22433107762391,1.22728845244835,1.22619017758516,1.22816128617204,1.2271429380093,1.22848643764966,1.22783125353363,1.22825341679259,1.22769054252709,1.22804732094574,1.22799383408045,1.22946449444512,1.2306975131531,1.23226578997893,1.23308967265253,1.23596815021903,1.23774597205699,1.23982895615779,1.24001645253226,1.2434671348141,1.24431245123214,1.25714878273316,1.31003008692363,1.28429139690598,1.28218468737187,1.28144665366333,1.34825006238893,1.33963353335617,1.30218991272151,1.34672987457073,1.6710100000768,1.34465688705301,1.34189099918477,1.3538791935972,1.6397300000768,1.36353318476878,1.36229367092791,1.35990411360655,1.6243500000768,1.3803562012131,1.38148392246142,1.37974267225856,1.40543000564428,1.38566488653048,1.39938722672582,1.37866514134781,1.6037200000768,1.35560670053619,1.352635224489,1.35473051783749,1.4550200054079,1.43487186379329,1.5751800000768,1.38735528660567,1.40511294985918,1.33982435049688,1.32879315339868,1.32906428727715,1.3286342337587,1.33029935502235,1.33178148385018,1.33129711091054,1.33167606068776,1.33627848737593,1.33356209047503,1.40395348961348,1.4087695451804,1.40373629822386,1.34717898578593,1.35093914203341,1.34863031497787,1.35079371708261,1.34901353968764,1.35477770100009,1.35782717776323,1.35889453008148,1.35994571818345,1.36173231762724,1.3639762104154,1.36433203323164,1.36589920553101,1.38744066085349,1.40612997789727,1.41438855073049,1.50287000029212,1.4161438006479,1.38940241626931,1.38926106332638,1.38933474013645,1.39132977447568,1.39401962835851,1.39385800531592,1.39494256871521,1.4389603794572,1.45427311510777,1.42946594095226,1.42024298568059,1.44072147549677,1.45634875089327,1.47027205768408,1.5021826920143,1.50188286616881,1.50994949919615,1.50985042521085,1.49320358362883,1.49789126254629,1.48600160255565,1.51820083863426,1.52070404973349,1.5233087677675,1.54764495873806,1.54567884470863,1.8276500000768,1.56695820753851,1.52967169987087,1.52851051033512
1.24209278244429,1.24314175260502,1.24283147873413,1.2431763649266,1.24312557480231,1.2428122570991,1.24300890021129,1.24182237139109,1.24182233394993,1.24103500764103,1.24125769730017,1.24002789913721,1.23914716400874,1.23777662845006,1.23644005215082,1.23506980650081,1.23420154746156,1.23304820627495,1.23355441919079,1.23129491762424,1.2299862393716,1.22932125231003,1.22976156728858,1.2290753366643,1.23010928314282,1.22939633345415,1.22996680138735,1.22795251305408,1.22796063542699,1.22631132329457,1.22685463715945,1.2250441371881,1.22556724944866,1.22495497127708,1.22627777993211,1.22571045457616,1.22623656800381,1.22602130883128,1.22655070693607,1.22653360053028,1.22693959286828,1.22619133565535,1.22585025346231,1.22505884461654,1.2250779262166,1.22453533181597,1.22518475333515,1.22428877206547,1.22493625561405,1.22399411015793,1.22493862557764,1.22286517107609,1.22313086021818,1.22191740460935,1.2233224151128,1.22301804791154,1.22516349712607,1.22495036625552,1.22704373599761,1.22655928690914,1.22843710068331,1.22771848287104,1.2294798921194,1.22839645650517,1.22945481226007,1.22778701993866,1.22773680316835,1.22719614780016,1.22786822954486,1.22846033558634,1.22987943227345,1.23070753261284,1.23237265953081,1.23371544856709,1.23631264102378,1.23829318920369,1.24347101100871,1.24454203108009,1.24586848036963,1.25362049887179,1.25582068947583,1.26186849053298,1.26936859753292,1.27975041482973,1.30661469974123,1.34136647085087,1.34248615586413,1.34465217958755,1.3447017234524,1.34481050907582,1.34528142783228,1.35009587136316,1.35332487899333,1.35561612973111,1.3580849755564,1.35835376101213,1.46501342973939,1.3788250916586,1.37969849378822,1.37755679884333,1.375987184074,1.36944574475121,1.36535067908636,1.36308831686893,1.36263917802691,1.35919163100663,1.3603087226884,1.35882627974452,1.4098726346089,1.42016762730211,1.47943240924948,1.37988802047094,1.36948967284023,1.34131485295602,1.32680860720529,1.32698531599467,1.32709525602827,1.32783414638638,1.32972541719606,1.32906399166828,1.34533453110129,1.35592547930067,1.37169578211748,1.39960243461955,1.3994312497891,1.4010644278264,1.37209783685549,1.35318683577545,1.35032462325356,1.35031820319961,1.35063909646971,1.35307749856703,1.3557340560987,1.35726766443146,1.3585602981668,1.36013093124687,1.36132586387471,1.36250547284026,1.36400814993854,1.39550856411607,1.41416131071509,1.42850830475948,1.46926317425608,1.46869768638311,1.46699593379191,1.46493862477513,1.46118075824563,1.45756050219594,1.45508703057429,1.4562619689929,1.45768960672274,1.45840646368705,1.45730624064925,1.42831346793012,1.42763029986123,1.43558101252539,1.44644592107792,1.46172002708615,1.47662494480432,1.49408676516715,1.51066318201214,1.51183595255992,1.51304699585168,1.51475612357764,1.51631840205245,1.5180605857438,1.52090665164177,1.52252429007746,1.52286337428035,1.52414709793095,1.61082859220274,1.60144200876315,1.58616695932088,1.57941302218756
1.24491497549495,1.24219379879115,1.24305196957026,1.24254724846094,1.2426881005741,1.24320684091632,1.242379458375,1.24207291458627,1.23942550084705,1.24056093471347,1.23937878471123,1.23909820898726,1.23736692206155,1.23613158502825,1.23267952730922,1.23353394533451,1.23091861077051,1.23190274667409,1.2286951296538,1.22957517698667,1.22491631485504,1.22752715927379,1.22311321396778,1.22735416792227,1.22436326895517,1.22768764523704,1.22458704027111,1.22700239320367,1.22356661039877,1.22595245671186,1.22323445440516,1.22377185261509,1.21954966333908,1.22317623039293,1.22426126089528,1.22422752986543,1.22393033871556,1.22438754953767,1.22493891211729,1.22535074837964,1.22682893638195,1.22574028345238,1.2265331001297,1.22475457544513,1.22457937126703,1.22436156848109,1.22517287733604,1.22443968378956,1.22336284244132,1.22423568369484,1.22283077252848,1.22310539119996,1.21915475375693,1.22234044131256,1.22028691878397,1.22388394560365,1.2232828923627,1.2261501288758,1.22593667930187,1.22799798450873,1.2266799330505,1.22941874880956,1.22828358443092,1.22996344871239,1.22946349295647,1.22818455832339,1.22559412552746,1.22671590587959,1.22618103505561,1.22776712391186,1.22821607263117,1.22961968245296,1.22976297270357,1.23216218964553,1.23253654345823,1.23570315503767,1.24823851855717,1.24658325155631,1.24760212101084,1.2504296031573,1.25099324997408,1.25346043466335,1.25550925889797,1.27729894612323,1.27714864210379,1.34311077646673,1.3460160808252,1.34500697124057,1.2915299995176,1.34431857088972,1.34362015837867,1.34719908482251,1.30844999959988,1.35506085521988,1.35454561100534,1.35632986954635,1.6215000000768,1.37493423856129,1.36962454682328,1.37374263759118,1.38099883893013,1.36733655905233,1.36237878440805,1.36275201082887,1.362312157392,1.3616937386728,1.36084309778663,1.36118918595163,1.36224598921657,1.40754736776419,1.5745000000768,1.38192262771756,1.34734215262481,1.34351931249757,1.32426502365602,1.32535528607951,1.32340597056088,1.32474853446405,1.32281732209406,1.32647082565562,1.38169676526198,1.36682070401053,1.38896086277159,1.3945624664835,1.39694305024858,1.39934033824012,1.4049294320825,1.3576691994924,1.34916295724594,1.34906766575632,1.34874978206211,1.35170714603228,1.35371054117699,1.35553061636529,1.35707095792118,1.35798904303669,1.35947089350229,1.36001998924118,1.35812195497658,1.40370763733795,1.51084000020131,1.44342059887038,1.46923375086225,1.46924928185312,1.4786100759558,1.46524025911338,1.46114839699016,1.4570343032775,1.45216815340164,1.46457201120494,1.4877082360949,1.4860716428401,1.48548973808135,1.42822935235942,1.42748710321213,1.4278714293179,1.42792946998994,1.44039593264506,1.44142079239548,1.48787522958776,1.52551942148096,1.513497275535,1.51521934459878,1.51488428711423,1.51957928873699,1.51605978404849,1.51016408402033,1.50755413691399,1.50590354325395,1.51573873872721,1.64216002977686,1.61660874817694,1.64289001225962,1.59731167788261
1.2408882019106,1.24138875996027,1.2413483206762,1.2422305251774,1.24317704417642,1.24302767064378,1.24294909954788,1.24111205699148,1.240394919757,1.23909965154903,1.23895681034518,1.23756272074047,1.23663761972074,1.23539025342521,1.23409368149312,1.23298257970276,1.23248756509654,1.22978867689273,1.22847262587023,1.22641674068146,1.22685528313138,1.22518198513451,1.22646748402552,1.22525889295317,1.22672265335201,1.22542832704012,1.22648047990248,1.22485985891057,1.22569450849633,1.2239974105088,1.2244553484158,1.22175671160321,1.22043486922906,1.22032733583484,1.22152655974284,1.22126929746844,1.22156918621006,1.2221111782162,1.22262891959708,1.22325927500231,1.2237751813747,1.22374563673198,1.22366909779607,1.22277703661646,1.22229071488014,1.22212372073074,1.22268681317653,1.22240289615575,1.22284890778026,1.2224097412224,1.22293741195372,1.22186385539892,1.22222642709059,1.22176903344118,1.22317316717856,1.2227406023763,1.22447517517734,1.22441816410805,1.22663457767873,1.22602975756112,1.22829151145322,1.22722268444887,1.22952745192415,1.22727970319826,1.22795426092557,1.22578070708435,1.22574888448854,1.22506679704308,1.2258957333216,1.2259963869732,1.22717483944972,1.22761238149268,1.22886218800307,1.23024339440504,1.23227884467976,1.23454744349882,1.2387914564343,1.24437044211354,1.24677727525434,1.24853511743881,1.2497725729839,1.25346060922894,1.2548560800713,1.27486512222008,1.30571575309862,1.34316290128814,1.3446329319427,1.34542136520291,1.34623955190229,1.3469450531902,1.34779152758534,1.34923469799413,1.35158478754297,1.35470266838237,1.35437863032436,1.35558723192358,1.36686440770181,1.36486168431709,1.36448141838968,1.36255259936262,1.3617005682451,1.36075374740691,1.36167599730042,1.36166002338362,1.36259316349276,1.36120998617357,1.36181535314537,1.36090316053394,1.36143969847575,1.3966858391451,1.46084426409602,1.382554780121,1.35981216007778,1.35609887710492,1.34398535412096,1.32587625824406,1.32443346694793,1.32416748639289,1.32378575728797,1.32444782982928,1.33459206592529,1.33854391358874,1.34032047343068,1.34333919778436,1.34687770834392,1.35248939584533,1.36176171677053,1.36186513229709,1.35110937878203,1.34737898547628,1.3480371672469,1.34995452270577,1.35193815497579,1.35312252759986,1.35413925160504,1.35507955192245,1.37840816128797,1.38745208295458,1.3958983052836,1.4118004774808,1.41835335426078,1.42478988700027,1.4310615506222,1.43698250994537,1.44236364982801,1.44704670388959,1.46745926840192,1.47229423745131,1.47642697869734,1.47980030024423,1.48582791995629,1.4853487876271,1.48517899284785,1.42783508457019,1.42762263255711,1.42829565353619,1.4293453535182,1.43914481268589,1.44002349294669,1.47756764147675,1.4824252341631,1.48712483986491,1.49145403546757,1.49487372669448,1.50044784672437,1.50373489974483,1.507357613788,1.50717313476903,1.50669187743065,1.5129075762117,1.52406552725085,1.52967005661505,1.53304274950945,1.53403980984249
1.24012653254192,1.23981080360606,1.24016660892815,1.24177801141038,1.24419772545698,1.2441768884499,1.24253268928995,1.24134674797277,1.23844045458363,1.23860685146252,1.23693811308876,1.23678997149687,1.23485743501746,1.23560390911688,1.23400223622243,1.23343053707099,1.23381593579295,1.2288231990659,1.22294674055025,1.22603433887743,1.22249812222487,1.2264147087375,1.22316528339881,1.22673870703806,1.22342338679738,1.2264840992574,1.22294463813233,1.22580580989885,1.22250637608111,1.22501033173313,1.22217792202781,1.22229914830055,1.21555338066955,1.21890830443972,1.21573645555313,1.21914272566889,1.21833588548391,1.22004531162017,1.22050125420127,1.22111794588114,1.22194652124784,1.22164118703878,1.22218598163712,1.22058405265775,1.21959459607749,1.21975914192739,1.22020322989005,1.22095250232026,1.2208480725131,1.22186363222149,1.22076687585518,1.22225383082719,1.22122229157277,1.22293340038465,1.22249477184572,1.2233271393745,1.22185961456758,1.22415053536901,1.22548278879561,1.22599515524962,1.22525985300587,1.22751230348688,1.227542740686,1.22688207479036,1.22274108546125,1.2250386976682,1.22222071984069,1.22466059465377,1.22281417882562,1.22538364125422,1.22399139299159,1.22654779988084,1.22531434738243,1.22906642107232,1.22988213599088,1.23253796301902,1.23046959040515,1.24456447154546,1.24542354087439,1.24748980884288,1.24590945791291,1.25523920529379,1.25523839690148,1.27259468333115,1.36429003235796,1.35845786412009,1.36376468926885,1.35665035476793,1.38366894528425,1.36458251227825,1.38471975445591,1.37586869185202,1.6585300000768,1.35820026812299,1.33979992717078,1.35582220016863,1.36716730235456,1.36327925461946,1.36157044186435,1.3617916729866,1.35558477792812,1.35970409301529,1.36010258507785,1.36202790314933,1.36047184339644,1.36202772476223,1.35984352300071,1.36084086283049,1.36034523790071,1.38892947805075,1.5838400000768,1.38029683812098,1.37520151556828,1.37062173125843,1.37224352841277,1.32769318743895,1.3235501117129,1.32389605765568,1.32390101567289,1.32386559825417,1.3237430639626,1.32368273855447,1.32391449089003,1.32905522222653,1.32808813769984,1.35059027235139,1.37161290351598,1.36616949048753,1.40805002599261,1.34507461431565,1.34523024366496,1.34819275365649,1.3497513224994,1.35064849650914,1.35025470576724,1.35237070883108,1.4619287727061,1.45571641343975,1.47059002695094,1.41736936896964,1.38236996614392,1.39887227749229,1.36584999940113,1.40953523610371,1.40935448478286,1.44232505207201,1.47327539859347,1.47706148194272,1.48435533408225,1.48322212029578,1.48474866858436,1.48480987260154,1.4965400632166,1.42718749434924,1.42591572014612,1.42870889252913,1.43193866687837,1.43681225842241,1.43932981856553,1.47020535797531,1.46802616622671,1.46960847542195,1.47219500618187,1.47242599826133,1.47157779447758,1.48575517819851,1.5275881315355,1.49764905264732,1.48557474434142,1.50383217079352,1.52209846135068,1.52785406288897,1.53041645014935,1.52636305063791
1.23872611770249,1.23858388170502,1.2386181013384,1.24086163819599,1.2437746085056,1.24555864651667,1.24324606690481,1.24056755020704,1.2382672855382,1.23692618466113,1.23649140891606,1.23576104134254,1.23609781223326,1.23711833683219,1.23441034283518,1.23200058530133,1.23077487584523,1.22735874621377,1.22600319583654,1.22484041741021,1.22622969443995,1.22501732976945,1.22691358997515,1.2254349404575,1.2270974103606,1.22492768589336,1.22589875968321,1.22403789499397,1.22531190138912,1.22345207942219,1.22426509767024,1.22208781412081,1.22177158745588,1.22045093326444,1.22023970060604,1.21973621914038,1.21925982366145,1.2194040497335,1.21931419021118,1.21949961947748,1.21949553772174,1.21946847176212,1.21979306173429,1.21818000854974,1.21832134562911,1.2171422569816,1.21862918646979,1.21957816658996,1.22106767832162,1.22141065682019,1.22228547367381,1.22197002145159,1.22262072861747,1.22205860284817,1.2228832224679,1.22116480607466,1.22126923583264,1.22077290090118,1.22177310418013,1.22171019286842,1.22351179887712,1.22231487379087,1.22302518184831,1.22244235043845,1.22364217870746,1.22282993287245,1.22424085676692,1.22360844833738,1.22491970660637,1.22458061702463,1.22586038097679,1.22608924934108,1.22727333452347,1.22840581366647,1.23208950232137,1.23448000240954,1.23869664797456,1.24378092439451,1.24640967483976,1.24959943497139,1.25424735206505,1.2559488027462,1.25639373684282,1.27030564139879,1.28936169936525,1.30825770434691,1.32402877220737,1.33667923837841,1.34310958958009,1.35246573016649,1.36746291113851,1.36562441337711,1.36439160463349,1.36122507999348,1.36023966628755,1.35796119137712,1.35815624255081,1.35916567659956,1.36069857196577,1.36096814543001,1.36025098995323,1.3602897087637,1.36144628359859,1.36078019778199,1.36192494600899,1.36052168332943,1.36088821547217,1.3593904528723,1.36169722332024,1.36452228114482,1.36566981027857,1.36560045189973,1.36684017814032,1.3675727938752,1.34776528359056,1.32911604910788,1.32913176911405,1.326840142192,1.32506894509068,1.32393470062267,1.32365555570466,1.32411327254099,1.32629801863881,1.32996415700694,1.33120941781306,1.33515138668674,1.33563087999168,1.33698448845345,1.3392801647321,1.34260975349714,1.34503843774845,1.34713793377219,1.34785811212518,1.34859558979717,1.34892906253752,1.35083536496311,1.40269511764228,1.44677131814802,1.44698127071792,1.42439590755248,1.41943872732443,1.41294783506816,1.41277357930941,1.41002966130291,1.40953154112081,1.43643815319765,1.47707105670651,1.480531845069,1.48370222534529,1.48408692690196,1.46353851628376,1.45256111444177,1.4424130423497,1.426358123766,1.42641251372782,1.4277256784307,1.42902801738963,1.43253172214165,1.45821073475652,1.46957546951959,1.46871790719617,1.46945749617539,1.47146385216299,1.47275307070867,1.47311323394829,1.47451968758354,1.4764663087155,1.47912798339756,1.48226014794434,1.49849827544527,1.50367550518616,1.51011670001715,1.52636153048365,1.52282219982884
1.26237849293987,1.236938034017,1.2346714166522,1.23449871080937,1.23233072890825,1.25128018502217,1.26325178040956,1.24038352624914,1.23536786279628,1.23573455311319,1.23405516311339,1.23461783060512,1.29104000489006,1.24362016780491,1.24926243164163,1.23077988207932,1.22340856075527,1.22609936234342,1.22335107734961,1.22624600223138,1.22368960969041,1.22690268568962,1.22455229276617,1.22745459071576,1.22525815093152,1.22661450444124,1.22244733688177,1.22540563021349,1.2223973546725,1.22489824843296,1.22215137385931,1.22425749719735,1.22326452698201,1.22323373136254,1.22277901058946,1.22105497180129,1.2193755548672,1.21893988011918,1.21844178460459,1.21780185892839,1.2177576703378,1.21726260307941,1.24089636028742,1.21427965285226,1.2096981025655,1.21219371193488,1.21041852411568,1.21847274861338,1.22176734542193,1.22159422865568,1.22309112847012,1.22248806828296,1.22210980026058,1.22242773943334,1.22139268638423,1.22070032100697,1.21593366376394,1.2188768738193,1.21525689220427,1.21858454312929,1.21377692737131,1.21835939977696,1.21429098123603,1.22032281536465,1.21897823001351,1.22313340733219,1.22233727862708,1.22449292160711,1.22333005400508,1.22533286058204,1.22464532039275,1.22664798426899,1.22644584608534,1.22834236728218,1.29882519380511,1.29633903977257,1.29869737782575,1.28666150943601,1.28502334118707,1.25715008477822,1.2560934361669,1.25706995732047,1.25738641325195,1.26770222476503,1.26724032238814,1.27187178147171,1.26984109756731,1.32569492058213,1.33349890612304,1.34371463022705,1.3703457853002,1.36643950486562,1.36400330701656,1.36342025040738,1.39161015340599,1.34741041626486,1.34197261794538,1.35462781494003,1.6171500000768,1.39969996435563,1.42380925549039,1.36087991756516,1.36023945809295,1.36140849237329,1.35879203644649,1.36012212729975,1.3490060955052,1.35184142129081,1.34778912560358,1.34943595729078,1.34796379360985,1.36397440519572,1.36778958796429,1.36454429030073,1.33221256317708,1.3307571545097,1.33168248033039,1.33266874377615,1.38232730260371,1.3686859416318,1.38957011096641,1.36926067537835,1.38525922002696,1.33390739595712,1.33314539605465,1.33543856278598,1.33519654973685,1.33640622317465,1.33427305056855,1.34158434248073,1.42720000052918,1.36197861164648,1.34530491124302,1.34653545291958,1.34540124442174,1.35020367070254,1.34842637312139,1.44698761931715,1.44757280599937,1.4377020788622,1.43941986857294,1.41260203694398,1.41715897803764,1.40784265268334,1.39669441927952,1.42935495023403,1.48821396036313,1.48581988811501,1.48543584153913,1.48558436819265,1.4218277006171,1.42316763392145,1.42282745996354,1.42502165473531,1.42389708418425,1.42685003469283,1.42689917537338,1.42977017630929,1.49704255605091,1.49759679183551,1.49854183616116,1.48091324506984,1.45179174745441,1.46196911404739,1.45524117501695,1.45914994390824,1.45832711107321,1.46115772241486,1.46145932379576,1.46617499403388,1.46730093278635,1.49844034265176,1.61586000011881,1.49964633102702
1.22079716348096,1.22312292583523,1.22629211879441,1.23047803759273,1.23212954642575,1.25706723401759,1.26146413466113,1.2406223723618,1.23793568163944,1.2351608014078,1.23380289154351,1.23300235877842,1.23189830176058,1.23075244862571,1.23019437366145,1.22925845724973,1.22732685862835,1.22647363118601,1.22685764750742,1.22589724601193,1.22694715203643,1.2257850068358,1.22690269177863,1.22565011685884,1.22676501548161,1.22475294446616,1.22527066119662,1.22367308473083,1.22479738528991,1.22341981581354,1.2245781429634,1.22364015122302,1.22466766417749,1.22334875801462,1.22313119430481,1.22146975670555,1.22017773820038,1.21879906683617,1.21742780550603,1.21606885607527,1.21488581155589,1.21308706848109,1.21162807927995,1.21141087019643,1.21033166707263,1.21128289675642,1.2122638334758,1.21567137391907,1.21814971693627,1.21938750083747,1.22079848433307,1.22075200992205,1.22135065973123,1.22062726187399,1.22106989642821,1.21927891689565,1.21918516816193,1.21790844790866,1.21848653195371,1.21723327035982,1.21803745742675,1.2171473379293,1.21858448922239,1.219088169368,1.22171914101852,1.22147478847821,1.22333330526516,1.22248960741745,1.22387953810929,1.22356798338479,1.2251877044445,1.22596335362541,1.22751854472823,1.2284519908743,1.26213058713574,1.29239964091543,1.29169985885279,1.28846824982862,1.28660199522185,1.25878956072953,1.25696762803721,1.25826229552415,1.26095991693208,1.26515180132774,1.26582861765365,1.27376734335356,1.29885935886541,1.31660056594573,1.32555168814198,1.33539763745207,1.34537788048235,1.34643915871677,1.35662899980348,1.35436046198386,1.35170382104655,1.34875195582626,1.34701333019376,1.34981191132191,1.46365406246313,1.38285521437432,1.37848096431414,1.3596379172829,1.36023860928264,1.35909326879112,1.35962690340139,1.35638511513304,1.35323340351434,1.35171886630454,1.35166165009644,1.35106641479054,1.35176689712804,1.36167928260151,1.36511086377348,1.36066887085814,1.34393074961833,1.3438504706066,1.34323525466089,1.34348794588799,1.34376655897289,1.34353010876547,1.3431538020659,1.3422806481068,1.34115571497431,1.33889798847172,1.33971079760309,1.33871392598879,1.33878052259515,1.33949406930075,1.34117125723286,1.34143509277732,1.36355441844548,1.36749174579782,1.38649532594764,1.40028151777996,1.4125466805357,1.42276143172772,1.43092519337299,1.4465734286486,1.44744431265337,1.435913849128,1.42431339833375,1.40865499041724,1.40613858830885,1.40501008916991,1.4009152647064,1.42162971835957,1.44352722709085,1.48732207890292,1.4873799933923,1.4871835980899,1.42413788726821,1.42445184948422,1.42480602352645,1.42562091862181,1.42642741136069,1.42777128637801,1.42863052603743,1.42906800743482,1.49681291815871,1.49735161661778,1.49858391665081,1.48728905036692,1.48218583940707,1.47379114355616,1.4651068976044,1.46280179651937,1.46200569380225,1.46316502780746,1.46399040648078,1.46588621362912,1.46748889029807,1.47022930823416,1.47485696198503,1.47862443682946
1.21583988997252,1.21562790163605,1.21555889846204,1.21698442774461,1.22031350284611,1.25977506127502,1.27531138335414,1.2444035686263,1.25238590951752,1.23517461332721,1.23144177003714,1.23252553509195,1.23067552465072,1.23116318237133,1.22890050195407,1.22997190498069,1.22695094987118,1.22855404204936,1.22616078011467,1.22801276683102,1.22562666413524,1.22735338291317,1.22431593114587,1.22665808459316,1.22373426859827,1.22578114287757,1.22210694991583,1.2248362494347,1.22156666087133,1.22464096747845,1.2222720120718,1.22497403741792,1.22416653943741,1.22445569859895,1.22332047879699,1.22213020982817,1.221083464568,1.21849811453172,1.21694934031098,1.2143443120841,1.21027308329778,1.21136000579889,1.20925281532275,1.21020417237354,1.20842567932626,1.21081541616799,1.21074942438636,1.21440620925761,1.21506686223805,1.21796852518838,1.21845989481402,1.21983776989642,1.2191166519041,1.22021767473556,1.21838441429934,1.21984692218008,1.21774044671566,1.21932634463334,1.21721465580103,1.21900598415006,1.21689500718944,1.21909016828033,1.21744176910239,1.22070390153967,1.22041451681556,1.22232746018131,1.22050061364603,1.22250003823014,1.22019064978102,1.22320066706511,1.2224739867844,1.22625416633902,1.22694117869631,1.229158292792,1.22895406939332,1.28928204317923,1.29117461550632,1.30790297887677,1.37732002817902,1.26127997811337,1.25643280814945,1.25881202152644,1.26259223064491,1.26540634005665,1.26481465168492,1.27537874309874,1.34816000602675,1.30049366851442,1.27966365970504,1.30884150187989,1.32013245669046,1.33532390085659,1.44846000017661,1.33806125086195,1.33343462184623,1.33804561031909,1.33688104545791,1.34805188412774,1.6157200000768,1.37493750262541,1.35669546735211,1.35874576744493,1.35670393023662,1.35957872933942,1.3557589116192,1.35702811148004,1.35051905268811,1.35386253117125,1.34990688310493,1.35350979163773,1.35112736620064,1.35720689492511,1.5756400000768,1.35645373813031,1.34415937598726,1.34466451571932,1.43138000035494,1.34465429925715,1.34454346548598,1.34460145294219,1.3436098246466,1.34337326009963,1.34204170933312,1.34194754310092,1.34204600341847,1.34179079871511,1.34157447411726,1.3420794980509,1.34281353141265,1.34228222776839,1.34310015219038,1.37177544360405,1.43845855454726,1.43925607176463,1.43924030260343,1.44058550607898,1.43827624347262,1.44544152724744,1.5178100002833,1.43448246329506,1.38863071825074,1.3891847267034,1.38685696449292,1.3932145150516,1.39289594492413,1.41402513486893,1.40510698917795,1.48883779607403,1.48906061603817,1.48862244045438,1.42585541753205,1.42545744830778,1.42571498850249,1.42636150555904,1.42720391675101,1.42982847934795,1.43087842358013,1.43052332483412,1.49642705487647,1.49641489051894,1.51519902165689,1.49857773963575,1.49688048674636,1.47832566148668,1.46859410965967,1.46501797472409,1.46435157316399,1.46444956833048,1.46541041483532,1.46585121069724,1.46535556360439,1.46822348649572,1.46853890568178,1.47127179418865
1.21504357648773,1.21452183511626,1.21514925074434,1.21559863799061,1.24097591749478,1.26449169908641,1.26931350947979,1.23998098282329,1.23597592973116,1.23435278910631,1.23431661789321,1.23320597438714,1.2324310945603,1.23132980131348,1.23168450597971,1.2307466425533,1.23114136791003,1.22994540462006,1.23031132709479,1.22922919728274,1.22954972790202,1.22824845179394,1.228291491113,1.22706445109908,1.2272874334334,1.22603800472602,1.22633505963107,1.22493378602427,1.22530930016044,1.22450635767029,1.22548996827732,1.22468063634339,1.22524257615338,1.22434407586637,1.22404392707573,1.22210349775001,1.21915900216099,1.21778269629514,1.21566999986057,1.21432350129732,1.2119617508444,1.21179989115332,1.21100692262129,1.21075505981516,1.21032524039989,1.21159453164907,1.2132163949045,1.21466119177548,1.21645693848493,1.21734819740801,1.21854124954465,1.21870292623811,1.21954528078188,1.2188177685375,1.21948292383983,1.2184084511164,1.21941378732669,1.21822004375898,1.21935134865809,1.21805823832164,1.21912394162589,1.2181452447122,1.2196709025284,1.21941505848267,1.22153668979316,1.22043458811989,1.22153187142207,1.22056511492753,1.2216659498261,1.22184282072429,1.22281880597892,1.22738843635378,1.22916188149675,1.23224070268731,1.23805564761538,1.28596765840263,1.30746855599566,1.32931128681676,1.34994107969053,1.27657138273219,1.27663248840945,1.27668083301207,1.27630356987162,1.27502795949274,1.27631451302273,1.27673824827481,1.28299061262191,1.28288800207561,1.28187383884221,1.30148156705399,1.32100851157664,1.32139034099111,1.32777648187108,1.33548772016617,1.33636493051485,1.33909958998428,1.34131423816546,1.34992711839581,1.3512265245979,1.35323985316538,1.35627751672734,1.35876772655723,1.36046384149828,1.35935373614238,1.35999712559266,1.35744365536527,1.35710774389789,1.35495890665713,1.35568997479835,1.35467787295836,1.35579541296579,1.35500122046851,1.3533623221034,1.35184577124778,1.34709156736842,1.34574080055213,1.34599423086295,1.34600448151488,1.34696674832347,1.34594453601417,1.34613534061866,1.34461810957145,1.3442991968772,1.34342343842544,1.34398871792305,1.34346829231782,1.34381980594548,1.34393071057039,1.34433453648528,1.35204299761081,1.37709713580153,1.37787175664815,1.43933624491709,1.43988752135146,1.44116777280067,1.44287947145221,1.44444341941133,1.44736720960165,1.44924712354355,1.43367040130242,1.39091714571723,1.39156509813884,1.3930185888724,1.39371399464429,1.39397618294376,1.42845303696628,1.44939074794983,1.48946946159807,1.4894683017643,1.48923135614791,1.46735058486448,1.45699740040222,1.45137546053251,1.43867781205051,1.43577177156685,1.4330059831095,1.43236583180377,1.43250727466066,1.49535701741192,1.49619693865116,1.49772269010223,1.49849177813421,1.49833959681177,1.48295814883763,1.47498580456877,1.46537835105944,1.46535337851222,1.46588484245239,1.46610121975956,1.46598194434203,1.46611897665942,1.46628619122502,1.46782592929105,1.47020119231335
1.21161022938299,1.21378440808773,1.21285845923939,1.21527689511327,1.30478002091072,1.27343478062537,1.29786007790253,1.23031357579204,1.21945066872927,1.23308281699145,1.23753404386936,1.23487351514615,1.232229543123,1.23215243838556,1.23221753760825,1.23276373854848,1.23259694717789,1.23275830603559,1.23192318652997,1.23187828227658,1.23142402250249,1.23048453553692,1.22973963806168,1.22884392152466,1.22800735649761,1.22800718863536,1.22710301393556,1.22706451980256,1.2243853535128,1.22651785335293,1.22509737323084,1.22616257499706,1.22424908607176,1.22535070155634,1.22525470560613,1.22370824649419,1.21604980447943,1.21735613302466,1.2147896281698,1.21490285360509,1.21174514089788,1.21304521816196,1.21146690170195,1.21205353368734,1.20945341403622,1.21317674618017,1.21361027117796,1.21627408596858,1.2163988546589,1.21803721882329,1.21732257223088,1.21876179546435,1.21824621309839,1.21886411364467,1.21732393484793,1.21879901104473,1.21709359688173,1.21909633831234,1.21770637103631,1.21901202180476,1.21729965407181,1.21893242199096,1.21754724520031,1.22004445530429,1.2194784093026,1.22075281031031,1.21809206945901,1.22069902311322,1.21858912307053,1.22183584561601,1.2202846514227,1.22905932606214,1.28169009523075,1.24842224590669,1.2438382860997,1.28263296704648,1.38935001365566,1.36015997191275,1.38967002400922,1.27685048943458,1.27530600963626,1.27683388167783,1.27502869260565,1.27649833757216,1.27648442973818,1.27919184316945,1.28116627217008,1.28285095646246,1.28240977509577,1.29614757081949,1.6791200000768,1.31599685649719,1.31331994181522,1.33924595572411,1.3384785228142,1.34077382608817,1.6297800000768,1.35191144399224,1.34919983019878,1.35220908360341,1.34906232564868,1.36123361244552,1.36089374187056,1.36232392188719,1.35837809608696,1.36084834407889,1.35740616845559,1.35797809525537,1.35607911678252,1.35794004147668,1.35551771739703,1.35614141332817,1.35070581550269,1.35112294166117,1.34535737533728,1.34616068194494,1.34532613672974,1.34782281486006,1.35012653772213,1.34801452627819,1.34907314263235,1.34659641004487,1.34516616254453,1.34534728368616,1.34483122478545,1.34560162793314,1.34467542570518,1.34592787146361,1.3459182803817,1.36031272916822,1.39597108304863,1.39659077199135,1.43958340273122,1.43950036601711,1.44666645224665,1.44494448085003,1.53583000024244,1.45040150093786,1.4508819121974,1.43306291696973,1.3922385138969,1.39298293930829,1.39484486273793,1.39466718165717,1.39521771309636,1.43035908429651,1.52067006932617,1.50284657369911,1.50441808816112,1.49665698004449,1.49627340128588,1.46420186390002,1.46116797622726,1.44142022742272,1.43548841126114,1.43429100232974,1.43320134372468,1.43585551784381,1.49415670194489,1.4960766121832,1.49886307448698,1.49830863148122,1.49872107547613,1.50240930461351,1.51340004735857,1.46589622526236,1.46766735058825,1.46662325510126,1.46752772285822,1.46620535659515,1.4638021594968,1.46520170586264,1.46193340070142,1.46162186973445
1.21232703460485,1.21182484742314,1.21422961364174,1.21538259375342,1.23509673516146,1.24601747596866,1.25710617425916,1.22528452528936,1.22360921554884,1.22714445477214,1.23695649849512,1.23502072267935,1.23295514787733,1.2314361834021,1.23173112129301,1.23202516088153,1.2337803952731,1.23309502459529,1.23344234366667,1.23242545929233,1.23231041033125,1.23042380923018,1.22933212026505,1.2283006774098,1.22822612615273,1.22790980849023,1.22846320483917,1.22783882278806,1.22826691879457,1.22749690966819,1.22805732203001,1.22668173656627,1.22651448528823,1.22554060655351,1.22522656406609,1.22410567840094,1.22299338407648,1.22159794973495,1.22192111229064,1.21978187279741,1.21884486958259,1.21707283150495,1.21623199440075,1.21569380934259,1.21685586857997,1.21602443925097,1.21712397272227,1.21723012116657,1.21860875531261,1.2180149086566,1.2184219649905,1.21752619230382,1.2176673518568,1.21672009642172,1.21723566406946,1.21669421956163,1.21803109540369,1.21715928687688,1.21834391901499,1.21702419533897,1.21785991874423,1.21689318545524,1.21813563643917,1.21749714430147,1.21908903527019,1.21841969988025,1.2199627101949,1.21954954834677,1.22129452581802,1.2235605703698,1.22881503080891,1.23064624007392,1.23971849353941,1.25279015188294,1.25512009549217,1.27904360762766,1.31617820071269,1.34403027119865,1.3612630818027,1.27770388550021,1.27710891609901,1.27667173039507,1.27698839929564,1.27669824501077,1.2778065384587,1.28030265575958,1.28195358240241,1.28390568339285,1.28409747500948,1.29278034711523,1.31245018799504,1.31244830177537,1.3251661190756,1.34284967165513,1.34360436630138,1.34392679607766,1.45181896039253,1.35486272968466,1.35531187599414,1.35500116489373,1.35703323908653,1.36001944697553,1.36328439841168,1.36274506309634,1.36305367886304,1.36200032186801,1.35980173989528,1.35817055161536,1.35859429892536,1.35914862085188,1.359742874827,1.35711146231538,1.35536659638538,1.35120262895164,1.34798116977862,1.34563625986977,1.34679532373686,1.34749877739865,1.34696281548959,1.34553092213713,1.34685723536192,1.34547174636077,1.34557805337664,1.34531079890647,1.34655854780993,1.34705865546731,1.3477804916333,1.34791895677133,1.34844265221124,1.36789610849935,1.38965047373123,1.3964716054188,1.41664656460511,1.43933583908417,1.44609248431072,1.44465400309588,1.44135371347856,1.43598401681702,1.43414479497992,1.43198919225165,1.4307933335207,1.42859215435677,1.42449960035613,1.42668644598293,1.43178206264474,1.43449294811906,1.50165564195471,1.50152847203018,1.50109957526583,1.49711009100887,1.49328319720459,1.46715514514769,1.45608478382183,1.44451403480308,1.44572919893361,1.44434020149137,1.44273998577446,1.44027903985647,1.46600639098288,1.48326101941353,1.49475373104965,1.49716740869294,1.50062101482116,1.50336722522334,1.47903960228293,1.46622507021327,1.46633672393058,1.46666232286154,1.46646422428859,1.46574890333396,1.46511789611388,1.46345660515614,1.46263009061077,1.46091525109646
1.20824921681146,1.20865389596944,1.2035823886121,1.20497632134092,1.19323367550942,1.23808325765765,1.28195005038442,1.21910578883519,1.21672133532417,1.22150897603337,1.26841796172084,1.2579401444052,1.2672066525564,1.24546005603247,1.23056999456315,1.23235197275419,1.23456902968738,1.2343408665282,1.23429210412812,1.23323850042761,1.23375591219186,1.23024351493568,1.22793423945565,1.2274795277152,1.22747878596758,1.22805976063026,1.22890122620202,1.22942304309607,1.23004355196911,1.22962978848183,1.22914230083871,1.22835296390263,1.22671447764622,1.22664990132232,1.22493453244387,1.22543073035151,1.2414914217037,1.22422851750301,1.2248384211572,1.22330221899539,1.22342856741543,1.22092386196488,1.21872942733156,1.21903211559425,1.21832390747155,1.21917298518543,1.21774022410287,1.2198279394063,1.21863528088293,1.21968566722005,1.21704837260743,1.21784019020021,1.2141513775356,1.21616867261573,1.21312241811998,1.21643736102794,1.21526324993189,1.21724152805321,1.21538609953748,1.21690048584904,1.21438717657867,1.21667821100511,1.2144314374796,1.21711915306798,1.21421888857458,1.2184776582593,1.21709896390035,1.22020935213004,1.21925321714065,1.22437442876814,1.23206974514281,1.23220671371893,1.23383407695837,1.25651687501959,1.26688039840276,1.27468184686227,1.27142661798516,1.32370616285047,1.40620000021332,1.27949649968688,1.2764000528369,1.27776481400539,1.27599670023102,1.27772287533245,1.27572034320064,1.28334776250775,1.29926753651769,1.28671698214945,1.28591928788487,1.29094069017952,1.29079729468342,1.30984610190122,1.35019608410717,1.34776464738114,1.34714377571795,1.34639091158549,1.6515700000768,1.35665676319804,1.35645335072442,1.35762267773998,1.35708822515638,1.36170875607552,1.3624951673359,1.36651475314464,1.36851045275392,1.36937038924888,1.37034475197529,1.37240647412034,1.43224000056494,1.36321143639933,1.36072587056591,1.36086711152715,1.35785869380045,1.35256463135404,1.37393826097927,1.3422900174787,1.33088316520208,1.33087470223881,1.33000499644789,1.34131479328657,1.36853499503736,1.34436964935958,1.34419216877946,1.34560696067211,1.34672211657046,1.34924700588191,1.35005703468293,1.34974699442497,1.35077654866608,1.37482525970947,1.38285808507318,1.39553886130867,1.39459546178971,1.43932854111083,1.5617700000768,1.44487007796898,1.44324220461303,1.4310093777456,1.42761392697022,1.42898990702855,1.52682000014797,1.42954347804189,1.41781259995983,1.42873802180776,1.45753432225796,1.45349881571891,1.50200743452304,1.50138150772889,1.49918782383721,1.49797141442683,1.48694587216838,1.47034729474589,1.44790444080481,1.44761135692766,1.44778385899629,1.44624358296838,1.44226556114955,1.44314014489777,1.44232047949977,1.47274873083603,1.49299336565623,1.49479381093511,1.50238958608075,1.50438711103704,1.46707291526729,1.46659860401768,1.46661160204934,1.46645879824192,1.46595239411931,1.46599339894312,1.46369605727797,1.46386943931665,1.45912014586716,1.46178926197334
1.20919987298008,1.20736336418032,1.20587843303987,1.2051378229923,1.20434763703477,1.20638970873819,1.20990089505604,1.21444223730453,1.21572032577606,1.21685211689558,1.23690288155772,1.24927691810038,1.25975946575467,1.25727238572962,1.25166442514186,1.24529427508366,1.23858753374246,1.23323430211913,1.23259518380771,1.23171057615123,1.23145225190765,1.22859695525557,1.22649988956097,1.22616065521249,1.22617083066964,1.22748540252417,1.22904704209417,1.22933702755417,1.23003494326532,1.22907409131798,1.22903604215497,1.22785860777904,1.22784800913659,1.22737877419326,1.22782017168026,1.22740622635851,1.22804695034978,1.2261992325683,1.22527776641215,1.2241923287801,1.22397258543373,1.22232976005982,1.22196105045305,1.22111566003135,1.22169347593549,1.2207831065755,1.22170006703693,1.220637374614,1.22158985696158,1.22015077081387,1.22040057738617,1.21815111763355,1.21733678042487,1.21594765609419,1.21600462019125,1.21528560950908,1.21608094410613,1.21519421431581,1.21575478779093,1.21476707629502,1.21544813846473,1.21491905833555,1.21613967045153,1.21568547737072,1.21712610858094,1.21727509277864,1.21946371609052,1.2198815463548,1.22176820953058,1.22593952268788,1.23106718771504,1.23886129251642,1.25109122114032,1.25950243816458,1.26990848711196,1.27252702330953,1.27244821120783,1.2911164905426,1.28909133009867,1.28269903267165,1.28038527943863,1.27934178609838,1.27954623290573,1.2806141514713,1.2837928678178,1.28583903310934,1.29007248632647,1.28942858212055,1.28931801101768,1.29076025125032,1.2906231742923,1.30797968316567,1.3483143122352,1.34629863788889,1.3457126725544,1.34725593028992,1.34883548068537,1.35710374045055,1.35782085894594,1.35837218604554,1.36021116246647,1.36112627801628,1.36407278232768,1.36557176096212,1.36947726079541,1.36901773682932,1.37155818720935,1.3709225210936,1.37033898256975,1.36657169946894,1.36548805445771,1.36281903445573,1.36095069102155,1.34765430847786,1.34564431711285,1.33927695353901,1.33338272477304,1.33308953574345,1.33298827453476,1.33816829446557,1.33898948816142,1.34263117832531,1.34393868105497,1.34450207318135,1.34525101778606,1.35189668484724,1.35368070750029,1.35584510001013,1.36202783955231,1.3867441802186,1.39167500790578,1.39887216578111,1.42030563752745,1.43884828402008,1.43674141480153,1.43305518485404,1.43120374622465,1.42967046234919,1.42709154283143,1.42735580102014,1.42678345688335,1.42954920472591,1.42945067562105,1.43095332047408,1.4334276901797,1.44933196473648,1.5037279546082,1.50259357492151,1.49967956707382,1.4973715760072,1.4928304010236,1.474774353295,1.46776739350304,1.44826401270399,1.4489438243619,1.44745521494563,1.44757398982057,1.44551125822026,1.44518762349458,1.4622002921663,1.47431669764633,1.48495553598638,1.50440447198977,1.50545650177728,1.46760570226228,1.46739812913703,1.46707913275029,1.46728073070239,1.46715134507715,1.46675670789216,1.46647289407279,1.4656891538897,1.46491465778648,1.46383853406222
1.20667657204038,1.20689280253393,1.20617389144894,1.20455601491891,1.20181379678932,1.20296788813542,1.18472991706459,1.21307800615831,1.26106009885757,1.21493307906923,1.21725743744814,1.23927953552867,1.2638856930235,1.25950281744859,1.26729975752724,1.25041715678063,1.25911742818956,1.23106985019375,1.23000742919918,1.22975240829992,1.26141667615104,1.22596704486707,1.22320725227496,1.22400509953926,1.22381823032541,1.22655935172371,1.23011134086104,1.22948757853797,1.22997066860421,1.22913593836521,1.2272063364185,1.22806224755932,1.22673884650445,1.22871142230836,1.23013327377525,1.22953246486743,1.23027886869122,1.22764173391105,1.2258778772152,1.22513065482161,1.22401246855765,1.22412230461839,1.22349346899204,1.22383083959586,1.22293947691289,1.22385694868884,1.22199699551007,1.223485475481,1.22087914417886,1.2227703941635,1.22086737179598,1.22037663974352,1.21624428432164,1.21748811154402,1.21458516746438,1.21588836850988,1.21317348810752,1.21514423929616,1.21235614522554,1.21464843881748,1.21210883229729,1.21529704306936,1.21361263114745,1.21657379195877,1.21487064704864,1.21842809559191,1.2172754508831,1.22108334473235,1.22181957053843,1.22904633971628,1.23083771055747,1.24479827994671,1.2621252968646,1.26254302745984,1.26976459444247,1.27091717618194,1.4539600000768,1.29152262288295,1.29057326295404,1.28376901721713,1.28105761980414,1.28088016489786,1.28013352005629,1.28275777100155,1.28467171058841,1.28816169485921,1.29015739027578,1.29133839539417,1.29078815164793,1.29210683729083,1.29033714012697,1.30602731173639,1.4567000000768,1.34343071984408,1.34024515601406,1.33668853127872,1.33559787490792,1.35584917257056,1.6313200000768,1.35935288282654,1.35923370571749,1.36234539624492,1.36044531543378,1.36696526301919,1.36832735116187,1.3706678405321,1.36909760128552,1.37163437374942,1.37086663798556,1.36952788616664,1.36699136567644,1.36617958640187,1.37134065007595,1.34448425873651,1.33890405625721,1.3381372968029,1.33559184489529,1.33530886421021,1.33352494519127,1.33706373759097,1.33650793659383,1.34339717120597,1.34338132487396,1.343998080651,1.34395111982435,1.38287556463091,1.40980870230751,1.38671120700825,1.37271758691468,1.39327311740842,1.40438966020036,1.40497877011355,1.45016684535615,1.43927273321842,1.43792915776492,1.42748682070478,1.41643695324954,1.42507011786949,1.42486061497216,1.42596394807391,1.4239654230725,1.43256302628201,1.44185053974489,1.43458427466413,1.43156318583546,1.44394702128599,1.50662537704496,1.50602998502029,1.50881187372832,1.49828477386909,1.49951453910236,1.48094050195359,1.48988890790182,1.44900896163154,1.44892005406517,1.44969958606864,1.44980178136339,1.44832866696435,1.44612881273079,1.44733406255379,1.44723530449397,1.47555704635028,1.50916647656607,1.50629293097695,1.46826689996608,1.46778487874023,1.46758729288835,1.46778375455452,1.4683282136721,1.46777251067075,1.46766357233435,1.46879030741866,1.47220448302793,1.46811527622285
1.21556696026747,1.21241223056292,1.21046595477143,1.20970497351986,1.20339869730105,1.2041798673712,1.20548534642834,1.21133275509072,1.21159191277748,1.21231974156347,1.21364574852875,1.21372652699936,1.21487255436456,1.21748786058792,1.22057543385053,1.22336521836519,1.22576942890585,1.22782918979082,1.22849630351095,1.2279166280627,1.23940817692546,1.22356566117564,1.22255047355192,1.22294653501989,1.22317252179243,1.22513573969547,1.22701968689919,1.2278947329486,1.22884716931327,1.22823102925904,1.22824850812602,1.2276555356712,1.2281139508769,1.22823485901618,1.22927913566658,1.22885875573992,1.22906753307712,1.22749270647211,1.22642478506403,1.22556034477848,1.22529605139767,1.22480552501913,1.22515025169389,1.22450734497651,1.22528813593907,1.22420047814714,1.22516895965507,1.22366345823294,1.22445252100974,1.22269184468349,1.22289399207376,1.22064843048029,1.22004371160312,1.21803968085725,1.2172580108057,1.21566769032879,1.2158747148231,1.2153927465427,1.21568729996508,1.21507933250244,1.21595031205457,1.21569406782123,1.21674355470181,1.21677835902851,1.21819723337257,1.21856531712994,1.22059828197243,1.22147790634463,1.22311484033253,1.23014920114146,1.24359563103966,1.25029832648851,1.26602820355721,1.26665774159808,1.2689818329441,1.26920475157765,1.26915560013673,1.28581127687851,1.28704266185579,1.28437758245618,1.28232960820265,1.28179667257368,1.281714376961,1.28493083157199,1.2867558977888,1.2902695515746,1.29325652207628,1.29427772966712,1.29500736615087,1.29630688166112,1.29852042811391,1.30375953666562,1.31056633914946,1.31833384706894,1.32620265988301,1.32942205242911,1.34254054411387,1.35367819373593,1.35431718493023,1.35781921966505,1.36211010936334,1.36274930851707,1.36447530098869,1.36607607074188,1.36912392509345,1.3690638426752,1.37031007744232,1.36976481563727,1.37009724399003,1.36936543893733,1.36938555513807,1.36096365606346,1.35584051342711,1.34246843951294,1.33920814030066,1.33869928028224,1.33838389092614,1.33822941175043,1.33926191513658,1.3390509456161,1.35638004664509,1.3679413920722,1.37329037993601,1.37695224543832,1.38103871883554,1.38742686333743,1.41174886911505,1.41315339143991,1.41428020753051,1.41576515478906,1.41688308172286,1.41711624277309,1.41715328734096,1.4176647629324,1.41838402022777,1.41898019910074,1.41972692442242,1.42433100445584,1.42600588540443,1.42877305548575,1.43275597548293,1.43526638108793,1.43704665779756,1.43619066834632,1.43527435357798,1.43859805598953,1.45033262705657,1.45809890108885,1.46592015160013,1.47544521320206,1.48590136401603,1.46754891138494,1.46016203779566,1.44805760614488,1.44888885348606,1.44809178138186,1.4492112394019,1.44766631419591,1.44797043269443,1.44712598879498,1.4470997360302,1.4656246151449,1.50768285765569,1.50648917176916,1.50264471943376,1.49841178698419,1.4947358554483,1.49023500081764,1.4853163814257,1.48039479586201,1.47603995569181,1.47275541213906,1.47072471685272,1.467888803099
1.29565923217242,1.29452011699579,1.31690006588035,1.25260180411195,1.20398391735364,1.20497738412464,1.20686749925321,1.20917977328256,1.18841994875816,1.21057948739879,1.24260348430079,1.21427847571725,1.20921682523007,1.21054556821947,1.2106741357175,1.21229281841724,1.21242725467118,1.2135117745466,1.21298328398235,1.22192977546875,1.28566001934359,1.221487397561,1.22012986885302,1.22135221431923,1.22106635774338,1.22343884656827,1.22487732594692,1.22654068123268,1.22786259413629,1.22796775867884,1.2271288900345,1.22807680815695,1.22675813534547,1.22853305397322,1.22754539417715,1.22882320369367,1.22782905049576,1.22763217502096,1.2256608766007,1.22619392456219,1.22515792569406,1.22608450560844,1.22489218273191,1.2263481455212,1.2243563941656,1.22651825215739,1.22376174397889,1.22612454355769,1.22360990152075,1.22484978735299,1.22129347154819,1.2228215052725,1.22012767786976,1.22053954804984,1.21684551687142,1.21640918392861,1.21641411388288,1.22010242082774,1.26033011837577,1.22296153833128,1.21796318044633,1.21739086436089,1.21794232526675,1.21822342614461,1.21912732599621,1.21997125042233,1.22148494216087,1.22314123657705,1.22550102084878,1.23158405356792,1.26176380394303,1.25474785380733,1.2691427483047,1.26926344881489,1.26896837838122,1.26771135525702,1.26325294372598,1.28379677785644,1.37923000025649,1.28353693309085,1.28148659454813,1.28263125380291,1.27945192420053,1.28927210845497,1.29994730780233,1.29735867200298,1.29746180382347,1.29750704221414,1.29854980018141,1.29908801564768,1.3001787328127,1.30128919501009,1.29933247671905,1.29996902739759,1.2990347999279,1.32561847080015,1.34873303780399,1.35074771823578,1.3486337156506,1.35726038558785,1.36338177944032,1.36550396357291,1.36272411760022,1.36753808349927,1.36702479639353,1.36992875110535,1.36773440291312,1.36981322205738,1.36717302347047,1.37032417971985,1.38459139235956,1.35620492676827,1.34098179442262,1.34121150163579,1.33941620152712,1.34020553822984,1.3397707874707,1.34062160741109,1.34043194767158,1.34119343417073,1.38476862504748,1.38052529823733,1.38674329601682,1.38118984412701,1.5250141791103,1.52437454285388,1.5243128655689,1.41978070400317,1.4139554732092,1.41885580029352,1.47565002176359,1.41668892842534,1.41618415272484,1.41730201884383,1.41670862019725,1.41880774574639,1.41930135517564,1.4250232606237,1.5790400000768,1.43817424448427,1.43982641005607,1.43662287200896,1.43694415683866,1.43579818238009,1.43574723913237,1.43641654804013,1.43496653936424,1.4367893371117,1.4371879407361,1.46439584589434,1.53051000080601,1.45786066106975,1.44809807773131,1.44711641944199,1.44661915689575,1.4475493649412,1.44648686365842,1.44809395670273,1.44711934734108,1.44740296461711,1.44619105278341,1.45680933079538,1.51166358677941,1.50915811435095,1.60331000007689,1.49737591156452,1.49479927763196,1.49903042704652,1.50535679631821,1.50685624125512,1.50858950903519,1.50917021633405,1.50987557540374,1.50891507497114
1.29203100418659,1.29335987334895,1.2957710757735,1.2859642624501,1.26936688888615,1.25465964540826,1.24033171771972,1.22576189808143,1.20861918084859,1.20925240288861,1.20905735674445,1.20941542714548,1.21041475322112,1.21150199840836,1.21232672551699,1.21327330269568,1.21386541194222,1.2146550938117,1.21553493522626,1.2181524254194,1.21867548965163,1.22013804080527,1.22051877988817,1.22123014159856,1.22160740596869,1.22270545003197,1.22358167424982,1.22472106470163,1.22572866631169,1.22646696980733,1.226799423238,1.22762067589669,1.22864669788412,1.22854364114549,1.22909306803754,1.22865480986557,1.22862471642463,1.22757255471752,1.22701571407676,1.22648157744575,1.22684418509594,1.22666722664374,1.22741608409349,1.22694835384629,1.2280161207525,1.22691866263506,1.22775611541368,1.22627245283872,1.22699205606471,1.22543969309368,1.22538078359965,1.22396829226408,1.22392189438055,1.22353643352597,1.22537790250176,1.2250497133415,1.22545913472826,1.22696054346867,1.22740699031346,1.2270773391502,1.22791642472059,1.22713997898193,1.22712724244293,1.22802053564224,1.22969542389625,1.23153279494727,1.23281093324885,1.23364015621214,1.23439035376646,1.23409588868511,1.2451610536756,1.24882982952036,1.26123849048547,1.27130510363879,1.27077127128141,1.26870419072687,1.26505678077688,1.2807557411225,1.28086627578044,1.28414912280609,1.28536813605966,1.28745862649894,1.29125216937323,1.29348627581576,1.29720680602201,1.29805215057899,1.29887329907482,1.30012108694854,1.30133823856013,1.30195263816209,1.30236548743314,1.30230430253909,1.30143466873715,1.30148158585205,1.30113815390802,1.32238174482962,1.35002100747961,1.35125211693378,1.3526502796577,1.35691674991391,1.36326705128177,1.36763490201665,1.36835699395765,1.36910089397751,1.3700298837334,1.37124500072214,1.37132202016119,1.37179088066059,1.37395721833607,1.37495142164229,1.37812897260946,1.35209287769675,1.34111336613781,1.34111356956494,1.3412948373103,1.34123354405194,1.34208941400365,1.34267682727896,1.34424673465916,1.34333879061257,1.37479738405014,1.37655244098218,1.37489011212954,1.37528446466447,1.5247395754582,1.52384674975925,1.52339833228211,1.42690382404703,1.41719690975843,1.41989021116417,1.42672204760527,1.41676013569758,1.41735746704906,1.41828612620553,1.41910554771695,1.4202894057046,1.42118692793226,1.42518413732366,1.43586571386269,1.43733012281786,1.43731435090054,1.43774258175767,1.43651636602759,1.43731475417709,1.43667638031715,1.43738213596005,1.43736597462237,1.43791085241433,1.43885560017184,1.43961903168336,1.44059868198434,1.44135425552802,1.4432708190635,1.44380551603405,1.44496105945498,1.44479861151486,1.44670897073702,1.44673683029619,1.44765049928703,1.44638251047174,1.44644457577433,1.44929514908987,1.46668303670462,1.47314606767082,1.48144892099815,1.49840576979398,1.49967685716595,1.50125823780908,1.50452058253428,1.5068619197604,1.5088774000937,1.50961737644965,1.50885739438949,1.50753934382048
1.2887345467252,1.2909791325571,1.29827351478057,1.29869638192869,1.30140781353522,1.30123288526232,1.32641005542047,1.26320489885716,1.20776731472293,1.20871956518658,1.20910253926734,1.20992432227464,1.21207586301311,1.21239588273842,1.21347281037063,1.21393343832505,1.21456776220444,1.21510231281252,1.21562097684221,1.21711782608596,1.21694571453444,1.21925313104361,1.22031397267435,1.22103786518515,1.22139025007666,1.22200651665541,1.22178576129522,1.22320709795864,1.22274860983588,1.22554562286612,1.22414053515566,1.22879359272692,1.22825420334912,1.23007644633309,1.2286154976235,1.2298932947834,1.22776433188077,1.22855601848324,1.2263655304744,1.22735920742833,1.22642391297647,1.22838318997406,1.22713448024672,1.22930348698214,1.22790857781671,1.2298663626496,1.22765397006981,1.22811589388829,1.22760732689794,1.22724907923266,1.22632737339807,1.22573228613107,1.22502811873731,1.22541516545562,1.22645245746186,1.23216425594506,1.23568118051847,1.23028001191581,1.22874214816436,1.22849056280292,1.23007420897509,1.23317165467611,1.23523856637518,1.24146366923619,1.4126900000768,1.23906243693608,1.23343677306905,1.23414207482852,1.23575660690243,1.23735904884019,1.24173980563767,1.24676731475142,1.24437017172886,1.27324877509129,1.27336105019334,1.27169037690864,1.26239695548792,1.27763532275694,1.27342879170454,1.28683830548612,1.28788417137275,1.28934635787628,1.29550276294248,1.29556490351078,1.29703220948194,1.29912578032946,1.30022101056675,1.30231880797693,1.30533337157888,1.30453091833628,1.30561899475534,1.30389524455245,1.30235529816302,1.30334403519833,1.30279858554308,1.31943636738358,1.6385700000768,1.43570319988131,1.6529400000768,1.3536172780289,1.34884797987365,1.37161067179429,1.36985024071042,1.37212479782968,1.37687656810775,1.37463369344486,1.40906922571321,1.38786345404821,1.41638008050377,1.37719427418489,1.37891051177438,1.34903305622906,1.34094895750862,1.34171862511827,1.34160438690807,1.34258202084032,1.34306876369038,1.34446303988276,1.34839809350202,1.34477761192225,1.37337798819279,1.3679495911209,1.36325629655096,1.37052194813829,1.52551772237138,1.52308273998749,1.52212104821572,1.43804776686733,1.41039955528446,1.42098596367271,1.44233332453307,1.41714417173906,1.41822130079535,1.41955597326327,1.42040364907262,1.42154740454778,1.42180130606855,1.42716844395155,1.43411129924,1.43560063521948,1.43849165114224,1.43673286405549,1.43922900381171,1.43723563292665,1.43878715947757,1.43814285061336,1.43882628804967,1.43911134212301,1.4388561987029,1.43987041556496,1.43867905628146,1.44033841564567,1.43908508942391,1.44148300007542,1.44031847713801,1.44227385696234,1.53449000021216,1.44681559994657,1.44606917739725,1.44622956491534,1.44512086739665,1.44526079059629,1.44569108793497,1.45416202967572,1.46607228923965,1.49839633741406,1.53125210762979,1.53019300763239,1.53005205282464,1.51645366359304,1.51257463788387,1.51159450483366,1.47756025057133,1.50601506491066
1.28761869051404,1.29039817090522,1.29427938639769,1.29672679386633,1.29921874346039,1.30083347653492,1.30711609591916,1.30074150521645,1.29217938114616,1.28149484496596,1.26994676187483,1.26151932896204,1.25331294645467,1.24588824248692,1.22874998656609,1.22889168704373,1.22936067893054,1.22905832517564,1.22750988782081,1.22514035265803,1.22277994340658,1.2211687714132,1.22076088790637,1.22171346570592,1.22387670425066,1.22675446885529,1.22965595256929,1.23211095168322,1.23408464429901,1.23443532881435,1.23491785042476,1.23288743017703,1.23247303172976,1.2315009173587,1.23171216199055,1.23114184892577,1.2309211630389,1.2298120216984,1.22911138728281,1.22831972801843,1.23005648919487,1.23001700342039,1.23100299215816,1.23065984476276,1.2320475309889,1.23171482471784,1.23192430031424,1.23021707142059,1.22964165237868,1.22995108064291,1.23046563824967,1.23193957853544,1.23287913732396,1.23320936342328,1.23354235528938,1.23463897409723,1.23696303732531,1.24089764291666,1.24422931562698,1.24717774222463,1.24942843091874,1.25124336815675,1.25290582627613,1.25592805050459,1.2571896887569,1.25660090414771,1.25145974515416,1.25409750511486,1.25482099907671,1.25532745325113,1.25633787336783,1.25814536775099,1.26009419554314,1.27440047191205,1.27456572187116,1.27533723699935,1.27949910034708,1.28303570065066,1.2863313670373,1.28775873555448,1.28875693006152,1.29034140148445,1.29282622609027,1.29630706413654,1.29906386913994,1.30113805483,1.30252012186141,1.30397665921781,1.30591797391517,1.30557845002845,1.30563566212286,1.30487497601146,1.30515974976179,1.3062067457111,1.31073031519816,1.3168016199083,1.32177695981482,1.32439292562969,1.32918510615482,1.33646596999173,1.34949104939469,1.37471738925813,1.37338114888363,1.37343062689415,1.37472134063836,1.37530057268632,1.37408172537497,1.37312572593118,1.37221454819946,1.35790988892774,1.35525834427353,1.34695015094825,1.34217499233474,1.34214785018113,1.34263410245947,1.34270246198412,1.3433019814904,1.34361521882566,1.34406901327726,1.34325706822524,1.35399041995966,1.35969032809786,1.36242914099807,1.36554325047753,1.52289000477977,1.52143793334977,1.47814598087561,1.45010213341211,1.44393841808014,1.42373867551023,1.42405293419981,1.41730407635659,1.41882736830306,1.42029320801399,1.42226279915974,1.42296159375499,1.42418897043558,1.42603356479464,1.43489973053371,1.43626771590652,1.43627482020782,1.43766793765265,1.43691982818568,1.43829907706345,1.43797668069789,1.43871829291452,1.43907836751263,1.43878579977967,1.43937126549808,1.43847392832892,1.4393735491592,1.43802462249591,1.43885054619464,1.43802596972565,1.43929317617929,1.43914976215163,1.44072625688122,1.44100649182153,1.44389651659887,1.44324897740629,1.4440814377791,1.44352041318639,1.44418214230438,1.44692867676793,1.48938872498003,1.49905766493261,1.51319359160338,1.52948957076283,1.52677743011878,1.52020817217946,1.51726182888484,1.5140483849208,1.51267620220887,1.51007567619175
1.28569920788869,1.28830962771027,1.29213718784955,1.2944281321944,1.29805585945063,1.2988689169897,1.31334853638846,1.31452858604139,1.31673857190434,1.31413733976591,1.3123620639217,1.31162054879359,1.31007457424325,1.26800687713169,1.22950251145159,1.24795806596128,1.26769467357099,1.27030754319273,1.27290264203406,1.28263518689847,1.34365000045983,1.27654659575397,1.2633499647896,1.27667750981111,1.341400014378,1.31625200934502,1.34028002007825,1.23778050617214,1.23523641006329,1.23629397886283,1.23580658008685,1.23586561357648,1.23456236908094,1.23339030059229,1.23243620512712,1.23351563247364,1.2314464187203,1.23338070318688,1.24704130047236,1.2402865385003,1.23280789901202,1.23260887288976,1.23390236585227,1.23313746535277,1.23496904935743,1.23552196990814,1.23907264791414,1.24146869713954,1.24268213058815,1.24475513091672,1.40646000014199,1.33764589101329,1.4237300000768,1.25280165306012,1.24832157878485,1.24727651995304,1.24603780046981,1.2472664124756,1.24734485758003,1.25234188196696,1.25421059480806,1.25361435591077,1.25117607719438,1.2553421475827,1.25871339912431,1.25829660531343,1.24305072877381,1.2552237862487,1.30567007228801,1.26947017321322,1.27029191869238,1.27041934557737,1.37396002389229,1.33826783807456,1.44603000010525,1.37172661497157,1.44306000012535,1.28653777783382,1.28813709893361,1.28828124059216,1.28868498225098,1.28980016806847,1.28896261399403,1.29713769281067,1.30509029670771,1.30339055257507,1.30389647015512,1.30544791681643,1.3082800298043,1.3065226329188,1.30542921302701,1.30576587477245,1.30492074099077,1.30635018631123,1.31446777331668,1.31482447402565,1.31477790464755,1.31636702706385,1.31872763603304,1.33176008085176,1.39940009094943,1.37783710079065,1.37944077872602,1.37484022866052,1.38895396396525,1.37935922457806,1.35820338247436,1.36337284877688,1.37050681514494,1.35517079607072,1.34761472249917,1.34542159559992,1.34326086231346,1.34289128743777,1.34275532753416,1.34309875316377,1.3425995155532,1.34285896002809,1.34172767887776,1.34230679594116,1.34228313244448,1.35858356582896,1.36299557893976,1.36332748007789,1.56162000015739,1.51991852546035,1.38806999983356,1.46202819830144,1.47981769025767,1.42685759445082,1.4148270862943,1.41726142720223,1.41893201566648,1.42112430999461,1.42326687250728,1.42399920210996,1.42512500848686,1.42554787342967,1.47433012269467,1.43577144343953,1.43845064201393,1.4360283409952,1.43937253552259,1.43715332181475,1.43981179424536,1.43862760942985,1.43896324116504,1.43934553201186,1.43686179956873,1.43854237974151,1.43605290697193,1.43756656153878,1.43356147084436,1.43671625010495,1.43318798022929,1.43701053850411,1.43441315106162,1.43952476193455,1.43898943502981,1.44223891763093,1.44009998700191,1.44212567477186,1.44049029758065,1.4455266627826,1.54815000875931,1.50002627531396,1.50030870554766,1.53224504444721,1.53751279009029,1.53842794513595,1.54417662303263,1.52748938474381,1.5245484958706,1.51383295966594
1.28317791659292,1.28539324370503,1.28983450815856,1.29253246943209,1.29496400951432,1.29818786757392,1.31429822239225,1.31390576014369,1.31329277285769,1.31302034466165,1.31265070916827,1.31209748053547,1.31165744710886,1.31247195621795,1.31317254148317,1.31322393096301,1.31196942530162,1.30911290611365,1.30567954051617,1.30271541237326,1.29916137670287,1.29604073655191,1.29370832679789,1.29438048028134,1.29674728998592,1.29610384550872,1.2732547652039,1.23881556167344,1.23849296634641,1.23843834222511,1.23909659060299,1.23936395473352,1.24027858907922,1.23844906609876,1.23613461108399,1.23556478533711,1.23595135379358,1.23834326884575,1.24422350278836,1.24620993321773,1.24709820208626,1.2482924767179,1.24897001854789,1.24993862515837,1.25093047789416,1.25216064268709,1.25355273744312,1.25525453662066,1.25716323559487,1.25857985245874,1.26012878708433,1.26098555612552,1.2613808027659,1.25717445267027,1.25820184848059,1.25908493961817,1.25871974144536,1.25778090126669,1.25664250811409,1.25531001233225,1.25501098528413,1.25511676308705,1.2558028909295,1.25696593578465,1.25740176578376,1.25856000703853,1.25825668625085,1.25842320996655,1.26292473567235,1.26790808943673,1.2691040967927,1.2700812519237,1.27115927383898,1.27326512799508,1.27492297399113,1.27684735216479,1.27894131796702,1.28311825507079,1.28681975685398,1.28835713921156,1.28926666072682,1.29077140539259,1.29401892586972,1.29795547154243,1.30200554910098,1.30233835924286,1.3027977226203,1.30391967022294,1.30549258651981,1.305019694895,1.30501250191125,1.30468691175236,1.30553405913179,1.30640988356792,1.31066256972712,1.31229027675876,1.31369543239928,1.31508266412173,1.31601168581493,1.32905431382924,1.35344828403281,1.3619970198605,1.36436110110367,1.36849641258917,1.38840044369409,1.38449071076344,1.36484578321841,1.35449627759705,1.3511742616678,1.34836958256634,1.34660682791495,1.34381174505327,1.34245139653332,1.34261058762589,1.34309121523303,1.34340945483851,1.34362632859841,1.34323992002951,1.34290791726709,1.34301315908089,1.34364755504719,1.35612358122432,1.36014478897299,1.36225056252997,1.52157145865956,1.52069086964907,1.48783644278938,1.47254652244037,1.46593861342138,1.43057501361659,1.41745328528022,1.41751515946735,1.4183059036687,1.41961468421631,1.4218757618471,1.4224138627887,1.42355152038257,1.42438370147417,1.45120158414405,1.43492345338307,1.43384465340873,1.43559655286056,1.4353181776834,1.43733299775634,1.43700712991443,1.4385132247251,1.43988969735886,1.43904546807006,1.439546012899,1.4359250017619,1.43640536227077,1.43398994782225,1.43496224901073,1.43319273207697,1.43470537460805,1.43341811508327,1.4357452391853,1.43626083509821,1.43987251975051,1.43986229552701,1.44146813160982,1.44094247320541,1.44165782392554,1.44350232714217,1.4792893931289,1.48879110042019,1.51997852328736,1.53495951887311,1.53720125960666,1.53764594763901,1.53649262859677,1.53058842495381,1.52282437669542,1.51904605335742
1.27721558335213,1.28051400365969,1.27654934716951,1.28701856294574,1.28427214135061,1.29832472752106,1.31577418293931,1.31257135238648,1.30907829439613,1.31141229893045,1.33011969655941,1.31221694315708,1.31158016688321,1.31548674378727,1.31815921227126,1.31741433485598,1.31668175616273,1.30900333592678,1.30378454271341,1.3025489981168,1.29673339386211,1.29601372893496,1.28939444851921,1.29582950847238,1.29749455326833,1.29617968719933,1.23985016283647,1.23964079704959,1.23981806063723,1.24012602304629,1.24156576899748,1.241298598739,1.24256841781196,1.24410187982491,1.5900100000768,1.49587419796079,1.56874000013512,1.38820471692055,1.37992194428232,1.31868718064297,1.24608782044356,1.24833106626944,1.24980284047035,1.2515260431061,1.25096766464045,1.2544115840569,1.25648751992251,1.2572578613389,1.25693134124978,1.25827194322991,1.2582081670174,1.26003190075439,1.26015252452943,1.25818797050475,1.25734270407605,1.25857139628567,1.25811518993029,1.25969606310753,1.25945616435127,1.25653672125312,1.25534841500654,1.25540142117886,1.25728620636138,1.25699043980438,1.25853623424248,1.25769046550702,1.25760401734509,1.2576031674478,1.25716112852552,1.26918547086937,1.26794710092135,1.26906702072331,1.26909987534079,1.27255038374291,1.27380303130842,1.2757195141619,1.27583490670463,1.27897906056526,1.27649809559419,1.29217413699935,1.4372800000768,1.2975465757956,1.29492101359481,1.29972823141698,1.30112838897378,1.30211232429495,1.29893116781603,1.30302621828424,1.30257458233812,1.30434098265247,1.30209941181777,1.30432305306158,1.30225895650376,1.30479713686172,1.30292377506576,1.31077317857018,1.31153945832407,1.31449247675133,1.31405042706849,1.32739189368292,1.32067266126925,1.36039205161211,1.35834713233928,1.35821180966142,1.47945000011662,1.40113396267592,1.43072006077626,1.34779722500201,1.33979314785412,1.33945664440697,1.33958153895231,1.34073988127165,1.34017849016132,1.34198971068756,1.34311797057632,1.34410636114984,1.34500726832649,1.34402278721934,1.34408337570499,1.3446194071853,1.34720989347075,1.35055820366805,1.34964730737974,1.36341359069867,1.52404458401221,1.52253503121967,1.5239243416019,1.48014746722314,1.45923684384833,1.43511174946063,1.41950029647188,1.41743727267543,1.41478298881131,1.4184023632908,1.41873063654362,1.4211218079151,1.4204189120105,1.42361578284049,1.8117600000768,1.43304515214163,1.43239162568582,1.43200301152638,1.43680222206561,1.43522703657276,1.43703570244696,1.43740285398274,1.44140211203683,1.43997591613193,1.44222389726004,1.43348540302544,1.43082561018816,1.43307764376763,1.43038488752651,1.43247878227432,1.42982093535151,1.43282026520053,1.4300775623971,1.43580116030063,1.4366565710193,1.44019135668312,1.43937540342738,1.44066645389829,1.43926342148272,1.4397765069688,1.43948078807977,1.48598661894045,1.53083454885387,1.53522876847892,1.53905385722582,1.53751515813433,1.53456482759143,1.53359442633049,1.52111105510923,1.52323175664994
