0.93143, 1.21592, 0.94828, 1.05437, 0.988154, 0.95089, 0.950412, 1.07885, 1.15418, 0.98046, 0.97956, 1.08458, 1.12104, 1.19836, 1.11569, 1.08045, 1.10282, 1.02961, 1.02922, 1.02894, 1.03669, 1.03613, 1.1253, 1.02841, 1.03059, 1.03099, 1.04048, 1.04359, 1.05837, 1.06791, 1.06593, 1.24439, 1.18824, 1.19509, 1.21589, 1.16594, 1.21515, 1.22374, 1.19888, 1.27786, 1.1917, 1.19281, 1.19865, 1.29168, 1.35841, 1.27633, 1.17859, 1.18123, 1.18403, 1.18844, 1.30289, 1.18658, 1.30117, 1.30301, 1.19059, 1.19528, 1.1955, 1.31034, 1.20216, 1.19996, 1.16573, 1.16423, 1.16431, 1.16512, 1.16258, 1.16215, 1.16095, 1.16183, 1.18954, 1.1787, 1.17345, 1.17357, 1.17635, 1.17622, 1.17285, 1.19152, 1.18132, 1.17748, 1.17669, 1.18819, 1.53169, 1.1829, 1.18954, 1.25128, 1.23006, 1.20814, 1.21274, 1.21291, 1.21224, 1.21212, 1.21353, 1.21234, 1.21272, 1.21351, 1.21253, 1.21148, 1.21153, 1.2102, 1.2293, 1.23054, 1.23228, 1.24138, 1.25401, 1.25555, 1.28481, 1.34312, 1.32935, 1.29277, 1.29098, 1.28948, 1.28925, 1.28319, 1.282, 1.28472, 1.28841, 1.26927, 1.27029, 1.28075, 1.29007, 1.30021, 1.29171, 1.2861, 1.28551, 1.28537, 1.28703, 1.28658, 1.28507, 1.4036, 1.27529, 1.27461, 1.27501, 1.27053, 1.2663, 1.26679, 1.26535, 1.26531, 1.26588, 1.26319, 1.26056, 1.25985, 1.2578, 1.25807, 1.25839, 1.25863, 1.25915, 1.25688, 1.25639, 1.25545, 1.25559, 1.25535, 1.25099, 1.25044, 1.25653, 1.25775, 1.25889, 1.25912, 1.26224, 1.26074, 1.2598, 1.2622, 1.26715, 1.26576, 1.27921, 1.27878, 1.27842, 1.28708, 1.31598, 1.37063, 1.33062, 1.37809, 1.34149, 1.34069, 1.34704, 1.36056, 1.36078, 1.36157, 1.35984, 1.34069, 1.33798, 1.3368, 1.32562, 1.32381, 1.32568, 1.32547, 1.32529, 1.32968, 1.38286, 1.33627, 1.39604, 1.34956, 1.35711, 1.36216, 1.36331, 1.36828, 1.36788, 1.42401, 1.43654, 1.39365, 1.39302, 1.39541, 1.45107, 1.44836, 1.46743, 1.5193, 1.54653, 1.5473, 1.56147, 1.53312, 1.53391, 1.53495, 1.54599, 1.54587, 1.54516, 1.55106, 1.54769, 1.64176, 1.61992, 1.61303, 1.57936, 1.59574, 1.6341, 1.58781, 1.59893, 1.68883, 1.71805, 1.58523, 1.59017, 1.59611, 1.59578, 1.59878, 1.60852, 1.60018, 1.60004, 1.62498, 1.61404, 1.61585, 1.6318, 1.61919, 1.61854, 1.61912, 1.61872, 1.62473, 1.63658, 1.6353, 1.63458, 1.63478, 1.63348, 1.63294, 1.64578, 1.60926, 1.6171, 2.07597, 1.65452, 1.63363, 1.63568, 1.63437, 1.71302, 1.98035, 1.66104, 1.65997, 1.66479, 1.66332, 1.66341, 1.66224, 1.66137, 1.66859, 1.66833, 1.70588, 1.64722, 1.64622, 1.64585, 1.6419, 1.73689, 1.64136, 1.64067, 1.63976, 1.63907, 1.63699, 1.63316, 1.63723, 1.65847, 1.65531, 1.6547, 1.77658, 1.78267, 1.80726, 1.71656, 1.71615, 1.7966, 1.75915, 1.74478, 1.94448, 1.92606, 1.79392, 1.80231, 1.80018, 1.79269, 1.78949, 1.76889, 1.74064
0.963445, 1.01182, 0.93769, 0.940587, 0.953852, 0.954261, 0.96617, 1.08346, 1.06397, 0.983418, 1.05787, 1.05751, 1.05711, 1.09353, 1.06788, 1.12917, 1.03188, 1.0318, 1.03562, 1.05297, 1.16302, 1.0469, 1.14024, 1.15051, 1.02925, 1.03136, 1.03773, 1.03852, 1.21929, 1.06331, 1.12615, 1.12, 1.20854, 1.15945, 1.13991, 1.17022, 1.19721, 1.19793, 1.19213, 1.21198, 1.22581, 1.22378, 1.20186, 1.15599, 1.18217, 1.17166, 1.16593, 1.17157, 1.18054, 1.178, 1.3642, 1.17686, 1.17438, 1.18584, 1.18317, 1.18366, 1.18609, 1.18583, 1.18278, 1.18183, 1.18213, 1.18769, 1.16658, 1.16247, 1.16055, 1.17253, 1.16057, 1.16088, 1.16735, 1.16871, 1.1741, 1.1743, 1.17718, 1.17651, 1.17625, 1.1744, 1.19162, 1.14856, 1.18793, 1.18339, 1.18793, 1.18826, 1.23235, 1.23919, 1.20706, 1.41934, 1.21434, 1.21371, 1.21334, 1.21008, 1.21163, 1.21336, 1.21755, 1.22983, 1.2196, 1.21971, 1.23272, 1.21614, 1.22409, 1.23039, 1.23073, 1.26692, 1.25072, 1.28243, 1.28699, 1.273, 1.324, 1.2877, 1.2874, 1.2899, 1.29028, 1.28481, 1.28231, 1.27688, 1.2742, 1.27005, 1.26972, 1.27726, 1.2772, 1.27978, 1.27836, 1.27761, 1.28443, 1.28375, 1.2837, 1.28147, 1.29008, 1.27917, 1.39278, 1.26851, 1.26384, 1.26387, 1.26472, 1.26797, 1.26731, 1.25681, 1.26753, 1.26193, 1.25983, 1.25742, 1.2564, 1.25778, 1.25338, 1.25329, 1.25325, 1.25534, 1.25473, 1.25662, 1.25577, 1.25691, 1.247, 1.24711, 1.25178, 1.25488, 1.25431, 1.25402, 1.25566, 1.25648, 1.25498, 1.25383, 1.25748, 1.25685, 1.26196, 1.27206, 1.27089, 1.28291, 1.29442, 1.30955, 1.40571, 1.41095, 1.33295, 1.34658, 1.34702, 1.3559, 1.35999, 1.35879, 1.36054, 1.34991, 1.61933, 1.32572, 1.31981, 1.32023, 1.32609, 1.32287, 1.32212, 1.3261, 1.33071, 1.32827, 1.33152, 1.44044, 1.36151, 1.35139, 1.47736, 1.47587, 1.5128, 1.45973, 1.40199, 1.42364, 1.44298, 1.46127, 1.46936, 1.47116, 1.46979, 1.51787, 1.51767, 1.62215, 1.61708, 1.64931, 1.54972, 1.54852, 1.54949, 1.64721, 1.64681, 1.64624, 1.53283, 1.5411, 1.68413, 1.55823, 0.00456628, 1.56918, 1.57481, 1.57628, 1.56566, 1.63039, 1.82544, 1.82403, 1.59083, 1.5949, 1.59341, 1.59239, 1.59332, 1.61424, 1.60781, 1.60382, 1.61062, 1.61459, 1.61407, 1.61567, 1.62025, 1.62007, 1.62613, 1.62482, 1.63322, 1.6318, 1.63054, 1.62636, 1.62386, 1.61999, 1.61626, 1.61231, 1.611, 1.6101, 1.61, 1.6287, 1.63751, 2.01832, 1.9906, 1.9898, 1.65125, 1.65032, 1.65095, 1.65842, 1.65833, 1.6584, 1.6583, 1.66201, 1.66461, 1.66408, 1.66477, 1.64776, 1.64123, 1.64355, 1.64168, 1.63302, 1.63364, 1.63262, 1.62705, 1.63218, 1.632, 1.72754, 1.65018, 1.65173, 1.64898, 1.65089, 1.66073, 1.6598, 1.6897, 1.68898, 1.81135, 1.81608, 1.70759, 1.80737, 1.74368, 1.79015, 1.76766, 1.78236, 1.75425, 1.76566, 1.79319, 1.73845
0.916241, 1.01946, 0.991157, 0.941252, 1.02341, 1.04662, 1.03609, 1.02216, 1.2082, 1.01703, 1.02586, 1.0045, 1.14379, 1.05443, 1.02641, 1.02649, 1.02973, 1.04008, 1.0398, 1.14721, 1.18303, 1.05024, 1.04875, 1.04239, 1.04018, 1.03801, 1.03482, 1.03474, 1.09914, 1.09803, 1.08136, 1.21932, 1.11965, 1.13317, 1.18501, 1.19243, 1.15717, 1.40383, 1.19311, 1.18855, 1.20937, 1.67305, 1.16422, 1.14513, 1.14769, 1.15296, 1.15293, 1.17493, 1.18036, 1.18131, 1.1996, 1.20532, 1.18565, 1.17378, 1.17595, 1.17774, 1.17911, 1.17985, 1.17766, 1.18135, 1.28528, 1.15837, 1.1581, 1.15721, 1.15835, 1.15829, 1.15989, 1.16019, 1.1611, 1.16449, 1.16974, 1.17412, 1.17072, 1.17208, 1.17143, 1.21011, 1.1561, 1.1555, 1.15527, 1.17524, 1.18392, 1.18875, 1.19902, 1.20374, 1.20426, 1.208, 1.21591, 1.2168, 1.2183, 1.21533, 1.21587, 1.21329, 1.21302, 1.21951, 1.22077, 1.22239, 1.22192, 1.21997, 1.22197, 1.22686, 1.2649, 1.27644, 1.26028, 1.27156, 1.2604, 1.26217, 1.33388, 1.3332, 1.28716, 1.28853, 1.28898, 1.28265, 1.28089, 1.28089, 1.27729, 1.3046, 1.25941, 1.30114, 1.32089, 1.29978, 1.29794, 1.26144, 1.31279, 1.27452, 1.2703, 1.27343, 1.28079, 1.28532, 1.26166, 1.26013, 1.26013, 1.26008, 1.25052, 1.25191, 1.25167, 1.25792, 1.25653, 1.25621, 1.25653, 1.25662, 1.24659, 1.24626, 1.24511, 1.24422, 1.24904, 1.2492, 1.24684, 1.2471, 1.24734, 1.24727, 1.24732, 1.24756, 1.24619, 1.2451, 1.2446, 1.24074, 1.2447, 1.2472, 1.25078, 1.25297, 1.25265, 1.25319, 1.26535, 1.33812, 1.27948, 1.27951, 1.28083, 1.30856, 1.29431, 1.36985, 1.35021, 1.40982, 1.34057, 1.35082, 1.35683, 1.36105, 1.37471, 1.3441, 1.37108, 1.36723, 1.31435, 1.30966, 1.3092, 1.33713, 1.37726, 1.30983, 1.36541, 1.3219, 1.33217, 1.33169, 1.33272, 1.4422, 1.47045, 1.35499, 1.35413, 1.40675, 1.4101, 1.48259, 1.49044, 1.42806, 1.43549, 1.43537, 1.49616, 1.48386, 1.48923, 1.48846, 1.56351, 0.0043421, 1.5568, 1.51969, 1.52011, 1.52054, 1.51935, 1.52044, 1.61131, 1.53353, 1.71086, 1.55191, 1.55749, 1.55648, 1.55614, 1.562, 1.56198, 1.56019, 1.59773, 1.59245, 1.59211, 1.59248, 1.58619, 1.58542, 1.58914, 1.5918, 1.58509, 1.58476, 1.61268, 1.6174, 1.61831, 1.61941, 1.61926, 1.61629, 1.61511, 1.61599, 1.62176, 1.64429, 1.62772, 1.62149, 1.61985, 1.61948, 1.82005, 1.60851, 1.61251, 1.61112, 1.61207, 1.61214, 1.61083, 1.6869, 1.6385, 1.64443, 1.65536, 1.65565, 1.66113, 1.66224, 1.66247, 1.66198, 1.66124, 1.65892, 1.66435, 1.66305, 1.66224, 1.65756, 1.65635, 1.64393, 1.67177, 1.758, 1.61859, 1.62252, 1.62167, 1.62665, 1.62445, 1.64026, 1.70354, 1.65577, 1.80042, 1.65313, 1.66071, 1.66105, 1.83918, 1.68123, 1.68056, 1.68133, 1.73452, 1.78001, 1.78054, 1.77925, 1.77825, 1.67054, 1.66587, 1.66726, 1.78661, 1.6615
0.929221, 0.927639, 0.926282, 0.981315, 1.06402, 1.04765, 1.04953, 1.01613, 1.05626, 1.04565, 1.04599, 1.0049, 1.0894, 1.02263, 1.02334, 1.02691, 1.02723, 1.17397, 1.17502, 1.05322, 1.20821, 1.16369, 1.05746, 1.05025, 1.0477, 1.04569, 1.04299, 1.04257, 1.04267, 1.13662, 1.15151, 1.14509, 1.16598, 1.16616, 1.16488, 1.14357, 1.18318, 1.18539, 1.16049, 1.15778, 1.21156, 1.15265, 1.14591, 1.13943, 1.13907, 1.13914, 1.14251, 1.14349, 1.23043, 1.15185, 1.15573, 1.15224, 1.16181, 1.16469, 1.16587, 1.16649, 1.16749, 1.41585, 1.16507, 1.16046, 1.15857, 1.15708, 1.15948, 1.15583, 1.15092, 1.16349, 1.15393, 1.15405, 1.15445, 1.16022, 1.16414, 1.16451, 1.16405, 1.16685, 1.16741, 1.1632, 1.15522, 1.153, 1.15289, 1.15193, 1.16503, 1.16796, 1.1922, 1.24526, 1.20554, 1.21314, 1.20638, 1.25691, 1.21754, 1.21662, 1.21664, 1.2187, 1.21803, 1.21768, 1.21636, 1.21748, 1.21857, 1.22234, 1.22216, 1.2429, 1.24159, 1.2586, 1.25771, 1.26171, 1.35996, 1.2642, 1.26723, 1.30898, 1.29063, 1.29102, 1.28591, 1.27956, 1.27878, 1.311, 1.30119, 1.24958, 1.26031, 1.26059, 1.25151, 1.25502, 1.25552, 1.25464, 1.25464, 1.26083, 1.2521, 1.25287, 1.25362, 1.25736, 1.26423, 1.25659, 1.25049, 1.24962, 1.24966, 1.24965, 1.25188, 1.25371, 1.2597, 1.25455, 1.25333, 1.25076, 1.25077, 1.25039, 1.2439, 1.24405, 1.24169, 1.24183, 1.23359, 1.23265, 1.23281, 1.24503, 1.24432, 1.24447, 1.24315, 1.24193, 1.23652, 1.23566, 1.23679, 1.24251, 1.24144, 1.24219, 1.24293, 1.252, 1.25289, 1.25337, 1.36465, 1.27909, 1.2796, 1.28558, 1.31024, 1.35589, 1.31286, 1.33214, 1.32958, 1.34351, 1.32678, 1.37092, 1.34748, 1.37732, 1.36989, 1.37042, 1.30182, 1.30124, 1.30502, 1.30473, 1.30305, 1.31094, 1.31284, 1.31893, 1.31953, 1.32664, 1.43023, 1.34329, 1.43711, 1.45935, 1.44446, 1.4138, 1.44885, 1.46777, 1.42434, 1.42444, 1.43172, 1.43271, 1.434, 1.50704, 1.5811, 1.47876, 1.55987, 1.56199, 1.52329, 1.52198, 1.52065, 1.52193, 1.52121, 1.52393, 1.53454, 1.53483, 1.53782, 1.53854, 1.54406, 1.54724, 1.55695, 1.55423, 1.55796, 1.56501, 1.62026, 1.57244, 1.57553, 1.60634, 2.21106, 1.57601, 1.57454, 1.58112, 1.57905, 1.57892, 1.60316, 1.60704, 1.60688, 1.81424, 1.61619, 1.6152, 1.61716, 1.61817, 1.62339, 1.62335, 1.62305, 1.61784, 1.61662, 1.61608, 1.63729, 1.59572, 1.59315, 1.59287, 1.6619, 1.66567, 1.6148, 1.62826, 1.95555, 1.94531, 1.69791, 1.803, 1.66952, 1.6681, 1.66756, 1.66386, 1.66132, 1.66011, 1.6641, 1.66238, 1.6594, 1.65862, 1.69655, 1.76221, 1.76319, 1.70119, 1.61621, 1.61324, 1.61529, 1.61578, 1.60311, 1.60309, 1.86153, 1.84479, 1.62928, 1.63485, 1.74447, 1.72942, 1.74513, 1.6616, 1.66135, 1.76563, 1.66521, 1.66415, 1.78875, 1.66872, 1.66468, 1.79624, 1.69397, 1.65222, 1.66669, 1.66189
0.926738, 0.927551, 0.923687, 1.04093, 1.02848, 1.06432, 1.04092, 1.04173, 0.99178, 0.991951, 1.00363, 1.00462, 1.01064, 1.00968, 1.17364, 1.02122, 1.17154, 1.15835, 1.05253, 1.05227, 1.14233, 1.06352, 1.06367, 1.06754, 1.19071, 1.18774, 1.18987, 1.05545, 1.05649, 1.05617, 1.17813, 1.17183, 1.19381, 1.18188, 1.18533, 1.17773, 1.18202, 1.18105, 1.17991, 1.15699, 1.15725, 1.15739, 1.15924, 1.15222, 1.15082, 1.17785, 1.12902, 1.19261, 1.13623, 1.17093, 1.14711, 1.18253, 1.16235, 1.16312, 1.16002, 1.16021, 1.16018, 1.15979, 1.16035, 1.16229, 1.16221, 1.16156, 1.14827, 1.14792, 1.14444, 1.14375, 1.14601, 1.15757, 1.15649, 1.15512, 1.15662, 1.16659, 1.16159, 1.15591, 1.15344, 1.15328, 1.15344, 1.14905, 1.14897, 1.14878, 1.14879, 1.16863, 1.18561, 1.20652, 1.19882, 1.2018, 1.20138, 1.20251, 1.20535, 1.21746, 1.21618, 1.21845, 1.21676, 1.21637, 1.21293, 1.2151, 1.22171, 1.22374, 1.23146, 1.23935, 1.25492, 1.2613, 1.25911, 1.24623, 1.24728, 1.25334, 1.25612, 1.41218, 1.30483, 1.28111, 1.2812, 1.27807, 1.27815, 1.30434, 1.26377, 1.25996, 1.25946, 1.25674, 1.25554, 1.25532, 1.25442, 1.24891, 1.24895, 1.2483, 1.24465, 1.2437, 1.27006, 1.31168, 1.31241, 1.24263, 1.24947, 1.24991, 1.25087, 1.25357, 1.25354, 1.24896, 1.24893, 1.24628, 1.247, 1.24566, 1.24643, 1.24641, 1.2384, 1.2338, 1.23643, 1.23083, 1.22568, 1.22317, 1.23065, 1.23143, 1.23427, 1.23404, 1.23218, 1.23247, 1.23328, 1.23501, 1.23306, 1.2324, 1.23318, 1.23816, 1.26168, 1.242, 1.24844, 1.26077, 1.26065, 1.284, 1.28132, 1.28401, 1.28002, 1.28273, 1.28329, 1.66119, 1.2911, 1.29196, 1.35357, 1.36479, 1.38519, 1.4, 1.30544, 1.30148, 1.30121, 1.29801, 1.29866, 1.30555, 1.30608, 1.30833, 1.31229, 1.31324, 1.32556, 1.3194, 1.43679, 1.39579, 1.46413, 1.38822, 1.38801, 1.38793, 1.38985, 1.39821, 1.42504, 1.425, 1.42492, 1.43722, 1.43614, 1.43642, 1.48894, 1.471, 1.52686, 1.49841, 1.51914, 1.51979, 1.522, 1.5241, 1.52826, 1.53713, 1.53673, 1.53668, 1.53624, 1.54453, 1.54866, 1.54967, 1.54879, 1.55191, 1.56522, 1.5634, 1.56332, 1.57444, 1.57399, 1.57338, 1.56768, 1.56729, 1.57155, 1.57915, 1.57808, 1.58213, 1.58141, 1.60876, 1.60632, 1.61289, 1.62074, 1.65179, 1.62786, 1.62731, 1.62614, 1.62303, 1.62035, 1.61977, 1.64023, 1.63985, 1.58719, 1.58718, 1.58949, 1.58994, 1.70345, 1.6928, 1.68695, 1.67169, 1.6938, 1.96893, 1.67877, 1.70653, 1.67111, 1.66943, 1.66967, 1.66863, 1.66687, 1.66594, 1.67197, 1.6788, 1.67237, 1.67145, 1.81003, 1.73767, 1.7386, 1.73667, 1.62419, 1.61677, 1.61625, 1.60686, 1.59668, 1.59686, 1.60583, 1.60347, 1.63647, 1.63314, 1.77912, 1.63973, 1.76453, 1.6585, 1.6639, 1.66297, 1.7414, 1.79907, 1.76086, 1.78675, 1.72149, 1.63024, 1.62984, 1.63779, 1.64146, 1.65781
0.920893, 0.919134, 1.01863, 1.02583, 1.00301, 1.02495, 1.01514, 1.08068, 1.12904, 1.0504, 0.996342, 1.09383, 1.08071, 1.22435, 1.16797, 1.12568, 1.12303, 1.10657, 1.05366, 1.05369, 1.05755, 1.06733, 1.07052, 1.06783, 1.07106, 1.07071, 1.07048, 1.06624, 1.18882, 1.18555, 1.18182, 1.14387, 1.07669, 1.17272, 1.2011, 1.08512, 1.20157, 1.1326, 1.13591, 1.152, 1.17482, 1.15614, 1.15429, 1.15175, 1.15185, 1.16193, 1.17348, 1.132, 1.1327, 1.13759, 1.14009, 1.14788, 1.15377, 1.15229, 1.15048, 1.15123, 1.1507, 1.1522, 1.15187, 1.1571, 1.15317, 1.15223, 1.14686, 1.14889, 1.14697, 1.14567, 1.1437, 1.14419, 1.1435, 1.148, 1.15724, 1.15751, 1.15647, 1.15325, 1.15309, 1.15554, 1.15701, 1.15361, 1.14853, 1.14623, 1.14686, 1.16532, 1.18487, 1.18717, 1.20958, 1.20977, 1.20932, 1.21418, 1.25003, 1.21881, 1.21917, 1.21854, 1.2185, 1.21932, 1.21882, 1.43027, 1.22494, 1.22709, 1.41626, 1.41866, 1.23874, 1.23961, 1.24292, 1.24692, 1.24837, 1.24907, 1.25215, 1.30973, 1.31023, 1.28302, 1.28242, 1.28137, 1.27912, 1.27884, 1.26479, 1.26164, 1.26193, 1.26271, 1.26125, 1.25442, 1.29044, 1.24308, 1.2423, 1.30907, 1.29607, 1.29238, 1.22173, 1.22183, 1.22638, 1.23011, 1.27449, 1.24557, 1.2471, 1.24915, 1.24787, 1.24809, 1.265, 1.23858, 1.24583, 1.24363, 1.24365, 1.23937, 1.23907, 1.23741, 1.23642, 1.22964, 1.22792, 1.22756, 1.22808, 1.23192, 1.22569, 1.22617, 1.22617, 1.22613, 1.23348, 1.23355, 1.23198, 1.22705, 1.22802, 1.27481, 1.24316, 1.24351, 1.2462, 1.25467, 1.30813, 1.27445, 1.27896, 1.27902, 1.28418, 1.28547, 1.28442, 1.28431, 1.28487, 1.28676, 1.2856, 1.29642, 1.29599, 1.29395, 1.29759, 1.29479, 1.29458, 1.29662, 1.29844, 1.30208, 1.3077, 1.30742, 1.30944, 1.32955, 1.3287, 1.32997, 1.36824, 1.39951, 1.52399, 1.38948, 1.38939, 1.38653, 1.39167, 1.46183, 1.42309, 1.42232, 1.43139, 1.43037, 1.43599, 1.44301, 1.44734, 1.45111, 1.53048, 1.5135, 1.50583, 1.49871, 1.50581, 1.67244, 1.65206, 1.53598, 1.53422, 1.53439, 1.54429, 1.54375, 1.54167, 1.55464, 1.55192, 1.54818, 1.54725, 1.74714, 1.56404, 1.56435, 1.56555, 1.57555, 1.71696, 1.55631, 1.56588, 1.56667, 1.57606, 1.57464, 1.6003, 1.60092, 1.60656, 1.60673, 1.66896, 1.62488, 1.62998, 1.62931, 1.62647, 1.60501, 1.60317, 1.60227, 1.58972, 1.58924, 1.58065, 1.57988, 1.58025, 1.57912, 1.57785, 1.70258, 1.69156, 1.63914, 1.66479, 1.64245, 1.64495, 1.65007, 1.87617, 1.67955, 1.67814, 1.67217, 1.67085, 1.66876, 1.67531, 1.676, 1.67954, 1.67927, 1.6837, 1.7097, 1.65471, 1.6419, 1.64238, 1.68474, 1.74167, 1.65966, 1.60055, 1.60097, 1.60922, 1.60858, 1.60849, 1.66823, 1.65961, 1.66479, 1.78749, 1.80356, 1.65946, 1.79652, 1.79983, 1.69183, 1.65127, 1.64006, 1.74087, 1.63598, 1.73394, 1.63049, 1.68398, 1.61696
0.978054, 1.02916, 1.04881, 1.01594, 1.02171, 0.964631, 1.04544, 1.04414, 1.06229, 1.04241, 1.09929, 1.01905, 1.03575, 1.03037, 1.07392, 1.04231, 1.07108, 1.05577, 1.05448, 1.0555, 1.05855, 1.06092, 1.06141, 1.24965, 1.23845, 1.12198, 1.13578, 1.05996, 1.06409, 1.2074, 1.18858, 1.05984, 1.05885, 1.06069, 1.06156, 1.06453, 1.18197, 1.1841, 1.15119, 1.18097, 1.17154, 1.18038, 1.15948, 1.27232, 1.15677, 1.15846, 1.13373, 1.13368, 1.13045, 1.12985, 1.13284, 1.13677, 1.13931, 1.13958, 1.14503, 1.14502, 1.14744, 1.15016, 1.15105, 1.14944, 1.14802, 1.14769, 1.14284, 1.14089, 1.14278, 1.14303, 1.14142, 1.14299, 1.14077, 1.14535, 1.147, 1.14808, 1.14915, 1.14994, 1.16698, 1.15943, 1.16029, 1.16002, 1.15999, 1.14761, 1.14902, 1.15395, 1.15603, 1.16881, 1.17265, 1.24365, 1.24442, 1.21546, 1.22278, 1.22524, 1.22601, 1.22422, 1.44703, 1.21787, 1.21867, 1.21975, 1.21912, 1.23008, 1.23229, 1.23547, 1.23488, 1.23622, 1.23551, 1.2321, 1.23251, 1.23751, 1.35071, 1.34502, 1.33318, 1.32942, 1.29781, 1.28113, 1.28068, 1.2814, 1.29211, 1.26233, 1.26168, 1.26118, 1.26609, 1.26946, 1.24142, 1.23224, 1.23147, 1.23135, 1.21776, 1.21724, 1.19492, 1.1952, 1.22917, 1.22747, 1.22914, 1.27692, 1.25009, 1.2509, 1.27538, 1.27902, 1.23558, 1.23301, 1.23435, 1.237, 1.23796, 1.23822, 1.2371, 1.27767, 1.22629, 1.22901, 1.22617, 1.22654, 1.22621, 1.22444, 1.22407, 1.22468, 1.22119, 1.22118, 1.22207, 1.22375, 1.22993, 1.22592, 1.22679, 1.23678, 1.23674, 1.23971, 1.24903, 1.27762, 1.26192, 1.28004, 1.27729, 1.27698, 1.28135, 1.28146, 1.28505, 1.28813, 1.28626, 1.2826, 1.28176, 1.28441, 1.28617, 1.28766, 1.28842, 1.29556, 1.29652, 1.29968, 1.29924, 1.29887, 1.3034, 1.30889, 1.31372, 1.32535, 1.32472, 1.33708, 1.36091, 1.39141, 1.39512, 1.39444, 1.39411, 1.3886, 1.39497, 1.50385, 1.49165, 1.48629, 1.43862, 1.50086, 1.43426, 1.49843, 1.45314, 1.45405, 1.4533, 1.46369, 1.48754, 1.48849, 1.49263, 1.49328, 1.50515, 1.52146, 1.52254, 1.58996, 1.58894, 2.32565, 1.53494, 1.54132, 1.54094, 1.54054, 1.5412, 1.71131, 1.53646, 1.5361, 1.53443, 1.55059, 1.55338, 1.55396, 1.55387, 1.57082, 1.57539, 1.57482, 1.71901, 1.60272, 1.59608, 1.60563, 1.65985, 1.60984, 1.60347, 1.60621, 1.60412, 1.60248, 1.60718, 1.59938, 1.59143, 1.58978, 1.58185, 1.57922, 1.57756, 1.57429, 1.56969, 1.56799, 1.68941, 1.68972, 1.68866, 1.88019, 1.8836, 1.64439, 1.64223, 1.64467, 1.6509, 1.66941, 1.66926, 1.66898, 1.67288, 1.67932, 1.67794, 1.67723, 1.67473, 1.82037, 1.71938, 1.65695, 1.74465, 1.64229, 1.65228, 1.64111, 1.67545, 1.61559, 1.61066, 1.60897, 1.60608, 1.59903, 1.59817, 1.7113, 1.65272, 1.70222, 1.78022, 1.65107, 1.60214, 1.60308, 1.68329, 1.75163, 1.79289, 1.58205, 1.58517, 1.58112, 1.65678, 1.60031
0.919953, 1.01615, 1.04054, 1.05366, 1.07899, 1.00014, 1.02381, 1.10154, 1.08848, 1.06189, 1.01368, 1.08153, 1.04962, 1.04748, 1.043, 1.04122, 1.0461, 1.06156, 1.05237, 1.05313, 1.05457, 1.05642, 1.12042, 1.05101, 1.05089, 1.05197, 1.09766, 1.14091, 1.18423, 1.11976, 1.10235, 1.16144, 1.05338, 1.05344, 1.05373, 1.05285, 1.06472, 1.13283, 1.17872, 1.16785, 1.17532, 1.15019, 1.15034, 1.14865, 1.12535, 1.12522, 1.12503, 1.12865, 1.12901, 1.13076, 1.13049, 1.1305, 1.14239, 1.13339, 1.13305, 1.1361, 1.14163, 1.13993, 1.14041, 1.14294, 1.13577, 1.13468, 1.13698, 1.13918, 1.13992, 1.14277, 1.14728, 1.14728, 1.14783, 1.14881, 1.14849, 1.15086, 1.15087, 1.15124, 1.15673, 1.15974, 1.16095, 1.16547, 1.17297, 1.15545, 1.15063, 1.15144, 1.15036, 1.15947, 1.15842, 1.18392, 1.18444, 1.21391, 1.48472, 1.22613, 1.22779, 1.22792, 1.23014, 1.44611, 1.20945, 1.21023, 1.43595, 1.23658, 1.23428, 1.23493, 1.23581, 1.23539, 1.23707, 1.23214, 1.23222, 1.23061, 1.23244, 1.23934, 1.33404, 1.25121, 1.2501, 1.25922, 1.27249, 1.27707, 1.27413, 1.26832, 1.27738, 1.2634, 1.27781, 1.25888, 1.29344, 1.31428, 1.23136, 1.23107, 1.22939, 1.21191, 1.21208, 1.19479, 1.19192, 1.24714, 1.20901, 1.21538, 1.21438, 1.21564, 1.21647, 1.21779, 1.22004, 1.22207, 1.22923, 1.29113, 1.29189, 1.23301, 1.22941, 1.22493, 1.26177, 1.21905, 1.22177, 1.21999, 1.22025, 1.22127, 1.22052, 1.22201, 1.22427, 1.22512, 1.22332, 1.22932, 1.23046, 1.22653, 1.23048, 1.23669, 1.23857, 1.2465, 1.24687, 1.25228, 1.25418, 1.26454, 1.26348, 1.29597, 1.27266, 1.27293, 1.27259, 1.27171, 1.27383, 1.27809, 1.27809, 1.28233, 1.28753, 1.28786, 1.29424, 1.29485, 1.30143, 1.30163, 1.30271, 1.2995, 1.30253, 1.32639, 1.32407, 1.33005, 1.33424, 1.33438, 1.42685, 1.42656, 1.4109, 1.4171, 1.3959, 1.39691, 1.50977, 1.49282, 1.48289, 1.47709, 1.45046, 1.44803, 1.44921, 1.4444, 1.45099, 1.45102, 1.46026, 1.45871, 1.45892, 1.48449, 1.47943, 1.47941, 1.51638, 1.49926, 1.50899, 1.51922, 1.52032, 1.52935, 1.5294, 1.52779, 1.52924, 1.53025, 1.53198, 1.52792, 1.52785, 1.53596, 1.54013, 1.55484, 1.55325, 1.55225, 1.56865, 1.56187, 1.6138, 1.6166, 1.58945, 1.65015, 1.58476, 1.76735, 1.59275, 1.59434, 1.59892, 1.59839, 1.59917, 1.59389, 1.73217, 1.67382, 1.56988, 1.5692, 1.58543, 1.58484, 1.58477, 1.57509, 1.57544, 1.57465, 1.57477, 1.61067, 1.63333, 1.89744, 1.89692, 1.89323, 1.64676, 1.65406, 1.65629, 1.71505, 1.66898, 1.73446, 1.67579, 1.67587, 1.67483, 1.67182, 1.67163, 1.67084, 1.74212, 1.7244, 1.65329, 1.64977, 1.65016, 1.80274, 1.68318, 1.61086, 1.6095, 1.60883, 1.60647, 1.60461, 1.60798, 1.60885, 1.61828, 1.61574, 1.61074, 1.60838, 1.60039, 1.59951, 1.59902, 1.58288, 1.58119, 1.5805, 1.58429, 1.58838, 1.58625, 1.60084
0.921525, 1.00734, 1.00832, 1.0809, 1.05617, 1.07901, 0.991047, 1.04625, 1.15341, 1.04772, 1.01525, 1.03381, 1.08758, 1.09749, 1.09348, 1.11885, 1.04266, 1.07183, 1.04985, 1.04802, 1.06822, 1.05244, 1.0515, 1.05155, 1.05651, 1.0484, 1.16063, 1.04114, 1.1538, 1.17296, 1.23416, 1.19881, 1.22691, 1.0493, 1.05924, 1.06016, 1.04259, 1.13892, 1.0584, 1.17747, 1.17743, 1.12202, 1.13885, 1.1303, 1.21642, 1.12476, 1.12395, 1.12556, 1.13886, 1.13304, 1.13093, 1.12909, 1.1292, 1.12945, 1.13146, 1.13667, 1.14247, 1.1425, 1.14234, 1.14251, 1.14146, 1.13908, 1.13812, 1.14147, 1.14238, 1.14302, 1.14547, 1.14787, 1.14894, 1.14916, 1.15207, 1.16012, 1.16078, 1.16184, 1.16301, 1.16272, 1.16153, 1.16159, 1.15944, 1.15973, 1.15545, 1.15066, 1.14891, 1.183, 1.1952, 1.18192, 1.19505, 1.2012, 1.21066, 1.23566, 1.21695, 1.21522, 1.20866, 1.20813, 1.20965, 1.21081, 1.21631, 1.21999, 1.22051, 1.42139, 1.22769, 1.22866, 1.22651, 1.22612, 1.22826, 1.23259, 1.24115, 1.24183, 1.24073, 1.24046, 1.28897, 1.30037, 1.2769, 1.27564, 1.27582, 1.27491, 1.27622, 1.27403, 1.27046, 1.26577, 1.26456, 1.29182, 1.27885, 1.24347, 1.30687, 1.28687, 1.21101, 1.21087, 1.21174, 1.20927, 1.21125, 1.21151, 1.21124, 1.21206, 1.21277, 1.25225, 1.21842, 1.2183, 1.29318, 1.21333, 1.21565, 1.21588, 1.21502, 1.21204, 1.20933, 1.21192, 1.2116, 1.21825, 1.2218, 1.22155, 1.22296, 1.22394, 1.22445, 1.22993, 1.23193, 1.23777, 1.24224, 1.24193, 1.24268, 1.24169, 1.24301, 1.24554, 1.25262, 1.25219, 1.25456, 1.25985, 1.26, 1.26679, 1.26762, 1.26869, 1.26786, 1.26967, 1.27113, 1.27769, 1.27706, 1.28769, 1.28812, 1.29857, 1.29846, 1.30194, 1.30298, 1.30517, 1.30536, 1.30574, 1.29971, 1.44473, 1.32571, 1.32478, 1.32424, 1.33383, 1.4267, 1.36691, 1.38553, 1.46452, 1.43359, 1.43166, 1.41407, 1.50054, 1.45387, 1.4785, 1.47897, 1.45302, 1.45162, 1.45078, 1.45128, 1.4543, 1.45731, 1.45796, 1.45479, 1.44898, 1.44907, 1.45352, 1.50295, 1.48155, 1.51485, 1.49976, 1.49951, 1.51249, 1.52374, 1.53191, 1.53275, 1.53107, 1.52838, 1.53317, 1.53335, 1.5458, 1.55375, 1.55433, 1.55792, 1.55058, 1.58302, 1.8221, 1.57176, 1.57454, 1.57435, 1.57446, 1.57245, 1.57105, 1.58402, 1.59039, 1.59071, 1.59662, 1.59646, 1.58731, 1.58555, 1.58359, 1.5842, 1.58877, 1.58708, 1.58742, 1.58683, 1.58331, 1.58284, 1.59222, 1.62917, 1.63469, 1.61365, 1.92238, 1.91002, 1.89688, 1.63945, 1.64027, 1.64012, 1.65952, 1.66316, 1.78992, 1.67952, 1.67763, 1.67731, 1.67653, 1.67564, 1.85871, 1.65256, 1.64501, 1.64382, 1.64238, 1.64107, 1.73685, 1.84126, 1.78195, 1.61235, 1.61046, 1.60899, 1.61008, 1.61324, 1.61353, 1.61513, 1.619, 1.75185, 1.73474, 1.59657, 1.59559, 1.58806, 1.5882, 1.58272, 1.58119, 1.58227, 1.58369, 1.58376, 1.58239
0.927889, 1.02247, 0.984798, 1.09287, 1.06323, 1.06089, 1.06106, 1.08504, 1.02039, 1.09185, 1.01939, 1.10446, 1.08029, 1.02884, 1.08572, 1.03583, 1.03606, 1.08498, 1.04152, 1.08222, 1.04489, 1.0732, 1.07921, 1.03754, 1.03693, 1.06442, 1.06209, 1.0293, 1.16979, 1.02672, 1.03002, 1.03068, 1.03287, 1.24126, 1.04339, 1.04251, 1.04061, 1.03645, 1.03472, 1.03445, 1.10997, 1.17138, 1.16188, 1.16323, 1.15753, 1.14762, 1.14721, 1.15704, 1.14039, 1.13665, 1.13911, 1.13832, 1.13759, 1.14102, 1.25796, 1.14666, 1.14742, 1.14752, 1.14652, 1.14602, 1.14556, 1.14391, 1.14127, 1.14169, 1.14195, 1.1438, 1.14597, 1.14671, 1.14969, 1.15047, 1.15034, 1.15161, 1.16473, 1.1638, 1.16317, 1.163, 1.16014, 1.15897, 1.15952, 1.15958, 1.15946, 1.16358, 1.16291, 1.16347, 1.20878, 1.18504, 1.20142, 1.21147, 1.20963, 1.20896, 1.2103, 1.21182, 1.21172, 1.21288, 1.21453, 1.21562, 1.21342, 1.21509, 1.21869, 1.21998, 1.22122, 1.22283, 1.22303, 1.22707, 1.22805, 1.23195, 1.23226, 1.23163, 1.23632, 1.237, 1.23798, 1.31272, 1.2958, 1.27138, 1.27856, 1.27807, 1.27782, 1.27746, 1.2771, 1.27809, 1.27892, 1.26015, 1.25913, 1.25042, 1.25069, 1.29242, 1.29987, 1.24441, 1.31654, 1.21941, 1.21882, 1.22052, 1.22111, 1.21051, 1.21024, 1.20868, 1.20683, 1.20787, 1.21084, 1.21078, 1.21826, 1.21827, 1.21314, 1.21202, 1.2111, 1.21163, 1.21139, 1.21314, 1.21882, 1.22539, 1.22562, 1.2292, 1.23013, 1.23539, 1.23937, 1.23919, 1.23885, 1.24262, 1.24407, 1.24547, 1.24808, 1.24987, 1.25576, 1.26015, 1.2615, 1.26425, 1.26321, 1.26896, 1.26925, 1.27055, 1.27217, 1.27248, 1.28364, 1.32615, 1.31326, 1.29483, 1.29923, 1.30116, 1.30186, 1.30527, 1.30826, 1.308, 1.30616, 1.30697, 1.30623, 1.32941, 1.32591, 1.32572, 1.32922, 1.33155, 1.48587, 1.43727, 1.40245, 1.38219, 1.40986, 1.41222, 1.45906, 1.51374, 1.44163, 1.4846, 1.48531, 1.49142, 1.45216, 1.45742, 1.45675, 1.45691, 1.45687, 1.45517, 1.45249, 1.45175, 1.45269, 1.45347, 1.45354, 1.45669, 1.45549, 1.50845, 1.5066, 1.50737, 1.51604, 1.5158, 1.86815, 1.51957, 1.5267, 1.53361, 1.541, 1.5439, 1.54816, 1.54957, 1.54052, 1.54018, 1.56158, 1.8055, 1.62657, 1.57844, 1.5774, 1.57522, 1.57182, 1.56615, 1.56452, 1.56723, 1.57756, 1.58561, 1.58536, 1.58419, 1.5826, 1.58246, 1.59361, 1.59305, 1.59193, 1.58836, 1.58566, 1.58573, 1.58947, 1.59282, 1.67642, 1.6108, 1.63426, 1.67623, 1.62821, 1.6286, 1.63372, 1.90054, 1.6583, 1.66369, 1.66472, 1.72354, 1.67068, 1.84892, 1.6691, 1.81336, 1.64767, 1.64835, 1.64697, 1.64406, 1.6425, 1.64063, 1.63948, 1.63069, 1.7245, 1.61667, 1.61569, 1.61599, 1.61526, 1.61554, 1.61382, 1.61292, 1.60998, 1.60879, 1.60578, 1.60609, 1.67699, 1.58891, 1.58712, 1.5894, 1.587, 1.592, 1.58582, 1.58477, 1.5834, 1.58045
1.00462, 0.99515, 1.10884, 0.97157, 0.96511, 1.1123, 1.05781, 1.08271, 1.04912, 1.08703, 1.0794, 1.08644, 1.08938, 1.04645, 1.02807, 1.0849, 1.05776, 1.04444, 1.06252, 1.05233, 1.09085, 1.07295, 1.03223, 1.03272, 1.07169, 1.02571, 1.07727, 1.04227, 1.04977, 1.02679, 1.14739, 1.03626, 1.03315, 1.15116, 1.03555, 1.03896, 1.0329, 1.03242, 1.03219, 1.16718, 1.16497, 1.14738, 1.05642, 1.18432, 1.20789, 1.20923, 1.15352, 1.15336, 1.17166, 1.14736, 1.14171, 1.14305, 1.14315, 1.14606, 1.1459, 1.14595, 1.14676, 1.14705, 1.14756, 1.14666, 1.14822, 1.14706, 1.14643, 1.14621, 1.14477, 1.14511, 1.14317, 1.14412, 1.14591, 1.14874, 1.14762, 1.14667, 1.14714, 1.15524, 1.16209, 1.15991, 1.15998, 1.16353, 1.16371, 1.16189, 1.16555, 1.16151, 1.16223, 1.21183, 1.17542, 1.22743, 1.18773, 1.19489, 1.21259, 1.2087, 1.20834, 1.20875, 1.21098, 1.21415, 1.21404, 1.21249, 1.21158, 1.21211, 1.21619, 1.21849, 1.2191, 1.26722, 1.25453, 1.23713, 1.23958, 1.233, 1.23383, 1.23381, 1.23612, 1.23844, 1.2412, 1.24362, 1.31789, 1.27141, 1.27962, 1.27796, 1.27888, 1.27843, 1.27537, 1.27376, 1.27492, 1.27286, 1.25576, 1.25311, 1.25307, 1.25339, 1.25229, 1.25331, 1.30211, 1.30133, 1.29219, 1.29598, 1.22946, 1.21857, 1.21589, 1.21356, 1.21171, 1.21109, 1.2113, 1.21313, 1.21712, 1.21715, 1.21617, 1.21254, 1.21109, 1.21133, 1.21159, 1.21199, 1.21538, 1.22043, 1.22088, 1.25009, 1.23431, 1.23729, 1.23813, 1.23663, 1.23843, 1.24274, 1.24356, 1.24563, 1.24595, 1.24599, 1.24984, 1.25118, 1.25726, 1.26538, 1.26473, 1.26753, 1.26948, 1.27215, 1.27387, 1.27429, 1.2806, 1.28879, 1.28829, 1.29664, 1.29662, 1.30202, 1.3057, 1.306, 1.30952, 1.30921, 1.30484, 1.30569, 1.31048, 1.31215, 1.3328, 1.33138, 1.33305, 1.33374, 1.48514, 1.46912, 1.3782, 1.37063, 1.38104, 1.44092, 1.4958, 1.44074, 1.45796, 1.43377, 1.46104, 1.44031, 1.51188, 1.50713, 1.45882, 1.45874, 1.45827, 1.45722, 1.45316, 1.45217, 1.45324, 1.45464, 1.45679, 1.45689, 1.45626, 1.491, 1.48931, 1.53849, 1.50736, 1.50768, 1.51137, 1.52628, 1.53771, 1.52836, 1.54234, 1.54434, 1.54354, 1.54236, 1.54365, 1.53787, 1.54137, 1.54549, 1.66461, 1.56854, 1.56904, 1.56726, 1.56713, 1.565, 1.56289, 1.56201, 1.56259, 1.58211, 1.58281, 1.58158, 1.58323, 1.69234, 1.60336, 1.60233, 1.596, 1.59305, 1.58659, 1.58578, 1.58491, 1.58392, 1.66106, 1.65479, 1.65206, 1.62698, 1.6183, 1.61726, 1.73045, 1.74274, 1.75458, 1.69079, 1.67765, 1.71428, 1.7212, 1.80068, 1.84391, 1.79828, 1.6502, 1.64844, 1.64741, 1.6455, 1.64158, 1.80884, 1.63306, 1.73065, 1.624, 1.61689, 1.61448, 1.61402, 1.61044, 1.60929, 1.60951, 1.60864, 1.60676, 1.60518, 1.6003, 1.59767, 1.5969, 1.59576, 1.58892, 1.58854, 1.58675, 1.58517, 1.5859, 1.58491, 1.5834, 1.58032
1.00189, 1.00913, 0.994855, 1.02334, 0.971107, 1.07461, 1.08875, 1.03711, 1.05728, 1.08951, 1.00189, 1.09961, 1.06764, 1.08096, 1.07852, 1.03774, 1.02649, 1.0687, 1.02765, 1.04722, 1.04393, 1.06319, 1.06174, 1.00972, 1.01118, 1.04785, 1.00101, 0.999725, 1.00532, 1.00593, 1.01068, 1.02388, 1.0258, 1.02869, 1.02939, 1.16021, 1.03209, 1.03543, 1.13277, 1.13383, 1.05154, 1.05096, 1.0482, 1.04847, 1.04823, 1.21164, 1.21256, 1.16396, 1.17408, 1.14375, 1.14079, 1.14309, 1.14414, 1.14668, 1.14759, 1.14899, 1.14832, 1.15119, 1.14755, 1.14787, 1.14854, 1.14541, 1.14514, 1.14845, 1.14953, 1.15032, 1.15792, 1.14944, 1.14933, 1.14955, 1.15233, 1.15245, 1.14669, 1.1494, 1.15552, 1.15615, 1.15963, 1.16345, 1.16379, 1.16527, 1.16777, 1.16351, 1.20114, 1.16591, 1.17317, 1.22245, 1.19506, 1.19573, 1.20807, 1.20515, 1.20495, 1.20521, 1.20674, 1.21173, 1.21424, 1.21097, 1.21007, 1.20849, 1.20513, 1.20522, 1.20261, 1.20271, 1.22082, 1.24795, 1.23508, 1.23477, 1.23238, 1.22914, 1.22977, 1.32143, 1.24308, 1.24324, 1.31638, 1.27214, 1.27016, 1.29116, 1.26796, 1.27249, 1.27471, 1.27485, 1.26664, 1.42688, 1.27058, 1.24992, 1.27145, 1.47146, 1.27371, 1.24857, 1.28678, 1.25937, 1.23685, 1.22904, 1.22891, 1.31927, 1.22253, 1.21211, 1.21314, 1.22204, 1.22172, 1.22283, 1.22509, 1.22566, 1.27896, 1.28185, 1.38744, 1.21218, 1.21578, 1.21989, 1.21905, 1.22016, 1.21958, 1.22326, 1.22718, 1.23699, 1.23708, 1.23723, 1.23921, 1.24379, 1.24343, 1.24451, 1.24525, 1.24662, 1.24791, 1.25179, 1.25521, 1.26101, 1.26483, 1.27017, 1.26905, 1.2693, 1.27233, 1.27304, 1.27308, 1.27697, 1.28239, 1.29155, 1.29122, 1.29976, 1.30349, 1.30315, 1.30932, 1.30739, 1.30601, 1.30567, 1.3058, 1.30832, 1.32646, 1.32722, 1.33456, 1.33486, 1.35991, 1.46138, 1.3753, 1.39252, 1.3747, 1.37678, 1.38476, 1.39499, 1.5543, 1.41429, 1.41566, 1.41716, 1.45881, 1.45747, 1.44737, 1.44009, 1.44675, 1.45704, 1.45417, 1.454, 1.47069, 1.46018, 1.46354, 1.46299, 1.46156, 1.46223, 1.50209, 1.50013, 1.58009, 1.56516, 1.57526, 1.57471, 1.57884, 1.51367, 1.53448, 1.5343, 1.5334, 1.5256, 1.5243, 1.52339, 1.53458, 1.53565, 1.65558, 1.65036, 1.64903, 1.54527, 1.55653, 1.55388, 1.5535, 1.55311, 1.55803, 1.56366, 1.66272, 1.58311, 1.59862, 1.60879, 1.6064, 1.6056, 1.59564, 1.94912, 1.65516, 1.57244, 1.57185, 1.57199, 1.67841, 1.63307, 1.66143, 1.62979, 1.65865, 1.66119, 1.72005, 1.72326, 1.67946, 1.67441, 1.81764, 1.73285, 1.639, 1.68685, 1.72436, 1.6514, 1.636, 1.63482, 1.80002, 1.79279, 1.74172, 1.7272, 1.76755, 1.78858, 1.72124, 1.60855, 1.60677, 1.60725, 1.60555, 1.60299, 1.71703, 1.6008, 1.59914, 1.60004, 1.595, 1.59578, 1.59455, 1.59226, 1.58866, 1.58886, 1.57321, 1.58105, 1.58055, 1.57912, 1.57775, 1.57771
0.978342, 0.977806, 0.98694, 1.05361, 1.08467, 1.1116, 1.13927, 1.01458, 0.965681, 0.96566, 0.991528, 1.07819, 1.06393, 1.06976, 1.04949, 1.06258, 1.05703, 1.04995, 1.13338, 1.0454, 1.04301, 1.04091, 0.987794, 1.00096, 1.01554, 1.06413, 1.06845, 1.07179, 0.993926, 1.01081, 1.0097, 1.02599, 1.01788, 1.12956, 1.0251, 1.02438, 1.02542, 1.15131, 1.08885, 1.0474, 1.05375, 1.05152, 1.05164, 1.05087, 1.05009, 1.11597, 1.08389, 1.19896, 1.11548, 1.10611, 1.16718, 1.15457, 1.14634, 1.14661, 1.14738, 1.14926, 1.1498, 1.15102, 1.1508, 1.15185, 1.43981, 1.63101, 1.14959, 1.15717, 1.15493, 1.15825, 1.15802, 1.15841, 1.15709, 1.15684, 1.15978, 1.16661, 1.16193, 1.1603, 1.16313, 1.1598, 1.1605, 1.16266, 1.16668, 1.17123, 1.17303, 1.18268, 1.18698, 1.17746, 1.17395, 1.17169, 1.17441, 1.18967, 1.18542, 1.20768, 1.20491, 1.20562, 1.2067, 1.20557, 1.20725, 1.20793, 1.2093, 1.21259, 1.21442, 1.19887, 1.19828, 1.19832, 1.50173, 1.2152, 1.37463, 1.47225, 1.42632, 1.23264, 1.23175, 1.32518, 1.32768, 1.25016, 1.29681, 1.30949, 1.26731, 1.26601, 1.26516, 1.27133, 1.26343, 1.25743, 1.25558, 1.24324, 1.24005, 1.23887, 1.23699, 1.23689, 1.23595, 1.23716, 1.23113, 1.27847, 1.26945, 1.22036, 1.27228, 1.21936, 1.20528, 1.20689, 1.20885, 1.27073, 1.37134, 1.22608, 1.22557, 1.22534, 1.22442, 1.22387, 1.22305, 1.22394, 1.22543, 1.22992, 1.23109, 1.2643, 1.21993, 1.21852, 1.25794, 1.24044, 1.24114, 1.24111, 1.24227, 1.24784, 1.24835, 1.24762, 1.2477, 1.25066, 1.25332, 1.25716, 1.25708, 1.25778, 1.26087, 1.26238, 1.26367, 1.26971, 1.26805, 1.26945, 1.26938, 1.29022, 1.28674, 1.28966, 1.29114, 1.29569, 1.30145, 1.30809, 1.30858, 1.30879, 1.30783, 1.31172, 1.31098, 1.31512, 1.31738, 1.52192, 1.33061, 1.33773, 1.34967, 1.34845, 1.35451, 1.41706, 1.37045, 1.36891, 1.36951, 1.44246, 1.42303, 1.57522, 1.40834, 1.4093, 1.54822, 1.54742, 1.43712, 1.44344, 1.45566, 1.45368, 1.45212, 1.45082, 1.45094, 1.45816, 1.46468, 1.46462, 1.46715, 1.52293, 1.45932, 1.42825, 1.42663, 1.4144, 1.41098, 1.41168, 1.51835, 1.51871, 1.52777, 1.51778, 1.52256, 1.52443, 1.52647, 1.5255, 1.52512, 1.52986, 1.53776, 1.54198, 1.54082, 1.53953, 1.53872, 1.55607, 1.55452, 1.55389, 1.55681, 1.55846, 1.56912, 1.58504, 1.62447, 1.62337, 1.60547, 0.00453787, 1.60236, 1.60693, 1.56402, 1.56222, 1.56864, 1.56872, 1.56661, 1.59394, 1.61142, 1.57367, 1.80275, 1.6417, 1.70363, 1.67516, 1.66582, 1.61912, 1.64125, 1.64014, 1.62782, 1.67599, 1.74342, 1.80692, 1.72657, 1.63334, 1.83296, 1.75585, 1.7244, 1.82453, 1.64507, 1.66549, 1.68303, 1.59266, 1.64479, 1.67518, 1.62055, 1.6485, 1.66517, 1.58639, 1.64133, 1.61362, 1.59596, 1.59513, 1.59338, 1.59156, 1.59059, 1.57864, 1.57696, 1.57543, 1.57438, 1.58202, 1.58092, 1.58165
1.00198, 1.04742, 1.07961, 1.0362, 1.0029, 1.09601, 1.06648, 1.12712, 1.05709, 1.04496, 1.07165, 1.07094, 1.0705, 0.979174, 1.13978, 0.984535, 1.29541, 1.01723, 1.03222, 1.0368, 1.03812, 1.04008, 1.04921, 0.961879, 0.964421, 0.963232, 1.02637, 1.06065, 1.06488, 1.06428, 1.00634, 1.01467, 1.0188, 1.02563, 1.02515, 1.0237, 1.02382, 1.28562, 1.04241, 1.15931, 1.15811, 1.04406, 1.04363, 1.05268, 1.05094, 1.05073, 1.21301, 1.06694, 1.06789, 1.12754, 1.13624, 1.158, 1.17407, 1.16205, 1.15329, 1.15036, 1.15144, 1.15772, 1.15707, 1.15848, 1.34358, 1.16394, 1.16214, 1.15923, 1.15874, 1.15931, 1.15876, 1.16157, 1.16257, 1.16374, 1.17074, 1.17076, 1.1702, 1.17077, 1.17372, 1.1686, 1.16449, 1.16565, 1.16849, 1.17826, 1.17879, 1.1853, 1.18722, 1.18421, 1.18408, 1.18123, 1.1779, 1.17861, 1.18068, 1.18129, 1.21674, 1.20582, 1.21171, 1.20991, 1.20798, 1.2065, 1.20701, 1.21397, 1.21436, 1.20943, 1.1993, 1.1992, 1.20936, 1.21099, 1.2244, 1.51443, 1.34325, 1.24751, 1.24888, 1.24705, 1.26146, 1.26097, 1.26207, 1.26203, 1.25927, 1.25994, 1.25765, 1.25782, 1.25406, 1.25101, 1.25, 1.24877, 1.51724, 1.23473, 1.23254, 1.2322, 1.22694, 1.22588, 1.27156, 1.21496, 1.21146, 1.21071, 1.20604, 1.20566, 1.20595, 1.20341, 1.20441, 1.20395, 1.2673, 1.2501, 1.4208, 1.22586, 1.22191, 1.22164, 1.21882, 1.22058, 1.24327, 1.23248, 1.23176, 1.22042, 1.2229, 1.22511, 1.22567, 1.24417, 1.23449, 1.23548, 1.23634, 1.2414, 1.24449, 1.25383, 1.25548, 1.25342, 1.25447, 1.25772, 1.25705, 1.25899, 1.26041, 1.2612, 1.26535, 1.26727, 1.26663, 1.26686, 1.26576, 1.26814, 1.3477, 1.5656, 1.29576, 1.29656, 1.30239, 1.31266, 1.31121, 1.31044, 1.31105, 1.31191, 1.31332, 1.31528, 1.32331, 1.32822, 1.33266, 1.33567, 1.34457, 1.34806, 1.35046, 1.36102, 1.37361, 1.37126, 1.37056, 1.3738, 1.37551, 1.41949, 1.40515, 1.40683, 1.40804, 1.42617, 1.45765, 1.43394, 1.44707, 1.54143, 1.44728, 1.45365, 1.45323, 1.46262, 1.46481, 1.46437, 1.47095, 1.46405, 1.47171, 1.52072, 1.5, 1.5006, 1.4227, 1.42048, 1.42053, 1.49713, 1.53169, 1.50131, 1.50093, 1.5182, 1.53675, 1.55148, 1.51005, 1.53172, 1.66826, 1.63789, 1.64544, 1.55119, 1.53852, 1.55732, 1.5782, 1.578, 1.59802, 1.59966, 1.64251, 1.63164, 1.64413, 1.61271, 1.59688, 1.5959, 1.63788, 1.66997, 1.65095, 1.65178, 1.64032, 1.61283, 1.66938, 1.66934, 1.55774, 1.67203, 1.68588, 1.66577, 1.68586, 1.53138, 1.59682, 1.53492, 1.58924, 1.59084, 1.7028, 1.59324, 1.53027, 1.55791, 1.64704, 1.62462, 1.6241, 1.67519, 1.73607, 1.6178, 1.73011, 1.63364, 1.64075, 1.61001, 1.56392, 1.56381, 1.70571, 1.5581, 1.66612, 1.68525, 1.68309, 1.61323, 1.58086, 1.58002, 1.58185, 1.58245, 1.63497, 1.63717, 1.56921, 1.57596, 1.57462, 1.63059, 1.56802, 1.56701
0.880962, 1.07475, 1.0729, 0.896415, 1.03561, 1.10242, 0.917369, 0.916786, 1.091, 1.05538, 0.945585, 1.07742, 0.988589, 1.07779, 1.05436, 1.04817, 1.0498, 1.04317, 0.973989, 0.972497, 0.971762, 0.962524, 0.962116, 0.962043, 0.960948, 0.960597, 0.95167, 0.951218, 1.02738, 1.04412, 1.05586, 1.07983, 1.05011, 1.06096, 1.26311, 1.26226, 1.00968, 1.09845, 1.0285, 1.04635, 1.04622, 1.04601, 1.0413, 1.09806, 1.22386, 1.09435, 1.22685, 1.12233, 1.08026, 1.07896, 1.15382, 1.19478, 1.1751, 1.17137, 1.1581, 1.15974, 1.15978, 1.1599, 1.16136, 1.16661, 1.16983, 1.16876, 1.43227, 1.16436, 1.16345, 1.16423, 1.16719, 1.16731, 1.16726, 1.17004, 1.17123, 1.17552, 1.17612, 1.17441, 1.18315, 1.18486, 1.17425, 1.17416, 1.17217, 1.17661, 1.18415, 1.1841, 1.18322, 1.18466, 1.18571, 1.19052, 1.20815, 1.19152, 1.20323, 1.19062, 1.23993, 1.22278, 1.19882, 1.20784, 1.30515, 1.29586, 1.21075, 1.21248, 1.21396, 1.21167, 1.20907, 1.2083, 1.21051, 1.21495, 1.3302, 1.23598, 1.23597, 1.31155, 1.2651, 1.264, 1.26627, 1.26673, 1.26674, 1.26015, 1.25961, 1.25607, 1.25649, 1.25551, 1.25316, 1.25655, 1.24967, 1.24955, 1.2467, 1.23585, 1.2357, 1.26892, 1.22227, 1.22194, 1.22051, 1.24076, 1.20977, 1.20716, 1.20819, 1.21316, 1.2136, 1.20184, 1.20001, 1.19946, 1.19518, 1.19801, 1.21847, 1.21863, 1.21888, 1.21715, 1.22337, 1.2238, 1.21881, 1.21816, 1.21043, 1.21291, 1.22063, 1.22202, 1.22373, 1.23869, 1.23518, 1.23405, 1.23334, 1.23225, 1.35384, 1.24546, 1.24092, 1.24031, 1.26544, 1.26751, 1.26112, 1.2636, 1.2644, 1.26637, 1.26935, 1.26979, 1.26754, 1.26836, 1.26432, 1.27019, 1.393, 1.5687, 1.29491, 1.29495, 1.30099, 1.30205, 1.30919, 1.30588, 1.30981, 1.30904, 1.31069, 1.31908, 1.3239, 1.33433, 1.33605, 1.33597, 1.35377, 1.34688, 1.35061, 1.35379, 1.36069, 1.36038, 1.36801, 1.35697, 1.37474, 1.44915, 1.41695, 1.41243, 1.41322, 1.41627, 1.41755, 1.42351, 1.4476, 1.44021, 1.43495, 1.44753, 1.44679, 1.54402, 1.46068, 1.45835, 1.46113, 1.46052, 1.53067, 1.5378, 1.55668, 1.54425, 1.44578, 1.42454, 1.48585, 1.51945, 1.40918, 1.41548, 1.51995, 1.52118, 1.50696, 1.50536, 1.50584, 1.49506, 1.49476, 1.50714, 1.50546, 1.50553, 1.5137, 1.51235, 1.49813, 1.49756, 1.60362, 1.53842, 1.5505, 1.59908, 1.54553, 1.54734, 1.54756, 1.65522, 1.67025, 1.56226, 1.59525, 1.67602, 1.70613, 1.66935, 1.61677, 1.55768, 1.54095, 1.53899, 1.53418, 1.64647, 1.66548, 1.66234, 1.51885, 1.52014, 1.57638, 1.53805, 1.55378, 1.658, 1.65001, 1.48926, 1.4768, 1.47527, 1.49301, 1.49612, 1.58765, 1.52121, 1.58201, 1.55491, 1.55127, 1.55707, 1.53904, 1.54825, 1.57394, 1.54828, 1.60308, 1.52948, 1.5437, 1.56059, 1.58774, 1.63739, 1.55074, 1.60036, 1.62305, 1.60895, 1.60598, 1.55367, 1.55403, 1.55369, 1.61421, 1.61435
1.06157, 1.0676, 0.891758, 0.892036, 1.03769, 1.04707, 1.05817, 1.05811, 1.08503, 1.06663, 1.05839, 1.07798, 1.07399, 1.00158, 1.00238, 1.08903, 1.04687, 0.957135, 0.956574, 1.04183, 0.960896, 0.960592, 0.95943, 0.959256, 0.960166, 0.962161, 0.96432, 0.962535, 0.962784, 0.961157, 1.0414, 1.0677, 1.01217, 1.06399, 1.08439, 1.00024, 1.00806, 1.00697, 1.01964, 1.06397, 1.13589, 1.04646, 1.06338, 1.26208, 1.06633, 1.06744, 1.0669, 1.25063, 1.07801, 1.08066, 1.1901, 1.19016, 1.1202, 1.16852, 1.17064, 1.16133, 1.15978, 1.15959, 1.16185, 1.16685, 1.16887, 1.16848, 1.16858, 1.16686, 1.16718, 1.16739, 1.16734, 1.16867, 1.17001, 1.17182, 1.17881, 1.1786, 1.18116, 1.18656, 1.18717, 1.18531, 1.18075, 1.17871, 1.17803, 1.17638, 1.18433, 1.20741, 1.1972, 1.19808, 1.21915, 1.19451, 1.19556, 1.19982, 1.19857, 1.20155, 1.20217, 1.20026, 1.20019, 1.19464, 1.19143, 1.1946, 1.21206, 1.20914, 1.2116, 1.21144, 1.2122, 1.21281, 1.22931, 1.22905, 1.22976, 1.23446, 1.25742, 1.24955, 1.2846, 1.26304, 1.27052, 1.27103, 1.27516, 1.2564, 1.25624, 1.25364, 1.25355, 1.24805, 1.24767, 1.25187, 1.26191, 1.24719, 1.24707, 1.24288, 1.24925, 1.2223, 1.22036, 1.2184, 1.21719, 1.21626, 1.21925, 1.20204, 1.20221, 1.21004, 1.21089, 1.21, 1.19781, 1.19692, 1.1929, 1.19425, 1.3271, 1.21149, 1.21301, 1.21495, 1.21738, 1.21902, 1.21918, 1.21935, 1.21616, 1.22187, 1.22155, 1.22076, 1.21997, 1.22198, 1.22771, 1.22745, 1.22763, 1.23276, 1.22811, 1.22807, 1.23312, 1.2324, 1.23268, 1.24155, 1.25006, 1.2551, 1.26091, 1.26215, 1.27123, 1.26715, 1.26696, 1.26799, 1.2706, 1.27418, 1.27518, 1.27767, 1.29757, 1.29716, 1.29959, 1.3001, 1.299, 1.2956, 1.29522, 1.29556, 1.36672, 1.35145, 1.38583, 1.32957, 1.33155, 1.34362, 1.35296, 1.35258, 1.35345, 1.35142, 1.35091, 1.35668, 1.35526, 1.35489, 1.36181, 1.44418, 1.44171, 1.42745, 1.44466, 1.41614, 1.42845, 1.41369, 1.42, 1.49866, 1.48583, 1.48481, 0.00404073, 1.5087, 1.52657, 1.44426, 1.53417, 1.45414, 1.45371, 1.4682, 1.49936, 1.49596, 1.41389, 1.40849, 1.4084, 1.40696, 1.55497, 1.51256, 1.50367, 1.48948, 1.5135, 1.50873, 1.50847, 1.50753, 1.50825, 1.50936, 1.50847, 1.50614, 1.49403, 1.49082, 1.49252, 1.49181, 1.59221, 1.58539, 1.58245, 1.58471, 1.60562, 1.64358, 1.53442, 1.53338, 1.54721, 1.55446, 1.67872, 1.57687, 1.57912, 1.50243, 1.61259, 1.48623, 1.52477, 1.58256, 1.58219, 1.58027, 1.51117, 1.52674, 1.52318, 1.56526, 1.57286, 1.6128, 1.59758, 1.60938, 1.75558, 1.47198, 1.47222, 1.57975, 1.51349, 1.49211, 1.5109, 1.48565, 1.57245, 1.57057, 1.55359, 1.46544, 1.55581, 1.48918, 1.51764, 1.6743, 1.53862, 1.54003, 1.52685, 1.54118, 1.53793, 1.53325, 1.53386, 1.53307, 1.53145, 1.53981, 1.56468, 1.5423, 1.63792, 1.63585, 1.53771, 1.53412
1.01982, 1.071, 0.998294, 1.07861, 0.910981, 0.909454, 0.908021, 0.907582, 0.901919, 1.05782, 1.06834, 1.06918, 1.09014, 0.98442, 1.09064, 1.07576, 1.02334, 1.25679, 0.948995, 0.949431, 0.94952, 0.954708, 0.955944, 0.954609, 0.958601, 0.965462, 0.966576, 0.964077, 0.96595, 0.966079, 1.03843, 1.02659, 0.981062, 0.980305, 1.00552, 1.10562, 1.10262, 1.00169, 1.02274, 1.12357, 1.127, 1.11267, 1.12375, 1.06136, 1.10548, 1.13586, 1.07104, 1.07004, 1.0698, 1.07127, 1.18765, 1.18978, 1.215, 1.20087, 1.16171, 1.16092, 1.16362, 1.16381, 1.16744, 1.17006, 1.17012, 1.17719, 1.16616, 1.17173, 1.17445, 1.17135, 1.1722, 1.17389, 1.17592, 1.18224, 1.18629, 1.18581, 1.1843, 1.18423, 1.19059, 1.19088, 1.19015, 1.18523, 1.17775, 1.17763, 1.17762, 1.17913, 1.22999, 1.19915, 1.19179, 1.19481, 1.19529, 1.22954, 1.23434, 1.2128, 1.20828, 1.20919, 1.21862, 1.21558, 1.22121, 1.21934, 1.21498, 1.28532, 1.21951, 1.23374, 1.3695, 1.22132, 1.22322, 1.2269, 1.23151, 1.31917, 1.3097, 1.26853, 1.26922, 1.27522, 1.27465, 1.28227, 1.26051, 1.26011, 1.25343, 1.25407, 1.25582, 1.24883, 1.24376, 1.2457, 1.24347, 1.27046, 1.22779, 1.22758, 1.2713, 1.21766, 1.20975, 1.21107, 1.21196, 1.21226, 1.21187, 1.21264, 1.20323, 1.2035, 1.20585, 1.2061, 1.19982, 1.19595, 1.18893, 1.19158, 1.20169, 1.20503, 1.20473, 1.24873, 1.45694, 1.22079, 1.21943, 1.21639, 1.21647, 1.21517, 1.21522, 1.22287, 1.22394, 1.22547, 1.41403, 1.3779, 1.23617, 1.22733, 1.23219, 1.2322, 1.23819, 1.24378, 1.24425, 1.2513, 1.25242, 1.25326, 1.25269, 1.25198, 1.28261, 1.27157, 1.27109, 1.27019, 1.27249, 1.27757, 1.2774, 1.27734, 1.27942, 1.28152, 1.29636, 1.3015, 1.30243, 1.3025, 1.2969, 1.29332, 1.29361, 1.29695, 1.30275, 1.30332, 1.40223, 1.34372, 1.35131, 1.3488, 1.34975, 1.34971, 1.35004, 1.35226, 1.42485, 1.36736, 1.36763, 1.37368, 1.3735, 1.41301, 1.53659, 1.50343, 1.51726, 1.45865, 1.43349, 1.51743, 1.59345, 1.51166, 1.4233, 1.42835, 1.43531, 1.43687, 1.5407, 1.46126, 1.45492, 1.45555, 1.50418, 1.48811, 1.44837, 1.51667, 1.56497, 1.5624, 1.42949, 1.55238, 1.52429, 1.53508, 1.523, 1.50736, 1.5109, 1.51044, 1.51033, 1.50973, 1.50861, 1.50207, 1.50123, 1.4978, 1.49536, 1.49506, 1.48452, 1.48289, 1.48289, 1.48347, 1.53726, 1.60271, 1.57109, 1.66532, 1.65458, 1.53363, 1.54618, 1.5724, 1.54178, 1.49382, 1.50564, 1.53689, 1.51356, 1.45492, 1.5249, 1.5377, 1.53745, 1.48403, 1.48143, 1.49962, 1.49891, 1.5136, 1.51035, 1.67972, 1.67663, 1.52708, 1.69345, 1.61067, 1.44064, 1.45613, 1.45403, 1.46182, 1.44144, 1.51218, 1.46789, 1.5727, 1.52315, 1.45124, 1.51341, 1.61343, 1.54711, 1.65311, 1.50335, 1.59068, 1.51495, 1.58619, 1.52069, 1.51839, 1.51724, 1.52045, 1.51959, 1.51962, 1.51901, 1.52087, 1.53221, 1.5311
1.09938, 1.11898, 0.909322, 0.90843, 0.907463, 0.904259, 0.901903, 0.89933, 0.903889, 0.902716, 0.901465, 1.08396, 1.07495, 1.0843, 1.08739, 1.06982, 0.993152, 1.04067, 1.0278, 0.943099, 0.944534, 0.945715, 1.02214, 0.965245, 0.959753, 0.961541, 0.958048, 0.958129, 0.958555, 0.961834, 0.96012, 0.959355, 1.05675, 1.10296, 0.980675, 0.980991, 0.981442, 1.08663, 1.00701, 1.1035, 1.16364, 1.05991, 1.06316, 1.15645, 1.16537, 1.12926, 1.07118, 1.28503, 1.07771, 1.20823, 1.24016, 1.23741, 1.22603, 1.20616, 1.18234, 1.15387, 1.1572, 1.26731, 1.175, 1.17615, 1.17734, 1.17734, 1.27075, 1.18377, 1.18501, 1.18256, 1.18269, 1.1837, 1.18396, 1.18414, 1.18814, 1.19099, 1.19099, 1.19846, 1.1976, 1.19389, 1.19091, 1.19095, 1.1909, 1.20835, 1.18097, 1.18196, 1.19052, 1.19056, 1.18853, 1.18289, 1.24273, 1.25951, 1.20864, 1.20889, 1.21206, 1.20894, 1.2081, 1.21002, 1.40283, 1.27137, 1.22373, 1.22475, 1.22494, 1.22533, 1.22575, 1.22592, 1.22988, 1.33343, 1.2464, 1.25457, 1.26427, 1.29863, 1.27317, 1.27474, 1.27436, 1.26821, 1.26688, 1.26145, 1.26147, 1.25393, 1.25317, 1.25154, 1.24986, 1.26236, 1.23359, 1.23248, 1.23222, 1.2265, 1.21523, 1.21239, 1.21267, 1.20492, 1.20489, 1.20693, 1.20739, 1.24679, 1.20036, 1.20141, 1.20319, 1.20409, 1.20474, 1.19842, 1.19142, 1.19079, 1.18958, 1.19114, 1.194, 1.19433, 1.19833, 1.24087, 1.22942, 1.22529, 1.22546, 1.23194, 1.23229, 1.2302, 1.22804, 1.22684, 1.23472, 1.23445, 1.22595, 1.22403, 1.22439, 1.22848, 1.24281, 1.24153, 1.24097, 1.23942, 1.23977, 1.31854, 1.2525, 1.25538, 1.27471, 1.2713, 1.27241, 1.27644, 1.2814, 1.28452, 1.28243, 1.28501, 1.28903, 1.28887, 1.29092, 1.30148, 1.29795, 1.29838, 1.29854, 1.29935, 1.29573, 1.2942, 1.29862, 1.30657, 1.31426, 1.31379, 1.31572, 1.34826, 1.34801, 1.35189, 1.35699, 1.35368, 1.35444, 1.36356, 1.36143, 1.3602, 1.36094, 1.36794, 1.38834, 1.37995, 1.37988, 1.38068, 1.38172, 1.51991, 0.00388159, 1.41233, 1.42101, 1.42215, 1.50312, 1.51977, 1.49387, 1.45839, 1.52826, 1.48938, 1.42968, 1.42916, 1.43073, 1.4719, 1.5596, 1.47449, 1.53688, 1.53, 1.52773, 1.50057, 1.50884, 1.50199, 1.51583, 1.50755, 1.50774, 1.50232, 1.50491, 1.50323, 1.5018, 1.50095, 1.4991, 1.49748, 1.49367, 1.64717, 1.48275, 1.48351, 1.48934, 1.48818, 1.50089, 1.69536, 1.6557, 1.58524, 1.53964, 1.59872, 1.46524, 1.46093, 1.43009, 1.42386, 1.43762, 1.45348, 1.45194, 1.4613, 1.46451, 1.47129, 1.47182, 1.49206, 1.4744, 1.49528, 1.49562, 1.62448, 1.46436, 1.43552, 1.62636, 1.63135, 1.49925, 1.60423, 1.50247, 1.45092, 1.41717, 1.4227, 1.47364, 1.58633, 1.43711, 1.44294, 1.44255, 1.57989, 1.52664, 1.63791, 1.5759, 1.52367, 1.51364, 1.51301, 1.51795, 1.51844, 1.51858, 1.51616, 1.51378, 1.51142, 1.58602, 1.52589, 1.5256, 1.53369
1.02303, 0.909522, 0.910542, 0.909665, 0.910306, 0.908862, 0.908093, 1.0982, 1.06055, 0.893982, 0.894198, 0.898339, 1.10325, 1.09053, 1.10283, 0.986393, 1.09176, 0.927294, 1.02143, 1.04603, 1.03528, 1.0271, 1.07792, 0.966002, 0.966118, 0.962703, 0.961264, 0.960544, 0.96011, 0.961577, 0.961024, 0.957515, 0.967355, 0.96686, 0.966834, 0.961955, 1.01969, 1.06771, 1.06334, 1.00878, 1.00827, 1.02319, 1.0228, 1.12463, 1.35323, 1.33855, 1.31343, 1.29181, 1.30088, 1.2908, 1.25594, 1.23211, 1.1912, 1.19204, 1.18859, 1.20094, 1.21178, 1.21657, 1.20226, 1.1752, 1.20179, 1.19775, 1.20328, 1.18974, 1.18898, 1.18896, 1.20251, 1.18814, 1.20108, 1.1969, 1.19935, 1.20317, 1.21329, 1.2077, 1.24957, 1.19667, 1.19161, 1.18841, 1.1869, 1.18734, 1.187, 1.1865, 1.19025, 1.19139, 1.19097, 1.19138, 1.19261, 1.27389, 1.20798, 1.21013, 1.20826, 1.20947, 1.21552, 1.21477, 1.21516, 1.22602, 1.23685, 1.26986, 1.23641, 1.27741, 1.2473, 1.33108, 1.32343, 1.25453, 1.25788, 1.26706, 1.26336, 1.27249, 1.2714, 1.27161, 1.27501, 1.26539, 1.26363, 1.26468, 1.26019, 1.2599, 1.26399, 1.24988, 1.24778, 1.24082, 1.23351, 1.23265, 1.23237, 1.22936, 1.22573, 1.25304, 1.25227, 1.2537, 1.21408, 1.20916, 1.20685, 1.1977, 1.19776, 1.1965, 1.19834, 1.19962, 1.20362, 1.20761, 1.20835, 1.20618, 1.19985, 1.19911, 1.19718, 1.196, 1.19474, 1.20569, 1.21093, 1.21503, 1.40107, 1.2286, 1.22882, 1.2237, 1.22357, 1.2237, 1.22485, 1.22484, 1.22261, 1.22294, 1.22417, 1.34855, 1.23943, 1.23965, 1.2401, 1.24428, 1.24604, 1.25668, 1.3097, 1.26708, 1.29998, 1.27823, 1.28428, 1.28349, 1.28266, 1.28198, 1.28577, 1.2853, 1.28795, 1.33094, 1.29359, 1.29612, 1.30057, 1.30254, 1.30008, 1.30014, 1.28962, 1.28889, 1.3013, 1.31021, 1.31056, 1.30966, 1.30982, 1.35056, 1.34755, 1.34652, 1.34559, 1.34916, 1.34978, 1.36032, 1.35839, 1.3577, 1.35952, 1.35945, 1.36101, 1.36157, 1.36761, 1.38344, 1.38169, 1.38147, 1.40774, 1.4069, 1.40605, 1.4052, 1.46106, 1.4373, 1.533, 1.50941, 1.44115, 1.43191, 1.43198, 1.43313, 1.53035, 1.57905, 1.47947, 1.47803, 1.47725, 1.4966, 1.50015, 1.50597, 1.50539, 1.50556, 1.50345, 1.50356, 1.50293, 1.50319, 1.50835, 1.50633, 1.49372, 1.49139, 1.49517, 1.50145, 1.49992, 1.49982, 1.55497, 1.4921, 1.5339, 1.54748, 1.54072, 1.5797, 1.58629, 1.59649, 1.45067, 1.45256, 1.44881, 1.44748, 1.44698, 1.43438, 1.43356, 1.4407, 1.46392, 1.46116, 1.46258, 1.56172, 1.48519, 1.4937, 1.48196, 1.44376, 1.524, 1.39504, 1.40717, 1.43825, 1.38307, 1.38481, 1.379, 1.47128, 1.46059, 1.38789, 1.49252, 1.43968, 1.52031, 1.55913, 1.48441, 1.46857, 1.62426, 1.47502, 1.47249, 1.47322, 1.4718, 1.52293, 1.50686, 1.5205, 1.51892, 1.51623, 1.51617, 1.59979, 1.50915, 1.50104, 1.50651, 1.56853, 1.53035, 1.59289
0.895275, 0.985339, 0.905957, 0.906192, 0.916031, 0.908519, 0.981979, 0.886407, 0.885792, 0.894328, 0.88798, 0.88801, 0.918916, 0.896425, 0.905471, 0.905233, 0.913465, 1.101, 1.06394, 0.926399, 1.0209, 0.933009, 0.941708, 0.96129, 0.960942, 0.96117, 0.965686, 0.970329, 0.969852, 0.970283, 0.964936, 0.961354, 0.973343, 0.959448, 0.963191, 1.0874, 0.977981, 1.03205, 1.02693, 1.09024, 1.01014, 1.01246, 1.13043, 1.02073, 1.02476, 1.16814, 1.17799, 1.35062, 1.34439, 1.31865, 1.14743, 1.15049, 1.15757, 1.18047, 1.17956, 1.13007, 1.24746, 1.23955, 1.19173, 1.24312, 1.20264, 1.22067, 1.21797, 1.19425, 1.19819, 1.19957, 1.20181, 1.21962, 1.19889, 1.19935, 1.20126, 1.20359, 1.20464, 1.21115, 1.21198, 1.20796, 1.20822, 1.26177, 1.20748, 1.2062, 1.28094, 1.20231, 1.20203, 1.2748, 1.19162, 1.19155, 1.19345, 1.2807, 1.21311, 1.2124, 1.3192, 1.21503, 1.22156, 1.21924, 1.22043, 1.22229, 1.23085, 1.22981, 1.23995, 1.24003, 1.25215, 1.25359, 1.25452, 1.26196, 1.26094, 1.2603, 1.25903, 1.26641, 1.25933, 1.26002, 1.26372, 1.2671, 1.26249, 1.26212, 1.25998, 1.26012, 1.25327, 1.24632, 1.24633, 1.24098, 1.23588, 1.23016, 1.22985, 1.2321, 1.23243, 1.22429, 1.2239, 1.21679, 1.2153, 1.21412, 1.20441, 1.20168, 1.20103, 1.19922, 1.19567, 1.19871, 1.19925, 1.1992, 1.20452, 1.20496, 1.19873, 1.19778, 1.19786, 1.19818, 1.31913, 1.21232, 1.20961, 1.21224, 1.21201, 1.22536, 1.2268, 1.22597, 1.22518, 1.22255, 1.22106, 1.2191, 1.22186, 1.22202, 1.22395, 1.23006, 1.24058, 1.24293, 1.24524, 1.25387, 1.25512, 1.27681, 1.27332, 1.27403, 1.27832, 1.27972, 1.28083, 1.28092, 1.28411, 1.28446, 1.28384, 1.28193, 1.28104, 1.29253, 1.29246, 1.30221, 1.3014, 1.30139, 1.30482, 1.31382, 1.31498, 1.3137, 1.29126, 1.29334, 1.31483, 1.31488, 1.32246, 1.34735, 1.35066, 1.34499, 1.34649, 1.34617, 1.34563, 1.35671, 1.35646, 1.35698, 1.35931, 1.36259, 1.36648, 1.3673, 1.36771, 1.37077, 1.37271, 1.43403, 1.40921, 1.65831, 1.40495, 1.40492, 1.40904, 1.41232, 1.41546, 1.42315, 1.42604, 1.44373, 1.43893, 1.43931, 1.44235, 1.44429, 1.48293, 1.50408, 1.54565, 1.56108, 1.4901, 1.48858, 1.52402, 1.48872, 1.4885, 1.4897, 1.49076, 1.50256, 1.50375, 1.50306, 1.49655, 1.49262, 1.48991, 1.48952, 1.48974, 1.49904, 1.62145, 1.56003, 1.55781, 1.45763, 1.4567, 1.45541, 1.60319, 1.58456, 1.61655, 1.44222, 1.44138, 1.51181, 1.5992, 1.42543, 1.42415, 1.46237, 1.44784, 1.46454, 1.46499, 1.43127, 1.47452, 1.38219, 1.35616, 1.35047, 1.41629, 1.36685, 1.36383, 1.36451, 1.36876, 1.37266, 1.37134, 1.38122, 1.37723, 1.37686, 1.37676, 1.37583, 1.52336, 1.52299, 1.53136, 1.46546, 1.47503, 1.58171, 1.47186, 1.4687, 1.4705, 1.63232, 1.57386, 0.00407192, 0.00377123, 1.52416, 1.54088, 1.59216, 1.50011, 1.5018, 1.50076, 1.50308, 1.50987, 1.5232
0.893907, 0.892467, 0.890627, 0.890604, 1.04736, 0.886287, 0.886428, 0.883, 0.883318, 0.882245, 0.882309, 0.880609, 1.12328, 0.899501, 0.898966, 0.900075, 0.898761, 1.09841, 0.921479, 0.921774, 0.923063, 0.933261, 1.18097, 1.1519, 1.15516, 0.96858, 0.968772, 0.969689, 0.970167, 0.969806, 0.973028, 0.971741, 0.970533, 0.970367, 0.972428, 0.973363, 0.973345, 1.13798, 1.00886, 1.14421, 1.05244, 1.07886, 1.12646, 1.22606, 1.20017, 1.19559, 1.08183, 1.08143, 1.10847, 1.07878, 1.08264, 1.1602, 1.09892, 1.10565, 1.10619, 1.17509, 1.12998, 1.14359, 1.16811, 1.21221, 1.2132, 1.23252, 1.23352, 1.24711, 1.18543, 1.24641, 1.22037, 1.20471, 1.20504, 1.20571, 1.20503, 1.20514, 1.20655, 1.20883, 1.20886, 1.21041, 1.2116, 1.21132, 1.21043, 1.20903, 1.21131, 1.21085, 1.28239, 1.21803, 1.22274, 1.30554, 1.24666, 1.21855, 1.22329, 1.22355, 1.22456, 1.22491, 1.35194, 1.22695, 1.22667, 1.23363, 1.2398, 1.23916, 1.23749, 1.23561, 1.23498, 1.33861, 1.25763, 1.25702, 1.25734, 1.25953, 1.25968, 1.26011, 1.2635, 1.26303, 1.2565, 1.2569, 1.25637, 1.25455, 1.25354, 1.25333, 1.24936, 1.24355, 1.24272, 1.24275, 1.23351, 1.22542, 1.23043, 1.23069, 1.2306, 1.22702, 1.22244, 1.21722, 1.21495, 1.20913, 1.2038, 1.20257, 1.20149, 1.19952, 1.19668, 1.19709, 1.19808, 1.19973, 1.20087, 1.20108, 1.20178, 1.20197, 1.19922, 1.20329, 1.20317, 1.20481, 1.20474, 1.20795, 1.20814, 1.21225, 1.20339, 1.2042, 1.21164, 1.21243, 1.21042, 1.2118, 1.23637, 1.2267, 1.22602, 1.23068, 1.23501, 1.244, 1.25281, 1.25806, 1.26031, 1.36509, 1.28749, 1.28042, 1.49614, 1.28684, 1.28528, 1.28429, 1.28277, 1.28251, 1.28834, 1.27916, 1.27982, 1.28329, 1.29469, 1.29495, 1.30198, 1.30393, 1.31353, 1.31335, 1.31532, 1.31494, 1.31634, 1.31664, 1.31858, 1.31892, 1.37119, 1.35445, 1.34336, 1.34081, 1.34305, 1.34335, 1.34364, 1.3523, 1.35889, 1.35803, 1.36142, 1.36364, 1.36241, 1.36438, 1.36736, 1.36647, 1.36708, 1.36865, 1.37064, 1.41074, 1.40188, 1.39999, 1.42623, 1.41289, 1.41904, 1.41969, 1.42693, 1.42673, 1.43441, 1.43397, 1.43939, 1.44399, 1.45095, 1.57825, 1.47527, 1.48016, 1.47942, 1.48775, 1.48227, 1.48141, 1.48558, 1.4866, 1.48414, 1.53348, 1.50058, 1.4991, 1.49839, 1.504, 1.49887, 1.49837, 1.49803, 1.4866, 1.47515, 1.56899, 1.46381, 1.46021, 1.46071, 1.6163, 1.49918, 1.59414, 1.5861, 1.57865, 1.50329, 1.53202, 1.45095, 1.42588, 1.49324, 1.4161, 1.39606, 1.42076, 1.34751, 1.33336, 1.3966, 1.36055, 1.34391, 1.51024, 1.35084, 1.35071, 1.47426, 1.35767, 1.35872, 1.35925, 1.36685, 1.37793, 1.38752, 1.38816, 1.38036, 1.38316, 1.62451, 0.00379859, 1.44807, 1.54403, 1.55185, 1.46254, 1.54323, 1.54063, 1.47118, 1.5519, 1.51885, 1.50301, 1.50096, 1.4982, 1.49588, 1.49523, 1.58759, 1.56662, 1.56636, 1.56404, 1.51329, 1.48971
0.892182, 0.892054, 1.05677, 1.05304, 0.875391, 0.873404, 0.87756, 0.877021, 0.889122, 0.88835, 0.884192, 0.883599, 0.882629, 0.884372, 1.13985, 1.13227, 0.89872, 1.09536, 0.90763, 1.10533, 0.922535, 1.06683, 1.06292, 1.07677, 1.06959, 0.978783, 0.991533, 0.971583, 0.973804, 0.973209, 0.976843, 0.974623, 0.973194, 0.977608, 0.977527, 0.976526, 0.980837, 0.983161, 0.984214, 0.99181, 1.07443, 1.09935, 1.13618, 1.10374, 1.09184, 1.18112, 1.05292, 1.05412, 1.27398, 1.14602, 1.36542, 1.1363, 1.24996, 1.20711, 1.17435, 1.16671, 1.11786, 1.31181, 1.30583, 1.24339, 1.24441, 1.15591, 1.27966, 1.16881, 1.28058, 1.26729, 1.18935, 1.26739, 1.41981, 1.22962, 1.21032, 1.20859, 1.23504, 1.21553, 1.28932, 1.21985, 1.21943, 1.21945, 1.28984, 1.29353, 1.22566, 1.22553, 1.22605, 1.31611, 1.44511, 1.22074, 1.21997, 1.22109, 1.22525, 1.2251, 1.23046, 1.23884, 1.23911, 1.23954, 1.23397, 1.23749, 1.23945, 1.23953, 1.2351, 1.23552, 1.23875, 1.25779, 1.25825, 1.25821, 1.25981, 1.25817, 1.25917, 1.26072, 1.24697, 1.25109, 1.25061, 1.25756, 1.25656, 1.25652, 1.25457, 1.25523, 1.25768, 1.2587, 1.25525, 1.34678, 1.4119, 1.41373, 1.26906, 1.21579, 1.21419, 1.21643, 1.21602, 1.22175, 1.21254, 1.20752, 1.20283, 1.2023, 1.20259, 1.20206, 1.2023, 1.19906, 1.20037, 1.2056, 1.20697, 1.20641, 1.20584, 1.20845, 1.20771, 1.20146, 1.19794, 1.19686, 1.19713, 1.28628, 1.18924, 1.18844, 1.19861, 1.19785, 1.19995, 1.20804, 1.2121, 1.2114, 1.4119, 1.3175, 1.24965, 1.23668, 1.55009, 1.31879, 1.54881, 1.27423, 1.26755, 1.26931, 1.28139, 1.28116, 1.2884, 1.3955, 1.29202, 1.2903, 1.29092, 1.29322, 1.29438, 1.29468, 1.28345, 1.28882, 1.39753, 1.30073, 1.3028, 1.30956, 1.31734, 1.31741, 1.31704, 1.32009, 1.32135, 1.32249, 1.3211, 1.32472, 1.3265, 1.3553, 1.33979, 1.34209, 1.34255, 1.34325, 1.34945, 1.34955, 1.34792, 1.35482, 1.35469, 1.35406, 1.3637, 1.36412, 1.36191, 1.36751, 1.36689, 1.36596, 1.39267, 1.39153, 1.3916, 1.39345, 1.39758, 1.40083, 1.46442, 1.42094, 1.42948, 1.48769, 1.435, 1.43683, 1.43643, 1.4492, 1.57179, 1.46795, 1.46794, 1.46528, 1.46728, 1.47118, 1.47238, 1.4792, 1.47762, 1.47878, 1.47981, 1.47655, 1.48864, 1.51269, 1.51043, 1.51253, 1.49567, 1.49519, 1.49328, 1.49522, 1.59035, 1.53757, 1.48814, 1.51081, 1.46848, 1.50731, 1.50758, 1.58289, 1.43776, 1.58146, 1.55806, 1.412, 1.46485, 1.40458, 1.42974, 1.44401, 1.34702, 1.34423, 1.33064, 1.32933, 1.32486, 1.32487, 1.32977, 1.33002, 1.48934, 1.3403, 1.34486, 1.53381, 1.36028, 1.44049, 1.37469, 1.48948, 1.38816, 1.38658, 1.38588, 1.42807, 1.45439, 1.43332, 1.50724, 1.53777, 1.50227, 1.58191, 1.54454, 1.56267, 1.57879, 1.58113, 1.58078, 1.56512, 1.53705, 1.50608, 1.52394, 1.47775, 1.4768, 1.47529, 1.47333, 1.47292, 1.50519, 1.47203
1.04104, 1.0403, 1.03965, 0.870705, 0.872148, 0.872221, 0.880203, 1.035, 0.885267, 0.884361, 0.883786, 0.884737, 0.884037, 0.881787, 0.881469, 1.10623, 1.0993, 1.10186, 0.908552, 0.917195, 1.07305, 1.07425, 1.04731, 1.04482, 0.998226, 0.981951, 0.981424, 0.980935, 0.97158, 0.970894, 0.970297, 0.971062, 0.972956, 0.973429, 0.974131, 0.973429, 0.998891, 1.21752, 0.994233, 0.994222, 1.06364, 1.07574, 1.12717, 1.28166, 1.08394, 1.08711, 1.08758, 1.11241, 1.06056, 1.0619, 1.13996, 1.07226, 1.16499, 1.24371, 1.21562, 1.10213, 1.12545, 1.11796, 1.32666, 1.15286, 1.29925, 1.2782, 1.26039, 1.161, 1.20531, 1.19569, 1.30404, 1.30456, 1.29226, 1.19252, 1.40339, 1.40123, 1.30201, 1.28166, 1.2196, 1.22161, 1.2207, 1.25247, 1.27207, 1.25658, 1.32224, 1.24365, 1.25625, 1.25495, 1.26697, 1.33276, 1.31322, 1.31256, 1.2356, 1.30411, 1.24047, 1.38257, 1.24649, 1.24643, 1.24363, 1.24329, 1.2439, 1.24586, 1.24566, 1.23976, 1.24963, 1.24993, 1.25394, 1.25865, 1.25743, 1.25813, 1.25756, 1.32717, 1.23775, 1.23765, 1.31274, 1.24081, 1.25096, 1.25086, 1.25097, 1.25624, 1.24645, 1.24258, 1.24191, 1.4638, 1.32247, 1.21321, 1.21004, 1.20716, 1.20518, 1.20764, 1.2719, 1.26527, 1.1967, 1.20152, 1.19183, 1.19596, 1.20192, 1.19986, 1.19818, 1.19772, 1.19809, 1.20847, 1.19722, 1.19404, 1.19672, 1.19617, 1.19789, 1.2009, 1.19796, 1.1953, 1.1954, 1.1966, 1.18748, 1.18844, 1.18951, 1.19035, 1.19843, 1.19932, 1.19966, 1.32959, 1.22866, 1.62341, 1.29263, 1.24466, 1.2445, 1.2394, 1.24166, 1.24354, 1.5432, 1.2679, 1.26751, 1.27702, 1.27665, 1.2768, 1.27895, 1.28259, 1.28188, 1.28279, 1.28388, 1.28554, 1.28941, 1.29041, 1.29176, 1.29613, 1.30375, 1.30676, 1.30847, 1.31094, 1.31147, 1.33772, 1.32551, 1.32533, 1.32566, 1.32903, 1.33266, 1.33846, 1.33811, 1.33793, 1.34017, 1.34203, 1.34314, 1.34397, 1.34453, 1.35076, 1.35011, 1.35501, 1.35482, 1.3612, 1.36059, 1.36499, 1.36504, 1.40952, 1.44944, 1.42298, 1.38811, 1.38945, 1.38991, 1.39285, 1.39518, 1.41004, 1.41102, 1.42886, 1.42765, 1.42934, 1.60564, 1.48845, 1.46487, 1.47017, 1.46786, 1.46708, 1.46771, 1.46818, 1.47037, 1.47054, 1.46609, 1.46847, 1.46804, 1.46784, 1.47183, 1.4722, 1.57298, 1.5721, 1.50825, 1.49826, 1.55099, 1.4933, 1.56165, 1.45807, 1.44116, 1.44077, 1.46492, 1.50194, 1.50027, 1.51633, 1.40448, 1.40972, 1.39731, 1.40974, 1.42207, 1.40011, 1.42055, 1.41684, 1.32225, 1.32147, 1.37346, 1.374, 1.39869, 1.31772, 1.32723, 1.32805, 1.33757, 1.33682, 1.37462, 1.42588, 1.47633, 1.36606, 1.36757, 1.42957, 1.47814, 1.42393, 1.38596, 1.46751, 1.42657, 1.42307, 1.44819, 1.43402, 1.43288, 1.44138, 1.41927, 1.41732, 1.54617, 1.55776, 1.53432, 1.55681, 1.54725, 1.55475, 1.48374, 1.49517, 1.56114, 1.53459, 1.46047, 1.46033, 1.4684, 1.4612
0.868332, 0.869626, 0.86955, 0.866489, 0.865786, 0.865927, 1.21069, 0.877806, 0.878108, 0.883391, 0.883611, 0.891969, 0.891345, 0.889475, 0.888489, 0.887921, 0.88614, 1.1191, 1.11819, 0.952, 1.09039, 1.07445, 1.06477, 1.00902, 1.02422, 1.05463, 0.981246, 0.983183, 0.984251, 0.976938, 0.972944, 0.97025, 0.970716, 0.969098, 0.968461, 1.04373, 1.02895, 0.996159, 0.9962, 0.998084, 0.997983, 1.00976, 1.01126, 1.11895, 1.15977, 1.09213, 1.21553, 1.1622, 1.17247, 1.30942, 1.12527, 1.15333, 1.20552, 1.12835, 1.08995, 1.09109, 1.10452, 1.15179, 1.1195, 1.16377, 1.2891, 1.28466, 1.14691, 1.15751, 1.16424, 1.16712, 1.16809, 1.32618, 1.36207, 1.18441, 1.18839, 1.19131, 1.29919, 1.32416, 1.32573, 1.33257, 1.24226, 1.33101, 1.24086, 1.24355, 1.24662, 1.25037, 1.2509, 1.25288, 1.25643, 1.25632, 1.25408, 1.25262, 1.24581, 1.24591, 1.25083, 1.2537, 1.25634, 1.25013, 1.24659, 1.24694, 1.36407, 1.25243, 1.25211, 1.25313, 1.25227, 1.25345, 1.2471, 1.25401, 1.25507, 1.25652, 1.25753, 1.31033, 1.23983, 1.23416, 1.23329, 1.23313, 1.2344, 1.23519, 1.24602, 1.28496, 1.24364, 1.37176, 1.23805, 1.23858, 1.2332, 1.22439, 1.22307, 1.25817, 1.28015, 1.19887, 1.19128, 1.19183, 1.19566, 1.19757, 1.19542, 1.19867, 1.19988, 1.19994, 1.19956, 1.19814, 1.19635, 1.19502, 1.19319, 1.19123, 1.19065, 1.18651, 1.19164, 1.19843, 1.19915, 1.19505, 1.19413, 1.19473, 1.19657, 1.1986, 1.19064, 1.19374, 1.19534, 1.25398, 1.20779, 1.20792, 1.20849, 1.54395, 1.23875, 1.23901, 1.23922, 1.23997, 1.24214, 1.54328, 1.25645, 1.26736, 1.26723, 1.26725, 1.26738, 1.27652, 1.27718, 1.27904, 1.28066, 1.28266, 1.28311, 1.28434, 1.28704, 1.28805, 1.29199, 1.29916, 1.44022, 1.30766, 1.3075, 1.41296, 1.3118, 1.30894, 1.32938, 1.32577, 1.32947, 1.32918, 1.32915, 1.32918, 1.33124, 1.33419, 1.33961, 1.33984, 1.34273, 1.34278, 1.3427, 1.34296, 1.35128, 1.35376, 1.3535, 1.35989, 1.36304, 1.36243, 1.37093, 1.37068, 1.37556, 1.37661, 1.37964, 1.38699, 1.38588, 1.38801, 1.38988, 1.39784, 1.39874, 1.41868, 1.4987, 1.42588, 1.4257, 1.50522, 1.44904, 1.45935, 1.45753, 1.46486, 1.47164, 1.46904, 1.47844, 1.46623, 1.46639, 1.46709, 1.46712, 1.4663, 1.45471, 1.45348, 1.45357, 1.54783, 1.54939, 1.54817, 1.52999, 1.45496, 1.46653, 1.46154, 1.44987, 1.43326, 1.43233, 1.41524, 1.45725, 1.37901, 1.48663, 1.47594, 1.42386, 1.41078, 1.43406, 1.41837, 1.37042, 1.3425, 1.41668, 1.40259, 1.30811, 1.30841, 1.31012, 1.31141, 1.36581, 1.32558, 1.33531, 1.33391, 1.33111, 1.33359, 1.36748, 1.3664, 1.36541, 1.41801, 1.38884, 1.44411, 1.44442, 1.46766, 1.41249, 1.4561, 1.45469, 1.43756, 1.44639, 1.42416, 1.4163, 1.41586, 1.41611, 1.6033, 1.51675, 1.56487, 1.52966, 1.5146, 1.51636, 1.5054, 1.53187, 1.52492, 1.46335, 1.45934, 1.45702, 1.45571
0.867448, 0.866868, 0.864336, 0.86371, 0.863342, 0.869952, 0.868698, 0.868458, 0.873126, 0.875101, 1.10961, 0.887881, 0.887023, 0.888266, 0.890919, 0.891009, 0.887689, 0.910922, 1.11161, 1.09092, 1.09865, 0.92454, 0.92481, 1.05263, 1.04595, 0.956633, 1.0737, 0.983038, 0.983013, 0.983087, 0.97509, 0.969487, 0.96414, 0.963916, 0.96448, 1.13355, 1.07309, 1.06388, 1.047, 1.00572, 1.00496, 1.00354, 1.0023, 1.00363, 1.00289, 1.09205, 1.14374, 1.12239, 1.08568, 1.07969, 1.12587, 1.14315, 1.13722, 1.21228, 1.13979, 1.22258, 1.20127, 1.14277, 1.13073, 1.25387, 1.1669, 1.19276, 1.26193, 1.25043, 1.1542, 1.23675, 1.17643, 1.17365, 1.18105, 1.18027, 1.18492, 1.18846, 1.19512, 1.20254, 1.35152, 1.212, 1.21302, 1.21641, 1.27851, 1.25756, 1.24811, 1.24811, 1.24832, 1.24922, 1.2502, 1.24803, 1.24821, 1.25296, 1.25407, 1.25567, 1.25356, 1.25355, 1.25551, 1.25524, 1.25228, 1.24877, 1.24546, 1.24691, 1.25058, 1.25378, 1.25396, 1.25092, 1.25693, 1.25492, 1.25799, 1.26031, 1.25984, 1.2613, 1.32656, 1.24082, 1.23115, 1.23223, 1.22906, 1.22908, 1.23131, 1.23893, 1.29244, 1.29279, 1.43902, 1.22026, 1.21813, 1.21583, 1.21764, 1.21883, 1.27695, 1.20139, 1.20133, 1.20154, 1.20153, 1.2038, 1.20368, 1.20379, 1.20246, 1.20172, 1.20101, 1.19689, 1.19467, 1.19129, 1.1911, 1.18894, 1.18719, 1.18731, 1.1874, 1.18555, 1.18627, 1.19031, 1.19092, 1.19303, 1.19576, 1.19483, 1.19358, 1.1989, 1.21896, 1.21258, 1.21265, 1.21182, 1.21165, 1.21504, 1.35144, 1.23564, 1.2353, 1.59157, 1.27456, 1.25106, 1.25713, 1.2574, 1.25783, 1.25454, 1.25842, 1.26333, 1.26932, 1.27019, 1.33126, 1.33051, 1.27214, 1.27805, 1.2765, 1.28117, 1.27983, 1.48224, 1.46818, 1.3083, 1.30793, 1.30785, 1.30764, 1.31264, 1.31613, 1.32673, 1.32488, 1.32536, 1.32886, 1.32906, 1.33251, 1.33277, 1.33981, 1.34138, 1.34179, 1.34275, 1.34641, 1.34456, 1.34494, 1.35165, 1.35041, 1.35061, 1.36196, 1.36401, 1.36356, 1.37406, 1.37275, 1.37493, 1.37739, 1.37683, 1.37868, 1.38999, 1.38856, 1.38987, 1.39388, 1.40115, 1.48189, 1.48573, 1.41339, 1.4154, 1.45901, 1.48597, 1.48195, 1.44379, 1.45327, 1.57147, 1.4611, 1.46477, 1.46125, 1.45545, 1.46116, 1.43662, 1.45674, 1.55079, 1.51711, 1.44772, 1.52223, 1.46087, 1.45761, 1.45661, 1.45687, 1.46038, 1.44432, 1.44828, 1.43064, 1.48309, 1.44137, 1.49313, 1.47875, 1.49575, 1.34912, 1.51013, 1.36377, 1.37073, 1.34197, 1.27897, 1.35769, 1.35973, 1.30441, 1.30528, 1.31029, 1.30588, 1.30384, 1.31843, 1.31654, 1.31524, 1.44578, 1.40087, 1.38574, 1.38808, 1.393, 1.41671, 1.48773, 1.4169, 1.39651, 1.41602, 1.41549, 1.50077, 1.50901, 1.40395, 1.46158, 1.41948, 1.45047, 1.44904, 1.45053, 1.40508, 1.40408, 1.49957, 1.40757, 1.49732, 1.42547, 1.55709, 1.55839, 1.53759, 1.44202, 1.5095, 1.51927, 1.44891
0.872927, 0.867583, 0.86736, 0.867064, 0.866315, 0.864806, 0.865546, 0.866356, 0.869681, 0.87099, 0.871189, 0.872801, 0.873004, 1.00672, 1.17699, 0.99142, 0.891668, 1.06453, 0.989052, 0.909571, 0.917482, 1.05663, 1.00923, 1.05719, 1.06656, 0.94633, 0.953925, 1.05644, 1.03551, 1.00834, 1.13012, 0.959667, 0.959447, 0.965447, 0.970361, 0.970979, 1.19456, 1.16727, 0.999078, 1.00625, 1.00586, 1.00273, 1.00356, 1.00087, 1.00086, 1.05037, 1.03943, 1.02577, 1.13946, 1.26648, 1.02879, 1.0305, 1.02925, 1.11426, 1.04019, 1.11257, 1.11631, 1.16565, 1.15275, 1.15415, 1.28228, 1.16801, 1.1965, 1.13083, 1.47262, 1.17862, 1.20251, 1.19103, 1.21322, 1.20965, 1.17967, 1.32111, 1.19428, 1.48251, 1.2007, 1.44745, 1.21333, 1.40301, 1.3035, 1.23362, 1.30506, 1.24713, 1.24929, 1.25076, 1.40916, 1.23916, 1.2397, 1.39892, 1.25499, 1.25602, 1.25738, 1.25959, 1.25902, 1.25798, 1.2569, 1.25339, 1.24632, 1.24484, 1.24331, 1.2843, 1.32938, 1.31821, 1.32687, 1.32847, 1.26599, 1.26541, 1.26021, 1.33809, 1.25235, 1.25402, 1.28335, 1.2289, 1.22892, 1.21844, 1.21934, 1.21934, 1.21963, 1.21996, 1.22064, 1.21951, 1.21743, 1.21867, 1.2065, 1.21065, 1.20956, 1.21011, 1.2082, 1.20686, 1.20523, 1.20575, 1.20512, 1.20654, 1.20598, 1.20359, 1.20309, 1.19601, 1.19516, 1.19338, 1.19053, 1.18915, 1.18773, 1.18892, 1.18895, 1.19133, 1.19137, 1.19059, 1.19071, 1.19147, 1.19746, 1.19784, 1.20463, 1.2049, 1.21345, 1.21343, 1.2131, 1.2121, 1.21228, 1.21408, 1.21768, 1.23286, 1.2266, 1.22682, 1.23008, 1.23312, 1.36232, 1.25511, 1.25548, 1.25535, 1.26008, 1.35736, 1.27311, 1.26746, 1.26813, 1.2695, 1.27035, 1.27158, 1.27253, 1.2741, 1.28083, 1.28048, 1.28202, 1.32727, 1.37626, 1.44028, 1.30325, 1.31339, 1.31318, 1.30926, 1.31287, 1.31981, 1.32137, 1.3312, 1.33216, 1.33563, 1.33667, 1.3388, 1.34025, 1.34587, 1.34662, 1.34928, 1.34883, 1.3498, 1.35035, 1.34996, 1.35373, 1.35425, 1.36278, 1.37851, 1.37245, 1.38605, 1.37738, 1.37661, 1.37725, 1.37831, 1.38286, 1.39025, 1.39213, 1.4001, 1.39956, 1.40024, 1.40593, 1.4083, 1.40988, 1.4105, 1.4327, 1.46249, 1.45237, 1.44995, 1.4474, 1.77272, 1.45085, 1.43989, 1.43926, 1.42892, 1.4291, 1.42819, 1.42838, 1.43314, 1.4349, 1.43522, 1.46843, 1.49025, 1.47579, 1.49143, 1.42935, 1.49952, 1.49997, 1.48892, 1.40458, 1.39617, 1.4621, 1.46063, 1.50941, 1.35353, 1.44035, 1.35452, 1.37561, 1.28108, 1.28105, 1.28495, 1.38843, 1.29711, 1.29646, 1.29902, 1.43013, 1.32298, 1.32359, 1.32057, 1.32213, 1.37237, 1.35739, 1.3495, 1.43299, 1.50196, 1.61113, 1.33458, 1.33664, 1.3361, 1.33811, 1.34264, 1.34176, 1.34267, 1.34863, 1.35561, 1.45876, 1.47994, 1.42573, 1.45081, 1.39368, 1.4029, 1.39915, 1.41921, 1.58873, 1.41675, 1.53036, 1.45826, 1.43823, 1.43511, 1.43756, 1.43658
0.874585, 0.874262, 0.868978, 0.866453, 0.861788, 0.861434, 0.860889, 0.8606, 0.869306, 0.87053, 0.872812, 0.872653, 0.873248, 0.871827, 0.881385, 0.885187, 0.887565, 0.90844, 0.902868, 0.905766, 0.910628, 1.03551, 0.925644, 0.956881, 0.938352, 0.940585, 0.937914, 0.93837, 0.942006, 0.939794, 0.96798, 0.956205, 0.959537, 0.963606, 0.964286, 0.969729, 0.968973, 0.969495, 1.02684, 1.03731, 1.00233, 1.00126, 0.997667, 1.00114, 1.00071, 1.00206, 1.01868, 1.03465, 1.02573, 1.02815, 1.03099, 1.03085, 1.0306, 1.23005, 1.10642, 1.07642, 1.07616, 1.07719, 1.07736, 1.07972, 1.16459, 1.17069, 1.10803, 1.17825, 1.14745, 1.14788, 1.17472, 1.22369, 1.16494, 1.21386, 1.17921, 1.27048, 1.18487, 1.47945, 1.19247, 1.35832, 1.38921, 1.33973, 1.33359, 1.23994, 1.24095, 1.24132, 1.3097, 1.41275, 1.2292, 1.41035, 1.24777, 1.2464, 1.25082, 1.25237, 1.26834, 1.38281, 1.36904, 1.26324, 1.36916, 1.3776, 1.24283, 1.24168, 1.24183, 1.36563, 1.29486, 1.34622, 1.27571, 1.33752, 1.30537, 1.33071, 1.33914, 1.24846, 1.24758, 1.24178, 1.24087, 1.33967, 1.22617, 1.22333, 1.22185, 1.22061, 1.30249, 1.22461, 1.22273, 1.21804, 1.21454, 1.21433, 1.2089, 1.20973, 1.21304, 1.21448, 1.21171, 1.21124, 1.21044, 1.21046, 1.21089, 1.21026, 1.20819, 1.20732, 1.20506, 1.19986, 1.19816, 1.19779, 1.19547, 1.18855, 1.18599, 1.18722, 1.19463, 1.19265, 1.19411, 1.19586, 1.19557, 1.19537, 1.19262, 1.19171, 1.19237, 1.20334, 1.20666, 1.21229, 1.21415, 1.20706, 1.20873, 1.21144, 1.2136, 1.22073, 1.22226, 1.22584, 1.23055, 1.23474, 1.2361, 1.29246, 1.24744, 1.35816, 1.26485, 1.26361, 1.26351, 1.26715, 1.26924, 1.27096, 1.27266, 1.27718, 1.27422, 1.27566, 1.28078, 1.2825, 1.28195, 1.28101, 1.2815, 1.29406, 1.29454, 1.2977, 1.29605, 1.30292, 1.30201, 1.30355, 1.40137, 1.35098, 1.32918, 1.32901, 1.33272, 1.33428, 1.33554, 1.33953, 1.34297, 1.34823, 1.34827, 1.34637, 1.34744, 1.34847, 1.35132, 1.35162, 1.36093, 1.36117, 1.37024, 1.36913, 1.36818, 1.37799, 1.37802, 1.37932, 1.38134, 1.3891, 1.38876, 1.3925, 1.39721, 1.40156, 1.40198, 1.40577, 1.40508, 1.40096, 1.47138, 1.45518, 1.44712, 1.42962, 1.4316, 1.43349, 1.4329, 1.42708, 1.42702, 1.42922, 1.42477, 1.42604, 1.42533, 1.42322, 1.41811, 1.46791, 1.47442, 1.46197, 1.41739, 1.41173, 1.41364, 1.4136, 1.40703, 1.40632, 1.47772, 1.42363, 1.41168, 1.43448, 1.36065, 1.36635, 1.45496, 1.3935, 1.39854, 1.28802, 1.28765, 1.28772, 1.28504, 1.28608, 1.29249, 1.29385, 1.32432, 1.37295, 1.32981, 1.32986, 1.33237, 1.33638, 1.33526, 1.33537, 1.32742, 1.32819, 1.32691, 1.32558, 1.33767, 1.33715, 1.33805, 1.33863, 1.34565, 1.34471, 1.34686, 1.35774, 1.35777, 1.36098, 1.36932, 1.49911, 1.46456, 1.38457, 1.39228, 1.39917, 1.40546, 1.40699, 1.41227, 1.41551, 1.42266, 1.52261, 1.46208, 1.44041
0.876543, 0.873953, 0.873211, 0.909374, 0.854137, 0.856229, 0.855235, 0.853927, 0.85462, 0.858839, 0.857092, 0.857502, 0.866152, 0.954062, 0.881923, 0.880977, 0.881161, 0.887329, 0.888505, 0.891567, 0.906568, 0.910663, 0.913517, 0.921089, 0.925943, 0.986872, 0.930251, 0.942613, 0.930352, 0.930127, 0.929571, 0.930607, 0.950356, 0.96888, 0.97058, 0.968911, 0.970161, 0.977506, 1.07805, 0.998554, 0.998508, 0.995053, 0.995996, 0.997571, 1.06367, 1.08124, 1.01664, 1.01665, 1.01731, 1.02919, 1.03036, 1.03269, 1.03633, 1.05737, 1.05846, 1.06135, 1.07358, 1.07212, 1.27137, 1.15151, 1.13722, 1.14928, 1.10158, 1.10235, 1.18214, 1.18529, 1.16648, 1.24937, 1.19747, 1.17691, 1.17739, 1.16472, 1.20346, 1.33598, 1.24704, 1.43178, 1.36377, 1.29508, 1.24182, 1.24271, 1.24217, 1.24284, 1.22813, 1.22733, 1.22688, 1.22745, 1.22941, 1.40662, 1.52728, 1.39968, 1.25986, 1.39122, 1.26981, 1.26859, 1.35267, 1.25826, 1.25628, 1.33816, 1.37127, 1.32793, 1.26795, 1.27188, 1.2787, 1.27982, 1.28286, 1.32122, 1.33687, 1.33574, 1.24514, 1.24467, 1.23917, 1.23315, 1.2329, 1.22909, 1.22531, 1.23754, 1.2288, 1.22819, 1.22616, 1.28268, 1.21613, 1.21472, 1.21619, 1.21466, 1.21207, 1.21932, 1.21741, 1.21756, 1.21298, 1.21314, 1.21345, 1.21177, 1.21203, 1.21301, 1.20738, 1.20662, 1.20216, 1.19995, 1.20051, 1.19849, 1.19496, 1.18472, 1.19155, 1.19236, 1.19259, 1.19138, 1.19101, 1.19223, 1.19313, 1.19546, 1.1895, 1.19105, 1.19824, 1.20389, 1.20855, 1.20913, 1.21531, 1.2173, 1.21971, 1.2223, 1.22225, 1.27836, 1.26106, 1.2398, 1.23905, 1.2391, 1.24008, 1.27853, 1.26524, 1.26443, 1.27233, 1.27229, 1.26511, 1.2662, 1.26783, 1.26903, 1.27234, 1.27659, 1.28048, 1.33761, 1.28524, 1.28491, 1.28775, 1.28815, 1.29304, 1.28856, 1.28989, 1.29589, 1.29542, 1.36118, 1.40742, 1.3183, 1.31804, 1.32477, 1.32717, 1.32967, 1.3332, 1.33317, 1.33618, 1.33551, 1.33696, 1.36161, 1.34454, 1.34669, 1.34853, 1.35027, 1.35236, 1.35564, 1.36345, 1.36375, 1.3653, 1.37304, 1.37586, 1.37371, 1.37541, 1.37744, 1.38552, 1.39089, 1.38891, 1.39026, 1.39186, 1.39655, 1.38915, 1.38648, 1.3861, 1.46297, 1.51294, 1.42366, 1.51971, 1.51294, 1.42517, 1.42308, 1.42591, 1.42677, 1.45192, 1.5923, 1.40583, 1.40366, 1.41208, 1.39695, 1.40059, 1.40227, 1.40274, 1.41545, 1.41104, 1.41775, 1.3999, 1.46455, 1.42454, 1.43027, 1.36379, 1.37784, 1.39301, 1.31775, 1.32594, 1.31976, 1.31301, 1.31388, 1.32845, 1.32617, 1.33158, 1.29359, 1.29449, 1.29825, 1.3534, 1.31438, 1.49487, 1.33432, 1.33372, 1.32626, 1.32561, 1.32738, 1.32689, 1.32393, 1.32568, 1.31446, 1.31663, 1.31869, 1.32531, 1.32316, 1.35546, 1.3678, 1.35779, 1.35551, 1.35687, 1.35078, 1.3537, 1.35432, 1.43693, 1.38292, 1.44037, 1.40038, 1.39975, 1.40357, 1.40354, 1.40319, 1.46161, 1.42505, 1.42508, 1.43572
0.87664, 0.876262, 0.876933, 0.918444, 0.860011, 0.85841, 0.856248, 0.856236, 0.851149, 0.850306, 0.858153, 0.857696, 0.865393, 0.865644, 0.899701, 0.879973, 0.879069, 0.887207, 0.886091, 0.984397, 1.20909, 1.0015, 0.907827, 0.911338, 0.911722, 0.917871, 0.916001, 0.916739, 0.991808, 0.931718, 0.933521, 0.942846, 0.947559, 1.07858, 0.977225, 0.970952, 0.980898, 0.991646, 0.998529, 1.00131, 1.00211, 1.00182, 1.00353, 1.14838, 1.0679, 1.04339, 1.04253, 1.04314, 1.08843, 1.04339, 1.03967, 1.03954, 1.04907, 1.0484, 1.07072, 1.06063, 1.06388, 1.06365, 1.12931, 1.25097, 1.26906, 1.29772, 1.26713, 1.10176, 1.10479, 1.13639, 1.1288, 1.15196, 1.14072, 1.15702, 1.14777, 1.19972, 1.17536, 1.17512, 1.19193, 1.22496, 1.38498, 1.27503, 1.24264, 1.24283, 1.24355, 1.23233, 1.23224, 1.23122, 1.23138, 1.22901, 1.22925, 1.23257, 1.40268, 1.39749, 1.40187, 1.39172, 1.38855, 1.26796, 1.26867, 1.37109, 1.26012, 1.36303, 1.34762, 1.35325, 1.27476, 1.27479, 1.27547, 1.29599, 1.28846, 1.2889, 1.30676, 1.31745, 1.33325, 1.33761, 1.24735, 1.23778, 1.23644, 1.23568, 1.24151, 1.24256, 1.288, 1.22802, 1.23196, 1.28769, 1.28148, 1.27713, 1.2353, 1.26129, 1.23731, 1.22855, 1.22094, 1.22205, 1.2176, 1.2167, 1.2131, 1.21044, 1.21095, 1.21145, 1.20778, 1.20554, 1.20525, 1.20279, 1.20148, 1.2013, 1.20191, 1.19336, 1.19419, 1.19368, 1.19087, 1.19075, 1.1914, 1.1926, 1.19243, 1.19635, 1.19739, 1.19308, 1.20427, 1.2025, 1.20316, 1.39532, 1.20837, 1.21007, 1.21121, 1.21502, 1.21854, 1.22104, 1.22599, 1.23296, 1.23368, 1.23537, 1.24333, 1.36137, 1.26322, 1.26401, 1.26685, 1.26706, 1.26689, 1.26821, 1.26921, 1.27015, 1.27125, 1.27707, 1.28215, 1.28367, 1.28795, 1.28695, 1.28769, 1.28775, 1.29018, 1.29406, 1.29316, 1.30203, 1.31057, 1.31013, 1.31298, 1.30833, 1.30925, 1.39929, 1.32043, 1.31936, 1.31874, 1.32908, 1.32924, 1.33315, 1.3418, 1.34344, 1.3451, 1.34543, 1.34958, 1.34868, 1.35593, 1.35665, 1.35771, 1.37096, 1.36952, 1.37733, 1.37615, 1.37634, 1.37593, 1.3748, 1.38029, 1.38684, 1.38818, 1.38987, 1.39073, 1.38529, 1.3873, 1.38015, 1.3787, 1.37704, 1.44667, 1.38468, 1.48757, 0.00396006, 1.44677, 1.44147, 1.44122, 1.39574, 1.39466, 1.39351, 1.39391, 1.39788, 1.39079, 1.3933, 1.40667, 1.42125, 1.39621, 1.39702, 1.40442, 1.4058, 1.40656, 1.39106, 1.37986, 1.41829, 1.41478, 1.33057, 1.32935, 1.33044, 1.40982, 1.32217, 1.32052, 1.30842, 1.30962, 1.30805, 1.30165, 1.34111, 1.3037, 1.30558, 1.30956, 1.30992, 1.44514, 1.33672, 1.33604, 1.32571, 1.32534, 1.32586, 1.31547, 1.3159, 1.30686, 1.30515, 1.30606, 1.30736, 1.32425, 1.32356, 1.32643, 1.33871, 1.36988, 1.35766, 1.35802, 1.36003, 1.35868, 1.36089, 1.36175, 1.36258, 1.48508, 1.48304, 1.40286, 1.40187, 1.40452, 1.4054, 1.50654, 1.42567, 1.42492, 1.42766
0.878475, 0.877243, 0.8757, 0.876621, 0.86777, 0.859787, 0.857299, 0.853614, 0.854175, 0.853415, 0.855827, 0.860312, 0.864699, 0.869386, 0.871271, 0.876801, 0.878313, 0.879581, 0.88002, 0.884864, 0.886678, 0.889398, 0.888115, 1.17033, 1.17047, 0.905493, 0.91133, 0.917729, 0.927456, 0.936573, 0.937207, 0.943739, 0.943191, 1.08846, 0.960768, 0.964086, 0.969741, 1.0537, 0.986906, 0.995574, 0.995532, 1.15109, 1.02578, 1.02508, 1.02956, 1.02982, 1.04035, 1.04443, 1.05132, 1.05247, 1.16831, 1.05318, 1.06199, 1.68031, 1.06164, 1.12833, 1.08642, 1.19141, 1.18251, 1.2171, 1.09782, 1.09769, 1.10574, 1.21196, 1.11649, 1.11907, 1.11932, 1.12618, 1.14385, 1.21593, 1.24403, 1.24401, 1.22941, 1.24805, 1.17697, 1.1776, 1.51705, 1.29132, 1.24106, 1.24332, 1.24496, 1.44499, 1.23974, 1.23788, 1.23197, 1.23148, 1.23262, 1.24305, 1.41361, 1.24658, 1.40158, 1.25726, 1.38176, 1.38133, 1.27282, 1.27258, 1.27352, 1.27499, 1.28827, 1.29113, 1.28375, 1.27777, 1.27592, 1.35157, 1.32765, 1.33379, 1.29173, 1.29186, 1.29614, 1.32938, 1.32034, 1.32008, 1.32663, 1.24875, 1.24725, 1.2455, 1.24659, 1.24713, 1.2777, 1.26506, 1.27675, 1.2478, 1.258, 1.24638, 1.26455, 1.26987, 1.26561, 1.46675, 1.20238, 1.1976, 1.40459, 1.19696, 1.19855, 1.24649, 1.20189, 1.21938, 1.20096, 1.20389, 1.20298, 1.20184, 1.19692, 1.19585, 1.19617, 1.19506, 1.19213, 1.1891, 1.19001, 1.19188, 1.18927, 1.19228, 1.19423, 1.19107, 1.19259, 1.19378, 1.17915, 1.18752, 1.18901, 1.25024, 1.21318, 1.21156, 1.21135, 1.22054, 1.22888, 1.22908, 1.23586, 1.23705, 1.23881, 1.29219, 1.32583, 1.26475, 1.26593, 1.27181, 1.27132, 1.27118, 1.27024, 1.27042, 1.27165, 1.27836, 1.28006, 1.27908, 1.27989, 1.28055, 1.28135, 1.28843, 1.28953, 1.29646, 1.30306, 1.3095, 1.31555, 1.31255, 1.30843, 1.30294, 1.30382, 1.30501, 1.37746, 1.39045, 1.32756, 1.33572, 1.32603, 1.37327, 1.49508, 1.34203, 1.34664, 1.34941, 1.3558, 1.35511, 1.35621, 1.35745, 1.35684, 1.35918, 1.35716, 1.38226, 1.37306, 1.37405, 1.38106, 1.38118, 1.38123, 1.38595, 1.38528, 1.38599, 1.37979, 1.37473, 1.36253, 1.35799, 1.35768, 1.3657, 1.36524, 1.41345, 0.00391091, 1.44938, 1.44646, 1.44763, 1.41893, 1.43299, 1.42632, 1.39596, 1.37259, 1.37414, 1.41454, 1.36814, 1.3674, 1.36891, 1.37394, 1.37588, 1.37852, 1.39815, 1.39313, 1.37149, 1.37098, 1.36141, 1.35159, 1.40337, 1.32942, 1.32541, 1.32653, 1.32856, 1.3192, 1.31884, 1.31277, 1.34334, 1.34387, 1.33754, 1.31511, 1.31373, 1.29763, 1.30076, 1.42148, 1.35348, 1.33917, 1.3361, 1.3217, 1.32024, 1.32118, 1.31618, 1.32467, 1.30469, 1.30232, 1.30298, 1.31241, 1.31459, 1.40489, 1.33052, 1.33247, 1.33864, 1.50954, 1.3574, 1.35617, 1.35742, 1.35743, 1.3586, 1.37709, 1.37769, 1.37832, 1.3997, 1.40366, 1.44844, 1.42839, 1.42484, 1.42272, 1.42608
0.87635, 0.87454, 0.873347, 0.870636, 0.868369, 0.867192, 0.859285, 0.857784, 0.85524, 0.856307, 0.856198, 0.860409, 0.860822, 0.868275, 0.877871, 0.876483, 0.875637, 0.875495, 0.878749, 0.880652, 0.885197, 0.886989, 0.894, 0.892955, 0.892751, 0.901943, 0.979361, 1.03328, 0.99222, 0.981101, 0.992619, 0.953952, 0.952737, 0.952791, 0.953808, 0.957246, 0.961613, 0.961463, 1.04724, 0.994083, 1.11989, 1.12549, 1.01322, 1.02499, 1.04369, 1.05433, 1.06661, 1.05362, 1.05625, 1.05861, 1.06022, 1.05858, 1.06049, 1.06678, 1.0838, 1.14253, 1.09542, 1.09747, 1.09709, 1.09742, 1.09738, 1.09599, 1.2687, 1.27794, 1.29285, 1.11445, 1.17595, 1.14049, 1.23547, 1.12923, 1.12996, 1.13295, 1.14467, 1.17481, 1.17403, 1.18764, 1.33873, 1.34465, 1.36302, 1.2503, 1.24991, 1.23805, 1.2364, 1.22711, 1.22396, 1.22461, 1.44506, 1.41596, 1.4207, 1.25769, 1.26123, 1.26199, 1.26186, 1.26697, 1.26786, 1.38497, 1.38157, 1.38594, 1.2834, 1.28158, 1.36697, 1.36785, 1.26809, 1.3639, 1.32664, 1.33098, 1.32611, 1.28961, 1.2887, 1.28911, 1.30334, 1.27534, 1.26938, 1.31669, 1.26066, 1.30935, 1.24976, 1.24979, 1.25136, 1.25885, 1.2606, 1.26007, 1.25631, 1.25507, 1.26705, 1.25442, 1.26785, 1.23071, 1.2811, 1.19573, 1.18841, 1.21715, 1.17772, 1.30722, 1.2598, 1.26774, 1.4125, 1.1943, 1.19478, 1.196, 1.19495, 1.19656, 1.19599, 1.19668, 1.1971, 1.19423, 1.19337, 1.19369, 1.19204, 1.19161, 1.19468, 1.19526, 1.19649, 1.1954, 1.1948, 1.18835, 1.18834, 1.19443, 1.24301, 1.20178, 1.2376, 1.22941, 1.2337, 1.23981, 1.23656, 1.23867, 1.24027, 1.29291, 1.3074, 1.2851, 1.27087, 1.27481, 1.27448, 1.27557, 1.27176, 1.26919, 1.2674, 1.29486, 1.27842, 1.27154, 1.26957, 1.2779, 1.27782, 1.27837, 1.50874, 1.5068, 1.29987, 1.33764, 1.30852, 1.43417, 1.43786, 1.41463, 1.29614, 1.29583, 1.30062, 1.30019, 1.30169, 1.30827, 1.39988, 1.56523, 1.54844, 1.38168, 1.36927, 1.35109, 1.35685, 1.35509, 1.34818, 1.34794, 1.3559, 1.35403, 1.35332, 1.36448, 1.37107, 1.37503, 1.37858, 1.37764, 1.38647, 1.38673, 1.38603, 1.45352, 1.3607, 1.35952, 1.3554, 1.35466, 1.35806, 1.36322, 1.3571, 1.35837, 1.45126, 1.35953, 1.36171, 1.36397, 1.36932, 0.00354507, 1.39512, 1.38078, 1.37515, 1.37509, 1.37438, 1.36358, 1.36661, 1.36913, 1.38117, 1.37913, 1.37529, 1.35836, 1.35694, 1.3419, 1.33954, 1.34017, 1.35053, 1.3865, 1.41025, 1.32134, 1.33222, 1.35386, 1.41038, 1.41333, 1.3128, 1.32007, 1.27413, 1.34325, 1.32661, 1.32302, 1.28836, 1.29841, 1.40375, 1.33612, 1.34267, 1.30161, 1.3026, 1.31875, 1.31899, 1.32045, 1.33427, 1.31838, 1.31567, 1.30164, 1.29953, 1.30122, 1.31534, 1.3347, 1.33757, 1.33081, 1.33375, 1.45368, 1.42656, 1.35659, 1.35946, 1.35952, 1.36206, 1.36486, 1.36924, 1.38785, 1.39856, 1.40567, 1.43461, 1.44673, 1.42179, 1.42176
0.875534, 0.874114, 0.871537, 0.868453, 0.86669, 0.866055, 0.864147, 0.857136, 0.860371, 0.863031, 0.859557, 0.85758, 0.864703, 0.863164, 0.874254, 0.874641, 0.873404, 0.873351, 0.874989, 0.882884, 0.881956, 0.896891, 0.896388, 0.896422, 0.897556, 0.904672, 1.04144, 1.01916, 0.975247, 0.998809, 0.994668, 0.953086, 0.955718, 0.957078, 0.956531, 0.952822, 0.952535, 0.956138, 1.04756, 1.12581, 0.980914, 1.02301, 1.01908, 1.02292, 1.02734, 1.03623, 1.06267, 1.06076, 1.07079, 1.06667, 1.06722, 1.0681, 1.06976, 1.07448, 1.08589, 1.10932, 1.09482, 1.09911, 1.21313, 1.21699, 1.29228, 1.08742, 1.22836, 1.2345, 1.28378, 1.11075, 1.1104, 1.11674, 1.18484, 1.12528, 1.38905, 1.14689, 1.13664, 1.136, 1.23192, 1.20454, 1.36489, 1.22573, 1.2266, 1.24391, 1.23259, 1.22797, 1.22757, 1.2285, 1.22817, 1.44422, 1.44645, 1.27071, 1.25475, 1.42328, 1.25969, 1.26045, 1.25709, 1.2596, 1.26021, 1.4072, 1.26411, 1.26569, 1.3856, 1.39797, 1.38278, 1.37669, 1.3754, 1.25073, 1.25241, 1.36181, 1.31932, 1.32663, 1.32366, 1.2948, 1.28489, 1.3261, 1.32679, 1.32619, 1.27813, 1.32036, 1.30611, 1.24945, 1.251, 1.25829, 1.26223, 1.26173, 1.2628, 1.25795, 1.25374, 1.26241, 1.2763, 1.27809, 1.27442, 1.23334, 1.29562, 1.16, 1.16028, 1.16192, 1.16347, 1.26937, 1.17756, 1.17846, 1.18359, 1.18536, 1.19574, 1.19679, 1.19802, 1.20214, 1.20362, 1.19731, 1.19801, 1.19797, 1.19303, 1.19405, 1.19499, 1.19677, 1.1979, 1.19754, 1.19562, 1.19904, 1.19933, 1.19987, 1.20135, 1.19898, 1.20057, 1.22449, 1.22641, 1.23285, 1.23602, 1.24055, 1.24167, 1.24358, 1.27166, 1.27964, 1.31062, 1.26181, 1.30809, 1.26486, 1.26939, 1.26916, 1.26412, 1.26357, 1.2627, 1.26183, 1.26271, 1.37263, 1.2665, 1.26569, 1.26619, 1.2813, 1.30902, 1.30918, 1.30348, 1.32184, 1.3067, 1.41254, 1.28549, 1.28632, 1.28804, 1.42648, 1.29632, 1.30528, 1.3922, 1.46355, 1.33199, 1.36983, 1.33405, 1.33458, 1.3406, 1.34067, 1.34327, 1.34419, 1.35348, 1.35404, 1.35668, 1.35643, 1.36254, 1.39156, 1.37948, 1.38234, 1.38365, 1.38546, 1.39545, 1.41561, 1.36066, 1.36002, 1.3504, 1.34808, 1.34166, 1.3408, 1.34162, 1.42597, 1.3611, 1.35968, 1.35975, 1.35971, 1.35841, 1.39608, 1.38861, 1.3674, 1.39615, 1.37939, 1.39414, 1.37181, 1.39514, 1.36734, 1.34787, 1.38587, 1.3645, 1.33938, 1.33838, 1.34046, 1.34022, 1.36785, 1.32729, 1.36951, 1.36176, 1.31243, 1.31132, 1.38542, 1.29897, 1.40347, 1.28807, 1.26945, 1.27155, 1.26754, 1.26446, 1.26927, 1.27085, 1.27484, 1.32353, 1.28661, 1.28729, 1.33259, 1.30514, 1.3157, 1.31673, 1.32051, 1.33248, 1.33556, 1.32126, 1.31871, 1.31906, 1.32858, 1.34744, 1.38531, 1.33353, 1.33502, 1.33109, 1.33153, 1.34071, 1.34087, 1.34473, 1.37055, 1.35941, 1.35931, 1.37492, 1.4091, 1.36552, 1.45796, 1.42688, 1.43612, 1.42409, 1.42779
0.874047, 0.874196, 0.869929, 0.869247, 0.867684, 0.869682, 0.869765, 0.869576, 0.869477, 0.870627, 0.86981, 0.864968, 0.865008, 0.864311, 0.864409, 0.871943, 0.871391, 0.872066, 0.873104, 0.873216, 0.885713, 0.893801, 0.893278, 0.894277, 0.909917, 0.910076, 0.907999, 0.00387376, 1.00055, 0.928911, 0.940276, 0.94747, 0.99124, 0.994121, 0.949731, 0.949555, 0.949643, 0.949023, 0.947851, 0.957294, 0.95876, 1.04349, 1.0502, 1.06411, 1.01257, 1.10661, 1.07924, 1.06897, 1.06847, 1.0827, 1.0744, 1.08808, 1.09103, 1.08823, 1.09024, 1.09068, 1.09091, 1.08554, 1.07918, 1.07992, 1.08072, 1.23322, 1.19956, 1.19732, 1.19577, 1.2182, 1.23382, 1.25107, 1.26974, 1.26842, 1.13823, 1.13822, 1.13824, 1.13831, 1.14234, 1.22147, 1.21278, 1.24072, 1.39285, 1.28282, 1.22925, 1.22979, 1.23013, 1.23026, 1.22969, 1.2307, 1.23397, 1.24012, 1.24159, 1.30286, 1.26615, 1.2531, 1.25717, 1.25449, 1.25466, 1.25343, 1.25982, 1.25896, 1.25887, 1.25553, 1.38035, 1.38183, 1.24219, 1.24301, 1.24514, 1.24645, 1.35841, 1.32629, 1.33626, 1.32448, 1.28427, 1.28403, 1.2843, 1.29581, 1.27585, 1.32645, 1.28494, 1.32143, 1.25515, 1.25499, 1.2552, 1.25441, 1.25473, 1.30455, 1.29824, 1.30029, 1.53367, 1.22437, 1.20066, 1.32671, 1.18396, 1.15547, 1.15553, 1.15552, 1.23601, 1.29148, 1.17003, 1.17329, 1.26116, 1.1828, 1.189, 1.19584, 1.19792, 1.1982, 1.20026, 1.1965, 1.19665, 1.19797, 1.19551, 1.19188, 1.19276, 1.19757, 1.19802, 1.19736, 1.19746, 1.19571, 1.19428, 1.19555, 1.26739, 1.21932, 1.21934, 1.22237, 1.22238, 1.22382, 1.23259, 1.2368, 1.24027, 1.23903, 1.23642, 1.3205, 1.26868, 1.24479, 1.24656, 1.2714, 1.25205, 1.25264, 1.25759, 1.25822, 1.26208, 1.26471, 1.26395, 1.25727, 1.25613, 1.26036, 1.25823, 1.35019, 1.34354, 1.51514, 1.33249, 1.3323, 1.25161, 1.32656, 1.28522, 1.27417, 1.27488, 1.27553, 1.46444, 1.41574, 1.37492, 1.36421, 1.36946, 1.32897, 1.33594, 1.33539, 1.50063, 1.38496, 1.33626, 1.34101, 1.34677, 1.35465, 1.38469, 1.36447, 1.40618, 1.3706, 1.41672, 1.40334, 1.39844, 1.42413, 1.38979, 1.36527, 1.37186, 1.35295, 1.35269, 1.35322, 1.34822, 1.33681, 1.32586, 1.32478, 1.38877, 1.36177, 1.36394, 1.36322, 1.36241, 1.38661, 1.37921, 1.395, 1.34843, 1.36141, 1.34021, 1.39196, 1.33421, 1.33555, 1.33896, 1.3314, 1.33279, 1.3374, 1.37082, 1.53732, 1.45203, 1.32589, 1.32416, 1.31532, 1.31988, 1.32608, 1.35156, 1.40572, 1.4062, 1.38794, 1.38694, 1.27147, 1.2714, 1.27484, 1.2621, 1.26364, 1.27468, 1.27354, 1.27603, 1.28528, 1.28549, 1.3007, 1.30183, 1.30556, 1.31126, 1.3301, 1.33445, 1.33334, 1.33351, 1.45403, 1.33601, 1.33642, 1.33876, 1.33954, 1.33632, 1.382, 1.32637, 1.32654, 1.33519, 1.3331, 1.3366, 1.33591, 1.33816, 1.40608, 1.4032, 1.35356, 1.35872, 1.35738, 1.35748, 1.43347, 1.46772, 1.4384
0.866902, 0.866947, 0.8646, 0.864727, 0.865043, 0.868661, 0.871407, 0.871318, 0.866987, 0.867687, 0.871689, 0.872294, 0.864249, 0.864776, 0.8709, 0.87388, 0.87488, 0.874042, 0.874925, 0.876167, 0.884327, 0.885324, 0.891112, 0.890263, 0.888412, 0.906174, 0.907775, 0.908478, 0.920563, 0.928959, 0.931997, 0.931364, 0.929847, 0.927729, 0.944221, 0.94427, 0.94046, 0.940038, 0.996116, 0.95329, 0.964183, 0.963855, 0.964913, 1.02209, 1.05389, 1.06995, 1.07167, 1.10599, 1.10648, 1.09673, 1.09353, 1.09794, 1.08808, 1.08725, 1.08601, 1.0822, 1.07786, 1.07791, 1.07195, 1.07418, 1.07469, 1.07579, 1.07717, 1.19476, 1.19417, 1.18473, 1.51368, 1.18992, 1.2584, 1.13066, 1.1296, 1.13043, 1.13894, 1.13906, 1.16314, 1.21964, 1.26878, 1.18678, 1.19252, 1.22367, 1.22593, 1.22727, 1.3226, 1.32894, 1.21832, 1.21908, 1.22465, 1.22887, 1.23731, 1.23884, 1.2513, 1.25411, 1.25003, 1.24758, 1.24779, 1.24812, 1.43052, 1.41602, 1.39701, 1.40661, 1.38707, 1.39072, 1.37403, 1.36884, 1.37003, 1.24065, 1.31363, 1.24347, 1.24718, 1.33829, 1.28041, 1.28054, 1.28075, 1.28056, 1.27037, 1.27109, 1.36777, 1.25621, 1.35333, 1.24554, 1.28447, 1.32973, 1.2983, 1.29941, 1.35835, 1.31994, 1.21281, 1.21255, 1.30267, 1.20882, 1.1704, 1.16999, 1.16056, 1.15868, 1.15568, 1.15916, 1.15953, 1.16015, 1.22859, 1.17803, 1.18204, 1.18234, 1.28644, 1.20336, 1.2018, 1.20107, 1.20273, 1.20411, 1.19942, 1.20017, 1.20543, 1.20248, 1.20246, 1.20116, 1.19826, 1.19804, 1.19918, 1.2009, 1.20216, 1.20331, 1.32097, 1.22199, 1.22133, 1.22334, 1.23991, 1.23639, 1.23584, 1.23531, 1.235, 1.23453, 1.23182, 1.24059, 1.24094, 1.25014, 1.24987, 1.25331, 1.25694, 1.25993, 1.25983, 1.26377, 1.26325, 1.26011, 1.25269, 1.25182, 1.25227, 1.25086, 1.34395, 1.23778, 1.24215, 1.2443, 1.2408, 1.24648, 1.24605, 1.27569, 1.27337, 1.27482, 1.27568, 1.35427, 1.44173, 1.41036, 1.35696, 1.38454, 1.40106, 1.40759, 1.32712, 1.331, 1.3831, 1.3326, 1.39813, 1.40251, 1.40952, 1.39851, 1.40975, 1.3957, 1.38221, 1.36574, 1.35782, 1.35433, 1.37591, 1.60277, 1.34775, 1.34812, 1.3449, 1.34432, 1.40354, 1.40219, 1.32053, 1.31943, 1.32185, 1.43268, 1.38613, 1.3928, 1.37575, 1.40935, 1.41421, 1.41856, 1.41425, 1.3626, 1.36515, 1.3847, 1.38512, 1.36225, 1.31947, 1.3268, 1.31155, 1.30266, 1.37911, 1.31008, 1.31941, 1.31586, 1.34089, 1.35522, 1.28524, 1.34268, 1.28065, 1.24917, 1.24805, 1.26026, 1.26141, 1.27217, 1.26992, 1.27011, 1.26208, 1.26453, 1.26813, 1.27534, 1.27799, 1.28793, 1.29598, 1.29892, 1.30195, 1.30472, 1.30734, 1.31842, 1.3217, 1.45332, 1.3373, 1.33619, 1.33119, 1.33296, 1.33605, 1.33573, 1.33046, 1.32878, 1.32578, 1.32797, 1.32969, 1.32791, 1.32749, 1.32956, 1.33713, 1.33945, 1.39636, 1.37447, 1.35675, 1.35058, 1.35109, 1.43705, 1.41609, 1.47534
