0.927233, 0.00324447, 0.919464, 1.15114, 0.897235, 0.898328, 0.896304, 0.00342193, 0.882011, 0.882075, 0.882505, 0.882565, 0.877943, 1.06756, 1.08541, 1.06791, 0.845773, 0.844148, 0.843698, 0.842361, 0.837459, 0.837371, 0.836854, 1.03343, 1.01955, 1.03049, 1.02632, 0.996497, 0.889663, 0.891648, 0.890806, 0.890415, 0.957261, 0.899972, 0.895719, 0.894045, 0.893321, 0.926001, 1.07096, 0.866691, 0.867438, 0.87002, 1.05903, 1.1053, 0.894165, 0.894242, 0.892623, 0.891313, 0.00309831, 0.901369, 0.901286, 1.11963, 1.20146, 1.14753, 1.17424, 1.09969, 0.958145, 1.16959, 1.16509, 1.0955, 1.12004, 1.2275, 1.19167, 1.19098, 1.16708, 1.45228, 1.1818, 1.1815, 1.16895, 1.2121, 1.21478, 1.21321, 1.18154, 1.22309, 1.07368, 1.07482, 1.07673, 1.21936, 1.26511, 1.28201, 1.19297, 1.21842, 1.11952, 1.14686, 1.14433, 1.1147, 1.11455, 1.25171, 1.09399, 1.09437, 1.09466, 1.09829, 1.09868, 1.07011, 1.06951, 1.09517, 1.04739, 1.04971, 1.06457, 1.0593, 1.06098, 1.10496, 1.11392, 1.23708, 1.29128, 1.3465, 1.34397, 1.33946, 1.36344, 1.36265, 1.37078, 1.37914, 1.37877, 1.43976, 1.4481, 1.44881, 1.44182, 1.45051, 0.00323135, 0.00373064, 1.46022, 0.00325196, 1.43009, 1.60263, 1.6031, 1.58769, 1.58578, 1.58295, 1.58219, 1.46453, 1.42374, 1.43961, 1.3783, 1.38571, 1.38689, 1.42239, 1.44479, 1.43062, 1.4334, 1.47195, 1.47058, 1.51015, 1.47638, 1.48133, 1.50639, 1.53398, 1.52318, 1.52646, 1.46123, 1.46677, 1.43328, 1.43951, 1.40557, 1.40678, 1.40854, 1.40323, 1.3715, 1.37826, 1.37905, 1.3565, 1.37253, 1.37447, 1.34378, 1.33299, 1.33464, 1.38772, 1.39829, 1.393, 1.38602, 1.3866, 1.3895, 1.34814, 1.38538, 1.40936, 1.40895, 1.35963, 1.35011, 1.32953, 1.32861, 1.32519, 1.32677, 1.3223, 1.32249, 1.30109, 1.3027, 1.29787, 1.34551, 1.44334, 1.49032, 1.44436, 1.53664, 1.52352, 1.29774, 1.29755, 1.29019, 1.28796, 1.28931, 1.29119, 1.29337, 1.28969, 1.28835, 1.28335, 1.28479, 1.28609, 1.33784, 1.34313, 1.33279, 1.31075, 1.31251, 1.32425, 1.32543, 1.56618, 0.00314909, 0.00311017, 0.00338342, 0.00312265, 1.50433, 1.503, 0.00310752, 0.00312039, 0.00317904, 0.00322895, 0.0030669, 1.48972, 0.00322888, 0.00303598, 0.00313389, 0.00330386, 1.68813, 0.00332939, 0.00320283, 0.0033759, 0.00336614, 0.00324813, 0.0034016, 1.62522, 0.00327325, 0.00318601, 0.00316107, 0.00326751, 0.00330696, 0.00342247, 0.00305039, 0.00331888, 0.00316137, 0.00319375, 1.67571, 0.00317681, 0.00327266, 1.61321, 1.48927, 1.48781, 1.60631, 1.64507, 1.50675, 1.51233, 1.50555, 1.50371, 1.60005, 1.61708, 1.5625, 0.0033787, 1.48812, 1.49158, 1.49168, 0.0034274, 1.59479, 1.50538, 1.50473, 1.49389, 1.63151, 0.00320895, 1.48488, 1.4855, 1.48762, 0.003353, 0.00331723, 1.62764, 1.65023, 0.00331098, 0.00346196, 0.00317784, 0.00316242, 1.47829, 1.58432, 0.00302668, 1.55818, 1.56487, 1.56252, 0.0033771, 1.41619, 1.41461, 1.41806, 1.41585, 1.4101, 1.41025, 1.40696, 1.40959, 1.40914, 1.41245
1.1574, 1.14639, 0.923619, 0.919165, 0.901178, 0.900464, 0.00312057, 1.11313, 0.88278, 0.882861, 0.882643, 0.878183, 0.877381, 0.87596, 1.04335, 1.12177, 0.841246, 0.841571, 0.842699, 0.84001, 1.00647, 0.99815, 0.994952, 1.08571, 0.00327118, 0.960797, 0.955406, 0.883947, 0.885155, 0.887134, 0.885711, 0.887176, 0.887862, 0.8993, 0.00306004, 0.938128, 0.00290315, 0.872012, 0.86685, 0.865294, 1.0586, 1.13387, 0.867054, 0.00329543, 0.87804, 0.880303, 0.87621, 0.876409, 0.884209, 0.884465, 1.16367, 0.899248, 0.900751, 1.11895, 1.11983, 0.00337081, 0.00315442, 1.09064, 1.09124, 1.10987, 1.19163, 1.19218, 1.09668, 1.19414, 1.168, 1.16759, 1.0349, 1.03661, 1.0398, 1.03987, 1.20625, 1.0463, 1.22299, 1.17891, 1.17864, 1.23907, 1.07777, 1.07701, 1.07768, 1.23308, 1.09082, 1.08899, 1.0885, 1.08433, 1.0844, 1.09674, 1.13024, 1.1157, 1.11126, 1.21684, 1.20233, 1.10915, 1.09886, 1.09643, 1.09602, 1.09275, 1.06173, 1.06167, 1.07093, 1.06418, 1.0772, 1.09752, 1.09772, 1.16179, 1.23742, 1.21674, 1.23198, 1.23085, 1.26616, 1.29065, 1.2876, 1.29712, 1.31038, 1.30264, 1.32656, 1.32357, 1.32576, 1.35775, 1.36153, 1.37493, 1.34114, 1.36792, 1.38605, 1.33609, 1.33631, 1.33584, 1.32457, 1.30232, 1.31568, 1.31416, 1.31739, 1.30895, 1.31017, 1.32247, 1.32129, 1.32273, 1.33375, 1.35111, 1.36336, 1.35146, 1.38852, 1.372, 1.38546, 1.38504, 1.38517, 1.34344, 1.35024, 1.35791, 1.36054, 1.36858, 1.4123, 1.39962, 1.39284, 1.38471, 1.37409, 1.34993, 1.34508, 1.34737, 1.34959, 1.34101, 1.30868, 1.32541, 1.33693, 1.30654, 1.30603, 1.30843, 1.31267, 1.31182, 1.3132, 1.32572, 1.31926, 1.32809, 1.35475, 1.35695, 1.34189, 1.37423, 1.36395, 1.32483, 1.3651, 1.34483, 1.30573, 1.28137, 1.28818, 1.28606, 1.29857, 1.29911, 1.2996, 1.28537, 1.28518, 1.29088, 1.29682, 1.29457, 1.29422, 1.29191, 1.28983, 1.29033, 1.29002, 1.28657, 1.28544, 1.28507, 1.28731, 1.48628, 0.0030741, 1.31009, 1.31174, 1.31354, 1.31607, 1.33668, 1.33721, 1.40655, 1.40627, 0.0035546, 0.00302618, 0.00332254, 0.00314623, 0.00350101, 0.00348691, 1.524, 0.00297337, 0.0034105, 0.00314671, 0.00315329, 0.00341586, 0.00314832, 0.00306412, 1.54801, 1.52959, 1.52949, 0.00323152, 0.00329443, 0.00364229, 1.66178, 0.00319958, 0.0033132, 1.56426, 1.56413, 0.00310129, 1.56536, 1.59529, 0.00329651, 0.0031862, 0.00332731, 0.00303859, 1.62128, 0.0032179, 0.00320469, 1.6481, 1.61366, 0.00309949, 1.66276, 0.00325006, 1.61711, 1.6319, 1.59971, 0.00318709, 0.00340259, 0.00309007, 0.00335591, 1.48796, 1.48423, 1.48033, 1.47981, 1.47901, 1.49174, 1.49149, 1.59994, 0.00272989, 1.5044, 1.50579, 1.50794, 1.50835, 1.74345, 1.48598, 1.48643, 1.48685, 1.48932, 0.00323185, 1.49856, 1.4977, 1.49689, 1.49766, 1.49717, 1.49877, 0.00315021, 0.00330344, 1.5349, 0.00312473, 1.54102, 1.56493, 1.56341, 1.41651, 1.41559, 1.41432, 1.41612, 0.00325002, 1.43055, 1.52128, 1.48582, 1.42232, 1.42237
1.14582, 1.14716, 1.14876, 1.14957, 0.886689, 0.898444, 0.895859, 0.899366, 0.898461, 0.885243, 0.874664, 0.874501, 0.873347, 0.00316429, 0.00301962, 1.04195, 0.843007, 0.842177, 0.839229, 0.829934, 0.82899, 0.826996, 0.826036, 1.16483, 1.21904, 0.00314861, 0.91907, 0.991323, 0.878062, 0.881754, 0.881152, 0.879664, 0.886858, 0.886516, 0.907201, 0.00324516, 0.862754, 0.862059, 0.859947, 0.852287, 0.852182, 0.850124, 0.84932, 0.859398, 0.866177, 0.86667, 0.873776, 0.880588, 0.881383, 1.09512, 0.890934, 0.890832, 0.892027, 0.897687, 1.13282, 1.15047, 1.14959, 0.00318492, 0.0032755, 0.00295539, 1.13029, 0.00303428, 0.00327929, 0.0031927, 0.00336853, 0.00315345, 1.04097, 1.17151, 1.14709, 0.00309521, 1.10668, 0.00324203, 1.04822, 1.04758, 1.17617, 1.22222, 1.18112, 1.18903, 1.21179, 1.20493, 1.2289, 1.19466, 1.08577, 1.0804, 1.07906, 1.08413, 1.08466, 1.14611, 1.13276, 1.07123, 1.04614, 1.04613, 1.20095, 1.04897, 1.04614, 1.21597, 1.09457, 1.10647, 1.10764, 1.10532, 1.11667, 1.12113, 1.12595, 1.12508, 1.14272, 1.1876, 1.18167, 1.17327, 1.19061, 1.21162, 1.22273, 1.20848, 1.20855, 1.28133, 1.28225, 1.28492, 1.29593, 1.28017, 1.23823, 1.25888, 1.25404, 1.25493, 1.25467, 1.30749, 1.32609, 1.3144, 1.29178, 1.26819, 1.26057, 1.2851, 1.27403, 1.2746, 1.26924, 1.268, 1.2843, 1.28377, 1.27787, 1.28456, 1.28818, 1.31575, 1.31688, 1.31714, 1.34087, 1.28799, 1.31176, 1.3128, 1.29932, 1.29341, 1.28486, 1.28634, 1.31854, 1.32598, 1.39657, 1.34386, 1.34326, 1.33698, 1.33806, 1.32798, 1.32374, 1.32331, 1.32024, 1.30905, 1.30414, 1.31272, 1.28433, 1.28432, 1.26776, 1.33758, 1.29446, 1.29455, 1.289, 1.32314, 1.32661, 1.33445, 1.33489, 1.33447, 1.37942, 1.31345, 1.31285, 1.3996, 1.48842, 1.43441, 1.45402, 1.32961, 1.30834, 1.39093, 1.28557, 1.28434, 1.28595, 1.28799, 1.2939, 1.2958, 1.29611, 1.28115, 1.28117, 1.28059, 1.28106, 1.28539, 1.28791, 1.4963, 1.54172, 1.4114, 1.3117, 1.31149, 1.34578, 0.00307001, 1.33603, 1.33693, 0.00311263, 0.00312084, 0.00309732, 0.00323526, 0.00321702, 0.00294557, 0.00338254, 0.00317633, 0.00318599, 0.00331281, 0.00343017, 0.0029828, 0.0033286, 0.00331793, 1.55761, 0.00311799, 1.53319, 1.53434, 1.5332, 1.53184, 1.53163, 0.00365055, 1.63509, 0.00306889, 0.00320128, 1.56404, 1.56302, 1.56478, 1.65229, 1.57127, 1.56986, 1.57435, 1.57251, 1.56805, 1.56714, 0.00328406, 1.62094, 1.5605, 1.55905, 1.56848, 0.00320042, 0.00339624, 1.679, 0.00316634, 1.63308, 0.0033865, 0.0032948, 0.00312139, 0.00303145, 1.63698, 0.00349724, 0.00316147, 0.00318543, 1.62529, 1.65801, 1.57299, 1.5841, 1.50608, 1.50407, 1.50219, 1.5034, 1.50781, 1.50669, 0.00306608, 0.00304591, 0.00311378, 0.00297148, 1.49719, 1.49867, 0.00317397, 1.68274, 0.00324876, 1.49666, 0.00354424, 1.49712, 1.49475, 1.4917, 0.0031971, 0.00311836, 0.00320446, 1.46728, 0.00315977, 0.00339424, 0.00320041, 0.00345358, 0.00334465, 1.54676, 1.42704, 1.42678, 1.56741, 1.55182, 0.00327173
1.14299, 0.891844, 0.891271, 0.886239, 0.886916, 0.885051, 0.900569, 0.899465, 0.00334724, 0.00347442, 0.00330258, 0.857195, 0.00330561, 0.00342117, 0.87982, 0.835104, 0.837908, 0.838259, 0.837618, 0.829063, 0.826138, 0.824413, 0.831366, 1.18128, 0.00330678, 0.00331169, 0.00334564, 0.00341187, 0.00329952, 0.00359708, 0.905073, 1.02964, 1.09828, 0.863532, 0.863871, 0.863876, 0.859817, 0.859002, 0.854708, 0.851727, 0.850118, 0.847885, 0.847047, 0.00332464, 0.00316751, 0.862578, 0.00324173, 0.913148, 0.872542, 0.891556, 0.890888, 0.891223, 0.890283, 0.893716, 1.13099, 1.19228, 0.00334771, 0.00329988, 0.00307886, 0.97032, 0.00322095, 1.00534, 1.03631, 1.03821, 0.00319215, 0.00333828, 0.00294776, 0.00346342, 0.00328843, 1.08381, 0.00304167, 0.00327199, 0.00303573, 0.00321748, 1.08764, 1.04788, 1.09981, 1.02171, 1.02133, 1.02642, 1.02712, 1.02738, 1.02833, 1.02858, 1.02871, 1.02726, 1.03231, 1.03219, 1.03217, 1.03007, 1.03623, 1.03623, 1.03623, 1.0461, 1.04625, 1.04789, 1.08888, 1.07405, 1.07415, 1.07683, 1.07785, 1.07415, 1.07373, 1.1114, 1.11842, 1.17137, 1.14634, 1.16195, 1.16548, 1.16441, 1.20095, 1.19855, 1.21217, 1.2004, 1.22116, 1.20048, 1.19951, 1.21258, 1.17349, 1.19521, 1.21537, 1.20914, 1.19241, 1.18849, 1.18435, 1.16771, 1.1868, 1.28169, 1.27801, 1.25183, 1.23748, 1.23647, 1.22375, 1.24342, 1.25078, 1.24039, 1.22491, 1.23653, 1.21285, 1.23024, 1.222, 1.22626, 1.24748, 1.24751, 1.25583, 1.26105, 1.27854, 1.27102, 1.27435, 1.2621, 1.27619, 1.30546, 1.30667, 1.31497, 1.31531, 1.29194, 1.29171, 1.30951, 1.30857, 1.31005, 1.31315, 1.31475, 1.31184, 1.37087, 1.38042, 1.34747, 1.27784, 1.27904, 1.32008, 1.38535, 1.47755, 1.3477, 1.34717, 1.38927, 1.35139, 1.35164, 1.35038, 1.33624, 1.31341, 1.31075, 1.31028, 1.30964, 1.31919, 1.31714, 1.36207, 1.29946, 1.29011, 1.59018, 1.27425, 1.27543, 1.27953, 1.28179, 1.29543, 1.28247, 1.28042, 1.28102, 1.42278, 1.30204, 1.30086, 1.30917, 1.30975, 1.32104, 1.32207, 1.32267, 0.00323655, 1.34125, 0.00296625, 1.34644, 0.00318403, 0.00329834, 0.00313119, 0.0033439, 0.00321241, 0.00336845, 0.00335803, 0.00317595, 0.00334668, 0.00358746, 0.00313847, 0.00334641, 0.00330862, 0.00347406, 0.00323681, 1.53581, 1.53316, 1.5327, 1.53313, 1.52969, 1.5291, 1.53071, 0.0030323, 1.65671, 0.00315589, 0.00325165, 0.00316863, 1.59545, 0.00324727, 1.57109, 1.57147, 1.56905, 1.57055, 1.59363, 1.56428, 1.56404, 0.00303044, 1.55986, 1.55793, 1.55735, 1.55688, 1.55026, 1.54848, 1.54845, 0.0031261, 0.00311705, 1.62046, 1.61069, 1.5264, 1.51739, 0.0032152, 1.51146, 0.00313832, 0.00330057, 1.64046, 1.50278, 1.50263, 1.502, 1.50295, 1.49996, 1.64792, 0.00318695, 0.00312141, 1.60877, 1.61262, 1.62792, 0.00321641, 1.6176, 1.69648, 0.00314343, 0.00334124, 0.00316207, 0.00308457, 0.00359388, 0.00345069, 0.00365976, 0.00295962, 0.00360079, 1.69602, 1.63033, 1.46725, 1.4706, 1.53746, 0.00315818, 0.00313969, 0.00334833, 0.00321035, 1.61986, 1.45168, 1.45026, 0.0031604, 0.00311838
0.00334312, 0.971587, 0.90165, 0.901802, 0.900773, 0.898529, 1.08288, 0.978324, 0.00330694, 0.00318402, 0.969697, 0.851074, 0.850294, 0.847771, 0.846084, 0.836991, 0.837322, 0.837508, 0.836654, 0.836438, 0.838719, 0.838926, 0.832904, 0.831256, 0.827958, 0.00299293, 0.939964, 0.912042, 0.935297, 0.0032497, 0.849888, 0.851392, 0.85052, 0.857467, 0.861203, 0.860115, 0.858917, 0.857095, 0.849467, 0.847971, 0.854464, 0.852466, 0.843148, 0.84023, 0.839046, 0.844644, 0.843906, 0.00327935, 1.12289, 0.876388, 0.87719, 0.877624, 0.877292, 0.877057, 0.884795, 0.88796, 0.894199, 0.894334, 0.89809, 0.898666, 0.902165, 1.03954, 1.02361, 0.990543, 1.16648, 0.00307493, 1.00164, 0.0032669, 1.20563, 1.03985, 1.05549, 1.00211, 1.02203, 0.0030264, 1.19143, 1.00519, 1.00805, 1.14633, 1.06403, 1.18886, 1.09617, 1.06698, 1.08879, 1.07795, 1.13349, 1.10932, 1.10067, 1.05886, 1.05703, 1.05576, 1.12635, 1.03691, 1.03613, 1.03985, 1.11827, 1.07096, 1.07496, 1.08145, 1.08526, 1.08783, 1.08811, 1.12301, 1.11657, 1.11769, 1.13544, 1.1527, 1.16401, 1.17353, 1.17188, 1.15056, 1.15391, 1.18781, 1.2027, 1.17, 1.16408, 1.19235, 1.19906, 1.26326, 1.23018, 1.14832, 1.18255, 1.1612, 1.16377, 1.13971, 1.13674, 1.13737, 1.14111, 1.14255, 1.15109, 1.13969, 1.16688, 1.19513, 1.22441, 1.22757, 1.24107, 1.24981, 1.2012, 1.23609, 1.22284, 1.24655, 1.24714, 1.24652, 1.24006, 1.27096, 1.26515, 1.27283, 1.26926, 1.27818, 1.29146, 1.31808, 1.29147, 1.33182, 1.31885, 1.29484, 1.30907, 1.30978, 1.37416, 1.37044, 1.37942, 1.38117, 1.41294, 0.0031816, 1.39854, 1.36727, 1.34249, 1.34336, 1.39489, 1.35432, 1.36644, 1.35451, 1.49093, 1.48676, 1.43588, 1.4355, 1.35214, 1.35371, 1.34519, 1.32832, 1.31923, 1.32093, 1.31956, 1.31754, 1.3184, 1.33146, 1.31581, 0.00293887, 1.28852, 1.28515, 1.28048, 1.28007, 1.28022, 1.28262, 1.28432, 1.28847, 1.4561, 1.3955, 1.3021, 1.30347, 1.3082, 1.31523, 1.31632, 1.32335, 1.43144, 1.34031, 1.34729, 0.00337914, 1.37475, 0.00339866, 0.00329411, 0.00316788, 0.00301976, 0.00308333, 0.00307289, 0.00328345, 0.00340713, 0.00330175, 0.0034172, 0.00313195, 1.59304, 0.00336352, 0.00340965, 0.00319953, 0.00346873, 0.00323044, 1.53252, 1.53374, 1.53026, 1.52938, 1.52874, 1.53033, 1.5351, 0.00319367, 0.00331369, 0.00323397, 0.00347258, 0.00313895, 0.00320469, 0.00332497, 1.56659, 1.56578, 1.56596, 1.56383, 1.56266, 1.56129, 1.56864, 1.55933, 1.55782, 1.55697, 1.5547, 1.55421, 1.55325, 1.55223, 1.55008, 0.00301584, 1.56907, 1.53525, 1.63677, 1.5177, 1.51678, 0.00330622, 1.51366, 1.66772, 1.50227, 1.50222, 1.50245, 1.50234, 1.50214, 1.50167, 1.50271, 1.59723, 1.58604, 0.00308248, 1.5414, 0.00302957, 0.00324043, 0.00302744, 0.00328699, 0.00324095, 0.00329056, 1.51149, 1.50979, 1.50915, 0.00334735, 0.00319867, 1.48178, 1.48086, 1.47778, 1.47737, 1.4744, 0.00328707, 1.64937, 0.00315797, 0.0033103, 0.0030727, 1.57256, 0.00295547, 0.00341709, 0.00322304, 1.48147, 0.00322559
0.914592, 0.913588, 0.914355, 1.48134, 0.00333058, 0.895792, 0.00317689, 0.00349718, 1.05754, 0.904167, 0.0033129, 0.931078, 0.838279, 0.837835, 0.845219, 0.843725, 0.843379, 0.835225, 0.837953, 0.838794, 0.839732, 0.842082, 0.842365, 0.938856, 0.936059, 0.814034, 0.810875, 0.809991, 0.811628, 0.798212, 0.79825, 0.908776, 0.00306152, 0.861404, 0.860755, 0.856875, 0.847348, 0.845985, 0.00320596, 0.846013, 0.84735, 0.848793, 0.848897, 0.846421, 0.855702, 0.855696, 0.855761, 0.859261, 0.859443, 1.18143, 0.868546, 0.885144, 0.881823, 0.880765, 0.902737, 0.900737, 0.899249, 0.897781, 0.904098, 0.904439, 0.894124, 0.893633, 0.895521, 0.981048, 0.00298703, 0.00363897, 0.00318079, 0.0033428, 0.00327654, 0.96322, 0.00345599, 0.0034213, 0.00299443, 1.01752, 1.01948, 1.02029, 0.00326932, 1.17902, 1.02872, 1.12866, 1.17887, 1.05691, 1.14445, 1.06977, 1.05984, 1.06029, 1.06039, 1.06008, 1.0605, 1.09837, 1.15643, 1.12603, 1.10355, 1.11604, 1.11872, 1.18127, 1.09554, 1.10113, 1.09854, 1.09232, 1.1012, 0.00300165, 0.00321055, 1.19281, 1.15534, 1.15689, 1.15087, 1.15272, 1.16755, 1.25375, 1.27632, 1.18726, 1.18525, 1.1712, 1.16755, 1.16754, 1.16186, 1.17135, 1.13886, 1.13861, 1.25901, 1.12902, 1.10574, 1.12851, 1.12702, 1.13433, 1.13215, 1.13784, 1.16069, 1.16619, 1.18617, 1.22104, 1.24163, 1.26341, 1.25375, 1.23259, 1.22981, 1.25428, 1.24103, 1.26025, 1.27385, 1.27372, 1.26388, 1.26571, 1.26504, 1.27107, 1.27517, 1.28159, 1.38769, 1.31016, 1.30572, 1.30477, 1.38797, 1.36771, 1.36573, 1.34708, 1.29347, 1.29218, 1.29085, 1.28758, 1.27896, 1.29481, 1.29814, 0.00337668, 1.46876, 1.3317, 1.33484, 1.33438, 1.34211, 1.34212, 1.37186, 1.35374, 1.34918, 1.34764, 1.34796, 1.34116, 1.34509, 1.34123, 1.31686, 1.31513, 1.31177, 1.30818, 1.30726, 1.29974, 1.29313, 1.28903, 1.28566, 1.28082, 1.28013, 1.27889, 1.28022, 1.28126, 1.2888, 1.29094, 1.30145, 1.30905, 1.31453, 1.31277, 1.31263, 1.31942, 1.32496, 1.32776, 0.00321252, 0.00324806, 0.00306632, 0.00319329, 0.00337103, 0.00327512, 0.0029555, 0.00339609, 0.0032263, 0.00345723, 0.00340637, 0.0032163, 0.00326284, 0.00347031, 0.00304168, 1.57481, 1.57503, 1.55144, 1.65066, 1.53076, 1.53088, 1.53039, 1.52748, 1.52714, 1.6175, 1.52896, 1.52824, 1.62872, 1.5281, 1.52697, 0.00311596, 0.00312462, 0.00315312, 0.00330411, 0.00325862, 0.00303304, 0.0032651, 0.00347997, 0.00338062, 0.00336064, 0.003171, 0.00348976, 1.61403, 1.61467, 1.5515, 0.00324171, 1.55325, 1.55074, 0.00311343, 1.56534, 0.00303617, 1.55592, 0.00324266, 0.00313375, 0.00317225, 0.00346299, 0.00300792, 1.5123, 1.51142, 1.51045, 1.50614, 1.50511, 1.50215, 1.50008, 1.4998, 1.49637, 1.50166, 1.50102, 1.59187, 0.00348599, 1.59188, 1.54349, 1.54305, 0.00343385, 0.00331185, 0.00329098, 1.51062, 1.51049, 1.50688, 1.50583, 0.00317907, 0.00326351, 1.48313, 1.48168, 1.47679, 1.47598, 0.00305889, 0.00303644, 0.00332841, 0.0033174, 0.00333207, 0.00338085, 0.00309433, 1.50993, 1.51182, 0.00325774, 0.00320206, 1.52024
0.911612, 1.08008, 0.977325, 0.897159, 0.893983, 0.00322883, 0.902112, 0.900304, 0.855884, 0.846075, 0.840466, 0.837745, 0.842309, 0.832741, 0.833613, 0.836601, 0.839405, 0.83942, 0.840657, 0.904302, 0.902411, 0.846048, 0.843014, 0.842024, 0.00301261, 0.00339507, 0.00310537, 0.794981, 0.794095, 0.793467, 0.786736, 0.787518, 0.787569, 0.00309028, 0.00320534, 0.848947, 0.848521, 0.838918, 0.837881, 0.839757, 0.845525, 0.842022, 0.85576, 0.856047, 0.855652, 0.858088, 0.856373, 0.849312, 0.849463, 0.849885, 0.865064, 0.925227, 0.00318822, 0.886118, 0.885903, 0.891692, 0.892287, 0.891811, 0.896746, 0.899465, 0.901058, 0.891622, 0.889237, 0.888841, 0.889158, 0.00320847, 0.971964, 0.00330195, 0.00327114, 0.00328302, 1.15352, 1.00775, 1.00751, 1.22277, 1.20927, 1.02611, 1.03035, 1.03072, 1.03927, 1.1969, 1.05294, 1.05288, 1.05329, 1.05095, 1.05156, 1.05317, 1.1293, 1.15331, 1.10239, 1.12713, 1.16783, 1.10576, 1.10491, 1.1249, 1.11835, 1.15757, 1.17061, 1.16667, 1.11423, 1.18562, 0.00343676, 1.19003, 1.19087, 1.19883, 1.19923, 1.25633, 1.23569, 1.2357, 1.23409, 1.24928, 1.22547, 1.22733, 1.20742, 1.20707, 1.20836, 1.20788, 1.20655, 1.17159, 1.17214, 1.19783, 1.22242, 1.13266, 1.24987, 1.25104, 1.12884, 1.13695, 0.00311663, 1.17084, 1.23261, 1.25787, 1.23392, 1.24447, 1.24503, 1.52667, 1.25467, 1.25181, 1.25299, 1.50614, 1.25931, 1.25692, 1.25983, 1.30211, 1.27377, 1.27408, 1.27422, 1.28492, 1.28524, 1.28989, 1.28125, 1.28871, 1.29364, 1.42676, 1.34256, 1.34286, 1.3465, 1.34617, 1.34978, 1.34412, 1.49624, 1.28659, 1.28869, 1.29107, 1.34373, 1.31135, 1.31177, 1.32422, 1.32585, 1.32618, 1.44529, 1.51389, 1.31157, 1.31227, 1.31672, 1.31765, 1.31749, 1.31636, 1.31622, 1.4078, 1.31061, 1.30997, 1.31182, 1.31164, 1.30548, 1.29997, 1.29887, 1.29915, 1.38136, 1.45751, 1.45966, 1.47636, 1.3001, 1.29148, 1.29098, 1.29134, 1.30479, 1.30446, 1.30927, 1.31068, 1.31289, 1.32226, 1.32558, 1.32637, 1.45732, 0.0033476, 0.00329021, 0.00340224, 0.00319833, 0.00324481, 0.00330676, 0.00325465, 0.00323156, 0.00330241, 0.00319249, 0.00345714, 0.00318111, 0.00312196, 0.00330651, 0.00308708, 1.65521, 0.00312739, 1.5299, 1.52789, 1.52859, 1.52685, 1.52597, 1.52433, 1.64598, 1.5237, 1.52222, 1.51976, 1.51897, 1.64485, 0.00317871, 1.65522, 1.62729, 0.0032705, 0.00310858, 0.00331245, 1.62656, 0.00308842, 1.61775, 0.00308671, 1.59981, 0.00305743, 0.00324371, 1.61636, 1.60917, 0.00330097, 1.55376, 1.56106, 0.00328302, 1.60403, 0.00344738, 0.0031911, 1.61045, 0.00316152, 1.52309, 1.51828, 1.51699, 1.51552, 1.51604, 0.00342941, 0.00346963, 0.00297198, 1.58294, 1.48759, 1.48722, 1.48776, 1.4879, 0.00311128, 1.59492, 1.5959, 0.00323683, 0.00317105, 0.00344715, 0.00314997, 1.61439, 1.50947, 1.50966, 1.50938, 1.50569, 1.49962, 1.49973, 0.00318858, 1.51907, 1.48794, 1.48101, 1.47897, 0.00325442, 1.50377, 1.50226, 1.50208, 1.59294, 0.00302497, 0.00331521, 0.00323937, 0.00311499, 0.00321933, 0.00337053, 0.00341702
1.06568, 1.0619, 0.00338768, 0.986697, 1.01963, 1.03461, 0.864282, 0.863665, 1.0295, 0.842662, 0.841075, 0.844104, 0.841632, 0.839408, 0.835393, 0.836874, 0.00322723, 0.00324178, 0.00298773, 0.870348, 0.869682, 0.00315424, 0.0032957, 0.00320696, 0.925999, 0.903684, 0.807857, 0.807234, 0.804697, 0.797913, 0.795381, 0.786362, 0.78683, 0.872232, 0.00311781, 0.833861, 0.833789, 0.835531, 0.836324, 0.841766, 0.852048, 0.852667, 0.852923, 0.852095, 0.852348, 0.850838, 0.849244, 0.847608, 0.844058, 0.84363, 0.846309, 0.936216, 0.00304788, 0.00343452, 0.00302072, 0.00339598, 0.0031115, 0.0033707, 0.869575, 0.939773, 0.984918, 0.00342883, 0.00321947, 0.00337391, 0.897168, 0.897375, 0.00321883, 0.00351273, 0.00331031, 1.01693, 0.00317664, 1.02616, 1.0293, 1.14445, 0.00294489, 1.1056, 1.1172, 1.16135, 1.1295, 1.17216, 1.12683, 1.16423, 1.04505, 1.06231, 1.24751, 1.04967, 1.20628, 1.17716, 1.22083, 1.24991, 1.17525, 1.14408, 1.17057, 1.17336, 1.13589, 1.13596, 1.1906, 1.21561, 1.25371, 1.24557, 0.00315883, 1.18954, 1.19532, 1.19415, 1.1932, 1.2582, 1.23247, 1.23222, 1.23296, 1.23476, 1.4805, 1.47113, 1.21102, 1.2093, 1.20511, 1.31511, 1.19447, 1.19347, 1.20896, 1.1953, 1.19409, 1.19291, 1.19091, 1.19933, 0.00300303, 1.2117, 1.21205, 1.25183, 1.25244, 1.24071, 1.22876, 1.23247, 1.3928, 1.39978, 1.23932, 1.24031, 1.24058, 1.24193, 1.52589, 1.25324, 1.25513, 1.25749, 1.26295, 1.25859, 1.25766, 1.38274, 1.2625, 1.26688, 1.27155, 1.27577, 1.38023, 1.37607, 1.33891, 1.33838, 1.33976, 1.33933, 1.33921, 1.34001, 1.34026, 1.31691, 1.31576, 1.29822, 1.29689, 1.29828, 1.48434, 1.50358, 1.32458, 1.32517, 1.32399, 1.32146, 1.32012, 1.31503, 1.31561, 1.31406, 1.31294, 1.31297, 1.30903, 1.30828, 1.30823, 1.31029, 1.31205, 1.31102, 1.30486, 1.30141, 1.30113, 1.30028, 1.29574, 1.29415, 1.29342, 1.29289, 1.29462, 1.52103, 1.35098, 1.34989, 1.2997, 1.30192, 1.30515, 1.3111, 1.31925, 0.00346513, 1.32898, 1.32944, 0.00317032, 0.00315339, 0.00333275, 0.00345045, 0.00336258, 0.00326168, 0.00310395, 0.00338298, 0.00292257, 0.00333799, 0.00323079, 0.00346868, 0.00331966, 0.00327024, 0.00334061, 0.00333392, 0.00317812, 0.00310879, 1.58531, 0.00312524, 0.0030361, 1.57821, 1.5233, 1.52133, 1.5201, 1.51907, 1.51998, 1.65048, 1.65832, 1.50954, 1.5095, 1.64021, 0.00320487, 1.59534, 1.5971, 1.62036, 1.57224, 1.61698, 1.61739, 1.5979, 0.00307709, 1.58592, 0.00314396, 1.53376, 1.60941, 1.61298, 0.00321135, 1.56425, 1.60372, 1.60994, 1.5725, 1.52274, 1.52342, 1.5219, 1.51974, 1.51908, 1.51711, 1.51627, 0.00321757, 1.51983, 1.50046, 1.49237, 1.48814, 1.48806, 1.4858, 1.48532, 1.48618, 1.4862, 1.60954, 1.70432, 1.50912, 1.50681, 0.00330838, 1.5189, 1.51836, 1.51178, 1.5106, 1.51114, 1.50703, 1.50744, 0.00334497, 0.00307373, 1.48903, 1.48755, 1.48636, 1.48382, 0.00300405, 0.00328767, 1.50291, 1.49914, 0.00337525, 0.00328929, 0.00342491, 0.00290101, 0.00334222, 0.00333737, 0.00284589, 1.56876
0.995415, 0.00331345, 0.00339023, 0.00352328, 0.00326541, 0.929126, 1.00472, 0.00320831, 0.929437, 0.929101, 0.858774, 0.860792, 0.860255, 0.855916, 0.859256, 0.901586, 0.00345509, 0.925891, 0.870817, 0.873883, 0.873403, 0.872111, 0.00332894, 0.00332032, 0.915029, 0.817515, 0.00310347, 0.807772, 0.808064, 0.86373, 0.00302088, 0.00292222, 0.00315594, 0.00327717, 0.828902, 0.830954, 0.832459, 0.832298, 0.842059, 0.840618, 0.838609, 0.851573, 0.852643, 0.850782, 0.845249, 0.844352, 0.842271, 0.843141, 0.842895, 0.850382, 0.849193, 0.848834, 0.855965, 0.856271, 0.862004, 0.86261, 0.862238, 0.862961, 0.860743, 0.861229, 0.859241, 0.859876, 0.862862, 0.00338474, 0.977515, 0.00313427, 1.00919, 1.01491, 1.01329, 1.02218, 1.02926, 1.03422, 1.14291, 0.985021, 0.982857, 0.986952, 1.07804, 1.0767, 1.09241, 1.02188, 1.11709, 1.02908, 1.02854, 1.12536, 1.21386, 1.25561, 1.17178, 1.20984, 1.19844, 1.20289, 1.2133, 1.12922, 1.17039, 1.18907, 1.2274, 1.15059, 1.20077, 1.22206, 1.19477, 1.17615, 1.27841, 1.18777, 1.18936, 1.18973, 1.24027, 1.24684, 1.2376, 1.22424, 1.22429, 1.30195, 1.32324, 1.20618, 1.20278, 1.2013, 1.35865, 1.19147, 1.18493, 1.18395, 1.18328, 1.1863, 1.191, 1.1866, 1.18299, 1.18358, 1.1845, 1.18744, 1.26462, 1.25823, 1.35086, 1.21522, 1.21949, 1.21902, 1.21887, 1.37139, 1.4175, 1.34389, 1.75557, 1.2551, 1.25635, 1.25769, 1.25564, 1.25558, 1.2552, 1.25676, 1.25581, 1.25711, 1.48476, 0.00325856, 1.37123, 1.33685, 0.0033723, 1.34764, 1.33165, 1.33389, 1.3362, 1.33633, 1.33639, 1.33603, 1.3366, 1.32732, 1.31549, 1.31664, 1.40015, 1.40282, 1.30944, 1.31005, 1.31148, 1.31134, 1.31183, 1.31199, 1.3128, 1.31756, 1.30839, 1.30346, 1.30307, 1.30147, 1.30179, 1.30968, 1.31259, 1.31483, 1.31698, 1.31668, 1.31969, 1.31003, 1.31186, 1.30704, 1.64441, 1.29097, 1.28908, 1.29037, 1.39417, 1.27533, 1.27589, 1.28064, 1.28162, 1.28915, 0.00325297, 0.00326638, 1.37172, 0.0032059, 0.0033665, 0.00305418, 0.00320473, 0.0032661, 0.00327095, 0.00308706, 0.00341965, 0.00323197, 0.00347556, 0.00314912, 0.00349578, 0.00307387, 0.00321368, 0.00302301, 1.53604, 0.00333103, 1.60212, 1.60971, 1.61941, 1.51762, 1.51683, 1.51899, 1.51901, 1.51725, 1.51524, 1.51568, 1.5164, 1.51468, 1.51256, 1.51262, 1.57406, 1.50259, 1.59071, 1.49936, 1.49836, 1.58857, 1.62328, 1.62257, 0.00326156, 1.51714, 1.5172, 1.57415, 1.5331, 0.00309882, 0.00320892, 1.52, 1.52247, 1.52607, 0.00321282, 1.51994, 1.51859, 1.51719, 1.51599, 1.51884, 1.5169, 1.51648, 1.51626, 1.54683, 1.5737, 0.00322391, 1.50449, 1.50311, 1.50148, 0.00283206, 1.48999, 1.48684, 1.48713, 1.48635, 1.48568, 1.4866, 1.4914, 1.49119, 0.00311824, 0.00355228, 1.5819, 1.52281, 1.52003, 1.5174, 1.5192, 1.52016, 1.5143, 1.50965, 0.00334746, 0.00296669, 1.49151, 1.48923, 1.48795, 1.48603, 1.48455, 0.00302025, 0.00340681, 0.00316868, 1.51288, 1.61241, 0.00316059, 0.00333457, 0.0031624, 0.00325256, 0.00326882, 0.00320973
0.00324107, 0.00352325, 1.00829, 1.00555, 0.00326999, 0.00314299, 0.00314699, 0.00316385, 0.0032007, 0.956184, 0.00332535, 0.866302, 0.866533, 0.865655, 0.877416, 0.877134, 0.87772, 0.877452, 0.873911, 0.87351, 0.866658, 0.867287, 0.866058, 0.00316501, 0.00304001, 0.84505, 0.842469, 0.841315, 0.836596, 0.835266, 0.835282, 0.835734, 0.839899, 0.835886, 0.832278, 0.829493, 0.83171, 0.835582, 0.835819, 0.836747, 0.8381, 0.00308507, 0.00345379, 0.00318658, 0.837011, 0.835237, 0.835186, 0.835959, 0.00336696, 0.851738, 0.849719, 0.859343, 0.859111, 0.857689, 0.863261, 0.859448, 0.861581, 0.863221, 0.863973, 0.860649, 0.862859, 0.864186, 0.00302439, 0.0032797, 0.00320381, 1.16902, 0.00306022, 1.01851, 1.01927, 1.02323, 0.974061, 0.974163, 1.14975, 0.988696, 0.988755, 0.98696, 1.08421, 0.994669, 1.18071, 0.00301444, 0.00319177, 1.0465, 1.19513, 1.14661, 1.17197, 1.32285, 1.24754, 1.19162, 1.20511, 1.20504, 1.23633, 1.23236, 1.27627, 1.25647, 1.2435, 1.23374, 1.22169, 1.22498, 1.2174, 1.18463, 1.18432, 1.18492, 1.18844, 1.2678, 1.21073, 1.20891, 1.21199, 0.00313993, 1.57871, 1.39228, 1.21352, 1.19648, 1.19337, 1.19354, 1.19171, 1.18433, 1.1839, 1.18423, 1.18376, 1.18583, 1.19083, 1.19068, 1.19019, 1.18914, 1.38619, 1.38885, 1.20104, 1.41291, 1.20866, 1.20834, 1.44834, 1.21011, 1.44663, 1.21863, 1.32533, 1.2396, 1.24406, 1.24865, 1.25045, 1.24952, 1.24754, 1.24531, 1.53526, 1.31846, 1.43392, 0.00316262, 1.37146, 1.36492, 1.59274, 1.6339, 1.33942, 1.33995, 1.3313, 1.3338, 1.3346, 1.33547, 1.33423, 1.33594, 1.33711, 1.33245, 1.33279, 1.32945, 1.32285, 1.32289, 1.32196, 1.31972, 1.3127, 1.31236, 1.31205, 1.31036, 1.31233, 1.31221, 1.29951, 1.29896, 1.2909, 1.29001, 1.33409, 1.30693, 1.3089, 1.31329, 1.31852, 1.31877, 1.3182, 1.31627, 1.31611, 1.4575, 1.30032, 1.30044, 1.68512, 1.52704, 1.54189, 1.29829, 0.00327872, 1.44404, 0.00323615, 1.44396, 1.45853, 1.37599, 0.00295796, 0.00310068, 0.00336774, 0.00334431, 0.00329768, 0.00310049, 0.00311824, 0.00324166, 0.00313581, 0.00319127, 0.00324524, 0.00320556, 0.00314069, 0.00335216, 1.46761, 1.46732, 0.00299343, 0.00324282, 0.00315753, 1.5518, 1.55497, 0.00313793, 0.00303689, 1.51884, 1.51983, 1.51947, 1.51914, 1.51764, 1.51754, 1.51555, 1.56469, 1.50724, 1.50532, 1.50537, 1.54014, 1.49657, 1.49739, 1.49636, 1.497, 1.50121, 1.60676, 0.00322084, 1.60578, 1.60726, 1.51972, 1.51931, 1.51938, 1.5189, 1.51996, 1.51946, 1.51892, 1.51651, 1.51628, 1.51597, 1.51423, 1.51222, 1.51013, 1.51171, 1.51075, 1.50106, 1.49894, 1.49851, 1.50396, 1.5037, 1.50178, 0.00328724, 1.48588, 1.48423, 1.48406, 1.48272, 1.48018, 1.4895, 1.488, 1.48591, 0.00328787, 1.57274, 1.51981, 1.51907, 1.51933, 1.54205, 0.00315719, 1.50936, 1.50598, 1.50977, 1.50909, 0.00294044, 1.53764, 0.00308933, 0.00313054, 1.48103, 1.47497, 1.4742, 0.00331177, 0.00333292, 0.00330741, 0.00338339, 0.00317607, 0.00335988, 0.00334306, 0.00329935, 0.00330398, 0.00294267
0.00335897, 0.922744, 0.924688, 0.926019, 0.924699, 0.928915, 0.928853, 0.00300212, 0.00369014, 0.00318809, 0.883935, 0.88142, 0.877673, 0.875989, 0.875445, 0.881377, 0.880656, 0.875173, 0.873632, 0.867453, 0.86681, 0.859363, 0.857781, 0.855639, 0.847087, 0.845537, 0.84231, 0.841135, 0.840761, 0.838801, 0.837496, 0.836036, 0.835445, 0.00328888, 0.00330478, 0.830529, 0.828457, 0.00306395, 0.828882, 0.82838, 0.827839, 0.826173, 0.825034, 0.819925, 0.820888, 0.821682, 0.823444, 0.821145, 0.820644, 0.819687, 0.00326133, 0.00325314, 0.853789, 0.85414, 0.853257, 0.00307442, 0.869598, 0.869456, 0.860767, 0.865674, 0.869379, 0.00309664, 0.89474, 0.894718, 0.892466, 0.89245, 0.00314928, 0.00347081, 1.04265, 0.00318735, 0.00327205, 0.00302043, 0.980759, 0.98031, 0.979894, 0.968356, 0.968945, 1.21216, 1.21001, 0.00314232, 1.07832, 1.23352, 1.23365, 1.19529, 1.19509, 1.25547, 1.25701, 1.25389, 1.26133, 1.32311, 1.21547, 1.22964, 1.24998, 1.26912, 1.33175, 1.19116, 1.20105, 1.27255, 1.23383, 1.24311, 1.24418, 1.24356, 1.24403, 1.20625, 1.20814, 1.2298, 1.34452, 1.19208, 1.19063, 1.19427, 1.19618, 1.19283, 1.19195, 1.1901, 1.19073, 1.1874, 1.18477, 1.18451, 1.18439, 1.18499, 1.4676, 1.48446, 1.18634, 1.18499, 1.18718, 1.1919, 1.1951, 1.19523, 1.20194, 1.20618, 1.20688, 1.20591, 1.2062, 1.43133, 1.45401, 0.0031296, 1.30271, 1.55901, 1.38556, 1.38538, 1.41644, 1.52224, 1.52339, 0.00304156, 1.62077, 0.0031426, 0.00311, 1.50413, 1.35099, 1.34377, 1.34341, 1.34034, 1.33952, 1.33872, 1.33585, 1.33615, 1.33603, 1.33618, 1.33693, 1.33707, 1.33282, 1.33326, 1.33029, 1.32885, 1.32803, 1.32137, 1.31645, 1.31439, 1.31356, 1.31152, 1.31011, 1.30902, 1.3055, 1.29504, 1.29367, 1.29132, 1.35677, 1.38397, 1.33739, 1.38494, 1.31662, 1.31643, 1.31865, 1.3195, 1.31194, 1.30687, 1.30569, 0.00317114, 1.32723, 0.00309167, 1.56623, 1.35524, 1.30492, 1.30584, 1.31254, 0.00328053, 0.00332016, 0.00323013, 1.38846, 0.00304403, 0.00342309, 0.00319403, 0.00336944, 0.00313767, 0.00324318, 0.00310022, 0.00317047, 0.00326074, 0.00345174, 0.00289984, 0.00363894, 0.00311423, 1.47587, 1.47115, 1.47056, 1.4707, 0.00296058, 0.0030804, 1.59854, 0.00306967, 1.51733, 0.00317279, 1.60429, 1.59824, 1.51491, 1.51455, 1.51549, 1.50995, 1.50902, 1.50904, 1.50556, 1.50371, 1.50295, 1.50281, 1.49992, 1.49748, 1.49834, 1.49846, 1.49891, 1.50152, 1.51256, 1.51176, 1.50962, 1.51093, 1.51935, 1.51987, 1.52027, 1.52006, 1.52062, 1.51745, 1.51319, 1.51217, 1.51017, 1.5085, 1.50756, 1.50785, 1.50564, 1.50418, 1.49913, 1.50185, 1.50106, 1.50182, 1.50289, 1.49822, 1.54104, 1.48218, 1.48247, 1.48354, 1.48555, 0.00296327, 1.49046, 1.48927, 1.58487, 0.00307774, 1.51884, 1.51456, 1.51026, 1.51087, 1.51009, 1.50599, 1.50523, 1.5029, 1.50364, 1.50347, 1.50243, 1.50082, 0.00309322, 0.00319829, 1.47531, 1.47455, 1.47756, 0.00336778, 1.489, 0.00325044, 0.00318923, 0.00316577, 0.00352559, 0.00325014, 1.52981, 0.00304069
0.930903, 0.930409, 0.928207, 0.925729, 0.925145, 0.928965, 0.00319304, 0.912247, 0.00336619, 0.00335383, 0.00307844, 0.00327498, 0.882966, 0.874134, 0.874633, 0.873563, 0.871375, 0.871976, 0.863356, 0.864056, 0.866096, 0.863921, 0.861263, 0.859992, 0.851939, 0.849401, 0.848767, 0.841863, 0.841162, 0.840614, 0.826429, 0.825349, 0.00305435, 0.00317302, 0.827929, 0.82532, 0.824895, 0.823051, 0.826647, 0.826972, 0.835728, 0.835687, 0.821072, 0.818891, 0.816902, 0.81728, 0.820944, 0.820342, 0.818819, 0.818035, 0.880418, 0.00308885, 0.850067, 0.00339698, 0.00344209, 0.00334154, 0.00309747, 0.865695, 0.866561, 0.865825, 0.874363, 0.87443, 0.897944, 0.89781, 0.891939, 0.8959, 0.897107, 0.895865, 0.00324697, 0.975192, 0.00307198, 1.00733, 0.00326309, 1.03552, 0.00329317, 0.00340397, 1.20152, 1.21021, 1.10525, 1.0849, 1.1117, 1.22719, 1.12627, 1.00191, 1.16037, 1.33328, 1.32399, 1.32687, 1.32725, 1.25731, 1.21334, 1.22087, 1.34357, 1.29882, 1.24115, 1.28937, 1.25084, 1.23233, 1.23246, 1.23322, 1.26639, 1.26638, 1.24102, 1.23877, 0.00324387, 1.1979, 1.19752, 1.19636, 1.18979, 1.19029, 1.19413, 1.19469, 1.19026, 1.18936, 1.18796, 1.18386, 1.18103, 1.1802, 1.17722, 1.17354, 1.17519, 1.17818, 1.17878, 1.17935, 1.18196, 1.18776, 1.19417, 1.19868, 1.19887, 1.20228, 1.20189, 1.20436, 1.20457, 1.20863, 1.44768, 1.29547, 1.2377, 1.23824, 1.33928, 1.37663, 0.00308664, 0.00358826, 1.36506, 0.00309265, 0.00300918, 1.49949, 1.3536, 1.35674, 1.35661, 1.35693, 1.34989, 1.34343, 1.34282, 1.34157, 1.33437, 1.33283, 1.33602, 1.33593, 1.33676, 1.33848, 1.59927, 1.3266, 1.33123, 1.32882, 1.32769, 1.33052, 1.32253, 1.32163, 1.32139, 0.00351153, 0.00304778, 1.4067, 1.40751, 1.30615, 1.42351, 0.0031708, 0.00297922, 0.00302917, 0.00323129, 1.32387, 1.3231, 1.32304, 1.32176, 1.3192, 1.31962, 1.36425, 1.42273, 0.00321604, 0.00326529, 0.00325838, 0.00326201, 0.00329424, 0.00310533, 0.00347945, 0.00305889, 0.00324597, 0.00330061, 0.00331186, 0.00312188, 0.00328855, 0.00309743, 0.00361265, 0.00303605, 1.43432, 0.00312673, 0.00349721, 0.00313418, 1.51338, 0.00319137, 0.00320415, 0.00304651, 1.47305, 1.47288, 1.4724, 1.4702, 1.4676, 1.46684, 1.56568, 0.00302385, 1.58266, 1.57597, 1.60785, 1.63172, 1.59083, 0.0030079, 1.53615, 0.00305227, 1.50766, 1.50684, 1.50656, 0.00324436, 1.50015, 1.50299, 1.50251, 1.6234, 1.49469, 1.49318, 1.49221, 1.4945, 1.49974, 1.49987, 1.50733, 1.50626, 1.51336, 1.51551, 1.51741, 1.51812, 1.51781, 1.51815, 1.51507, 1.51007, 1.50956, 1.50695, 1.50523, 1.5055, 1.5038, 1.50464, 1.50397, 1.50349, 1.5033, 1.50068, 1.50168, 1.50046, 1.4964, 1.49562, 1.49465, 1.49929, 0.00340054, 0.00312361, 0.00326139, 0.00325068, 0.00301414, 1.51044, 1.5124, 1.51204, 1.51075, 1.50946, 1.51917, 1.52039, 1.51576, 1.51511, 1.50183, 1.50069, 1.49629, 1.49556, 1.49627, 1.49509, 1.49641, 1.48962, 1.48185, 1.47935, 1.48241, 1.48635, 1.50049, 1.4986, 1.49867, 0.00293833, 0.00316039, 0.00331507, 0.00328937
0.955238, 0.00311505, 0.0032596, 0.91622, 0.915571, 0.00316923, 0.908911, 0.905816, 0.901758, 0.90129, 0.899333, 0.0031844, 0.886294, 0.878479, 0.877855, 0.877249, 0.868929, 0.865767, 0.863515, 0.864891, 0.865905, 1.02714, 0.855577, 0.856021, 0.855662, 0.852178, 0.844356, 0.836035, 0.834523, 0.833902, 0.814874, 0.811194, 0.808652, 0.809283, 0.816798, 0.817988, 0.818796, 1.39557, 0.00317921, 0.836859, 0.836265, 0.00339918, 0.815915, 0.814946, 0.807307, 0.806992, 0.00321222, 0.821545, 0.820439, 0.820932, 0.00354039, 0.00350461, 0.870048, 0.806064, 0.804663, 0.00309811, 0.00297026, 0.00301334, 0.00328809, 0.00305605, 0.00330734, 0.00332441, 0.00316386, 0.00337852, 0.904642, 0.903096, 0.89814, 0.88873, 0.0036192, 0.98455, 0.950348, 0.00317032, 0.00348297, 1.19149, 1.20984, 0.938409, 0.937647, 0.00322684, 1.0115, 1.01462, 1.10623, 1.23644, 1.22317, 1.23175, 1.03723, 1.24747, 1.24757, 1.32673, 1.32443, 1.01922, 1.22278, 1.17234, 1.17335, 1.17244, 1.34516, 1.34316, 1.2606, 1.15686, 1.14338, 1.24629, 1.25448, 1.27216, 1.2228, 1.2336, 1.20651, 1.18243, 1.18359, 1.18394, 1.18514, 1.19209, 1.19475, 1.43157, 1.18538, 1.18412, 1.18331, 1.18098, 1.18056, 1.18221, 1.18026, 1.17919, 1.17863, 1.18051, 1.18073, 1.18283, 1.44337, 1.44137, 1.20119, 1.19974, 1.1985, 1.19499, 1.38898, 0.00317184, 1.20981, 1.52913, 1.52914, 1.44259, 1.34077, 1.34049, 1.33416, 0.00314661, 1.36933, 1.36298, 1.36004, 1.36036, 1.35907, 1.36369, 1.3571, 1.35658, 1.35491, 1.3531, 1.35119, 1.35091, 1.34665, 1.34742, 1.34616, 1.34243, 1.33405, 1.33266, 1.33103, 1.35473, 1.32069, 1.31988, 1.31858, 1.31987, 1.32097, 1.33315, 1.33123, 1.32844, 1.32899, 1.32776, 1.32877, 1.32497, 1.3263, 1.32077, 0.00318231, 1.5718, 1.42051, 1.40944, 1.37529, 0.00319292, 1.32638, 1.32565, 1.3294, 0.00316703, 0.00329398, 0.00313914, 1.50996, 0.00338814, 0.00327176, 0.0032381, 0.00338629, 0.00334552, 0.00333098, 0.00304844, 0.00322096, 0.00314701, 0.00322853, 0.00316532, 0.00307721, 0.00324386, 0.003369, 0.00336481, 0.00343682, 0.00322887, 1.41768, 1.41664, 1.41746, 0.00332621, 0.00339386, 0.00337996, 0.00316424, 0.003283, 0.00314749, 1.46761, 1.46728, 0.00333151, 1.46335, 0.00325863, 1.50004, 1.49596, 1.56542, 0.00304093, 1.48058, 1.47891, 1.55037, 0.00302789, 1.61343, 0.00330937, 1.61988, 1.5198, 0.00346343, 0.00306679, 0.00314084, 0.00302127, 1.4924, 1.49157, 1.49038, 1.49561, 1.49868, 1.49777, 1.50152, 1.50227, 1.53708, 1.50909, 1.51233, 1.51352, 1.51839, 1.51785, 1.51362, 0.00327728, 0.0032043, 0.00321712, 1.50041, 1.50925, 1.50389, 1.50908, 1.50751, 1.50647, 1.50746, 1.50362, 1.50693, 1.50607, 1.50681, 1.5058, 1.50501, 1.50336, 1.50361, 1.50222, 1.50068, 1.50137, 1.50128, 1.50819, 0.0031871, 1.51267, 1.51613, 1.51359, 1.51375, 0.00320043, 1.5275, 1.51561, 1.51034, 1.50941, 1.50596, 1.49604, 1.49706, 1.49681, 1.49622, 1.49573, 1.49212, 1.49135, 1.49196, 1.48837, 1.48662, 1.49466, 1.49662, 1.49844, 1.49804, 0.00304998, 0.00320536, 0.00322271
0.921168, 0.91465, 0.00313969, 0.00348908, 0.00329892, 0.00318477, 0.899751, 0.90122, 0.904702, 0.905037, 0.904659, 0.90431, 0.912576, 0.887457, 0.00311655, 0.00328378, 0.00311331, 0.853976, 0.847799, 0.851193, 0.849806, 0.849869, 0.853567, 0.85576, 0.852836, 0.837542, 0.836458, 0.832439, 0.830782, 0.815547, 0.813421, 0.813151, 0.813537, 0.811854, 0.828285, 0.823177, 0.826091, 0.825722, 0.00301219, 0.840757, 0.823312, 0.819031, 0.809913, 0.808825, 0.804281, 0.803129, 0.802239, 0.00325958, 0.807845, 0.794307, 0.794598, 0.799092, 0.799278, 0.808237, 0.805747, 0.806431, 0.805824, 0.805469, 0.992625, 0.995216, 0.00319557, 0.00358087, 0.0033162, 0.00332552, 0.00325313, 0.00324892, 0.00317315, 0.884336, 0.884938, 0.898297, 0.00313211, 0.00330956, 0.0031887, 1.23333, 0.00304824, 0.936575, 0.936837, 0.977528, 0.00316272, 1.19255, 1.18904, 1.21783, 1.21811, 1.01227, 1.01842, 1.23384, 1.25375, 1.07772, 1.0273, 1.10593, 1.03131, 1.27677, 1.28134, 1.28051, 1.28107, 1.27404, 1.14986, 1.24795, 1.22922, 1.1312, 1.22607, 1.27286, 1.23918, 1.22574, 1.21119, 1.19248, 1.18053, 1.17974, 1.18099, 1.18363, 1.18353, 1.18367, 1.18422, 1.18756, 1.18722, 1.18804, 1.18952, 1.19218, 1.192, 1.18714, 1.18573, 1.18594, 1.18588, 1.18799, 1.19076, 1.19304, 1.1983, 1.19822, 1.1995, 1.2039, 1.21101, 1.21702, 0.00298675, 1.35059, 0.00319284, 0.0033284, 0.00320155, 1.41629, 0.00299935, 1.3679, 1.36652, 1.36681, 1.36764, 1.36737, 1.37034, 1.36898, 1.51036, 1.51629, 1.46746, 1.53224, 1.34718, 1.72969, 0.00319516, 1.3481, 1.34832, 1.34637, 1.34553, 1.51998, 1.50127, 1.33018, 1.32934, 1.32931, 1.53888, 1.43925, 0.00304925, 1.46278, 1.34601, 1.33798, 1.33866, 1.33618, 0.00332547, 1.32813, 0.00292473, 1.33714, 0.00319413, 0.00344113, 0.00330255, 1.38883, 0.0032601, 0.00336065, 0.00304582, 0.00334216, 0.00318756, 1.34633, 0.00314604, 0.00309225, 0.00327965, 0.00322112, 0.00318182, 0.00320219, 0.00323853, 0.0033185, 0.00299459, 0.00338606, 0.00309569, 0.00354777, 0.00316344, 0.00324366, 0.00331471, 0.00341997, 0.0029724, 0.00337842, 1.41736, 1.41786, 1.41885, 1.41895, 1.41876, 1.42058, 0.00322438, 0.00336103, 1.53336, 1.53288, 1.51444, 1.53193, 1.54353, 0.00338036, 0.00320827, 1.49638, 0.00312057, 1.48448, 1.53044, 1.47643, 1.47753, 1.47591, 1.47525, 1.47564, 0.00346415, 1.57737, 0.0031422, 1.55831, 1.58855, 1.59704, 1.59544, 0.00308645, 1.49142, 1.49045, 1.49397, 1.49093, 1.60992, 0.00334989, 0.00322349, 1.50031, 1.50021, 0.00326715, 1.59345, 1.55387, 0.0032129, 0.00308301, 1.48168, 1.48471, 1.48553, 1.55895, 0.00296291, 1.50753, 1.50923, 1.50913, 1.51314, 1.51235, 1.50913, 1.50719, 1.50651, 1.50608, 1.50692, 1.50863, 1.50684, 1.50657, 1.50833, 1.50424, 1.50432, 1.50718, 1.51183, 1.50974, 1.51035, 1.51583, 1.51545, 1.51917, 1.52082, 1.52569, 1.52498, 1.51894, 0.00321327, 1.50901, 1.50793, 0.00331375, 0.00300107, 1.49097, 1.49467, 1.49362, 1.49488, 1.49565, 1.49276, 1.49233, 1.48972, 1.49222, 1.49186, 1.48677, 1.48477, 1.48438, 1.48433, 1.51421
1.08038, 1.55197, 0.923376, 0.00317803, 1.06709, 0.891288, 0.890954, 0.893242, 0.00306781, 0.00305669, 0.00337033, 0.00313186, 0.995921, 1.0308, 0.00298967, 1.02297, 1.02224, 1.0213, 0.844604, 0.845054, 0.843978, 0.847731, 0.844684, 0.00329884, 0.840884, 0.838538, 0.837879, 0.00320086, 0.813294, 0.817244, 0.819816, 0.820361, 0.818938, 0.817968, 0.81787, 0.817296, 0.817098, 0.813904, 0.0034249, 0.830098, 0.82975, 0.815366, 0.852148, 0.801526, 0.800597, 0.798897, 0.798265, 0.799959, 0.800073, 0.797191, 0.796665, 0.798653, 0.789721, 0.788515, 0.787604, 0.793898, 0.787468, 0.00298846, 0.986168, 0.00304772, 0.00322687, 0.00314414, 0.00341586, 0.00326458, 0.00316942, 0.882537, 0.00333274, 0.00331045, 0.00338634, 0.00322267, 0.00331182, 0.00317454, 0.00332682, 0.910832, 1.08405, 0.929217, 0.9286, 0.975275, 1.0052, 1.1441, 1.2154, 1.21675, 1.21904, 1.22712, 1.22701, 1.32301, 1.15686, 1.03026, 1.03123, 1.03402, 1.03635, 1.03716, 1.27816, 1.27739, 1.15862, 1.15725, 1.14647, 1.23114, 1.25734, 1.12392, 1.23797, 1.23723, 1.22188, 1.22703, 1.22964, 0.0032581, 1.17724, 1.17733, 1.17802, 1.18094, 1.1815, 1.18369, 1.18629, 1.18745, 1.18829, 1.18954, 1.19577, 1.19516, 1.36395, 1.1852, 1.1839, 1.18582, 1.18785, 1.19208, 1.45953, 1.31924, 1.20804, 1.2083, 1.21349, 0.00347321, 0.00326974, 0.00312889, 0.00319487, 0.00315995, 0.0032772, 0.00319103, 0.00321711, 1.5688, 1.38171, 0.00318249, 1.37172, 1.37398, 1.37223, 1.37735, 1.37676, 1.37446, 1.37654, 1.53421, 1.37467, 0.00318661, 1.61383, 1.48244, 1.35837, 1.35794, 1.35945, 1.35575, 1.35634, 1.59551, 1.41767, 0.00314601, 1.36645, 1.33593, 1.33596, 1.33626, 1.34137, 1.34736, 1.34707, 1.34689, 1.39241, 1.3454, 1.49356, 0.00320574, 0.0034098, 0.00319559, 1.35233, 0.00334206, 1.35661, 1.35735, 1.36238, 1.3604, 0.00349304, 0.00339174, 1.36255, 1.35238, 0.0032925, 0.00342816, 0.00318696, 0.00290924, 0.00323033, 0.00314505, 0.00332661, 0.00321358, 0.00324325, 0.00307123, 0.00329064, 0.00319948, 1.44394, 1.4431, 1.44323, 1.44214, 0.00327708, 0.00322522, 1.42863, 1.42929, 1.4231, 1.42207, 1.41945, 0.00320908, 0.00322495, 0.00333497, 0.00338595, 0.00335295, 1.47938, 1.42762, 1.54865, 1.53573, 1.42942, 0.00306172, 1.50334, 0.0031124, 0.00321278, 0.00293596, 1.47788, 1.47819, 1.47814, 0.0032975, 0.00320758, 1.52615, 1.45496, 1.45755, 1.45684, 0.00329903, 1.5507, 0.00320622, 1.48457, 1.48545, 1.48574, 1.62722, 1.48469, 1.48536, 1.61423, 1.48883, 1.54397, 0.00303369, 1.48048, 1.48001, 1.469, 0.00310065, 1.48014, 1.47952, 1.47973, 1.57245, 0.00338319, 0.00319941, 1.51646, 1.51524, 1.51579, 1.50846, 1.50701, 1.50614, 1.50691, 1.51195, 1.51111, 1.51294, 1.51227, 1.5118, 1.51171, 1.51324, 1.51295, 1.51224, 1.51053, 1.50969, 1.51214, 1.51301, 1.51721, 1.52093, 1.52509, 1.5228, 1.52288, 1.51964, 1.51928, 0.00328966, 0.00333773, 1.48831, 1.48654, 1.48522, 1.49154, 1.49446, 1.49516, 1.49294, 1.49541, 1.49397, 1.48878, 1.49015, 1.49116, 1.48561, 1.48499, 1.48985, 0.00341092, 0.00326846
0.00324855, 0.00325892, 0.00308472, 0.00327877, 0.89739, 0.897335, 0.895101, 1.14716, 0.882737, 0.879548, 0.87636, 0.869993, 0.865143, 0.862841, 0.991823, 0.850048, 1.026, 0.825233, 0.824951, 0.825143, 0.82672, 0.82586, 0.82402, 0.825309, 0.824244, 0.816041, 0.817204, 0.814917, 0.813729, 0.811886, 0.817062, 0.816635, 0.81568, 0.812956, 0.807587, 0.805581, 0.807524, 0.809321, 0.807806, 0.807376, 0.807067, 0.804798, 0.804564, 0.802271, 0.804517, 0.803573, 0.803274, 0.80283, 0.00335456, 0.0035013, 0.797961, 0.787163, 0.788802, 0.78739, 0.78712, 0.77453, 0.771475, 0.894886, 0.00323071, 0.00305293, 0.00305436, 0.00310159, 0.00333419, 0.00350013, 0.877709, 0.870536, 0.841886, 0.845039, 0.844282, 0.873037, 0.872118, 0.00337069, 0.00341896, 0.00317134, 0.949193, 1.00739, 1.11952, 0.00335857, 0.0029886, 0.959296, 1.03634, 1.15443, 1.05651, 1.2175, 1.12682, 1.02723, 1.03048, 1.03195, 1.03589, 1.03671, 1.0398, 1.23602, 1.17698, 1.13013, 1.28247, 0.00319206, 0.00342517, 1.22961, 1.19581, 1.1989, 1.19895, 1.25593, 1.21638, 1.23258, 1.23245, 1.18523, 1.1741, 1.17427, 1.17799, 1.18071, 1.18199, 1.18747, 1.18649, 1.18812, 1.19199, 1.19422, 1.19453, 1.18255, 1.18059, 1.18057, 1.18377, 1.18629, 0.00315526, 0.00295769, 0.0029957, 0.0033823, 0.00331198, 1.27367, 0.0029786, 1.41566, 0.00321242, 0.00347153, 1.51687, 0.00322677, 0.00330358, 0.00327028, 1.40887, 0.00309288, 0.00305186, 0.00331108, 0.00346721, 0.00341654, 1.37931, 1.37729, 0.00341013, 1.38841, 0.00332687, 1.58086, 1.38097, 1.38045, 1.38118, 1.38822, 0.00315272, 1.35873, 1.35759, 1.36016, 1.3589, 1.35161, 1.35091, 1.34887, 1.34966, 1.34914, 0.00302763, 0.00338239, 1.34498, 1.34429, 1.34239, 1.343, 1.34481, 1.35211, 0.00331419, 1.37786, 1.35908, 1.35739, 1.35996, 1.36268, 1.36451, 1.36473, 1.36786, 1.36548, 1.36512, 1.35982, 1.35965, 1.35992, 0.00323109, 0.00309113, 0.00311183, 0.00315014, 0.00321974, 0.00313471, 0.00318021, 0.00323418, 0.00295545, 1.44147, 1.44367, 1.44297, 1.44114, 1.43919, 1.44073, 1.44378, 1.43828, 1.43603, 1.43331, 1.43064, 1.42928, 1.42903, 0.00299797, 1.41654, 1.41582, 1.4152, 1.41512, 1.41532, 1.41531, 1.41654, 1.42248, 1.42185, 1.42648, 0.00315712, 0.00303258, 1.46055, 1.46004, 1.46079, 1.4887, 0.00316677, 0.00288993, 1.47519, 0.00304534, 1.44736, 1.44635, 1.44978, 0.00304589, 0.00309658, 0.00289049, 0.00341742, 1.50531, 1.47149, 1.47176, 1.47293, 1.4737, 1.48213, 1.4808, 1.48123, 1.48154, 1.48343, 1.48304, 1.47694, 1.46704, 1.46761, 1.46843, 0.00324898, 1.48172, 1.49175, 1.49113, 1.51237, 1.51247, 1.51223, 1.50345, 1.50827, 1.51039, 1.51438, 1.51387, 1.51372, 1.51906, 1.51737, 1.51658, 1.51547, 1.51457, 1.51579, 1.51491, 1.51452, 1.51268, 1.51073, 1.51333, 1.5141, 1.51342, 1.52048, 1.51929, 1.51928, 1.5165, 1.51673, 0.00313449, 1.4975, 1.49713, 1.49225, 1.49166, 1.48864, 1.48804, 1.48805, 1.48949, 1.48902, 1.49069, 1.49117, 1.49184, 1.49102, 1.49799, 1.49716, 1.49692, 0.0030615, 0.00313908, 1.51203
0.935494, 0.935152, 0.934732, 0.933966, 0.941036, 0.00322007, 0.945107, 1.16098, 0.880336, 0.877817, 0.872652, 0.87337, 0.867091, 0.0030883, 0.0033311, 0.915123, 0.00337226, 0.829093, 0.829156, 0.82784, 0.825827, 0.823034, 0.823947, 0.81953, 0.818865, 0.81929, 0.818312, 0.824804, 0.814443, 0.809228, 0.80894, 0.814434, 0.82126, 0.8192, 0.817816, 0.805855, 0.806122, 0.814382, 0.811697, 0.812203, 0.00350016, 0.80699, 0.806635, 0.805984, 0.00328331, 0.82035, 0.821689, 0.825535, 0.825528, 0.82547, 0.00318684, 0.783876, 0.783184, 0.776452, 0.77601, 0.766003, 0.766016, 0.765962, 0.765314, 0.957736, 0.873433, 0.00340781, 0.00335464, 0.811988, 0.811691, 0.00311736, 0.84572, 0.847142, 0.846387, 0.00312402, 0.0032563, 0.878421, 0.877936, 0.00307939, 0.0033691, 0.00303952, 0.92114, 0.00298757, 1.03643, 1.04249, 1.03698, 0.00308835, 1.04316, 1.09717, 1.03907, 1.02422, 1.02855, 1.03075, 1.27302, 1.27956, 1.12211, 1.28837, 1.12941, 1.2899, 1.16494, 0.00285482, 1.18494, 1.12288, 1.19386, 1.25146, 0.00315311, 1.21981, 1.25728, 1.24343, 1.22248, 1.16881, 1.17088, 1.17666, 1.1767, 1.21264, 1.18809, 1.18732, 1.18741, 1.18813, 1.19538, 1.1959, 1.42474, 1.1832, 1.1842, 1.25862, 1.26224, 0.00301311, 0.00320458, 0.0031269, 0.00324453, 0.00325658, 1.34294, 0.0031564, 1.32303, 1.31319, 0.00326995, 0.00316592, 0.00318963, 0.00302406, 1.41386, 1.42133, 0.00327973, 1.40579, 1.39948, 1.38869, 1.3884, 1.38936, 1.38886, 1.38752, 1.38808, 0.00297951, 0.00317751, 0.00310063, 0.00334353, 1.38084, 1.38214, 1.38261, 0.00353193, 0.00313117, 1.36401, 1.36199, 1.36285, 0.00318282, 1.34613, 1.34472, 1.34452, 0.00317286, 1.35332, 1.35217, 1.35084, 1.47959, 0.00327008, 0.00314042, 1.42937, 0.00299797, 0.00347936, 0.00293106, 0.00306244, 0.00314901, 0.00341364, 0.00300829, 1.36884, 1.36795, 1.36876, 1.36882, 1.35984, 1.40747, 0.00329841, 0.00328393, 0.00329885, 0.00299971, 0.00334368, 0.00330285, 0.00351835, 1.43816, 1.43704, 1.4404, 1.43948, 1.44, 0.00307381, 0.00303666, 1.43368, 1.43247, 1.43348, 0.00303426, 1.43767, 1.43653, 1.42649, 1.42781, 1.42783, 1.42695, 1.42497, 0.00310038, 1.48593, 1.40645, 1.40606, 1.41559, 1.41368, 1.41331, 1.41363, 0.00311231, 0.00327646, 0.00329218, 0.00322799, 1.45656, 1.45653, 0.00303988, 1.45872, 1.46039, 1.45728, 1.45689, 1.45602, 1.45508, 1.45594, 1.4483, 1.44853, 0.00307599, 0.00318205, 0.00306515, 1.46548, 1.4653, 1.46641, 1.46765, 1.46808, 0.00307818, 0.00337806, 1.48259, 1.48507, 1.48654, 1.48781, 0.00302269, 0.00299253, 0.00300988, 1.59665, 0.00310975, 1.56033, 1.57599, 1.50515, 1.50628, 1.50682, 1.50667, 1.50312, 1.50116, 1.50539, 1.50373, 1.51415, 1.5156, 1.51242, 1.51697, 1.51588, 1.51573, 1.51528, 1.51548, 1.56478, 1.50508, 1.5042, 1.50536, 1.50604, 1.50943, 1.51369, 1.5207, 1.52068, 1.52003, 1.51574, 1.51705, 1.5483, 1.50142, 1.4913, 1.48925, 1.49346, 1.48914, 1.48785, 1.48585, 1.49211, 1.48902, 1.49218, 1.49471, 0.00337337, 1.50378, 1.50454, 1.50297, 1.50174, 1.50183, 1.53014, 0.00304094
0.927809, 0.926579, 0.925245, 0.00319653, 0.00293897, 0.00341832, 0.00338427, 0.89417, 0.00301258, 0.884281, 0.886406, 0.885072, 0.883054, 0.882701, 0.864757, 0.859623, 0.00325582, 0.00323694, 0.00309649, 0.841075, 0.00333475, 0.821636, 0.818449, 0.820055, 0.819032, 0.8154, 0.814537, 0.813265, 0.812449, 0.812065, 0.813594, 0.821938, 0.820339, 0.817274, 0.817694, 0.814791, 0.826095, 0.825196, 0.831965, 0.832253, 0.832151, 0.804141, 0.803576, 0.797581, 0.00308241, 0.826926, 0.827101, 0.827039, 0.82484, 0.00337741, 0.787274, 0.784662, 0.784469, 0.781256, 0.766409, 0.765631, 0.766054, 0.76649, 0.756502, 0.754863, 0.00323136, 0.00338331, 0.00324158, 0.00332905, 0.811344, 0.811719, 0.00331364, 0.00316087, 0.00329626, 0.00327326, 0.00312411, 0.00327741, 0.00318554, 0.00311923, 0.00301008, 1.00977, 1.04566, 0.0032884, 0.00312986, 1.0433, 1.04984, 1.15726, 1.12547, 1.06784, 1.07718, 1.11547, 1.26486, 1.27724, 1.04744, 1.04708, 1.12034, 1.30211, 1.05376, 1.13794, 0.00310032, 1.17848, 1.2058, 1.18873, 1.25514, 1.23225, 0.00325829, 1.24088, 1.25778, 1.20138, 1.17431, 1.17489, 1.17537, 1.18166, 1.18108, 1.18214, 1.18078, 1.18453, 1.18433, 1.18513, 1.19808, 1.19763, 1.19773, 1.19181, 1.27474, 0.00339627, 0.00313545, 1.36219, 0.0032007, 0.00323143, 0.00307706, 0.00339508, 0.00327575, 0.00321889, 0.00322826, 0.00333227, 0.00304898, 0.00343322, 0.00320551, 1.38309, 1.42751, 1.42939, 0.00317061, 1.40893, 1.39321, 1.39277, 1.39353, 1.39374, 1.39549, 1.5655, 1.56743, 0.00341646, 0.00297602, 0.00319358, 1.42801, 1.55411, 0.00296371, 1.38935, 1.38871, 0.00312063, 0.00311937, 1.53551, 1.53339, 1.36562, 0.00315079, 0.0032527, 0.00314699, 0.00305918, 0.00315868, 0.00314035, 0.00325061, 0.00307941, 0.00335744, 0.00330616, 0.0029777, 1.39489, 1.37027, 1.37051, 1.374, 1.38313, 1.38436, 1.38288, 1.38418, 1.38529, 0.00316448, 0.00334459, 1.41411, 0.00337154, 0.00312038, 0.00318234, 0.00312632, 1.42257, 1.41628, 1.41952, 0.00316155, 0.00318702, 0.00311903, 1.44088, 0.00308436, 0.003013, 0.00320876, 0.00334616, 1.45012, 1.42169, 1.42036, 1.41786, 1.41752, 1.41694, 1.42685, 1.44332, 1.42209, 1.44696, 1.41688, 1.41605, 1.41213, 1.40953, 1.40842, 1.40809, 1.40925, 1.41202, 1.41325, 1.46663, 1.47175, 0.00323578, 0.00313633, 0.00331725, 0.00304128, 1.45663, 1.45546, 1.45458, 1.45417, 1.45154, 1.45126, 1.45077, 1.45041, 1.44985, 1.4483, 1.44698, 1.45596, 1.45449, 1.45872, 1.45757, 1.45339, 1.45276, 1.45299, 0.00334778, 0.00295021, 0.0032157, 0.00336762, 0.00333339, 0.00303335, 1.51053, 1.49853, 1.50244, 1.50207, 1.49727, 0.00308435, 1.50545, 1.50944, 1.50938, 1.50867, 1.50508, 1.50389, 1.50295, 1.51352, 1.51273, 1.51194, 1.51134, 1.50852, 1.50909, 1.51271, 1.51316, 1.51263, 1.51421, 1.51562, 1.51091, 1.51041, 1.50937, 1.5093, 1.51462, 1.51374, 1.51633, 1.51639, 1.51566, 1.51297, 1.51169, 1.50788, 0.00316718, 1.49224, 1.49196, 1.48196, 1.48144, 1.48874, 1.48749, 1.48802, 1.49292, 1.49271, 1.50388, 1.50569, 1.51297, 1.51214, 0.00324935, 0.0030226, 0.00325012, 1.49255, 1.4929
0.933549, 0.932876, 0.934026, 0.920113, 0.917363, 0.917258, 0.00327909, 0.00309175, 0.00340972, 0.971945, 0.885819, 0.886758, 0.867612, 0.866021, 0.863675, 0.863972, 0.864496, 0.00305245, 0.00311942, 0.834559, 0.826016, 0.822432, 0.821145, 0.819092, 0.807511, 0.806225, 0.805843, 0.801592, 0.801204, 0.80414, 0.843023, 0.818743, 0.811954, 0.811426, 0.808225, 0.81141, 0.810926, 0.00332934, 0.832927, 0.83223, 0.00326595, 0.0030677, 0.798839, 0.798946, 0.804311, 0.82392, 0.827358, 0.817576, 0.8116, 0.00299881, 0.788814, 0.788693, 0.788139, 0.770102, 0.767092, 0.766702, 0.755602, 0.756927, 0.758079, 0.756862, 0.755388, 0.00313878, 0.00306163, 0.00309444, 0.00313186, 0.00323484, 0.00324751, 0.00298243, 0.00301579, 0.00335817, 0.00339322, 0.00333362, 0.00342817, 0.00318983, 0.00298936, 0.00331374, 0.941866, 0.941271, 0.00319241, 1.02596, 0.0031945, 0.00330893, 0.00325278, 0.00324315, 1.06205, 1.19991, 1.26832, 1.04971, 1.0497, 1.0493, 1.0519, 1.05193, 1.122, 1.17214, 1.17721, 1.2503, 1.20125, 0.00318717, 1.10971, 0.00328353, 1.24003, 1.21765, 1.2587, 1.26486, 0.0034152, 1.18108, 1.17965, 1.18049, 1.18185, 1.18153, 1.18142, 1.18015, 1.18079, 0.00318577, 0.00313865, 1.20284, 1.20444, 1.20126, 1.20116, 1.20153, 1.27512, 0.00330623, 0.00311926, 0.00330018, 0.00306931, 0.00333946, 0.00307054, 0.00313061, 0.00332801, 1.37696, 1.38318, 0.00320207, 1.39908, 0.00317367, 0.00309983, 0.00332223, 0.00332833, 1.416, 1.41974, 0.00314724, 0.0034044, 1.40764, 1.40595, 1.4055, 0.00353763, 0.00303408, 1.41616, 1.41512, 1.41068, 1.41085, 0.00331425, 0.00308766, 1.39623, 1.39569, 1.39587, 0.003087, 0.00343769, 0.00320274, 1.42327, 0.00327513, 0.00338339, 0.00331392, 0.00318078, 0.00326017, 0.00345085, 1.4175, 0.00326515, 0.00297895, 0.00309064, 0.00324747, 0.00326046, 0.00320122, 1.38287, 1.41201, 0.00329926, 1.3952, 1.39444, 1.3964, 0.00336338, 0.00335622, 0.00320072, 1.41645, 0.00353874, 1.41986, 1.42209, 1.4226, 1.42285, 1.42249, 1.41826, 0.00293332, 1.44484, 1.46525, 0.00308312, 0.00305185, 0.00309149, 0.00323352, 0.00315809, 0.00301557, 0.00314956, 1.41213, 1.41229, 1.41205, 0.00314399, 0.00289503, 0.00304429, 1.41227, 1.4106, 1.41053, 1.4099, 1.40837, 1.40533, 1.40311, 1.40515, 1.44957, 0.00321372, 1.42258, 1.434, 1.43572, 1.43565, 1.45758, 1.4574, 1.44837, 0.00316044, 0.00326212, 0.00334806, 0.00298472, 1.44987, 1.45014, 1.45008, 1.45268, 1.47413, 1.44457, 1.44658, 1.44736, 1.45126, 1.45126, 1.45311, 1.45361, 1.45462, 1.45679, 1.45393, 1.45417, 1.48936, 0.00316255, 0.00310513, 0.00291442, 0.00328958, 0.00325976, 1.573, 1.57257, 1.49997, 1.50715, 1.50523, 1.50433, 1.50421, 1.50971, 1.51015, 1.51434, 1.51432, 1.51313, 1.51204, 1.51109, 1.51034, 1.50948, 1.50958, 1.51257, 1.51154, 1.51433, 1.51395, 1.51225, 1.5125, 1.5098, 1.5091, 1.50724, 1.51478, 1.51493, 1.51207, 1.50901, 1.50938, 1.51192, 1.51024, 1.5125, 1.51007, 1.48307, 1.48223, 1.48814, 1.48266, 1.48226, 1.48216, 1.4834, 0.00332398, 1.50589, 1.50325, 0.0031934, 1.52362, 1.53031, 0.00328921, 0.00322857, 1.49242, 1.49206
0.933071, 0.932465, 0.926185, 0.924733, 0.923745, 0.918591, 0.917908, 0.00342201, 0.900596, 0.899092, 1.03017, 0.872894, 0.871904, 0.86151, 0.86121, 0.859389, 0.00307171, 0.866843, 0.980348, 0.822713, 0.822162, 0.825752, 0.825161, 0.824617, 0.812104, 0.806756, 0.798243, 0.799506, 0.799111, 0.798464, 0.00326794, 0.808889, 0.809745, 0.810936, 0.81151, 0.809262, 0.80805, 0.807807, 0.00308407, 0.00316177, 0.798371, 0.799921, 0.800562, 0.806876, 0.807034, 0.82164, 0.00321144, 0.00320357, 0.00327722, 0.789081, 0.788639, 0.00314461, 0.766423, 0.766546, 0.00329232, 0.00337077, 0.75234, 0.752044, 0.755304, 0.755704, 0.765696, 0.763385, 0.00341242, 0.00319574, 0.00319176, 0.763648, 0.00315426, 0.00324815, 0.86269, 0.00343202, 0.00315499, 0.00347455, 0.00287725, 0.00310308, 0.00303083, 0.00340711, 0.00312203, 0.992419, 0.00327913, 1.08919, 0.00328199, 1.10216, 1.27844, 1.12217, 1.10881, 1.04602, 1.04653, 1.04588, 1.04602, 1.13377, 1.0468, 1.04704, 1.04773, 1.18491, 1.08052, 1.08423, 1.07733, 1.07732, 1.23418, 1.15641, 0.00301246, 1.25812, 1.24307, 1.21164, 1.25416, 1.19984, 1.17507, 1.23913, 1.1801, 1.17979, 1.18046, 1.18494, 1.18362, 1.19351, 1.19253, 0.00346519, 0.00305185, 1.20935, 1.20949, 1.20788, 1.21156, 1.21183, 0.00300372, 1.41366, 0.00305773, 0.00334728, 0.00300165, 1.43733, 0.0031395, 0.0034874, 0.00303839, 1.44697, 1.39502, 1.40537, 0.0031622, 0.00331356, 0.00291042, 0.00351347, 0.0029721, 0.00332074, 0.003006, 0.0032263, 0.00318742, 0.0033333, 1.41023, 1.41136, 1.41413, 1.41228, 1.4109, 1.41266, 1.41214, 1.4115, 1.395, 1.51245, 1.39284, 1.39722, 1.39781, 1.40519, 1.40498, 1.40531, 0.00322944, 0.00324409, 0.00311743, 0.00329293, 1.47287, 1.47297, 1.41687, 1.41615, 1.41547, 1.41731, 1.41699, 0.00322692, 1.38651, 1.38702, 1.39931, 1.39835, 1.39588, 1.39466, 0.00315654, 0.00320841, 0.00319229, 0.00346876, 0.00326069, 1.42379, 1.4259, 0.0033731, 1.42576, 1.40957, 0.0030772, 1.61953, 1.40849, 1.40717, 0.00323505, 1.44668, 1.44224, 0.00356641, 0.00315516, 1.39791, 1.39876, 1.39972, 1.39911, 1.39929, 0.00307908, 1.3986, 0.00325667, 1.40133, 0.00299144, 1.40193, 1.40151, 0.00324942, 1.39503, 1.39581, 0.00320545, 1.40686, 0.00326332, 1.41757, 1.41764, 1.41887, 0.00319697, 1.43452, 1.43443, 1.43372, 1.43346, 1.43495, 1.43662, 1.43689, 1.4373, 1.4401, 1.44029, 1.4418, 1.44011, 1.44, 1.44075, 1.44639, 1.44473, 1.44651, 1.45025, 1.45743, 1.45501, 1.45517, 1.45451, 1.45263, 0.00308953, 0.00337674, 0.00308439, 0.00349136, 0.00303874, 0.00330004, 0.00315425, 0.00346342, 0.00313741, 1.50231, 1.50012, 1.50661, 1.5084, 1.50669, 1.50686, 1.50627, 1.50504, 1.50418, 1.50729, 1.50641, 1.50745, 1.51107, 1.51049, 0.00300374, 0.00313169, 0.00324093, 0.00336014, 1.57181, 0.00287249, 0.00336199, 0.00294573, 1.51425, 1.51278, 1.51114, 1.5123, 1.5103, 1.50851, 1.50923, 1.51293, 1.51217, 1.51304, 0.00324824, 1.49125, 1.49081, 1.48826, 1.48465, 1.48468, 0.00326137, 0.00314382, 1.50111, 0.00318697, 1.52595, 1.52289, 1.52402, 1.52385, 1.51781, 1.51724, 0.00353909
0.926749, 0.928211, 0.922974, 0.92268, 0.923636, 0.915291, 0.912648, 0.00323425, 0.902035, 0.891583, 0.00332882, 0.00290005, 0.87447, 0.864568, 0.863243, 0.860874, 0.00342662, 0.00320966, 0.868922, 0.00314575, 0.830789, 0.832369, 0.82657, 0.822084, 0.815548, 0.814263, 0.807823, 0.798935, 0.798159, 0.798478, 0.798025, 0.799788, 0.794959, 0.794551, 0.791221, 0.790559, 0.880502, 0.776929, 0.77619, 0.776699, 0.799338, 0.799305, 0.805176, 0.8085, 0.807534, 0.00316888, 0.859476, 0.00312862, 0.857095, 0.00316457, 0.0031166, 0.00297714, 0.00317562, 0.00298225, 0.725127, 0.725432, 0.753248, 0.751979, 0.75078, 0.751538, 0.751429, 0.76007, 0.00306975, 0.00321191, 0.00326433, 0.751252, 0.749525, 0.749301, 0.00316512, 0.00295371, 0.00332769, 0.00304845, 0.00324617, 0.00309063, 0.00327933, 0.00303973, 1.1679, 1.05659, 0.00319742, 1.09215, 1.14044, 1.14237, 1.12356, 1.28309, 1.09039, 1.03915, 1.03881, 1.03865, 1.03627, 1.03714, 1.03648, 1.17073, 1.12995, 1.1878, 1.106, 1.11915, 1.11124, 0.00324205, 1.07696, 0.00318911, 0.00323739, 1.18897, 1.1903, 0.00313395, 1.21225, 1.2433, 1.21622, 1.21934, 0.00344733, 1.184, 1.18424, 1.18629, 1.24659, 1.19476, 1.19457, 1.19666, 1.2024, 1.2038, 1.30543, 1.35757, 1.21852, 1.2171, 1.22031, 1.22385, 0.00330283, 0.00287861, 1.4199, 0.00319257, 0.00322665, 0.00301246, 0.00336125, 0.00313846, 0.00339077, 0.00325626, 1.41032, 0.0031746, 0.00318136, 0.00311146, 0.0032213, 0.00313686, 0.00333884, 1.42308, 1.42265, 1.42903, 1.43975, 1.43946, 0.00347213, 0.00302022, 1.4158, 1.41551, 1.41853, 1.41877, 0.00312901, 0.00319311, 1.40552, 1.40279, 1.40373, 1.4058, 1.405, 1.40257, 1.40851, 1.40914, 1.40905, 0.00313374, 1.39832, 1.39799, 0.00330447, 0.00323425, 0.00313916, 0.00308526, 1.40715, 0.0029488, 0.00311478, 0.00324631, 0.00349309, 0.0029583, 1.38771, 1.38759, 1.38529, 1.40863, 1.40717, 1.40026, 1.40274, 1.40001, 1.39848, 0.00300311, 1.41186, 0.00323484, 1.42639, 0.00318326, 0.00353999, 0.00301806, 0.00319478, 0.00300807, 1.38634, 1.38652, 0.0032182, 0.00328351, 0.00331948, 0.00300907, 1.42062, 0.00324822, 1.38227, 0.00326064, 0.00315977, 0.00308046, 1.3924, 0.00332185, 0.00315257, 1.4183, 1.38824, 0.00298407, 1.43142, 1.43701, 1.43853, 1.43459, 0.00322489, 1.41299, 1.41296, 0.00317593, 0.00329241, 0.00307603, 1.43052, 1.42971, 1.4341, 1.43294, 1.43631, 1.43508, 1.43598, 1.434, 1.43847, 1.43755, 1.43691, 1.44374, 1.43987, 1.44352, 1.44239, 1.44516, 1.44686, 1.45115, 1.45534, 1.45549, 1.46424, 1.46425, 1.47121, 1.47073, 1.4686, 1.47044, 0.00314987, 0.00316623, 1.54225, 0.00302652, 0.00331159, 0.00299832, 0.00306865, 0.00318911, 0.0031044, 0.00310566, 0.00337132, 0.0031047, 0.00314453, 0.00328157, 0.00331952, 0.00333987, 0.00312048, 0.00329925, 1.57836, 0.00309818, 1.60216, 0.00306541, 0.00328712, 0.00305522, 0.00328035, 0.00311421, 0.0033597, 1.5101, 1.50962, 1.50969, 1.50869, 1.50884, 1.51024, 1.51206, 1.51233, 1.50652, 1.49276, 1.48866, 1.48775, 1.48485, 1.4831, 1.48512, 0.00346327, 0.00320799, 0.00315457, 0.00319145, 1.52563, 1.5262, 1.52724, 1.5261, 1.52663, 1.52172
0.927301, 0.928241, 0.922294, 0.917843, 0.916371, 0.915089, 0.906645, 0.907642, 0.905207, 0.89093, 0.884662, 0.877758, 0.876076, 0.869926, 0.868602, 0.863422, 0.863941, 0.859798, 0.858482, 0.98069, 0.00294028, 0.831993, 0.833948, 0.828407, 0.00305333, 0.00314856, 0.00306865, 0.801261, 0.793956, 0.792365, 0.791857, 0.790093, 0.781372, 0.78529, 0.780467, 0.779829, 0.780085, 0.778554, 0.779698, 0.780395, 0.779894, 0.837361, 0.871021, 0.791037, 0.790465, 0.781659, 0.00311136, 0.00327677, 0.759194, 0.757361, 0.757065, 0.00325696, 0.00301605, 0.724128, 0.723727, 0.724516, 0.724532, 1.00185, 0.00322662, 0.00324242, 0.00313968, 0.00363885, 0.00307592, 0.853117, 0.00297792, 0.747928, 0.748793, 0.826247, 0.00318797, 0.00326992, 0.00293201, 0.00340751, 0.00325411, 0.00340085, 0.00311838, 1.02248, 1.00348, 0.00332993, 1.12407, 1.11955, 1.02714, 1.12469, 1.11718, 1.10558, 1.11106, 1.10556, 1.12057, 1.12646, 1.1138, 1.11981, 1.02967, 1.03319, 1.03487, 1.03269, 1.03289, 1.03462, 1.03714, 1.12344, 0.00323369, 1.12, 1.18477, 1.17507, 0.00317347, 0.00328583, 0.00310252, 1.24263, 1.19634, 1.22963, 1.25311, 0.0031284, 0.00310896, 0.00324866, 1.22554, 1.20365, 1.20281, 1.19969, 1.20134, 1.29411, 1.31426, 0.00332733, 0.00314439, 1.30355, 1.22842, 1.22786, 1.22884, 1.23107, 1.3456, 0.00311024, 0.00309685, 1.32007, 0.00325212, 0.00330284, 0.00325772, 0.0033791, 1.35108, 1.4168, 0.00319131, 1.44369, 0.00333969, 0.0033627, 1.47433, 1.45056, 1.45858, 1.42955, 1.43012, 1.42925, 1.4273, 1.4272, 1.41591, 1.41524, 1.41466, 1.4158, 1.4148, 1.41437, 1.41121, 1.40659, 1.40955, 1.4093, 1.40855, 1.40198, 1.40185, 1.4041, 0.00307632, 1.39825, 1.39724, 1.3949, 1.39564, 0.00332885, 0.00323146, 1.39802, 1.3995, 0.00324626, 1.4093, 1.38055, 1.37964, 1.3832, 1.38136, 1.38246, 1.38289, 1.38097, 1.38127, 1.38452, 0.00335889, 1.39989, 0.00334318, 0.0032427, 1.37839, 1.37837, 1.3989, 0.00323294, 0.00333888, 0.00338927, 1.38488, 1.38467, 0.0031097, 0.00334402, 0.00323295, 1.36784, 1.36733, 1.3631, 1.42018, 1.36351, 1.36361, 0.00339143, 0.00300597, 0.00322937, 0.00320205, 0.00324314, 0.00316965, 0.00346911, 0.00343489, 0.00342461, 1.38129, 0.00320771, 0.00321399, 1.4419, 1.44717, 1.45402, 1.40499, 1.41342, 1.41329, 1.42069, 1.41959, 1.42216, 0.00326947, 1.46129, 0.00306479, 1.43314, 1.43637, 1.4365, 1.43596, 1.42663, 1.42782, 1.43479, 1.43274, 1.4323, 1.43697, 1.43719, 1.43714, 0.00319977, 1.4478, 1.44715, 0.00311771, 0.00321124, 0.00315309, 0.00310763, 1.46288, 1.4634, 1.46372, 1.45722, 1.46073, 1.4606, 1.46469, 0.00322667, 0.00319511, 0.0032581, 0.00327812, 0.00343335, 0.00324064, 0.00308856, 1.59466, 1.46456, 0.00326402, 1.46897, 1.46973, 1.47153, 1.47137, 1.47371, 1.47448, 1.47497, 1.47145, 1.47092, 0.00309738, 0.00327532, 0.00324489, 0.00320708, 0.00322735, 1.55611, 0.00296603, 1.59684, 0.00296839, 0.00313652, 1.50596, 1.50342, 1.49205, 1.48957, 1.48589, 1.48518, 1.49277, 1.49344, 0.00325303, 1.51206, 1.51321, 1.52367, 1.52225, 1.52575, 1.52304, 1.51921, 1.51942, 1.51962
0.929897, 0.928452, 0.927747, 0.916756, 0.915991, 0.91446, 0.909885, 0.907466, 0.894756, 0.892763, 0.00320941, 0.877219, 0.872171, 0.864589, 0.86427, 0.860821, 0.859415, 0.859619, 0.860344, 0.8588, 0.854763, 0.00321207, 1.01155, 0.00276532, 0.00329242, 0.00308385, 0.803904, 0.800717, 0.800208, 0.792207, 0.784526, 0.781779, 0.776632, 0.77626, 0.784202, 0.784612, 0.782121, 0.781595, 0.783864, 0.782994, 0.782058, 0.779944, 0.787762, 0.798254, 0.799274, 0.00317453, 0.00322498, 0.76101, 0.763017, 0.761543, 0.760051, 0.739111, 0.729564, 0.728327, 0.727761, 0.763817, 0.938863, 0.697609, 0.698879, 0.710756, 0.710229, 0.712899, 0.717781, 0.715852, 0.83898, 0.911934, 0.00314661, 0.00308688, 0.907472, 0.00304898, 0.00329408, 0.00308111, 1.03191, 0.00310678, 0.00324115, 0.00327028, 0.00330312, 0.00324744, 1.1188, 1.02042, 1.11535, 1.1224, 1.12819, 1.08439, 1.11184, 0.00305365, 1.0248, 1.0252, 1.02549, 1.02547, 1.02051, 1.11161, 1.11263, 0.00349225, 0.00339276, 0.00297323, 1.07407, 1.06508, 1.2021, 1.18935, 0.00335016, 1.19561, 1.18753, 1.17851, 1.1439, 1.17518, 1.1821, 0.00290309, 1.33337, 0.00325825, 1.19478, 0.00290326, 1.1983, 1.19325, 1.20223, 1.20256, 1.20664, 1.21037, 0.00302219, 0.00310658, 0.00319063, 1.23276, 1.2329, 1.23326, 1.23058, 1.23947, 1.2387, 1.23498, 1.23498, 0.00319061, 1.32018, 0.00297255, 1.38853, 0.00314814, 1.33612, 0.00294407, 1.35868, 0.00307377, 1.45349, 0.00298704, 1.49548, 0.00313346, 1.48967, 0.00315543, 1.46424, 0.00296685, 0.00319173, 0.00301526, 0.0030066, 1.41525, 1.41964, 1.41235, 1.41194, 1.4121, 1.41177, 1.4107, 1.40908, 1.40887, 0.00309311, 1.40163, 1.40126, 1.40117, 1.39696, 1.39573, 1.39298, 1.39215, 1.39246, 1.39285, 1.39165, 0.00313655, 1.40347, 0.00307889, 0.00322817, 1.37132, 1.37221, 1.37849, 0.00312811, 1.37764, 1.3796, 1.38083, 1.38082, 1.38048, 0.00311424, 0.00331664, 0.0033925, 1.37281, 1.37151, 1.3704, 1.37588, 0.00326003, 1.37931, 1.37828, 1.37662, 0.0031579, 1.37408, 0.0030017, 0.00359521, 1.36014, 1.35776, 1.35751, 1.35682, 1.35658, 1.35641, 1.35509, 1.3543, 1.35356, 1.35648, 1.35561, 1.35084, 1.34744, 0.00323722, 0.00295842, 0.00322772, 1.43409, 1.38066, 0.00291645, 0.00306647, 0.00303358, 0.00332866, 0.00313204, 0.00327139, 1.45097, 1.45668, 0.0031477, 0.00336629, 0.00296586, 1.41621, 0.00312953, 0.0032731, 0.00321806, 1.41176, 0.00313301, 0.00309057, 0.00322176, 0.00352516, 0.00305738, 1.42082, 0.00308798, 0.00314461, 0.00309175, 0.00317033, 0.00311474, 0.00310117, 0.00311083, 0.00300462, 0.00332735, 1.44738, 1.44668, 1.45213, 1.45209, 1.45585, 1.45658, 1.45939, 1.46048, 0.00351269, 0.00301171, 1.45762, 0.00313009, 0.00319393, 0.0031045, 1.45533, 1.461, 1.45892, 1.46527, 1.46838, 1.47003, 1.47008, 1.47081, 1.47066, 1.46562, 1.46443, 1.46699, 1.46748, 1.4675, 1.4768, 1.47611, 0.00310961, 0.00314635, 0.00314783, 0.0030439, 0.0033045, 0.0032569, 1.50402, 1.50237, 1.50272, 0.00284891, 1.48648, 1.48513, 1.48762, 0.00302273, 1.50532, 1.50436, 1.51203, 1.51263, 1.52628, 1.52388, 1.52973, 1.52938, 1.5275, 0.00303518
0.931496, 0.927087, 0.925847, 0.925382, 0.917295, 0.917316, 0.915468, 0.906567, 0.898281, 0.898022, 0.88287, 0.880798, 0.880348, 0.87563, 0.865211, 0.864194, 0.856667, 0.852497, 0.85153, 0.854087, 0.85559, 0.85658, 0.00306204, 0.00331929, 0.819855, 0.818983, 0.860936, 0.863953, 0.00307875, 0.0033022, 0.00290976, 0.776048, 0.926738, 0.917866, 0.00297547, 0.76312, 0.764302, 0.765501, 0.765504, 0.00302432, 0.798017, 0.798869, 0.800176, 0.799425, 0.799392, 0.805274, 0.805905, 0.760345, 0.75911, 0.0032046, 0.741326, 0.738519, 0.729512, 0.730007, 0.720716, 0.00309773, 0.700531, 0.700691, 0.699332, 0.717629, 0.719318, 0.720744, 0.00326687, 0.00326938, 0.00304689, 0.00321248, 0.00302978, 0.00340236, 0.959655, 0.966939, 0.00309779, 0.00327128, 0.0032511, 0.00330944, 0.00315361, 1.02899, 0.00318574, 0.00322246, 0.0029064, 0.987892, 1.13232, 0.983447, 1.17166, 1.17309, 1.12957, 1.00908, 1.01318, 1.01734, 1.10857, 1.09156, 1.01472, 1.01459, 1.00108, 0.99827, 0.997335, 0.997295, 0.997973, 1.02341, 0.00302725, 1.0953, 0.00307531, 0.00324398, 1.19505, 1.20287, 0.00307598, 0.0033143, 0.00316727, 0.00336736, 0.00333054, 0.00298559, 0.00306777, 1.19192, 0.00313351, 0.00323935, 0.00349981, 0.00327989, 0.00303553, 1.38559, 0.00309944, 0.00330402, 0.00299399, 0.00314167, 0.00304442, 0.0031481, 0.00312619, 0.00321832, 0.00297564, 1.23096, 1.23111, 1.23155, 1.22993, 1.23091, 0.00305874, 0.00327466, 0.00314033, 0.00318665, 1.37127, 0.00300078, 0.00309591, 0.00338898, 1.4613, 1.50316, 0.00318714, 0.00320421, 1.44353, 1.45127, 0.0030323, 0.0032925, 0.00328819, 1.45383, 0.00333713, 1.40256, 1.42438, 1.45038, 1.40497, 1.4046, 1.41298, 1.44061, 1.40028, 1.39993, 1.40032, 0.00318266, 1.38881, 1.38805, 1.38805, 1.38486, 1.38474, 1.3852, 0.00306961, 1.37918, 1.37866, 0.00309732, 0.00330031, 0.00318432, 0.00304495, 1.41562, 0.00314174, 1.40495, 1.41014, 1.40317, 1.38223, 1.40552, 1.36278, 1.36151, 1.35808, 1.41704, 0.0030665, 1.38611, 0.00301975, 0.00312606, 0.00302264, 0.0030621, 0.00317528, 0.00313265, 1.42033, 0.00334029, 0.00319562, 1.35713, 1.35407, 1.35364, 0.00300896, 1.35005, 1.35202, 1.35587, 1.35657, 1.35631, 1.35583, 1.35349, 1.35104, 1.34852, 1.35135, 1.35001, 1.34984, 1.35872, 0.00315078, 1.45358, 0.00312967, 0.00333422, 1.38506, 1.38584, 1.38772, 1.38522, 0.00285876, 0.00314287, 0.00301057, 0.00317942, 0.00312181, 1.38336, 1.38574, 0.00336225, 0.00310323, 0.00328996, 0.00330382, 0.00330611, 0.00299951, 1.40724, 0.00291201, 1.39989, 1.39815, 1.39822, 0.00324444, 0.0030447, 0.00323315, 1.4111, 1.41032, 0.00317348, 0.00312064, 0.00320968, 0.00297883, 0.00327879, 0.00320267, 0.00334353, 0.00316825, 1.45534, 1.45646, 1.44862, 1.44942, 1.45001, 1.44822, 1.44931, 1.44833, 1.45035, 1.45965, 1.46163, 1.46347, 1.46147, 1.46114, 1.46559, 1.46324, 1.46169, 1.46056, 1.46471, 1.46557, 1.46612, 0.00319917, 0.00327953, 1.4764, 1.47545, 1.47428, 1.4716, 1.47103, 0.00321248, 0.00311925, 1.49768, 1.50011, 1.50192, 0.00319928, 0.00305886, 1.50788, 1.50973, 1.50905, 1.50924, 1.50919, 1.5217, 1.51957, 1.52349, 1.52991, 1.52845, 1.52668, 1.52666
0.940572, 0.939757, 0.947126, 0.00332072, 0.916449, 0.917265, 0.909291, 0.908223, 0.906929, 0.00310277, 0.885409, 0.882272, 0.876048, 0.873203, 0.874149, 0.868225, 0.867688, 0.860304, 0.859351, 0.852849, 0.851979, 0.852981, 0.00316537, 0.00317141, 0.818618, 0.818855, 0.817773, 0.00327344, 0.00315385, 0.003043, 0.92132, 0.759025, 0.756651, 0.753354, 0.741471, 0.764092, 0.00320977, 0.00322296, 0.00338707, 0.00328497, 0.00333502, 0.00315712, 0.796609, 0.797118, 0.794751, 0.00326905, 0.00338976, 0.00322006, 0.733463, 0.73245, 0.733381, 0.740672, 0.742977, 0.744249, 0.743913, 0.990319, 1.00174, 0.00321524, 0.714711, 0.714619, 0.715441, 0.00312202, 0.73258, 0.00308914, 0.00308754, 0.00321757, 0.00328294, 0.00323991, 0.0030539, 0.00344286, 0.936153, 0.00320294, 0.00300966, 0.00300888, 0.00331589, 0.946433, 1.04227, 1.03252, 1.07459, 1.00166, 0.969746, 1.04154, 1.14043, 0.99728, 1.06778, 1.00016, 0.998082, 1.00227, 1.00324, 1.11198, 1.12302, 1.08069, 1.00081, 1.00056, 0.995996, 0.997626, 0.997516, 0.997872, 0.00307562, 1.09424, 1.09304, 0.00319073, 0.00323842, 0.00319418, 0.00316826, 0.0030531, 1.14534, 0.00309477, 1.17042, 0.00318204, 0.00310893, 0.00310553, 0.0033052, 0.00307731, 0.00309674, 0.00302594, 0.0032708, 0.0031886, 0.00342986, 1.19821, 1.19835, 0.0031804, 0.00332817, 0.00319321, 1.24374, 0.00302441, 1.21921, 0.00302615, 0.00333099, 0.00314272, 0.00335872, 1.22599, 1.22721, 0.00293124, 0.00316539, 0.0031902, 0.00309323, 0.00310951, 0.00324495, 1.34108, 1.41694, 0.0032115, 0.00332106, 0.00312412, 0.00307139, 0.00298205, 1.43008, 1.47112, 1.38941, 1.39041, 1.39105, 1.39156, 0.00321508, 1.42493, 1.39378, 0.00319285, 0.00324114, 1.44449, 1.41564, 0.00325454, 1.4346, 0.00311809, 1.38266, 1.38379, 1.38169, 1.38103, 1.38089, 1.3804, 1.38091, 1.38203, 1.39565, 1.36794, 1.3625, 1.35977, 0.00317481, 1.41338, 1.34123, 1.34111, 1.3496, 1.35156, 1.35176, 1.35705, 1.35526, 1.35594, 0.00310658, 0.00327431, 1.34293, 1.34199, 1.34137, 1.34292, 1.34143, 1.34054, 1.33913, 1.33719, 1.33234, 0.00298568, 0.00304635, 0.00311594, 0.00293826, 1.4271, 1.42756, 0.00309947, 0.00320772, 1.34765, 1.34727, 0.0030889, 0.00321183, 0.00321651, 0.00321543, 0.00321345, 0.0031867, 0.00314909, 0.00322136, 1.36724, 1.36693, 1.36747, 1.36938, 0.00332173, 0.00338353, 0.00324862, 0.00330314, 0.0030369, 0.00306073, 0.00311119, 0.00331111, 0.00280736, 0.00303012, 0.00300211, 1.37596, 1.37502, 1.37576, 1.36493, 1.36151, 1.36247, 1.36456, 1.37268, 1.37361, 0.00312251, 0.00309001, 0.00306318, 0.00306928, 0.00299335, 0.00324906, 0.00320337, 1.40271, 1.39608, 1.39504, 0.00318333, 0.00321622, 1.52434, 0.00312765, 0.00319196, 0.00307295, 0.00303058, 1.44859, 0.00343255, 0.00324079, 0.00320039, 1.43804, 1.43977, 1.44169, 1.44712, 1.44738, 0.00321316, 1.45865, 1.45882, 1.45736, 1.45531, 1.45773, 1.45479, 1.45335, 1.4445, 0.00311469, 1.45568, 0.00333245, 0.00319452, 0.00338029, 0.00300175, 0.00354433, 0.00310013, 1.4814, 1.47914, 1.47982, 0.00314583, 0.00333223, 1.50939, 1.50854, 1.50764, 1.51357, 1.51297, 1.51187, 1.51153, 1.51461, 0.00283778, 1.52405, 1.52679, 1.52749, 1.52677, 1.52596, 0.00332959
0.00320786, 1.19812, 0.00320238, 0.00319567, 0.00310161, 0.93303, 0.909896, 0.911252, 0.00329987, 0.943827, 0.0031136, 0.885869, 0.00314794, 0.874109, 0.867422, 0.856214, 0.859012, 0.859783, 0.858526, 0.853088, 0.852041, 0.850304, 0.00319713, 0.818725, 0.81842, 0.81773, 0.813149, 0.811477, 0.902298, 0.776735, 0.776193, 0.775369, 0.00301244, 0.7439, 0.743425, 0.743827, 0.74498, 0.759918, 0.759653, 0.897149, 0.774451, 0.839344, 0.838354, 0.00338437, 0.00298838, 0.802463, 0.00302247, 0.00322553, 0.00313829, 0.732911, 0.73302, 0.743284, 0.742411, 0.750275, 0.748956, 0.747957, 0.731068, 0.730361, 0.719773, 0.718686, 0.72334, 0.723826, 0.003286, 0.821803, 0.00317982, 0.00329527, 0.850141, 0.00344801, 0.00310748, 0.00326993, 0.00315706, 0.954203, 0.953509, 0.939507, 0.00303438, 0.939274, 0.938913, 0.939492, 1.0394, 0.956149, 0.956386, 0.955405, 1.11572, 1.0887, 0.00330364, 1.02812, 1.0462, 1.05414, 0.989338, 0.987754, 0.988033, 0.991634, 0.00321729, 0.995033, 0.994191, 0.997037, 0.996274, 1.0073, 1.00715, 0.00308144, 0.00328892, 0.00323062, 1.10628, 0.00333525, 0.00300862, 0.00361427, 0.00309668, 1.14647, 1.16449, 1.16385, 1.16748, 0.00332464, 1.32976, 1.16721, 0.00307518, 0.00327074, 0.00318328, 1.3688, 0.00325598, 1.32607, 0.00329654, 1.1885, 1.19911, 0.00327079, 0.00295349, 0.00326773, 1.23937, 1.2024, 1.20349, 1.20623, 0.00288426, 0.00338668, 1.21872, 1.21934, 0.00322333, 0.00347267, 0.00302233, 0.00336114, 0.00324314, 0.00307406, 0.00302435, 1.36676, 1.34841, 0.00349297, 0.00291694, 0.00333482, 0.0030219, 0.00324375, 0.00321114, 1.43782, 0.00306536, 1.4097, 0.00307787, 1.44793, 1.4544, 1.39546, 0.00330303, 1.3742, 1.3732, 1.37465, 1.37444, 1.37562, 1.37601, 0.00316197, 1.37535, 1.37387, 0.00290948, 0.00344124, 0.00317, 1.37094, 1.37064, 1.36555, 1.36235, 1.36024, 1.40279, 1.34876, 1.34837, 1.35, 1.35124, 1.35088, 1.34856, 1.349, 1.35668, 1.35631, 1.35162, 1.34327, 1.34531, 1.34701, 1.34501, 1.34628, 1.3461, 1.33917, 1.33993, 1.33205, 1.32691, 1.32108, 1.32085, 1.32786, 1.32674, 1.32614, 1.32237, 0.00344101, 0.00321505, 1.35151, 1.35119, 0.00309787, 0.00328132, 0.00315181, 1.38049, 1.38101, 1.38203, 1.38377, 1.38462, 1.3834, 1.37062, 1.36856, 1.36466, 1.3642, 1.36015, 0.00305352, 0.00329016, 0.0032376, 0.00321685, 0.00327703, 0.00315272, 1.35363, 1.35418, 1.36098, 0.00326949, 0.0033865, 1.36609, 1.36521, 1.36681, 1.36429, 1.36458, 1.3671, 1.36714, 1.3669, 0.0031402, 0.00331158, 0.00300905, 0.0031552, 0.0030169, 1.38881, 1.3962, 1.39422, 1.3941, 1.39321, 1.39314, 0.00318599, 0.00308592, 0.00313509, 0.00317702, 1.49369, 1.49289, 1.49017, 1.41405, 0.00321032, 0.00308548, 0.00319442, 0.0030702, 1.43867, 1.43968, 1.44804, 1.45723, 1.45463, 1.45307, 1.45195, 1.45077, 0.00307712, 1.44319, 1.44083, 1.44293, 1.44307, 1.44318, 1.44342, 1.44455, 0.00342145, 0.0030227, 1.49324, 1.49149, 1.48566, 1.48365, 1.48302, 1.48571, 0.00315805, 1.51503, 1.51238, 1.51152, 1.51138, 1.51097, 1.5123, 1.51962, 1.52321, 1.52163, 1.52671, 1.5273, 1.52665, 1.52432, 1.5444
0.970506, 0.00321998, 0.96178, 0.00330933, 0.950765, 0.00318685, 0.918225, 0.916977, 0.907983, 0.907336, 0.00317735, 0.00301951, 0.877426, 0.874826, 0.863683, 0.863544, 0.881848, 0.00310439, 0.863548, 0.00318412, 0.854164, 0.0031031, 0.00330819, 0.00315614, 0.828122, 0.816452, 0.81647, 0.815664, 0.00323655, 0.00314579, 0.776779, 0.776899, 0.00336665, 0.832722, 0.849304, 0.738083, 0.743762, 0.755748, 0.753864, 0.00313338, 0.0031699, 0.76295, 0.762688, 0.00309386, 0.00319084, 0.753254, 0.752347, 0.751738, 0.739663, 0.739331, 0.740855, 0.740026, 0.736678, 0.740656, 0.741292, 0.737264, 0.735621, 0.735554, 0.733921, 0.728439, 0.727548, 0.735682, 0.73883, 0.00317626, 0.003255, 0.00320339, 0.00320304, 0.912608, 0.00344288, 0.00324514, 0.00325825, 0.00323622, 0.00312961, 0.9431, 0.00315163, 0.959472, 0.939212, 0.938742, 0.949459, 0.950536, 0.954167, 0.954395, 0.949857, 0.957138, 0.95743, 1.04136, 1.09105, 0.981592, 0.981558, 0.97834, 0.974666, 0.97392, 0.974981, 0.975665, 0.980117, 0.980911, 0.981219, 0.00309427, 1.14743, 1.00671, 1.14627, 1.02042, 1.02164, 1.02218, 0.00332614, 0.00317357, 1.08929, 0.00298993, 1.14025, 0.00316989, 0.00332872, 0.00316226, 0.00341657, 1.1607, 0.00331515, 1.2567, 0.00333966, 0.00321417, 1.17862, 1.18306, 0.00318909, 0.00319911, 0.0032305, 0.00321161, 0.00334614, 0.003059, 1.19144, 0.00322547, 1.22949, 1.22681, 1.20498, 1.24293, 1.2079, 1.20853, 0.00308823, 1.23368, 1.23459, 1.24576, 1.24612, 0.00305931, 0.00337217, 0.00314566, 0.0033241, 0.00318252, 1.35152, 1.33695, 1.3545, 0.00323566, 1.44312, 1.44346, 1.42096, 1.444, 0.00323216, 0.00319548, 1.45019, 1.37211, 1.37119, 1.37138, 1.37288, 1.36981, 1.37165, 1.3727, 1.37435, 1.36606, 1.36451, 1.38986, 1.35392, 0.00321101, 1.41172, 0.00312055, 1.38955, 0.00322074, 0.00328372, 1.34732, 1.34994, 1.34587, 1.34561, 1.34785, 1.34979, 1.34901, 1.34818, 1.35192, 1.35684, 1.35196, 1.34912, 1.34987, 1.34816, 1.34799, 1.34348, 1.34343, 1.34452, 1.34289, 1.34286, 1.34259, 1.33424, 1.32298, 1.32253, 1.32357, 1.32433, 1.32944, 0.00326366, 0.00308804, 0.00340822, 0.00294139, 1.35661, 0.00311123, 0.00314468, 0.00308376, 1.39737, 1.39785, 1.40179, 1.38539, 1.38103, 1.38078, 1.37977, 1.37046, 1.36791, 0.00313723, 0.00314253, 1.33828, 1.3364, 1.33568, 1.33626, 1.33736, 1.34099, 1.34703, 1.35502, 1.36294, 1.36163, 1.35946, 1.35809, 1.36217, 1.36208, 1.3674, 1.36742, 1.36929, 1.3737, 1.36968, 1.37542, 1.37859, 1.38131, 1.38149, 1.38237, 1.38304, 1.38491, 1.38732, 1.38925, 1.38835, 1.38723, 1.38696, 1.38908, 1.39335, 1.39246, 1.39186, 1.3916, 1.39132, 1.39148, 0.00298036, 0.00315926, 0.00326934, 1.43075, 0.00331427, 1.44501, 1.44697, 1.44947, 1.44821, 1.44941, 1.44994, 1.44976, 1.44885, 1.447, 1.44149, 1.44319, 1.44214, 1.44329, 0.00319057, 0.00314242, 1.64742, 0.00340472, 0.00325626, 1.49828, 1.49632, 1.48827, 1.49084, 1.57258, 1.4985, 1.51494, 1.51454, 1.51394, 1.51108, 1.52023, 0.00314098, 1.52327, 1.52779, 1.52672, 0.00313783, 1.53098, 1.53693, 0.00326631, 0.00293027
1.11803, 0.977073, 0.00319452, 0.974203, 0.00309907, 0.00332035, 0.00306997, 0.963657, 0.00306776, 0.914508, 0.00314702, 0.0035197, 0.965948, 0.963416, 0.871283, 0.870168, 0.875363, 0.946247, 0.00305622, 0.00318261, 0.86973, 0.00303994, 0.00297679, 0.0033769, 0.00332384, 0.00307977, 0.81748, 0.00306556, 0.00316934, 0.0032494, 0.00321058, 0.00310569, 0.00321425, 0.843269, 0.738523, 0.739394, 0.738859, 0.742923, 0.739897, 0.00309046, 0.756767, 0.757046, 0.755807, 0.75003, 0.74533, 0.745144, 0.745124, 0.74642, 0.746694, 0.787633, 0.733066, 0.73154, 0.722684, 0.788138, 0.00327947, 0.745164, 0.747127, 0.746075, 0.741013, 0.740221, 0.73847, 0.737079, 0.847272, 0.00316746, 0.00293466, 0.00323144, 0.00330233, 0.844067, 0.844673, 0.84553, 0.845669, 1.02495, 0.00302795, 0.00305797, 0.00330188, 0.00307716, 0.00309018, 0.960298, 0.951761, 0.955212, 0.956835, 0.956558, 0.956851, 0.953569, 0.955961, 1.08807, 0.00314535, 1.08704, 0.977204, 0.97727, 0.973292, 0.973608, 0.974972, 0.973514, 0.981173, 0.967014, 0.967288, 1.14082, 0.00308895, 0.00307501, 1.00849, 0.00300905, 0.00300413, 1.04905, 0.00352126, 1.1303, 1.13678, 1.07623, 1.08446, 1.08888, 0.00322151, 0.00325432, 1.17461, 1.17719, 0.00307803, 0.00345285, 1.16546, 0.00283278, 0.00315379, 0.00337205, 0.00326595, 1.14569, 0.00322891, 0.00318867, 1.19158, 1.2018, 1.17582, 1.17606, 1.17663, 0.00320205, 0.00295645, 1.20074, 1.20113, 0.00341314, 0.00325693, 1.22408, 0.00305891, 1.27095, 0.00315677, 0.00311898, 0.00296032, 0.00326877, 0.00323794, 1.64728, 0.00318462, 1.36772, 0.00317169, 0.00318317, 0.00296676, 1.42973, 0.00317707, 0.00344085, 0.00316358, 1.36574, 1.42971, 1.41016, 1.42443, 1.36351, 1.36353, 1.36511, 1.36479, 1.36405, 1.36153, 1.36109, 1.36002, 1.35946, 1.41636, 1.34974, 1.34911, 1.34827, 1.3507, 1.34993, 0.00304857, 1.38215, 1.34193, 1.3428, 1.34296, 1.34214, 1.34195, 1.34548, 1.34601, 1.34604, 1.34633, 1.34332, 1.34336, 1.34375, 1.34569, 1.34712, 1.34824, 1.34877, 1.34903, 1.34551, 1.3445, 1.34157, 1.34077, 1.34282, 1.33567, 1.33581, 1.33925, 1.33833, 1.33787, 0.00310035, 0.00306739, 1.37399, 1.37376, 0.00345692, 0.0031026, 0.00316115, 1.39936, 1.40192, 1.40251, 0.00307974, 0.00315399, 0.00312164, 0.00314293, 0.00316756, 1.3404, 1.33934, 1.33388, 1.33237, 1.33258, 1.33343, 1.33591, 1.33498, 1.33706, 1.35137, 0.0029113, 1.36375, 1.36378, 1.36395, 1.36356, 1.36159, 1.36836, 1.3694, 1.36937, 1.37115, 1.3742, 1.381, 1.38119, 1.38774, 1.38339, 1.38392, 1.38779, 1.38977, 1.39015, 1.39127, 1.39116, 1.39524, 1.39214, 1.40121, 0.00313333, 1.39588, 1.39682, 1.3912, 1.38986, 1.38897, 1.39636, 0.00328585, 0.00328699, 0.00351163, 0.0030911, 1.44686, 1.44506, 0.00338396, 1.44965, 1.44982, 1.4494, 1.44853, 1.44765, 1.44701, 1.44704, 1.44492, 1.44368, 1.44762, 1.462, 1.45972, 0.00317179, 1.46196, 0.00300577, 0.00329083, 1.60974, 1.49588, 1.49864, 0.00339337, 0.00294904, 1.50638, 1.51652, 1.51626, 1.51942, 1.51798, 1.53064, 1.5297, 1.53339, 1.53164, 1.52837, 1.53695, 0.00322702, 1.54791, 0.00306898, 1.55095
0.003225, 1.02921, 0.958415, 0.95784, 0.95748, 0.0030046, 0.00317649, 0.969279, 0.970863, 0.925557, 0.926208, 0.00328254, 0.00327298, 0.00316243, 0.890973, 0.00307944, 0.942772, 0.00305967, 0.890241, 0.890488, 0.912022, 0.873648, 0.873366, 0.0030229, 0.00324228, 0.00307307, 0.00310163, 0.00307201, 0.00312966, 0.00297448, 0.00333019, 0.00304627, 0.730189, 0.73122, 0.729575, 0.729276, 0.731596, 0.731354, 0.730611, 0.734807, 0.734832, 0.742483, 0.00332834, 0.749225, 0.745032, 0.744401, 0.884968, 0.890898, 0.00322549, 0.801137, 0.807711, 0.72053, 0.720276, 0.719953, 0.719568, 0.00332252, 0.725053, 0.724941, 0.724817, 0.731847, 0.814064, 0.00319939, 0.00355007, 0.00306205, 0.00347925, 0.00313296, 0.843197, 0.843322, 0.848938, 0.852612, 0.853516, 0.00317514, 0.00320478, 0.00309709, 0.00346644, 0.00312063, 0.93315, 1.09222, 1.08201, 0.955877, 0.956773, 0.957537, 0.957326, 0.956244, 1.09909, 0.94438, 0.944382, 1.09498, 0.955918, 1.05483, 0.956752, 0.956903, 0.955199, 0.953734, 0.965614, 0.972472, 0.00319466, 0.987412, 0.988179, 0.0032151, 1.00832, 0.00311661, 0.00322274, 0.00303702, 0.00325026, 1.06065, 1.09067, 1.07282, 1.07168, 1.07211, 1.0772, 1.07725, 1.08463, 1.17066, 1.14748, 1.25729, 1.12297, 0.00319678, 0.00310497, 1.13391, 1.13606, 1.13777, 0.00303251, 0.00302555, 0.00332076, 1.15286, 1.19554, 0.00315397, 0.00314473, 0.0033243, 0.00337898, 1.19756, 1.20297, 1.20496, 1.20632, 1.2147, 1.21083, 0.00311993, 0.00334086, 0.00309936, 0.00332285, 0.00307176, 0.00318244, 0.00317701, 0.00319493, 0.00301898, 0.00340104, 0.00300907, 0.00327171, 0.00328542, 1.43132, 0.00324289, 1.42635, 0.00313304, 1.34414, 1.34468, 1.41968, 1.36095, 1.36134, 1.36178, 1.3574, 1.35764, 1.35435, 1.35406, 1.3537, 1.3543, 1.35107, 0.00316785, 1.34174, 1.34109, 1.33842, 1.33653, 1.33678, 1.33803, 1.33725, 1.33867, 1.33831, 1.33921, 1.33977, 1.34028, 1.34015, 1.34038, 1.341, 1.34265, 1.34501, 1.34525, 1.34657, 1.34602, 1.34563, 1.34594, 1.34569, 1.33974, 1.34074, 1.34021, 1.33319, 1.33353, 1.33245, 1.33269, 1.33245, 1.3359, 0.0032566, 0.00300587, 0.0032251, 1.36807, 1.36457, 1.36511, 0.00326327, 0.00307772, 0.0034304, 0.00312806, 0.0031382, 0.00303022, 1.36079, 0.0031508, 0.00330295, 1.33041, 1.32939, 1.33269, 1.33514, 1.33653, 1.33615, 1.33826, 1.33956, 1.34748, 1.34733, 1.3558, 1.36257, 1.3656, 1.36521, 1.36379, 1.36479, 1.3654, 1.37514, 1.38192, 1.38116, 1.37561, 1.91968, 1.38622, 1.38809, 1.39239, 1.38926, 1.39125, 1.39033, 1.38929, 1.40917, 1.40938, 1.39997, 0.00293816, 0.00358675, 1.4123, 1.41206, 1.412, 1.41203, 1.4136, 1.41359, 0.0031306, 1.74477, 0.00308401, 0.00320667, 0.00333131, 0.00319439, 0.00319242, 0.00312138, 0.00356452, 1.48103, 1.51006, 1.44748, 1.44658, 1.44475, 1.44442, 1.45087, 1.45724, 0.00313884, 0.00310599, 0.00319168, 0.00294344, 0.00330242, 0.00310376, 0.00310852, 0.00315806, 0.00334825, 1.50872, 1.50891, 1.5101, 1.51281, 1.51229, 1.50889, 1.51443, 1.51393, 0.00313086, 1.52512, 1.53549, 1.53436, 1.53409, 1.54013, 1.53522, 1.54211, 0.00306059, 0.00324961, 0.00304081
0.00313827, 0.973308, 0.00327743, 0.968112, 0.00320557, 0.00358691, 0.974295, 0.970136, 0.925525, 0.925775, 0.0031825, 0.92885, 0.00322107, 0.93995, 0.00305873, 0.908357, 0.0030348, 0.892312, 0.891687, 0.891235, 0.975269, 0.874946, 0.873653, 0.96026, 0.00326817, 0.00337271, 0.00301678, 0.00310409, 0.003102, 0.00339337, 0.00324503, 0.843683, 0.00304703, 0.7301, 0.728949, 0.721773, 0.72219, 0.723083, 0.728105, 0.734291, 0.736524, 0.742479, 0.741563, 0.749911, 0.0031751, 0.933764, 0.775187, 0.773057, 0.770822, 0.796702, 0.0031203, 0.809243, 0.720804, 0.718713, 0.720464, 0.719987, 0.720164, 0.719865, 0.722359, 0.726237, 0.00322226, 0.808089, 0.00314164, 0.00328327, 0.00334558, 0.0031173, 0.00309912, 0.0032652, 0.84995, 0.856999, 0.856385, 0.00319017, 0.00302383, 0.00311925, 0.00327556, 1.04638, 0.00312659, 0.998321, 0.980861, 1.06855, 1.0013, 1.04016, 0.958125, 0.959729, 0.958824, 0.956184, 0.950101, 0.94893, 0.960842, 0.960193, 0.957097, 0.956616, 0.954269, 0.953485, 0.961919, 0.963675, 0.968753, 0.00313642, 0.990573, 0.991613, 0.00323019, 1.22295, 1.12005, 1.08451, 1.12403, 0.00342532, 0.00323603, 0.00328083, 1.06239, 1.06328, 1.07324, 1.14673, 0.00304739, 0.00306175, 1.10424, 1.10775, 1.10831, 1.10808, 1.12066, 1.12177, 0.00322489, 1.12925, 1.17393, 1.27143, 0.00316057, 0.00315092, 0.00322001, 1.18948, 0.00315446, 0.00313192, 1.17591, 1.19157, 0.00310858, 1.19974, 1.20073, 1.21539, 0.00303407, 1.52132, 0.00308181, 1.21871, 0.00330156, 0.00325982, 0.00313746, 0.00328844, 0.00294285, 0.00342727, 0.0030643, 0.00309987, 0.00314878, 1.33088, 1.32962, 1.36387, 0.003302, 0.00341489, 1.33904, 1.33983, 1.41884, 1.34908, 1.4069, 1.35699, 1.35624, 1.35603, 1.35359, 1.35443, 1.34807, 1.34381, 1.34265, 1.34055, 1.33791, 1.33659, 1.33605, 1.33376, 1.33343, 1.33388, 1.33373, 1.33611, 1.33611, 1.33542, 1.33653, 1.33937, 1.34187, 1.34085, 1.34173, 1.34366, 1.34458, 1.34585, 1.34561, 1.34502, 1.34649, 1.33938, 1.32396, 1.32287, 1.32564, 1.33704, 1.33624, 1.33002, 1.33023, 1.33129, 1.33245, 1.33351, 1.33609, 1.34098, 1.353, 1.35289, 1.36212, 1.36137, 1.36353, 1.36021, 1.36004, 1.34994, 1.34913, 1.34772, 1.35003, 1.34986, 1.35036, 1.35151, 0.00309525, 0.00328762, 1.34636, 1.3377, 1.3366, 0.0031702, 1.34936, 1.35033, 1.3547, 1.35676, 1.363, 1.36445, 1.36432, 1.36375, 1.36666, 1.36773, 1.39007, 1.38692, 1.38935, 1.38956, 0.00297886, 0.00340419, 1.40157, 1.40172, 1.40406, 0.00318111, 0.00311917, 0.003274, 0.00317838, 0.00319264, 0.00309112, 0.00321979, 1.42016, 0.00310815, 0.00329866, 0.00332126, 1.41294, 0.0031453, 0.00325869, 0.00320398, 0.00328477, 0.00321233, 0.00308197, 0.0033137, 0.00303272, 0.00346991, 0.00331945, 1.5095, 1.4991, 0.0031322, 1.46454, 0.0033977, 0.00310442, 0.00317719, 1.65749, 1.65657, 0.00305241, 0.00332448, 0.00308121, 0.00297837, 0.00322657, 0.00298976, 0.00314172, 0.00329862, 0.00301213, 1.50909, 0.00309571, 1.51654, 1.51409, 1.51361, 1.51595, 1.51557, 1.5157, 1.52258, 1.52211, 1.53176, 1.53529, 1.5377, 1.53686, 1.54107, 1.54503, 1.55071, 1.55021, 0.00324797
0.00319003, 0.00314475, 0.00342831, 0.969732, 0.968501, 0.961301, 0.961346, 0.962432, 0.953067, 0.952481, 0.936012, 0.0033214, 0.911916, 0.912571, 0.91352, 0.914663, 0.914666, 0.00296468, 0.919654, 0.889921, 0.00324266, 0.00303338, 0.00322451, 0.00339587, 0.943349, 0.914985, 0.00338812, 0.00300347, 0.00320462, 0.00319335, 0.715948, 0.715266, 0.714791, 0.704716, 0.704177, 0.703925, 0.868259, 0.819612, 0.0034431, 0.00297366, 0.00322838, 0.00305956, 0.750224, 0.754046, 0.751483, 0.00323151, 0.0034624, 0.80451, 0.747157, 0.748305, 0.747803, 0.00312544, 0.726439, 0.727358, 0.724385, 0.721536, 0.72503, 0.726122, 0.731699, 0.731882, 0.867956, 0.00324816, 0.89621, 0.00311454, 0.00329607, 0.00310762, 0.00316238, 0.870332, 0.860573, 1.13161, 1.13118, 0.00324458, 0.00318528, 0.00309396, 0.00334358, 0.00313602, 0.916744, 0.918385, 0.920347, 0.929725, 0.936096, 0.938148, 0.943759, 0.94609, 0.95483, 0.955292, 0.956838, 0.95818, 0.963831, 0.969712, 0.968667, 0.961766, 0.961181, 0.969933, 0.971863, 0.971653, 0.972307, 0.973684, 0.991245, 0.998115, 0.998721, 0.00296702, 0.00336853, 0.00301733, 1.02935, 1.0343, 1.03357, 0.00331274, 1.05124, 1.05104, 0.00323944, 0.0029467, 0.00319082, 1.08405, 0.00311884, 1.10061, 1.10953, 1.10826, 1.1091, 1.11171, 1.10952, 1.11018, 1.11244, 1.11522, 1.12502, 1.1251, 0.00337489, 1.18101, 0.0031735, 0.00312473, 0.0032346, 0.00304462, 0.00336244, 1.19061, 1.19456, 1.19557, 1.1954, 1.20153, 1.2017, 1.20785, 1.20876, 0.00322768, 0.00335029, 0.00321921, 0.00323597, 0.00307201, 0.00317408, 0.0029754, 0.00338387, 0.00305785, 0.00322264, 0.00293732, 0.00312182, 0.00312254, 0.00312173, 1.42237, 0.00306183, 1.38635, 1.34255, 1.34291, 0.00331454, 1.34776, 1.34701, 1.34722, 1.34895, 1.36713, 1.33749, 1.33637, 1.33574, 1.33465, 1.33446, 1.3344, 1.34046, 1.34222, 1.34165, 1.34443, 1.34208, 1.34187, 1.34062, 1.34025, 1.33853, 1.34546, 1.34377, 1.34285, 1.35066, 1.35153, 1.35228, 1.35176, 1.34973, 1.34117, 1.34022, 1.43653, 1.33193, 1.33752, 1.34012, 1.34256, 1.33609, 1.33683, 1.33732, 1.33674, 1.33601, 0.00316964, 0.00322664, 0.00291289, 1.36418, 1.37032, 1.3716, 1.37278, 1.38928, 1.35435, 1.35497, 1.35576, 1.35681, 1.35502, 1.35993, 1.36051, 1.36787, 1.36748, 0.0031822, 0.00323315, 0.00338414, 0.00316793, 1.36804, 1.36582, 1.36475, 1.36838, 1.36964, 1.37136, 1.37037, 1.36934, 0.00320541, 1.38796, 0.00314265, 1.39585, 1.39591, 1.40199, 1.40538, 0.00315867, 0.00309767, 0.00321254, 0.00317478, 0.00296024, 0.00306794, 1.42974, 0.0032984, 0.00311383, 0.00321778, 0.00291, 0.00326577, 0.00312386, 0.00349325, 0.00319994, 0.00335338, 0.00293309, 1.45763, 0.00300694, 0.00327081, 0.00304785, 0.00318465, 1.45927, 1.45872, 1.46731, 1.46879, 1.46608, 1.46487, 1.46407, 1.47757, 1.46789, 0.00350713, 0.00314091, 1.496, 0.00317082, 0.00315143, 0.00325619, 0.00316489, 0.00319333, 0.00320089, 0.00317738, 1.5061, 1.49956, 0.0031919, 0.00315154, 1.52944, 1.52745, 1.52629, 1.51957, 1.52052, 1.52227, 1.52061, 1.52345, 1.53378, 1.53295, 1.5368, 0.00301977, 1.55031, 1.54795, 1.55898, 1.55794, 1.55911, 0.0031312
1.04742, 0.0030391, 0.00325796, 0.00329873, 0.968264, 0.966142, 0.964864, 0.965802, 0.965109, 0.00339271, 0.00295347, 1.20212, 0.0031357, 0.0032033, 0.914741, 0.917415, 0.918471, 0.917142, 0.00325517, 0.00335148, 0.00288252, 0.00345018, 0.00306538, 0.00328853, 0.00303965, 0.00338321, 0.00309113, 0.00309546, 0.0032232, 0.00330631, 0.718153, 0.706764, 0.709183, 0.708869, 0.708394, 0.00341681, 0.00314997, 0.735929, 0.735524, 0.736042, 0.00312586, 0.804102, 0.805018, 0.00340538, 0.761229, 0.760532, 0.750703, 0.749504, 0.755818, 0.750109, 0.749477, 0.748945, 0.856264, 0.892646, 0.737242, 0.737977, 0.745376, 0.741605, 0.741686, 0.735818, 0.73057, 0.738186, 0.740097, 0.890897, 0.00326025, 0.00341652, 0.00297061, 0.00331259, 0.00317819, 0.00304681, 0.00293728, 0.00314829, 0.88581, 0.886717, 0.00308869, 1.02464, 1.02518, 0.972642, 0.00307584, 0.945697, 0.945802, 0.942637, 0.94204, 1.01163, 0.952727, 0.956459, 0.00329937, 0.967772, 0.968109, 0.973025, 0.974926, 0.0030965, 0.988797, 0.990952, 0.990213, 0.988879, 0.987701, 0.990567, 0.990121, 1.1084, 0.99973, 0.999892, 0.00313262, 1.11539, 1.10302, 0.0031028, 1.03583, 1.0372, 0.00302369, 1.04285, 1.04223, 0.00320668, 0.00301772, 0.00348558, 1.09377, 1.09534, 1.09759, 1.09828, 1.09948, 1.10798, 1.10893, 1.10824, 1.10826, 1.10836, 0.00337145, 1.11464, 0.00310425, 0.00338277, 0.00320477, 0.00333071, 0.003098, 0.00333516, 0.00312602, 0.00316887, 0.00300275, 1.18771, 0.00308148, 1.19064, 1.19384, 1.1918, 1.19385, 1.29562, 0.00295217, 0.00303083, 0.0032451, 0.00339596, 0.00306716, 0.00345859, 0.00317619, 0.0032187, 0.00313154, 0.00324379, 0.00314664, 0.00298852, 0.00316659, 1.41901, 1.41284, 1.40183, 1.40504, 1.4122, 0.00304129, 0.00321826, 0.0030884, 1.39974, 1.39576, 1.39825, 0.00291243, 1.33268, 1.33231, 1.33274, 1.33256, 1.33277, 1.33216, 1.33705, 1.33927, 1.34073, 1.34409, 1.3437, 1.35075, 1.35025, 1.35473, 1.35626, 1.35565, 0.00328996, 0.00312107, 1.3502, 1.35022, 1.34801, 1.34649, 1.34257, 1.34398, 1.34869, 1.34485, 1.34069, 1.3395, 1.33759, 1.3379, 1.33822, 1.34954, 1.34829, 1.34678, 0.00309074, 0.00318791, 1.37699, 1.37551, 1.36798, 1.37781, 1.37739, 1.3776, 1.35718, 1.35455, 1.35503, 0.00294254, 0.0031204, 1.36426, 1.37039, 1.37083, 1.37112, 1.38505, 1.38455, 1.38723, 1.38322, 1.38039, 1.37987, 1.37628, 1.37752, 1.37751, 1.37291, 0.0030741, 0.00338242, 1.38112, 0.00318391, 1.38927, 1.41325, 0.00300333, 0.00319755, 1.41492, 0.00335456, 0.00292877, 0.00316717, 0.00299949, 1.49524, 0.00307881, 0.00320447, 0.00332332, 0.00316207, 0.003033, 0.00354558, 0.0030274, 0.00300368, 0.00282548, 0.00337182, 1.46278, 0.00321866, 0.00304163, 0.00328476, 0.00294417, 0.0032669, 0.00312599, 0.00326583, 0.00313345, 1.47249, 1.46839, 1.46574, 0.00318221, 0.00320768, 0.0031036, 0.00335157, 0.00301795, 0.00333558, 0.00305617, 0.0032825, 0.00324606, 0.00343001, 0.00286073, 1.51581, 1.51569, 1.51097, 1.51322, 1.51705, 0.00305201, 1.52671, 1.52541, 1.53278, 1.53029, 1.53274, 1.53347, 1.53164, 1.52742, 1.52592, 1.53041, 1.53437, 0.0032228, 0.00335621, 1.55777, 1.55146, 1.55211, 1.56138, 1.55858, 0.00325578
