0.368349, 0.366832, 0.365275, 0.362469, 0.359788, 0.358282, 0.357667, 0.356867, 0.358172, 0.357535, 0.356192, 0.353833, 0.351842, 0.351666, 0.349616, 0.347846, 0.339335, 0.574064, 0.587333, 0.534381, 0.490392, 0.359816, 0.320151, 0.317681, 0.316606, 0.314945, 0.314425, 0.313972, 0.315466, 0.315665, 0.501136, 0.316111, 0.536687, 0.491088, 0.414237, 0.362628, 0.327842, 0.555493, 0.926629, 0.928023, 0.572419, 0.576553, 0.35894, 0.360128, 0.360742, 0.360901, 0.359982, 0.359725, 0.369263, 0.36944, 0.368826, 0.38239, 0.382363, 0.38218, 0.381175, 0.386506, 0.38745, 0.388718, 0.388152, 0.535823, 0.537982, 0.404114, 0.400502, 0.40102, 0.400701, 0.402969, 0.407708, 0.410685, 0.408134, 0.407035, 0.410673, 0.414073, 0.685138, 0.686567, 0.458328, 0.556007, 0.482319, 0.629493, 0.598347, 0.597279, 0.735163, 0.629061, 0.740326, 0.646812, 0.657572, 0.65856, 0.680773, 0.70628, 0.685859, 0.745889, 0.832492, 0.781767, 0.856295, 0.79792, 0.840465, 0.935156, 0.841009, 0.853885, 0.84596, 0.857828, 0.856778, 0.861665, 0.854521, 0.856381, 0.862985, 0.900879, 0.887468, 0.899296, 0.912053, 0.936517, 0.959737, 0.944476, 0.966525, 0.974162, 0.974195, 0.964796, 0.965042, 1.03507, 1.02228, 1.0338, 1.01113, 1.01132, 1.02576, 1.03652, 1.07802, 1.07743, 1.07763, 1.07934, 1.09878, 1.12322, 1.1363, 1.03976, 1.03404, 1.06401, 1.13225, 1.15561, 1.13761, 1.13899, 1.1329, 1.13425, 1.13566, 1.13055, 1.14914, 1.14034, 1.12775, 1.12925, 1.11275, 1.12827, 1.12958, 1.11975, 1.13518, 1.14696, 1.15075, 1.14631, 1.16112, 1.24891, 1.24822, 1.22888, 1.22432, 1.22426, 1.25316, 1.26775, 1.32028, 1.3411, 1.34116, 1.34121, 1.33961, 1.3134, 1.56092, 1.54748, 1.53819, 1.31279, 1.27424, 1.27386, 1.34096, 1.35887, 1.36454, 1.3638, 1.37215, 1.2203, 1.21972, 1.29305, 1.3947, 1.45477, 1.20576, 1.1992, 1.21603, 1.1292, 1.12918, 1.13002, 1.14537, 1.06528, 1.06407, 1.04481, 1.03485, 1.03237, 1.00936, 1.01263, 0.994523, 0.949697, 0.897548, 0.882612, 0.84204, 0.842457, 0.842061, 0.838448, 0.911052, 0.909713, 0.871416, 0.814241, 0.821859, 0.826189, 0.799557, 0.710698, 0.746645, 0.746918, 0.714398, 0.69295, 0.609291, 0.663713, 0.611035, 0.610649, 0.533353, 0.544411, 0.50861, 0.43632, 0.435817, 0.433203, 0.379479, 0.379322, 0.382835, 0.359217, 0.343292, 0.342213, 0.29991, 0.302489, 0.303006, 0.301385, 0.324517, 0.324214, 0.280849, 0.272931, 0.272988, 0.282979, 0.308267, 0.308094, 0.309673, 0.310783, 0.312349, 0.313802, 0.313619, 0.315488, 0.316126, 0.319343, 0.326796, 0.327405, 0.327133, 0.327256, 0.653655, 0.431595, 0.432515, 0.425317, 0.558569, 0.556727, 0.366366, 0.444465, 0.333945, 0.333531, 0.253007, 0.253341, 0.390236, 0.239445, 0.242567, 0.243472, 0.242629, 0.237888, 0.236424, 0.237705, 0.237806, 0.237298, 0.236975, 0.235763, 0.208858, 0.209057, 0.209715, 0.210128, 0.180021, 0.179726, 0.179634, 0.178709, 0.147394, 0.148016, 0.148325, 0.148792, 0.148433, 0.528816, 0.333047, 0.334033, 0.171618, 0.172307
0.370796, 0.369858, 0.369528, 0.368163, 0.357219, 0.357602, 0.357358, 0.356341, 0.358496, 0.358144, 0.355854, 0.355217, 0.353621, 0.353164, 0.352208, 0.35181, 0.344192, 0.559331, 0.587912, 0.653258, 0.676249, 0.62862, 0.323066, 0.32111, 0.319389, 0.316564, 0.316238, 0.31654, 0.317142, 0.31778, 0.317796, 0.385861, 0.385063, 0.53339, 0.325725, 0.531497, 0.529582, 1.14742, 0.998829, 0.346658, 0.347926, 0.346751, 0.346546, 0.361228, 0.359887, 0.361107, 0.361566, 0.361477, 0.360564, 0.371469, 0.37232, 0.381044, 0.385629, 0.384063, 0.38762, 0.388436, 0.387669, 0.389398, 0.389, 0.387653, 0.403534, 0.400842, 0.410793, 0.41072, 0.410108, 0.404458, 0.403362, 0.403707, 0.404806, 0.412065, 0.412212, 0.412808, 0.412215, 0.414713, 0.624577, 0.622531, 0.56347, 0.563358, 0.599204, 0.600154, 0.60474, 0.648287, 0.593859, 0.587821, 0.6178, 0.617992, 0.64931, 0.670902, 0.789971, 0.786554, 0.772216, 0.764874, 0.795244, 0.797692, 1.05601, 0.827137, 0.842593, 0.850938, 0.868257, 0.900958, 0.891748, 0.872713, 0.900609, 0.903098, 0.922639, 0.880518, 0.915244, 0.913766, 0.91269, 0.965245, 0.964464, 1.02336, 1.02492, 0.935344, 0.941821, 0.959859, 0.967039, 0.977196, 1.02751, 1.02551, 1.00131, 1.00156, 1.04179, 1.06105, 1.00817, 1.07143, 1.07957, 1.03575, 1.04749, 1.0537, 1.08376, 1.0849, 1.08064, 1.06087, 1.13996, 1.13911, 1.11949, 1.1195, 1.2083, 1.1357, 1.13598, 1.13126, 1.13213, 1.14539, 1.14656, 1.14663, 1.2206, 1.1431, 1.17259, 1.23259, 1.15266, 1.15573, 1.16884, 1.17826, 1.17758, 1.25583, 1.33403, 1.22358, 1.2706, 1.24724, 1.26913, 1.32401, 1.31716, 1.32248, 1.33656, 1.54813, 1.54863, 1.5681, 1.60302, 1.60268, 1.56797, 1.54851, 1.31511, 1.30357, 1.30007, 1.29484, 1.36765, 1.52016, 1.42081, 1.2708, 1.27079, 1.25219, 1.23067, 1.22711, 1.24678, 1.16061, 1.11896, 1.15305, 1.18111, 1.08095, 1.08788, 1.0785, 1.05328, 1.03401, 0.978632, 0.977815, 0.995372, 0.995404, 0.951473, 0.951833, 0.92846, 0.906927, 0.883861, 0.925418, 0.916432, 0.915314, 0.873163, 0.818982, 0.819297, 0.819836, 0.863557, 0.769692, 0.773845, 0.766659, 0.767902, 0.769928, 0.757048, 0.747902, 0.655948, 0.657014, 0.508131, 0.517269, 0.541298, 0.49338, 0.483625, 0.438204, 0.438245, 0.440621, 0.401098, 0.383129, 0.363117, 0.362409, 0.362634, 0.359788, 0.325475, 0.303453, 0.303299, 0.301059, 0.317461, 0.286608, 0.285647, 0.282037, 0.283147, 0.292915, 0.292622, 0.307286, 0.307597, 0.308819, 0.31016, 0.307665, 0.309083, 0.319969, 0.320761, 0.321191, 0.321679, 0.325691, 0.324385, 0.324032, 0.308511, 0.309632, 0.309743, 0.309579, 0.308789, 0.361369, 0.36196, 0.562645, 0.33351, 0.255691, 0.255502, 0.256082, 0.255849, 0.253155, 0.245537, 0.244874, 0.245723, 0.245381, 0.487902, 0.240959, 0.23865, 0.235013, 0.234115, 0.233708, 0.359583, 0.206654, 0.207596, 0.332095, 0.181223, 0.18173, 0.179743, 0.177454, 0.144365, 0.146099, 0.146677, 0.147572, 0.359464, 0.525646, 0.521808, 0.203953, 0.204637, 0.20355
0.368756, 0.36848, 0.368495, 0.367795, 0.357969, 0.358069, 0.357491, 0.356381, 0.356096, 0.35905, 0.358105, 0.35613, 0.353986, 0.35342, 0.352139, 0.34849, 0.346887, 0.345702, 0.714835, 0.696583, 0.87453, 0.734564, 0.415468, 0.424482, 0.318981, 0.317938, 0.318443, 0.318488, 0.318845, 0.394809, 0.387758, 0.330675, 0.326675, 0.332654, 0.324321, 0.328861, 0.529079, 0.529468, 0.528166, 0.530973, 0.351046, 0.349337, 0.352726, 0.352489, 0.362242, 0.362481, 0.36028, 0.362614, 0.362468, 0.369484, 0.900999, 0.382625, 0.382906, 0.382711, 0.380857, 0.385886, 0.386254, 0.390106, 0.389314, 0.391307, 0.39086, 0.682104, 0.681451, 0.410758, 0.410359, 0.409948, 0.404154, 0.403902, 0.402115, 0.401901, 0.412697, 0.412613, 0.413433, 0.415174, 0.798423, 0.473043, 0.697079, 0.518907, 0.565291, 0.601707, 0.560231, 0.598596, 0.575408, 0.575259, 0.570245, 0.63226, 0.661558, 0.779856, 0.702162, 0.71782, 0.943528, 0.770794, 0.804126, 0.814994, 0.813149, 0.847758, 0.871586, 0.862309, 0.883655, 0.881779, 0.878934, 1.04753, 0.906221, 0.9672, 0.966753, 0.920951, 0.931389, 0.930987, 0.94451, 0.944079, 0.98117, 0.951995, 0.99601, 0.960252, 0.954158, 1.00426, 0.990995, 0.970163, 0.971356, 0.975049, 0.980758, 0.994432, 1.00975, 1.12891, 1.08419, 1.08248, 1.03111, 1.05642, 1.0738, 1.08435, 1.08286, 1.11582, 1.07151, 1.07177, 1.07731, 1.07597, 1.11244, 1.1908, 1.21162, 1.21501, 1.22492, 1.15681, 1.17481, 1.17574, 1.22231, 1.26367, 1.24223, 1.2365, 1.23859, 1.17466, 1.18966, 1.25067, 1.24984, 1.31564, 1.22186, 1.32679, 1.2483, 1.2468, 1.24694, 1.33663, 1.29423, 1.33038, 1.55736, 1.55924, 1.55919, 1.61328, 1.57324, 1.55936, 1.70252, 1.57349, 1.58183, 1.57935, 1.55757, 1.55439, 1.34304, 1.29173, 1.29312, 1.30097, 1.28828, 1.2744, 1.23292, 1.21797, 1.18253, 1.18184, 1.12916, 1.12011, 1.13078, 1.09268, 1.09035, 1.09172, 1.08733, 1.07109, 1.05284, 1.05688, 1.06149, 0.992007, 1.02883, 0.950418, 0.960442, 0.960795, 0.973738, 0.936437, 0.90099, 0.900439, 0.874244, 0.868026, 0.836151, 0.834154, 0.816512, 0.866298, 0.809626, 0.810979, 0.759937, 0.773677, 0.71867, 0.773419, 0.764092, 0.728813, 0.577503, 0.545125, 0.507975, 0.50594, 0.548123, 0.476017, 0.438153, 0.43855, 0.470009, 0.470676, 0.424924, 0.380299, 0.361998, 0.440375, 0.419151, 0.324386, 0.32449, 0.323403, 0.280861, 0.291388, 0.294298, 0.306088, 0.307419, 0.293829, 0.339376, 0.312512, 0.312311, 0.311832, 0.302955, 0.307014, 0.30277, 0.303851, 0.828408, 0.735783, 0.321484, 0.320613, 0.320447, 0.322304, 0.322297, 0.321765, 0.308235, 0.309264, 0.309669, 0.309078, 0.422155, 0.434378, 0.275332, 0.275782, 0.275325, 0.256132, 0.256816, 0.256655, 0.255955, 0.25582, 0.382833, 0.246374, 0.247305, 0.247558, 0.245879, 0.233063, 0.233841, 0.234341, 0.234651, 0.232109, 0.339901, 0.341275, 0.341065, 0.341187, 0.183134, 0.183758, 0.183187, 0.530924, 0.266231, 0.38596, 0.527895, 0.361856, 0.342832, 0.233566, 0.204315, 0.2061, 0.207363, 0.208256
0.357788, 0.355158, 0.353747, 0.355158, 0.35716, 0.356585, 0.357087, 0.355471, 0.353651, 0.354, 0.35321, 0.351943, 0.351826, 0.350218, 0.350785, 0.348723, 0.34796, 0.348416, 0.68643, 0.637267, 0.332811, 0.877307, 0.415665, 0.414974, 0.389727, 0.319643, 0.31957, 0.320227, 0.465823, 0.461637, 0.460795, 0.324562, 0.452424, 0.452938, 0.329105, 0.328482, 0.427886, 0.529146, 0.52981, 0.528547, 0.35333, 0.354512, 0.353801, 0.357725, 0.362227, 0.361773, 0.360608, 0.360681, 0.369666, 0.371527, 0.371043, 0.371627, 0.37066, 0.376136, 0.375642, 0.376028, 0.382547, 0.385228, 0.3864, 0.389437, 0.390072, 0.397408, 0.399996, 0.398007, 0.539413, 0.539462, 0.40249, 0.401934, 0.401501, 0.410267, 0.41066, 0.413144, 0.417166, 0.420135, 0.418908, 0.420437, 0.562942, 0.563913, 0.568835, 0.548909, 0.548131, 0.549102, 0.625078, 0.568884, 0.569675, 0.611523, 0.632894, 0.68744, 0.709932, 0.69255, 0.722326, 0.757179, 0.759666, 0.823963, 0.843531, 0.832004, 0.863878, 0.870098, 0.852736, 1.11305, 1.05016, 1.05121, 1.06724, 0.985281, 0.96829, 0.969037, 1.06469, 1.06337, 1.06292, 0.987702, 0.984256, 0.977565, 0.963574, 1.08732, 0.970249, 0.966764, 0.970483, 1.03817, 1.03775, 0.984085, 0.984868, 0.983611, 0.984183, 1.01882, 1.00676, 1.0362, 1.05025, 1.07732, 1.07827, 1.1383, 1.13963, 1.10235, 1.15174, 1.10107, 1.10184, 1.08137, 1.10499, 1.12653, 1.2062, 1.22315, 1.22482, 1.15557, 1.2304, 1.22675, 1.28482, 1.23218, 1.23235, 1.20022, 1.20132, 1.20251, 1.22006, 1.23086, 1.24677, 1.24448, 1.30111, 1.24312, 1.24771, 1.30565, 1.25495, 1.26048, 1.31694, 1.34622, 1.78322, 1.76075, 1.7331, 1.5538, 1.55238, 1.55096, 1.59357, 1.58606, 1.58596, 1.58519, 1.63164, 1.62683, 1.57611, 1.34032, 1.28716, 1.25412, 1.30861, 1.30818, 1.18983, 1.18983, 1.16349, 1.15894, 1.13607, 1.10223, 1.09744, 1.09928, 1.14823, 1.12526, 1.12519, 1.2143, 1.10391, 1.10482, 1.11917, 0.988202, 1.01024, 0.940118, 0.939936, 0.956017, 0.904762, 0.904655, 0.904986, 0.880072, 0.880038, 0.88354, 0.928914, 0.931155, 0.81324, 0.813923, 0.865467, 0.793949, 0.772943, 0.756767, 0.77102, 0.73728, 0.618664, 0.614319, 0.562782, 0.56302, 0.552241, 0.514687, 0.475872, 0.459986, 0.435867, 0.433473, 0.434901, 0.432159, 0.428216, 0.424988, 0.441476, 0.340152, 0.345171, 0.367598, 0.365079, 0.296183, 0.292489, 0.327052, 0.301335, 0.359807, 0.304532, 0.30519, 0.313609, 0.314313, 0.31352, 0.313554, 0.303654, 0.303091, 0.304992, 0.306326, 0.306842, 0.308196, 0.308206, 0.309114, 0.311464, 0.310562, 0.310826, 0.647926, 0.370072, 0.307011, 0.294475, 0.295213, 0.295193, 0.278722, 0.27926, 0.279622, 0.278824, 0.277765, 0.254434, 0.00453885, 0.344947, 0.353478, 0.662776, 0.522857, 0.244137, 0.244278, 0.263921, 0.232746, 0.232323, 0.234049, 0.234002, 0.454855, 0.409527, 0.341017, 0.495533, 0.327359, 0.324665, 0.326369, 0.345304, 0.269341, 0.341689, 0.341008, 0.342042, 0.341684, 0.359551, 0.355481, 0.203192, 0.217218, 0.216909, 0.207943
0.35632, 0.356109, 0.356657, 0.357413, 0.356359, 0.355399, 0.354905, 0.355977, 0.353199, 0.352555, 0.352341, 0.351228, 0.350226, 0.348276, 0.347864, 0.346973, 0.341902, 0.341929, 0.341138, 0.339915, 0.331189, 0.618719, 0.398248, 0.797387, 0.797213, 0.394145, 0.321269, 0.322271, 0.448242, 0.323928, 0.3252, 0.325048, 0.323718, 0.540673, 0.538869, 0.669785, 0.528035, 0.528292, 0.528, 0.348745, 0.352455, 0.354543, 0.350653, 0.355676, 0.355693, 0.353776, 0.361426, 0.363623, 0.369696, 0.368967, 0.369751, 0.371, 0.37517, 0.374672, 0.374354, 0.373673, 0.374054, 0.37402, 0.387028, 0.385995, 0.392825, 0.392587, 0.392732, 0.555479, 0.530567, 0.528762, 0.539477, 0.41364, 0.413092, 0.413159, 0.412541, 0.414225, 0.414332, 0.414918, 0.589338, 0.673198, 0.703717, 0.59905, 0.598516, 0.543034, 0.544804, 0.536836, 0.535136, 0.601141, 0.607848, 0.624346, 0.708821, 0.67398, 0.687313, 0.707039, 0.786747, 0.736388, 0.775595, 0.798166, 0.941383, 0.827687, 0.825495, 0.893423, 0.853282, 1.12651, 1.11128, 1.10451, 1.02278, 1.02838, 1.02902, 1.01176, 0.984916, 1.06091, 1.08213, 1.05471, 1.05675, 1.04695, 1.11442, 1.11466, 1.05247, 1.08138, 1.08209, 1.10425, 1.14261, 1.0843, 1.10562, 1.05123, 1.02375, 1.02786, 1.07712, 1.141, 1.1357, 1.15257, 1.15321, 1.10591, 1.17025, 1.19067, 1.14762, 1.1283, 1.14414, 1.11867, 1.13077, 1.14018, 1.13938, 1.2087, 1.18788, 1.14919, 1.19372, 1.2149, 1.28502, 1.40321, 1.22231, 1.2224, 1.24801, 1.22539, 1.29872, 1.23624, 1.25798, 1.2499, 1.25048, 1.25011, 1.2282, 1.27365, 1.27099, 1.29979, 1.39993, 1.85502, 1.89773, 1.73843, 1.55651, 1.55473, 1.55518, 1.6073, 1.57882, 1.54961, 1.59285, 1.65074, 1.57093, 1.57183, 1.5887, 1.62315, 1.45149, 1.25839, 1.25873, 1.21202, 1.20333, 1.18903, 1.15282, 1.14022, 1.18082, 1.15828, 1.14124, 1.12541, 1.16124, 1.12302, 1.12381, 1.11197, 1.11837, 1.11344, 1.11366, 0.986476, 0.981112, 0.966084, 0.981611, 0.937098, 0.962712, 0.964811, 0.897811, 0.882617, 0.872179, 0.88024, 0.891515, 0.891569, 0.817991, 0.819196, 0.818449, 0.82901, 0.745943, 0.797418, 0.670299, 0.66223, 0.633196, 0.594198, 0.604031, 0.501792, 0.532785, 0.523249, 0.484149, 0.433938, 0.494539, 0.435321, 0.40899, 0.437516, 0.389891, 0.434394, 0.403487, 0.384051, 0.411178, 0.362236, 0.361389, 0.318833, 0.353317, 0.354939, 0.380614, 0.356872, 0.359928, 0.350059, 0.311206, 0.320148, 0.317076, 0.311389, 0.31241, 0.309251, 0.304584, 0.304178, 0.304903, 0.305641, 0.307072, 0.309016, 0.307857, 0.310964, 0.310604, 0.30276, 0.296253, 0.296245, 0.296178, 0.296593, 0.296095, 0.287975, 0.290089, 0.27952, 0.292582, 0.293475, 0.29324, 0.346558, 0.660415, 0.352166, 0.446729, 0.408182, 0.458894, 0.403896, 0.255847, 0.26605, 0.454611, 0.455052, 0.455313, 0.398605, 0.341131, 0.494203, 0.462382, 0.363319, 0.365543, 0.364533, 0.343011, 0.401889, 0.338556, 0.341531, 0.298967, 0.321602, 0.340016, 0.340501, 0.220245, 0.220092, 0.219858, 0.219938
0.352551, 0.355083, 0.356458, 0.358205, 0.356583, 0.361643, 0.362704, 0.361676, 0.361095, 0.360389, 0.351892, 0.35148, 0.351078, 0.351116, 0.351284, 0.344546, 0.342779, 0.340962, 0.340181, 0.339219, 0.442747, 0.525607, 0.524457, 0.398307, 0.642279, 0.325515, 0.323846, 0.324084, 0.325207, 0.327608, 0.32745, 0.326097, 0.325433, 0.442346, 0.442079, 0.353696, 0.352857, 0.527916, 0.531785, 0.530866, 0.354293, 0.35373, 0.355318, 0.354786, 0.355261, 0.355016, 0.354096, 0.579983, 0.576276, 0.57685, 0.367539, 0.368533, 0.368657, 0.374993, 0.373626, 0.371023, 0.370702, 0.375812, 0.381809, 0.735762, 0.735311, 0.393742, 0.392597, 0.394173, 0.795951, 0.700416, 0.589538, 0.421364, 0.421238, 0.420315, 0.412335, 0.413586, 0.413213, 0.41099, 0.481493, 0.586983, 0.586805, 0.601171, 0.728949, 0.544758, 0.537014, 0.537485, 0.577256, 0.56752, 0.600357, 0.692084, 0.6871, 0.670071, 0.779958, 0.848692, 0.941925, 0.849008, 0.776723, 0.859097, 0.897865, 0.900728, 0.899149, 0.833805, 0.820426, 0.839971, 1.11548, 1.07668, 1.01751, 1.05309, 1.15454, 1.12321, 1.00877, 0.998106, 1.07429, 1.02695, 1.06006, 1.11655, 0.984543, 0.992257, 1.0121, 1.00612, 1.00889, 0.989311, 1.09608, 1.10155, 1.10994, 1.1408, 1.07139, 1.0584, 1.15693, 1.13617, 1.13791, 1.10891, 1.20489, 1.11565, 1.17152, 1.1753, 1.13253, 1.11145, 1.11112, 1.1159, 1.20955, 1.20357, 1.12952, 1.12941, 1.12877, 1.14868, 1.15684, 1.19263, 1.17746, 1.17693, 1.17692, 1.25667, 1.2079, 1.27576, 1.24302, 1.24208, 1.24343, 1.24671, 1.23813, 1.23668, 1.25374, 1.25652, 1.33099, 1.3294, 1.37585, 1.91724, 1.73931, 1.55279, 1.55305, 1.74035, 1.71718, 1.5434, 1.50902, 1.50688, 1.51703, 1.51576, 1.51669, 1.51616, 1.59923, 1.58857, 1.38125, 1.30095, 1.26368, 1.2059, 1.18288, 1.1818, 1.18473, 1.13987, 1.13911, 1.13084, 1.12952, 1.29462, 1.11776, 1.12954, 1.17764, 1.14256, 1.14191, 1.18906, 1.11459, 1.1152, 0.954458, 0.954609, 0.954653, 0.94779, 0.959576, 1.02281, 1.02201, 0.914247, 0.912192, 0.871196, 0.889771, 0.890183, 0.821548, 0.8216, 0.857408, 0.86729, 0.746687, 0.632721, 0.633556, 0.639186, 0.601643, 0.602144, 0.569285, 0.500546, 0.50319, 0.531833, 0.532741, 0.470311, 0.469795, 0.446327, 0.453479, 0.465906, 0.388103, 0.464939, 0.435559, 0.360828, 0.372927, 0.370707, 0.383546, 0.331485, 0.398234, 0.398374, 0.377815, 0.357731, 0.312049, 0.313202, 0.313311, 0.313299, 0.311048, 0.312042, 0.309613, 0.303847, 0.303658, 0.300651, 0.305147, 0.306088, 0.306373, 0.30591, 0.306367, 0.306486, 0.304892, 0.303806, 0.303054, 0.302627, 0.301611, 0.288775, 0.289825, 0.291086, 0.291711, 0.293375, 0.293624, 0.294312, 0.294156, 0.293195, 0.403384, 0.428175, 0.41231, 0.4101, 0.41262, 0.411808, 0.462236, 0.26378, 0.263034, 0.413869, 0.370918, 0.38752, 0.427896, 0.392928, 0.346092, 0.387253, 0.383252, 0.439096, 0.435073, 0.331946, 0.341535, 0.298578, 0.333578, 0.338254, 0.409939, 0.496934, 0.497297, 0.496628, 0.220261, 0.220397
0.353053, 0.355663, 0.358321, 0.356219, 0.355281, 0.361851, 0.362981, 0.362694, 0.362281, 0.359583, 0.358306, 0.352424, 0.353024, 0.352258, 0.350963, 0.350899, 0.348825, 0.340115, 0.339797, 0.628739, 0.449604, 0.701935, 0.53101, 0.331201, 0.329224, 0.328818, 0.328225, 0.326057, 0.648017, 0.363364, 0.364903, 0.359142, 0.353017, 0.35316, 0.352666, 0.355545, 1.55108, 1.55072, 1.54979, 0.347699, 0.348237, 0.348675, 0.352791, 0.353489, 0.354086, 0.354753, 0.355657, 0.580047, 0.578268, 0.368779, 0.369666, 0.370368, 0.369774, 0.371702, 0.372376, 0.371324, 0.372564, 0.376895, 0.378915, 0.378249, 0.737017, 0.736409, 0.736499, 0.735476, 0.398436, 0.404536, 0.406863, 0.421081, 0.421717, 0.42041, 0.411852, 0.410165, 0.407654, 0.420373, 0.420046, 0.419649, 0.576119, 0.477267, 0.446253, 0.545959, 0.544355, 0.524841, 0.551669, 0.552829, 0.617295, 0.6185, 0.653216, 0.704441, 0.704595, 0.770267, 0.728479, 0.938334, 0.808651, 0.811258, 0.946698, 0.946042, 0.909924, 0.910288, 0.895426, 0.894697, 0.886034, 0.980873, 1.02386, 1.02281, 0.958677, 0.953181, 0.955491, 0.952637, 0.938363, 1.02882, 1.0127, 0.995143, 0.981874, 0.963211, 0.976448, 0.969923, 0.984487, 1.07307, 1.07087, 1.02197, 1.13785, 1.15063, 1.15165, 1.10787, 1.15275, 1.06086, 1.05622, 1.13971, 1.10948, 1.13796, 1.10298, 1.11889, 1.11249, 1.1125, 1.11432, 1.11471, 1.22548, 1.20104, 1.14091, 1.13348, 1.13458, 1.1348, 1.15445, 1.16473, 1.18771, 1.17708, 1.17753, 1.19899, 1.21515, 1.23631, 1.27629, 1.24041, 1.22508, 1.22547, 1.24269, 1.24578, 1.24797, 1.38839, 1.3743, 1.39248, 1.90089, 1.71807, 1.71795, 1.72834, 1.74698, 1.77883, 1.77801, 1.71567, 1.54908, 1.53292, 1.54428, 1.57272, 1.54382, 1.60541, 1.60481, 1.54808, 1.29847, 1.33671, 1.21228, 1.20474, 1.19627, 1.19695, 1.18958, 1.20415, 1.19506, 1.19374, 1.14256, 1.15827, 1.20141, 1.10289, 1.12767, 1.13195, 1.14273, 1.03651, 1.0126, 1.06019, 0.991392, 0.958623, 0.968922, 0.973844, 0.988046, 0.94586, 0.921443, 0.909459, 0.911155, 0.909553, 0.910196, 0.846446, 0.846641, 0.860664, 0.80578, 0.807918, 0.763513, 0.673861, 0.667215, 0.614773, 0.614777, 0.590224, 0.589609, 0.567291, 0.566615, 0.590954, 0.522263, 0.504102, 0.50523, 0.532443, 0.49806, 0.436185, 0.438748, 0.424365, 0.427708, 0.429204, 0.397498, 0.381006, 0.369674, 0.379133, 0.353396, 0.381087, 0.410429, 0.411221, 0.292295, 0.317468, 0.311978, 0.310651, 0.325882, 0.325576, 0.323551, 0.322946, 0.300915, 0.303543, 0.306284, 0.305908, 0.304784, 0.304152, 0.307698, 0.306796, 0.302111, 0.303372, 0.302767, 0.303035, 0.301696, 0.291395, 0.291122, 0.290985, 0.291136, 0.294332, 0.293823, 0.294152, 0.294263, 0.294513, 0.410798, 0.404323, 0.403548, 0.410328, 0.424619, 0.278012, 0.411331, 0.263811, 0.264598, 0.264529, 0.265184, 0.359138, 0.388796, 0.345277, 0.34541, 0.392819, 0.253363, 0.306583, 0.345513, 0.269157, 0.294378, 0.254643, 0.413652, 0.337651, 0.32878, 0.495358, 0.328219, 0.497072, 0.493882, 0.217576
0.361251, 0.35988, 0.358829, 0.356769, 0.356106, 0.356888, 0.361182, 0.36024, 0.358509, 0.357587, 0.359047, 0.358542, 0.353756, 0.354102, 0.353003, 0.351952, 0.351111, 0.356321, 0.355765, 0.34375, 0.341654, 0.685584, 0.68424, 0.335474, 0.808649, 0.7353, 0.877451, 0.797379, 0.751972, 0.804155, 0.894141, 0.356504, 0.354543, 0.35339, 0.353581, 0.355185, 0.356231, 0.335462, 0.340478, 0.346126, 0.346843, 0.347535, 0.351721, 0.350249, 0.351824, 0.352482, 0.35976, 0.361599, 0.368753, 0.58126, 0.370515, 0.375251, 0.374703, 0.375242, 0.373989, 0.374693, 0.376723, 0.379261, 0.378844, 0.377281, 0.382375, 0.736127, 0.735853, 0.508449, 0.507661, 0.508365, 0.402212, 0.677841, 0.410241, 0.410585, 0.410148, 0.409734, 0.420255, 0.420721, 0.420586, 0.420492, 0.724238, 0.818729, 0.464322, 0.463517, 0.46272, 0.467178, 0.509944, 0.509179, 0.618801, 0.618294, 0.617527, 0.687551, 0.754878, 0.753997, 0.798633, 0.757023, 0.872767, 0.796312, 0.833028, 0.839375, 0.880519, 0.839656, 0.85069, 0.842562, 0.858143, 0.914683, 0.915844, 0.960102, 0.958764, 1.00296, 0.940839, 0.932904, 0.924937, 0.908049, 0.909032, 0.908517, 0.966081, 0.984361, 1.01121, 1.01237, 0.959792, 0.960415, 1.03711, 1.01209, 1.15529, 1.15048, 1.04692, 1.05308, 1.1114, 1.04998, 1.07045, 1.07934, 1.14401, 1.11164, 1.1282, 1.12794, 1.12869, 1.11486, 1.11788, 1.11978, 1.11732, 1.12174, 1.12541, 1.1406, 1.14131, 1.14889, 1.15776, 1.15981, 1.18179, 1.22092, 1.19829, 1.19819, 1.20876, 1.22748, 1.25008, 1.2608, 1.24452, 1.28685, 1.28069, 1.2794, 1.42296, 1.36874, 1.42683, 1.42706, 1.8517, 1.72057, 1.78569, 1.79564, 1.70724, 1.7069, 1.61404, 1.70318, 1.66542, 1.52265, 1.49639, 1.54819, 1.60246, 1.5263, 1.53812, 1.31073, 1.23967, 1.21725, 1.30226, 1.19155, 1.19404, 1.18501, 1.17987, 1.18834, 1.18978, 1.27063, 1.18467, 1.12186, 1.12248, 1.16723, 1.02231, 0.9738, 0.969218, 0.966314, 0.964211, 0.942508, 0.943234, 0.953061, 0.964055, 0.981666, 1.00446, 0.922426, 0.960875, 0.961431, 0.931556, 0.93257, 0.909827, 0.832799, 0.848763, 0.808379, 0.777293, 0.794255, 0.793685, 0.676449, 0.676364, 0.69488, 0.652478, 0.653198, 0.617688, 0.621257, 0.653644, 0.549153, 0.549748, 0.577269, 0.524325, 0.523914, 0.494847, 0.473309, 0.452793, 0.436269, 0.435502, 0.432874, 0.390333, 0.387547, 0.369458, 0.405532, 0.403941, 0.353198, 0.353637, 0.286529, 0.314707, 0.318601, 0.324031, 0.32421, 0.325295, 0.322693, 0.32254, 0.323307, 0.323483, 0.323872, 0.306551, 0.306202, 0.307277, 0.297863, 0.30072, 0.444651, 0.300587, 0.300976, 0.30085, 0.290645, 0.289195, 0.284705, 0.288812, 0.286988, 0.286767, 0.294341, 0.295794, 0.295499, 0.294813, 0.500368, 0.401821, 0.503378, 0.40122, 0.411516, 0.477224, 0.38911, 0.264919, 0.266276, 0.266673, 0.268149, 0.268575, 0.268607, 0.268269, 0.267184, 0.316909, 0.383086, 0.471313, 0.296156, 0.369548, 0.362741, 0.283397, 0.263329, 0.31439, 0.415697, 0.245274, 0.326411, 0.314041, 0.312121, 0.194605, 0.195784
0.357583, 0.356896, 0.356064, 0.355385, 0.355028, 0.35502, 0.355314, 0.35726, 0.358874, 0.357232, 0.357255, 0.356559, 0.354886, 0.353824, 0.352707, 0.351765, 0.353199, 0.352327, 0.351468, 0.347598, 0.341876, 0.68602, 0.683658, 0.336421, 0.627905, 0.334548, 0.334025, 0.333147, 0.79968, 0.799063, 0.795517, 0.352106, 0.805587, 0.349803, 0.347567, 0.579407, 0.57935, 0.579164, 0.682496, 0.682341, 0.777872, 0.57556, 0.579378, 0.440947, 0.431842, 0.363294, 0.363412, 0.362538, 0.362176, 0.368898, 0.373331, 0.373293, 0.372759, 0.377019, 0.376022, 0.376099, 0.375427, 0.374189, 0.37466, 0.380489, 0.380181, 0.382249, 0.380938, 0.379603, 0.511155, 0.406318, 0.406865, 0.403861, 0.40545, 0.409733, 0.408492, 0.409446, 0.4177, 0.418734, 0.429751, 0.429351, 0.811379, 0.437098, 0.470686, 0.47731, 0.484923, 0.483731, 0.508033, 0.48364, 0.574377, 0.630275, 0.613775, 0.625432, 0.663534, 0.763483, 0.762948, 0.76432, 0.88536, 0.870906, 0.869591, 0.899184, 0.919151, 0.863194, 0.851028, 0.850022, 0.850133, 0.87141, 0.864137, 0.881352, 0.977779, 0.904493, 0.918715, 0.902911, 0.903922, 0.969785, 0.91101, 0.909694, 0.909212, 0.925009, 0.932265, 0.960521, 0.96603, 1.05001, 1.00417, 1.02588, 1.02543, 1.02275, 1.03611, 1.04644, 1.0597, 1.06797, 1.1326, 1.12862, 1.11973, 1.10045, 1.12564, 1.08587, 1.08669, 1.12009, 1.20447, 1.12577, 1.12517, 1.14003, 1.18368, 1.18782, 1.1895, 1.19824, 1.21553, 1.20282, 1.20011, 1.19903, 1.21893, 1.23239, 1.26822, 1.26516, 1.26611, 1.46125, 1.44672, 1.37081, 1.36989, 1.37571, 1.48881, 1.55546, 1.71418, 0.00395904, 1.7233, 1.72323, 1.73181, 1.73362, 1.70773, 1.71911, 1.60032, 1.58946, 1.50938, 1.54488, 1.5455, 1.48827, 1.51702, 1.51483, 1.61254, 1.25619, 1.2231, 1.21233, 1.23854, 1.18662, 1.18725, 1.18416, 1.18435, 1.18835, 1.24521, 1.24487, 1.19256, 1.07864, 1.09869, 1.03959, 1.01403, 0.98425, 0.962792, 0.957449, 0.957119, 0.983784, 0.981413, 0.959681, 0.936325, 1.00495, 0.90994, 0.908143, 0.991242, 0.897422, 0.891301, 0.886063, 0.80588, 0.867316, 0.767771, 0.790041, 0.757795, 0.758826, 0.759262, 0.671514, 0.643758, 0.623928, 0.631957, 0.619295, 0.618756, 0.653497, 0.570601, 0.570277, 0.559191, 0.469384, 0.514104, 0.513539, 0.515186, 0.435356, 0.408962, 0.41232, 0.400614, 0.359724, 0.346299, 0.372918, 0.325341, 0.325046, 0.31757, 0.318072, 0.292717, 0.345895, 0.289215, 0.297355, 0.321505, 0.308783, 0.314064, 0.310616, 0.317434, 0.317283, 0.311634, 0.312188, 0.305458, 0.305282, 0.304761, 0.296236, 0.943011, 0.942551, 0.441149, 0.29253, 0.292497, 0.292453, 0.291269, 0.285794, 0.286996, 0.287418, 0.287307, 0.292784, 0.292765, 0.29173, 0.291783, 0.291276, 0.289364, 0.289341, 0.288766, 0.283848, 0.282693, 0.348162, 0.279599, 0.279002, 0.26579, 0.271824, 0.27079, 0.270231, 0.269295, 0.268101, 0.382601, 0.352358, 0.518848, 0.307001, 0.31087, 0.279879, 0.286007, 0.314373, 0.32264, 0.285683, 0.625595, 0.338325, 0.328827, 0.51423, 0.514434, 0.193766
0.356471, 0.355859, 0.356107, 0.354926, 0.355007, 0.355013, 0.354506, 0.356204, 0.358145, 0.359129, 0.358265, 0.357223, 0.35631, 0.355608, 0.355047, 0.350457, 0.348999, 0.349455, 0.350413, 0.350069, 0.355521, 0.345819, 0.345106, 0.338658, 0.338523, 0.337839, 0.336547, 0.723169, 0.805051, 0.800079, 0.797749, 0.678701, 0.879753, 0.880576, 0.338284, 0.343002, 0.343362, 0.578154, 0.577488, 0.352921, 0.35395, 0.354751, 0.353386, 0.371225, 0.36157, 0.361621, 0.361635, 0.363702, 0.363253, 0.37039, 0.369957, 0.372036, 0.378496, 0.377592, 0.381762, 0.38112, 0.377973, 0.37679, 0.376287, 0.377472, 0.379406, 0.381269, 0.382121, 0.508681, 0.511128, 0.512424, 0.403701, 0.403634, 0.404187, 0.402802, 0.403125, 0.40785, 0.402302, 0.403116, 0.483573, 0.429773, 0.429292, 0.468958, 0.435091, 0.432959, 0.481337, 0.453443, 0.480787, 0.500181, 0.542209, 0.614394, 0.615525, 0.646165, 0.640228, 0.752346, 0.744057, 0.805089, 0.970585, 0.953706, 0.891819, 0.872201, 0.872763, 0.927115, 0.849593, 0.849385, 0.849926, 0.848811, 0.905499, 0.870324, 0.879536, 0.871903, 0.891259, 0.912039, 0.912559, 0.953123, 0.954098, 0.947541, 0.905025, 0.906963, 0.959, 0.956958, 0.959722, 1.04986, 0.969606, 0.969711, 0.987177, 1.07737, 1.04862, 1.05503, 1.05402, 1.14187, 1.09548, 1.1276, 1.10715, 1.108, 1.10912, 1.10351, 1.26007, 1.11201, 1.1151, 1.11391, 1.14742, 1.15578, 1.2307, 1.20287, 1.20121, 1.14745, 1.17272, 1.17195, 1.23257, 1.27302, 1.27344, 1.25681, 1.30795, 1.4486, 1.37027, 1.36792, 1.38487, 1.38657, 1.38129, 1.37876, 1.40688, 1.40707, 1.47524, 1.46843, 1.75902, 1.75072, 1.74029, 1.81054, 1.70712, 1.67847, 1.70259, 1.51959, 1.47473, 1.46413, 1.45473, 1.44015, 1.49494, 1.50665, 1.27696, 1.24797, 1.24481, 1.20287, 1.20415, 1.19202, 1.18494, 1.18472, 1.18948, 1.23339, 1.20684, 1.21593, 1.09255, 1.09611, 1.0972, 1.09126, 1.01197, 0.978579, 0.953161, 0.949902, 0.95036, 0.959171, 0.942135, 1.02971, 1.03076, 1.03332, 0.901641, 0.901448, 0.902375, 0.909646, 0.958925, 0.92734, 0.841022, 0.838342, 0.778004, 0.757228, 0.72199, 0.69897, 0.6837, 0.658302, 0.612108, 0.621241, 0.638727, 0.619253, 0.618554, 0.487304, 0.488461, 0.532309, 0.466588, 0.427501, 0.425021, 0.387637, 0.424991, 0.424473, 0.501684, 0.415788, 0.355879, 0.36297, 0.355308, 0.345649, 0.324015, 0.368327, 0.368838, 0.334751, 0.304455, 0.339409, 0.338606, 0.297387, 0.390203, 0.308414, 0.319438, 0.320503, 0.310379, 0.311741, 0.311332, 0.313312, 0.31296, 0.312278, 0.343961, 0.342795, 0.28925, 0.349057, 0.289969, 0.290389, 0.290826, 0.288204, 0.289067, 0.286573, 0.286061, 0.286867, 0.289981, 0.290457, 0.291437, 0.289289, 0.28913, 0.288941, 0.287699, 0.289303, 1.03972, 0.286011, 0.285536, 0.332274, 0.279642, 0.279547, 0.425337, 0.262565, 0.263445, 0.262312, 0.262257, 0.265556, 0.352223, 0.352736, 0.258974, 0.297144, 0.321764, 0.321515, 0.368854, 0.345746, 0.323799, 0.327667, 0.363236, 0.176484, 0.17899, 0.179465, 0.180014, 0.179041
0.358123, 0.357209, 0.356129, 0.354856, 0.354761, 0.353567, 0.353229, 0.353816, 0.352959, 0.357834, 0.35827, 0.357446, 0.356284, 0.35591, 0.355898, 0.35482, 0.350099, 0.350519, 0.348607, 0.348513, 0.352757, 0.351665, 0.347777, 0.341164, 0.337985, 0.615044, 0.596288, 0.339859, 0.797176, 0.797184, 0.797181, 0.432436, 0.787375, 0.339353, 0.339672, 0.377038, 0.375699, 0.351073, 0.351997, 0.351366, 0.350472, 0.349376, 0.358068, 0.358014, 0.358924, 0.360277, 0.365014, 0.365003, 0.363888, 0.364407, 0.368894, 0.378449, 0.379581, 0.381171, 0.382602, 0.380761, 0.381441, 0.376675, 0.377717, 0.376715, 0.377433, 0.379605, 0.380403, 0.381104, 0.393286, 0.393569, 0.392951, 0.392705, 0.403828, 0.40289, 0.402485, 0.405505, 0.406504, 0.4038, 0.600186, 0.43518, 0.43449, 0.455725, 0.46343, 0.464604, 0.465663, 0.466557, 0.496145, 0.552015, 0.546005, 0.569833, 0.600931, 0.612494, 0.611839, 0.7319, 0.763617, 0.891457, 0.891642, 0.850041, 0.822889, 0.918381, 0.845226, 0.844547, 0.829564, 0.879798, 0.888939, 0.850276, 0.864108, 0.94729, 0.948321, 0.920456, 0.930433, 0.912572, 0.975588, 0.975567, 0.919832, 0.915026, 0.915647, 0.96138, 0.976253, 0.97673, 0.957318, 0.999803, 0.995596, 1.02204, 1.03011, 1.06039, 1.06841, 1.07354, 1.0772, 1.09918, 1.10016, 1.10455, 1.11121, 1.18149, 1.18049, 1.09805, 1.09936, 1.10089, 1.14101, 1.16218, 1.23977, 1.15564, 1.15378, 1.25141, 1.15057, 1.23614, 1.20954, 1.27698, 1.27808, 1.37104, 1.37224, 1.25129, 1.34946, 1.26349, 1.3306, 1.36546, 1.36361, 1.36348, 1.37964, 1.37797, 1.38289, 1.47838, 1.45171, 1.47857, 1.76164, 1.83867, 1.78361, 1.6886, 1.6877, 1.66242, 1.55857, 1.4754, 1.51681, 1.50727, 1.48559, 1.38461, 1.42771, 1.29825, 1.2616, 1.22381, 1.22375, 1.20705, 1.20912, 1.19564, 1.18456, 1.17318, 1.17037, 1.22653, 1.161, 1.05588, 1.03811, 1.04618, 1.09341, 1.0614, 1.02465, 0.994423, 1.01906, 1.00579, 0.998312, 0.980121, 0.950757, 0.950801, 0.948186, 0.904362, 0.922989, 0.900727, 0.898233, 0.945838, 0.887608, 0.867971, 0.822498, 0.800923, 0.767345, 0.83338, 0.810503, 0.810904, 0.714045, 0.711899, 0.663451, 0.604745, 0.586903, 0.556177, 0.539038, 0.511362, 0.481211, 0.480387, 0.454405, 0.452453, 0.386385, 0.386476, 0.426433, 0.425623, 0.427012, 0.344373, 0.446007, 0.348993, 0.322261, 0.311079, 0.310466, 0.318886, 0.351598, 0.352346, 0.362732, 0.385349, 0.323799, 0.32423, 0.390968, 0.33369, 0.319696, 0.318982, 0.321347, 0.320766, 0.310605, 0.311241, 0.348226, 0.343824, 0.353298, 0.449545, 0.448492, 0.351902, 0.35359, 0.3534, 0.285777, 0.285827, 0.286, 0.276983, 0.277956, 0.279093, 0.278486, 0.278068, 0.355291, 0.308461, 0.287159, 0.366723, 0.469695, 0.469384, 0.283762, 0.462599, 0.27983, 0.278788, 0.268699, 0.269616, 0.269843, 0.269478, 0.269112, 0.262428, 0.259783, 0.258225, 0.25855, 0.247029, 0.321832, 0.248162, 0.247957, 0.357927, 0.317636, 0.29112, 0.378904, 0.324944, 0.343818, 0.181174, 0.179949, 0.182869, 0.180838, 0.179376
0.358293, 0.357423, 0.3582, 0.357283, 0.357952, 0.357103, 0.353893, 0.352801, 0.354304, 0.355301, 0.356595, 0.358131, 0.358321, 0.354643, 0.353682, 0.352071, 0.351082, 0.350274, 0.34963, 0.349466, 0.352217, 0.351179, 0.350019, 0.348247, 0.346791, 0.344696, 0.34512, 0.342421, 0.341511, 0.798247, 0.745848, 0.891685, 0.419503, 0.763926, 0.548132, 0.376842, 0.352919, 0.353349, 0.353541, 0.351296, 0.350825, 0.349098, 0.358424, 0.358999, 0.358578, 0.358085, 0.363515, 0.365872, 0.366148, 0.365675, 0.3658, 0.364263, 0.370619, 0.379873, 0.380509, 0.375768, 0.374565, 0.37742, 0.376545, 0.378066, 0.379771, 0.377434, 0.382657, 0.380961, 0.438354, 0.392606, 0.39291, 0.39485, 0.406394, 0.513164, 0.407173, 0.407362, 0.406692, 0.406669, 0.407878, 0.843553, 0.503105, 0.466196, 0.466627, 0.46562, 0.463151, 0.521128, 0.520958, 0.542306, 0.552912, 0.552995, 0.610829, 0.707061, 0.729077, 0.739029, 0.76042, 0.798231, 0.810809, 0.800932, 0.80313, 0.802086, 0.826131, 0.825923, 0.835311, 0.829098, 0.883441, 0.88351, 0.849809, 0.856847, 0.901093, 0.966548, 0.926874, 0.955963, 0.973363, 0.954026, 0.946634, 0.934117, 0.9602, 0.944444, 0.957992, 0.955116, 0.978845, 1.07096, 1.09777, 1.10954, 1.09975, 1.09822, 1.0747, 1.07461, 1.07318, 1.07247, 1.09841, 1.09168, 1.08856, 1.13143, 1.13244, 1.13888, 1.13861, 1.13971, 1.18836, 1.15768, 1.15935, 1.17423, 1.17469, 1.22104, 1.16185, 1.16319, 1.23967, 1.26872, 1.2433, 1.2397, 1.23949, 1.23129, 1.29594, 1.27335, 1.38144, 1.33476, 1.41181, 1.41067, 1.41903, 1.44981, 1.40718, 1.46071, 1.4289, 1.83389, 1.83453, 1.76484, 1.70237, 1.70419, 1.66145, 1.57866, 1.56613, 1.4611, 1.44279, 1.49623, 1.35805, 1.40501, 1.36072, 1.24621, 1.27056, 1.27775, 1.22014, 1.20305, 1.21168, 1.22149, 1.17407, 1.15053, 1.1513, 1.15756, 1.16253, 1.17218, 1.17265, 1.09175, 1.09068, 1.05808, 1.04488, 1.01164, 0.997789, 1.01555, 0.974288, 0.979943, 0.98116, 0.963626, 0.963178, 1.01503, 0.99936, 0.900732, 0.916865, 0.898592, 0.866457, 0.866342, 0.790243, 0.79028, 0.807913, 0.806954, 0.786358, 0.786715, 0.691021, 0.687285, 0.619497, 0.574054, 0.528497, 0.507639, 0.517529, 0.488326, 0.507772, 0.507653, 0.471307, 0.416212, 0.464819, 0.4036, 0.350589, 0.338114, 0.340547, 0.342685, 0.341449, 0.333901, 0.379672, 0.311675, 0.320514, 0.313267, 0.309563, 0.356255, 0.355596, 0.309241, 0.31053, 0.321273, 0.370317, 0.306987, 0.318239, 0.314554, 0.308097, 0.306681, 0.28855, 0.428532, 0.678373, 0.242134, 0.241831, 0.242033, 0.242496, 0.452879, 0.45299, 0.355702, 0.403504, 0.402218, 0.273664, 0.275498, 0.275926, 0.276925, 0.276637, 0.268294, 0.268335, 0.345311, 0.355494, 0.330639, 0.698423, 0.717719, 0.711554, 0.588429, 0.278964, 0.279439, 0.270128, 0.27003, 0.270546, 0.27016, 0.269658, 0.259024, 0.258941, 0.258622, 0.259088, 0.65353, 0.247806, 0.247658, 0.246442, 0.228933, 0.323879, 0.200838, 0.195985, 0.195556, 0.185547, 0.186517, 0.187818, 0.187343, 0.186248, 0.18704
0.363465, 0.36112, 0.359834, 0.358696, 0.359721, 0.356436, 0.355996, 0.354809, 0.354898, 0.356528, 0.355927, 0.356536, 0.354333, 0.354012, 0.352237, 0.352646, 0.352712, 0.352129, 0.350263, 0.350562, 0.350898, 0.351751, 0.351868, 0.351558, 0.352127, 0.346305, 0.346088, 0.344835, 0.344324, 0.453057, 0.651918, 0.883769, 0.742244, 0.692088, 0.667193, 0.556425, 0.352323, 0.352864, 0.351776, 0.352263, 0.351526, 0.350902, 0.361947, 0.362765, 0.361301, 0.360008, 0.362556, 0.363992, 0.364431, 0.364057, 0.368838, 0.694059, 0.370513, 0.376023, 0.3762, 0.375818, 0.375902, 0.378497, 0.376687, 0.376826, 0.378503, 0.379139, 0.380778, 0.379292, 0.500124, 0.391371, 0.438843, 0.394983, 0.407151, 0.408395, 0.408009, 0.407562, 0.407851, 0.406856, 0.407002, 0.406383, 0.517686, 0.503653, 0.467594, 0.47953, 0.478135, 0.458721, 0.483375, 0.50482, 0.535115, 0.534835, 0.567662, 0.694549, 0.694786, 0.743422, 0.787738, 0.782984, 0.98226, 0.909845, 0.91137, 0.814831, 0.814674, 0.823152, 0.838859, 0.880943, 0.924624, 0.91008, 0.908826, 0.963232, 1.00273, 0.949445, 0.949665, 1.00901, 1.00106, 0.97691, 0.975945, 0.978644, 0.984643, 0.990305, 0.991698, 1.02001, 1.02902, 1.09616, 1.10216, 1.0659, 1.05535, 1.05428, 1.04779, 1.07084, 1.06117, 1.06819, 1.11127, 1.0566, 1.06424, 1.09969, 1.09765, 1.09611, 1.09671, 1.11399, 1.24111, 1.2399, 1.24331, 1.24514, 1.28067, 1.15559, 1.15493, 1.28314, 1.2088, 1.26569, 1.25424, 1.24337, 1.2442, 1.25641, 1.25659, 1.33073, 1.37557, 1.30533, 1.36403, 1.39842, 1.43013, 1.38742, 1.38925, 1.43282, 1.46828, 1.43346, 1.71654, 1.71314, 1.65634, 1.65592, 1.50281, 1.48782, 1.54073, 1.30319, 1.38901, 1.28949, 1.25024, 1.24734, 1.23977, 1.23118, 1.23439, 1.22094, 1.2174, 1.20541, 1.20853, 1.19408, 1.14566, 1.15254, 1.17113, 1.14022, 1.13893, 1.13031, 1.11769, 1.13331, 1.09017, 1.12959, 1.13014, 1.04626, 1.01192, 1.02311, 1.0584, 0.997339, 0.955938, 1.16284, 1.16302, 0.935918, 0.959632, 0.953472, 0.901044, 0.900058, 0.815563, 0.815646, 0.817677, 0.812322, 0.897981, 0.807419, 0.805176, 0.742779, 0.641323, 0.627686, 0.604344, 0.541546, 0.541508, 0.534433, 0.50182, 0.494042, 0.431975, 0.424659, 0.425665, 0.405532, 0.386549, 0.375674, 0.354071, 0.352984, 0.341781, 0.33658, 0.334899, 0.31218, 0.320835, 0.315109, 0.314247, 0.366392, 0.309647, 0.343301, 0.360249, 0.308424, 0.31236, 0.312418, 0.31189, 0.311131, 0.310003, 0.315609, 0.314383, 0.310356, 0.407429, 0.681396, 0.680614, 0.2426, 0.243208, 0.243419, 0.243303, 0.451959, 0.451775, 0.346157, 0.346446, 0.351791, 0.418562, 0.264108, 0.265348, 0.266869, 0.267833, 0.268485, 0.268497, 0.30332, 0.307384, 0.307026, 0.705793, 0.705266, 0.790635, 0.758501, 0.254749, 0.303535, 0.614751, 0.739694, 0.267361, 0.0047843, 0.256581, 0.256616, 0.257927, 0.256811, 0.25556, 0.331775, 0.325297, 0.317424, 0.286338, 0.318419, 0.194023, 0.196546, 0.196825, 0.196312, 0.185635, 0.187635, 0.188899, 0.189015, 0.188925, 0.188637
0.362975, 0.3619, 0.361885, 0.361224, 0.362094, 0.355214, 0.355058, 0.354674, 0.355716, 0.356551, 0.356704, 0.357149, 0.356802, 0.355653, 0.353506, 0.35265, 0.354721, 0.354172, 0.351381, 0.352074, 0.350678, 0.35045, 0.353421, 0.35324, 0.35219, 0.351637, 0.349735, 0.349403, 0.348977, 0.34866, 0.349104, 0.642393, 0.791266, 0.736441, 0.559628, 0.553575, 0.362234, 0.36306, 0.363598, 0.362617, 0.359244, 0.358062, 0.356414, 0.360461, 0.360876, 0.361136, 0.361295, 0.359406, 0.359211, 0.356173, 0.355402, 0.563204, 1.18164, 0.579167, 0.577581, 0.576943, 0.375941, 0.375653, 0.375268, 0.374566, 0.374336, 0.375287, 0.373948, 0.382297, 0.496271, 0.494085, 0.393915, 0.443682, 0.442038, 0.404861, 0.405845, 0.405953, 0.407081, 0.407849, 0.407763, 0.408002, 0.406809, 0.508247, 0.505203, 0.472363, 0.447205, 0.486506, 0.4813, 0.516968, 0.517942, 0.555258, 0.592889, 0.742594, 0.717839, 0.762638, 0.922288, 0.920477, 0.978059, 0.977501, 0.843765, 0.913165, 0.865227, 0.863844, 0.87436, 0.877151, 0.863266, 0.862835, 0.888817, 0.912421, 0.89206, 0.93579, 0.923254, 0.985626, 0.98268, 0.990986, 0.997698, 0.988756, 1.03956, 1.01038, 1.01526, 1.01518, 1.00672, 1.12787, 1.11582, 1.11596, 1.06759, 1.03214, 1.03246, 1.12025, 1.07052, 1.04856, 1.0635, 1.06373, 1.06842, 1.09733, 1.09804, 1.12302, 1.10157, 1.10877, 1.12598, 1.16481, 1.24314, 1.13676, 1.13869, 1.15009, 1.16672, 1.17063, 1.26389, 1.24415, 1.26709, 1.23583, 1.29899, 1.30878, 1.31363, 1.2485, 1.26441, 1.33087, 1.34357, 1.3594, 1.36063, 1.41284, 1.37891, 1.37877, 1.48944, 1.42149, 1.49965, 1.39666, 1.40482, 1.37731, 1.35878, 1.35719, 1.29516, 1.30691, 1.25452, 1.26759, 1.26682, 1.21897, 1.2184, 1.2191, 1.44425, 1.36378, 1.3019, 1.21861, 1.21603, 1.12852, 1.12854, 1.13008, 1.13268, 1.14599, 1.1258, 1.12961, 1.13469, 1.1023, 1.1016, 1.10894, 1.06347, 1.02242, 1.05077, 1.05072, 1.05309, 1.00153, 0.988807, 0.933409, 0.99447, 0.956167, 0.939874, 0.942962, 0.925563, 0.931816, 0.932574, 0.815724, 0.816274, 0.832868, 0.809089, 0.792781, 0.838956, 0.723565, 0.646268, 0.676612, 0.6082, 0.541393, 0.542463, 0.531211, 0.544399, 0.480353, 0.468521, 0.424944, 0.416901, 0.397721, 0.420783, 0.42785, 0.427784, 0.407158, 0.342333, 0.360274, 0.388687, 0.389233, 0.389038, 0.313421, 0.321593, 0.322293, 0.344566, 0.345198, 0.299691, 0.29112, 0.311261, 0.313989, 0.314073, 0.313193, 0.312699, 0.313442, 0.312707, 0.508438, 0.419189, 0.493514, 0.59729, 0.677351, 0.445763, 0.248859, 0.2493, 0.249701, 0.249341, 0.346233, 0.347847, 0.420686, 0.411015, 0.263448, 0.26638, 0.267453, 0.267599, 0.268266, 0.268055, 0.317657, 0.258437, 0.259721, 0.704584, 0.704261, 0.254785, 0.255393, 0.256261, 0.256566, 0.256011, 0.256993, 0.258061, 0.599715, 0.328661, 0.254854, 0.253673, 0.392409, 0.463481, 0.473159, 0.64568, 0.320157, 0.54572, 0.553818, 0.564587, 0.187434, 0.186007, 0.189609, 0.188084, 0.188905, 0.188695, 0.188868, 0.188717, 0.308534
0.36155, 0.361616, 0.361905, 0.362056, 0.361306, 0.359464, 0.358164, 0.356102, 0.354967, 0.356763, 0.357183, 0.355503, 0.355596, 0.355384, 0.353442, 0.35191, 0.351857, 0.352189, 0.35434, 0.352074, 0.351675, 0.35038, 0.350382, 0.354593, 0.352847, 0.35199, 0.355147, 0.353164, 0.352093, 0.350267, 0.349961, 0.349581, 0.632191, 0.681099, 0.589763, 0.364133, 0.364012, 0.364718, 0.363151, 0.363403, 0.36286, 0.358015, 0.357265, 0.356789, 0.360657, 0.359173, 0.358311, 0.358298, 0.355498, 0.356057, 0.356532, 1.00757, 0.826824, 0.928336, 0.576788, 0.57388, 0.374035, 0.374663, 0.374453, 0.373381, 0.379056, 0.378775, 0.378417, 0.377466, 0.49649, 0.387336, 0.387746, 0.44239, 0.393413, 0.503587, 0.50349, 0.409993, 0.408338, 0.410373, 0.411375, 0.411305, 0.503504, 0.503838, 0.474086, 0.474616, 0.473877, 0.44366, 0.442129, 0.506443, 0.525258, 0.558232, 0.581519, 0.712291, 0.711446, 0.719676, 0.753065, 0.791001, 0.866235, 0.845361, 0.843976, 0.9191, 0.830185, 0.860778, 0.939485, 0.908938, 0.908865, 0.895957, 0.925848, 0.925628, 0.924703, 0.830548, 0.93659, 0.892585, 0.987602, 0.99393, 0.992297, 1.02054, 1.02555, 1.00783, 1.01395, 1.01775, 1.01724, 1.0733, 1.17704, 1.143, 1.03918, 1.09234, 1.02695, 1.0277, 1.05721, 1.05677, 1.06401, 1.096, 1.10196, 1.12276, 1.12446, 1.12759, 1.17766, 1.11253, 1.10463, 1.10439, 1.10159, 1.10131, 1.12459, 1.13439, 1.18193, 1.26313, 1.17873, 1.17854, 1.17866, 1.25428, 1.24781, 1.24897, 1.19748, 1.25813, 1.20844, 1.30953, 1.30755, 1.32924, 1.62009, 1.37226, 1.37781, 1.42383, 1.42917, 1.44729, 1.3889, 1.38472, 1.373, 1.3711, 1.34088, 1.29882, 1.26304, 1.24431, 1.36036, 1.23326, 1.23089, 1.26502, 1.21377, 1.29929, 1.27236, 1.29527, 1.28133, 1.25983, 1.22614, 1.24376, 1.15349, 1.15977, 1.15138, 1.17239, 1.16051, 1.15783, 1.11917, 1.06774, 1.06882, 1.06913, 1.01661, 1.01134, 0.938586, 0.983553, 0.985346, 0.931918, 0.934003, 0.894806, 0.901549, 0.912195, 0.879896, 0.866293, 0.865976, 0.931747, 0.832116, 0.829434, 0.799187, 0.801677, 0.78308, 0.748734, 0.78361, 0.732009, 0.672762, 0.615645, 0.556398, 0.558942, 0.538086, 0.535338, 0.462394, 0.465418, 0.486871, 0.484803, 0.439213, 0.41858, 0.39768, 0.431213, 0.431767, 0.406937, 0.323899, 0.324041, 0.388823, 0.388929, 0.38899, 0.361993, 0.362838, 0.41773, 0.398943, 0.307579, 0.307519, 0.321219, 0.333814, 0.318877, 0.320487, 0.3168, 0.314548, 0.313977, 0.310987, 0.309951, 0.309515, 0.407816, 0.279203, 0.431777, 0.431198, 0.254856, 0.248056, 0.241502, 0.241141, 0.240948, 0.240666, 0.230917, 0.230766, 0.406108, 0.372673, 0.37302, 0.266015, 0.255137, 0.257208, 0.258943, 0.260514, 0.260596, 0.26119, 0.258702, 0.253538, 0.25619, 0.256086, 0.256489, 0.256628, 0.255733, 0.359549, 0.381189, 0.380464, 0.442297, 0.437486, 0.391316, 0.408246, 0.410154, 0.41039, 0.210093, 0.209738, 0.195076, 0.196297, 0.196633, 0.18985, 0.190753, 0.190559, 0.191763, 0.188772, 0.188482, 0.188108, 0.203654
0.36215, 0.36258, 0.362565, 0.361937, 0.361644, 0.361458, 0.359037, 0.358235, 0.357936, 0.358025, 0.357827, 0.358212, 0.357242, 0.357242, 0.35956, 0.360031, 0.359873, 0.358552, 0.357696, 0.355941, 0.354186, 0.351038, 0.349384, 0.348885, 0.34769, 0.347572, 0.353366, 0.351006, 0.352176, 0.354003, 0.353609, 0.352101, 0.631383, 0.628337, 0.363356, 0.364216, 0.36361, 0.362822, 0.362368, 0.361737, 0.361519, 0.361532, 0.357251, 0.356122, 0.355052, 0.356726, 0.358623, 0.358158, 0.356431, 0.35641, 0.355426, 0.355481, 0.953506, 0.936159, 0.930574, 0.368776, 0.368692, 0.369809, 0.376334, 0.37733, 0.379196, 0.379003, 0.379018, 0.379126, 0.378645, 0.389023, 0.38874, 0.38951, 0.389566, 0.504447, 0.504371, 0.507786, 0.78468, 0.42194, 0.423247, 0.422987, 0.421892, 0.420781, 0.41943, 0.485857, 0.48407, 0.433985, 0.495866, 0.494484, 0.504521, 0.517694, 0.540621, 0.663722, 0.725882, 0.707233, 0.767295, 0.766985, 0.859432, 0.796151, 0.81413, 0.852186, 0.904553, 0.894361, 0.893895, 0.902529, 0.888061, 0.889082, 0.929153, 0.809903, 0.806242, 0.806501, 0.839766, 0.891769, 0.896141, 0.918676, 0.923097, 0.921979, 1.0174, 0.991009, 1.05661, 1.0325, 1.02603, 1.02644, 1.03563, 1.03849, 1.08134, 1.06358, 1.04209, 1.0436, 1.06323, 1.06047, 1.12334, 1.11573, 1.14997, 1.14884, 1.17136, 1.13045, 1.1085, 1.11621, 1.10469, 1.10254, 1.10042, 1.14962, 1.13982, 1.13378, 1.2813, 1.18492, 1.27099, 1.27163, 1.17728, 1.31096, 1.25522, 1.18493, 1.19465, 1.20913, 1.2479, 1.22958, 1.25103, 1.33953, 1.34102, 1.29842, 1.31927, 1.3676, 1.36205, 1.36792, 1.38112, 1.3465, 1.43548, 1.40719, 1.34555, 1.27127, 1.26716, 1.26795, 1.19889, 1.20126, 1.18692, 1.19294, 1.21319, 1.22165, 1.23024, 1.27373, 1.34511, 1.24074, 1.16973, 1.17147, 1.17036, 1.18754, 1.24729, 1.19291, 1.18744, 1.11911, 1.03194, 1.03192, 1.015, 0.98692, 0.933237, 0.919932, 0.931391, 0.916875, 0.925085, 0.912296, 0.940421, 0.870681, 0.860562, 0.854396, 0.916183, 0.864362, 0.866444, 0.86605, 0.835789, 0.85564, 0.799341, 0.808043, 0.734755, 0.734179, 0.73409, 0.666266, 0.622132, 0.61444, 0.554647, 0.503975, 0.483734, 0.492551, 0.4636, 0.522167, 0.45455, 0.439347, 0.445853, 0.413541, 0.382738, 0.388669, 0.372468, 0.335054, 0.328144, 0.328099, 0.318556, 0.323388, 0.308066, 0.316915, 0.318033, 0.368068, 0.368813, 0.370519, 0.372465, 0.367184, 0.330754, 0.317748, 0.31905, 0.318406, 0.319978, 0.312288, 0.31247, 0.31051, 0.310532, 0.422016, 0.679886, 0.414987, 0.249174, 0.249865, 0.250287, 0.249064, 0.240582, 0.241098, 0.234311, 0.234154, 0.244237, 0.244306, 0.245148, 0.252511, 0.255276, 0.254592, 0.255387, 0.257464, 0.259132, 0.258492, 0.25699, 0.245296, 0.24648, 0.251002, 0.25362, 0.254049, 0.434851, 0.251242, 0.318629, 0.310044, 0.378908, 0.438029, 0.37908, 0.37835, 0.213422, 0.214135, 0.214665, 0.214987, 0.212323, 0.196811, 0.198228, 0.198557, 0.198864, 0.189759, 0.191605, 0.190617, 0.188172, 0.187022, 0.185889, 0.206921
0.331816, 0.361607, 0.362963, 0.363371, 0.363318, 0.362318, 0.361026, 0.359897, 0.357767, 0.357005, 0.356084, 0.358266, 0.357692, 0.357544, 0.358708, 0.358792, 0.359346, 0.358217, 0.356159, 0.354996, 0.350091, 0.350003, 0.350213, 0.348772, 0.350766, 0.349227, 0.349662, 0.35133, 0.351125, 0.353513, 0.353524, 0.352995, 0.38023, 0.378101, 0.648684, 0.365893, 0.366466, 0.366726, 0.365764, 0.364098, 0.362114, 0.361687, 0.359022, 0.356808, 0.35632, 0.355261, 0.358015, 0.359017, 0.357001, 0.356792, 0.356309, 0.52447, 0.742357, 0.936229, 0.369948, 0.370738, 0.370555, 0.368506, 0.368415, 0.912132, 0.378102, 0.378859, 0.377995, 0.377624, 0.438542, 0.389091, 0.392861, 0.389619, 0.390353, 0.390143, 0.390334, 0.391579, 0.524517, 0.422321, 0.423598, 0.424231, 0.422896, 0.421614, 0.420716, 0.420333, 0.420948, 0.470058, 0.469749, 0.472113, 0.472729, 0.556215, 0.584249, 0.632631, 0.668159, 0.673227, 0.700819, 0.797305, 0.74373, 0.881534, 0.864503, 0.912144, 0.919505, 0.856684, 0.826945, 0.796675, 0.805256, 0.863225, 0.804825, 0.797892, 0.795709, 0.816024, 0.94298, 0.984965, 0.900489, 0.901226, 0.908271, 0.935407, 0.975039, 1.02293, 1.02059, 1.04079, 1.04375, 1.05249, 1.05266, 1.05002, 1.05287, 1.04185, 1.04227, 1.07414, 1.13939, 1.0862, 1.18695, 1.15625, 1.10174, 1.14132, 1.14119, 1.15612, 1.09726, 1.09469, 1.0994, 1.09796, 1.11891, 1.11871, 1.18804, 1.14235, 1.22566, 1.22215, 1.17506, 1.24968, 1.17532, 1.1757, 1.19219, 1.22906, 1.25279, 1.25385, 1.29731, 1.26727, 1.2602, 1.37195, 1.31309, 1.27574, 1.2808, 1.47131, 1.38858, 1.35347, 1.37543, 1.38261, 1.30345, 1.35591, 1.26023, 1.26081, 1.2241, 1.30599, 1.26349, 1.18291, 1.18738, 1.19475, 1.19131, 1.19813, 1.25036, 1.20948, 1.21689, 1.14385, 1.11177, 1.10267, 1.17751, 1.15954, 1.1762, 1.17292, 1.17469, 1.02978, 1.00239, 0.995428, 0.990787, 0.996874, 0.950293, 0.961221, 0.959389, 0.960324, 0.966175, 0.920694, 0.863837, 0.920411, 0.847705, 0.868774, 0.828996, 0.79733, 0.782996, 0.774647, 0.788405, 0.800034, 0.778112, 0.77732, 0.771731, 0.694521, 0.694492, 0.616104, 0.555439, 0.556135, 0.51217, 0.473454, 0.517909, 0.482453, 0.466072, 0.435297, 0.436482, 0.406216, 0.404086, 0.42249, 0.441651, 0.356132, 0.400399, 0.395061, 0.39428, 0.319287, 0.358092, 0.306629, 0.290157, 0.314971, 0.365047, 0.293439, 0.293518, 0.424439, 0.318832, 0.301589, 0.306888, 0.346192, 0.317992, 0.317721, 0.31387, 0.312823, 0.310847, 0.310638, 0.310754, 0.605579, 0.403558, 0.332164, 0.420629, 0.249346, 0.248925, 0.238287, 0.239269, 0.238334, 0.237559, 0.247095, 0.245444, 0.247305, 0.247514, 0.247282, 0.247013, 0.253657, 0.254517, 0.255454, 0.254783, 0.244861, 0.245893, 0.24608, 0.245928, 0.245751, 0.320078, 0.69015, 0.668792, 0.434497, 0.431976, 0.453856, 0.378825, 0.203879, 0.204438, 0.204995, 0.212884, 0.214588, 0.214408, 0.211467, 0.210623, 0.209983, 0.198629, 0.199339, 0.199232, 0.198695, 0.184952, 0.186794, 0.18584, 0.185585, 0.20296, 0.205255
0.332883, 0.336279, 0.362924, 0.363353, 0.364133, 0.364174, 0.363444, 0.362035, 0.359858, 0.357953, 0.357524, 0.35897, 0.357721, 0.357389, 0.35559, 0.354669, 0.353998, 0.356183, 0.373319, 0.346234, 0.346025, 0.34589, 0.348963, 0.350052, 0.348886, 0.347573, 0.35086, 0.351106, 0.351265, 0.355121, 0.355103, 0.354658, 0.35533, 0.684324, 0.364282, 0.36518, 0.365432, 0.364731, 0.365198, 0.364442, 0.362226, 0.3596, 0.35638, 0.355807, 0.355771, 0.354325, 0.353505, 0.360268, 0.359737, 0.358444, 0.357921, 0.357047, 0.527782, 0.368816, 0.368713, 0.368534, 0.370857, 0.36973, 0.367134, 0.375919, 0.376789, 0.376808, 0.377329, 0.379292, 0.379779, 0.379503, 0.379515, 0.389715, 0.389881, 0.390496, 0.39012, 0.3922, 0.390792, 0.393405, 0.420665, 0.420807, 0.42137, 0.421948, 0.420943, 0.538035, 0.500541, 0.469653, 0.46998, 0.469212, 0.468739, 0.611777, 0.601122, 0.628725, 0.646237, 0.743358, 0.698907, 0.711968, 0.732445, 0.736113, 0.736107, 0.758578, 0.784468, 0.786461, 0.78044, 0.776648, 0.771952, 0.909012, 0.791946, 0.791745, 0.804986, 0.854036, 0.885027, 0.875081, 0.912471, 0.902902, 0.92111, 0.964297, 0.964769, 0.953269, 0.989347, 0.993387, 0.99224, 0.992926, 1.0559, 1.0583, 1.05999, 1.03913, 1.07147, 1.07281, 1.16072, 1.16016, 1.16407, 1.14608, 1.13134, 1.1002, 1.12159, 1.08622, 1.10996, 1.15385, 1.11655, 1.13654, 1.13884, 1.12046, 1.13658, 1.25002, 1.14733, 1.14773, 1.1793, 1.19807, 1.17169, 1.17391, 1.22577, 1.22883, 1.21919, 1.28524, 1.2531, 1.25259, 1.28685, 1.29078, 1.27422, 1.27406, 1.29857, 1.2863, 1.30938, 1.31049, 1.43246, 1.26147, 1.2624, 1.45005, 1.26076, 1.24353, 1.24784, 1.21649, 1.21897, 1.22981, 1.17709, 1.17547, 1.16294, 1.20107, 1.16302, 1.16379, 1.16491, 1.16337, 1.16663, 1.1306, 1.07563, 1.07956, 1.06494, 1.03659, 1.11647, 1.01469, 0.983221, 0.983252, 0.983873, 1.03017, 1.01179, 0.992334, 0.992708, 0.93969, 0.940512, 0.880598, 0.881446, 0.891986, 0.900777, 0.795739, 0.744194, 0.763432, 0.762246, 0.767376, 0.754937, 0.78908, 0.70412, 0.740862, 0.74271, 0.625115, 0.546176, 0.555721, 0.525619, 0.555237, 0.547053, 0.437487, 0.491025, 0.461961, 0.430792, 0.425077, 0.410877, 0.397923, 0.397188, 0.437762, 0.426046, 0.442654, 0.347785, 0.347078, 0.400568, 0.456765, 0.457639, 0.427922, 0.45656, 0.441437, 0.239554, 0.240231, 0.239821, 0.411034, 0.411259, 0.32032, 0.279534, 0.327908, 0.313478, 0.313577, 0.311296, 0.310371, 0.308638, 0.312187, 0.848944, 0.319278, 0.858031, 0.643402, 0.472373, 0.46727, 0.320491, 0.326726, 0.584443, 0.265091, 0.579252, 0.242103, 0.244058, 0.246139, 0.247653, 0.247659, 0.247595, 0.247121, 0.24673, 0.249263, 0.249029, 0.246616, 0.247442, 0.24712, 0.246529, 0.245364, 0.244105, 0.325141, 0.429458, 0.668881, 0.346687, 0.201498, 0.203341, 0.204053, 0.205166, 0.205541, 0.205477, 0.212913, 0.212487, 0.212927, 0.211084, 0.211157, 0.210088, 0.209526, 0.185576, 0.185547, 0.186113, 0.186667, 0.186799, 0.201314, 0.20182, 0.20123
0.333636, 0.332602, 0.333939, 0.362633, 0.363534, 0.363571, 0.363444, 0.362018, 0.359869, 0.357788, 0.356208, 0.357482, 0.355724, 0.355892, 0.354519, 0.354829, 0.351149, 0.353929, 0.352688, 0.352316, 0.344947, 0.34525, 0.353732, 0.35224, 0.348585, 0.346655, 0.34761, 0.348112, 0.347787, 0.347292, 0.34689, 0.351804, 0.353659, 0.361659, 0.363467, 0.364319, 0.36566, 0.36585, 0.365731, 0.364227, 0.363029, 0.361927, 0.361788, 0.358504, 0.354042, 0.354132, 0.353514, 0.35853, 0.358523, 0.358072, 0.361461, 0.361766, 0.365616, 0.369851, 0.370325, 0.369005, 0.368533, 0.367703, 0.367477, 0.366664, 0.366912, 0.376536, 0.376769, 0.378973, 0.381364, 0.381591, 0.380419, 0.381226, 0.386363, 0.389057, 0.389417, 0.388138, 0.392991, 0.522443, 0.52727, 0.525648, 0.47604, 0.428411, 0.493696, 0.493983, 0.480172, 0.480865, 0.479666, 0.469943, 0.470255, 0.52741, 0.529066, 0.542934, 0.598424, 0.652062, 0.669542, 0.661985, 0.663668, 0.680571, 0.708888, 0.744693, 0.722991, 0.734959, 0.738063, 0.817748, 0.817647, 0.794753, 0.807555, 0.808593, 0.864998, 0.883568, 1.03041, 0.992156, 0.97531, 0.997087, 0.947244, 0.942253, 0.986986, 1.03327, 0.966874, 1.01339, 0.987608, 1.06176, 1.06218, 1.06563, 1.02508, 1.05969, 1.0683, 1.13888, 1.25538, 1.05361, 1.25362, 1.26131, 1.09808, 1.07578, 1.07651, 1.06992, 1.07093, 1.07901, 1.09752, 1.12507, 1.17814, 1.17711, 1.20581, 1.16783, 1.15241, 1.15109, 1.14758, 1.15183, 1.1749, 1.18238, 1.21364, 1.2812, 1.27949, 1.28357, 1.27079, 1.27002, 1.2824, 1.26719, 1.27859, 1.28199, 1.28557, 1.28358, 1.27448, 1.2656, 1.26554, 1.41686, 1.41665, 1.45155, 1.3162, 1.25463, 1.30575, 1.25718, 1.34369, 1.24828, 1.20457, 1.19579, 1.18449, 1.18239, 1.18417, 1.18886, 1.18681, 1.20516, 1.13647, 1.14168, 1.09449, 1.07547, 1.08127, 1.04671, 0.997552, 0.984645, 0.978193, 0.980889, 0.990079, 0.991298, 0.992172, 0.979109, 0.980146, 0.90604, 0.906271, 0.954122, 0.953757, 0.860864, 0.802717, 0.804073, 0.739385, 0.745631, 0.734198, 0.73417, 0.759321, 0.693245, 0.616734, 0.621801, 0.578615, 0.610613, 0.608455, 0.528827, 0.505977, 0.46338, 0.442344, 0.442491, 0.444837, 0.432784, 0.433161, 0.42583, 0.382711, 0.392683, 0.383666, 0.363472, 0.381163, 0.343092, 0.341628, 0.347894, 0.348032, 0.266309, 0.266992, 0.431529, 0.26864, 0.265925, 0.240638, 0.240835, 0.240558, 0.304872, 0.280901, 0.28046, 0.326643, 0.31087, 0.306962, 0.307287, 0.31309, 0.308939, 0.309946, 0.308695, 0.311807, 0.311174, 0.310364, 0.308818, 0.317052, 0.316871, 0.322994, 0.323224, 0.321142, 0.285609, 0.293825, 0.258769, 0.247769, 0.249224, 0.24794, 0.247032, 0.246188, 0.245672, 0.247448, 0.248872, 0.249498, 0.247879, 0.247607, 0.246191, 0.244486, 0.338363, 0.330563, 0.331649, 0.335432, 0.197805, 0.201136, 0.20086, 0.201133, 0.20546, 0.205501, 0.205971, 0.205795, 0.211915, 0.212993, 0.213701, 0.21317, 0.211527, 0.210373, 0.207954, 0.207361, 0.187255, 0.187421, 0.18717, 0.199874, 0.200809, 0.201132, 0.203703
0.324276, 0.571716, 0.576808, 0.57617, 0.362406, 0.36278, 0.363041, 0.361885, 0.361151, 0.358078, 0.355867, 0.354967, 0.35475, 0.352805, 0.352246, 0.352546, 0.349764, 0.354445, 0.352831, 0.351957, 0.354014, 0.354014, 0.35384, 0.353228, 0.349486, 0.348704, 0.347661, 0.347138, 0.348552, 0.347382, 0.34875, 0.355188, 0.354775, 0.354433, 0.353677, 0.356589, 0.355128, 0.35401, 0.362572, 0.362417, 0.361949, 0.361755, 0.360429, 0.35301, 0.353107, 0.351601, 0.351492, 0.35101, 0.350691, 0.354659, 0.354079, 0.355724, 0.363588, 0.364338, 0.364854, 0.365821, 0.364679, 0.364499, 0.363682, 0.363686, 0.366502, 0.372287, 0.371906, 0.373341, 0.379723, 0.380816, 0.382543, 0.383001, 0.382651, 0.382522, 0.384159, 0.38363, 0.393249, 0.392883, 0.757366, 0.82219, 0.483466, 0.493588, 0.546993, 0.546557, 0.480772, 0.481142, 0.479842, 0.479871, 0.487447, 0.553271, 0.553593, 0.577059, 0.570507, 0.649989, 0.646794, 0.631506, 0.648935, 0.648932, 0.653512, 0.714404, 0.714792, 0.733286, 0.733211, 0.774376, 0.773836, 0.825629, 1.0006, 1.10289, 1.03597, 1.03344, 1.03163, 1.02542, 1.02578, 0.939766, 0.936614, 0.94656, 0.951931, 0.952614, 1.00996, 1.06016, 0.995051, 1.07325, 1.07374, 0.998069, 1.07561, 1.02573, 1.04041, 1.02897, 1.03032, 1.06495, 1.05085, 1.13021, 1.08486, 1.08144, 1.08126, 1.07036, 1.07197, 1.12279, 1.10831, 1.202, 1.19231, 1.18583, 1.44661, 1.20007, 1.23007, 1.15385, 1.22569, 1.13898, 1.16073, 1.14684, 1.17146, 1.27743, 1.24626, 1.24952, 1.25147, 1.26134, 1.26268, 1.33214, 1.33113, 1.2723, 1.27279, 1.27073, 1.26885, 1.26981, 1.26623, 1.26624, 1.35479, 1.30636, 1.27952, 1.21574, 1.21543, 1.2283, 1.2574, 1.21319, 1.2438, 1.18591, 1.20808, 1.17351, 1.17353, 1.20653, 1.2621, 1.17362, 1.1065, 1.17327, 1.12059, 1.07378, 1.07155, 1.08142, 1.02323, 1.06163, 1.05997, 1.00486, 1.0039, 0.997946, 1.04742, 0.985569, 0.915779, 0.914669, 0.93332, 0.89797, 0.898322, 0.854131, 0.766585, 0.766438, 0.766462, 0.767643, 0.719523, 0.693923, 0.682515, 0.680008, 0.679373, 0.603376, 0.580152, 0.559592, 0.534132, 0.48747, 0.486558, 0.465366, 0.445535, 0.44237, 0.422535, 0.422249, 0.413703, 0.402596, 0.387938, 0.351386, 0.352125, 0.358205, 0.354867, 0.376615, 0.367378, 0.3475, 0.34742, 0.26891, 0.26855, 0.268446, 0.224291, 0.225815, 0.225524, 0.224358, 0.227733, 0.304517, 0.305098, 0.284146, 0.324857, 0.324804, 0.30739, 0.307118, 0.309257, 0.308916, 0.309706, 0.309545, 0.309357, 0.308399, 0.308722, 0.308835, 0.306746, 0.306579, 0.476541, 0.883573, 0.884282, 0.883575, 0.25953, 0.25925, 0.258294, 0.245587, 0.245709, 0.245907, 0.227502, 0.227723, 0.245254, 0.246882, 0.247561, 0.247553, 0.248648, 0.247101, 0.294325, 0.231899, 0.337849, 0.670677, 0.199369, 0.199839, 0.200286, 0.20156, 0.201166, 0.202353, 0.203891, 0.217338, 0.220238, 0.220366, 0.220336, 0.213602, 0.213515, 0.21364, 0.213271, 0.208773, 0.332678, 0.330472, 0.36631, 0.289543, 0.25004, 0.197279, 0.203243, 0.200639
0.335465, 0.33763, 0.337282, 0.577896, 0.361996, 0.363032, 0.363423, 0.363065, 0.361774, 0.360235, 0.356228, 0.355373, 0.354319, 0.35351, 0.35518, 0.354626, 0.351937, 0.349191, 0.35467, 0.354592, 0.354907, 0.35345, 0.351821, 0.348919, 0.347461, 0.346653, 0.346332, 0.345302, 0.345375, 0.346456, 0.348173, 0.35502, 0.354689, 0.351348, 0.350464, 0.349601, 0.355785, 0.355081, 0.354381, 0.353999, 0.359005, 0.35969, 0.358913, 0.358699, 0.358197, 0.357167, 0.358838, 0.359152, 0.349716, 0.35833, 0.358153, 0.356326, 0.356362, 0.361402, 0.363477, 0.363447, 0.363281, 0.364277, 0.364365, 0.364144, 0.364026, 0.368484, 0.368711, 0.368566, 0.367039, 0.372547, 0.374415, 0.381553, 0.386085, 0.386031, 0.385917, 0.386042, 0.384607, 0.399116, 0.391125, 0.44155, 0.63099, 0.455567, 0.483808, 0.550392, 0.500057, 0.672268, 0.532061, 0.4968, 0.490381, 0.529842, 0.559039, 0.55933, 0.559857, 0.621606, 0.621152, 0.621922, 0.632536, 0.63127, 0.713874, 0.714275, 0.691979, 0.73232, 0.769141, 0.768493, 0.852913, 0.933339, 0.918061, 0.918066, 0.927215, 0.910888, 1.03203, 0.909957, 0.913582, 0.926964, 0.926741, 0.943664, 0.992667, 0.991954, 1.00456, 0.998472, 0.998155, 1.04936, 1.05133, 1.06071, 1.03546, 1.03284, 1.03356, 1.03436, 1.03405, 1.02141, 1.01482, 1.03082, 1.02617, 1.05824, 1.0517, 1.09422, 1.09167, 1.10608, 1.1292, 1.12755, 1.16425, 1.16237, 1.1921, 1.25352, 1.19141, 1.2102, 1.22318, 1.14894, 1.12219, 1.12153, 1.12213, 1.16314, 1.16416, 1.24387, 1.28877, 1.38795, 1.33911, 1.26363, 1.26376, 1.27437, 1.2711, 1.27184, 1.27375, 1.27254, 1.27248, 1.26551, 1.26517, 1.32669, 1.3378, 1.27969, 1.27192, 1.23788, 1.2198, 1.21001, 1.19885, 1.1528, 1.23564, 1.23435, 1.35701, 1.35714, 1.37423, 1.14761, 1.12202, 1.09281, 1.08069, 1.08469, 1.08439, 1.0839, 1.07762, 1.05922, 1.06217, 1.00951, 1.00701, 0.963105, 0.957754, 0.901056, 0.900961, 0.899256, 0.901337, 0.900982, 0.901237, 0.769296, 0.769874, 0.771246, 0.769753, 0.725346, 0.704971, 0.672721, 0.670591, 0.633162, 0.639164, 0.656034, 0.641723, 0.549112, 0.526215, 0.531961, 0.504841, 0.503342, 0.442438, 0.440709, 0.443299, 0.422598, 0.4077, 0.405924, 0.40766, 0.38585, 0.355153, 0.34747, 0.343838, 0.356497, 0.323326, 0.348358, 0.289577, 0.28679, 0.283222, 0.275114, 0.376106, 0.232516, 0.232416, 0.232501, 0.23355, 0.304444, 0.303637, 0.331203, 0.30665, 0.291584, 0.292533, 0.31092, 0.321877, 0.322495, 0.306724, 0.306778, 0.307732, 0.307035, 0.307014, 0.30687, 0.307235, 0.306475, 0.30631, 0.411302, 0.883457, 0.732255, 0.728843, 0.401188, 0.401097, 0.489546, 0.531672, 0.227259, 0.228491, 0.229713, 0.229508, 0.240556, 0.237605, 0.237552, 0.237235, 0.237329, 0.236078, 0.20413, 0.202329, 0.201684, 0.203123, 0.202902, 0.202847, 0.199372, 0.202627, 0.200842, 0.230599, 0.220686, 0.220917, 0.221782, 0.22202, 0.221887, 0.225574, 0.211366, 0.406374, 0.22672, 0.333837, 0.333893, 0.333971, 0.291782, 0.291565, 0.202555, 0.203084, 0.204375
0.329453, 0.339675, 0.339235, 0.342117, 0.362543, 0.362585, 0.363268, 0.363268, 0.361819, 0.359927, 0.35527, 0.354943, 0.354096, 0.353316, 0.353352, 0.352601, 0.351471, 0.34858, 0.346888, 0.355149, 0.356044, 0.3557, 0.349423, 0.347844, 0.346951, 0.347155, 0.345998, 0.34526, 0.345977, 0.347749, 0.345394, 0.349017, 0.350497, 0.349719, 0.350612, 0.351278, 0.35063, 0.350546, 0.355909, 0.353982, 0.354799, 0.358728, 0.358958, 0.358863, 0.359694, 0.360744, 0.360597, 0.360592, 0.360223, 0.360288, 0.360205, 0.360566, 0.359159, 0.358145, 0.362244, 0.363026, 0.362705, 0.361666, 0.361613, 0.360843, 0.364817, 0.363629, 0.365846, 0.365264, 0.372179, 0.375686, 0.373805, 0.373249, 0.385612, 0.385997, 0.385229, 0.383705, 0.381574, 0.380997, 0.38832, 0.387683, 0.455837, 0.453223, 0.603084, 0.537473, 0.555493, 0.555185, 0.643569, 0.670236, 0.497837, 0.552138, 0.698541, 0.624756, 0.584471, 0.621138, 0.666463, 0.618568, 0.619518, 0.619043, 0.61912, 0.649034, 0.649486, 0.715473, 0.735293, 0.797303, 0.95707, 0.959646, 0.927997, 0.908801, 0.950306, 0.910696, 1.02736, 1.02624, 1.01741, 1.01438, 0.890657, 0.980945, 0.977364, 0.939911, 0.983762, 1.0228, 1.02266, 1.00104, 1.03202, 0.9836, 0.983933, 0.998092, 0.998035, 1.01547, 1.0268, 1.02871, 1.01103, 1.01107, 1.03242, 1.15169, 1.07062, 1.19519, 1.07493, 1.10114, 1.16613, 1.13582, 1.13645, 1.17063, 1.16062, 1.18001, 1.21312, 1.17792, 1.18836, 1.13817, 1.13782, 1.1204, 1.1201, 1.15394, 1.16413, 1.1814, 1.18175, 1.20707, 1.38168, 1.35477, 1.41798, 1.42736, 1.38519, 1.37427, 1.27581, 1.27571, 1.2752, 1.37812, 1.37018, 1.39483, 1.34517, 1.28162, 1.28748, 1.17245, 1.19905, 1.17474, 1.15732, 1.33877, 1.14574, 1.13923, 1.14151, 1.24114, 1.2436, 1.24862, 1.13598, 1.13451, 1.12047, 1.13184, 1.05614, 1.05577, 1.05584, 1.06403, 1.01645, 1.01593, 0.969894, 1.02642, 1.02649, 0.951363, 0.951657, 0.897475, 0.897751, 0.88951, 0.857773, 0.861366, 0.861968, 0.753477, 0.782143, 0.734968, 0.734518, 0.690735, 0.690895, 0.642387, 0.604322, 0.61972, 0.539077, 0.541839, 0.511575, 0.502038, 0.498264, 0.504078, 0.482898, 0.479151, 0.433696, 0.40519, 0.40011, 0.406859, 0.400229, 0.383765, 0.345479, 0.34534, 0.308799, 0.313894, 0.30401, 0.303477, 0.294558, 0.282651, 0.28234, 0.258872, 0.259021, 0.233171, 0.233755, 0.233328, 0.234339, 0.23478, 0.332717, 0.332581, 0.335292, 0.294244, 0.293329, 0.293458, 0.303677, 0.302851, 0.314696, 0.326087, 0.303556, 0.30447, 0.305414, 0.306449, 0.306666, 0.306345, 0.306855, 0.306675, 0.304795, 0.729609, 0.729188, 0.728812, 0.00418295, 0.310547, 0.31099, 0.226975, 0.227418, 0.227742, 0.238474, 0.238598, 0.240634, 0.238447, 0.237886, 0.237853, 0.333718, 0.20699, 0.207911, 0.207309, 0.202708, 0.205249, 0.207737, 0.20849, 0.208207, 0.207706, 0.70109, 0.70099, 0.373142, 0.222317, 0.226753, 0.227647, 0.229471, 0.229949, 0.229628, 0.230085, 0.230336, 0.23033, 0.230391, 0.230272, 0.227351, 0.200914, 0.202761, 0.203937
0.330618, 0.329943, 0.337977, 0.337849, 0.338103, 0.514315, 0.362594, 0.363623, 0.364032, 0.362829, 0.361245, 0.358794, 0.353133, 0.352665, 0.35115, 0.351763, 0.34908, 0.348847, 0.349003, 0.350833, 0.350235, 0.351387, 0.350841, 0.348063, 0.348136, 0.347159, 0.345152, 0.343905, 0.343326, 0.34263, 0.342916, 0.341954, 0.342017, 0.351363, 0.351255, 0.351437, 0.35188, 0.35158, 0.350292, 0.350107, 0.351742, 0.35587, 0.355364, 0.361508, 0.363624, 0.362697, 0.36088, 0.360278, 0.358973, 0.358621, 0.356034, 0.361421, 0.360322, 0.35835, 0.357379, 0.35583, 0.3616, 0.361497, 0.361419, 0.361644, 0.363162, 0.362781, 0.362725, 0.361858, 0.36303, 0.361631, 0.360977, 0.522839, 0.37626, 0.381108, 0.380645, 0.380279, 0.379365, 0.379732, 0.379099, 0.46339, 0.38639, 0.384301, 0.607682, 0.545042, 0.554667, 0.554486, 0.572737, 0.506346, 0.506134, 0.584211, 0.700361, 0.69996, 0.698479, 0.730546, 0.661296, 0.619871, 0.61762, 0.624551, 0.545211, 0.624957, 0.643734, 0.6231, 0.65703, 0.80399, 0.803725, 0.966864, 0.985653, 0.991379, 0.809891, 0.793732, 0.77693, 0.776494, 0.860295, 0.859183, 0.809315, 0.88379, 0.936323, 1.00505, 0.926977, 0.97364, 0.971589, 0.970417, 1.02593, 0.991959, 1.0144, 0.978687, 0.978076, 0.977667, 1.01559, 1.01768, 1.00751, 1.014, 1.03553, 1.02932, 1.02934, 1.03138, 1.09532, 1.09602, 1.45697, 1.14659, 1.16333, 1.12728, 1.16144, 1.16211, 1.17285, 1.14016, 1.14031, 1.14133, 1.11205, 1.12045, 1.1411, 1.14826, 1.18389, 1.18203, 1.1812, 1.23002, 1.38981, 1.46409, 1.46882, 1.25654, 1.30799, 1.35167, 1.34654, 1.35339, 1.35679, 1.54294, 1.47631, 1.46642, 1.36054, 1.31745, 1.19916, 1.23225, 1.20877, 1.19193, 1.12581, 1.11615, 1.11628, 1.11755, 1.1189, 1.11732, 1.09848, 1.09805, 1.08539, 1.09442, 1.07088, 1.05058, 0.990263, 0.988483, 0.987773, 0.986326, 0.94675, 0.927424, 0.906879, 0.896121, 0.8953, 0.878211, 0.877227, 0.878274, 0.877713, 0.887388, 0.857369, 0.866091, 0.867211, 0.754965, 0.756781, 0.765963, 0.694807, 0.648912, 0.691468, 0.690207, 0.698346, 0.546064, 0.515838, 0.50408, 0.503914, 0.476811, 0.477299, 0.466452, 0.455773, 0.467522, 0.425684, 0.406959, 0.40648, 0.401199, 0.401332, 0.34221, 0.341796, 0.339281, 0.339349, 0.339727, 0.302941, 0.303773, 0.284938, 0.28565, 0.270495, 0.27082, 0.260315, 0.259672, 0.27014, 0.23316, 0.238069, 0.289182, 0.333134, 0.337957, 0.278006, 0.291318, 0.292276, 0.30638, 0.307064, 0.306649, 0.315635, 0.303906, 0.304927, 0.304536, 0.305304, 0.30635, 0.306593, 0.30711, 0.305939, 0.305527, 0.299031, 0.298005, 0.425241, 0.425154, 0.276229, 0.583999, 0.311235, 0.256873, 0.256067, 0.352991, 0.334386, 0.237513, 0.239382, 0.237504, 0.237303, 0.336288, 0.33614, 0.334352, 0.334784, 0.20736, 0.212546, 0.213264, 0.213162, 0.208689, 0.208474, 0.00466861, 0.469857, 0.331176, 0.225199, 0.260517, 0.227913, 0.229764, 0.231425, 0.232006, 0.232291, 0.231599, 0.232197, 0.232681, 0.232592, 0.231818, 0.230725, 0.225193, 0.22362, 0.203841
0.33038, 0.328812, 0.337736, 0.343553, 0.342, 0.342245, 0.512692, 0.364415, 0.365347, 0.365154, 0.364562, 0.365054, 0.562703, 0.352162, 0.352051, 0.35115, 0.350116, 0.349488, 0.347992, 0.346638, 0.34951, 0.350072, 0.348626, 0.348269, 0.347411, 0.345887, 0.344681, 0.34537, 0.345802, 0.344266, 0.344759, 0.343338, 0.341366, 0.341271, 0.340942, 0.350442, 0.350212, 0.351557, 0.349093, 0.350731, 0.349283, 0.351278, 0.34968, 0.34953, 0.364757, 0.364671, 0.364872, 0.363484, 0.360829, 0.361496, 0.361355, 0.361504, 0.3597, 0.358227, 0.357452, 0.356424, 0.356663, 0.355052, 0.355743, 0.355879, 0.357928, 0.357787, 0.357863, 0.359217, 0.363044, 0.361963, 0.372695, 0.37192, 0.371947, 0.371227, 0.379647, 0.380937, 0.380417, 0.379244, 0.378284, 0.37752, 0.37649, 0.379138, 0.60489, 0.792332, 0.449141, 0.604112, 0.552297, 0.504522, 0.513893, 0.512559, 0.51218, 0.514066, 0.511848, 0.49156, 0.490654, 0.542904, 0.521772, 0.534518, 0.51133, 0.532588, 0.559978, 0.580109, 0.60719, 0.608976, 0.815594, 0.874599, 0.797304, 0.816211, 0.785461, 0.763029, 0.762343, 0.773685, 0.894017, 0.899733, 0.834338, 0.936875, 1.01574, 0.918354, 0.924115, 0.971288, 0.949851, 0.951326, 0.951189, 1.01869, 0.993556, 0.993719, 0.992512, 0.983543, 0.994076, 1.07304, 1.00438, 1.00466, 1.01213, 1.02599, 1.01437, 1.04531, 1.06193, 1.13929, 1.10104, 1.14767, 1.14936, 1.0704, 1.11695, 1.11863, 1.08503, 1.20441, 1.08964, 1.0893, 1.12869, 1.12667, 1.1259, 1.13859, 1.17775, 1.18715, 1.17782, 1.21401, 1.21564, 1.37155, 1.2847, 1.30914, 1.32118, 1.33328, 1.33424, 1.29532, 1.42349, 1.42378, 1.44815, 1.4587, 1.46533, 1.47495, 1.24429, 1.2765, 1.27816, 1.13658, 1.11434, 1.15259, 1.11564, 1.12679, 1.11357, 1.10872, 1.09861, 1.08732, 1.08291, 1.08355, 1.0106, 0.979044, 0.978241, 1.02931, 0.957293, 0.958507, 0.991808, 0.911756, 0.911479, 0.863511, 0.846778, 0.849882, 0.824853, 0.825271, 0.823212, 0.882729, 0.884977, 0.902314, 0.850986, 0.831302, 0.775965, 0.753137, 0.753139, 0.644921, 0.623062, 0.632428, 0.55743, 0.559367, 0.539338, 0.498558, 0.531403, 0.467668, 0.46951, 0.451294, 0.472239, 0.45181, 0.43573, 0.470148, 0.469684, 0.455172, 0.343357, 0.345025, 0.34495, 0.337342, 0.337941, 0.302126, 0.302743, 0.301144, 0.290107, 0.286673, 0.281109, 0.284156, 0.285285, 0.287055, 0.286322, 0.290361, 0.290265, 0.289729, 0.289755, 0.331565, 0.331248, 0.37668, 0.309294, 0.307073, 0.308586, 0.308704, 0.314373, 0.313751, 0.314361, 0.306595, 0.307039, 0.307695, 0.307357, 0.306413, 0.305475, 0.306647, 0.300048, 0.299405, 0.298766, 0.521678, 0.426485, 0.429031, 0.51421, 0.45336, 0.370682, 0.560655, 0.237809, 0.239078, 0.239203, 0.239663, 0.228419, 0.22835, 0.217793, 0.218216, 0.21837, 0.218153, 0.214731, 0.215314, 0.215821, 0.215395, 0.214938, 0.294204, 0.604291, 0.356365, 0.310874, 0.227545, 0.228043, 0.328323, 0.2311, 0.231768, 0.231228, 0.231341, 0.231246, 0.231541, 0.231686, 0.294223, 0.203866, 0.20444, 0.204702, 0.209043
0.330876, 0.331422, 0.555143, 0.346768, 0.347485, 0.347699, 0.554003, 0.365556, 0.367187, 0.367576, 0.367126, 0.366607, 0.683947, 0.650056, 0.649582, 0.348723, 0.348172, 0.347017, 0.347564, 0.345304, 0.344776, 0.342723, 0.347159, 0.348217, 0.348152, 0.346657, 0.347535, 0.346621, 0.346176, 0.344726, 0.343407, 0.343044, 0.34473, 0.343086, 0.343349, 0.348534, 0.350592, 0.350605, 0.350624, 0.348708, 0.346966, 0.349637, 0.348968, 0.350197, 0.353109, 0.441444, 0.367876, 0.36727, 0.366102, 0.363997, 0.361518, 0.360779, 0.359168, 0.357558, 0.356766, 0.35515, 0.355105, 0.353502, 0.354619, 0.355008, 0.354685, 0.352856, 0.356933, 0.356115, 0.359212, 0.558152, 0.373454, 0.373562, 0.373655, 0.37242, 0.372934, 0.37264, 0.378441, 0.378677, 0.377745, 0.377624, 0.483218, 0.390014, 0.801147, 0.797945, 0.445619, 0.445973, 0.542928, 0.511815, 0.511656, 0.511283, 0.506744, 0.507054, 0.491521, 0.490326, 0.491801, 0.492929, 0.490148, 0.488067, 0.487768, 0.528172, 0.531843, 0.573715, 0.592763, 0.614005, 0.632268, 0.771055, 0.777583, 0.752858, 0.824891, 0.824457, 0.73903, 0.786311, 0.785264, 0.805265, 0.995509, 0.99581, 0.912698, 0.911311, 0.924147, 0.931164, 0.933493, 0.950022, 0.963993, 0.973429, 1.00189, 0.99477, 0.995727, 0.968405, 0.966168, 0.96217, 1.05616, 1.05735, 1.04363, 1.04311, 1.04951, 1.04821, 1.09795, 1.09512, 1.03977, 1.07212, 1.04361, 1.0371, 1.03554, 1.06652, 1.08831, 1.11644, 1.12816, 1.14703, 1.10233, 1.12011, 1.12924, 1.13036, 1.22544, 1.28537, 1.34647, 1.25736, 1.33606, 1.27115, 1.3023, 1.23731, 1.26904, 1.31258, 1.289, 1.285, 1.28424, 1.29292, 1.2789, 1.44859, 1.4366, 1.26132, 1.25674, 1.36143, 1.15206, 1.11234, 1.09994, 1.10252, 1.07593, 1.07717, 1.18196, 1.16648, 1.16415, 1.23796, 1.07701, 1.01088, 1.01252, 1.00896, 0.961968, 0.959248, 1.01927, 1.01971, 0.897401, 0.880517, 0.880635, 0.849566, 0.837677, 0.815784, 0.827137, 0.793539, 0.789137, 0.83685, 0.835589, 0.949149, 0.801979, 0.831626, 0.831735, 0.63215, 0.633285, 0.633709, 0.6082, 0.57898, 0.558701, 0.540801, 0.540913, 0.528601, 0.485786, 0.497822, 0.486236, 0.467343, 0.439354, 0.437898, 0.421436, 0.453794, 0.457122, 0.353662, 0.328135, 0.328202, 0.398986, 0.349882, 0.35981, 0.305163, 0.368689, 0.36847, 0.288813, 0.287761, 0.287311, 0.286807, 0.28752, 0.287031, 0.29253, 0.291898, 0.292589, 0.33218, 0.303867, 0.331858, 0.310462, 0.31169, 0.311943, 0.316975, 0.315977, 0.319056, 0.320196, 0.320633, 0.320863, 0.305056, 0.305625, 0.3049, 0.305195, 0.305544, 0.305615, 0.30201, 0.299402, 0.299777, 0.299505, 0.299058, 0.432643, 0.432953, 0.258185, 0.258433, 0.258397, 0.372311, 0.237972, 0.238838, 0.332081, 0.239547, 0.234327, 0.217512, 0.219859, 0.220137, 0.219463, 0.21843, 0.216888, 0.214521, 0.215393, 0.215213, 0.214111, 0.00430504, 0.605242, 0.606841, 0.702692, 0.703211, 0.704299, 0.691102, 0.390988, 0.228772, 0.228173, 0.22811, 0.414597, 0.414333, 0.296942, 0.204721, 0.206371, 0.199722, 0.201727, 0.203487
0.328569, 0.327116, 0.34912, 0.348661, 0.348852, 0.348237, 0.34767, 0.347071, 0.608275, 0.369026, 0.3695, 0.368719, 0.368863, 0.563093, 0.647775, 0.349681, 0.346992, 0.345109, 0.344212, 0.343772, 0.343478, 0.342823, 0.347806, 0.348146, 0.348538, 0.348001, 0.345882, 0.346231, 0.345132, 0.345524, 0.345487, 0.344336, 0.344012, 0.343248, 0.341735, 0.345197, 0.345126, 0.347751, 0.346508, 0.347252, 0.347691, 0.349273, 0.347084, 0.345924, 0.34938, 0.348513, 0.366909, 0.365794, 0.365402, 0.773104, 0.772811, 0.358114, 0.356549, 0.356904, 0.356643, 0.356119, 0.355044, 0.354608, 0.353929, 0.35506, 0.35491, 0.355588, 0.355328, 0.35576, 0.35881, 0.362302, 0.372266, 0.37294, 0.373537, 0.374434, 0.374223, 0.375255, 0.374389, 0.374288, 0.459337, 0.505545, 0.493909, 0.500693, 0.388257, 0.389259, 0.387679, 0.801924, 0.591827, 0.549093, 0.548129, 0.507613, 0.506865, 0.500874, 0.500106, 0.494197, 0.492618, 0.48111, 0.480032, 0.493496, 0.492817, 0.493159, 0.526125, 0.541991, 0.546324, 0.569184, 0.584672, 0.619068, 0.659828, 0.652117, 0.790031, 0.720899, 0.721728, 0.732578, 0.801296, 0.791005, 0.883144, 0.882816, 0.877791, 0.920216, 0.942195, 0.939391, 0.959496, 0.959593, 0.95071, 0.95735, 0.967121, 0.992943, 0.976952, 0.977207, 0.971937, 0.978043, 0.991272, 0.992906, 0.974364, 0.967141, 0.970852, 1.01293, 1.08762, 1.08836, 1.06887, 1.02603, 1.02311, 1.02348, 1.00167, 1.01289, 1.01803, 1.04107, 1.07531, 1.07843, 1.10568, 1.13197, 1.11991, 1.21866, 1.32511, 1.35441, 1.3436, 1.25112, 1.26044, 1.27068, 1.21346, 1.24702, 1.24208, 1.2155, 1.25776, 1.25856, 1.30634, 1.19068, 1.18843, 1.23553, 1.2344, 1.20878, 1.24632, 1.28342, 1.09724, 1.13305, 1.13341, 1.09074, 1.06457, 1.05209, 1.05098, 1.04649, 1.17299, 1.27884, 1.02963, 1.01787, 1.03157, 0.956841, 0.939763, 0.916057, 1.05345, 1.05377, 0.896737, 0.882885, 0.856468, 0.850787, 0.807488, 0.830899, 0.83519, 0.835231, 0.820386, 0.726999, 0.945853, 0.947289, 0.788754, 0.803469, 0.80096, 0.631897, 0.632164, 0.65286, 0.626602, 0.618287, 0.618582, 0.54023, 0.540566, 0.463904, 0.481901, 0.466141, 0.432104, 0.450353, 0.453692, 0.413277, 0.411496, 0.45014, 0.435625, 0.350366, 0.33299, 0.399886, 0.399391, 0.354643, 0.311612, 0.35957, 0.300208, 0.299888, 0.289075, 0.287688, 0.288855, 0.28815, 0.298626, 0.302488, 0.302974, 0.293519, 0.291401, 0.311335, 0.311017, 0.313228, 0.308583, 0.311897, 0.31253, 0.315707, 0.316119, 0.308911, 0.309119, 0.321402, 0.322951, 0.321379, 0.304049, 0.306083, 0.307017, 0.307678, 0.301921, 0.300725, 0.300754, 0.299816, 0.296443, 0.294584, 0.297598, 0.258286, 0.259382, 0.259832, 0.259742, 0.375581, 0.250398, 0.250712, 0.542688, 0.2304, 0.230258, 0.230177, 0.229634, 0.214904, 0.214237, 0.214378, 0.213368, 0.213223, 0.211086, 0.203164, 0.203877, 0.202766, 0.190294, 0.190405, 0.20761, 0.70284, 0.702475, 0.452456, 0.388199, 0.331515, 0.332156, 0.685112, 0.425158, 0.403205, 0.401717, 0.204611, 0.205171, 0.206313, 0.203789, 0.203444
0.327255, 0.325588, 0.325076, 0.348098, 0.349664, 0.348643, 0.347942, 0.348037, 0.449293, 0.370553, 0.371227, 0.371341, 0.370333, 0.369131, 0.417596, 0.351503, 0.350251, 0.34971, 0.347241, 0.345609, 0.34498, 0.34504, 0.344458, 0.343114, 0.344604, 0.34803, 0.346852, 0.344973, 0.34376, 0.344909, 0.344357, 0.34157, 0.338955, 0.34343, 0.338393, 0.338008, 0.34466, 0.345134, 0.344737, 0.344077, 0.344165, 0.334081, 0.333841, 0.333031, 0.358101, 0.358314, 0.358391, 0.358361, 0.358599, 0.358529, 0.358488, 0.357372, 0.356806, 0.35719, 0.357219, 0.357366, 0.355057, 0.354735, 0.35495, 0.354731, 0.355438, 0.354534, 0.353743, 0.351869, 0.351448, 0.35944, 0.480607, 0.367611, 0.372871, 0.372646, 0.37347, 0.373099, 0.373987, 0.372393, 0.506751, 0.459145, 0.507943, 0.509987, 0.500768, 0.386629, 0.514739, 0.384116, 0.535138, 0.446848, 0.446268, 0.545014, 0.488478, 0.493705, 0.570283, 0.494145, 0.584131, 0.589402, 0.498249, 0.497125, 0.496573, 0.496326, 0.506878, 0.510776, 0.528434, 0.593646, 0.575282, 0.62524, 0.607228, 0.629041, 0.662282, 0.659769, 0.768479, 0.766399, 0.759567, 0.770075, 0.919051, 0.960625, 0.9336, 0.895989, 0.980508, 0.946457, 0.923752, 0.975128, 0.977738, 0.962561, 0.939103, 0.99023, 1.0165, 1.02827, 0.997765, 0.939017, 0.939148, 0.940208, 1.00287, 0.997966, 1.04251, 0.979776, 0.980858, 1.05078, 1.00232, 0.990417, 1.02877, 1.02872, 1.036, 1.02253, 1.0263, 1.04288, 1.06177, 1.0921, 1.18978, 1.18775, 1.18819, 1.14403, 1.20721, 1.17749, 1.18691, 1.18319, 1.17527, 1.27177, 1.19215, 1.16722, 1.17931, 1.21297, 1.1294, 1.14746, 1.14183, 1.15562, 1.17521, 1.16248, 1.16229, 1.19011, 1.13693, 1.13562, 1.10635, 1.09806, 1.07263, 1.07321, 0.996596, 0.998899, 0.956053, 0.964268, 0.96379, 1.04765, 0.936288, 0.943393, 0.919871, 0.921775, 0.889833, 0.904697, 1.09074, 1.08932, 0.921745, 0.920961, 0.882688, 0.840529, 0.836487, 0.835169, 0.790708, 0.772378, 0.716008, 0.704634, 0.732543, 0.691265, 0.689459, 0.694747, 0.720297, 0.77353, 0.654237, 0.654641, 0.605717, 0.545875, 0.535513, 0.441327, 0.441778, 0.469631, 0.464408, 0.432883, 0.430819, 0.405289, 0.473515, 0.413107, 0.426837, 0.427898, 0.343085, 0.358301, 0.314404, 0.306751, 0.306323, 0.307095, 0.302074, 0.301535, 0.302929, 0.30329, 0.301694, 0.282513, 0.290008, 0.289024, 0.30538, 0.305852, 0.309761, 0.30493, 0.349931, 0.312448, 0.313773, 0.31113, 0.311229, 0.310416, 0.311993, 0.313112, 0.311169, 0.310424, 0.310388, 0.310091, 0.310533, 0.311125, 0.309732, 0.307855, 0.307695, 0.306581, 0.301307, 0.300147, 0.300257, 0.297892, 0.297218, 0.340822, 0.28357, 0.282585, 0.341747, 0.273865, 0.500185, 0.501621, 0.375405, 0.347903, 0.229707, 0.240615, 0.228689, 0.22964, 0.230485, 0.216995, 0.216535, 0.216089, 0.213736, 0.213104, 0.201207, 0.200976, 0.198985, 0.195764, 0.191622, 0.192844, 0.192566, 0.701262, 0.326569, 0.325027, 0.374084, 0.203098, 0.332487, 0.334105, 0.33516, 0.241606, 0.403667, 0.200669, 0.201631, 0.203149, 0.203913, 0.203723
0.326323, 0.325278, 0.324695, 0.344767, 0.421692, 0.567105, 0.350983, 0.349405, 0.49504, 0.596039, 0.372913, 0.373398, 0.373192, 0.372205, 0.405665, 0.9716, 0.363874, 0.351577, 0.346578, 0.34704, 0.345463, 0.345092, 0.34592, 0.344361, 0.344258, 0.343458, 0.343405, 0.343736, 0.345553, 0.344747, 0.344394, 0.342777, 0.342122, 0.34209, 0.339429, 0.339794, 0.340724, 0.338773, 0.337795, 0.336401, 0.333402, 0.33621, 0.335529, 0.33554, 0.562765, 0.359083, 0.359644, 0.358941, 0.358182, 0.358301, 0.357882, 0.357349, 0.358243, 0.357046, 0.357556, 0.357564, 0.527372, 0.527593, 0.527696, 0.355031, 0.354722, 0.354076, 0.351794, 0.351511, 0.351551, 0.351309, 0.358554, 0.357242, 0.368915, 0.371718, 0.372128, 0.373277, 0.372315, 0.371, 0.371586, 0.509596, 0.508256, 0.459644, 0.513799, 1.04084, 0.377668, 0.377941, 0.377818, 0.526635, 0.535131, 0.529763, 0.54682, 0.497095, 0.496584, 0.562663, 0.527382, 0.527186, 0.498733, 0.499253, 0.497232, 0.504476, 0.504104, 0.504729, 0.504384, 0.539296, 0.572517, 0.601337, 0.604153, 0.621893, 0.636011, 0.631789, 0.631141, 0.713234, 0.70378, 0.731557, 0.923117, 0.923143, 0.845033, 0.859872, 0.878183, 0.949995, 0.929889, 0.93321, 0.942079, 0.941301, 0.93297, 0.935637, 0.926512, 0.92973, 0.988228, 0.926708, 0.946088, 0.913477, 0.953434, 0.980961, 0.939174, 1.06043, 1.02991, 1.01884, 1.07723, 0.997104, 0.983786, 0.983881, 0.983497, 0.984734, 1.00875, 1.02396, 1.11693, 1.23242, 1.18941, 1.18953, 1.1189, 1.11524, 1.21177, 1.25531, 1.25577, 1.11538, 1.11482, 1.12609, 1.17434, 1.19611, 1.16653, 1.15228, 1.14359, 1.14288, 1.17598, 1.11866, 1.11882, 1.17544, 1.17683, 1.17497, 1.14804, 1.13559, 1.18627, 1.0866, 1.0232, 1.01609, 0.984042, 1.03173, 0.925182, 0.946867, 0.891293, 0.890808, 1.00015, 0.900116, 0.937809, 0.939709, 0.928364, 0.884358, 0.924655, 0.905274, 0.940164, 0.937183, 0.91028, 0.901496, 0.867696, 0.763896, 0.753188, 0.753753, 0.681646, 0.684196, 0.676355, 0.695073, 0.632433, 0.712169, 0.678474, 0.678062, 0.649567, 0.638135, 0.63981, 0.642006, 0.488128, 0.462061, 0.441652, 0.412628, 0.411444, 0.460653, 0.421604, 0.438324, 0.439275, 0.343369, 0.392675, 0.392662, 0.321262, 0.334959, 0.335292, 0.315533, 0.307859, 0.307626, 0.3043, 0.300623, 0.296419, 0.290131, 0.287161, 0.288826, 0.284274, 0.289213, 0.285956, 0.311001, 0.330965, 0.332245, 0.318543, 0.319627, 0.323919, 0.313889, 0.311445, 0.310675, 0.313018, 0.313564, 0.313629, 0.313267, 0.311082, 0.312359, 0.311592, 0.310499, 0.310937, 0.308021, 0.306782, 0.306943, 0.303321, 0.300547, 0.30014, 0.299335, 0.298368, 0.294741, 0.349498, 0.285082, 0.341368, 0.339123, 0.420184, 0.420592, 0.348286, 0.373058, 0.229057, 0.229379, 0.229355, 0.229405, 0.229244, 0.211607, 0.345041, 0.343644, 0.342856, 0.176451, 0.176091, 0.177502, 0.177087, 0.182743, 0.190821, 0.182373, 0.182073, 0.181968, 0.182573, 0.372978, 0.177064, 0.321993, 0.200882, 0.200975, 0.199585, 0.415369, 0.344797, 0.196127, 0.196759, 0.202693, 0.202927, 0.203639
0.326226, 0.325327, 0.324602, 0.325969, 0.387571, 0.386799, 0.431085, 0.35091, 0.349435, 0.348701, 0.507121, 0.506629, 0.386798, 0.690798, 0.373643, 0.373336, 0.976631, 0.365323, 0.348112, 0.348719, 0.348441, 0.34765, 0.346687, 0.343218, 0.343473, 0.343666, 0.344649, 0.34633, 0.346919, 0.342332, 0.344587, 0.342471, 0.341103, 0.340022, 0.338355, 0.340404, 0.339749, 0.340408, 0.339136, 0.338218, 0.338041, 0.339735, 0.340288, 0.340172, 0.342585, 0.36048, 0.36163, 0.361852, 0.360828, 0.359329, 0.358007, 0.358207, 0.357435, 0.358657, 0.359977, 0.36048, 0.360325, 0.360749, 0.360875, 0.361752, 0.356567, 0.356329, 0.356021, 0.35477, 0.35137, 0.348938, 0.348862, 0.355342, 0.357191, 0.370897, 0.524769, 0.372064, 0.371919, 0.370956, 0.369555, 0.370562, 0.508083, 0.508325, 0.804238, 0.511118, 0.379447, 0.378624, 0.376873, 0.376709, 0.562555, 0.5472, 0.545609, 0.499618, 0.499513, 0.498686, 0.531079, 0.532092, 0.532652, 0.527435, 0.523045, 0.503878, 0.503967, 0.502209, 0.505287, 0.529106, 0.540092, 0.555833, 0.57924, 0.590821, 0.678369, 0.67792, 0.666677, 0.668437, 0.668522, 0.71176, 0.729608, 0.770233, 0.794546, 0.802019, 0.927091, 0.934572, 0.922328, 0.925066, 0.919774, 0.926016, 0.940888, 0.943141, 0.901672, 0.9568, 0.956091, 0.998069, 0.907406, 0.949472, 0.904632, 0.933778, 0.932309, 0.928951, 1.00191, 1.037, 0.999171, 0.989465, 0.985298, 0.973604, 0.966391, 0.966623, 1.03392, 1.03621, 1.04299, 1.23397, 1.20021, 1.206, 1.10162, 1.08868, 1.09896, 1.05356, 1.1357, 1.12961, 1.12781, 1.12191, 1.12045, 1.1209, 1.17161, 1.14266, 1.11305, 1.14203, 1.17624, 1.1462, 1.1494, 1.1008, 1.12067, 1.12294, 1.12401, 1.11396, 1.06098, 1.08723, 1.0153, 0.991394, 0.99154, 1.0183, 0.925176, 0.904687, 0.884541, 0.880394, 0.875467, 0.873521, 0.807407, 0.826129, 0.792322, 0.794295, 0.771419, 0.904976, 0.815351, 0.873556, 0.869348, 0.831164, 0.825734, 0.816916, 0.750277, 0.701209, 0.66616, 0.669579, 0.656393, 0.690103, 0.690049, 0.60483, 0.607587, 0.60729, 0.583879, 0.505532, 0.476956, 0.552608, 0.498237, 0.449939, 0.452488, 0.454818, 0.454319, 0.414009, 0.39002, 0.441888, 0.36773, 0.344302, 0.339016, 0.335964, 0.321535, 0.322577, 0.324503, 0.320349, 0.321755, 0.320446, 0.301571, 0.303721, 0.294404, 0.291615, 0.290265, 0.289388, 0.288888, 0.282645, 0.33199, 0.329744, 0.3283, 0.329142, 0.319661, 0.319493, 0.323754, 0.32363, 0.314792, 0.314987, 0.317628, 0.315996, 0.316656, 0.317805, 0.316581, 0.317928, 0.317259, 0.318966, 0.319174, 0.306453, 0.306907, 0.30071, 0.301586, 0.299843, 0.295434, 0.294212, 0.294658, 0.293271, 0.292685, 0.319246, 0.330749, 0.31916, 0.51559, 0.306756, 0.365406, 0.366432, 0.366174, 0.313745, 0.317775, 0.311895, 0.3318, 0.327155, 0.342232, 0.342301, 0.342962, 0.177268, 0.17949, 0.178801, 0.179109, 0.179197, 0.180324, 0.183335, 0.182369, 0.179453, 0.179157, 0.179281, 0.179696, 0.179612, 0.180603, 0.179616, 0.17871, 0.179419, 0.196685, 0.196217, 0.197077, 0.180834, 0.180112, 0.179055
0.326655, 0.32551, 0.324478, 0.323315, 0.322728, 0.391166, 0.35116, 0.351565, 0.350588, 0.349374, 0.663558, 0.496861, 0.595172, 0.59134, 0.500089, 0.504146, 0.773081, 0.773549, 0.365086, 0.36278, 0.356034, 0.350271, 0.351855, 0.347788, 0.345525, 0.34694, 0.345561, 0.345414, 0.344385, 0.344696, 0.343595, 0.342915, 0.342511, 0.340974, 0.341521, 0.341452, 0.34088, 0.339907, 0.339351, 0.338589, 0.338768, 0.338609, 0.339091, 0.341034, 0.341639, 0.34364, 0.35983, 0.35947, 0.358643, 0.358196, 0.358086, 0.357263, 0.356736, 0.362064, 0.362654, 0.36341, 0.362283, 0.362534, 0.362016, 0.362114, 0.361327, 0.356379, 0.354538, 0.353047, 0.352156, 0.352331, 0.355603, 0.355775, 0.358301, 0.358217, 0.359776, 0.362886, 0.362898, 0.368925, 0.366688, 0.366368, 0.510924, 0.510338, 0.511178, 0.508963, 0.511303, 0.51182, 0.37531, 0.37672, 0.532112, 0.484638, 0.539323, 0.538647, 0.600487, 0.600749, 0.53455, 0.533758, 0.53217, 0.531021, 0.524323, 0.499918, 0.499043, 0.496659, 0.496568, 0.507362, 0.560046, 0.522862, 0.578101, 0.680374, 0.679875, 0.67659, 0.67525, 0.669324, 0.670317, 0.669141, 0.718622, 0.702059, 0.702042, 0.701292, 0.867621, 0.856633, 0.832485, 0.826271, 0.884729, 0.884566, 0.883989, 0.882148, 0.870431, 0.857236, 0.881384, 0.874224, 0.96516, 0.905293, 0.887147, 0.887763, 1.01373, 0.989137, 0.942927, 0.954169, 0.99224, 0.99193, 0.982779, 0.971053, 0.977669, 0.979374, 1.01994, 0.992315, 1.0578, 1.17498, 1.10588, 1.06329, 1.05319, 1.05062, 1.02021, 1.01806, 1.04341, 1.04104, 1.04157, 1.20275, 1.1353, 1.1407, 1.21513, 1.18896, 1.12301, 1.07468, 1.0473, 1.03712, 1.08569, 1.03134, 1.03964, 1.03602, 1.03176, 1.06082, 1.03196, 1.05928, 0.988046, 0.998258, 0.910967, 0.891663, 0.900714, 0.8929, 0.892809, 0.908414, 0.85138, 0.873399, 0.80003, 0.754082, 0.750147, 0.750644, 0.735661, 0.742778, 0.742398, 0.713014, 0.927759, 0.929136, 0.84725, 0.788014, 0.738748, 0.689508, 0.691553, 0.691421, 0.643887, 0.617081, 0.638967, 0.631778, 0.641463, 0.598457, 0.569283, 0.508242, 0.484366, 0.432385, 0.431783, 0.432427, 0.401467, 0.399654, 0.398334, 0.439763, 0.342922, 0.340484, 0.338953, 0.338749, 0.338411, 0.322445, 0.32181, 0.322046, 0.309519, 0.313348, 0.314394, 0.314668, 0.306007, 0.304667, 0.303289, 0.427772, 0.428914, 0.284778, 0.37325, 0.321755, 0.320913, 0.330294, 0.33719, 0.338847, 0.339269, 0.326536, 0.326897, 0.318585, 0.319485, 0.31924, 0.319126, 0.320627, 0.319658, 0.318951, 0.317607, 0.318291, 0.3193, 0.3193, 0.318772, 0.30572, 0.296852, 0.297238, 0.297641, 0.298224, 0.293769, 0.294317, 0.29282, 0.291108, 0.289918, 0.328214, 0.331347, 0.327537, 0.30671, 0.511965, 0.36611, 0.311275, 0.363047, 0.365898, 0.312521, 0.329034, 0.331352, 0.228613, 0.223618, 0.221687, 0.175387, 0.177207, 0.177833, 0.178508, 0.178485, 0.178937, 0.179246, 0.180141, 0.180328, 0.178883, 0.178659, 0.179466, 0.179564, 0.18016, 0.180561, 0.180873, 0.180552, 0.181465, 0.182124, 0.182231, 0.183603, 0.183428, 0.182016, 0.179734
0.32554, 0.325579, 0.324759, 0.323955, 0.32376, 0.328144, 0.605441, 0.558203, 0.340194, 0.3561, 0.354977, 0.586844, 0.58955, 0.589952, 0.591162, 0.590893, 0.379062, 0.776578, 0.776689, 0.368995, 0.367486, 0.734863, 0.360886, 0.360048, 0.354642, 0.352628, 0.351829, 0.347215, 0.348598, 0.348332, 0.345666, 0.345862, 0.345497, 0.345367, 0.345074, 0.344357, 0.344568, 0.341643, 0.340942, 0.339012, 0.338717, 0.33878, 0.341391, 0.341854, 0.341902, 0.344419, 0.344506, 0.344099, 0.823778, 0.355302, 0.355189, 0.391308, 0.38972, 0.627956, 0.363302, 0.363084, 0.367331, 0.366925, 0.365797, 0.36465, 0.353873, 0.354053, 0.35271, 0.352349, 0.344973, 0.344751, 0.353422, 0.3596, 0.360201, 0.360611, 0.362103, 0.36111, 0.363844, 0.368334, 0.369153, 0.368437, 0.367782, 0.368963, 0.369597, 0.514356, 0.515032, 0.372597, 0.372618, 0.372676, 0.373016, 0.373784, 0.503005, 0.538566, 0.607684, 0.607497, 0.532151, 0.522716, 0.524688, 0.524843, 0.5175, 0.521045, 0.469183, 0.52214, 0.539229, 0.536361, 0.534621, 0.54629, 0.552439, 0.576154, 0.5677, 0.683015, 0.629225, 0.642716, 0.641964, 0.641632, 0.649597, 0.653621, 0.692013, 0.677289, 0.691972, 0.726464, 0.748368, 0.837725, 0.810973, 0.838676, 0.838416, 0.847296, 0.817304, 0.819057, 0.869972, 0.858109, 0.860385, 0.869864, 0.893403, 0.895937, 0.950501, 0.908918, 0.976864, 0.950066, 1.01843, 0.996677, 0.99915, 0.952423, 0.952386, 0.959788, 0.992183, 0.974251, 0.974076, 0.992662, 0.992464, 1.01261, 1.01319, 0.999907, 0.99797, 0.994442, 1.05406, 1.08061, 1.0681, 1.05937, 1.16322, 1.19069, 1.15073, 1.15061, 1.06405, 1.0252, 1.01371, 1.01243, 1.05803, 1.06573, 1.02286, 1.01945, 1.01906, 1.01735, 0.995241, 0.982697, 0.9958, 0.962771, 0.942884, 0.938973, 0.89715, 0.861112, 0.88269, 0.858448, 0.893957, 0.787514, 0.752437, 0.789245, 0.789025, 0.690237, 0.700626, 0.692011, 0.643548, 0.643127, 0.625142, 0.64669, 0.81588, 0.817649, 0.725396, 0.743494, 0.707934, 0.770812, 0.583294, 0.608882, 0.622588, 0.535724, 0.512339, 0.54149, 0.490662, 0.445725, 0.444782, 0.448073, 0.435331, 0.369962, 0.370132, 0.507538, 0.50696, 0.333063, 0.335055, 0.335989, 0.334615, 0.334449, 0.335085, 0.329708, 0.308635, 0.314638, 0.308377, 0.314296, 0.313513, 0.315849, 0.307526, 0.307031, 0.306492, 0.321599, 0.35697, 0.356606, 0.355868, 0.327482, 0.328224, 0.327435, 0.340518, 0.340841, 0.340348, 0.319086, 0.319579, 0.320142, 0.319697, 0.320249, 0.319915, 0.319308, 0.314997, 0.314851, 0.313663, 0.313952, 0.314366, 0.313929, 0.31337, 0.297631, 0.296911, 0.299653, 0.299257, 0.299376, 0.295569, 0.294202, 0.290315, 0.289599, 0.285291, 0.284532, 0.312015, 0.307985, 0.30837, 0.30018, 0.299868, 0.30025, 0.259268, 0.258378, 0.318778, 0.317718, 0.327295, 0.241472, 0.445244, 0.517991, 0.479441, 0.23122, 0.290038, 0.176067, 0.331513, 0.329478, 0.328493, 0.329896, 0.330252, 0.28072, 0.278182, 0.279253, 0.278637, 0.27261, 0.179172, 0.179429, 0.179493, 0.180335, 0.181481, 0.181863, 0.182078, 0.181882, 0.178835, 0.178178
0.32457, 0.324584, 0.324297, 0.324881, 0.324564, 0.322365, 0.343618, 0.343348, 0.342836, 0.34151, 0.340922, 0.52445, 0.501882, 0.76009, 0.382298, 0.382548, 0.382418, 0.382128, 0.58253, 0.763467, 0.485639, 0.367567, 0.772322, 0.365684, 0.364355, 0.359418, 0.356781, 0.355922, 0.355387, 0.35123, 0.351374, 0.350611, 0.347942, 0.347159, 0.346032, 0.346321, 0.346074, 0.344405, 0.339883, 0.339149, 0.33791, 0.332216, 0.331119, 0.331119, 0.344477, 0.344854, 0.344493, 0.344204, 0.346206, 0.347999, 0.388013, 0.389748, 0.38757, 0.826171, 0.36668, 0.368135, 0.366718, 0.366547, 0.364951, 0.364734, 0.360403, 0.715369, 0.35337, 0.351776, 0.345064, 0.344985, 0.359887, 0.361508, 0.362523, 0.362028, 0.361682, 0.605751, 0.376123, 0.37149, 0.371691, 0.370208, 0.369945, 0.37111, 0.370212, 0.369744, 0.36978, 0.371756, 0.370612, 0.370399, 0.369907, 0.370833, 0.43824, 0.54399, 0.539054, 0.541627, 0.525001, 0.527125, 0.526723, 0.528502, 0.528952, 0.468496, 0.470602, 0.4689, 0.467927, 0.4656, 0.465362, 0.542214, 0.542709, 0.545155, 0.603597, 0.621714, 0.621093, 0.6453, 0.644129, 0.642453, 0.611817, 0.612673, 0.650475, 0.66998, 0.670739, 0.684297, 0.86039, 0.791423, 0.81477, 0.8216, 0.801743, 0.80216, 0.82454, 0.883401, 0.882829, 0.915685, 0.86024, 0.86055, 0.879036, 0.906669, 0.90537, 0.88739, 0.912769, 0.911337, 0.97431, 0.973444, 0.968221, 0.980407, 0.94365, 0.935405, 0.940241, 0.918722, 0.939657, 0.933554, 0.963325, 0.961374, 0.974437, 0.980901, 0.983243, 0.97928, 0.978839, 1.06043, 1.06036, 1.06477, 1.08151, 1.01332, 0.953451, 1.02663, 1.02859, 1.0252, 0.949446, 0.966556, 0.984045, 0.983944, 1.07182, 1.07442, 0.99197, 0.992452, 0.977672, 0.964814, 0.951774, 0.857944, 0.843024, 0.844271, 0.840279, 0.849765, 0.848916, 0.857582, 0.815194, 0.786291, 0.752829, 0.788772, 0.75561, 0.683106, 0.628068, 0.615206, 0.615339, 0.628098, 0.587637, 0.597745, 0.587819, 0.676707, 0.599021, 0.590926, 0.592067, 0.594444, 0.48728, 0.488225, 0.475332, 0.534063, 0.473235, 0.487931, 0.446656, 0.443859, 0.434853, 0.394132, 0.424439, 0.387682, 0.369878, 0.367923, 0.510011, 0.343017, 0.332608, 0.333408, 0.33495, 0.324628, 0.324506, 0.315069, 0.317453, 0.310503, 0.320399, 0.318024, 0.321012, 0.310647, 0.311039, 0.325502, 0.325072, 0.3154, 0.356666, 0.356761, 0.326244, 0.328185, 0.328632, 0.328008, 0.337955, 0.529457, 0.325153, 0.324049, 0.327729, 0.321997, 0.321903, 0.320744, 0.321115, 0.322308, 0.321847, 0.317539, 0.312512, 0.312632, 0.313587, 0.313608, 0.315429, 0.303074, 0.300866, 0.300737, 0.299701, 0.295381, 0.295356, 0.294726, 0.287359, 0.286952, 0.285852, 0.281757, 0.280599, 0.307614, 0.525633, 0.299247, 0.377108, 0.257162, 0.258444, 0.258492, 0.247376, 0.248126, 0.24778, 0.310291, 0.511112, 0.511126, 0.474119, 0.276834, 0.302993, 0.275958, 0.275191, 0.315107, 0.307744, 0.330178, 0.666504, 0.86868, 0.00481451, 0.400792, 0.00405769, 0.300119, 0.463483, 0.354729, 0.313302, 0.314615, 0.314617, 0.314866, 0.310632, 0.421546, 0.32158, 0.320941
