0.372369, 0.371756, 0.371038, 0.369207, 0.368991, 0.36686, 0.921876, 0.499319, 0.44559, 0.448811, 0.448169, 0.6624, 0.338392, 0.407109, 0.466566, 0.464449, 0.823218, 0.323932, 0.323746, 0.32372, 0.324235, 0.324893, 0.324812, 0.676724, 0.327479, 0.330533, 0.366865, 0.369061, 0.369079, 0.367156, 0.376917, 0.376935, 0.375461, 0.523127, 0.5269, 0.526285, 0.604272, 0.928572, 0.926633, 0.395859, 0.396149, 0.396797, 0.396291, 0.403612, 0.402853, 0.40101, 0.399747, 0.400453, 0.400857, 0.40249, 0.402891, 0.400829, 0.408871, 0.66963, 0.812607, 0.529016, 0.477906, 0.473516, 0.475388, 0.485798, 0.495607, 0.732277, 0.532642, 0.532346, 0.532641, 1.01566, 0.678484, 0.697657, 0.537861, 0.537713, 0.537995, 0.602098, 0.60427, 0.65634, 0.687546, 0.701983, 0.711022, 0.710768, 0.760259, 0.763438, 0.823151, 0.824025, 0.835282, 0.822216, 0.965263, 0.983509, 0.818845, 0.819046, 0.83891, 0.871591, 0.881392, 0.890391, 0.959976, 1.11095, 1.14703, 1.0262, 1.01819, 1.01598, 1.01538, 1.02634, 1.04268, 1.01935, 1.00587, 1.10644, 1.00807, 1.00918, 1.0192, 1.04948, 1.08156, 1.07092, 1.05653, 1.05674, 1.05749, 1.06086, 1.11159, 1.08182, 1.11278, 1.11831, 1.19516, 1.18438, 1.13643, 1.1471, 1.22803, 1.15318, 1.24347, 1.16961, 1.1659, 1.21157, 1.19537, 1.2119, 1.22596, 1.21008, 1.26549, 1.31224, 1.3065, 1.20555, 1.1873, 1.2463, 1.21183, 1.24472, 1.29041, 1.27423, 1.22931, 1.22279, 1.20293, 1.2821, 1.16903, 1.14602, 1.14697, 1.08537, 1.13583, 1.01321, 0.99451, 0.988614, 0.974791, 0.942567, 0.932659, 0.935462, 0.940005, 0.893874, 0.856282, 0.841179, 0.840512, 0.845038, 0.849906, 0.812947, 0.849717, 0.881434, 0.871581, 0.891506, 0.776197, 0.775297, 0.762761, 0.691603, 0.692683, 0.650259, 0.611862, 0.531675, 0.563246, 0.501026, 0.494075, 0.451007, 0.40673, 0.427465, 0.381691, 0.368001, 0.370116, 0.311346, 0.307012, 0.316568, 0.316783, 0.33134, 0.324834, 0.327097, 0.3253, 0.326656, 0.32847, 0.328183, 0.328343, 0.327561, 0.399939, 0.353277, 0.354841, 0.355753, 0.355836, 0.66334, 0.661055, 0.575187, 0.571119, 0.573229, 0.686465, 0.686575, 0.410933, 0.57321, 0.488322, 0.478039, 0.477205, 0.429305, 0.431239, 0.431277, 0.386194, 0.280803, 0.280743, 0.28128, 0.7663, 0.317608, 0.336443, 0.336998, 0.770174, 0.660534, 0.76717, 0.583433, 0.432794, 0.37073, 0.388036, 0.24188, 0.242367, 0.24121, 0.393998, 0.393605
0.370852, 0.373073, 0.372528, 0.372062, 0.370457, 0.3694, 0.360423, 0.650701, 0.582868, 0.348653, 0.34814, 0.659821, 0.739301, 0.409147, 0.746066, 0.459202, 0.457594, 0.328879, 0.326405, 0.325036, 0.325918, 0.326876, 0.326819, 0.795806, 0.535682, 0.330708, 0.36383, 0.367002, 0.36823, 0.365915, 0.368763, 0.373127, 0.354282, 0.522771, 0.523715, 0.52195, 0.520541, 0.382712, 0.382655, 0.395316, 0.394553, 0.39356, 0.395075, 0.401234, 0.401895, 0.400059, 0.399248, 0.401071, 0.401405, 0.402803, 0.401927, 0.410113, 0.410405, 0.410893, 1.05813, 0.445034, 0.773016, 0.787768, 0.482481, 0.590041, 0.960191, 0.509035, 0.790962, 0.790403, 0.814961, 0.611293, 0.639042, 0.67117, 0.569434, 0.568925, 0.721285, 0.646968, 0.648636, 0.862374, 1.06613, 1.04238, 0.752973, 0.762719, 0.815156, 0.812988, 0.832815, 0.856371, 0.854365, 0.900724, 0.921179, 0.981002, 0.964235, 0.976544, 0.929647, 0.937671, 0.961819, 0.96084, 0.964999, 0.993253, 0.997766, 0.998422, 1.00975, 0.987483, 1.00525, 0.987427, 0.984912, 1.0268, 0.987701, 0.986226, 0.986758, 1.0353, 1.0358, 1.05663, 1.05058, 1.07849, 1.08182, 1.08162, 1.0612, 1.07388, 1.09979, 1.09859, 1.10561, 1.10655, 1.10898, 1.15271, 1.20089, 1.20624, 1.16484, 1.20649, 1.17372, 1.19742, 1.1898, 1.32739, 1.26268, 1.25535, 1.22086, 1.24853, 1.27058, 1.32894, 1.33028, 1.29222, 1.29782, 1.26152, 1.27022, 1.28045, 1.20544, 1.19683, 1.19451, 1.19428, 1.22578, 1.20476, 1.17269, 1.1225, 1.13275, 1.07519, 1.18338, 1.12647, 1.0155, 1.01192, 1.00461, 0.994727, 0.988098, 1.12648, 1.12875, 0.908244, 0.912731, 0.838889, 0.838211, 0.836882, 0.838975, 0.863127, 0.86619, 0.880316, 0.840643, 0.841063, 0.782134, 0.780525, 0.779737, 0.745439, 0.642863, 0.64454, 0.611093, 0.560871, 0.570865, 0.536368, 0.47773, 0.443369, 0.455523, 0.455397, 0.404383, 0.387085, 0.370056, 0.311329, 0.312335, 0.311566, 0.379908, 0.379152, 0.325076, 0.3257, 0.327072, 0.327427, 0.327184, 0.325813, 0.326923, 0.327283, 0.327299, 0.470331, 0.753101, 0.673108, 0.753944, 0.667323, 0.670682, 0.67255, 0.576048, 0.573438, 0.404271, 0.470038, 0.470576, 0.572889, 0.545597, 0.549141, 0.431453, 0.55836, 0.244447, 0.24332, 0.24211, 0.382749, 0.766629, 0.766964, 0.536449, 0.31712, 0.773475, 0.770035, 0.770041, 0.769484, 0.767318, 0.410628, 0.43879, 0.411058, 0.366315, 0.37689, 0.432823, 0.42558, 0.434683, 0.227988
0.377428, 0.373842, 0.373312, 0.37208, 0.370585, 0.369571, 0.367944, 0.365556, 0.364866, 0.360289, 0.739896, 0.740172, 0.739147, 0.739493, 0.725485, 0.658977, 0.594028, 0.404574, 0.329148, 0.326709, 0.327086, 0.327675, 0.328334, 0.629957, 0.330429, 0.538686, 0.53794, 0.373952, 0.373294, 0.371241, 0.372214, 0.371193, 0.369323, 0.590854, 0.524206, 0.522476, 0.379002, 0.382391, 0.384398, 0.392837, 0.392425, 0.390951, 0.38936, 0.389244, 0.908443, 0.494865, 0.408053, 0.407208, 0.403998, 0.404219, 0.406942, 0.413998, 0.412278, 0.411205, 0.642884, 0.427766, 0.446796, 1.05438, 0.846634, 0.483639, 1.04304, 0.508065, 0.932973, 0.531479, 0.555253, 0.555468, 0.801264, 0.628861, 0.567514, 0.566358, 0.625291, 0.62793, 0.680687, 0.882363, 0.888595, 0.98754, 0.897344, 0.8979, 0.861261, 0.834305, 0.833523, 0.847359, 0.946297, 0.919785, 0.92175, 0.919542, 0.932708, 0.93224, 1.00319, 0.954749, 0.961786, 0.962935, 0.963051, 1.00687, 1.01881, 1.00333, 1.01576, 1.01243, 1.102, 1.01448, 1.00442, 1.00557, 1.01488, 1.04023, 1.01918, 1.03243, 1.0325, 1.04963, 1.37802, 1.09785, 1.09664, 1.1126, 1.11036, 1.13156, 1.13453, 1.17506, 1.12379, 1.12504, 1.12407, 1.2099, 1.15768, 1.30673, 1.16372, 1.2334, 1.17899, 1.18033, 1.18078, 1.32071, 1.34033, 1.35754, 1.34248, 1.23141, 1.27825, 1.28606, 1.36363, 1.27831, 1.28601, 1.25029, 1.24891, 1.22441, 1.25461, 1.29764, 1.19573, 1.1884, 1.18238, 1.19548, 1.13807, 1.10841, 1.08605, 1.08324, 1.08398, 1.05906, 1.05692, 1.05638, 1.04263, 1.07004, 1.11681, 1.11706, 0.915509, 0.887291, 0.887483, 0.824754, 0.825099, 0.839232, 0.925725, 0.926659, 0.877675, 0.877817, 0.88549, 0.842804, 0.716754, 0.717457, 0.721391, 0.615204, 0.589769, 0.556774, 0.566412, 0.570057, 0.506709, 0.479225, 0.470302, 0.469763, 0.455273, 0.407308, 0.377356, 0.390834, 0.391124, 0.311437, 0.310574, 0.314741, 0.334003, 0.294945, 0.293194, 0.327854, 0.326412, 0.325091, 0.325452, 0.325158, 0.327287, 0.327521, 0.328137, 0.490087, 0.682397, 0.750976, 0.653944, 0.666698, 0.670699, 0.581297, 0.676799, 0.678637, 0.579151, 0.471746, 0.46949, 0.303782, 0.543714, 0.484691, 0.486223, 0.249376, 0.241649, 0.256977, 0.260478, 0.260469, 0.535838, 0.304491, 0.552108, 0.313251, 0.491254, 0.500403, 0.466629, 0.29969, 0.521604, 0.307534, 0.317708, 0.367087, 0.364199, 0.377388, 0.324039, 0.430375, 0.418002, 0.511327
0.377957, 0.375737, 0.367395, 0.367605, 0.369211, 0.367848, 0.366363, 0.366203, 0.365624, 0.364638, 0.738555, 0.738998, 0.738844, 0.636058, 0.48713, 0.657427, 0.594069, 0.497137, 0.332231, 0.329258, 0.3283, 0.329437, 0.330493, 0.330642, 0.331144, 0.331265, 0.538796, 0.53827, 0.37614, 0.375897, 0.378858, 0.378693, 0.379738, 0.594163, 0.3741, 0.374329, 0.379218, 0.379652, 0.384019, 0.383105, 0.39106, 0.389842, 0.389653, 0.390853, 0.729009, 0.00440237, 0.40759, 0.405327, 0.404073, 0.404781, 0.409414, 0.410614, 0.410922, 0.414092, 0.413925, 0.780311, 0.909767, 1.0536, 1.065, 0.82674, 0.924998, 0.925793, 0.521924, 0.532063, 0.550069, 0.569923, 0.610983, 0.654039, 0.680754, 0.673292, 0.666858, 0.66381, 0.856794, 0.891578, 0.89009, 0.893723, 0.892401, 0.898003, 0.888045, 0.866378, 0.849396, 0.865551, 0.868343, 0.872687, 0.892433, 0.892595, 0.9343, 0.994854, 0.994579, 0.977642, 0.977417, 0.966506, 0.967128, 1.03961, 1.03161, 1.0885, 1.2267, 1.00358, 1.03192, 1.03164, 1.02321, 1.01287, 1.02937, 1.02583, 1.05614, 1.01034, 1.03198, 1.09267, 1.1278, 1.126, 1.15756, 1.17152, 1.12299, 1.11554, 1.18824, 1.13604, 1.13575, 1.12624, 1.12311, 1.11611, 1.20289, 1.20391, 1.22039, 1.23935, 1.24512, 1.25048, 1.28619, 1.28534, 1.22374, 1.38067, 1.38154, 1.30766, 1.39137, 1.39857, 1.39661, 1.39875, 1.34363, 1.2523, 1.25199, 1.31961, 1.32017, 1.21213, 1.20972, 1.2019, 1.18243, 1.15882, 1.18079, 1.13346, 1.18858, 1.13255, 1.08775, 1.08478, 1.0582, 1.11114, 1.12917, 1.11356, 1.11026, 1.1668, 1.16754, 0.915902, 0.877562, 0.907822, 0.85109, 0.842645, 0.836623, 0.877416, 0.875642, 0.876631, 0.84354, 0.780004, 0.742863, 0.705406, 0.65388, 0.714202, 0.565942, 0.56705, 0.556987, 0.523263, 0.501432, 0.502542, 0.470596, 0.418352, 0.408155, 0.390288, 0.368833, 0.342492, 0.334897, 0.297908, 0.299763, 0.345939, 0.338136, 0.355847, 0.33507, 0.327422, 0.327371, 0.32491, 0.323483, 0.322544, 0.326089, 0.326525, 0.324971, 0.323941, 0.365998, 0.750064, 0.343263, 0.342395, 0.342679, 0.618793, 0.677569, 0.576626, 0.577015, 0.470421, 0.469665, 0.307005, 0.314164, 0.490097, 0.252341, 0.253252, 0.257126, 0.259115, 0.259689, 0.261157, 0.534765, 0.258804, 0.544223, 0.544119, 0.223974, 0.224847, 0.224529, 0.294418, 0.294587, 0.00447532, 0.541144, 0.544264, 0.354551, 0.3555, 0.322119, 0.542241, 0.37946, 0.344495
0.37907, 0.378508, 0.375606, 0.373741, 0.369024, 0.36749, 0.367295, 0.363878, 0.363768, 0.365637, 0.363806, 0.714494, 0.715388, 0.731573, 0.345665, 0.621316, 0.605201, 0.369993, 0.334707, 0.332396, 0.330141, 0.330624, 0.330842, 0.331188, 0.333454, 0.512246, 0.540413, 0.608413, 0.374967, 0.937338, 0.34555, 0.378898, 0.354742, 0.594461, 0.594078, 0.374706, 0.374165, 0.373305, 0.382827, 0.384035, 0.384731, 0.383416, 0.393963, 0.392941, 0.777762, 0.725555, 0.761347, 0.545208, 0.416613, 0.411909, 0.411649, 0.413509, 0.412924, 0.419699, 0.418887, 0.418754, 0.415644, 0.694235, 1.06161, 0.700857, 0.515257, 0.605395, 0.60685, 0.521417, 0.74901, 0.579201, 0.583066, 0.583462, 0.583545, 0.58757, 0.618473, 0.638223, 0.791207, 0.835148, 0.900911, 0.831055, 0.836451, 0.953583, 0.945491, 0.898361, 0.859576, 0.902332, 0.905927, 0.862417, 0.932324, 0.884905, 0.929749, 0.981701, 1.06992, 1.04608, 0.958425, 1.02217, 1.01888, 1.01113, 1.02227, 1.02138, 1.03687, 1.03734, 1.10455, 1.034, 1.03273, 1.16331, 1.0591, 1.06389, 1.04373, 1.07714, 1.02136, 1.0446, 1.16442, 1.12526, 1.14519, 1.14556, 1.15462, 1.14375, 1.12975, 1.10969, 1.11241, 1.08886, 1.08923, 1.1238, 1.19974, 1.16049, 1.17133, 1.24165, 1.24284, 1.24472, 1.24623, 1.24653, 1.24414, 1.31888, 1.29497, 1.28224, 1.34063, 1.38571, 1.3904, 1.39239, 1.35668, 1.34684, 1.28189, 1.29868, 1.30986, 1.29598, 1.28121, 1.22607, 1.23641, 1.19862, 1.20364, 1.19058, 1.16383, 1.13723, 1.13674, 1.20865, 1.12984, 1.05818, 1.05218, 1.05034, 1.09744, 1.07589, 1.08404, 0.90601, 0.884495, 0.854585, 0.854103, 0.850021, 0.863396, 0.862963, 0.881057, 0.85726, 0.818701, 0.819474, 0.734157, 0.686573, 0.669123, 0.649837, 0.603668, 0.612816, 0.598629, 0.573268, 0.574033, 0.51027, 0.506275, 0.392792, 0.43578, 0.370729, 0.371249, 0.341177, 0.351152, 0.322512, 0.315399, 0.292712, 0.3427, 0.342911, 0.331756, 0.285247, 0.285807, 0.320527, 0.320893, 0.321665, 0.32091, 0.323521, 0.325411, 0.32568, 0.327238, 0.342344, 0.343, 0.342906, 0.341882, 0.643279, 0.442735, 0.413722, 0.576109, 0.46014, 0.376051, 0.463577, 0.373541, 0.324475, 0.251677, 0.253493, 0.254823, 0.256011, 0.257689, 0.248457, 0.248244, 0.249188, 0.249042, 0.222347, 0.224288, 0.224554, 0.223422, 0.222446, 0.534539, 0.300601, 0.158891, 0.160358, 0.160772, 0.161029, 0.369264, 0.32516, 0.182678, 0.185418
0.380529, 0.380607, 0.378452, 0.375665, 0.372757, 0.371299, 0.370138, 0.371863, 0.370282, 0.367653, 0.364521, 0.363873, 0.36094, 0.354823, 0.349271, 0.584784, 0.753542, 0.369672, 0.367023, 0.334576, 0.332141, 0.33301, 0.333205, 0.334128, 0.393881, 0.337884, 0.334762, 0.541627, 0.373452, 0.343183, 0.344761, 0.353368, 0.355856, 0.85668, 0.372578, 0.374122, 0.375318, 0.374166, 0.373191, 0.384363, 0.383317, 0.396282, 0.396219, 0.395334, 0.394655, 0.401297, 0.402333, 0.554594, 0.549207, 0.416298, 0.41425, 0.414253, 0.41343, 0.416607, 0.419555, 0.418956, 0.418967, 0.694287, 0.694694, 0.470111, 0.457974, 0.602144, 0.607784, 0.607755, 0.745181, 0.790435, 0.925467, 0.656756, 0.671793, 0.631927, 0.65981, 0.760487, 0.842869, 0.789541, 0.86398, 0.849978, 0.945523, 0.858113, 0.854599, 0.873403, 0.863263, 0.895093, 0.864106, 0.864132, 0.874216, 0.895118, 0.912741, 0.920496, 0.943386, 0.951805, 0.973774, 0.994258, 0.973994, 0.973953, 1.04536, 1.04496, 1.01983, 1.02022, 1.09176, 1.03958, 1.0855, 1.06703, 1.07935, 1.06178, 1.05686, 1.05035, 1.05295, 1.0527, 1.13788, 1.1442, 1.14471, 1.14139, 1.14258, 1.13777, 1.15077, 1.14693, 1.15265, 1.11785, 1.13961, 1.12645, 1.13218, 1.22538, 1.158, 1.17772, 1.26788, 1.25496, 1.23544, 1.23269, 1.24068, 1.26548, 1.30613, 1.32253, 1.3301, 1.34677, 1.32065, 1.5556, 1.56463, 1.32933, 1.28221, 1.31902, 1.36835, 1.37393, 1.37313, 1.22944, 1.22892, 1.30625, 1.40334, 1.20991, 1.3106, 1.20481, 1.1491, 1.15743, 1.15419, 1.0777, 1.1062, 1.04486, 1.04408, 1.02969, 1.01756, 1.00171, 0.911876, 0.89103, 0.851359, 0.852237, 0.84789, 0.912268, 0.849203, 0.822344, 0.823021, 0.825957, 0.787102, 0.716012, 0.729485, 0.722205, 0.610948, 0.671535, 0.674209, 0.608491, 0.533021, 0.510046, 0.511375, 0.452447, 0.410825, 0.391044, 0.386201, 0.420627, 0.335146, 0.31791, 0.289074, 0.313787, 0.337263, 0.335125, 0.28264, 0.311046, 0.296739, 0.293698, 0.321188, 0.320398, 0.321601, 0.322448, 0.323871, 0.326647, 0.327356, 0.330762, 0.338138, 0.339361, 0.339742, 0.338197, 0.444159, 0.43738, 0.365411, 0.308298, 0.376107, 0.360086, 0.346054, 0.265528, 0.265589, 0.25286, 0.256455, 0.256426, 0.255911, 0.249859, 0.250264, 0.250964, 0.250327, 0.248928, 0.221802, 0.222529, 0.221997, 0.19322, 0.193307, 0.192748, 0.160376, 0.161429, 0.161813, 0.162269, 0.30809, 0.344945, 0.183083, 0.184749
0.384862, 0.383762, 0.383087, 0.380501, 0.371356, 0.370691, 0.370537, 0.371578, 0.371073, 0.368999, 0.366891, 0.366562, 0.36533, 0.356862, 0.354845, 0.35349, 0.661368, 0.34087, 0.339141, 0.337551, 0.334932, 0.33396, 0.33421, 0.334325, 0.335488, 0.337537, 0.393579, 0.541738, 0.538193, 0.345416, 0.345188, 0.522419, 0.371334, 0.360026, 0.360319, 0.373195, 0.373026, 0.37562, 0.375517, 0.38231, 0.386422, 0.399414, 0.398242, 0.398374, 0.402337, 0.401622, 0.40342, 0.402325, 0.904711, 0.878174, 0.424509, 0.423876, 0.418191, 0.417053, 0.418047, 0.424586, 0.424211, 0.4243, 0.423799, 0.701136, 0.654718, 0.573476, 0.607061, 0.608019, 0.609758, 0.658207, 0.656992, 0.632402, 0.618011, 0.673774, 0.711911, 0.794469, 0.781071, 0.78067, 0.805333, 1.06497, 1.06517, 0.856822, 0.879472, 0.911174, 0.891034, 0.906047, 0.894428, 0.900615, 0.892373, 0.891501, 0.907663, 0.911348, 0.987852, 0.971628, 0.962906, 1.01169, 0.959881, 0.978036, 1.03643, 1.0359, 1.0369, 1.01141, 1.02052, 1.02272, 1.03934, 1.08442, 1.07772, 1.05311, 1.05129, 1.0941, 1.12204, 1.08011, 1.15337, 1.12678, 1.12738, 1.13215, 1.14476, 1.14627, 1.14035, 1.14657, 1.16821, 1.16693, 1.18068, 1.14755, 1.15294, 1.27384, 1.17914, 1.18068, 1.26863, 1.28993, 1.22936, 1.25658, 1.303, 1.33271, 1.33207, 1.3138, 1.32355, 1.55096, 1.55407, 1.61632, 1.60562, 1.63034, 1.32341, 1.30913, 1.35484, 1.37075, 1.52902, 1.4295, 1.26321, 1.26054, 1.24058, 1.24782, 1.19237, 1.13082, 1.16203, 1.19022, 1.08854, 1.06638, 1.07787, 1.01811, 1.01921, 0.995804, 0.988459, 0.98108, 0.946916, 0.906531, 0.950823, 0.924693, 0.841704, 0.857209, 0.828578, 0.828433, 0.81901, 0.775462, 0.771135, 0.773547, 0.77909, 0.778251, 0.763863, 0.665078, 0.517343, 0.552859, 0.529287, 0.491713, 0.446521, 0.44593, 0.428351, 0.428483, 0.37212, 0.372127, 0.379791, 0.336547, 0.337676, 0.314455, 0.313975, 0.293468, 0.297104, 0.299156, 0.295705, 0.295763, 0.317515, 0.320765, 0.318266, 0.318641, 0.321139, 0.331265, 0.332262, 0.33345, 0.336889, 0.337467, 0.337239, 0.320749, 0.321381, 0.321387, 0.320548, 0.373213, 0.373072, 0.34562, 0.267463, 0.26861, 0.26896, 0.266296, 0.266509, 0.258056, 0.258273, 0.247295, 0.25531, 0.248759, 0.247817, 0.247388, 0.338584, 0.220677, 0.220802, 0.193952, 0.194691, 0.191639, 0.158616, 0.160103, 0.160758, 0.161067, 0.369239, 0.00471403, 0.216315, 0.21725
0.38444, 0.382598, 0.382383, 0.381672, 0.371964, 0.371554, 0.370998, 0.369866, 0.372406, 0.36959, 0.367824, 0.367039, 0.36548, 0.36059, 0.358743, 0.722481, 0.705669, 0.345422, 0.425705, 0.338298, 0.336478, 0.33567, 0.336412, 0.336756, 0.335509, 0.337998, 0.351661, 0.352201, 0.344941, 0.345205, 0.347278, 0.541231, 0.362666, 0.365124, 0.365974, 0.375697, 0.376576, 0.374757, 0.376208, 0.382776, 0.385109, 0.397078, 0.397387, 0.395451, 0.399797, 0.400242, 0.402831, 0.404453, 0.405402, 0.693485, 0.42399, 0.424362, 0.423804, 0.418103, 0.416862, 0.414879, 0.424471, 0.425074, 0.424643, 0.704895, 0.482809, 0.484004, 0.477086, 0.612747, 0.604591, 0.615218, 0.587275, 0.58081, 0.642114, 0.67246, 0.787811, 0.959518, 0.953547, 0.799007, 0.809474, 0.827898, 0.857489, 0.884342, 0.901886, 0.892372, 0.884713, 1.0555, 0.901505, 0.976242, 0.911685, 0.927015, 0.940058, 0.949957, 0.958535, 0.959881, 1.03191, 0.963612, 1.01392, 1.01231, 0.968623, 0.969714, 0.997622, 1.00285, 1.13658, 1.09252, 1.09136, 1.04752, 1.04304, 1.07875, 1.11612, 1.12309, 1.0804, 1.10501, 1.08455, 1.11253, 1.22092, 1.22072, 1.2237, 1.17727, 1.18527, 1.20833, 1.26417, 1.18434, 1.24577, 1.24623, 1.18366, 1.27413, 1.25877, 1.22394, 1.2137, 1.23165, 1.25447, 1.27196, 1.3276, 1.33657, 1.60469, 1.61267, 1.56859, 1.56736, 1.57145, 1.57985, 1.67191, 1.58243, 1.63015, 1.35355, 1.37273, 1.30236, 1.30503, 1.27228, 1.28455, 1.23, 1.18319, 1.18274, 1.14412, 1.1637, 1.11281, 1.10103, 1.09976, 1.08234, 1.06026, 1.03416, 0.990528, 0.987509, 1.0016, 0.963253, 0.963526, 0.943288, 0.938832, 0.868854, 0.880494, 0.852327, 0.826445, 0.825981, 0.880692, 0.78882, 0.769365, 0.783117, 0.778424, 0.77019, 0.72326, 0.595481, 0.51682, 0.531955, 0.53825, 0.50306, 0.451956, 0.446657, 0.439072, 0.432659, 0.371315, 0.462339, 0.348596, 0.348114, 0.335989, 0.33463, 0.296697, 0.313588, 0.314506, 0.292601, 0.349861, 0.32253, 0.321775, 0.315041, 0.31658, 0.317147, 0.3148, 0.838264, 0.332775, 0.332604, 0.334769, 0.335923, 0.334967, 0.320906, 0.321573, 0.321331, 0.320908, 0.445568, 0.287101, 0.268568, 0.268816, 0.269537, 0.268895, 0.269114, 0.260146, 0.259676, 0.260151, 0.258651, 0.255414, 0.247916, 0.248086, 0.247655, 0.493242, 0.474456, 0.352546, 0.196558, 0.197219, 0.196584, 0.542197, 0.470399, 0.534872, 0.245163, 0.246296, 0.216219, 0.218294, 0.21996
0.369541, 0.367944, 0.368978, 0.371178, 0.370818, 0.371365, 0.369239, 0.368849, 0.367337, 0.36688, 0.366103, 0.362295, 0.364462, 0.361121, 0.360439, 0.352881, 0.348594, 0.88578, 0.741975, 0.341136, 0.338463, 0.337519, 0.337978, 0.337881, 0.471092, 0.392867, 0.35208, 1.03573, 0.346792, 0.348028, 0.541523, 0.540356, 0.363835, 0.36674, 0.366821, 0.369153, 0.375476, 0.374896, 0.375188, 0.384548, 0.385067, 0.385623, 0.390626, 0.389692, 0.389851, 0.391881, 0.398532, 0.402028, 0.408885, 0.411023, 0.422724, 0.423369, 0.552251, 0.41505, 0.414936, 0.414221, 0.423811, 0.424414, 0.42735, 0.431562, 0.431086, 0.490567, 0.574668, 0.560183, 0.553497, 0.56943, 0.580215, 0.579625, 0.623281, 0.642302, 0.681651, 0.716819, 0.733142, 0.765819, 0.802728, 0.87019, 0.85961, 0.849831, 0.877699, 0.880408, 1.05905, 1.05971, 1.02961, 0.992707, 0.99042, 1.08174, 0.984897, 0.980386, 0.995901, 0.981045, 0.980851, 1.01631, 0.980878, 1.00054, 1.04666, 1.04993, 0.998614, 0.99321, 0.994261, 1.02414, 1.09815, 1.09798, 1.08517, 1.10286, 1.11889, 1.11639, 1.11979, 1.10995, 1.08994, 1.11591, 1.12713, 1.23038, 1.23009, 1.16289, 1.24007, 1.23155, 1.23407, 1.23419, 1.20825, 1.20984, 1.22658, 1.22739, 1.33285, 1.31418, 1.26435, 1.25308, 1.24695, 1.25787, 1.29917, 1.35345, 1.85199, 1.78205, 1.57816, 1.57169, 1.60939, 1.73041, 1.58736, 1.58663, 1.63627, 1.55541, 1.5829, 1.29427, 1.2634, 1.31548, 1.22835, 1.20414, 1.16861, 1.14662, 1.13779, 1.10718, 1.10615, 1.12041, 1.13194, 1.13214, 1.11287, 1.11338, 1.12246, 0.980145, 0.949232, 0.949553, 0.980943, 0.913657, 0.914514, 0.889184, 0.88919, 0.937848, 0.938626, 0.822731, 0.87322, 0.874121, 0.773879, 0.727049, 0.731372, 0.628186, 0.648605, 0.577666, 0.504347, 0.531673, 0.48147, 0.4444, 0.444657, 0.476962, 0.438206, 0.44669, 0.432115, 0.44984, 0.354419, 0.349229, 0.304088, 0.360385, 0.290387, 0.327727, 0.291426, 0.32892, 0.32422, 0.324457, 0.323989, 0.313519, 0.313739, 0.314501, 0.315455, 0.319284, 0.319547, 0.321911, 0.322589, 0.332727, 0.632749, 0.319379, 0.319233, 0.306588, 0.306643, 0.291092, 0.291843, 0.290718, 0.289944, 0.26741, 0.359025, 0.512655, 0.515231, 0.257514, 0.257417, 0.42742, 0.245732, 0.24689, 0.248237, 0.463983, 0.417417, 0.504483, 0.474964, 0.428118, 0.441022, 0.351066, 0.362502, 0.351894, 0.352242, 0.311807, 0.364489, 0.355981, 0.217605, 0.219534
0.370978, 0.369578, 0.369177, 0.371093, 0.369988, 0.369035, 0.369127, 0.367355, 0.365868, 0.365401, 0.364401, 0.363038, 0.361546, 0.36161, 0.355086, 0.354721, 0.507656, 0.346198, 0.860243, 0.805238, 0.339096, 0.339274, 0.339874, 0.340076, 0.386937, 0.344206, 0.342864, 0.342634, 0.373857, 0.348306, 0.538829, 0.352775, 0.365365, 0.366435, 0.365307, 0.369448, 0.368915, 0.368883, 0.381184, 0.383521, 0.383814, 0.384782, 0.389057, 0.388472, 0.38804, 0.388779, 0.400403, 0.401143, 0.401166, 0.406581, 0.567741, 0.728898, 0.727978, 0.548941, 0.425607, 0.425221, 0.424718, 0.426298, 0.426494, 0.427522, 0.598924, 0.622687, 0.610525, 0.552663, 0.547358, 0.548182, 0.547061, 0.618178, 0.629575, 0.648697, 0.682263, 0.698165, 0.721848, 0.778633, 0.778227, 0.95314, 0.835543, 0.846311, 0.857274, 0.866094, 1.11969, 1.11496, 1.17115, 1.03677, 1.00618, 0.992183, 1.08897, 1.06353, 1.06376, 1.05508, 1.12504, 1.12541, 1.0738, 1.09065, 1.11227, 1.15037, 1.06092, 1.02438, 1.03248, 1.03855, 1.14095, 1.14146, 1.16044, 1.15794, 1.18186, 1.20858, 1.17323, 1.15518, 1.1206, 1.11692, 1.16182, 1.22333, 1.19669, 1.156, 1.22959, 1.2238, 1.29495, 1.41243, 1.22759, 1.22348, 1.2345, 1.25362, 1.25001, 1.25761, 1.26853, 1.24441, 1.25112, 1.25455, 1.34979, 1.85877, 1.87875, 1.79241, 1.77754, 1.73866, 1.73894, 1.5717, 1.59708, 1.65114, 1.65208, 1.57064, 1.63145, 1.47938, 1.26655, 1.26696, 1.21986, 1.17237, 1.16474, 1.13718, 1.13278, 1.17542, 1.13368, 1.12796, 1.13192, 1.1201, 1.12257, 1.12164, 1.12206, 0.987753, 0.969748, 0.991595, 0.944077, 0.973094, 0.909534, 0.895862, 0.88127, 0.897645, 0.901046, 0.826114, 0.828233, 0.82915, 0.761079, 0.832317, 0.663791, 0.656568, 0.595122, 0.594911, 0.528509, 0.494346, 0.479858, 0.503131, 0.433519, 0.418275, 0.403753, 0.396927, 0.396424, 0.40889, 0.354484, 0.370131, 0.36709, 0.303975, 0.345648, 0.365733, 0.36732, 0.359267, 0.321551, 0.328296, 0.323858, 0.322957, 0.319407, 0.315453, 0.315669, 0.31691, 0.320982, 0.320091, 0.321073, 0.322161, 0.731519, 0.307198, 0.307319, 0.308257, 0.308132, 0.300363, 0.292095, 0.30444, 0.30532, 0.439204, 0.439402, 0.669032, 0.453901, 0.45538, 0.43934, 0.271624, 0.279026, 0.463462, 0.457442, 0.459379, 0.266293, 0.00459226, 0.376768, 0.426593, 0.373391, 0.422781, 0.349125, 0.355476, 0.353221, 0.354037, 0.235221, 0.230847, 0.231198, 0.23178
0.367003, 0.369225, 0.36903, 0.371469, 0.370014, 0.375917, 0.376017, 0.375076, 0.367143, 0.365833, 0.365117, 0.364654, 0.363161, 0.356882, 0.355528, 0.353953, 0.352692, 0.537768, 0.804238, 0.804165, 0.341555, 0.341189, 0.341149, 0.34172, 0.34433, 0.34447, 0.343712, 0.45295, 0.365822, 1.03939, 0.353657, 0.455259, 0.368261, 0.367037, 0.368678, 0.368531, 0.369221, 0.368354, 0.590653, 0.589362, 0.382364, 0.382391, 0.389215, 0.389086, 0.384858, 0.383807, 0.389544, 0.397292, 0.745571, 0.407424, 0.406036, 0.807981, 0.415615, 0.600942, 0.434328, 0.433464, 0.426341, 0.425067, 0.424934, 0.607233, 0.605118, 0.597823, 0.818, 0.815775, 0.550466, 0.547469, 0.587865, 0.611873, 0.629579, 0.712663, 0.743019, 0.762917, 0.857134, 0.859293, 0.835633, 0.87008, 0.908804, 0.909862, 0.878483, 0.878222, 1.03351, 1.08285, 1.02571, 1.19634, 1.13169, 1.03087, 1.00523, 1.0338, 1.06905, 1.12438, 1.12676, 1.1744, 1.01543, 1.02255, 1.10469, 1.10993, 1.11211, 1.11927, 1.10889, 1.06857, 1.11817, 1.11917, 1.11734, 1.21554, 1.17915, 1.13898, 1.13918, 1.1256, 1.11661, 1.21936, 1.21858, 1.13848, 1.21203, 1.15474, 1.22898, 1.1893, 1.18415, 1.18404, 1.24254, 1.331, 1.25307, 1.25056, 1.24985, 1.26306, 1.24469, 1.25733, 1.27485, 1.3861, 1.38772, 1.88923, 1.86886, 1.74785, 1.54213, 1.73747, 1.6344, 1.51727, 1.55802, 1.52653, 1.52622, 1.57261, 1.5782, 1.38757, 1.323, 1.24043, 1.19662, 1.19423, 1.17843, 1.19116, 1.13625, 1.13527, 1.30605, 1.12664, 1.14057, 1.14923, 1.1497, 1.19966, 1.12219, 0.98385, 0.963545, 1.0133, 1.03919, 0.939778, 1.03228, 0.9168, 0.92158, 0.897163, 0.897459, 0.830355, 0.830302, 0.83288, 0.754656, 0.666892, 0.650289, 0.648766, 0.604107, 0.510647, 0.504466, 0.505721, 0.545246, 0.479753, 0.487593, 0.486962, 0.3971, 0.449821, 0.447922, 0.476887, 0.36294, 0.380094, 0.394018, 0.407851, 0.408109, 0.336487, 0.321645, 0.323308, 0.323671, 0.323323, 0.321251, 0.318679, 0.315243, 0.311937, 0.313469, 0.317446, 0.317354, 0.317416, 0.317858, 0.317425, 0.315712, 0.314219, 0.31362, 0.311174, 0.301741, 0.302654, 0.304904, 0.305907, 0.306275, 0.305447, 0.303913, 0.419245, 0.443245, 0.422397, 0.472951, 0.275995, 0.276203, 0.276022, 0.272482, 0.406598, 0.404639, 0.403122, 0.366587, 0.40033, 0.441409, 0.380116, 0.00430714, 0.352239, 0.264861, 0.412656, 0.5038, 0.50415, 0.50394, 0.328456
0.366656, 0.372388, 0.371901, 0.371021, 0.375075, 0.3772, 0.37723, 0.376562, 0.372856, 0.366598, 0.366574, 0.365501, 0.365341, 0.363455, 0.354692, 0.353683, 0.638062, 0.857321, 0.856358, 0.611495, 0.753113, 0.342398, 0.343515, 0.344175, 0.376021, 0.376233, 0.365263, 0.364211, 0.366088, 0.36686, 1.55813, 0.355964, 0.362257, 0.362591, 0.368261, 0.368295, 0.368999, 0.370446, 0.591723, 0.590482, 0.383835, 0.384704, 0.384057, 0.386693, 0.386031, 0.384845, 0.391924, 0.392886, 0.912186, 0.402995, 0.746431, 0.411522, 0.419426, 0.420435, 0.4348, 0.434248, 0.424192, 0.423078, 0.41855, 0.431662, 0.431458, 0.586942, 0.487957, 0.496652, 0.551357, 0.561977, 0.572161, 0.627868, 0.628172, 0.629044, 0.714557, 0.77068, 0.740211, 0.776737, 0.918551, 0.956719, 0.957109, 0.920591, 0.920866, 0.906766, 0.894238, 0.877838, 1.00994, 1.02298, 1.01879, 0.971715, 0.979151, 1.03686, 1.02092, 1.00483, 0.981294, 0.978062, 0.980533, 0.998235, 1.08095, 1.07968, 1.15141, 1.15055, 1.11631, 1.12306, 1.08127, 1.06582, 1.15076, 1.11906, 1.11137, 1.19572, 1.12125, 1.12079, 1.12206, 1.23331, 1.15373, 1.14721, 1.14237, 1.1424, 1.16017, 1.17893, 1.18437, 1.18428, 1.20448, 1.21854, 1.28593, 1.28556, 1.23447, 1.23496, 1.24526, 1.26778, 1.39573, 1.39443, 1.3929, 1.91955, 1.74097, 1.7731, 1.75181, 1.75089, 1.61361, 1.55792, 1.56222, 1.55103, 1.52044, 1.61157, 1.60022, 1.30751, 1.34639, 1.22256, 1.20815, 1.20527, 1.19946, 1.21297, 1.20558, 1.18595, 1.15287, 1.10998, 1.13629, 1.13646, 1.14982, 1.03977, 1.00147, 1.0395, 0.971267, 0.963222, 0.94669, 0.953196, 0.930177, 0.928344, 0.917299, 0.903574, 0.85555, 0.856794, 0.812221, 0.805881, 0.805794, 0.673924, 0.662534, 0.624355, 0.599088, 0.624245, 0.534452, 0.539433, 0.5386, 0.513487, 0.541313, 0.482454, 0.446353, 0.439291, 0.439178, 0.400535, 0.3997, 0.413584, 0.389921, 0.406986, 0.388989, 0.326036, 0.338297, 0.329137, 0.322358, 0.320583, 0.336455, 0.334335, 0.333599, 0.313179, 0.317132, 0.317213, 0.315947, 0.315901, 0.318259, 0.316414, 0.315342, 0.314628, 0.314574, 0.303141, 0.303161, 0.303026, 0.306618, 0.305276, 0.305715, 0.304965, 0.307491, 0.414428, 0.417917, 0.42098, 0.292462, 0.293215, 0.275728, 0.276741, 0.277337, 0.279044, 0.393638, 0.403704, 0.40292, 0.266152, 0.265583, 0.43618, 0.42779, 0.321189, 0.42054, 0.24443, 0.50425, 0.338627, 0.500956, 0.502539
0.375509, 0.374916, 0.373401, 0.37068, 0.370331, 0.375245, 0.375518, 0.37294, 0.375489, 0.372513, 0.366959, 0.36706, 0.367228, 0.365289, 0.369828, 0.359099, 0.358002, 0.355323, 0.693729, 0.88029, 0.34718, 0.347025, 0.345882, 0.760373, 0.902106, 0.36766, 0.365751, 0.352372, 0.351723, 0.353573, 0.354196, 0.355671, 0.360729, 0.362189, 0.363442, 0.368664, 0.366676, 0.372062, 0.383316, 0.382455, 0.386778, 0.388691, 0.388092, 0.387527, 0.387199, 0.392208, 0.393494, 0.392732, 0.396494, 0.745776, 0.745748, 0.521001, 0.416147, 0.416621, 0.421854, 0.422469, 0.424039, 0.423337, 0.432338, 0.431932, 0.431807, 0.734336, 0.475504, 0.475237, 0.473777, 0.479093, 0.520162, 0.552988, 0.628297, 0.700194, 0.770224, 0.786549, 0.760664, 0.772314, 0.882869, 0.819831, 0.840202, 0.892156, 0.850158, 0.856485, 0.861987, 0.922425, 0.967742, 0.968208, 0.990713, 0.950271, 0.933597, 0.918581, 0.919425, 0.922763, 0.942755, 0.991528, 1.02002, 0.958206, 1.02056, 1.00502, 1.16372, 1.15783, 1.04099, 1.12545, 1.05784, 1.06689, 1.08482, 1.11934, 1.11999, 1.13561, 1.16373, 1.11533, 1.12597, 1.12458, 1.13106, 1.13383, 1.14929, 1.15336, 1.16555, 1.196, 1.20041, 1.20503, 1.21914, 1.21423, 1.25648, 1.25767, 1.26048, 1.28802, 1.31621, 1.30955, 1.36352, 1.43519, 1.75301, 1.74378, 1.74317, 1.8089, 1.73013, 1.73732, 1.73507, 1.68359, 1.55992, 1.50415, 1.53749, 1.6191, 1.56362, 1.24842, 1.2262, 1.31111, 1.20343, 1.19373, 1.1906, 1.1981, 1.27149, 1.1604, 1.12995, 1.16996, 1.18166, 1.01626, 0.988692, 0.974406, 0.974565, 0.952362, 0.970214, 0.988926, 0.988486, 0.934746, 0.966625, 0.938305, 0.939166, 0.917505, 0.841909, 0.851764, 0.786933, 0.80281, 0.790129, 0.714472, 0.71427, 0.703179, 0.624821, 0.630104, 0.663282, 0.558686, 0.559658, 0.531577, 0.518948, 0.528081, 0.453608, 0.481278, 0.449569, 0.398174, 0.399405, 0.358186, 0.389657, 0.393427, 0.326181, 0.365012, 0.321915, 0.328633, 0.329708, 0.336187, 0.337931, 0.33256, 0.333649, 0.335366, 0.319973, 0.320479, 0.317642, 0.317491, 0.315334, 0.312602, 0.313263, 0.313458, 0.303905, 0.303133, 0.301444, 0.298855, 0.299558, 0.307782, 0.3076, 0.306873, 0.510021, 0.414448, 0.413704, 0.732872, 0.288492, 0.288929, 0.279019, 0.28148, 0.281957, 0.282117, 0.28129, 0.278973, 0.390907, 0.397664, 0.372377, 0.307311, 0.26256, 0.422467, 0.422658, 0.422635, 0.323801, 0.324387, 0.320738, 0.207905
0.370902, 0.371819, 0.371121, 0.369438, 0.369395, 0.36988, 0.372198, 0.373774, 0.371393, 0.371584, 0.369114, 0.367258, 0.366844, 0.366356, 0.366063, 0.366431, 0.35861, 0.357107, 0.693412, 0.354838, 0.350937, 0.349549, 0.348835, 0.807749, 0.804437, 0.572348, 0.814127, 0.362808, 0.353052, 0.591884, 0.590864, 0.587872, 0.787823, 0.587569, 0.456213, 0.454505, 0.374013, 0.377913, 0.377245, 0.37712, 0.387211, 0.387618, 0.387739, 0.390915, 0.390622, 0.389538, 0.38797, 0.394166, 0.393379, 0.396006, 0.394978, 0.522625, 0.415753, 0.417121, 0.418488, 0.419287, 0.421987, 0.421545, 0.429974, 0.432532, 0.497269, 0.822098, 0.4488, 0.490642, 0.501474, 0.493545, 0.494948, 0.639253, 0.585583, 0.697416, 0.637123, 0.699879, 0.75301, 0.857574, 0.893972, 0.879749, 0.879651, 0.887425, 0.8733, 0.860049, 0.86057, 0.879254, 0.896677, 0.889423, 0.988363, 0.930539, 0.912009, 0.98369, 0.920904, 0.9202, 0.91929, 0.941136, 0.954505, 0.977027, 1.05679, 1.07904, 1.02311, 1.04754, 1.04771, 1.05988, 1.07045, 1.1431, 1.13327, 1.10844, 1.13308, 1.09413, 1.09527, 1.1327, 1.20908, 1.13209, 1.14772, 1.19296, 1.19543, 1.15979, 1.20681, 1.17563, 1.21024, 1.21518, 1.22125, 1.29138, 1.27394, 1.37262, 1.48033, 1.46702, 1.41871, 1.49587, 1.48168, 1.73837, 1.81328, 1.74511, 1.74433, 1.81982, 1.74576, 1.62454, 1.50932, 1.51365, 1.55454, 1.49712, 1.50092, 1.52359, 1.26462, 1.2316, 1.21759, 1.19702, 1.19614, 1.19523, 1.19316, 1.19729, 1.25529, 1.22948, 1.08763, 1.10708, 1.03217, 0.992515, 0.982367, 1.06981, 0.973807, 0.964904, 0.96765, 0.941419, 0.995619, 0.926564, 0.906427, 0.905966, 0.902893, 0.924801, 0.814656, 0.795967, 0.750034, 0.768491, 0.770218, 0.66998, 0.633628, 0.641525, 0.628203, 0.629164, 0.578412, 0.550181, 0.550077, 0.473103, 0.523582, 0.452606, 0.417571, 0.423543, 0.422192, 0.357363, 0.370018, 0.356241, 0.335316, 0.32415, 0.313855, 0.304135, 0.355631, 0.306337, 0.31819, 0.318643, 0.321894, 0.328356, 0.322169, 0.322914, 0.31745, 0.316815, 0.316811, 0.308842, 0.949434, 0.453016, 0.305013, 0.305033, 0.304841, 0.297362, 0.298798, 0.299453, 0.299256, 0.304521, 0.303811, 0.303586, 0.301975, 0.404612, 0.299475, 1.17448, 0.383329, 0.290831, 0.280296, 0.281984, 0.283605, 0.282961, 0.282235, 0.281431, 0.361792, 0.863235, 0.316154, 0.331399, 0.254918, 0.275791, 0.286238, 0.342019, 0.372468, 0.33403, 0.32385, 0.206372
0.371646, 0.371001, 0.371077, 0.369243, 0.369454, 0.369975, 0.370912, 0.372938, 0.373424, 0.372162, 0.370859, 0.369686, 0.369094, 0.363902, 0.363717, 0.364729, 0.363127, 0.369605, 0.358362, 0.548685, 0.354414, 0.352198, 0.351346, 0.655873, 0.806568, 0.68833, 0.887497, 0.355039, 0.355845, 0.359255, 0.588539, 0.686889, 0.367837, 0.368286, 0.00417492, 0.385515, 0.375704, 0.376126, 0.377932, 0.383691, 0.384359, 0.386664, 0.392465, 0.393098, 0.395054, 0.392078, 0.390526, 0.391957, 0.393478, 0.394412, 0.395753, 0.52218, 0.525221, 0.524374, 0.417041, 0.416443, 0.41565, 0.42037, 0.414889, 0.441603, 0.442216, 0.613648, 0.479581, 0.500358, 0.498253, 0.478029, 0.495094, 0.536235, 0.625743, 0.628329, 0.629038, 0.697822, 0.771895, 0.815668, 0.869848, 0.900747, 0.87983, 0.879912, 0.937239, 0.860221, 0.85949, 0.858377, 0.911348, 0.876925, 0.887906, 0.936458, 0.924834, 0.965669, 0.925519, 0.956637, 0.914953, 0.914677, 0.964839, 0.973988, 1.05693, 0.979483, 0.997389, 1.04311, 1.0561, 1.06453, 1.06917, 1.10924, 1.11529, 1.11586, 1.11686, 1.11108, 1.11208, 1.11471, 1.14965, 1.1639, 1.2382, 1.18443, 1.20879, 1.15554, 1.17902, 1.19485, 1.19921, 1.39268, 1.25749, 1.46257, 1.45072, 1.40189, 1.40567, 1.40256, 1.42714, 1.45389, 1.49447, 1.45761, 0.00420903, 1.82035, 1.76134, 1.75364, 1.72437, 1.68312, 1.61085, 1.47338, 1.46353, 1.46344, 1.50348, 1.52736, 1.24295, 1.24768, 1.21572, 1.217, 1.19488, 1.19163, 1.19314, 1.24297, 1.21515, 1.10231, 1.10458, 1.10391, 1.03035, 1.00655, 0.98844, 0.960228, 0.959823, 0.977282, 1.03817, 1.04012, 0.952704, 0.911052, 0.912957, 0.919956, 0.887411, 0.879945, 0.798555, 0.8087, 0.740046, 0.716936, 0.678218, 0.666238, 0.638508, 0.623921, 0.586542, 0.61181, 0.496526, 0.496515, 0.466103, 0.551922, 0.445089, 0.445355, 0.432407, 0.510562, 0.408141, 0.354877, 0.356117, 0.331315, 0.334457, 0.37892, 0.346744, 0.349759, 0.349609, 0.307695, 0.30777, 0.328302, 0.330847, 0.32145, 0.32292, 0.322334, 0.324764, 0.324088, 0.288292, 0.472221, 0.94884, 0.302546, 0.303343, 0.303686, 0.301703, 0.297943, 0.299041, 0.300141, 0.303106, 0.302802, 0.301788, 0.301278, 0.300587, 0.92229, 0.297621, 0.296526, 0.291886, 0.292464, 0.291392, 0.286241, 0.281119, 0.27992, 0.274589, 0.279583, 0.00439852, 0.300618, 0.329137, 0.353787, 0.35638, 0.337917, 0.333548, 0.37356, 0.189033, 0.190387, 0.19253, 0.192556
0.372551, 0.370656, 0.371024, 0.369447, 0.369075, 0.368541, 0.369183, 0.372349, 0.372566, 0.372841, 0.370877, 0.370488, 0.370005, 0.363621, 0.365129, 0.363541, 0.36753, 0.365732, 0.35947, 0.358854, 0.356182, 0.624005, 0.891292, 0.805262, 0.805587, 0.444705, 0.684448, 0.568807, 0.389701, 0.389572, 0.365046, 0.365692, 0.364878, 0.369443, 0.371655, 0.372274, 0.376122, 0.379081, 0.378824, 0.380005, 0.384075, 0.3926, 0.394409, 0.396152, 0.397901, 0.391928, 0.391003, 0.391488, 0.39196, 0.393091, 0.394555, 0.449905, 0.406595, 0.406731, 0.405647, 0.416731, 0.41664, 0.417769, 0.416938, 0.507781, 0.446802, 0.446282, 0.466963, 0.476267, 0.478582, 0.478177, 0.507412, 0.560508, 0.580653, 0.58702, 0.697319, 0.693427, 0.763949, 0.769294, 0.829506, 0.845578, 0.925233, 0.870859, 0.870524, 0.84606, 0.896789, 0.862965, 0.873318, 0.957037, 0.878294, 0.937315, 0.937973, 0.934672, 0.929059, 0.925833, 0.969529, 0.970766, 0.98679, 0.994196, 1.0033, 1.00461, 1.03977, 1.07459, 1.09431, 1.07866, 1.08056, 1.11203, 1.11287, 1.12004, 1.13461, 1.10698, 1.11055, 1.11932, 1.12155, 1.24629, 1.16025, 1.26714, 1.24031, 1.15831, 1.21349, 1.26578, 1.32468, 1.36197, 1.26221, 1.27077, 1.29451, 1.33713, 1.74459, 1.4232, 1.38657, 1.39166, 1.43817, 1.47223, 1.8697, 1.82176, 1.77591, 1.71002, 1.68156, 1.62167, 1.47503, 1.52762, 1.50654, 1.38878, 1.50551, 1.26223, 1.24759, 1.24311, 1.22103, 1.21607, 1.19933, 1.18387, 1.18466, 1.17022, 1.1702, 1.07693, 1.10002, 1.09915, 1.02693, 1.00612, 1.00959, 1.00538, 0.981707, 0.969353, 0.959973, 0.957064, 0.914422, 0.912087, 0.909774, 0.919108, 0.949324, 0.833867, 0.804916, 0.818801, 0.81707, 0.819219, 0.720409, 0.701744, 0.611913, 0.597966, 0.559554, 0.521081, 0.48901, 0.48717, 0.478622, 0.43121, 0.396869, 0.434909, 0.433423, 0.437888, 0.45573, 0.360185, 0.332119, 0.321846, 0.322775, 0.33609, 0.362865, 0.395934, 0.394634, 0.335246, 0.401222, 0.330209, 0.329263, 0.331002, 0.331788, 0.322101, 0.322917, 0.352803, 0.29737, 0.460061, 0.362317, 0.364976, 0.364668, 0.299575, 0.298987, 0.290705, 0.290122, 0.291195, 0.290109, 0.289988, 0.355803, 0.894999, 0.363158, 0.480179, 0.296655, 0.362523, 0.290192, 0.28054, 0.28146, 0.282102, 0.281748, 0.275571, 0.272002, 0.270866, 0.270815, 0.261351, 0.261034, 0.359157, 0.357661, 0.386772, 0.31025, 0.355643, 0.189947, 0.192805, 0.193261, 0.192879
0.37375, 0.373305, 0.372653, 0.371702, 0.371661, 0.368966, 0.367498, 0.3683, 0.370571, 0.372274, 0.372096, 0.369024, 0.367918, 0.366505, 0.365088, 0.363828, 0.366024, 0.36536, 0.363796, 0.36177, 0.3615, 0.359129, 0.358314, 0.662427, 0.807267, 0.432486, 0.431296, 0.577296, 0.361988, 0.366567, 0.367256, 0.366916, 0.365008, 0.36381, 0.373172, 0.373069, 0.372381, 0.378566, 0.380055, 0.380769, 0.380242, 0.379239, 0.583928, 0.394084, 0.396206, 0.389753, 0.392751, 0.391801, 0.393765, 0.394178, 0.393634, 0.399157, 0.406323, 0.406346, 0.406977, 0.419182, 0.419143, 0.419451, 0.418886, 0.419482, 0.515039, 0.513862, 0.476948, 0.478244, 0.474223, 0.50733, 0.508118, 0.555576, 0.563304, 0.598853, 0.634444, 0.694679, 0.769051, 0.947044, 0.818795, 0.811734, 0.812381, 0.84367, 0.842832, 0.85014, 0.835246, 0.892667, 0.850545, 0.90229, 0.953896, 0.929334, 0.964073, 0.981037, 0.959477, 0.945226, 0.945122, 0.956715, 0.978756, 0.986777, 1.08057, 1.14599, 1.09508, 1.13659, 1.08329, 1.08227, 1.08125, 1.10924, 1.09483, 1.12387, 1.13746, 1.14321, 1.14602, 1.19074, 1.17348, 1.23995, 1.17564, 1.17456, 1.16743, 1.23612, 1.20152, 1.27745, 1.50175, 1.24481, 1.24251, 1.2881, 1.38994, 1.39262, 1.42058, 1.42042, 1.43664, 1.49645, 1.46821, 1.43624, 1.83932, 1.77922, 1.73507, 1.69677, 1.63816, 1.485, 1.54323, 1.48095, 1.36624, 1.41301, 1.37086, 1.28158, 1.24702, 1.2618, 1.2125, 1.21349, 1.17886, 1.22288, 1.18712, 1.20834, 1.18021, 1.18121, 1.10133, 1.09824, 1.02378, 1.02892, 1.02982, 0.983811, 0.984664, 0.989742, 0.973782, 1.02345, 0.998243, 0.909602, 0.924388, 0.869199, 0.876839, 0.833594, 0.799578, 0.842089, 0.817566, 0.79485, 0.793046, 0.711631, 0.613869, 0.56943, 0.517244, 0.496593, 0.469944, 0.514335, 0.453167, 0.449887, 0.45577, 0.358822, 0.357215, 0.350651, 0.349929, 0.366878, 0.330619, 0.321585, 0.319417, 0.319842, 0.366303, 0.318766, 0.319532, 0.331765, 0.333177, 0.317842, 0.328259, 0.31928, 0.317581, 0.299696, 0.688734, 0.456142, 0.252949, 0.253755, 0.525791, 0.791996, 0.367712, 0.413487, 0.372926, 0.28715, 0.289054, 0.289708, 0.289086, 0.280336, 0.292686, 0.293642, 0.717154, 0.743404, 0.00433659, 0.289588, 0.289231, 0.281344, 0.282254, 0.282259, 0.282529, 0.271876, 0.271949, 0.272005, 0.270901, 0.260992, 0.26118, 0.353452, 0.238844, 0.214536, 0.208854, 0.209445, 0.199561, 0.200514, 0.200378, 0.193822
0.379057, 0.374699, 0.373653, 0.373243, 0.372302, 0.371481, 0.369861, 0.369746, 0.370221, 0.370755, 0.36873, 0.368706, 0.366327, 0.367185, 0.366307, 0.36413, 0.364561, 0.365769, 0.365864, 0.364364, 0.362299, 0.360937, 0.36046, 0.359275, 0.836982, 0.892632, 0.440005, 0.604986, 0.569649, 0.366418, 0.386524, 0.368034, 0.366289, 0.364958, 0.375362, 0.376225, 0.374531, 0.376592, 0.378764, 0.378737, 0.3829, 0.383293, 0.389441, 0.391, 0.39083, 0.389855, 0.391718, 0.389732, 0.391709, 0.392782, 0.393608, 0.393168, 0.451561, 0.452435, 0.411618, 0.420126, 0.420597, 0.420347, 0.419699, 0.418639, 0.41879, 0.476657, 0.479965, 0.479092, 0.489884, 0.470022, 0.494071, 0.561365, 0.544693, 0.622225, 0.667857, 0.753859, 0.796819, 0.791381, 0.944018, 0.909854, 0.823266, 0.823951, 0.842951, 0.87641, 0.9337, 0.932345, 0.895467, 1.01094, 0.957484, 0.957214, 0.967283, 1.01171, 0.984931, 0.985829, 0.986763, 0.995006, 1.01326, 1.03359, 1.1057, 1.07399, 1.07298, 1.06307, 1.05817, 1.07791, 1.08146, 1.07613, 1.06568, 1.09268, 1.10451, 1.10334, 1.10028, 1.13372, 1.24709, 1.25011, 1.25115, 1.28629, 1.28509, 1.28235, 1.20527, 1.26866, 1.50514, 1.3329, 1.26494, 1.26566, 1.38439, 1.31298, 1.34063, 1.41058, 1.4579, 1.50601, 1.44552, 1.47513, 1.74114, 1.7257, 1.65459, 1.61656, 1.39197, 1.39167, 1.31128, 1.27187, 1.26017, 1.25142, 1.25025, 1.25663, 1.2366, 1.23479, 1.21401, 1.2814, 1.16118, 1.15797, 1.1882, 1.14701, 1.17418, 1.22197, 1.06392, 1.05231, 1.14127, 1.04688, 1.04597, 1.01805, 1.03052, 1.00203, 1.17171, 1.17109, 0.97562, 0.964017, 0.868605, 0.869711, 0.825147, 0.825699, 0.906634, 0.886645, 0.815026, 0.777205, 0.654527, 0.630375, 0.628676, 0.552263, 0.526059, 0.50627, 0.500413, 0.434607, 0.434435, 0.393866, 0.393248, 0.362551, 0.362183, 0.348382, 0.342899, 0.339836, 0.325147, 0.327029, 0.325316, 0.320063, 0.31978, 0.404726, 0.322341, 0.322784, 0.322112, 0.321389, 0.319285, 0.325172, 0.322132, 0.691109, 0.690359, 0.253734, 0.254958, 0.255012, 0.257476, 0.46344, 0.793929, 0.793983, 0.388975, 0.276791, 0.27858, 0.279458, 0.280145, 0.280988, 0.318383, 0.318024, 0.6546, 0.713222, 0.798399, 0.430421, 0.315193, 0.622471, 0.280788, 0.280278, 0.269567, 0.26991, 0.27057, 0.268964, 0.345661, 0.65138, 0.30721, 0.299143, 0.207682, 0.21023, 0.210585, 0.209862, 0.200656, 0.201622, 0.202592, 0.201816
0.377661, 0.377417, 0.376299, 0.376523, 0.375789, 0.370153, 0.370116, 0.371744, 0.371367, 0.37209, 0.370983, 0.369452, 0.368637, 0.368245, 0.368059, 0.36605, 0.365272, 0.36528, 0.367721, 0.367193, 0.366034, 0.364211, 0.364092, 0.362164, 0.363, 0.653076, 0.800283, 0.569277, 0.56715, 0.375648, 0.37703, 0.377141, 0.375425, 0.372046, 0.37126, 0.374684, 0.375618, 0.375778, 0.373246, 0.370518, 0.837087, 0.838785, 1.18815, 0.590101, 0.390009, 0.39036, 0.389562, 0.388522, 0.387818, 0.38857, 0.387336, 0.395729, 0.452161, 0.406945, 0.455965, 0.454853, 0.418669, 0.418031, 0.418932, 0.419732, 0.420458, 0.41906, 0.517763, 0.459394, 0.458785, 0.486895, 0.491943, 0.524457, 0.571344, 0.600149, 0.753265, 0.753908, 0.772634, 0.929703, 0.987981, 0.851469, 0.853418, 0.849449, 0.84946, 0.947772, 0.947503, 0.897436, 0.864555, 0.894434, 0.909241, 0.932536, 0.99, 0.990397, 1.00774, 1.06052, 1.01124, 1.0225, 1.02507, 1.01629, 1.13722, 1.14648, 1.06395, 1.04273, 1.04243, 1.08592, 1.06491, 1.05655, 1.05627, 1.08454, 1.09911, 1.1066, 1.1838, 1.13936, 1.17505, 1.24665, 1.14525, 1.1405, 1.16972, 1.16883, 1.19236, 1.22608, 1.29147, 1.30494, 1.31499, 1.32458, 1.2724, 1.35223, 1.35291, 1.36797, 1.36893, 1.38667, 1.47647, 1.43019, 1.48683, 1.39049, 1.39185, 1.37349, 1.33603, 1.29142, 1.27465, 1.28517, 1.27598, 1.27624, 1.22853, 1.24964, 1.5098, 1.29901, 1.21879, 1.21594, 1.13742, 1.13923, 1.14242, 1.14068, 1.13302, 1.13021, 1.1113, 1.11135, 1.1123, 1.08394, 1.05822, 1.05773, 1.01127, 1.00856, 0.942648, 1.00811, 0.935071, 0.933936, 0.935341, 0.941064, 0.824624, 0.825814, 0.830361, 0.802115, 0.802476, 0.704542, 0.656709, 0.659643, 0.550909, 0.551649, 0.537461, 0.507959, 0.511701, 0.427031, 0.426016, 0.398307, 0.420511, 0.41434, 0.414179, 0.352764, 0.354725, 0.407769, 0.395156, 0.396683, 0.355562, 0.354222, 0.354785, 0.310153, 0.309653, 0.326914, 0.323746, 0.322767, 0.322688, 0.323764, 0.32128, 0.68952, 0.689847, 0.687036, 0.25231, 0.260824, 0.261535, 0.26182, 0.35891, 0.359256, 0.433743, 0.277696, 0.277428, 0.280194, 0.28058, 0.280229, 0.407707, 0.269886, 0.712104, 0.712601, 0.266506, 0.267615, 0.268289, 0.268226, 0.2697, 0.749365, 0.389239, 0.268083, 0.267435, 0.480228, 0.482815, 0.331016, 0.332136, 0.330117, 0.562577, 0.20733, 0.202618, 0.201685, 0.202283, 0.202406, 0.202733, 0.202087
0.377441, 0.376977, 0.376698, 0.375681, 0.375497, 0.372116, 0.370857, 0.369942, 0.371691, 0.371261, 0.370537, 0.369713, 0.367689, 0.367, 0.367109, 0.368578, 0.366269, 0.365467, 0.36628, 0.368668, 0.366486, 0.368321, 0.367432, 0.365448, 0.364375, 0.363874, 0.598759, 0.601572, 0.377768, 0.37811, 0.378645, 0.377109, 0.37748, 0.372317, 0.371802, 0.375271, 0.374406, 0.372842, 0.37244, 0.371078, 0.370211, 1.01604, 0.841009, 0.936779, 0.586921, 0.926006, 0.388881, 0.388355, 0.388016, 0.390549, 0.391933, 0.507985, 0.508212, 0.40074, 0.455499, 0.455614, 0.514472, 0.423234, 0.420689, 0.421834, 0.552854, 0.513108, 0.514667, 0.486266, 0.486225, 0.484488, 0.532374, 0.504848, 0.549054, 0.597719, 0.722424, 0.721988, 0.754438, 0.942858, 0.985812, 0.853653, 0.84598, 0.893693, 0.97706, 0.964959, 0.970849, 0.933863, 0.935337, 0.933697, 0.836414, 0.936248, 0.914411, 1.00994, 1.00089, 1.00123, 1.03544, 1.02174, 1.02494, 1.0256, 1.18649, 1.1866, 1.05452, 1.05413, 1.03646, 1.03678, 1.05744, 1.06083, 1.08441, 1.08625, 1.09871, 1.17169, 1.18323, 1.19439, 1.11251, 1.10904, 1.10886, 1.13957, 1.25723, 1.26896, 1.1855, 1.1858, 1.18678, 1.25482, 1.20618, 1.20537, 1.24995, 1.23469, 1.35119, 1.3365, 1.38182, 1.38677, 1.45183, 1.45208, 1.38967, 1.39362, 1.38075, 1.43083, 1.34982, 1.36141, 1.25177, 1.36935, 1.24079, 1.25007, 1.23019, 1.30714, 1.28259, 1.30276, 1.25725, 1.23328, 1.18129, 1.16025, 1.18496, 1.1845, 1.16795, 1.16762, 1.07919, 1.07791, 1.10799, 1.01218, 1.05186, 0.992596, 0.95865, 0.945045, 0.904087, 0.903955, 0.888794, 0.873517, 0.873469, 0.938571, 0.905173, 0.838886, 0.836091, 0.756509, 0.78712, 0.735563, 0.670624, 0.59138, 0.58496, 0.546651, 0.566946, 0.507922, 0.471547, 0.49439, 0.425275, 0.428087, 0.406854, 0.414722, 0.417316, 0.333873, 0.333716, 0.400201, 0.3972, 0.371992, 0.329581, 0.318363, 0.355674, 0.317412, 0.33129, 0.341978, 0.330411, 0.327179, 0.32398, 0.32288, 0.321373, 0.445694, 0.445322, 0.44221, 0.352515, 0.260654, 0.261168, 0.253602, 0.25361, 0.2533, 0.243542, 0.366255, 0.383742, 0.279298, 0.267153, 0.271175, 0.271814, 0.272638, 0.272709, 0.272105, 0.268285, 0.267908, 0.268382, 0.268508, 0.269033, 0.377596, 0.363431, 0.451384, 0.447407, 0.468974, 0.419972, 0.420036, 0.222473, 0.208491, 0.20974, 0.210614, 0.203745, 0.20479, 0.204798, 0.202638, 0.202372, 0.216733
0.375838, 0.376614, 0.377791, 0.376831, 0.375933, 0.373826, 0.372863, 0.372235, 0.37116, 0.371882, 0.372226, 0.375486, 0.374102, 0.374133, 0.372925, 0.371668, 0.370319, 0.365846, 0.364422, 0.36323, 0.362784, 0.366851, 0.365076, 0.366809, 0.367098, 0.365657, 0.590463, 0.599023, 0.3782, 0.378895, 0.376945, 0.376589, 0.375341, 0.375666, 0.371059, 0.36999, 0.371881, 0.373494, 0.372233, 0.371165, 0.370309, 0.3704, 0.945788, 0.939169, 0.383015, 0.382823, 0.38966, 0.39238, 0.392281, 0.39326, 0.392651, 0.392614, 0.401931, 0.402682, 0.40273, 0.403548, 0.517288, 0.519777, 0.524647, 0.434297, 0.434539, 0.433917, 0.432854, 0.430728, 0.496401, 0.495612, 0.506448, 0.503623, 0.541354, 0.556761, 0.735784, 0.717091, 0.732397, 0.805442, 0.798574, 0.918807, 0.831492, 0.913015, 0.91242, 0.89796, 1.01954, 0.936854, 0.832284, 0.819593, 0.850312, 0.849035, 0.93214, 0.945308, 0.924086, 1.01577, 1.0045, 1.06764, 1.06498, 1.03968, 1.04314, 1.03405, 1.08201, 1.13297, 1.04027, 1.06419, 1.07452, 1.13048, 1.12512, 1.157, 1.18016, 1.13551, 1.17584, 1.11249, 1.1124, 1.10818, 1.15482, 1.14398, 1.28813, 1.18919, 1.19003, 1.18486, 1.18549, 1.21605, 1.26001, 1.20753, 1.26034, 1.26329, 1.28157, 1.3482, 1.30158, 1.36755, 1.34974, 1.37757, 1.38763, 1.37564, 1.5646, 1.41908, 1.29203, 1.26555, 1.30665, 1.21003, 1.20841, 1.2022, 1.2393, 1.22454, 1.40417, 1.39352, 1.2409, 1.18964, 1.17798, 1.17899, 1.25565, 1.20801, 1.19513, 1.05451, 1.03613, 0.98956, 0.978448, 0.92867, 0.930656, 0.92477, 0.921512, 0.937105, 0.871379, 0.883478, 0.924577, 0.87693, 0.874183, 0.832883, 0.832455, 0.800634, 0.800484, 0.742431, 0.742347, 0.674457, 0.625108, 0.675379, 0.563623, 0.486989, 0.487459, 0.521018, 0.491393, 0.450628, 0.452444, 0.427342, 0.393104, 0.393943, 0.345375, 0.338064, 0.328406, 0.317465, 0.317879, 0.327537, 0.427243, 0.380851, 0.382548, 0.385216, 0.385356, 0.32911, 0.329812, 0.331256, 0.328639, 0.323788, 0.323663, 0.321942, 0.435435, 0.34512, 0.261552, 0.262727, 0.26207, 0.253135, 0.251719, 0.246831, 0.246555, 0.25778, 0.376094, 0.266307, 0.267085, 0.268311, 0.270532, 0.27203, 0.271782, 0.257636, 0.259486, 0.265009, 0.266158, 0.265948, 0.442489, 0.363573, 0.388366, 0.456568, 0.387483, 0.225241, 0.226902, 0.228039, 0.227493, 0.224895, 0.211152, 0.21182, 0.212214, 0.205008, 0.202039, 0.201303, 0.20011, 0.218047
0.346878, 0.376814, 0.378085, 0.378691, 0.378273, 0.376457, 0.373095, 0.371986, 0.371314, 0.371052, 0.372294, 0.372658, 0.372776, 0.375046, 0.372805, 0.370801, 0.370053, 0.364773, 0.364568, 0.363788, 0.364793, 0.363324, 0.365684, 0.365855, 0.368201, 0.367107, 0.393977, 0.388437, 0.378405, 0.380428, 0.381159, 0.379418, 0.376677, 0.375839, 0.373322, 0.371377, 0.370341, 0.371965, 0.373888, 0.371388, 0.370975, 0.537631, 0.540185, 0.384003, 0.384627, 0.385429, 0.383677, 0.389592, 0.39267, 0.392734, 0.391907, 0.451519, 0.401705, 0.403965, 0.402093, 0.403022, 0.403681, 0.405643, 0.538717, 0.434946, 0.435599, 0.434416, 0.432939, 0.43187, 0.432412, 0.509013, 0.481979, 0.483803, 0.581743, 0.604846, 0.6736, 0.682925, 0.681633, 0.804287, 0.831946, 0.92511, 0.916544, 0.866668, 0.916296, 0.869814, 0.871421, 0.87075, 0.811686, 0.831767, 0.804887, 0.954294, 0.9596, 0.925521, 0.914432, 0.953454, 0.995062, 1.03169, 1.05061, 1.05032, 1.06269, 1.05795, 1.06199, 1.05082, 1.05104, 1.05952, 1.09443, 1.1944, 1.11035, 1.15152, 1.15107, 1.16508, 1.1031, 1.10556, 1.10771, 1.12603, 1.12542, 1.19502, 1.26046, 1.23234, 1.19302, 1.1855, 1.18565, 1.23726, 1.22412, 1.26398, 1.26495, 1.28533, 1.27766, 1.38505, 1.28297, 1.29023, 1.39238, 1.3609, 1.38113, 1.38797, 1.36755, 1.35141, 1.29596, 1.26775, 1.29583, 1.19681, 1.19739, 1.20522, 1.20254, 1.21778, 1.21787, 1.21855, 1.15261, 1.13707, 1.15091, 1.19929, 1.19923, 1.19917, 1.03299, 1.01235, 1.00086, 0.972957, 0.988064, 0.97185, 0.967805, 0.96954, 0.929751, 0.927203, 0.929387, 0.877732, 0.837924, 0.813958, 0.874255, 0.783678, 0.805173, 0.794324, 0.779975, 0.714985, 0.704455, 0.631454, 0.563544, 0.564866, 0.54945, 0.48442, 0.462585, 0.44238, 0.431817, 0.4135, 0.414387, 0.41622, 0.40807, 0.408835, 0.355866, 0.330288, 0.328523, 0.300392, 0.318296, 0.323758, 0.348513, 0.304736, 0.381446, 0.312391, 0.311694, 0.355934, 0.328841, 0.323927, 0.324242, 0.322548, 0.322896, 0.321943, 0.42541, 0.433485, 0.435406, 0.261425, 0.262302, 0.251646, 0.251146, 0.250226, 0.257172, 0.259315, 0.259377, 0.25909, 0.266076, 0.267491, 0.268383, 0.268032, 0.258132, 0.258216, 0.258124, 0.259885, 0.442831, 0.642697, 0.443301, 0.442009, 0.386893, 0.387642, 0.21715, 0.224856, 0.228335, 0.221784, 0.22281, 0.223569, 0.223566, 0.212877, 0.21297, 0.197202, 0.199019, 0.199605, 0.199406, 0.215574
0.349121, 0.349267, 0.378126, 0.379001, 0.378992, 0.378964, 0.377381, 0.37252, 0.372365, 0.372344, 0.372333, 0.372055, 0.369726, 0.36917, 0.37091, 0.388156, 0.361105, 0.360634, 0.363465, 0.364271, 0.362386, 0.364175, 0.365942, 0.366168, 0.36992, 0.369135, 0.368864, 0.373725, 0.379215, 0.38079, 0.379295, 0.379194, 0.377709, 0.373957, 0.370807, 0.370762, 0.369676, 0.369141, 0.37404, 0.373655, 0.372418, 0.371785, 0.382519, 0.383165, 0.383107, 0.385169, 0.383783, 0.382429, 0.391467, 0.391327, 0.393298, 0.394349, 0.393957, 0.402977, 0.403791, 0.4034, 0.403233, 0.405402, 0.404281, 0.432798, 0.432891, 0.434071, 0.434188, 0.432957, 0.454838, 0.481648, 0.482306, 0.480906, 0.576908, 0.570241, 0.644852, 0.67388, 0.676642, 0.76713, 0.776611, 0.774337, 0.769745, 0.800007, 0.771298, 0.786646, 0.783888, 0.918127, 0.804322, 0.821444, 0.815252, 0.884964, 0.900519, 0.901855, 0.93296, 0.981878, 0.988218, 0.969736, 1.00777, 1.00239, 1.00346, 1.06502, 1.06798, 1.0597, 1.06823, 1.18194, 1.16931, 1.13579, 1.10314, 1.13897, 1.1296, 1.16284, 1.12568, 1.11594, 1.14282, 1.1529, 1.12925, 1.14673, 1.25996, 1.15556, 1.18864, 1.18424, 1.18122, 1.25436, 1.23761, 1.31176, 1.26344, 1.26128, 1.31626, 1.29256, 1.30965, 1.30459, 1.34808, 1.30938, 1.34411, 1.44245, 1.46085, 1.46024, 1.25133, 1.25806, 1.22071, 1.28072, 1.21611, 1.18467, 1.17344, 1.18407, 1.1718, 1.17388, 1.17178, 1.11945, 1.09294, 1.08562, 1.08138, 1.05195, 1.01888, 0.992697, 0.992726, 1.0474, 0.984165, 1.00181, 1.00159, 0.94968, 0.889623, 0.929299, 0.929944, 0.851052, 0.752761, 0.77546, 0.774258, 0.770099, 0.769185, 0.798239, 0.739201, 0.750206, 0.589809, 0.58299, 0.564018, 0.563345, 0.56137, 0.48617, 0.461371, 0.420605, 0.410181, 0.405423, 0.404627, 0.446444, 0.430865, 0.357339, 0.356943, 0.397178, 0.466008, 0.465932, 0.289338, 0.451188, 0.250457, 0.250728, 0.422128, 0.29084, 0.310942, 0.28976, 0.3247, 0.323254, 0.321729, 0.319834, 0.32302, 0.859739, 0.854181, 0.400764, 0.478739, 0.431346, 0.339261, 0.249219, 0.591084, 0.590785, 0.262829, 0.2595, 0.260311, 0.260175, 0.259931, 0.259389, 0.261972, 0.261435, 0.25985, 0.259882, 0.25945, 0.257717, 0.69298, 0.332324, 0.675479, 0.340833, 0.215424, 0.216787, 0.217882, 0.21861, 0.226198, 0.226919, 0.2251, 0.223609, 0.223544, 0.223315, 0.197689, 0.198658, 0.200819, 0.200352, 0.215451, 0.215985
0.349384, 0.347722, 0.584292, 0.378879, 0.378991, 0.379102, 0.377991, 0.375398, 0.372101, 0.370871, 0.371124, 0.369858, 0.368931, 0.370377, 0.369008, 0.367413, 0.359823, 0.359997, 0.368369, 0.367023, 0.362255, 0.363046, 0.362591, 0.361721, 0.36184, 0.365634, 0.36662, 0.647142, 0.37873, 0.37955, 0.382219, 0.379425, 0.378049, 0.376773, 0.375718, 0.368945, 0.368697, 0.368642, 0.373951, 0.373154, 0.373584, 0.377384, 0.376658, 0.385787, 0.384469, 0.38262, 0.382402, 0.381413, 0.381066, 0.390719, 0.391137, 0.39541, 0.39587, 0.394514, 0.395257, 0.401157, 0.401457, 0.402216, 0.402089, 0.538797, 0.538754, 0.489238, 0.570266, 0.504528, 0.491748, 0.492191, 0.491598, 0.48159, 0.481509, 0.538956, 0.607385, 0.609048, 0.67126, 0.672777, 0.690352, 0.732911, 0.73779, 0.731289, 0.748145, 0.773137, 0.830211, 0.80817, 0.818676, 0.875169, 0.898289, 0.896044, 0.997906, 0.985216, 0.984229, 0.984091, 0.977847, 0.976608, 1.02273, 1.00764, 1.06927, 1.07555, 1.07659, 1.06265, 1.07662, 1.14914, 1.37815, 1.26352, 1.27176, 1.11202, 1.08125, 1.08101, 1.11586, 1.11244, 1.12557, 1.18678, 1.18599, 1.21463, 1.15992, 1.15816, 1.15689, 1.16047, 1.1974, 1.22841, 1.28786, 1.28801, 1.2883, 1.27791, 1.27494, 1.29008, 1.29202, 1.3609, 1.29576, 1.35422, 1.27389, 1.42649, 1.42706, 1.25215, 1.24229, 1.29455, 1.344, 1.22714, 1.21112, 1.19648, 1.1919, 1.19193, 1.19286, 1.19677, 1.21862, 1.18099, 1.10288, 1.09251, 1.08851, 1.04946, 1.06, 0.988245, 1.00492, 0.999604, 1.0014, 0.995878, 0.989765, 0.914562, 0.963686, 0.961489, 0.895126, 0.811673, 0.811313, 0.739358, 0.744653, 0.745531, 0.708821, 0.625352, 0.666919, 0.611736, 0.616014, 0.529199, 0.50076, 0.502009, 0.459833, 0.460693, 0.442135, 0.41725, 0.391589, 0.39056, 0.397173, 0.396941, 0.352585, 0.352286, 0.358099, 0.35625, 0.449368, 0.276682, 0.276716, 0.392632, 0.252642, 0.252893, 0.279648, 0.286855, 0.317856, 0.338657, 0.322373, 0.324488, 0.319581, 0.321069, 0.321675, 0.320299, 0.319537, 0.87833, 0.330507, 0.331734, 0.335504, 0.334846, 0.293966, 0.293919, 0.261497, 0.262462, 0.261427, 0.259286, 0.258707, 0.260611, 0.26256, 0.261469, 0.260579, 0.258536, 0.257836, 0.379165, 0.344256, 0.343208, 0.212698, 0.213303, 0.214658, 0.217766, 0.218528, 0.218857, 0.223146, 0.224758, 0.225738, 0.225614, 0.225104, 0.221008, 0.22023, 0.201576, 0.201677, 0.21538, 0.216321, 0.216966
0.339357, 0.347841, 0.586465, 0.377843, 0.378985, 0.378956, 0.378232, 0.376994, 0.37117, 0.370274, 0.369585, 0.366843, 0.368369, 0.366509, 0.368875, 0.367479, 0.36672, 0.368933, 0.368806, 0.368427, 0.364507, 0.362138, 0.362731, 0.362958, 0.361955, 0.369049, 0.368997, 0.36864, 0.376335, 0.37019, 0.369285, 0.378007, 0.377268, 0.376417, 0.375531, 0.367369, 0.367218, 0.366353, 0.365095, 0.366195, 0.375589, 0.373997, 0.378357, 0.378495, 0.380211, 0.379861, 0.378815, 0.37804, 0.378801, 0.385311, 0.385773, 0.387258, 0.393899, 0.396489, 0.396998, 0.396726, 0.39763, 0.397663, 0.405302, 0.405621, 0.767783, 0.829223, 0.504327, 0.485059, 0.560946, 0.49293, 0.492906, 0.483681, 0.506872, 0.563282, 0.543205, 0.586429, 0.659708, 0.662475, 0.658307, 0.657805, 0.724236, 0.743376, 0.726395, 0.783506, 0.782519, 0.839934, 1.17829, 1.11984, 1.08907, 1.03908, 1.03522, 0.979664, 1.02921, 0.958018, 0.95956, 0.994442, 1.08759, 1.00452, 1.08251, 1.00789, 1.08399, 1.05681, 1.04087, 1.03924, 1.05648, 1.04693, 1.13991, 1.09234, 1.08935, 1.08094, 1.12257, 1.13358, 1.13745, 1.19484, 1.19571, 1.45658, 1.16476, 1.17195, 1.16075, 1.16742, 1.15507, 1.18392, 1.30217, 1.26112, 1.25906, 1.27197, 1.27052, 1.32451, 1.28054, 1.28066, 1.27727, 1.27695, 1.27445, 1.27381, 1.34077, 1.31294, 1.27138, 1.22427, 1.25034, 1.2256, 1.22524, 1.19531, 1.21604, 1.18156, 1.21536, 1.27178, 1.17716, 1.17797, 1.11297, 1.09926, 1.08135, 1.08843, 1.10578, 1.07379, 1.07381, 0.994352, 1.00814, 0.995454, 0.924833, 0.99096, 0.907921, 0.907371, 0.860372, 0.776769, 0.776173, 0.775948, 0.727974, 0.701756, 0.688668, 0.687127, 0.611372, 0.587833, 0.529822, 0.531658, 0.493814, 0.453219, 0.452054, 0.430729, 0.439942, 0.412231, 0.431762, 0.359686, 0.361479, 0.362265, 0.350344, 0.417341, 0.357064, 0.35627, 0.278606, 0.277871, 0.275611, 0.340102, 0.236283, 0.316418, 0.315023, 0.31599, 0.335503, 0.335284, 0.31827, 0.319198, 0.320109, 0.320183, 0.319834, 0.318487, 0.320075, 0.320507, 0.318847, 0.329797, 0.327832, 0.890476, 0.272094, 0.273023, 0.272352, 0.258947, 0.259044, 0.257885, 0.248759, 0.258116, 0.259945, 0.260278, 0.260431, 0.259858, 0.351708, 0.349181, 0.335505, 0.212383, 0.212474, 0.213979, 0.214119, 0.216267, 0.217045, 0.231206, 0.232468, 0.225882, 0.226871, 0.226939, 0.223752, 0.22114, 0.381962, 0.228294, 0.230612, 0.262099, 0.21722, 0.212457
0.349854, 0.351701, 0.350634, 0.588475, 0.378981, 0.379041, 0.379042, 0.37772, 0.372591, 0.370484, 0.369242, 0.368327, 0.36977, 0.3677, 0.364768, 0.3684, 0.369287, 0.368718, 0.368104, 0.362943, 0.361883, 0.361438, 0.360821, 0.360909, 0.362127, 0.369534, 0.368683, 0.36552, 0.364745, 0.37049, 0.370277, 0.368989, 0.373153, 0.374398, 0.37383, 0.37287, 0.372134, 0.373349, 0.365918, 0.372866, 0.372603, 0.370919, 0.371378, 0.379149, 0.378255, 0.377549, 0.378933, 0.379042, 0.378591, 0.382525, 0.383011, 0.381991, 0.389163, 0.388289, 0.397452, 0.400138, 0.4002, 0.399596, 0.399589, 0.405993, 0.405376, 0.602475, 0.470359, 0.562093, 0.562443, 0.692633, 0.692157, 0.499833, 0.517622, 0.598144, 0.566747, 0.631057, 0.628903, 0.623103, 0.645424, 0.644885, 0.726091, 0.701481, 0.710283, 0.778058, 0.777093, 0.94386, 0.928449, 0.927869, 0.919877, 1.04197, 0.919504, 0.923584, 0.935968, 0.949738, 0.994445, 1.00001, 1.00812, 1.00802, 1.05988, 1.06739, 1.04515, 1.04156, 1.04349, 1.04418, 1.03189, 1.02521, 1.03962, 1.04268, 1.06395, 1.08263, 1.17486, 1.14387, 1.14337, 1.17423, 1.17093, 1.20306, 1.2057, 1.22604, 1.22483, 1.14082, 1.13105, 1.13214, 1.16512, 1.21641, 1.25121, 1.3562, 1.30676, 1.27115, 1.27962, 1.27811, 1.27856, 1.27846, 1.27863, 1.27279, 1.27192, 1.38872, 1.34795, 1.21935, 1.24804, 1.18905, 1.19994, 1.18543, 1.24445, 1.35025, 1.36722, 1.22978, 1.15737, 1.13649, 1.12086, 1.09459, 1.09423, 1.11685, 1.07623, 1.07842, 1.01312, 1.01514, 0.962585, 0.910406, 0.910548, 0.909329, 0.910562, 0.89825, 0.812745, 0.779916, 0.781209, 0.731665, 0.742656, 0.689799, 0.691023, 0.674065, 0.61179, 0.593297, 0.537176, 0.624043, 0.531684, 0.490462, 0.45523, 0.43091, 0.431649, 0.407579, 0.385205, 0.361796, 0.363635, 0.35445, 0.362783, 0.331384, 0.367681, 0.301939, 0.29578, 0.385752, 0.389074, 0.242879, 0.243967, 0.318141, 0.310497, 0.317431, 0.316906, 0.317354, 0.305119, 0.32175, 0.333256, 0.317932, 0.319202, 0.319136, 0.318611, 0.318954, 0.319069, 0.318532, 0.31781, 0.738455, 0.901646, 0.891481, 0.414947, 0.255265, 0.542933, 0.241713, 0.242736, 0.243153, 0.252159, 0.25001, 0.250617, 0.251039, 0.360067, 0.218322, 0.213903, 0.215142, 0.215945, 0.214842, 0.213802, 0.213224, 0.36644, 0.233309, 0.233801, 0.234407, 0.235561, 0.224654, 0.238302, 0.239819, 0.295589, 0.342988, 0.342637, 0.301385, 0.214661, 0.217147
0.34452, 0.354326, 0.355334, 0.35664, 0.378816, 0.379148, 0.379199, 0.378112, 0.374407, 0.372595, 0.369262, 0.368659, 0.36762, 0.366863, 0.364517, 0.362046, 0.369958, 0.37157, 0.364381, 0.362936, 0.361714, 0.361569, 0.360046, 0.362279, 0.360927, 0.362301, 0.365286, 0.364884, 0.365929, 0.365539, 0.365575, 0.369816, 0.3701, 0.373823, 0.374016, 0.373552, 0.375087, 0.3757, 0.375975, 0.37539, 0.374599, 0.37517, 0.373286, 0.372496, 0.377918, 0.377378, 0.376094, 0.375561, 0.378982, 0.378109, 0.379874, 0.379442, 0.387235, 0.388477, 0.387687, 0.399576, 0.399097, 0.397515, 0.394812, 0.402678, 0.400481, 0.399624, 0.612608, 0.611251, 0.56582, 0.509114, 0.510449, 0.614352, 0.508258, 0.636578, 0.566498, 0.656539, 0.631286, 0.630018, 0.629548, 0.636918, 0.663112, 0.718052, 0.72513, 0.739272, 0.918546, 1.0077, 0.930441, 0.918811, 0.918236, 1.02718, 1.02578, 0.929943, 0.978845, 0.98986, 0.963989, 0.955193, 1.03253, 1.06424, 1.00905, 0.994128, 0.993806, 1.02677, 1.02894, 1.03934, 1.03811, 1.02004, 1.02092, 1.03281, 1.05218, 1.06342, 1.1111, 1.10931, 1.1885, 1.18216, 1.16497, 1.18953, 1.19286, 1.18219, 1.15129, 1.14816, 1.13989, 1.12952, 1.1618, 1.17463, 1.21559, 1.2618, 1.39699, 1.36427, 1.4053, 1.27403, 1.3499, 1.28162, 1.28089, 1.38833, 1.37781, 1.35516, 1.37773, 1.24352, 1.18202, 1.25096, 1.18476, 1.14072, 1.16836, 1.15446, 1.24858, 1.24995, 1.25365, 1.14486, 1.14354, 1.1329, 1.0673, 1.06471, 1.06527, 1.02429, 1.02492, 1.03882, 1.02937, 0.960045, 0.974786, 0.907557, 0.907005, 0.888535, 0.875964, 0.828794, 0.742304, 0.74302, 0.743157, 0.657913, 0.646388, 0.613137, 0.608871, 0.611923, 0.512002, 0.521377, 0.505495, 0.511569, 0.49202, 0.43836, 0.407636, 0.407828, 0.408597, 0.355334, 0.353336, 0.38396, 0.366446, 0.331905, 0.312935, 0.304088, 0.365291, 0.292564, 0.269134, 0.244711, 0.245099, 0.247176, 0.247221, 0.292793, 0.345509, 0.30495, 0.302887, 0.314402, 0.313902, 0.325709, 0.337388, 0.316339, 0.316897, 0.320309, 0.319379, 0.31894, 0.319147, 0.738237, 0.738332, 0.738489, 0.323525, 0.323977, 0.51477, 0.24086, 0.241084, 0.252572, 0.254246, 0.253313, 0.251739, 0.251298, 0.345678, 0.22037, 0.220406, 0.217555, 0.220605, 0.220351, 0.220535, 0.220138, 0.392115, 0.382807, 0.237594, 0.238645, 0.240918, 0.241827, 0.241518, 0.242392, 0.243248, 0.243707, 0.243795, 0.21214, 0.214342, 0.216088
0.345939, 0.345158, 0.352614, 0.351736, 0.617367, 0.373026, 0.378946, 0.37989, 0.379438, 0.372487, 0.367792, 0.369621, 0.366551, 0.36464, 0.364285, 0.363032, 0.365267, 0.365783, 0.363818, 0.364185, 0.362762, 0.36048, 0.358553, 0.358178, 0.357675, 0.357217, 0.542945, 0.366428, 0.366702, 0.366466, 0.366457, 0.366312, 0.366512, 0.372852, 0.369763, 0.378599, 0.379021, 0.376341, 0.374838, 0.373615, 0.639436, 0.375905, 0.375529, 0.37275, 0.371111, 0.376089, 0.376507, 0.375883, 0.377318, 0.377632, 0.377178, 0.376481, 0.376158, 0.375553, 0.393329, 0.393159, 0.39495, 0.393967, 0.393063, 0.521254, 0.398282, 0.398192, 0.397277, 0.566863, 0.567986, 0.565392, 0.615014, 0.517766, 0.601021, 0.711864, 0.711162, 0.745768, 0.81482, 0.629318, 0.629887, 0.628699, 0.642563, 0.646451, 0.665822, 0.656967, 0.810787, 0.95828, 0.995639, 1.0016, 0.818918, 0.787559, 0.78812, 0.869986, 0.820121, 0.88052, 0.950632, 0.981145, 0.981993, 0.986509, 0.999884, 0.992197, 0.987869, 0.988467, 0.988658, 1.0173, 1.02769, 1.04378, 1.02121, 1.04192, 1.09073, 1.0605, 1.11583, 1.11523, 1.23427, 1.13577, 1.13716, 1.1471, 1.1875, 1.14944, 1.1497, 1.12141, 1.12971, 1.15116, 1.19249, 1.19172, 1.19133, 1.26812, 1.38601, 1.48027, 1.3061, 1.31662, 1.40322, 1.3059, 1.3666, 1.55403, 1.48932, 1.35146, 1.33813, 1.33554, 1.2183, 1.18998, 1.1303, 1.12642, 1.12575, 1.12901, 1.13025, 1.10773, 1.1147, 1.10067, 1.18198, 1.12946, 0.998246, 1.02554, 0.994422, 0.959271, 0.935855, 0.915974, 0.894351, 0.903782, 0.884708, 0.898657, 0.89957, 0.866439, 0.867763, 0.846372, 0.767822, 0.771038, 0.705872, 0.700276, 0.691665, 0.604416, 0.525099, 0.524436, 0.512556, 0.512614, 0.486324, 0.459791, 0.465837, 0.477731, 0.412403, 0.414255, 0.411148, 0.351856, 0.365582, 0.347695, 0.347372, 0.313435, 0.314168, 0.302385, 0.29396, 0.281385, 0.272268, 0.280819, 0.244751, 0.338033, 0.314111, 0.349062, 0.289843, 0.303103, 0.303114, 0.317968, 0.31812, 0.326503, 0.315257, 0.316055, 0.316545, 0.318384, 0.319023, 0.318561, 0.31736, 0.311588, 0.313668, 0.435991, 0.4366, 0.321932, 0.32239, 0.271621, 0.343644, 0.250196, 0.250897, 0.251107, 0.25093, 0.349015, 0.347766, 0.346794, 0.220846, 0.223618, 0.226296, 0.22263, 0.221165, 0.220474, 0.335543, 0.379064, 0.239713, 0.241395, 0.242938, 0.244264, 0.244668, 0.244103, 0.245012, 0.245654, 0.245259, 0.244541, 0.213112, 0.237044
0.345452, 0.344388, 0.351589, 0.357486, 0.356422, 0.52494, 0.38151, 0.382119, 0.381505, 0.645667, 0.367541, 0.367121, 0.366318, 0.365058, 0.364425, 0.362389, 0.360806, 0.364305, 0.36375, 0.363343, 0.361636, 0.358877, 0.360607, 0.36026, 0.359401, 0.358427, 0.356586, 0.356723, 0.366076, 0.364449, 0.365567, 0.365416, 0.365769, 0.366379, 0.364789, 0.365152, 0.379416, 0.37975, 0.378596, 0.374339, 0.375925, 0.376848, 0.373594, 0.372354, 0.371665, 0.37134, 0.369691, 0.370194, 0.371696, 0.372203, 0.372146, 0.37917, 0.376112, 0.375733, 0.385688, 0.385701, 0.393238, 0.395041, 0.394124, 0.392728, 0.391897, 0.391414, 0.391569, 0.616865, 0.615578, 0.458171, 0.606159, 0.524546, 0.524162, 0.524613, 0.524317, 0.569077, 0.502614, 0.58762, 0.528239, 0.530294, 0.532716, 0.562207, 0.598948, 0.601786, 0.825898, 0.806268, 0.806985, 0.826137, 0.773174, 0.772749, 0.901622, 0.908636, 0.851194, 1.02468, 1.02409, 0.938489, 0.981133, 0.961507, 0.960318, 0.960909, 1.00278, 1.00213, 0.993906, 0.994426, 1.08464, 1.01462, 1.01483, 1.0207, 1.02423, 1.06994, 1.20587, 1.10987, 1.11176, 1.15811, 1.09103, 1.09512, 1.10263, 1.1297, 1.09841, 1.13246, 1.13626, 1.14686, 1.18001, 1.19318, 1.19412, 1.23991, 1.2374, 1.39255, 1.29505, 1.31265, 1.34058, 1.30453, 1.43451, 1.43428, 1.46051, 1.47229, 1.45523, 1.38379, 1.29711, 1.16291, 1.14589, 1.16045, 1.12543, 1.12216, 1.12314, 1.11683, 1.09223, 1.09118, 1.0262, 1.02858, 0.987633, 1.03901, 0.967041, 1.00074, 0.952919, 0.937446, 0.871248, 0.879728, 0.835672, 0.858867, 0.871144, 0.894195, 0.90257, 0.860257, 0.768922, 0.735265, 0.676118, 0.676836, 0.659072, 0.642513, 0.594364, 0.509073, 0.540395, 0.501724, 0.488709, 0.476138, 0.466484, 0.452087, 0.463007, 0.47589, 0.451997, 0.354446, 0.354798, 0.349027, 0.310729, 0.314056, 0.309204, 0.295138, 0.295832, 0.282595, 0.295928, 0.293703, 0.298829, 0.301376, 0.301249, 0.302477, 0.342061, 0.33385, 0.317695, 0.318555, 0.323595, 0.324316, 0.324964, 0.317587, 0.318368, 0.318899, 0.318595, 0.317977, 0.317901, 0.316436, 0.311802, 0.311189, 0.437455, 0.436442, 0.441641, 0.38411, 0.38248, 0.251135, 0.252177, 0.253567, 0.242066, 0.242, 0.231013, 0.232175, 0.231526, 0.227461, 0.228468, 0.22884, 0.227964, 1.02681, 0.235516, 0.32435, 0.352659, 0.241093, 0.242426, 0.244385, 0.244412, 0.244283, 0.244265, 0.244835, 0.244326, 0.216709, 0.217625, 0.21441
0.346388, 0.347212, 0.362616, 0.361246, 0.361677, 0.362858, 0.422218, 0.384362, 0.38446, 0.383774, 0.797794, 0.650027, 0.36411, 0.36326, 0.362133, 0.361367, 0.360069, 0.357347, 0.359593, 0.363252, 0.36221, 0.361897, 0.361553, 0.360765, 0.359197, 0.358022, 0.358865, 0.358148, 0.358235, 0.36537, 0.36573, 0.365348, 0.362229, 0.364616, 0.36431, 0.367243, 0.367905, 0.382646, 0.381664, 0.380136, 0.375992, 0.375486, 0.374869, 0.372147, 0.369869, 0.369581, 0.371029, 0.370028, 0.369274, 0.372448, 0.371555, 0.370594, 0.57056, 0.387083, 0.387646, 0.386348, 0.386098, 0.386843, 0.391796, 0.392396, 0.392278, 0.393092, 0.394802, 0.808941, 0.728121, 0.457991, 0.559166, 0.524374, 0.524383, 0.519023, 0.518326, 0.502295, 0.506383, 0.504449, 0.504015, 0.498695, 0.534996, 0.558696, 0.610977, 0.597578, 0.619186, 0.781549, 0.776236, 0.809873, 0.834029, 0.832725, 0.794647, 0.793983, 1.00469, 1.00501, 0.924909, 0.922176, 0.939366, 0.942971, 0.961773, 0.98553, 1.00934, 1.00554, 1.12356, 0.977151, 0.975846, 1.06511, 1.06563, 1.09186, 1.04299, 1.05795, 1.10343, 1.10239, 1.11554, 1.0548, 1.06351, 1.0639, 1.07615, 1.16166, 1.13954, 1.10814, 1.10952, 1.13364, 1.14051, 1.23306, 1.23749, 1.26159, 1.26546, 1.30841, 1.31214, 1.28492, 1.31165, 1.29979, 1.2951, 1.29618, 1.22847, 1.44882, 1.25557, 1.25332, 1.19191, 1.18515, 1.12442, 1.11269, 1.13406, 1.121, 1.19176, 1.16939, 1.08295, 1.09652, 1.02236, 1.01776, 0.96913, 0.95405, 0.932685, 0.915166, 0.893712, 0.889611, 0.857883, 0.845466, 0.837628, 0.805061, 0.819529, 0.846797, 0.861782, 0.942734, 0.815386, 0.735208, 0.641968, 0.656343, 0.587909, 0.571422, 0.548854, 0.52872, 0.477456, 0.49042, 0.475611, 0.462945, 0.446044, 0.413468, 0.476136, 0.477366, 0.361681, 0.40857, 0.407865, 0.321426, 0.315589, 0.31351, 0.307058, 0.298753, 0.297159, 0.297081, 0.297295, 0.297881, 0.301953, 0.303096, 0.313558, 0.298383, 0.341731, 0.322534, 0.322779, 0.326881, 0.329444, 0.330633, 0.332364, 0.3166, 0.318748, 0.317363, 0.31741, 0.317473, 0.316425, 0.312639, 0.312393, 0.31168, 0.442476, 0.444064, 0.4433, 0.271408, 0.383752, 0.251251, 0.25215, 0.254568, 0.253329, 0.23213, 0.233689, 0.233387, 0.232615, 0.227417, 0.227991, 0.228751, 0.227795, 0.42045, 0.613838, 0.614622, 0.714174, 0.71151, 0.460357, 0.242022, 0.241495, 0.241648, 0.411643, 0.237189, 0.216998, 0.218621, 0.21875, 0.220174
0.343647, 0.341938, 0.363553, 0.363316, 0.363477, 0.362127, 0.361712, 0.386293, 0.386416, 0.386196, 0.385842, 0.655617, 0.429111, 0.365257, 0.360244, 0.358818, 0.358415, 0.357854, 0.359077, 0.363244, 0.363023, 0.361269, 0.360912, 0.36084, 0.361535, 0.359735, 0.35846, 0.357808, 0.357179, 0.359809, 0.361774, 0.363375, 0.362436, 0.362963, 0.36498, 0.364653, 0.365137, 0.382416, 0.381314, 0.380436, 0.783916, 0.372691, 0.371556, 0.372475, 0.371324, 0.369866, 0.368907, 0.369011, 0.369685, 0.370142, 0.370455, 0.370156, 0.377841, 0.385109, 0.387277, 0.38795, 0.387782, 0.387882, 0.389486, 0.388415, 0.518076, 0.521711, 0.488507, 0.401131, 0.400856, 0.81205, 0.562843, 0.559326, 0.515779, 0.519405, 0.511592, 0.510302, 0.504764, 0.503635, 0.503694, 0.504492, 0.505133, 0.519716, 0.562633, 0.577886, 0.59383, 0.681014, 0.69871, 0.76058, 0.801746, 0.753178, 0.735696, 0.814992, 0.89091, 0.891239, 0.890353, 0.914818, 0.948259, 0.934237, 0.966057, 0.965691, 0.977542, 1.0043, 0.986805, 0.981054, 0.973988, 0.973435, 1.00197, 0.980053, 0.97956, 1.05915, 1.09957, 1.07892, 1.08553, 1.0348, 1.03587, 1.01449, 1.03927, 1.05067, 1.08775, 1.11536, 1.11282, 1.1285, 1.1742, 1.2983, 1.29194, 1.33775, 1.21239, 1.27832, 1.30141, 1.24791, 1.30581, 1.26231, 1.25376, 1.20203, 1.24604, 1.24497, 1.19165, 1.34399, 1.20225, 1.10576, 1.14639, 1.09889, 1.0884, 1.06056, 1.07433, 1.06402, 1.20465, 1.05698, 1.02667, 0.98864, 0.953819, 0.947272, 1.0629, 0.929621, 0.889797, 0.868101, 0.842249, 0.83997, 0.842167, 0.768082, 0.831342, 0.955199, 0.956547, 0.797837, 0.75285, 0.75288, 0.641338, 0.62644, 0.542279, 0.541934, 0.549723, 0.467055, 0.477664, 0.47665, 0.460277, 0.485665, 0.483107, 0.459977, 0.44556, 0.359878, 0.341828, 0.405522, 0.410373, 0.3628, 0.36876, 0.309044, 0.297085, 0.297537, 0.298592, 0.298719, 0.296396, 0.31083, 0.310984, 0.302973, 0.320942, 0.321566, 0.322894, 0.323169, 0.3237, 0.325744, 0.32737, 0.321453, 0.333957, 0.332956, 0.315782, 0.317469, 0.319657, 0.31795, 0.313655, 0.313333, 0.311306, 0.30753, 0.316209, 0.312561, 0.272272, 0.272663, 0.272282, 0.265741, 0.262058, 0.243387, 0.243727, 0.243711, 0.242909, 0.231512, 0.228347, 0.227147, 0.227434, 0.218711, 0.216899, 0.215658, 0.61081, 0.218951, 0.713851, 0.708725, 0.462396, 0.400915, 0.343288, 0.691935, 0.411612, 0.414655, 0.216341, 0.220007, 0.218583, 0.216867
0.343383, 0.341807, 0.34044, 0.363663, 0.364301, 0.362765, 0.361904, 0.384635, 0.3886, 0.38906, 0.388206, 0.386914, 0.431853, 0.365811, 0.364783, 0.361451, 0.360206, 0.360403, 0.359809, 0.358172, 0.361347, 0.362151, 0.360483, 0.358644, 0.360447, 0.358504, 0.355061, 0.356573, 0.353621, 0.352597, 0.361293, 0.360288, 0.357317, 0.349324, 0.34903, 0.361852, 0.373443, 0.373845, 0.373674, 0.373695, 0.372599, 0.372414, 0.372203, 0.372114, 0.372312, 0.37001, 0.369352, 0.369667, 0.369923, 0.368879, 0.366526, 0.366043, 0.366489, 0.382125, 0.38151, 0.386511, 0.387705, 0.386699, 0.388476, 0.388512, 0.517927, 0.469491, 0.522229, 0.400167, 0.400035, 0.590773, 0.459367, 0.458553, 0.563192, 0.501085, 0.503348, 0.508908, 0.584772, 0.600468, 0.508817, 0.505481, 0.508552, 0.517816, 0.520632, 0.616009, 0.585308, 0.58124, 0.664658, 0.669653, 0.670377, 0.776508, 0.768205, 0.783142, 0.925058, 0.923564, 0.892451, 0.899732, 0.920579, 0.932365, 1.00138, 0.973544, 0.973493, 1.00093, 1.03915, 1.00778, 0.947408, 0.949058, 0.977064, 1.0282, 0.977271, 0.988572, 0.999227, 1.03013, 0.999767, 0.994942, 1.03937, 1.04611, 1.03654, 1.06807, 1.07168, 1.20588, 1.19284, 1.20495, 1.18395, 1.24462, 1.25639, 1.16421, 1.18222, 1.28056, 1.13794, 1.22306, 1.20007, 1.21589, 1.15398, 1.17865, 1.19084, 1.17312, 1.24402, 1.24946, 1.14337, 1.15673, 1.17782, 1.08211, 1.00782, 0.990497, 0.96716, 1.00369, 1.00559, 0.939781, 0.933854, 0.933225, 0.899937, 1.10085, 1.09986, 0.956689, 0.892444, 0.876512, 0.842166, 0.845616, 0.776686, 0.735975, 0.715133, 0.713976, 0.697918, 0.709189, 0.767557, 0.78201, 0.64805, 0.615832, 0.613632, 0.545591, 0.450525, 0.479376, 0.442537, 0.443442, 0.441613, 0.433228, 0.442754, 0.436782, 0.366666, 0.367169, 0.368329, 0.405792, 0.317489, 0.317449, 0.41391, 0.310858, 0.312789, 0.288355, 0.300316, 0.299858, 0.308999, 0.318379, 0.315271, 0.312992, 0.323471, 0.323337, 0.321964, 0.321187, 0.323881, 0.324389, 0.322031, 0.322096, 0.322234, 0.322749, 0.321828, 0.321098, 0.319134, 0.319268, 0.31409, 0.313254, 0.310818, 0.308775, 0.296815, 0.29658, 0.292735, 0.349262, 0.386014, 0.385189, 0.240548, 0.249395, 0.243114, 0.244091, 0.243882, 0.230292, 0.23004, 0.227895, 0.227011, 0.215167, 0.213834, 0.208397, 0.204752, 0.206062, 0.205059, 0.336777, 0.392382, 0.468315, 0.343543, 0.345289, 0.410518, 0.35098, 0.449256, 0.215429, 0.216918, 0.217018
0.341377, 0.340096, 0.339804, 0.359305, 0.360109, 0.364795, 0.442378, 0.441809, 0.605617, 0.389875, 0.389762, 0.389206, 0.980556, 0.98305, 0.772538, 0.360892, 0.361589, 0.360278, 0.360671, 0.359356, 0.358384, 0.358395, 0.359223, 0.36161, 0.359311, 0.359122, 0.357418, 0.355594, 0.354117, 0.355035, 0.353297, 0.352724, 0.351398, 0.350844, 0.350087, 0.349708, 0.37395, 0.374927, 0.374309, 0.373324, 0.372978, 0.372102, 0.372686, 0.372248, 0.372116, 0.540074, 0.540493, 0.369786, 0.369257, 0.368638, 0.366513, 0.366597, 0.36587, 0.371853, 0.382626, 0.383445, 0.386068, 0.387034, 0.386027, 0.385146, 0.520411, 0.520095, 0.523694, 0.524388, 0.3909, 0.391348, 0.391821, 0.545704, 0.555533, 0.505174, 0.508183, 0.57444, 0.572746, 0.604445, 0.515706, 0.514717, 0.509157, 0.515554, 0.515846, 0.562812, 0.581339, 0.614879, 0.614976, 0.619186, 0.63942, 0.660697, 0.686264, 0.710696, 0.864711, 0.856171, 0.855361, 0.874425, 0.888586, 0.946333, 0.974582, 0.949897, 0.943666, 0.943335, 1.00789, 0.998428, 0.93779, 0.967193, 1.05632, 0.96069, 0.964536, 1.06877, 1.04074, 1.02443, 1.08568, 0.992534, 0.993477, 0.991758, 1.03208, 1.04103, 1.16196, 1.19645, 1.1965, 1.23606, 1.23602, 1.26313, 1.26335, 1.11967, 1.11927, 1.17555, 1.19141, 1.15727, 1.15712, 1.1573, 1.1325, 1.14747, 1.15394, 1.18845, 1.18497, 1.1682, 1.16119, 1.11141, 1.09984, 1.09092, 0.994489, 1.04286, 0.935953, 0.914054, 1.00794, 0.89991, 0.947478, 0.947448, 0.963174, 0.958802, 0.930912, 0.948957, 0.946456, 0.91832, 0.859993, 0.774591, 0.76261, 0.787969, 0.69804, 0.702387, 0.703998, 0.751712, 0.753777, 0.687459, 0.646438, 0.647366, 0.64926, 0.480567, 0.489437, 0.451095, 0.420755, 0.423374, 0.421726, 0.449976, 0.352054, 0.401472, 0.400434, 0.351568, 0.345086, 0.321087, 0.320886, 0.469028, 0.308169, 0.304109, 0.301804, 0.298305, 0.300862, 0.300016, 0.289826, 0.320136, 0.341939, 0.328312, 0.333477, 0.33334, 0.322144, 0.321527, 0.32343, 0.325291, 0.324543, 0.32234, 0.323454, 0.323009, 0.322573, 0.321892, 0.319143, 0.318202, 0.312465, 0.312926, 0.311886, 0.310303, 0.351989, 0.298357, 0.355164, 0.352677, 0.431585, 0.361781, 0.383718, 0.242941, 0.243492, 0.243408, 0.242888, 0.352988, 0.22818, 0.51389, 0.189461, 0.189576, 0.210365, 0.1962, 0.196125, 0.195406, 0.195123, 0.403921, 0.375883, 0.386289, 0.21389, 0.21411, 0.212829, 0.393741, 0.209505, 0.44957, 0.21608, 0.216541
0.34248, 0.340976, 0.339719, 0.340326, 0.399669, 0.363848, 0.364678, 0.363422, 0.605826, 0.603481, 0.528727, 0.507661, 0.65246, 0.576546, 0.776252, 0.362779, 0.363191, 0.362389, 0.36157, 0.358368, 0.359178, 0.359835, 0.362211, 0.361431, 0.358997, 0.357929, 0.355712, 0.354712, 0.355205, 0.354483, 0.354826, 0.353819, 0.352983, 0.348068, 0.355434, 0.35681, 0.358429, 0.376616, 0.376363, 0.375484, 0.373245, 0.372706, 0.372491, 0.373132, 0.374865, 0.375131, 0.375748, 0.376777, 0.37566, 0.370702, 0.370131, 0.368866, 0.363643, 0.364686, 0.369969, 0.384902, 0.385728, 0.385901, 0.385928, 0.382627, 0.390296, 0.389861, 0.814242, 0.813871, 0.392541, 0.391457, 0.39083, 0.532797, 0.558776, 0.558095, 0.510644, 0.51039, 0.541651, 0.542863, 0.544116, 0.514371, 0.517456, 0.516997, 0.508581, 0.542673, 0.543165, 0.566624, 0.586546, 0.605948, 0.687753, 0.67671, 0.679575, 0.677802, 0.796723, 0.760519, 0.804702, 0.838407, 0.942503, 0.932133, 0.930742, 0.934795, 0.952777, 0.951462, 0.909303, 0.965922, 0.995771, 1.01092, 0.957224, 0.945488, 0.944587, 0.950161, 1.07685, 1.00462, 0.998999, 0.998845, 0.976975, 0.97705, 1.03181, 1.03997, 1.0822, 1.23398, 1.18806, 1.10858, 1.09589, 1.1213, 1.14146, 1.13515, 1.12903, 1.21634, 1.17105, 1.17199, 1.17774, 1.15245, 1.15182, 1.18558, 1.15901, 1.09942, 1.13474, 1.16591, 1.12062, 1.05049, 1.0833, 1.01801, 0.987616, 1.02361, 1.02328, 0.920374, 0.891771, 0.881474, 0.882006, 0.83543, 0.839761, 0.795309, 0.829039, 0.915287, 0.881829, 0.878228, 0.836369, 0.828291, 0.760171, 0.676323, 0.676276, 0.698027, 0.700445, 0.680043, 0.594347, 0.614643, 0.585842, 0.515011, 0.494897, 0.47293, 0.465361, 0.420786, 0.462078, 0.39668, 0.425776, 0.444686, 0.352751, 0.352716, 0.33722, 0.335476, 0.344515, 0.330497, 0.329758, 0.31626, 0.310627, 0.312981, 0.303098, 0.299532, 0.299943, 0.29323, 0.29351, 0.337742, 0.339271, 0.330164, 0.330941, 0.334825, 0.325101, 0.326406, 0.327211, 0.328194, 0.328492, 0.325709, 0.328237, 0.320871, 0.330755, 0.318455, 0.319924, 0.313462, 0.313959, 0.30816, 0.307133, 0.306343, 0.306194, 0.331158, 0.332704, 0.528109, 0.430897, 0.514677, 0.376986, 0.376799, 0.240505, 0.33767, 0.505379, 0.351085, 0.35341, 0.353074, 0.190991, 0.19268, 0.192669, 0.192743, 0.195217, 0.195969, 0.195702, 0.19244, 0.19238, 0.192786, 0.192818, 0.192472, 0.191439, 0.210533, 0.209634, 0.193111, 0.193724, 0.191558
0.342038, 0.34076, 0.339167, 0.338185, 0.33907, 1.01203, 0.365503, 0.365176, 0.369555, 0.659598, 0.604417, 0.511575, 0.511311, 0.394748, 0.64564, 0.445062, 0.376534, 0.369623, 0.365281, 0.366438, 0.361352, 0.36031, 0.359862, 0.359316, 0.358954, 0.358029, 0.35716, 0.356169, 0.356064, 0.355725, 0.354846, 0.354677, 0.353222, 0.353267, 0.353706, 0.356488, 0.356752, 0.375268, 0.375204, 0.374092, 0.372846, 0.372287, 0.372636, 0.376609, 0.378262, 0.377336, 0.377166, 0.377203, 0.375935, 0.371011, 0.369111, 0.367214, 0.366606, 0.370458, 0.370415, 0.372295, 0.372884, 0.376362, 0.376768, 0.378692, 0.385464, 0.670885, 0.521667, 0.389991, 0.390908, 0.39088, 0.390225, 0.390026, 0.496922, 0.569076, 0.552347, 0.61254, 0.54566, 0.544948, 0.543715, 0.750389, 0.51258, 0.511891, 0.509803, 0.508027, 0.530678, 0.535567, 0.582508, 0.690266, 0.687534, 0.684747, 0.678411, 0.678668, 0.727424, 0.710365, 0.697302, 0.739563, 0.790748, 0.835668, 0.905885, 0.89446, 0.894629, 0.931986, 0.87275, 0.872483, 0.949934, 0.950253, 0.914572, 0.897643, 1.0049, 0.954531, 0.95563, 0.963428, 1.00155, 0.994632, 0.984354, 0.991809, 0.999596, 1.00415, 1.14237, 1.12585, 1.12922, 1.05996, 1.03554, 1.08425, 1.11762, 1.04585, 1.04614, 1.17191, 1.17824, 1.13637, 1.1881, 1.11456, 1.07624, 1.04709, 1.09758, 1.0416, 1.05738, 1.04353, 1.07084, 1.07022, 1.01807, 1.00399, 0.918119, 0.90188, 0.909294, 0.911339, 0.919807, 0.861862, 0.818648, 0.763821, 0.760078, 0.742628, 0.742413, 0.739935, 0.731242, 0.939178, 0.83501, 0.819085, 0.795493, 0.743107, 0.701445, 0.711353, 0.623807, 0.648162, 0.641274, 0.566259, 0.497496, 0.517188, 0.456532, 0.439798, 0.410885, 0.408619, 0.406954, 0.40703, 0.349578, 0.348105, 0.348266, 0.349146, 0.337748, 0.331656, 0.319326, 0.323596, 0.323936, 0.324446, 0.438459, 0.438875, 0.439111, 0.295865, 0.483847, 0.373679, 0.380901, 0.423789, 0.3499, 0.349169, 0.337714, 0.337373, 0.330537, 0.329889, 0.33102, 0.330763, 0.330585, 0.330958, 0.842144, 0.331363, 0.331002, 0.318509, 0.318527, 0.309523, 0.310522, 0.309539, 0.307105, 0.306273, 0.303969, 0.304015, 0.344016, 0.340869, 0.310827, 0.311669, 0.313732, 0.373124, 0.331803, 0.335498, 0.338695, 0.235169, 0.234714, 0.18915, 0.18935, 0.192437, 0.192282, 0.192534, 0.193128, 0.194103, 0.193216, 0.192277, 0.192822, 0.192807, 0.194377, 0.193586, 0.193486, 0.194754, 0.195427, 0.19712, 0.195775, 0.194738
0.340894, 0.341716, 0.339986, 0.33889, 0.341567, 0.615949, 0.361511, 0.371599, 0.370224, 0.369085, 0.599178, 0.601372, 0.512591, 0.397995, 0.621655, 0.780949, 0.749342, 0.718753, 0.375567, 0.565427, 0.372037, 0.366988, 0.365034, 0.362887, 0.361051, 0.360503, 0.360636, 0.359903, 0.360204, 0.358744, 0.356633, 0.355329, 0.353624, 0.354028, 0.354409, 0.356188, 0.356538, 0.359471, 0.593691, 0.370724, 0.370726, 0.406655, 0.404518, 0.378311, 0.378053, 0.381411, 0.381727, 0.377576, 0.377282, 0.368579, 0.367744, 0.365629, 0.359173, 0.36813, 0.373627, 0.37574, 0.374663, 0.375286, 0.378071, 0.382781, 0.382498, 0.382537, 0.384621, 0.384203, 0.526518, 0.386255, 0.385802, 0.387393, 0.559326, 0.548699, 0.549558, 0.619925, 0.545446, 0.544813, 0.533927, 0.545126, 0.532988, 0.480865, 0.549574, 0.548286, 0.545277, 0.563199, 0.576632, 0.576488, 0.690412, 0.638351, 0.651663, 0.651874, 0.65223, 0.676498, 0.67648, 0.706751, 0.738307, 0.758575, 0.847762, 0.820072, 0.849333, 0.862823, 0.828342, 0.839765, 0.868725, 0.870831, 0.90571, 0.898371, 1.06841, 0.962552, 0.963444, 1.0187, 1.00579, 1.00821, 0.962773, 1.02168, 0.971104, 0.982096, 0.999139, 1.00221, 1.0193, 1.01562, 1.01325, 1.00261, 1.0531, 1.05306, 1.15843, 1.0636, 1.17145, 1.0943, 1.10941, 1.04862, 1.0396, 1.0234, 1.03089, 1.02937, 1.03303, 1.01682, 1.02622, 0.993591, 0.993104, 0.919282, 0.952999, 0.949088, 0.904976, 0.889854, 0.888541, 0.818997, 0.804242, 0.742916, 0.741695, 0.710453, 0.699129, 0.70094, 0.645503, 0.635958, 0.826099, 0.827314, 0.745056, 0.752463, 0.631354, 0.651967, 0.596769, 0.543262, 0.556066, 0.522307, 0.501959, 0.450216, 0.442113, 0.438805, 0.379799, 0.379163, 0.4111, 0.455495, 0.344798, 0.345784, 0.34443, 0.34425, 0.344311, 0.318203, 0.318937, 0.319453, 0.325879, 0.325364, 0.318136, 0.317458, 0.330881, 0.355477, 0.355379, 0.3379, 0.337847, 0.338081, 0.351495, 0.351127, 0.329751, 0.331436, 0.330782, 0.331676, 0.331224, 0.326022, 0.327766, 0.327587, 0.32613, 0.326595, 0.326465, 0.309786, 0.311463, 0.311636, 0.311096, 0.308477, 0.306364, 0.304765, 0.303524, 0.297681, 0.324119, 0.321502, 0.312947, 0.312279, 0.31274, 0.273145, 0.355335, 0.331684, 0.297889, 0.331421, 0.520878, 0.490289, 0.307362, 0.188872, 0.341246, 0.190243, 0.339088, 0.188222, 0.621589, 0.294258, 0.190808, 0.289592, 0.191877, 0.192867, 0.192541, 0.194208, 0.19482, 0.195627, 0.194457, 0.191373
0.340723, 0.340105, 0.338918, 0.339912, 0.339289, 0.358195, 0.358166, 0.356648, 0.355848, 0.597493, 0.512187, 0.459158, 0.400492, 0.400438, 0.399988, 0.777204, 0.777557, 0.78084, 0.378878, 0.380376, 0.379226, 0.372839, 0.370981, 0.367266, 0.365868, 0.36643, 0.362414, 0.361705, 0.360503, 0.361126, 0.35964, 0.355085, 0.353433, 0.347219, 0.34621, 0.355958, 0.359956, 0.359941, 0.359085, 0.578264, 0.403831, 0.42909, 0.480534, 1.26656, 0.383327, 0.382899, 0.382839, 0.380376, 0.377077, 0.726771, 0.367755, 0.360287, 0.35936, 0.375378, 0.375833, 0.376073, 0.37554, 0.621182, 0.387639, 0.386717, 0.38437, 0.383835, 0.385828, 0.384845, 0.3847, 0.386149, 0.38546, 0.384483, 0.384393, 0.450757, 0.549995, 0.551608, 0.537774, 0.537702, 0.538229, 0.537436, 0.482953, 0.482124, 0.479338, 0.478467, 0.479, 0.527622, 0.556316, 0.570303, 0.593449, 0.631531, 0.655473, 0.654121, 0.645644, 0.622312, 0.648607, 0.683172, 0.69511, 0.758102, 0.801265, 0.8275, 0.832645, 0.811794, 0.892234, 0.892163, 0.890745, 0.926928, 0.924623, 0.889298, 0.916617, 0.894019, 0.917871, 0.933523, 1.01729, 0.977409, 0.978406, 0.953648, 0.951968, 0.938654, 0.952942, 0.967597, 0.964763, 0.995759, 1.00229, 0.994256, 0.991623, 1.04805, 1.0395, 1.06542, 1.08168, 1.14656, 0.968954, 0.9595, 0.959464, 0.97441, 0.994376, 1.04473, 1.07072, 1.00174, 1.00202, 0.987515, 0.981226, 0.860655, 0.85367, 0.855804, 0.860284, 0.858792, 0.890875, 0.822473, 0.762727, 0.798264, 0.6797, 0.673704, 0.639068, 0.638499, 0.639336, 0.607673, 0.61129, 0.592556, 0.609552, 0.601114, 0.632886, 0.546224, 0.481898, 0.483297, 0.517364, 0.503802, 0.464074, 0.449215, 0.452555, 0.400591, 0.396807, 0.37936, 0.517756, 0.351306, 0.3351, 0.336952, 0.325008, 0.333901, 0.32464, 0.326937, 0.328369, 0.330082, 0.330002, 0.321148, 0.317149, 0.321824, 0.324468, 0.356434, 0.356949, 0.338257, 0.33881, 0.338187, 0.539542, 0.337461, 0.335385, 0.335547, 0.333565, 0.332716, 0.332925, 0.334169, 0.333944, 0.326285, 0.326804, 0.325819, 0.328098, 0.313964, 0.31348, 0.313265, 0.308888, 0.308182, 0.307633, 0.299771, 0.299974, 0.296902, 0.348047, 0.324396, 0.338955, 0.510692, 0.27057, 0.271482, 0.358678, 0.260989, 0.260282, 0.517936, 0.518684, 0.283201, 0.307692, 0.287836, 0.284685, 0.776431, 0.779435, 0.829426, 0.31864, 0.389737, 0.300635, 0.338254, 0.362765, 0.372254, 0.321295, 0.325285, 0.324042, 0.32194, 0.318598, 0.331828
0.340699, 0.339683, 0.338743, 0.338055, 0.342625, 0.342737, 0.35717, 0.357259, 0.556197, 0.541805, 0.514217, 0.515779, 0.402707, 0.403168, 0.402727, 0.401853, 0.397276, 0.780031, 0.780292, 0.783694, 0.383598, 0.372566, 0.372521, 0.372164, 0.366142, 0.364757, 0.364293, 0.365361, 0.363664, 0.362155, 0.357239, 0.352631, 0.351975, 0.350255, 0.348255, 0.351924, 0.355411, 0.355722, 0.448749, 0.362886, 0.832038, 0.602975, 0.598954, 0.36955, 0.369832, 0.376898, 0.375968, 0.377404, 0.375562, 0.371845, 0.370713, 0.369321, 0.368752, 0.372247, 0.37744, 0.376837, 0.375928, 0.377075, 0.378915, 0.386149, 0.385354, 0.385905, 0.384461, 0.385244, 0.385911, 0.38588, 0.385589, 0.384815, 0.386154, 0.386365, 0.58324, 0.582922, 0.552306, 0.53661, 0.538002, 0.698283, 0.514177, 0.481846, 0.479807, 0.486184, 0.47945, 0.533038, 0.528788, 0.563061, 0.58814, 0.631838, 0.653121, 0.625876, 0.618394, 0.623875, 0.622731, 0.666933, 0.692174, 0.778515, 0.815145, 0.818619, 0.759791, 0.783829, 0.777117, 0.828698, 0.891901, 0.943209, 0.884836, 0.882504, 0.883651, 0.884852, 0.89918, 0.909732, 0.922675, 0.929383, 0.965852, 0.984357, 0.972459, 0.876826, 0.909239, 0.90116, 0.929185, 0.916948, 0.971256, 0.991433, 0.991289, 1.00267, 1.08427, 0.974868, 0.919671, 0.922443, 0.905447, 0.896034, 0.895393, 0.920916, 0.986418, 1.00181, 1.05825, 1.0377, 1.02361, 0.981888, 0.943106, 0.93105, 0.931951, 0.801236, 0.891593, 0.894977, 0.839499, 0.819024, 0.69875, 0.688753, 0.653791, 0.611173, 0.590323, 0.53871, 0.538846, 0.552483, 0.539704, 0.53654, 0.542431, 0.587549, 0.573862, 0.481041, 0.501193, 0.477053, 0.459073, 0.499173, 0.418594, 0.401091, 0.404161, 0.432612, 0.425144, 0.515343, 0.353053, 0.35261, 0.336024, 0.442501, 0.327012, 0.317347, 0.327668, 0.324889, 0.327133, 0.331374, 0.330943, 0.32122, 0.325256, 0.326081, 0.327188, 0.327773, 0.328513, 0.317627, 0.318362, 0.31819, 0.332816, 0.334916, 0.337205, 0.335959, 0.336724, 0.336076, 0.335079, 0.336837, 0.334582, 0.335231, 0.32764, 0.328426, 0.32532, 0.312994, 0.314289, 0.314415, 0.308137, 0.308006, 0.301406, 0.30005, 0.297921, 0.295912, 0.294268, 0.279678, 0.280825, 0.280334, 0.276024, 0.274963, 0.272862, 0.264293, 0.265201, 0.26526, 0.263677, 0.261167, 0.260157, 0.259151, 0.258195, 0.285422, 0.00461562, 0.446014, 0.673997, 0.257264, 0.309336, 0.366542, 0.250132, 0.249803, 0.249726, 0.237504, 0.238461, 0.240429, 0.240787, 0.59481
0.340513, 0.338298, 0.339986, 0.338703, 0.337951, 0.567358, 0.559177, 0.369267, 0.370393, 0.370499, 0.372276, 0.597981, 0.51413, 0.404969, 0.405271, 0.403785, 0.403673, 0.783366, 0.391778, 0.389374, 0.386312, 0.383975, 0.370943, 0.37287, 0.364977, 0.364976, 0.364043, 0.363435, 0.365018, 0.364096, 0.359397, 0.352563, 0.351521, 0.352227, 0.351876, 0.355407, 0.354135, 0.487427, 0.438639, 0.36099, 0.360904, 0.762874, 0.372222, 0.371935, 0.372327, 0.372466, 0.370734, 0.375999, 0.370547, 0.370652, 0.371953, 0.372046, 0.370612, 0.37099, 0.373476, 0.375321, 0.375413, 0.374668, 0.622603, 0.621732, 0.382766, 0.385591, 0.383969, 0.383815, 0.383433, 0.38305, 0.386915, 0.38635, 0.385929, 0.38593, 0.384507, 0.383123, 0.497231, 0.584235, 0.586362, 0.481211, 0.480649, 0.481519, 0.482996, 0.492793, 0.490871, 0.536492, 0.533238, 0.577172, 0.572548, 0.57266, 0.661192, 0.68835, 0.686528, 0.653218, 0.649417, 0.659403, 0.670195, 0.684481, 0.721323, 0.755916, 0.708246, 0.712482, 0.722277, 0.81281, 0.759912, 0.873768, 0.919592, 0.937461, 0.88674, 0.903536, 0.86566, 0.880785, 0.894766, 0.968625, 0.912427, 0.967199, 0.911249, 0.97164, 0.892828, 0.891752, 0.891502, 0.901, 0.911258, 0.893657, 0.974761, 0.87335, 0.943258, 0.96426, 0.957619, 0.87833, 0.861309, 0.860463, 0.864052, 0.868146, 0.976991, 0.937048, 1.03369, 1.00229, 0.980954, 0.884234, 0.856806, 0.75585, 0.762663, 0.737848, 0.7249, 0.742853, 0.733061, 0.750884, 0.706639, 0.652159, 0.731819, 0.574481, 0.594206, 0.551937, 0.5391, 0.538695, 0.488697, 0.512072, 0.483689, 0.483203, 0.476581, 0.477792, 0.478793, 0.555015, 0.448626, 0.55565, 0.427611, 0.46328, 0.379986, 0.494441, 0.404715, 0.344381, 0.343682, 0.420324, 0.442552, 0.307615, 0.337884, 0.316712, 0.313585, 0.313064, 0.312698, 0.313935, 0.316741, 0.341584, 0.330918, 0.33393, 0.327823, 0.328759, 0.325679, 0.317894, 0.318059, 0.317488, 0.318159, 0.334492, 0.336203, 0.337639, 0.336661, 0.336617, 0.337447, 0.337153, 0.335345, 0.335108, 0.327001, 0.325294, 0.32423, 0.32341, 0.313512, 0.312472, 0.30893, 0.304756, 0.300813, 0.299737, 0.30042, 0.298458, 0.29494, 0.280947, 0.281781, 0.281501, 0.281871, 0.2676, 0.268178, 0.268173, 0.267711, 0.267173, 0.265449, 0.264319, 0.26351, 0.26213, 0.261497, 0.261603, 0.261837, 0.26204, 0.262034, 0.260057, 0.618299, 0.721696, 0.252028, 0.251235, 0.251864, 0.251125, 0.241253, 0.24185, 0.242698, 0.241183
0.340591, 0.341033, 0.338712, 0.338098, 0.338072, 0.338541, 0.33766, 0.362299, 0.372307, 0.370007, 0.369553, 0.370343, 0.788047, 0.405503, 0.406423, 0.406623, 0.404959, 0.404082, 0.395016, 0.393557, 0.390922, 0.389293, 0.386591, 0.384485, 0.363106, 0.364902, 0.365047, 0.363993, 0.364508, 0.363363, 0.360328, 0.355047, 0.352028, 0.351439, 0.352377, 0.354117, 0.355493, 0.354788, 0.438239, 0.360021, 0.832572, 0.833329, 0.767588, 0.373498, 0.372627, 0.372352, 0.369429, 0.366179, 0.365958, 0.369143, 0.370695, 0.371365, 0.372154, 0.372047, 0.368972, 0.37289, 0.367626, 0.37033, 0.37053, 0.369123, 0.382238, 0.382378, 0.381252, 0.38009, 0.37913, 0.383416, 0.384737, 0.383924, 0.386034, 0.385513, 0.385479, 0.384446, 0.569312, 0.591668, 0.591673, 0.593391, 0.480064, 0.48143, 0.472742, 0.472029, 0.462301, 0.584296, 0.518075, 0.51818, 0.612327, 0.555693, 0.569086, 0.615112, 0.592227, 0.593133, 0.634492, 0.6701, 0.65868, 0.732559, 0.691643, 0.678147, 0.681551, 0.683745, 0.683447, 0.757514, 0.738132, 0.819117, 0.792111, 0.820255, 0.886221, 0.899161, 0.871473, 0.840824, 0.887143, 0.886995, 0.84761, 0.938945, 0.854552, 0.85047, 0.855996, 0.851592, 0.852443, 0.900858, 0.856772, 0.844496, 0.919449, 0.949744, 0.973948, 0.847237, 0.849166, 0.856606, 0.855494, 0.842749, 0.830443, 0.835756, 0.849278, 0.848553, 0.971389, 0.971963, 1.00334, 0.818595, 0.796177, 0.791419, 0.71449, 0.702637, 0.655466, 0.653796, 0.688744, 0.684106, 0.65127, 0.636163, 0.567377, 0.562296, 0.542437, 0.52047, 0.514372, 0.502663, 0.490883, 0.475537, 0.476737, 0.483087, 0.443762, 0.441694, 0.446047, 0.554466, 0.556644, 0.556652, 0.440083, 0.44009, 0.4668, 0.354427, 0.353632, 0.311095, 0.331174, 0.431264, 0.41608, 0.31006, 0.314217, 0.323758, 0.323872, 0.314079, 0.313307, 0.316974, 0.307639, 0.342494, 0.344327, 0.34364, 0.32456, 0.328489, 0.321318, 0.320244, 0.319386, 0.321481, 0.322864, 0.323649, 0.322945, 0.341375, 0.335616, 0.336834, 0.335803, 0.333286, 0.334341, 0.334677, 0.328135, 0.327523, 0.327341, 0.31675, 0.317108, 0.312494, 0.309802, 0.307905, 0.300224, 0.299841, 0.300288, 0.311983, 0.293647, 0.27925, 0.280695, 0.27947, 0.276796, 0.268821, 0.270124, 0.268904, 0.268408, 0.265465, 0.265687, 0.264746, 0.263937, 0.263642, 0.263629, 0.263141, 0.263019, 0.264851, 0.265229, 0.265118, 0.264828, 0.260337, 0.260808, 0.261183, 0.253441, 0.238547, 0.239916, 0.240962, 0.24127, 0.240721
